-174.076625923174 27.549009962402 -7.92528768810379
-189.944019360486 4.97940073207859 11.1986677826508
-181.602364851364 -15.7315787060499 -28.2027108338455
167.206936168751 -14.5184929239743 16.8996967408654
-257.972860218597 -29.0271759263069 -16.663866646564
-218.750268480731 -4.30340957552595 14.1282858225029
103.052341669412 -12.4512428797789 -0.384102175966757
209.229513384134 -46.3938566582833 -20.7946939674773
-232.448637767496 34.6317101708068 8.39682601605162
127.582321919045 9.49203471040708 22.0741845945185
-244.129388566079 -51.5562850726957 -13.0430245527731
83.4784341673236 0.812294324050961 21.9989218020708
-244.022484217844 27.2534626235533 3.69694612405705
246.614164629489 -27.238278126722 -20.2213442888525
-67.9724163380313 2.73012004491943 21.7014869249501
235.302769029004 -41.6223286414687 -23.4922579710459
222.714726333871 -40.0916899589869 4.85610189661706
185.209272771542 -14.3242166782548 18.9558588374739
-143.264203148897 -1.21580897436301 -14.122673537473
132.234769317774 -2.17027720543618 -7.67339852953523
224.500015683757 14.8186871577836 25.6428998871771
124.977493623266 0.336474240802233 -7.57536946987021
195.901931562679 -22.2107905113483 18.6474180898743
-129.267342027453 -0.35002155620472 14.504618304863
-89.3203064909481 -1.63283709231276 -10.3320882374625
202.297377887672 4.66987427956427 22.3095577328126
-153.961820601263 17.9568754809206 -17.8565153144987
-142.099198692196 -1.65538629903482 11.8695820958631
-209.255208846773 35.8273786231349 -16.9984685402832
224.401077162878 -44.9144536256674 -16.2470355708839
34.1827448848113 16.812863952249 12.6946965126944
-155.266164307913 -8.03452096421332 -11.2269284792011
246.558799463036 -18.130417532698 -6.71899538298086
-238.346575581314 -29.153908133303 -25.9474348753206
-243.838134903414 -21.2632763141737 -24.2622231026008
-127.671469565256 21.7368374035605 -10.3795677229005
206.064571243968 42.4067831603099 -7.82315862067401
232.056320662864 -3.22821356427892 10.0534653675578
156.807719710959 -15.1140835157919 16.2287700113346
110.858693607039 15.8248128034909 15.9225784176676
210.755610973974 -25.3899146027255 22.6787244716926
28.2625264112642 15.7593833390496 7.08910666218155
-227.724568660322 1.61175795959757 -13.3466213339957
248.190224840559 -24.742258680473 -5.29986459586349
36.7816462411164 5.93328806737449 21.6231130181949
-243.64800870646 30.2623208139124 -12.6993464297352
211.114433644109 11.9094492415974 -34.0437391335017
-238.854443955299 6.96012933090206 6.73436780705333
198.197165691118 -34.980049835643 -16.7386133869565
229.622220741401 -32.9435249459356 10.4169352283036
164.547771155463 -20.2684743884456 10.5977467333794
77.7986548997051 16.4289221607444 6.89385142419857
-118.642012622247 13.0982036680339 -13.5027421612323
-41.2774854786259 -8.09208258188634 16.065167720758
29.1565779655705 -5.05024893603238 21.659472792266
217.087457970663 13.6141396275197 29.6588240292919
145.994879766769 -17.7731141293343 12.2086727697526
-262.09047040509 -34.6399618063367 -8.28703662674415
8.22035045185757 17.5948322045194 13.7974683484412
-69.1144068838156 -5.40261837020319 16.2752417044171
-97.2258531369935 -1.8670287843478 -10.3331407398189
209.855318678228 1.67778336707972 23.9553060480141
-146.97171345117 -8.45905898015301 -7.25148893026258
202.802887247151 -29.9070504202289 -27.6523332715319
110.792805211955 16.9978393335502 1.82382823881727
154.907031142886 20.9535098312877 8.68131892415951
-13.5655706097526 -10.7968291247814 13.4982844265221
174.441941446344 -3.28740735205986 20.4525046361893
93.2888293784578 15.9772595837666 14.4515123252127
-242.77477700091 -9.08116056954286 21.114520720403
146.031571077852 20.0317586614826 3.89475613073355
230.023852917905 41.6604984285303 -28.6181819353829
-218.465846611322 7.82185991188536 -22.3686244432864
-197.678584175304 -16.8185128469125 -1.82015405426245
-146.208712631265 17.5471059014832 -15.9563249939993
-216.656571980739 -26.5965513373952 14.1595124335001
-119.885487707298 1.74799098190738 -12.7501954834372
-232.115655359199 -36.9853448320204 27.2106750536253
-20.666894437238 -9.11860789143443 4.7452379051993
117.193346432026 -17.965377033373 5.20385593064754
-67.5069414566411 9.42831039545249 -10.3343043039538
222.443767536028 -3.88484776959415 -9.59340504478167
220.513550471522 35.2848158867615 15.9485565674976
-113.608918293125 15.6500175632352 14.961424110989
43.4587286330782 5.88138634924037 -8.74913269026438
-132.136404362223 -7.37441616787078 4.70446256000363
113.692616067545 0.670923623185223 -7.37978305555592
180.770885957995 17.9650178079038 -13.8927504233364
-167.688660548039 19.7386557951303 9.6694118470847
110.394823517575 3.42237288649626 22.6349527318004
25.9656806053324 16.0795201822724 16.1366816623137
80.3470312159523 11.6731281552499 -2.49814042354871
-230.098546343016 -54.1613080032807 5.00640141036401
-221.024779141709 -17.9912319891021 17.8312867776609
215.838903824698 7.88613343634983 -21.8243819617042
51.673664293266 -13.4420924476762 13.2950896953082
193.865688501748 -40.3216778473859 -11.6088810775526
219.629270189564 5.70439158548395 -13.7627349659883
-180.561555120578 27.2405011788115 -12.2770984339362
178.113573826205 21.2015765018134 -11.3739690230441
109.721593867812 -12.9265001564539 -0.745355712889825
213.035229582115 -21.1036520682196 25.3310473638804
-34.3039513862578 18.6439781339289 10.044750145244
209.636615707015 8.93515929986497 28.5250607006437
-197.089752713678 9.16483987960068 11.4394523812362
203.157228902964 35.3803455942852 14.709125895581
-232.647339516068 8.70454923620753 -6.78359190349508
-147.575011070371 15.569611618392 -17.4746247116534
189.927593536507 3.31866365653018 20.4415072219128
-226.874146052837 -42.6482701729976 -18.9497707363954
204.872551389974 39.3448568051488 -1.17028834267076
-250.163206208231 -46.5938758846492 -14.2073072212194
213.014287472059 -1.74759158575691 -17.7497036888727
235.435002302191 38.5533245070338 -25.9724106131182
-91.4195451334061 5.11556502135701 -11.5788000101606
227.923126710352 39.6072966531531 -23.7469933644238
-94.0401414168326 3.56750141528772 -11.6103739556639
-30.9792715070479 18.2838368633573 7.8179344810196
158.777897004789 -12.1052726693885 -6.7369777180034
217.40152256278 -5.28017328827471 -14.4090678938584
184.519044087065 27.1115744982463 -0.789264480444202
20.3588037973345 -11.9310816481372 12.3967349575344
-75.908237693266 -6.95156024605552 12.7136855091803
-205.947438937293 38.4985757591809 5.47028692875057
-218.816503401949 4.25428982880767 -16.4450253266951
205.132178396825 -23.8215498684053 -33.1444871227265
-61.3185096593865 -0.524262151164992 -11.0473614139189
178.036896278063 -11.4364829692744 -11.7993496179526
-12.232210325756 -2.74988863946568 -8.37329668290915
-149.642752379974 8.31259328859191 -16.4595331939931
213.642106414808 44.1403986413453 -13.6947778522359
-228.510620927788 -53.7156187980311 -0.560945627000912
124.414231089902 4.87732424295494 22.9217717686213
-240.19542277466 -0.919667999262419 14.0046789364976
-127.232725093723 22.9843349314679 1.26277342862083
195.521856094235 34.1843682995223 -2.55513135178679
201.033034628198 12.8678957143677 -28.9907689683699
237.54594730529 -26.6405349030305 14.9807269929461
200.906861392748 37.146508273486 -21.8926652921986
-30.015313927939 -9.58726596930678 15.0652294176945
236.646129720484 -10.2129559324934 -13.7071640848095
196.905333621736 -16.5143589452698 21.552374665174
217.31618029674 38.0502174966604 6.1284254929123
186.267389740206 9.81535693426892 -13.7003805587646
-219.787706815437 1.78160649282502 -15.4655043448045
113.982020313486 8.96045971437753 21.6961188022564
141.664084669874 18.5676192358301 13.7631389166309
201.364980576352 6.21294899408486 -21.0152092033478
64.3510649777964 12.0006644051684 -0.486900805887677
227.661238425064 7.33576154075867 -15.6572171717661
244.259418887442 -16.0575082330574 -14.2700537822301
-233.312703308054 22.1618225750943 15.9580507468779
-21.5093671151124 -10.5138522016597 12.8451668977934
-177.308497858648 11.6033801622646 -21.6020905209528
-263.790362456604 -19.9610486842118 -1.68308953892795
-134.078340407918 18.861130515447 -14.0172465909686
-191.432859070579 -10.8972013025879 8.47894055799903
214.209828503431 34.4127633672508 21.3714234272844
158.944396111304 11.7343680694754 22.4033792737387
-215.112567295878 -26.9623479599277 8.77457361527369
227.410757120967 26.0233185495634 27.5290618859423
-82.7910697511452 20.1440111124612 5.86677399048805
-193.27431508453 32.4483063615221 -0.925360376602986
40.3192087901751 12.5973972982768 19.123686347474
-28.1966540171446 -8.65071008930828 16.7444372137437
-128.250630142452 -7.71672331329216 4.02184701357627
93.634216504424 -12.6875223397329 16.5359430817991
-240.935256824593 -53.3355639525029 -5.74730501501825
-239.907099807078 -45.0655256778499 23.1559744393889
-126.358133124807 1.26832251120225 15.8202153864099
-233.56120839026 -49.2173990488426 18.7574349400713
-239.844719982176 -53.6597912018029 10.3910539017015
-50.7893776892829 -5.55489790632747 -4.01135656881728
180.59378187838 11.7801608776838 23.6565427531553
245.496288298198 -36.6613247161078 -14.5770593785064
-186.535849779704 -9.09987619822322 11.3135348268711
182.773438092007 10.1990619121363 23.40547543045
70.2290207719443 13.8142708024872 17.4087847942765
-167.816528699549 8.27648730665726 -19.8631247397321
-176.241523332048 -13.2396961756013 12.5793618872199
-19.0009838319431 15.9615897080783 17.1487190279979
193.497420105158 35.1289870583201 -15.7132740696288
-187.53900889244 -15.5370920953704 -26.7136525149645
-200.642399773309 16.1558690048582 10.4771951395303
-142.826998877194 -7.86748129054019 -8.58500907017666
21.0168815588569 9.50785671848313 -1.41791261233151
-236.417180620478 -52.3982450026054 14.467126039304
-2.91420311280127 12.8993865532929 2.4759308216881
181.038337203411 25.8710727641513 3.24513830682589
-109.949490190326 12.1631595380347 17.8003184230738
-230.856736565718 -43.5984155084694 -20.0592477777449
-175.870543066554 -14.862838878935 -1.46575700576958
-182.100793176045 -3.08269737018929 13.0984965278218
145.586641424714 18.5302302143362 14.4382389023258
198.950024617008 22.5480285794519 31.9595408675788
243.074860484357 -14.4121108536452 -13.6239031041969
-220.179993872731 -13.3480639722074 15.9954940543525
202.464501039222 -18.6753548759362 -22.6424172356805
114.634550311132 -16.6899042691198 12.218939311055
-160.035480322553 14.4159498069704 12.7104394490746
205.430474289939 11.4625978942929 -30.4325777876545
193.131863248292 -4.57581451001422 -13.4191732477195
221.445222640204 37.4920564696263 -18.1700514367681
212.694869117124 -36.4326789451527 -39.6772095745725
-234.229094125559 -29.085308854796 -25.8809887623274
-247.007409346466 -18.9479436353216 25.7488730738673
186.998993957637 -29.8492928593962 -7.81690736366932
147.123370692831 12.082727644457 -8.62636743341603
-29.5733311309592 7.86229387515851 -6.80871530520179
-145.37305355377 -8.38241117739951 -7.54065860266511
-165.207447506859 16.4395547597854 11.7143827480908
181.911584967604 20.9760320117082 20.3797901275003
194.560185026819 4.79803205026456 20.1953159358729
-225.149947646686 36.2146116884359 -15.5681142892715
-91.0419600476052 -3.67500058466771 16.063675299097
227.382840811607 -31.5014237932969 -42.2824946359395
195.436669713705 -38.037913090926 -5.3450328300208
-236.500749947095 24.6024536830632 13.9269022382497
237.929426887238 21.4113725008923 -21.2777965013667
213.173808236879 -46.2208091459813 -19.8392023555516
172.216957270352 -14.8559600231607 -9.38524456454082
141.477411083897 -0.353881894828411 -8.30094317094324
215.034089322599 -40.0275107587381 -40.033679933136
-1.8320282726724 -9.8163983506526 16.7589900706677
-257.762299747546 -45.3938837699314 4.71432862960509
-181.728444555208 13.8623722628714 -22.3973332839403
125.611347006213 -8.87394536146964 -5.30475466348783
-46.0896812892665 -9.54193320407068 12.2084074362905
221.712351641607 4.44728166362529 -7.0261238171379
-252.928662957786 -8.41156281202117 13.8538316857369
-42.509474150985 0.465719329389737 22.655612121586
76.4188641467415 -6.59877267901267 -4.6533946402793
195.05300634339 13.1025713103505 -18.8985866050544
225.113088624145 39.9979849066972 -26.6486906667419
102.925213771587 9.29352725298162 21.1295133626719
219.989739197859 19.1839920980998 31.5922043083575
44.2250762422668 9.80116240216957 20.5465319572378
223.653075586983 -41.6397652151792 -39.4874049708156
64.1326821444393 5.1664395908963 21.6354689722506
167.167228618285 18.589507478839 18.2163826349028
177.950155222945 -12.4009555793153 18.6803215277285
-255.459012026219 -20.0054840224804 20.910863668303
-223.850626113885 -50.3425638518298 -3.93004969083947
207.347984262939 -15.8895559849936 -24.95057778184
61.9080625208132 0.835762344501926 21.8477290677647
184.1141142399 -18.8471559114028 -13.6266969396395
-154.710670485427 9.81267737803731 13.8657019992807
236.95923527117 -24.4184188571883 17.4747382503842
-230.460585308086 -13.5257946517409 24.2798962823552
218.522490803583 -18.9525133511583 27.9550886149181
238.11692159139 37.9577237217535 -18.6440716363197
193.701204536286 30.0158956385114 18.4044033328698
221.303413519762 -0.224379046947202 -7.99648211761825
14.4474510776853 -9.53998134016642 3.61938374814869
-159.295820704607 -8.73437424982994 5.63643818155126
198.818599499095 4.7368221991386 21.9193573371399
-256.699568372115 -27.0879288457945 -17.9942130700311
-43.9335304908223 11.9494230937102 -3.5993849227362
-228.370532966346 -6.75563539875671 18.7200355873534
157.484622071272 20.1414728378429 -3.54886487920903
-183.631546553812 13.3607960164728 11.2073925160854
128.614252893 -16.9971558521597 2.39563209325096
-229.483104365308 33.0716210795585 -20.5614955185576
-149.58559507934 -9.13261071019579 0.917502081254456
-21.6685677510015 -8.70223906453314 3.57716535493421
183.997959429011 -24.5429623961026 -9.13025001112411
-240.944131660166 21.6747662731226 -25.7578246385397
-256.120577497244 -17.5891176956103 19.1161586595331
218.592995020789 -4.17429492338433 -12.1247415901182
31.6917322822212 -6.36574478863146 21.0814402678146
-153.464976425081 7.51191943025925 13.8650851630528
193.880440925825 34.3155267467506 -8.48520677750213
195.06451072916 26.8021475899631 -24.9700196591979
208.504773723652 40.1641538862303 0.670780570043941
4.8416863548707 -7.67566272717217 19.7748333937432
-49.5998337331698 -2.63262834245895 21.3356337582241
218.480092969089 -19.0147932017168 -40.0420730871051
-68.9090438496561 -3.70718081910505 -8.26362493921278
65.1901390834184 -8.3929100559197 -2.5930934752525
-48.5959506105242 -4.66759268183874 19.4685430395199
-177.661314967896 -14.8224558223517 -0.342105358656899
18.2904674780902 0.720526502871737 -9.83644140893283
-48.0983110461145 -2.5857983099866 21.4259845426708
-168.27675615443 -14.8662235614642 0.154675341926152
-43.4170112182704 13.682961405358 -1.38572097838776
-182.170297277166 2.96711482441938 -25.3924303393722
234.496688095848 -11.9458400596671 -15.6575992001872
212.21300059389 0.880093338396459 -18.1375329147205
165.15878589865 6.62328752282221 -10.3957324965492
-207.857503715968 -21.8203951944548 -0.493933097470098
137.518041865354 -18.9830763715011 7.19239884881644
233.831676306196 -29.7545717732919 14.4891088996101
-43.8277163984475 5.1796771785377 22.2429689417001
1.39565731199097 14.2648981430762 4.29178865735524
-190.895826218531 30.3693883798904 -12.5332855260482
210.981392185247 8.8660753963823 -25.2394270332659
-238.30966176157 25.3208434839959 -25.4631818337308
-105.005525183267 17.9568374329298 12.1045390799083
61.0295839306549 14.4224218145307 3.65466289106342
-208.830547929025 40.3662565499983 -11.1988145689828
-121.122020346434 -1.57069738209873 14.7603870424564
-39.0964882421257 0.0637720073872083 22.7298829229812
49.8136784323152 1.83716270404072 -9.25677337227825
223.866799683435 -30.6807787097501 16.2545116010694
101.318497663206 17.0762674645081 4.60025019760771
-203.757971197836 21.625084270154 9.96437540517251
65.6681038861815 -5.55165962633174 -5.34126498664101
194.2571100231 -41.704899788475 -13.5564366634083
-245.524714394136 -6.87112574573792 17.8197069409305
-229.197499309485 23.2488772048348 16.2412462193051
212.18833642816 23.1043244163969 35.7216211383498
-257.417769655867 -20.8002239660601 -16.0277890543317
195.607324283605 33.6387407939312 3.06417769061957
-110.839824403223 -7.83697627585905 5.72762901928452
-235.575122343445 19.3119537906106 13.5432061501262
230.717906908725 24.2357953929232 23.033087004025
232.891426268127 -41.2281942225255 -7.65411855673652
68.0747074364523 15.4635874405031 15.0159107874676
27.0275465849076 -11.5330668805039 6.05190638825936
153.069855192383 19.8184683060009 -1.74068949059933
145.942422469817 -7.7755096900937 19.9618792380032
-234.014684487531 -22.153805781138 27.9495551135008
191.860389593052 32.5777611928857 -8.72946013175291
233.362552320899 14.6721057327337 12.1663868965754
-121.775551786914 7.69469098983147 17.6188591471309
165.355021696496 20.1229119059287 -6.94067015228554
-211.314207825863 25.6252561143007 -26.8555962232086
-247.747006256645 13.9208919641197 -18.1290134176878
232.209339124458 -33.669229220654 9.5768243352536
-129.870221250117 -8.13030286611063 -1.89930604764504
-21.8986362828657 -1.8201580325428 22.7363261681643
89.157382407109 2.74869865183231 -7.73651612794373
-224.567605819702 18.1517372299564 18.9653452615229
-28.1165429713234 14.7576948318485 18.0692011439603
-239.893865769672 -38.1583741195824 -24.3055365424889
-216.994282846976 26.6262897363438 11.9693778485759
-242.346813836749 -48.2436855782093 19.1729178116036
-170.366308232509 20.2567290404787 9.33311769059023
236.699365111314 -41.760419317707 -26.2771394145441
223.785726292204 23.6529897300922 -40.0134497873966
-230.07212522252 17.3759772881961 17.8515996833159
-75.1035824819077 11.8924549584423 19.316329126665
158.14334333784 19.0129537709389 -6.32172998654259
188.321078149768 30.169152616108 -5.503624491889
-241.473563859359 22.1223421664514 3.83024409606892
27.4436181373163 -12.4737212227996 9.45637739348705
-218.07476204573 33.7587715595867 7.72955996820067
-61.2565609923164 -6.85396694898944 -1.07404668955568
-88.8544845875319 2.13510680315989 20.4143309372227
121.166723090134 -12.794991664405 -1.75937888874939
-31.1220077968647 16.4615546162982 16.2764227321724
217.682610448578 10.7635087869969 -26.9004805243219
-208.663112956375 9.99870425130423 13.7954048531906
-246.342284001193 -14.6039217511972 -19.5275364138326
151.80872490081 -12.007323261258 -5.95186318774153
200.270500354261 30.0715106697527 25.8597146299773
-2.9382873740643 1.35002333262179 22.7596451973054
175.062779512315 -24.4547043450934 1.77423438727874
-240.850206371982 -1.142017104381 -1.26006966847582
152.305171224844 9.50455610400934 22.8032539795522
96.7181530571147 -13.8667664464346 15.3534877991056
206.529956260827 -19.2519577110013 -31.1207547586033
-239.984887217545 0.972750943999421 -0.557837138797319
-40.2269916460695 4.98065791165081 -10.9584087640685
-181.763737806097 -13.3216719661609 -5.74387807513641
150.080554125037 13.6663130083967 21.0414015133732
-25.8886206576435 7.23139565161889 -7.29868341073595
-217.735934623462 -43.0904847625722 -6.25541349146156
188.659953641079 -5.53740240769694 -13.2556792339006
-105.619727116144 15.2126350118208 15.8572034937625
120.214645434913 -6.36872025852795 -6.05507472750337
197.824803071088 -25.9612900570985 -16.7568825145443
-32.4539191129379 -10.2984033709793 11.6863680679093
-242.861782503288 -43.1203029038111 -21.1558278408716
217.864707729079 9.51431118076882 -23.7484696285827
105.261615989075 3.44671586350704 22.5365522654489
-120.389272276974 20.5736738772212 -10.3706488611112
208.58719146219 -13.3814856033918 -23.4834514830477
77.7115683604277 -8.08489615368592 19.6862955354399
201.710664624922 -45.0524145594942 -9.70033030264018
-80.881491051538 11.9923291078383 19.1343930917182
-35.0193762588397 5.25050834074644 22.3399670364047
-141.236492796364 19.7189163766042 8.51251786140564
-261.62047786235 -40.8268172885467 2.63069093593253
-220.668143519886 39.7442786945213 -10.067912739389
240.318084340281 32.5627855512619 -14.7735729058561
235.23693725354 13.8818640856872 5.21095542092134
-203.446490408844 40.0191279174512 -1.21041106871111
-202.108304409259 0.632299197615273 -25.5368588560153
118.461912734046 -12.903750594139 -1.39305203230577
206.376796763069 -24.7470479380845 -35.6532431211412
181.41904054933 -18.8931482381159 -12.7304084750321
157.36202279142 10.2605922644776 -9.6092726750385
133.633297037317 14.6972476621305 -5.91033335256943
-240.091121315375 16.5711191461277 -7.10931912465516
-55.8092902434552 16.1913214404562 15.5873036242105
-221.095079880694 31.5018031237671 9.86689604181037
-41.2230142451764 8.62674457031324 21.4532455279272
26.4923711621946 7.03999077851498 -5.34175350175349
22.7791702165391 12.487226894294 2.35771151248297
229.442863723601 39.9110326395822 -14.8868154174501
233.341406350978 40.6445536895015 -20.4119480073599
213.257801161218 41.4629627450774 -1.31260013496335
224.09712898577 18.0842273014328 -37.1912438881972
-166.919689068794 15.4571809265967 -19.4105472068556
-248.524111025715 -45.5777174578056 18.749049432159
-119.278493672319 -1.11674540489155 -11.6950514942162
165.192917067793 21.2997472130176 12.3446587493125
-49.5507955570106 1.22718115519844 22.4630030576707
-235.196030078046 -35.8928505943862 -25.0719358434465
-259.395557689848 -41.3758930121081 -7.53716017400851
228.313350840651 2.10473342953461 -4.29967773239864
-204.146437193363 -1.10804898369694 -21.185571703416
-151.953185404984 -7.00660246507871 5.15949060047195
-239.775812456442 19.1875380603852 3.31250266555639
-220.836428761526 -48.5039663463117 6.19517994960579
-215.295138575447 0.658485147040185 -15.7873077679468
85.0411894618372 16.1380639149289 4.6916279124646
-191.49159056221 -4.27001230487421 13.2853617533616
-184.48827440649 -17.0357557335478 -27.068642041981
167.891583404608 18.2591881850795 -9.54905987865774
204.813134027094 34.8596155572207 16.1996862925711
126.502161036579 -2.57397159579955 -7.31672309862382
213.49737158316 20.4411360665296 34.3508090665018
-241.14108695484 -52.738906387086 -2.93088032707817
-191.383220259282 -14.4286585375819 -0.930101592175737
162.045966146737 -20.6142846967079 8.83252037729055
198.315573193878 -44.3355584315252 -10.3256529622929
238.319422683565 -40.1654164803352 -15.6107956759152
-18.4550074416518 -3.20356801218545 -7.9406088636212
-230.093077845066 14.349339679414 16.8202740584184
-123.18822973899 3.1458108357358 -13.1912187508339
203.073558760182 -13.0892521853739 -18.9177578829972
161.807246063322 -17.6015460047462 14.1691840186573
-117.384289071375 18.2570246732804 -10.5146973115576
-42.0080542413962 7.00623509465237 -9.50407425079512
198.228309881044 35.7998787295997 1.07310934491008
-244.630224146157 -10.1975029875546 -12.0567425677395
-142.761229718543 25.8355659906664 -7.37296773882513
-25.5924328618731 -9.94946341092183 7.37363666095955
224.580503290011 -12.1863453895319 -18.2843950787319
59.4306868934315 -3.77567687605197 21.3472950489104
-2.77941366538423 14.1945520696945 18.7746359962349
-5.35423127369447 -3.88051629983167 -5.6541799393026
-259.808373363329 -30.1318064243326 -14.2465927500003
-108.090559181003 -0.431449172432915 -11.5632515965361
207.079582496722 -30.2824974440742 -37.2177543995512
31.3631967915177 7.30838023888594 21.3721268578812
49.1337255088641 4.82658550294389 -9.46773921202007
-24.1035522172842 -4.64868621822219 21.2291068275152
37.1910136640066 15.2174533152708 16.6257852442124
208.55557333784 -40.6837503629564 -36.14009302363
-249.023191898258 -10.1978218677512 -7.45970182719139
-236.904987307034 34.9861603429053 5.65883329707215
239.642958256828 -28.290929869338 -35.0697026599838
46.6170257366426 16.327602930583 9.73185339966956
-40.8665131483437 -5.55395017050885 19.189327806229
-150.825125617154 12.6809273816218 -17.6620128074023
121.399029084775 -14.5457919639907 -0.0610910991444306
157.152787740132 9.54631931671225 22.8584825579853
-69.36559938989 8.89821121614827 -11.3247902532962
99.3386787971327 10.1895006615344 20.605754793254
-164.324125967992 -9.58648717691823 -2.89967959585084
-66.0320295859411 8.47980732355347 -11.1564620840239
-16.1287023195505 15.6365399395548 4.88726065624524
197.081792812047 -33.2984957234956 -15.0566757407115
216.666527866564 -0.899750272855157 -11.4744671189282
-214.188982722881 -14.4316793247823 12.7540349305066
-114.393377527578 20.9367207017548 -9.23218336640556
-237.194400996719 14.1744492498837 -26.3818232074324
237.685744959541 36.7891350459885 -5.46593864426313
197.009244934303 -20.6570440104573 -16.8156889822736
209.858943574224 -42.9643776053755 -27.9937297162887
206.503655655477 -45.7024224864568 -4.25805589712634
114.742734519449 -8.13797055354261 -5.07967307098152
234.317714980623 -37.5146618871847 0.844000830782772
-231.153998986947 25.0668156919859 -27.7517695559856
-207.556555396835 34.7568743580077 -18.5287781574581
159.22530308348 -0.739418967217102 21.7292873514325
-179.146437718434 15.4584480919686 11.1987083854365
-120.248262377928 -8.06942052980621 -0.629870081581711
243.368163006982 -38.5107207342828 -20.4254146851817
-221.32427693342 23.5197776674586 13.8363677655335
221.811678185924 31.7145141780094 27.4545512539747
179.46956090536 -0.731098000666484 19.8397909544615
-1.09606982203177 17.1789971963763 8.49998234375164
-144.254509270697 6.41933626407985 14.8233290144132
136.371729331235 -12.4955041916632 17.2188431515805
-154.848537065776 19.7754642817485 -16.0502549590254
221.938425697079 10.457561435329 -25.974785401139
-175.54046812471 16.6055168428214 11.159499991044
-262.751357258631 -31.3670087751136 -8.76785826553232
-241.811283505617 0.720973575613993 5.55252338119338
-28.113318135567 -5.94551122080449 19.8071421217584
124.250651634223 -18.2324839066265 9.30988063429752
-25.7158204925207 -7.98289633976134 2.09504172607725
104.967689869122 0.490770662181647 -7.22435964533814
135.125126842962 0.759057885897789 22.8667416386048
241.443353695778 -16.0711826532674 10.0070183585412
-159.019679553858 8.64829161063725 13.3089512115154
-65.2872859974129 5.4639026494677 -11.1459420151673
-220.46213283638 7.12563752833981 16.7557112079228
-165.424218505896 19.1286584494267 10.1042256662083
239.13660358492 -34.7492815143489 4.2898478749595
166.49985925536 22.6498666403961 -1.69254687281137
243.158846501679 -15.5315836591618 -17.3970360974174
206.359865454889 14.1003996666895 -34.4395758423005
8.21050558677266 13.322191575003 3.35346971308317
246.161933029991 -25.5225464248124 2.6704906480276
84.7830842971876 -6.33950120439644 -4.87954230355125
-138.866375504724 19.8010996741261 -14.7636177585197
193.333705349152 -13.5612621330953 -17.050289191971
12.564867011922 -0.666576930753012 22.5958186517935
-215.286158894083 -37.330798736291 4.75726129081525
-16.1475641001258 16.1759862262586 16.948019751136
197.303875919284 -40.0100597474881 -17.5916419142311
-211.21507766129 -9.41138976989804 -14.3750648866474
230.71607628937 11.9989610776182 -28.2004407229933
-25.7290507110279 -10.5516158731617 11.498662578405
-246.233401051537 -30.7589216234608 -24.1886245278147
-170.993636429002 -16.2299284727455 -23.209906068766
-232.533008474312 19.8784184004218 16.5283027760621
-85.3527765742686 6.09266367194384 -11.7625325092096
30.0512496013142 -11.9441852412512 6.37160984514335
211.010361688913 -16.6497466281151 -29.0459026014041
-24.3757699573506 -7.60647456261192 1.22919539088672
224.582829876564 -9.36817969740343 21.2009728366121
-138.921072059754 11.1522686895048 -15.7699100648756
-175.951135671085 -16.3469998095492 0.943685063931992
84.7267190149712 -5.02219523931882 20.9362606131604
-133.348154964937 12.3082575396374 -15.6738369035143
35.3763852179615 -1.94691369053786 -7.81631004723046
160.964888334531 17.5276223354138 18.6156943128847
-221.471360211342 -37.4426162614775 -15.1392547188516
-191.575474397739 28.2642083257025 -16.81781218021
203.375670388074 37.4998582064042 -24.6251565819647
-122.29407946374 0.429666202402893 15.9863804565937
-182.443878976261 0.541297823850141 -26.1748181873072
235.778135952623 -39.5261922466432 -7.99363954585229
172.115071278318 11.0939083516707 22.9533513480832
-142.438084521552 -4.11566327086431 -11.9110348307869
223.868598961555 -13.1227624662346 -20.0603197404445
-14.026253203389 -8.69012717931643 3.52089961801141
5.61209973880412 -9.9044498412848 5.12739605656463
-71.5733775187233 5.44956840022359 21.278479867378
42.7450997030268 -1.93675925820727 -7.90669027327676
-84.7926604811713 0.0357784955956873 -10.8835352142275
199.394423922728 -33.6548753539197 7.97790852127582
193.850145943139 -20.7174457205228 18.662511124599
-98.2950237280099 20.8955498685181 -5.51002500407864
198.479053465275 0.620926211165834 20.59624584397
-201.114092412375 38.1679425371374 -6.25684547672194
-217.52802273318 -9.50168430394893 14.3510075463941
-221.467287806473 -29.0380912428887 -10.8620596571652
132.182844529216 18.8733488102952 9.89961588984226
58.2538629642707 -14.4629474388868 11.1990987726426
242.685375968589 -17.3346046668639 8.63380879506272
-202.009005257208 30.7744806814418 8.16048063966949
-121.00464119615 7.29763726884817 -13.6363142978338
117.792552074279 -10.0286065051041 -4.24824918506289
185.858256054669 16.5232335176646 -15.9877464276904
-187.151582129047 -3.61828988756688 -27.7221748946422
179.968165875258 14.0025149992321 -13.3886263024131
183.801578178432 7.71043219950709 22.4024998990039
-258.208221471931 -41.4627001069234 -9.72270959214437
-236.563239725815 -53.7230485595327 11.2499707434046
18.8834362431332 16.4372522640782 8.00392706061694
78.4675034266789 -12.235841011735 1.03147331746661
-8.26558315015891 8.82782432254277 -3.64171725774494
53.771442874421 6.83015946137661 21.3636069098008
-67.1229531965549 7.05110755480111 21.1603059220301
238.250355322809 37.3238379682233 -7.84420273582566
-220.170066305607 -46.784929826928 -6.22897326135534
-21.9516515501736 17.3522650028881 15.328540167406
-243.696780603888 -34.1790529530696 -24.6027423577756
199.686785522299 -36.6510347190317 -19.3648318898264
223.525097627814 -17.0554212145053 -39.3377519839628
229.799692544269 32.4979463755031 18.1014746817791
-228.867292802244 -38.5836854918183 -22.497645655628
114.192208170287 -16.1245525763108 2.1354564877691
230.803964423561 -35.1965721351559 7.37173970704598
22.9323122817824 -2.53551652062678 -7.52657545232107
-65.7826908633708 -8.12554195272548 1.84280472239875
243.00487619183 -37.9993273608474 -27.0523436438171
230.386317721111 0.838159933348134 -2.63349500729602
-200.880784345473 -11.3999317857979 9.25673060635308
44.3226131684773 -5.54469647537314 21.2627415012433
-245.420688547306 -9.52408953916871 -6.38657911246773
143.362411276531 -18.8522996233064 9.45973438696422
234.563285092601 17.4451245925919 -26.0515752513869
-155.023715898454 3.207772214769 13.0885637303866
-234.133359248483 -2.74426618374305 -10.6725565731296
-150.868212791148 10.0396863574468 14.142919060193
-235.579525046802 3.50284841427386 -5.05261603889462
-125.375423876822 23.4147767731231 -8.88405638358119
59.6136882786777 -10.3383230225944 0.513400177718257
-120.700641137177 17.2730938079257 12.6813287979859
72.704794884862 10.6223686849463 -3.21665173833068
-217.277705450993 31.89650489967 10.221638736013
-37.0537932494597 -10.116887064253 12.1556516531842
151.904460605356 5.40756983761069 23.0557980700981
211.15979435681 -33.0884666399748 14.1076833707293
93.8323894879126 9.53072791181202 -6.94270848962907
189.858580630967 29.9216344828657 -13.6620606189214
230.896738224621 40.499510189865 -31.3878957769881
-147.286348408238 26.042258568458 -7.10490678755653
-214.65018487085 9.51437883575906 -27.2006581966014
188.687369982915 29.0702871368057 -0.70502274075583
200.083489917916 5.65514930857595 23.3842827184151
-210.09782852783 41.9924911506945 -10.0236921187984
-143.216291557058 0.97920363856826 -14.9310592507408
-245.157930330539 -4.30994976057549 1.24594391508231
199.737676407832 -38.0303776352586 2.68461109950977
-23.7581489551458 -1.14685130668942 22.8859917846872
-242.59316160071 -54.4893606944408 5.24754956144604
33.9560130567765 -9.46653871378504 1.91781503686309
-236.083093399987 8.67555449581344 12.0260220345981
193.817785477658 32.3912651794043 0.548114630870975
-231.017075439578 -29.522167789998 -25.2002678741293
-210.743339732629 1.03227126284691 -19.3644673993201
183.161879389965 -22.9541879396338 12.3046584359161
245.999152983159 -21.078111087824 -15.9300634799617
78.133800838457 -1.34041400621474 21.7333510899183
-237.235928526088 27.6226281268842 10.7533548907372
59.3133760710528 -11.0428762033107 17.5204194844075
68.7658553358863 -1.39588266807883 21.6830392082724
155.986659746696 -19.5335915175475 10.1662842010252
-128.97611228543 -6.21391567921373 -7.73181065009245
-234.867697900234 -36.4925242144617 27.7963241265786
-34.1104891320425 -9.8010446955527 13.9004652482937
59.2938289586285 -8.35020234916846 -1.97564370914217
-131.122524673099 -5.15138939535931 8.93025983334402
-247.103229265045 -13.1704267764835 -17.1038054213964
6.72191873934187 6.96996501777135 -5.33010926597202
215.481622610325 -8.49853783529084 -17.9019501209275
208.224272564658 -30.2287016063345 16.2700249716317
-218.102213306807 36.5677192903046 -15.6650177120278
182.605686630404 -10.3542250488285 19.7956828499441
-228.036873239865 -53.5465751803554 2.49502321487741
-101.023989463793 18.0776625708559 -8.81665144151502
-237.963745913653 14.3237479985352 4.70899445294136
-239.633714863689 3.54148894841512 2.96811933720977
182.342716548997 13.5505985892547 -13.7125092557604
193.121907422074 27.595727998217 22.6800654854298
192.103977589855 7.82797993803515 -14.6496016316728
-33.8528512690984 -5.33947867675573 -3.58647931873393
203.654983822667 4.13133844048407 20.9072036499755
115.80023527342 18.1337772999692 5.81496297123654
-138.787326471424 18.6013676217854 10.3603964140132
7.8587608174986 1.23871945149033 22.5774028337473
-262.778096141289 -33.9936610625655 9.03388636959742
-94.2742569924367 9.59441458879778 19.6154372846254
-214.245561662497 -20.1028713408011 -10.7566188165748
-0.374484122268587 -8.11812963694 19.0438332243549
-40.2610292669224 18.5459153294608 11.6196928300446
214.906579945193 31.4291314365842 29.2060300887967
205.826988394671 -46.0251617902125 -6.92607960963378
177.088147775358 24.871764004412 2.15870099110408
180.706835769704 -15.6874287624396 -13.4457840488293
-223.012887384339 -28.5803559387976 23.8680533831683
63.3349047868606 16.4390901739272 11.0938198484924
192.333818823718 -6.3668406767743 20.4361412459653
-153.449936480873 20.7285315721398 -15.1348699860957
-203.254700621724 12.0997386244621 11.679227394446
111.689727638424 -15.8703191945598 1.99013763338839
200.896149194691 -16.3039232047945 23.8593866109004
150.253091997489 -16.7804658598011 14.2020754659519
-112.084381592032 23.5574613866216 -5.32849247193818
-192.776128960271 6.09167491705109 11.5181163475241
-216.960185487678 40.4211472314538 1.87979273056599
-227.209501183056 14.8846369759688 -26.3077738183611
222.513766963662 -31.9468468115977 14.5269366885595
215.700642084681 -4.74937191449333 23.039205603069
232.899318868759 40.1722977267183 -28.4779669731173
-160.034123599931 -9.78990495993246 -0.459172745563577
177.497705126451 -15.9739032130747 -11.9386285798754
170.533296540579 -13.227259074321 17.9052985133972
188.774600747949 -31.8589986294277 -5.92911967845135
59.5625778186048 -1.40785999268964 -7.52639253201987
170.227660130934 22.7627106085683 9.76827099220891
241.323098261683 -28.7964103286522 -32.8839323055306
-261.837599950782 -21.1994362685392 12.4298789016004
214.000139782426 -6.51782446645336 -18.2635681785304
-178.276090018643 -17.4752228834536 -16.657142854985
3.45647250908789 -4.24709006743559 -4.27686530101527
232.198111511826 -31.3029812856636 -40.5725539450209
-206.772356084672 -15.2834956725815 -11.5571934352886
-211.969840721886 -19.2705708694172 -10.5280485593266
-209.768387340009 5.59801963366492 -25.7503484681686
218.474283301447 9.170681806407 -20.6493057084568
217.60041105915 33.2891315853383 25.0825037756289
190.364427366401 -5.8718876240444 20.1474511603084
-199.913159747081 34.9390570706332 -12.8758794573277
159.799623718028 17.5018841787071 -7.98788754906455
-251.859124352976 -17.6201771348884 22.7710589282984
188.603574604036 28.600279725353 -12.7661741290356
-203.440290082029 -15.8107145249385 6.53461940832312
-171.913588022004 -16.9475180365971 3.92117785932514
-46.2813813073185 -6.94960226239796 16.7900485659603
-257.382677081041 -35.4971294014648 -15.5836238727123
20.4031946567558 1.10373594606844 -9.96188947753001
-179.618642166272 5.50830455715058 11.2245373019742
-126.539938416176 -8.23507693676403 -0.208869126558586
-19.4713970809431 -9.95054146600225 15.4437508975935
201.231195454489 -0.00333711543683773 21.0375986703435
-153.834719789568 24.45286053359 -0.0647082564689095
16.519040474977 -2.82390809493964 -6.73420952445399
20.7746863153389 14.9982615668363 5.66928001603344
-218.939027715274 -44.0795350474454 -8.87782764553239
217.397730947637 38.1833355953869 -29.3991543618688
155.38222830398 20.2338131552398 -1.75005648684383
122.46169311266 12.2541997269937 -7.4196696890089
-38.7841666361829 0.284841134537668 -10.4675059334601
-248.838348462455 -21.8652592402857 25.8295850320742
209.912841353957 -8.03128640012882 -20.6250876474633
-196.945714527719 11.2496473038649 -27.4097768098003
-182.949613648936 10.7949314919722 11.1663952166603
221.669951441713 -20.065074511902 -41.5199387242289
237.588555358353 20.162489183096 -8.45305208487027
-187.048462978063 25.6893882002997 -17.9103838441791
-44.8054582244303 14.7441467116046 17.6547368919158
170.353045263349 -21.8770774127069 8.72825996655611
240.316115202584 29.2453801482144 -15.6722935730561
237.674977626293 30.9709050682208 -26.5963624759574
164.104101556224 4.31585665281004 -10.0312839687915
239.231122584051 -36.5774359568039 -0.476385064215563
168.91283318317 19.9359143010191 16.2509810001138
-19.7194904712755 4.95550704617071 -9.38894309648273
233.925142099238 -5.20763771869332 10.2028835852424
-173.813876887425 1.76387147391372 11.6636668339578
-239.806744444891 27.4230118812847 10.0321360214806
-218.552343057374 -46.822319381929 2.45710223055906
-201.183476860191 -16.3503657766379 4.47775828811843
11.487622793511 -11.3200272913415 8.55500246794111
208.604315174991 -16.7629452677476 25.2579610503402
93.4973397894082 -17.3346880041954 7.62586102794945
-170.169009582966 -11.229371643328 -14.0612818286198
-184.780363686189 4.80853568476841 -25.5680900420144
226.751624337054 -0.629971594256281 -5.50743220662977
-224.358754911671 -0.63850914561475 -14.1176887436142
92.4248080953834 -6.50529004708897 -4.92802547475338
25.8277777932433 -12.0878095767721 13.1449477763461
6.40589388629745 -8.62037687723469 2.49123990925291
155.863600143979 20.2898603828893 12.0371513531264
-248.569566996173 -34.8475148211495 -22.6273037307914
48.3965487809704 6.58535849442642 -7.57202447142046
186.866777234678 14.2504466383096 -15.5699569548469
-122.170640146251 -4.29183588948974 11.9556795928847
190.584304559122 -21.9906173986588 -13.3790405082478
127.115491936175 5.90292407876029 22.9154394510306
-155.724888640396 1.44304474667372 -17.7971113518806
-16.7185307266394 10.6557270179457 20.7724302322171
-205.756201188115 -7.03380743433207 -16.1129720795516
-224.06307343406 27.2435881172705 11.8013307958505
-23.5448982949072 -10.4795224865539 12.8411056628289
-149.870352897618 6.48706709693854 14.1710912635534
166.37368309885 20.4268038629625 14.8896267571544
-255.026125431555 -46.5280778772384 -1.95773041531185
141.803729413764 10.8465474470303 22.1573441501392
-139.781053845706 -5.81556161954484 7.03247141934769
-207.504422937062 27.6729550888011 9.97132449878321
-102.642650795279 -7.08669185748036 -2.70011983953942
-205.377393441753 0.379042019013652 13.6579658932484
-24.8793629858395 13.6882595204924 18.993218818509
179.037947004405 4.31060566942684 -11.0284793157231
-76.1597862462895 13.9943050853384 17.6293288321929
-166.74804090448 24.6173680993076 1.69203955080147
35.8638491213167 13.8534812883499 3.83840432985511
-91.081057227208 9.09489029946834 -12.5742178323484
-8.53730802967191 -9.49262491551941 5.31269294239289
214.289261238757 -6.75993212587607 24.2938298173293
187.876532059355 -4.14157438157904 -12.6989234409089
-256.917747606927 -9.54373048910692 9.22055210655613
193.58195699015 32.0890742976955 10.7495800319884
239.869336299302 -40.2062012018501 -20.0620889240894
244.193080176094 -27.0606311897722 5.77424468859811
31.1833452682401 -10.3429380861488 17.4747050210496
-244.285099239131 -4.64113655641459 15.7924821768486
-236.00783334576 13.6686192092206 -4.70548088083616
231.256912361298 40.0858010331965 -17.2700021053429
236.842439419639 22.0751335848091 -25.456242670627
192.065115362132 -12.6737067465282 20.6187540740418
-178.832772158468 17.3890161309002 -21.0091984197787
43.8723712315765 -12.8266845853125 14.1471078040874
158.966843354636 -14.7446693817429 16.4747886390003
-45.5159513043187 -3.3419846256302 21.0103270323895
224.099606195699 37.5496052138497 -21.1707440973458
210.776961800477 33.5915190803432 23.3299918665099
-150.55498205227 22.693081984316 -13.6770554199833
-94.8955795331374 19.3877181408297 -6.49767619358492
-260.569791210827 -37.6141031706225 11.8127899698847
-178.736865815627 -5.56818281163713 13.9738181021244
224.633238830427 8.87093462909702 -17.7399385801388
241.757519899197 -27.6568183482328 10.2672689864657
-221.94600745242 -18.039652231593 -13.2405242193944
-91.4008243222607 11.0984911330888 -12.3969091638671
-136.63991831054 8.97389401628452 15.7464894280619
70.6036357325523 1.17284844788234 -7.90819189931386
210.7989867635 -12.9969253169673 25.6979152642737
-259.171081571598 -18.3228823024387 15.5696882465992
-234.483349940959 -18.7203661358954 27.1137524665311
242.573188918455 -21.481197502162 9.32179958540336
218.640031083355 -43.9656298465315 0.190253607787864
-213.130075448661 -12.2176552808635 12.8347066995197
212.12840810336 -20.7066924347188 -38.2804160715961
225.325988509913 -14.3681327406618 -29.3989441718093
69.524478981099 -7.51126809732011 -4.07172450496058
90.8921377299449 -2.07091565399348 21.7236736421112
222.913618416548 10.22017085987 22.9993690096528
-222.802717277997 25.0912866932864 13.2851608732847
-233.211321406339 25.8949734315813 -27.3776131797241
190.191109590614 28.0766064933617 -15.613047979414
206.421796314965 36.0759371209597 -31.2679582727001
28.5428278533534 10.4015693181977 -0.436996654903781
163.650092331017 -17.7120993013519 14.1991317149836
228.729168328907 27.3544608022316 25.8480245723245
-107.304771408631 7.06465836416662 19.0104940665599
239.432445421113 -35.8856799242585 -33.9319397463752
157.888255948746 -5.22936098809382 -8.20718452420264
90.7902103385582 9.18416522897066 -7.39731100857381
-156.3429718027 15.3339980948438 12.7704485459179
5.70710118408314 12.2450927038866 19.9503918243858
-234.789795827668 -9.08729566396569 -16.6364496000241
173.424567000317 14.9433140396987 -11.9062809921871
119.142460363527 17.4239038227078 12.9863196185145
-106.398931895565 -4.72390437182838 -7.06146231432032
195.157213602054 35.8447841535145 -18.4998553697341
-123.078075050678 19.4959634953403 -10.5690930449383
-217.853543755954 34.788523114495 -17.3949227320249
226.526575094429 -43.1972528832117 -3.08398327893138
182.728204701071 2.52590498891675 -11.2267414678468
138.608218551579 -18.7308172404413 4.63282432974741
213.800137538936 -41.7209052357918 4.03503603019914
-249.587774076374 -10.978702206644 -9.63615643626984
115.364783145877 -3.90099305649928 21.6358354751442
156.428261956719 16.9977937385837 -7.77576435420149
-179.952149242082 10.4204250550303 -22.6163385168056
199.725549043265 -38.2333708519474 -19.2805204038379
81.3509393110932 13.4712644349147 17.8964135405352
-130.812298767882 14.0106544303732 -16.3668828870847
-13.5470863616564 1.00564576173771 -10.2751368640714
-162.041420954393 23.0550807885644 -13.8406945651443
60.878020667259 6.55742599963339 21.3850456644911
-216.58266850543 -36.6808090122329 -1.67134810954952
25.5822512434766 4.79358135000312 -10.0622655865373
-235.795876615128 -33.92604047894 28.4406128702276
-205.953920712005 -12.4947606850708 10.0643675956236
-53.2011933664592 8.86387265554909 -8.56398877530979
81.8083636703162 6.53815377747383 21.5317219835793
-53.8648875008675 -8.66253422281892 3.94878318373334
-219.965740454825 -11.9985861491142 -14.4111159778517
-6.31804355396676 6.32423032663145 -7.06042667549456
-181.217770386946 3.35602229189589 11.1843265742433
85.9072049077899 -7.72089287573489 19.9132376162888
49.1523647867326 3.04033544265537 21.8688079443489
-30.3658186018062 4.73530395485909 -9.88720413993909
50.0956850118241 -12.6048379324289 4.50020388489087
-218.970613600326 16.8783290778384 16.583174403506
7.82175102459683 4.56799384064586 -10.1524438674359
-11.2057914482772 -9.24298884354078 4.80700308887231
-177.321947400337 25.546189394961 3.20424730678595
156.1886875732 -18.220040803372 -2.70674152931425
186.973125122473 -29.4017215558569 1.54835648587096
-131.433853909587 -2.14387557638209 12.8879873991972
-214.819928694398 -8.83661603498622 13.552965823358
-28.6589787467936 -7.33826195955478 18.2125623416639
222.735092756593 35.9627095894668 9.1243183099176
-68.9025448634735 14.0971622370442 -5.40819640575547
-79.3334753054422 19.9277037499944 6.35834980946642
-168.302326920835 -10.4271913701253 -6.11711432583906
-126.417044891877 11.3170364184077 -14.4872046307632
-141.019291854671 17.1383231026921 12.0361117346587
-96.3147384942504 1.21727046935929 -11.4369273751841
200.18484812594 -39.7909842007319 0.690195459202772
172.120870997999 -3.68756585965216 -9.41024481302777
-221.291712244974 -24.8480306917455 22.553439859961
205.141205599278 39.8367043747303 -3.55444698706236
167.528501666525 -21.8117076427052 7.14611210171941
188.809783209002 -23.2672631034266 -12.9262358682416
-235.491007938516 -4.24357330811924 -10.7858218085602
-8.59303468843447 -3.53327079884101 -6.39079409916379
15.9126814634669 -11.8341397738711 11.4860667673641
191.096761190988 -25.4681382136044 12.8833384828925
-6.06874174709411 9.57321813631365 -2.34832963766332
-163.81930721622 26.5633501842323 -9.13756542381896
-233.928473065007 -15.4725111968826 -20.8699920838587
116.917334404307 -1.71437056452596 22.2101145876831
218.707007443201 37.9550073382582 -18.3804103110033
177.538309185908 -15.369625076505 17.379709055973
-256.581765027983 -25.0048929853531 21.0592503721493
194.178958065385 20.8751673885227 -22.3837943843337
-8.46607146362011 17.2424651310305 15.5083487675999
50.4533412432425 -5.84877389136641 -4.20733611054111
-214.106683485446 -20.8310673829611 11.1204255474419
-215.040114997169 -29.1768147247605 3.63941670696056
208.038891070079 35.1243565891512 18.3702766336577
-244.153280905738 12.4113616908739 -13.8694441641654
73.5049581797749 -15.6456125109203 10.7360442120351
-240.779455721709 -51.1388075500515 -13.8352953635565
86.6172804597377 13.116366770478 -1.18467168267923
40.9127737102238 -3.3333969574427 -6.55245672782203
33.0761996893214 -12.5260080840809 13.0135997944991
219.418058209878 -46.7135407801503 -4.76598631779316
-21.2063950356403 -10.0773199181728 7.90125122530603
68.0098966778999 -15.6223414986446 9.4683396724469
189.085319106962 14.6649363809006 -16.4027453414633
-175.116898026686 -11.8396275775451 -7.67525403679257
-205.964596022008 43.0744087394319 -6.55333344979461
25.2574572629543 15.3270612835129 6.13007695639232
-32.5472755741791 7.27017934134907 -7.88728448739094
239.091888927161 32.8181501924669 -21.514323965161
145.237941081526 19.3925364791718 0.680495237115033
202.097560217005 -43.0968400452479 -2.09118330341598
196.060233640199 -35.0469013012075 -14.8579207653627
-234.019369580485 7.49514737810924 14.4024856279248
-181.546279106393 -19.6997360303393 -18.8229461668064
220.234592967399 -2.74284633430933 -10.6206616329061
-195.465756378867 -16.0326978713647 -3.78691389232668
