214.935276875563 -24.1193171324067 3.09579314090465
-182.981376594806 -31.2769312634482 -19.6097914507899
-195.289351988261 12.3380825091157 12.8699521784747
7.91547880677498 6.32206040728989 21.6268124766208
-80.5535987608495 -1.75730604682321 17.5978208029887
146.442902925421 -17.991802459743 -11.2205806017828
-223.176336628463 -25.0162735478354 -26.2606961471847
16.0010105440067 9.35545288443347 20.1784321470186
168.348573687225 -25.9007534019257 18.6296172041517
209.825893821595 31.5666734058684 -42.911999971571
135.535432959178 -3.10669630386551 25.7654129306917
-147.869263602335 5.84597999539768 -26.7568594023882
54.8712744957727 -9.56993178247961 -4.75888497233279
210.970368757784 -0.97399089853023 9.18003235375293
166.636052865731 -14.6582308085663 -17.0372247467187
219.168806312002 20.8316679426112 8.50446339333243
33.8084035173521 12.3553250525859 18.2624277849813
167.464876343223 25.4807144657882 -20.9934681536959
-27.8797281291043 2.36778181820719 -4.12424711380046
-236.086305375007 37.0757919087983 21.4737572835129
-226.186788574489 27.1878814253834 25.7438251507519
55.376236271898 -0.626480483200835 -7.49976080447356
-39.210934286052 -6.60004252058255 21.3847771802357
89.0025787668573 4.03674502822977 -5.25201925219675
-134.418070836786 -4.73779667221882 12.342144399245
-67.2251663147858 2.29485779570358 17.6794213385498
-199.831016413014 46.3338923733633 -3.13251171120304
-89.7759155553924 -23.6218966821181 3.39871148662641
-85.8670423774484 -9.62037853033322 -13.2387882787478
-55.3949614725531 -21.0813689222332 4.1975710298504
-146.618129920421 -18.338922603267 10.6873564892589
-225.93551798544 -12.8923374770181 -25.6545801254642
35.4065255974195 -17.5590514633457 12.185797903179
139.699104124728 -20.2120444341216 14.3758915490495
142.442471882618 -19.296281931988 17.9241428030554
-182.952049289329 6.2362746222305 11.5407348635244
170.224722480033 19.5710532677643 19.755296325178
-162.362731919813 -30.0173955072155 0.579870981999444
-2.6126903367466 12.3529402539101 14.9383463441583
5.24637748192625 0.0876168844209026 23.5308793754701
126.763049274573 22.2905371931743 3.62773766657396
-169.082364372884 -26.4012779333714 -17.3650849615671
171.280771023364 16.9846546346108 -20.7128947431046
-220.222990613287 56.6828294486351 -7.93931006449856
-93.0764947439495 -17.9594955949615 -13.1060371723803
-213.682954157886 -6.69231966999713 14.503229331479
188.44698341769 -19.1650424841674 -35.1594517972489
206.615252494527 4.720262089288 17.7719009143581
-54.0736486740396 -14.2878015711416 -6.27526933927656
36.0377913704294 14.2083234729001 6.61119997641441
-10.3416057960609 -13.4227145857894 -0.272032021364912
181.370208324644 35.2510034315526 4.91249672615626
155.04742902497 27.9366771222455 -5.32813588307342
212.534343007929 -16.4237650244636 9.25648029524845
76.793671931267 -15.6218493623997 3.57499354835175
-40.3647892573514 -19.2650017944428 14.0541339381551
179.804932536741 39.0591393907882 -28.9489934597972
77.5262525777017 14.6638775095606 18.5254970637982
13.4180591903985 -6.00990698153768 23.8436312215652
-171.948435931616 5.57721434091974 -21.8974427031854
70.5550027081856 -2.68690512150782 -7.49617303476464
196.877248380756 11.05200440421 -24.5712687035117
-188.91615655561 -42.3867104106166 2.40624884082541
-37.5956054572682 -20.2547761158502 9.16868915064966
-24.1955145428962 -19.2181574540892 14.2014625833593
-228.129641112019 45.5787550136209 22.2292718733838
16.6260827630178 -2.91501589393177 -9.02325824854459
-203.199897860424 -27.7080385592567 13.8344781145821
-229.104422648429 52.0501927806793 -8.9870826215499
-201.34512170798 28.2475805688585 13.4631669228052
186.242060430251 38.0834745944936 3.70617025975872
-155.232298332784 -24.826267794296 7.09810268398432
-51.5740703360142 -11.8186766643421 -8.61623082545513
136.494032386513 13.5334754691926 21.587545007936
16.5624596432286 1.82160011251168 23.5720453060998
33.0015427880996 -16.5135344525208 7.50951313719221
-228.248238991565 58.2921438716193 1.87498188630238
23.7931482108629 8.35630152038151 0.424230055795276
-75.7826952523155 11.2736250888088 6.22350732747649
127.915445078331 -18.3511969038305 16.7734997444973
-217.622480378996 -9.77986284382579 4.57967412997629
66.6849351374394 13.9126721232506 18.8077631776089
-240.029156224176 35.7349708693477 18.0845850273762
71.5851912264316 15.9122835378889 5.80351529979108
-7.69409553521974 6.17233805662126 -1.06875606393979
-48.2643639265063 -11.8685296866803 19.6518833324531
-59.2366705447579 -1.91033735241784 19.576238889727
217.190459320688 12.7938618385245 6.28651023192679
-210.540839587933 -27.9881857017759 14.4339852922534
-5.91819558525737 13.6700062498804 11.5648182441547
91.5189007359954 19.2066601363373 9.19681780104625
80.5206241148856 2.61030608837846 24.6635086932077
44.6086193152841 10.5248540872897 1.65784070591916
39.0151268025145 14.3511425568649 15.6421296026785
156.360767218178 -26.3590888255625 -9.06920186563003
169.465826467434 35.4785888375973 -10.957012119501
-211.879789940031 -13.0606818588594 -15.0012415325193
-186.27068530813 -11.3658456985978 -29.9357577665545
203.950319399603 -7.42106471610702 18.6265658164515
86.1051707625594 -5.77269577376522 24.9167555394918
-68.0069667197953 -17.204327172035 -7.32462796726408
-70.3522053674571 11.2991438360723 4.29989504922776
190.97784481148 -45.8781178842664 -11.5918072704737
-11.8127390872101 -8.2732833483341 22.4248973440025
203.273579476598 14.3307247305311 -41.1347352296381
-98.5972804842583 0.112998928714418 15.1136389998432
-218.922990795144 12.2454246693635 -12.8190702824
-60.7264910305553 -21.4291897821992 8.98991026250241
-182.430839890004 -38.1095047298078 -3.5114729074506
47.9577842806617 -15.4129125607538 18.0288347756805
-229.092768670651 52.4123400211995 -2.77849922548349
63.6846351238124 7.73038268096853 22.9057163305097
-150.080024076988 17.9251729257736 -26.2833097112941
-152.216447447808 -15.4859670803506 -20.888685207317
-130.131380419657 -12.2020488333554 -20.7489351666785
-206.517160983915 -14.9516434438811 21.2748640994072
153.668326103184 -24.0119200845156 7.07438970646649
-172.961423345362 -23.307310320322 -22.1089567560583
126.908787676418 7.30929330396297 24.1949836261053
153.114770739246 -4.51909633834941 -11.9693044691591
-212.988354194958 33.3486440415615 -22.2460322208443
-199.258180020083 -8.06416522565032 -27.2994102369467
-29.3834421307631 12.8697492012553 5.95559630491514
93.2353140640175 16.3465212398398 17.7555644389004
178.81103769519 22.2518394358346 -33.9637888556611
-193.04088559884 -16.506448930271 16.2055007488094
-202.941361668879 -8.01697004893657 -25.8234104382958
-207.598670223039 17.8943400509507 -14.9264761512037
142.54633417528 -21.9140498532195 4.60560705012439
202.599778107813 -26.6622534542094 -34.8229118491047
155.259493465308 3.62630207526552 24.5651874691771
-156.659888009262 -27.3925279727692 3.79255378938052
-205.794965548723 -37.4009785431257 5.51228682576254
190.422787007392 18.7473984680148 24.7508316240958
-37.4164948978592 -8.81392835768995 -9.06161890690843
-186.998197315516 -39.3055568357572 -8.86230849241215
-146.802639703926 19.4169329444408 -19.7952343862021
-209.520407158344 1.24388947695507 -8.66228061124172
-4.9061736355342 3.70601556994964 -2.8299138930836
-8.24146487100958 2.0626030091853 -4.71265326033976
0.389659409229768 13.7536828613627 12.2970824261176
-178.120440919595 -31.174687261748 -15.3714843207814
180.412065588209 -5.81003832391009 24.9013828774465
213.225873319006 -44.1080072571063 -15.3177812937023
206.81459959259 21.5585827562741 19.4701347330245
-230.412969197582 -17.0258895887545 -14.6851174930333
35.5253401041733 9.30410798760358 21.3252660903547
-186.788271752715 -37.6215747667151 -12.8390463349502
205.537813698927 -13.2416933472104 20.5313135030425
-201.448580723312 -32.3575079315592 9.40089622836277
-232.648461848244 51.3015549286564 -12.1482467733217
-213.925720647552 27.0989834528491 24.9418794792149
-64.9737809621419 9.38586778791106 -0.242321458355384
177.593186358422 30.6747450713132 9.80482329906492
198.158388302373 12.7909666033366 -29.4115638766028
-214.597197378888 -34.8587776045815 0.627351525859423
-74.2706910233805 -13.9961479266753 16.8428699447701
-203.33413631765 -40.7988764699191 0.282576668875456
-174.045422211377 1.08232170383216 11.4621958180249
151.037057359677 -23.0582826542185 9.58397772455422
169.189659077064 -37.1161219686115 -7.16023711000457
178.964756840727 -18.4911669270649 31.2677932010042
-12.1454277551753 -10.665863061665 -4.60590597977984
66.0775750860872 -6.6475614742656 -8.19097842296342
-35.6125987858632 -17.8962152756604 2.51890717579596
94.3122357374112 15.2169914605997 2.01452751239244
-155.828543851491 -29.1182587720348 -3.93348035931558
-82.3528944194144 -4.24027053620992 -11.5513561042356
119.739396020048 -1.83363567369655 -9.04038785317068
72.5029127816571 -9.13216727724569 23.4308745007014
-159.021053366715 -29.6276873613572 -2.40884490111885
-233.146567395279 20.1551297154566 20.3485604260579
-208.053665647559 2.39173006609829 17.5364233250747
114.575837504715 -6.12930421330468 24.8189092353793
-23.8790111168345 10.449509538555 15.702072526303
165.119347556383 15.3936681145326 21.3847368672783
-208.900817863374 9.75494702802457 -12.3524241472525
88.8769309306703 -11.3781623233107 -5.63841294265668
19.0443307035504 -8.86342212033638 23.3041334164521
154.407530384195 -0.11290790837197 -11.1975321994007
-165.894403808628 -30.611741460577 -6.23782808333134
-169.806932182431 -28.0686315004503 -14.9124926773234
-115.023785299254 -11.4820922185917 -17.3345042694906
191.877801293816 20.535964096178 -42.5649603031292
191.247123566305 -43.3478257283916 -1.77325697469202
-214.7662415298 -9.60234108994423 -4.11200775384071
54.1678084636066 -2.39294608382949 -7.71085638604864
1.54826886426568 12.1179126582149 4.29944633195562
-217.49799439146 14.3775040726272 -14.8746168592768
60.175535667725 -15.9899426229291 16.1418887311538
74.0040785495969 -15.9062040788764 4.80196452509349
46.9357186978617 15.0508281582187 15.2570407842992
-120.639169340964 9.85785379004957 3.68632002774702
196.844252160838 -8.30734784265642 24.7898908454139
53.0395813692198 2.45064202381264 24.3554272547841
166.112629614919 11.3746739154562 -16.6624882774797
-12.7610579049091 -16.7809210958994 18.130173239359
174.209173281124 -30.5325398599616 -26.6605663193717
118.467256652384 9.5847898733954 23.2075681854664
194.187373554018 44.6038867450877 -6.19739239679517
-61.466478742063 -12.2680925877716 18.4653244490484
61.8969584403651 -3.5957704821496 25.1272538982947
134.466074914371 -12.2895675794003 -10.6713761639369
-115.259949821434 -14.8188984862606 12.8232634854959
170.800103571876 -15.2399946071953 -19.3129997128224
-139.706373315357 -22.7543103762679 -15.1938652101322
73.4043663866949 -6.82758989483752 24.4179752374253
-20.3289538069734 -18.2556055005696 16.1935803201856
-128.613972401649 3.56196645074748 -14.663100506782
-179.078511195029 -13.3399622321098 13.7667246266549
181.133883704704 37.309163786634 -30.3563190924586
16.2786735001004 -18.3348107284848 12.2704410640634
-106.137818718577 -25.3619820897937 -5.88703071782228
210.715205057219 37.7076743713667 -40.4163029340007
16.5097701970446 -17.4480522663338 16.1388087594988
-23.4729172085294 -11.3446589505766 21.1798500017416
-205.476332492672 -30.3402302845459 11.1379536896419
205.596014865246 24.0955338229897 17.7889576872825
-97.0106538940326 -13.9302629558598 -16.064108201822
-214.128417923913 -9.95365830942746 -6.18893518926678
-12.5368587668922 -14.5491878789126 19.870462806256
-215.356720650334 17.0714623695356 20.7711456005429
215.156873132134 -23.3042973552193 -6.2248052890218
194.92107534202 46.358872679437 -9.31127350572988
160.848680933175 -20.1945257092685 22.3341457748281
-141.891098225987 1.06106505019591 -23.6877801546008
-73.4202193483333 1.38121155845092 -7.99150344589618
-230.275577699897 51.4898815502906 -14.0068660065283
-214.629402936067 -24.2249960197061 -26.9706680913682
-97.4677206248893 8.42892255285511 -2.27937475631045
36.310994626314 14.8545027594493 14.0150114772006
-225.229062123896 -16.7677255087916 6.38994210988909
123.60707135274 8.66524261182568 23.6575631551607
-188.059338871873 19.0573208190039 -9.88324853086953
-192.668750505051 -5.99264852779349 -28.6384354393995
-51.4542721373247 11.7460773971951 3.90327666616158
-82.2167041331967 -10.5516780270575 -13.1869213505517
-168.68412768834 14.8173896624295 6.934267441295
192.044528418398 -34.2465639627348 -37.1650286721246
174.458116372422 22.4939868229627 18.7323845774767
103.679121158189 -0.910899987119648 25.4620934629474
-231.349581549867 42.9198087834926 -19.3140321445909
24.4066931321395 -12.0351972798311 -0.362698759362046
78.8810959020455 -16.3624687071821 5.40425344859234
13.8515281335209 3.6254094690356 -7.70722666982801
-133.119291677391 -16.7730518519449 -19.2689535858531
-222.684681496272 -27.9900920603154 5.54948286264088
-117.879432044184 -16.8131434176367 11.4444178415935
215.665847977146 6.54702879109163 -16.2429617604091
49.246959356352 -6.97169131162599 24.3557865670855
-199.144974384181 35.2292000455518 4.99835364365169
-77.6571065469129 -0.0438240631318665 -10.2365721021641
192.27061349379 -9.70404447770817 27.8498255962831
211.971845887254 -39.5783867597767 -2.07095108985108
-69.9118520079014 9.47425707688118 12.1968601572938
143.248130971579 23.9198272372266 -1.10139410567815
-205.601977046464 52.5501775071894 2.0948151358955
222.109436326895 24.0180503558674 1.9541766408354
187.947553123669 -22.7094033949103 32.9020301092088
-203.455510634592 49.48126830933 7.74582746056972
-220.425590253866 -26.4140451036844 -22.9746991165091
-202.968347749253 -7.63798502036555 -11.5816839874196
221.079863720425 11.6196911851799 -17.1625841391858
194.770841492028 -20.3930321202027 -35.2205123707131
-174.261931767492 -24.3805900422399 11.3770472820781
77.3831927607272 7.09805991110392 -2.36506137537656
201.885291647863 -44.2863641180185 -31.8436991600882
83.8151266616772 0.374126562546756 -6.83621151400468
-180.663803948383 20.1940414836578 1.53486613155792
-127.434963233435 9.30997496969193 -1.75133761934087
82.0776620597043 -8.1348130020457 -8.61888703842637
-43.7207111285896 10.0410996797188 1.29313665228931
-245.717725384916 39.0890747601505 -2.41300006348506
178.517031906317 40.9761950604251 -4.60873522437058
186.812579331995 -30.7819363359635 -37.2133767260288
-230.264765309715 -19.1132359825825 -13.6816795544871
-210.390255807226 -35.5313778193623 7.78213644278852
88.305599651028 9.90691037868348 22.8181524226837
185.869958418564 -23.7220514698031 33.0502433928966
-60.0763083583291 -21.7006289276949 4.85650846388012
83.8783271479241 16.7594566680903 5.33136609043843
-231.072104799137 10.5671319032715 11.8813633902492
204.954130531903 -14.3509428671787 -26.1657047310051
-49.7576862124088 -5.42116375669373 -10.039140738441
-186.728991214392 18.2453193887801 7.9766772027532
-152.711825170526 -24.7220124122281 6.527983173237
-50.1673623817914 12.2571599455698 5.90693522021839
192.971688900528 -43.9686412704826 -3.38565764665908
183.15794777817 -11.6029387106659 -27.4040676618696
131.001321358855 4.12143939430906 -8.7513437799251
-117.224001579223 1.73755299483253 -12.9291725225821
-98.9281773653123 -11.4176221009892 15.4082289187601
-205.952765131596 44.5428986658239 17.3592508812098
152.133061135883 -0.359639222975227 -11.0454905229495
70.737693579895 0.0212333349468608 -6.87168789533254
174.467273577313 -5.88505519198704 25.1925937502419
-179.180385572614 -29.4215780536461 -18.3786757358986
165.660361665594 -32.0572740011595 -11.6071359737657
-238.755500517265 51.4551955260804 3.7275931924682
-206.677266085147 11.1159550508405 -13.0234749263082
49.5426277399445 3.78636418499611 23.9233705788167
168.867922135302 21.3145427745678 -21.558054677072
58.8315748105288 10.9633318863353 21.0444716884332
152.644345752719 13.4717251199179 21.6350236897079
80.3278653225788 5.69178450962052 -3.47544543626255
-90.5038541283466 -24.0912813967595 -4.5095980115443
95.6902792170512 1.19087836247954 25.087576598553
-142.364192469407 9.37195762682607 -25.4216662723689
-207.273772901896 -37.9960003795997 -11.6318234223113
188.53088480491 37.1848512549187 5.59653722979628
194.607563139665 42.0194822358877 -38.075274088201
176.440000590366 22.7135160526849 -26.6054978734362
111.620927653196 -17.9967202734119 1.76325491370658
208.480191935022 10.8647235784233 19.7083108719895
166.039663460772 30.5821960562688 -0.0403744956139609
200.484706870675 -32.3066066340821 20.6926562465256
-12.7734759981589 11.1693432082778 15.5459965585942
-57.4225490245304 7.78046997814311 15.536190861269
201.023601947633 -42.1121221731153 -19.7088619741589
171.384728514143 -40.6806051877571 -8.51156307936654
160.293117401992 -23.3025746881993 -14.6938740450322
-112.038188174403 6.30055481031344 10.3335333790692
177.931842545485 -10.872905021331 28.0943377064511
63.0163651189688 7.31793369570976 -1.41223829851101
206.981155487374 41.6661272121095 -9.77092226321744
-166.624910526965 9.13797615337327 10.5778155967384
221.569293011248 11.4964539083693 -11.9249269567387
108.013884516921 17.1298909127749 18.1142011505505
166.815536933725 -13.5976629251507 27.2876009005915
154.269847395152 11.1249206939402 22.6992882636805
178.491420063099 20.5658578500157 -29.664663105198
-180.0196455385 -1.62181831433885 13.4511235563623
203.397516616492 -24.3244971502219 -34.0049649936245
-53.1264592539917 9.02686630886459 14.7977300740417
12.3292989495674 7.15868988244158 -0.411106069582584
176.352125656727 -37.6424066634654 -22.8788600362681
114.16990041405 -18.873481689181 10.2232923519525
177.481782407154 22.2136801763381 -31.9177298914483
180.254128457631 16.789062183213 -26.6741016217435
220.131854964778 8.95393367549802 -5.42996160661428
108.357168293879 15.0156606430065 -0.327820992268415
216.358197053768 22.3571916420813 13.6829368558993
107.411175046779 2.36523614599448 -7.74418279362964
14.1259452385524 -17.60631264095 8.22953901536789
-100.644820161319 -8.39442759690733 -14.2242709931862
-223.583271615527 -21.7443241890682 -23.3998581151504
201.815401509511 0.328137869041149 -11.9789671832785
-218.890298710467 34.0048437234909 26.4481056564933
-216.024621022555 3.15125989960578 13.2798070095596
-191.339870295892 -24.720611357657 -25.7385232090687
-189.119445836839 8.05163356251222 -14.7311075343955
183.354028288482 -46.2326183095038 -9.63770820866967
185.671867434071 38.0792875049274 -33.5845560459047
165.672504846945 -0.0117136810532402 -13.3452076986861
-205.021493007507 7.12438976741803 -12.0949428572319
25.7425006914064 -7.47695350915378 -8.37227256641512
-198.166202294289 27.5724454087311 -6.7981076144411
57.0228706277972 -3.07019250767517 24.9841228588959
-131.730503048583 -2.96466568853828 12.5400809313764
-223.439820978679 -5.70534057155599 -22.7233494971903
182.569166525587 9.64344957411133 -23.487684055002
-209.266369857566 -10.6810049491909 -26.4750044020823
84.0304383783623 8.06192391295695 23.467324211671
-221.978462015945 -6.8507877959484 -24.7155405697664
-139.59426384601 -8.22131161079384 -20.2542071496293
-192.262781286111 -37.9764782099865 -14.9982490492249
1.30386208073641 14.2213802263919 10.5017323933237
-47.5601195846089 0.939026145437594 -6.69986566925679
150.125979522437 -23.9251546317309 -6.80296529622214
-186.595969158859 8.38232855957652 11.4869754020114
-242.698815266042 35.901741470423 -12.0745906427031
-83.0584435674546 -21.9691348840646 7.12649655862746
-16.0413308727143 -7.23879064407465 -9.15826684844425
66.7803024261352 -8.24174301376857 23.9137548560983
-89.0169108040909 -8.63192607358151 17.0611860973324
164.775311411667 -32.2086353503215 -5.5372481441749
198.526448335369 8.1181561882453 -18.9548136255741
37.7882518359899 -14.5636299154801 3.92016913069421
192.560788014573 3.89945928945979 23.8353535215899
-229.102723287952 -23.359931966969 -5.28090055780587
2.50421884422843 -15.118499856378 19.5805848195221
-218.067719212449 -7.78806556959733 -17.9476540927467
-114.414552610448 8.36232595660024 -3.36025424481887
171.664809195084 -3.62475712038909 -15.9600131061913
-238.239120126607 49.9178664214335 10.5246767705762
148.256011227711 -22.3945243675818 10.1845042479247
98.8622074306683 0.318774122847512 25.2168138870207
191.372816988164 28.491031645514 16.9267350382072
59.090126257402 0.445137721722309 24.7820580262242
-216.391977350537 -1.59413219687841 1.29831648790073
189.879168887183 43.3391197073524 -2.71358016726454
-124.310216897448 8.56943151049301 7.35514929912223
12.6877589972794 -16.9506636272684 17.0542547951333
61.8081613429691 6.12522945147231 23.4858980988322
-128.600197213705 -19.3163569238525 9.51843657796821
18.9666348427275 -8.56781346866575 -6.78171087168845
-215.373566864225 -33.3458033342518 -11.0817378267969
-192.374567096121 -31.8119264945429 14.1539403451908
174.07829969016 -38.3624184383876 -18.5925378644971
182.888044388088 -32.8725314471035 17.783322106712
-84.3734445779104 5.74888698898979 -4.54071899024443
-208.073996119605 -9.16701388858723 -7.71197983874378
158.522094414666 19.9017721703493 -16.6621847240436
-214.199085110695 -10.1341477602669 15.3029300471129
-195.600442282126 -41.1577003494167 -3.11482816976729
-106.048660434689 -4.24420074486437 -13.9830667456108
-132.452064551622 -7.6283129573233 12.6627639751993
-214.151158057568 -1.83702077549125 14.2626422976624
-208.030555877471 28.3762071143946 -18.9993949108212
85.571930436469 9.96985841499254 -1.18345070766715
183.068175773129 21.0136476984642 -36.5413184417201
125.414146373968 -19.6400852920109 6.63755875014028
-226.913889750779 -12.2922393284897 -12.4103577047613
184.47451980812 -29.9830116257115 23.8804254440392
212.000011464135 -20.3494518633354 -19.520623462821
41.9670002616945 -10.4467135671289 22.866274244043
-153.262245961352 -17.106095428595 11.3875924428902
-54.7746667963027 6.58813216120386 16.8574637805263
-217.341582201066 35.9369289585043 -23.1296059153625
-220.169264882965 -7.27480313382389 -27.1781743448563
15.7438940330098 -12.2964917627683 -0.21447428214096
-126.054756711793 -8.33613282682645 -18.5860493685898
206.154096511425 16.2493025403917 23.8643764261304
209.242507602692 16.1022062328412 -40.3507919161546
164.916546832855 -22.9303351470746 -17.8003527726765
187.403530229971 14.4766955645056 25.2758228626621
185.642180367997 21.1098174948826 -39.0349669662474
157.687734191403 11.0386720775219 -11.7332120105548
169.345212245736 -30.815504932567 -18.7549138638178
157.238730715254 22.8639973516001 12.811136373852
-117.339753467068 -15.0356531240207 -17.6507989066404
209.785508932013 40.65527460541 -22.6631386087185
102.147303067722 12.3839067426743 21.4431801499576
103.846336833823 9.57555504086202 22.8817244349262
212.221584077898 -17.8536887196676 -13.1762121680321
-212.203825737652 21.5541707429542 -18.7526452315281
-46.8928203117192 -10.4456432019628 20.1714354267105
207.068009266476 18.6921911513954 -42.6291595450242
185.315636745634 9.43271233835531 24.7360524529727
190.190061440851 -44.4885366143523 -5.13849623591666
52.1371317702758 4.7902266477608 23.6161572536324
-109.288917079376 -5.69319557351621 -15.5607083464217
73.5875897992318 -10.6211605471215 22.6605778458211
-127.216853415273 -24.7243395875676 -11.0593654309947
104.802030233143 19.3444909619679 14.3028917114362
173.01849410891 -32.1379899707098 -22.2360758521584
210.864206842527 -31.4077027863552 -27.2335656460594
-210.385494403527 55.6485738149293 -2.51984242099633
-212.876718499036 47.3911447132879 -17.5208775211459
54.3338839571973 -16.500732752918 15.0811868904204
-194.551230720838 -40.8387896647319 -5.61093525476908
31.5825325681695 -8.12773941783559 23.8029934333796
132.109795175276 -19.2308212091261 -4.55722170528648
-9.61223944243442 -18.2342273000623 6.69694104407508
175.422994684031 21.4620350778718 20.2703996819213
-184.561499702122 -22.4007785429667 -25.8539822469858
65.7898466650671 15.8585073360413 15.4915611362193
-12.2736695174163 -12.1509308294084 21.0475145652704
-93.7355400400497 10.8024611751174 5.19085101842775
-35.3547203845892 5.25452361078602 -2.38555202089874
220.806445347082 35.6542903892253 -10.520146101533
-138.400171188158 0.433692557069282 -21.9198456232196
-109.443146601557 -20.154342589599 -12.0867027089471
-187.661083444549 -7.67411473835865 17.1381387718394
74.6032809441493 -16.0331860587773 16.0537311588057
-138.57368916074 9.83437504784683 4.682815730824
197.309605523717 -18.9025397169841 -34.1985611490367
203.892375147984 34.1632308704029 -45.0072509742916
-200.16063018379 -32.1801902004629 -16.052488573129
194.826193873153 42.2973899584836 -1.52677975612936
-245.621872379043 24.5505373752201 -0.140919166429918
191.040459703798 -7.42285313541267 -24.3083711940359
205.637192751546 36.2878174995936 3.99554800075326
-198.783092896331 32.7029009838448 6.8588906002449
-222.6686973462 9.82712583091153 17.1752017393668
176.551251051677 -20.0989410081352 -30.5889216671489
-50.08289066154 -3.5050756544734 20.5658525840513
189.477669397835 -31.1302495866359 -37.5020211296178
8.57822026859154 2.3505510548425 -4.41258592014254
-190.411348982896 3.93963087010434 -15.9839806491925
203.666225319754 19.6624258011441 22.3875210017438
-224.528371644301 -16.2629355282464 -26.4765764315738
-219.0437252383 -13.8850966338644 -1.68834890768569
-227.038005714277 -8.451480485742 -22.4553971641316
-229.322366121644 -25.4819198534677 -10.8356869810097
75.6560640995529 14.3888733199212 18.7389704040133
-229.782333028405 57.42476887794 0.0787222838731811
211.610932674774 -21.3410795872315 14.9004674123302
37.5285554729907 15.3714811846548 9.59393085299388
81.4180476228235 -10.0872585857438 23.0394304245745
187.556840088867 -19.2449026002439 31.7732475599391
-198.068282089209 -15.6448272536365 18.3670193959164
-215.221494008113 -8.08867429437318 -24.0806858430436
89.970906344699 2.92822255478022 24.6372669226891
213.517176069366 8.32829205840233 12.8102955165088
-213.487456455249 36.7642841715264 24.9900532030282
-123.161766627087 -18.3635256646925 -15.6870115793801
-25.819920304714 13.3356101377375 9.25056997098142
-63.899360316507 -15.1411854643204 -7.77311821476686
176.32502562116 -4.3056924767341 24.517185525781
156.114703890765 -13.7970690221114 -13.4632912752383
183.411843037636 17.4141167317061 -36.7930156935582
-12.9106743155288 4.08028765469828 -5.36960376969378
179.372000386529 45.7160445012818 -20.8957680599102
-208.265719493972 3.99197325024086 -10.3132875705035
38.4862774467263 2.30585493393227 -5.23968088272316
126.782302635648 20.7708089604778 14.3811769885084
215.573424477062 11.9129659575818 10.5526268455548
168.54602907679 35.6802572015273 -18.2234936579407
-179.734935278308 -10.5065690181249 13.8249802536094
-215.059769006554 0.378077277687305 13.371001025095
212.891889160226 -2.72736086111705 -7.1021856795076
206.388252912821 41.5175959323565 -22.4409066086509
-120.709436316259 5.9977678470618 -8.00586257831878
-148.555174825998 -12.4328361476089 -20.9163050394895
170.95433982891 -11.8364754271191 27.8108153711006
65.4341806020936 -16.7782600168513 12.7842449225534
124.888528498977 10.9859191693736 -6.41373817488168
-26.7126251798732 -11.1190545501685 21.2979431695295
168.82984183831 26.0689124038094 11.0364693312212
-174.735353420528 -1.08754094386751 11.6915627406715
-32.2761478478577 11.7503304913676 3.79770588455561
67.9488236674443 11.1249203001902 21.215115184249
-163.653901795948 14.5193667728991 -20.9509068152445
-201.774029609899 3.50152809175522 -12.2924639638625
-166.207584457359 17.3096813213576 -7.8204254470594
-0.440846979687801 11.2870100347222 16.5663516498965
91.709796919301 13.4026932610832 0.774632760426362
107.470213950875 -7.25276546799595 24.5153017764882
108.109213013677 -15.942318803312 18.918167151945
-153.963112263877 2.9517544337759 10.0194092017191
183.997324603486 -19.3143634499704 -33.8806637385931
169.290001381714 -25.4805535525061 20.5365715947014
-196.309875565525 -24.3279266982712 -26.4598276456452
114.642683355111 -1.41486476351703 -8.66924130609982
-135.166902046464 -2.25560441282555 -20.4517618580921
176.081473297519 -14.4419446985388 -22.8744325733522
91.9941535795339 10.6091940182533 -1.28069874975176
-126.818948344965 -14.9740697672729 -18.6132115733992
136.892718453754 -16.3985364209572 21.2538226706604
-158.322707505144 17.4168990938035 -10.7748090356103
-107.916260170435 4.1562762704885 12.1251866869666
60.8523183758951 -13.5343903384747 20.1372053925336
-10.6490940230591 -2.71961833381021 23.1001369372458
-236.194714487481 48.0295597270238 15.4362028563688
179.9138571092 4.65410752791339 -19.5768391142181
-155.578892406331 -8.10369467402476 11.029434905971
-107.46634881869 -25.8995178514076 -1.79874231856487
184.346650021135 19.7471024394932 -37.349144211368
-142.19900242798 -18.1741328039362 10.5852179174037
192.095173459837 46.90252706172 -9.85993355625924
169.807864551133 -29.1702872865553 12.3968372841371
-64.7253740312224 -6.07222473057709 -10.6046923447506
-197.928627120435 -36.998904880985 -12.7540312434139
-200.528555551977 -7.55035838407465 -17.1219644119482
149.386069269707 24.8576630884761 -6.8843113208398
-76.9294344828906 -23.0072913349517 1.43637016162703
222.21022445783 14.3816486411042 -18.4595090014002
-114.656890750688 -26.2509970879879 -3.97397231182442
-42.6477523650387 -18.5418825841262 2.07717411784803
-72.3878781486809 11.0998118614594 3.27611177478188
-110.11769252278 9.95089491556576 0.0291207039727029
-164.70227515596 9.45037140754752 10.2803742797117
-209.001460177827 15.1236135218751 -14.3631978381184
-64.2554480597571 -12.2850990801683 -9.95045267037132
-27.10946282631 11.1579815222214 14.805062068501
90.0970912592546 -3.78030674662549 25.2287377819741
-160.623534632569 10.6225149680045 8.23026158183104
216.754296533876 15.4720514847317 -32.5798725410275
-214.800483616485 39.617771267864 24.7770675094231
178.904443032893 12.8768663133787 -22.0398512266751
133.547447891454 -18.8278565309481 16.8037540942941
47.5912983905406 -2.35749755805468 -8.06593130175146
206.066517397677 -7.24582428250593 -10.7805809932777
-169.977873888309 -30.0899562267759 6.52136682859938
171.99542261541 -35.8395418364067 1.06534879518364
190.445311578375 -27.3744892847093 -37.580275000629
168.523022927398 -31.6557236676358 3.61045778706921
-207.439465102497 -30.5823320001754 -21.1938453805685
74.8885576308708 7.75477963358828 23.1648536116415
206.821908415356 32.3084027606739 8.67393024243889
45.4149814298829 2.15165271144063 24.1685821889746
211.741943130494 -29.3595662311405 -25.5304613418176
-83.0609388655056 -7.36977524426765 -12.2609630963805
166.448724570575 -21.2720004885891 24.0236008200103
-137.847708996116 -26.2651736332429 -9.20238004800345
211.69889040702 -42.747255002286 -9.66510081709891
174.471634858542 -34.079717250752 7.55463041198679
222.866216062223 15.0905014124479 -7.43597437705777
-233.017930374566 52.6046641221113 12.8051573991931
-221.740813108676 -20.7245775104972 -28.6764546550271
91.8827111330979 18.4983902342267 6.52896653542782
109.425416874498 3.17203642296141 -7.73215156242207
119.063117292317 -19.2230685020437 7.7517166008905
175.25211842284 -34.8314774816181 -26.3436595170419
-83.6001026094156 -3.23543697809638 17.5830630565029
121.378301686513 19.1608225465418 0.562385821102665
-187.785614202926 -37.9094637839865 -10.1477849720315
180.908713283602 31.8578077913782 -33.9233880656659
-221.619657123487 -24.1827771949024 -23.296260471739
-96.0078768935514 10.6852339562521 3.20816457286148
65.9709145924566 12.2587906339421 20.3445110942562
-18.2427111247961 -0.339236122624498 22.4232143993054
-150.212143394113 -7.0421161301203 -22.8240945224887
-21.3041412624633 5.1431613590076 -6.58844335437425
-219.097890820552 3.53430732551181 3.54042588317783
104.03202563832 -18.1498858349246 11.4214638614502
172.975125296499 -18.4499866910417 29.6127875947956
173.085413818373 -21.2592393079716 28.6873211093432
160.434180590824 -26.5444265717009 5.65955376026532
73.1211206765797 9.18850728831835 22.480858508072
176.293882904156 9.35467717425736 23.8125252817177
65.9160299612002 -16.5604638861586 8.22196679919207
183.614661677373 34.2684648154423 -35.8392751478477
-67.4853634152306 -8.20026485397494 -11.6921133216535
210.513379679466 -1.54285743658418 -9.26974024458463
-70.8843021987089 1.86933732231822 -8.32697618910348
210.060952339651 -32.4439747837204 14.285564905978
-4.87555577575811 8.46148701703087 0.652260995886184
122.488578578817 9.08412956750499 -6.91649883600953
-106.335935160985 -21.0665687373423 -11.9212123371758
15.1458912706327 -3.89479714893476 -8.52891465668804
-174.051563409245 15.9544583660267 6.84489483538708
17.1145160343918 -18.0581375903869 10.1985360948074
196.357160356515 37.3524385075468 -44.6541628694153
101.962340270017 5.31904268138038 -6.66741724652163
85.7486888709791 -3.40451594915521 -7.93343463100976
-127.655304086024 -3.36608235562357 12.8485839587154
215.334115843533 -28.0388732758905 -2.42885771045242
183.032006393339 -23.8465162804207 -35.6277312330652
12.224792132921 -8.40094462713993 23.266135427177
204.753815338898 -32.7035668116682 18.6738728207072
-57.5394977730055 11.5086231988374 9.61470283167381
-204.435705935023 -0.371531979860893 -11.1888220176967
-243.106836609055 19.2823113632512 3.12537089335511
-170.996240393914 10.5198020087917 11.4201383786013
106.219410269842 15.4465295393792 19.5012760641148
-132.420374469696 -9.18087927035418 -19.4636767226164
-75.3552950375816 3.01967083624265 -6.0440004926866
-179.401313512463 0.0887362424066779 -21.5159813583261
-238.591089412186 14.5823400859832 7.78508051293172
-20.1324424724232 13.5185735506448 8.4820105122
134.576881129664 -8.07859919057601 25.301660069897
221.509154005369 24.1264305704776 5.76350631901672
187.150715495121 -46.0767064913439 -14.0161233180158
51.4304018341053 2.41997546781354 -6.23003908476887
-127.239227323494 -12.9348171314635 12.8104924187614
205.713806221211 13.0745079393073 -39.4354139439019
204.973739061604 2.12648959392079 -11.4490966577349
-172.690617854615 18.3794958316669 -0.866530426451439
164.55511513565 -8.66852478707724 -14.5087322980026
-199.521706475218 -10.3009500310996 -28.7544862923708
132.570726618445 17.0663270068611 19.0281688446846
207.090572004111 39.5970841042959 -1.67582388205532
-237.103154902183 24.0858484484272 19.5823465217921
-109.546127128765 3.15081233361775 -10.0057359259281
176.938190844772 -39.092570232957 0.615596363143256
-228.1510600028 10.822919817382 -10.4792480029312
-163.794780466953 14.0320233609842 6.67536947901692
200.045418055163 12.8305406500391 -33.4088926505342
47.1669356829553 -11.2072805416726 22.3629527604061
-119.159198180199 -24.9554456927594 2.11741294014748
172.406132311712 -39.6196204379836 -4.7789441928401
-52.2519575648897 12.0930818219048 5.13757349564854
-191.045740119341 -4.55440081974084 18.5915530110169
-89.4783096401254 10.8358230324545 3.09380986738074
61.8427281919904 8.12690430772089 22.6896210856587
-197.012286588531 -2.44852488620363 -16.9872352264564
214.055460895815 -27.8361378002277 -20.5994239751637
37.8398739454376 -11.8438677224678 -0.702845419864236
218.111294304966 16.6561398364953 7.38283062758218
179.362114207483 8.70692897868251 24.0151548724191
-172.156448347237 1.9739981963189 10.9889803246257
203.40401667147 40.2230149277715 -33.6558923192322
-216.658840620637 12.4015740810116 18.9032540171835
200.575336435428 9.60905751484963 23.735391510544
131.758378369825 -8.62462642297954 25.1105841966561
-206.687489852746 -19.8471359136085 19.0579076432521
49.6339130161042 10.314982520627 21.1799668791518
215.959103889403 17.7329597004897 16.0330604633465
89.6887263693971 14.2462164788129 19.8147346170706
193.795743964799 -28.5907640766013 28.139832057619
-82.1175115612282 -22.0442096959633 -5.90645943700852
-104.91758704178 -19.2786779815943 -11.9416255946112
49.9504096758821 -3.76038064488328 -8.1925378868029
-7.12828531954784 -12.7694081738678 -0.887416138359691
-78.0548250773409 0.330918841494545 17.354984988447
197.59159742612 -33.2827484617743 14.9245512243101
-199.504538040703 25.7345280058518 11.7476542484071
149.31387250458 6.1473706016667 24.049334710018
-246.753749225154 34.1311372924092 2.17071807267622
-174.12234070969 -26.6742478359198 -19.4424271057002
-180.431677306006 -20.4478591993227 12.9709211844861
190.38160119692 23.3630814939967 22.5357552734229
58.3521985653197 -13.0607879960744 20.657547322281
-217.226643069737 -4.0750700458461 7.43199901910709
210.816397404143 28.3063610768426 -42.3940517538973
-150.486687123675 15.0467632797171 -28.3110997803437
-122.302377107098 -16.2714215236084 -17.2050954584272
-186.882798975679 -31.9412951633094 14.0023321215282
-228.060829283048 -17.7643462078054 -2.5384189258249
62.2235490279638 -16.816271521425 12.0290014688456
-224.694890807871 -20.4017639670754 2.87023035126284
201.545370875421 42.059870085872 -19.8057199356747
11.0955786973783 10.4544713830825 18.7393380785
214.515005741309 -20.4148192017031 -7.62329131417844
24.6130375421656 -17.8095075041325 13.9776503945369
158.822977331748 5.49769086338936 -11.445639345021
-104.247668941106 1.93277622409217 -10.1638518255914
187.203131928711 4.91829091282335 -22.653883573301
-131.174709643569 -5.31144399056426 -19.322562089527
110.930120620929 10.1886028359454 22.9466895737183
-96.4537398499931 -14.9910898474243 14.3934731557275
-169.003859761633 -10.5988764906991 -25.4616298151466
-22.3858502866088 11.0831359276223 3.11317762869877
200.434893398633 15.7184747306275 26.916187761015
98.594809639892 -9.80326761557386 -8.61906294957361
-163.754311132277 16.3853243568086 -6.06558009689842
-11.567121660351 -5.2766052730912 -9.0352145319299
-186.95647086958 1.74802240509983 -17.1197631599272
-131.916344154393 10.1248003570897 2.84891635941064
202.557899654348 42.7772855983767 -5.38353949643488
59.7910254677143 9.31385318567059 22.0289544882483
-36.0842219336658 -16.5112178463569 17.829942242713
188.119828440969 -41.1831747677505 2.34448410422614
-174.134515185346 -29.5529305085277 -15.3404924643871
-222.412614396339 15.2504078170673 20.9376918501083
194.748585522563 20.8964243804367 22.9236649172042
-216.674310996931 -7.72838991520392 10.5231727588323
202.228601894809 2.87132025104225 -12.9149649670953
-155.872322909557 12.4116868840985 -0.696387397592148
-181.63027904429 20.8632187745575 -6.50976593361137
-151.482556176222 -28.5872816113854 -4.08113785796732
-2.50101709959359 -15.9011145307886 18.8189953110599
-216.139377825227 -10.2360069394445 12.6006764866964
178.866950820509 42.3397891685972 -25.5674518004145
-240.756421578756 47.8346959193485 9.14181719344753
-228.469065922182 7.50788424766477 3.58857721803797
-213.771411291589 -8.2978694543538 -19.9126593672304
220.295015453762 20.2838397241557 -30.2632760523097
152.556116657782 -8.92480505563839 -12.5219087727498
-35.8454383327263 -12.4227327340134 20.2716624595455
-191.386737797677 0.376376888728001 -17.486659451307
211.636435411874 26.7546200408487 12.4383470294764
-77.8519074881216 -16.2122869110157 -10.5750765020281
194.052892073017 42.8073489271627 -29.4363200923179
-202.838621600664 -39.433347579857 -9.12203491092668
-139.950797190182 -11.6167759376136 -19.9208237415476
60.1234161809006 15.2760756026869 16.2859002040027
164.082466714447 -31.3109012315329 -1.34560075867357
-206.276444520512 -11.2255006443625 -27.2527817134537
-243.509632518696 41.2623398700515 -7.76792817257862
-48.4119281871691 -8.65548093644018 -10.5793841788079
-85.4735393926316 -16.999802355995 13.7231950635392
2.92057215295739 10.9401623975373 2.87170824284305
-178.195536125057 11.6733768163043 -14.491576899603
-67.1217324669653 -19.0834306740027 -5.11648975257128
-52.6141468162646 7.183609527773 -1.69694950376057
-215.258228474385 20.2158153692524 -19.9118496302593
141.303421351061 9.0538822661043 23.3743772172971
48.4740719604841 12.3859262197179 19.3877961604295
20.5780682970112 -6.34000894164307 24.0817759870125
165.389697731624 -11.458241117294 -15.3578933585419
-207.206007911768 -11.8873961533699 23.0903637359547
-224.717136798474 -26.7849963103203 -15.2328310982347
114.516918593115 -13.0098618270852 -8.93925041493371
108.040715616108 -11.2665892040387 -9.13642592154666
-36.4584571442497 0.500391979009846 20.9440128731291
65.7372080401112 8.41873565972705 22.6224115476508
-173.59268806516 -22.3605012240126 11.7921012021952
208.318544061787 -28.3456694185334 -30.3107891383761
-95.1057849860661 -14.0907702679652 -16.647337142888
157.62952009148 -3.08987460040476 -12.2408935626063
-219.368344537652 -31.0133063859063 1.31566161793075
-60.7338940982888 3.24443743076356 18.0715813887226
85.7196847570948 7.61744808614031 23.4683394775312
138.823233350837 13.5918248450856 21.5148320093695
207.443731042064 -40.5165810516457 -4.25476865145844
-52.390596745417 9.50054155105718 0.371372172196573
182.209925705162 -6.12717567856757 -23.8687251489289
189.358713836068 44.5944862753843 -29.1157763513753
182.139664795011 42.1860233148625 -28.532974179151
44.3079272498401 -4.20043896255357 24.7458619028422
160.537591765232 -12.7193193657839 26.1234899095941
223.831044429077 33.4482306345434 -24.2885995842608
-77.2634102088456 -18.3796558287556 -8.75544089601866
50.111369286832 -17.0282620730089 13.092982108746
168.426816560378 17.247036426398 -19.9324924014248
-27.7709893816009 13.2756747863769 7.84238998439819
171.968983211615 31.6772250357762 3.72930654148816
56.1107988393542 -14.6048543789143 3.3532135880452
-57.8644612572058 2.00994507056219 -6.61463077370508
-212.41098374653 -3.4151430180146 16.3411640135976
-222.057755704513 -10.555378466134 -12.9631037809507
205.241514400809 13.4525798104915 22.7397148031199
170.92680199947 -17.4698088692762 -20.421604754078
175.128664114718 35.5811894183075 0.126399368262373
64.5086899927229 -1.71733064880464 25.2103278888634
57.9883781449691 -6.96186885252504 -8.20060298077508
76.5100341255334 -0.300342949839698 -7.13688924332555
-202.553768499241 -29.1205212541956 12.6744698279922
-45.927607695703 -20.5639694234593 6.8942725622877
93.6830400635934 19.4471697509236 10.6546727147154
-29.3412551607287 6.00451826812072 19.3226294380504
-233.858676163112 43.1235004035931 20.9363613366139
209.34025477522 -15.1897462966524 -21.5357275091382
-186.679033702725 -3.43334817247848 -26.7227679418116
-213.062377314397 53.5594994534715 13.188762379857
-215.802863149025 -10.6965191419687 14.4358115334164
-86.9622664249127 -15.8014907545263 -12.6839524974719
98.0655770092407 -12.139519015476 -5.98348222166414
82.4168136307018 6.31562089891275 23.7178781288173
-176.05678006211 0.413141796604002 -25.1799260879007
10.298801134978 -15.988337608129 4.81860545379305
200.692694038053 -35.8884638662863 9.36832896779253
-51.9771854661067 -9.73142644179463 -10.5547979435575
164.447491426755 30.3172709979324 -1.55139571259829
7.72216420112631 3.2546768117571 22.8601056264076
150.201272546045 -2.07669438927541 -11.2208069996752
-189.313530914366 -0.998590461439181 15.7322970019332
-17.6586501334455 -4.84033179508706 -8.72754619230967
-155.076401196638 -6.05462359432467 -23.9911315967951
-18.4783950972759 -4.6770354110029 22.6110495577343
111.970117348625 -18.719655086038 10.2981348515397
-159.14638327245 -24.7736646003655 -15.7700077125682
54.5346262975333 13.3910109908746 4.27329288470518
-83.0383961626659 -0.394209424055114 16.9889300236725
187.235402336152 -21.3874311158796 -35.6731945637008
54.65593126528 7.08755826905801 22.9903789256102
0.384108629712179 -14.6201075001301 19.8864145880145
-218.491931992259 -31.829323218639 -11.8078051799035
213.952643338334 37.5367017325856 -6.56860801343248
164.288245191565 14.5887543347855 -17.4014831891025
-213.293983268953 -9.66902079236838 16.7780807529111
-136.610982614857 -21.6384018274966 7.60623963829533
-70.9957521177565 -17.9238879810722 14.3351202115802
207.561367021243 15.2892204892596 21.9990428520807
-70.7076695506286 -20.8624174822182 10.216786806868
147.379427140757 -23.1430942954981 2.68649635440255
-173.407591808908 -10.5684376559448 -26.2717540113297
198.165280439504 -9.79235478347527 -19.2381402678109
93.1190440284375 8.07918679287658 23.4585928430042
-243.141051667187 25.2364706071939 -9.82631074581426
-188.188020706538 16.7460925927309 -11.0564862006289
188.384296575158 -46.8905576128254 -9.0270586642125
-79.8097251644903 -21.3787634168571 8.36570558570361
183.058826987194 25.6644039182909 19.3121156650402
-192.009038839051 14.741377760703 -11.8646368907914
86.3349190936569 0.557205994739753 -6.8658052325907
185.467469274479 -44.7223214818586 -16.7104837571346
-35.1094159646699 12.9488359631879 8.93362174168387
130.455104645651 -18.0595504445716 17.8209986068382
-205.500102155231 23.0495291379302 -14.4304860667569
-133.962867906426 -19.8669865579189 9.18377381075312
-185.168274446535 10.414671001236 11.3082558545221
19.4547904919333 -13.2186918914157 1.49947951927803
-207.109252120824 51.8262304681977 9.95292009494309
203.622159059146 -11.1875790837914 -17.9018668105219
213.369604595358 -0.178376669089063 -5.85612679859197
-221.442889994719 45.9314608872441 22.9644518665201
-187.197341788215 -23.5413866285835 14.3982011187007
205.781226962697 -37.1007736686094 2.47260987913101
213.059062973134 -18.6156083848464 9.41625611862824
22.7435899073464 -7.82152486206636 23.7220866966365
172.330047088473 18.4278513561154 21.122167519471
63.8055457638237 16.7884820991215 11.0410566106073
169.577606148933 -14.1650220359905 27.9936324571945
-125.951951661479 9.51542254542661 5.57812524066589
140.193770485514 6.22553290576503 24.3749886938074
70.7092996316438 -14.7978176828288 2.29078005374934
-234.397645894771 11.285009319788 8.35003598379984
132.819891414233 6.76651310692709 24.2820355521995
-72.698551832128 8.10591055117006 -1.90931883737241
-189.79512526617 17.4231177067911 9.66948572712218
-227.640943424185 31.0686176526425 -22.9324117086981
169.277695965431 25.0312419358045 12.8685738312735
-5.28324286451667 -9.07976585274426 -7.79336334118693
-230.577799792209 36.2664045263364 -21.8218293237851
138.505740656224 4.50269027676157 24.8511657974793
224.80180152419 21.8781780806886 -8.81599078622627
8.52402774059235 -13.5159103573787 1.60866122979687
-163.763716699486 12.6246390251493 8.1349452279797
-148.483922972315 -28.1590994363728 -2.54890211983184
-182.618605372335 -24.9402618164935 -23.9695063141947
-102.505585941575 -21.8822362829643 6.68319639117682
48.8307692900277 14.9245655252087 7.24904331760933
212.496624586368 -42.7345573918549 -21.2264707965233
111.555344289761 19.5537129116295 14.6229415272956
62.7892071763638 -0.459347985626266 25.0915101741603
-236.00647481202 29.30967220588 -19.0443269211964
-195.179920361042 -1.34225611312127 -16.0849361956742
-14.540340260765 -16.3404910124879 3.35775803335779
-82.1960486067388 10.230176605779 9.16306423293844
-166.149666469554 15.9238493773727 1.46979598121585
30.2234380592662 -12.3087291879669 21.7178294404184
32.2738635027918 -16.1215780518116 18.0491574188269
-184.366369202659 -29.789050831382 13.6249573854627
-193.95788653881 6.41130013089577 -14.0118622385573
37.5075634561452 0.867679965454475 -7.17849085140147
146.243192536809 -22.2271616438568 9.01075765172752
73.0723816363846 7.45993583641101 23.1697177228065
-130.564561056716 8.9324196075964 -3.29173719782191
-106.361960148481 -15.0573980670185 -14.7913205706571
-96.8233606558821 1.11293859176272 -9.68342403205367
19.0202493805523 12.4760539622286 16.6621672884102
-144.749849459251 -16.784202668895 -20.2605858088227
32.0545137503443 1.84532969982399 24.0663752054088
-185.387708775891 9.04390098662623 -14.7841551922643
-185.934477855838 0.372028121981239 -21.5404626522574
48.035212011807 -14.7592671699198 4.16810946109284
-168.441154686851 17.8686665601772 -6.7654576725027
82.0027549041636 -16.5488030209243 14.9507948680915
47.330918048821 -16.5411080589696 15.1599431352039
65.648055636959 -15.6574320207878 16.8734528972548
204.084872183572 40.5016837360589 -1.55000356041571
167.844812927744 -25.4902325743362 -19.1302655205392
-207.92823562429 9.65107431371747 19.9347732648294
215.059523293226 -26.7361171521853 2.77215022311192
-144.57671355813 -20.2146816677331 9.4695738279225
