-207.804235121111 14.2225348203485 -12.10349607119
236.310994535547 21.6903216100011 -1.349343840089
-188.406570853307 -47.9840201170706 10.198304264655
191.722852974845 7.02407357651083 28.6979703585012
214.869630429911 -18.5859475158786 6.79756546869981
229.670328658644 -17.3430971258155 -16.4763289670192
31.5413975874767 25.6231910307919 -15.3627531988113
-220.091986827601 -18.9682770418236 4.65443876576668
-186.586685897005 -39.6704027553464 27.3373084941811
-196.524039610618 0.788638057453111 -18.6739808135062
-18.716103588362 -4.71091478782714 -10.9374116405978
-151.392135302173 -25.1053246387255 -6.63433455695091
161.442532456368 -6.82344142483086 8.45338894337149
135.858538132043 24.4443986307227 -1.57247137711295
214.324643957931 -1.93289031970984 -9.38022935520902
-92.5493525844272 -12.720262596896 -18.7279039824369
41.8529926553116 -0.516079467957654 -18.3466412868508
-188.84388325151 32.8802861030902 29.186825650954
-104.05043977182 11.7473584966329 7.96658664882097
-154.610010342604 -3.46362991138145 -20.0835478856758
-171.504408412178 -8.99306996917222 -18.1261134768263
248.198920556526 19.1649709232882 34.3115330846156
189.523340123087 21.5026466982322 22.2101939202546
210.054488697176 23.1485862946285 6.41923922088964
268.720709934768 -21.0086687122531 -6.83829715298211
-191.161731375317 -20.1235523040013 29.6756896222621
-103.796839945121 15.3086787080561 5.69068934328771
217.245663576646 -3.26409869076179 28.6123312217864
-197.038881188473 -47.0562543607226 17.7797877102733
-189.827388951517 -43.6746461063828 28.8083566930974
-42.368386616908 5.3357507051937 5.04731962384059
185.873371640638 -12.9407778411422 6.26547763378476
205.843063673725 6.2116783047429 -7.14312237185858
-160.947396919124 -12.4734408713361 -19.0882953511956
-7.22234684422141 -4.30212638874003 -12.0038004453737
-174.924309867711 -35.1071397893611 -3.04282759440492
-204.635370619696 -32.5721340702138 -10.2712259656247
184.309516068065 -16.9610956879996 18.6333585892335
71.5199489815862 3.16601734121173 -19.7355853312877
-116.770471031442 -1.25408175537611 -23.4675700012228
65.2634812277382 12.6655634059799 -24.4356392533453
232.833801159347 5.8663941087552 38.999791116261
100.674803455329 0.526014433794866 5.24867774286254
76.3889357196609 -2.50541354930497 -1.20728721283115
-66.0649190232381 13.9771734984607 2.93776549103184
2.57741161621453 21.2449765243996 -4.61511574662245
-19.0707316558626 -5.05023245890536 -14.1150382339334
131.652924628873 24.0988150358088 -5.16403178215676
-134.148163767522 -19.5412581100107 -3.08239627090082
-129.118037884474 9.14005223014423 -23.6213818035872
90.0373049324733 12.0216153829273 7.23764792436541
-82.1427509760582 19.4382786429159 -19.4389348918828
-48.4099257807637 21.538372038724 -6.32501387149414
-106.415517078439 18.7627810691345 2.43225263615675
-30.3485977967302 7.34821841889924 -25.9735769185189
-161.510067152013 -18.1893892248904 9.44166123716733
193.784364984966 -18.7650963048842 20.1313695761535
249.706233066103 -48.4201129958932 -24.032883591746
200.641076278654 25.9658274826917 15.3146167463704
-84.0315679524519 21.9446275587158 -13.427395760169
-212.866859927694 -26.6794208502563 33.4748272824214
-102.551580501127 6.31870527522525 8.99136946946812
-212.737664766478 20.4429457184485 -1.56350266945654
-143.409407914316 12.4238975593832 -22.69536571929
215.876261740735 11.3562783474178 -5.71175205770732
-132.762844828345 -7.37256496814188 -21.770358848216
26.9702238570499 15.0578080514589 -25.3853483329965
150.099174330791 10.7452187573562 18.0221381449434
211.713985502618 30.0535977091363 18.6579609427428
-2.2172184308783 0.468825237737951 3.25407772218849
262.638926010695 -26.6151234221222 9.90982715647125
-56.4113115886897 18.2791317571525 -21.712513630317
235.260369070366 30.0161670556462 12.8222543888657
79.3903945109384 -3.89233644410879 -6.22760540334359
-29.9413738734917 19.6605632585974 -21.5380535165902
-210.298347733908 -36.8400512426846 -4.45596522244212
-80.8526745563689 -3.28558310362764 -24.1130030555853
-220.224322106906 -20.4407172364243 6.62988991894747
-69.5941158668293 9.20555262331961 5.41742364389176
-80.4903078327854 -6.66891546187886 -1.57295516157605
-157.083354942874 11.4662793688815 14.4433400937255
191.992295004685 -21.0805556785895 12.5005247238238
-42.2118982524921 8.76892616160193 3.71592317189752
-111.171245867497 22.4355629757501 -11.3350486198678
31.8551853073615 8.96094961239806 3.21379493515267
212.493158856484 -17.4831263902624 -6.65349043925663
24.6585795809147 5.01071024352573 5.00765849179733
-180.943700021916 -29.2829471762447 25.0947960014032
-202.974382088162 36.8696265091197 24.971274168535
208.018193250733 18.3265594595763 31.6527299561396
-209.14227429401 17.4531727116847 31.2523358594445
-70.2287977612922 -3.30660669172377 0.541379213702914
-204.52863595006 -19.2210825696208 -22.5826049893194
74.1161935635468 14.9266058620837 4.63823726714496
-201.670281684126 29.4384589490126 -14.826421115373
65.809795847413 17.2179154089833 -23.1910854952579
-53.4500186298953 13.4763001978422 2.19788799034788
263.399473830575 -31.2253080220301 -24.6428143283611
-77.025939168396 2.96568507672189 -25.1989929404303
129.051516771926 -4.95811222078537 1.00371795829159
126.955504431748 15.339591592957 14.0285690920372
-199.257515590172 -14.9332188827776 20.3955312544555
213.333072549804 22.013228784333 4.68780148169661
207.990982162035 3.31674242330712 34.1051726446339
261.658391894785 -49.2873127985592 -3.91618421615834
-112.938438431198 -13.414157581056 -1.77058511886725
-209.502323390686 2.6991937451171 -4.122066813274
-185.699728195079 18.709243333228 38.5566161988106
225.146030359074 -27.2285280753989 -13.5257579088141
-141.183722680887 23.1382957380564 -1.57885022483406
-2.11691367025801 -4.21182779955889 -12.3624478508003
194.775863644875 -21.2260982963051 7.85966466924347
69.3094874886077 6.15500377270324 6.76677560890845
174.666065265649 -4.98613849917343 17.818270232357
-89.2547111216498 -5.39459797916924 1.62017951463461
251.814334419749 -6.99844715092323 -7.71728964154794
-200.215635800603 1.97419784453633 -16.5101650281417
-203.845888859518 1.39057849961214 -14.3147942424576
-181.219833948502 37.0205323957133 18.9334578815221
-213.063689594441 -36.2341428744699 -3.48149024003547
246.150122605947 -53.3855804252516 1.31233648104136
-51.2075882744754 -8.26363534729653 -13.5125569961751
-86.8500481275214 1.61031590146161 6.09512780197135
-199.19644750865 -2.34728864602789 -17.7636447449953
-180.330453830961 -34.1087889046875 20.1206870459869
-178.403165757663 -43.4388810296292 11.0108928431546
62.9932564629665 0.288540206234584 2.81240770207111
238.372989304094 -50.0344041252086 -19.7923223361109
123.872311849216 22.3576957951239 8.65666715303632
-21.7340015864208 -1.14052511172051 -24.3962733657338
82.4859512307923 22.137480357782 -18.5778613067149
-156.805297329207 25.4330152727363 -3.45122382443875
-68.3295320245659 -6.66511908946544 -4.23101714115867
248.911260187824 -8.55439206625378 4.48944964282756
251.849787089454 21.1967739340658 4.94779062771134
-191.154222285657 -20.5863009121579 32.2833201798516
-208.070494174582 -3.11575822560994 -11.93931679534
-175.923198182528 3.35426472442677 -18.8562379729096
92.4151699676116 10.4296870468904 -21.4740851577678
-169.464504418893 28.6943309443895 -6.19128633330034
-192.944681607913 -1.68795378973555 18.8517793912457
-196.956595250365 29.6431781221495 39.9198707278218
-209.548022633087 13.2761728865068 -7.72319411197464
260.398176322127 -46.2418693733672 3.85205183321379
-54.2211713320094 20.6552970700198 -19.1938564473728
23.2613480459048 7.31726402570357 3.9142689819171
-99.9594237726471 -4.51898521837516 -23.4662791979804
-133.799073370134 -13.5029634372942 4.22080932521187
-209.317706483927 3.30583205860538 6.11544516295147
102.411842386334 10.4567983454044 9.16260832295952
108.259211844824 25.2039425699865 -1.09691956519954
-217.027216649212 -38.8092831421994 29.5327233997353
-203.213206211692 -17.4042423460092 -22.5199886334724
194.704039441331 6.56110211864897 -6.08805825524249
104.956004281431 -3.399540680584 -0.282078055109775
226.101388575989 -8.04103945919596 -12.1064912384839
-161.018116583544 -2.64800144830818 11.3352767897481
-208.496492916728 -5.18787177605174 8.0656092744601
-137.37375832248 23.0409937568935 -12.9082300302617
245.934564136377 4.9350652385188 36.6018810681111
-135.958539406614 22.5234109359178 -1.22393447618392
248.45749112358 -36.5442354821892 -31.0275577622189
132.732573313898 16.9255699168334 -13.6340398292268
-219.967645633249 -35.8617067501167 24.672874620939
-174.86186948165 -3.40190559832582 -17.3264800617263
-196.286979372144 28.3250647082879 -21.0942566294387
-206.139811109418 36.9428713834108 16.1759510828926
189.672672080279 -19.8104782966519 17.5041881111335
222.487224246147 -1.00279018070039 -8.96786938951616
157.619440244393 -2.55856166277401 -8.75828771893177
-206.491270239584 35.2554933192707 9.10654010493101
182.978559664612 -14.0527974744002 19.6811342060913
-214.278172922407 19.3182455894468 11.7944147174372
-213.1568741069 30.812688665431 4.54544252714485
-207.695980130145 -45.7204345604165 28.1805365555665
5.08416740861724 18.246982917374 -23.5415324899479
-195.275634746847 37.4197249017633 7.19032136739214
-212.947683247534 -5.95103264268167 2.5081333599255
-202.828639048831 10.3885722551598 -17.6332308906367
134.992549477827 -5.65024920509285 -1.43727466045883
-180.958531257435 29.2095639473424 -16.5929479590669
-171.07957016986 -17.3231474414198 13.1397334369329
58.4060734046749 2.663575791611 5.09492872554493
-172.987015670473 7.04010509090984 -20.3122233057782
24.5967995556005 9.65238428705204 -26.4136823148787
257.70254407839 -49.4111813468566 2.28738981635143
28.4295841374931 -2.55144817221386 -6.18218503610963
114.802068660539 21.393550934138 -14.3769826170805
-154.711284200587 -26.0073843229121 -1.35800771774561
98.0188674699588 24.3726739083843 -12.9860717384022
-121.84404723675 -8.61462101140526 4.38684306688394
159.142324737224 -0.939945754791976 14.3625261748615
-113.646970225807 -5.40056005878794 -22.8375671906521
197.302828640646 -19.844878915975 16.3256297354473
237.724169595708 7.89926488048197 18.5350709581145
233.301588767443 -28.9266653088346 10.0924370262013
-28.6177052474676 21.7713114377029 -6.51096030802553
107.889397376044 2.53180539340311 -15.9808941425267
219.132982548223 -24.2958436123472 -1.6835991537068
224.783624516104 29.8705443653572 12.5960080864262
-195.061176350971 29.1053034447951 -17.6903212474365
146.043466101044 20.418657364659 -7.99498180677891
-181.656752020334 32.268099789775 28.1480075621964
-191.153179716777 -5.1757671636728 19.4504445068366
110.780139142741 12.7510635692478 10.5565163392509
-185.553559234208 -2.08015669280793 -18.5225955328793
250.612156557473 -10.5277277796659 -20.6207357376823
245.591125070207 -39.8197926786544 -30.0367841262711
183.114906684341 2.92165764543301 -7.84851039927543
-223.169735948793 -35.2585864953005 13.6033301309543
225.900310145862 -4.27945409106544 20.7464873108431
230.893319988301 -48.9016286657486 -5.79597273639312
-214.353905256575 31.2004993273487 12.3661956903224
253.448654522624 -47.5757708912552 7.26699797539691
-200.735879444865 32.0971384268141 0.186957509408069
-93.330093417511 9.21752618282617 -24.9531003015725
-196.385247751592 17.513412415914 -24.3461814431481
-214.114424372228 25.6360379865952 5.23838307088941
155.200609219088 -6.91244299707027 -1.83537256292233
112.238352923835 23.1989305501103 -12.5374478297258
234.289915625655 -12.3402388499932 -16.5908948769392
-185.615217802777 4.96603028690567 -22.1361774437818
190.297924021811 -18.7998962251288 20.6523579039773
169.403582930669 15.0193399454317 -6.59369472382776
92.5378032161671 12.3592911377588 -21.5471272977721
-211.65005958569 -38.7658443816752 -0.682920842408543
148.155744024914 22.3834027892767 -4.16402321250657
-29.3866660002704 4.90321711812824 5.19137028945402
251.32922280178 -54.0509664542741 -1.456512551474
-179.265921409903 -26.3591305804856 19.4170164111847
-183.021504219325 -31.566442024987 31.1298488422617
-184.043883701018 -20.4735623780713 25.4838671564729
75.0745839704368 11.8338835554795 5.36157175969626
57.6026229530988 26.1998112407461 -11.841084760383
-195.565782865003 -45.5778938993892 3.86537879935133
203.856844456856 6.66255140604998 -6.56536692640043
-175.451933108317 12.0774384975107 21.6106383970468
-219.86908861734 -18.0481717948942 -1.894972429283
-212.270127261769 -7.83117226936431 9.05835167578954
208.167284759074 24.848808009724 8.66198923621948
-170.715133397695 -6.09700684908214 12.8605610513101
-97.4722435991298 22.2427602240207 -8.86997111430217
-180.763257410023 -12.4199356739901 -18.7424604438612
-190.223451395126 38.9888693144928 16.6145415909949
187.505164859649 22.8940709251822 7.70663312993973
-209.500334857302 26.0166309523182 -9.6038823716535
59.2427299614675 -3.43904584129295 -11.3444027381903
254.828391090862 22.7849192469719 13.8079954875508
252.719237537745 -1.58662399612998 30.0983109249876
217.550436987964 31.6060256061444 15.3345361275141
-204.285886195201 -14.8769396072545 18.2513620287258
221.412692889479 -17.4988326933092 -11.924958783941
-67.0631071979664 -4.89018070085922 -2.06637265640251
155.956398877528 -2.33179742704946 12.2027448791328
-182.745980149165 -35.8879701706616 27.0712093241677
-203.044832559068 9.70727781500601 30.3860002245578
216.2707167514 -2.30726814959284 28.8150132511112
133.892150327113 8.29523050810126 -14.5585450519311
97.2970338984177 -4.25298886524417 -8.71851657352937
-14.7762049734649 12.2380087883404 1.28914744370622
125.846049702387 10.40058751749 13.3506960533562
-187.868165590831 -47.1955871551186 8.2006976952383
42.6978990176974 25.8553686438465 -10.2623754694848
202.649779121899 -16.5743185815734 -0.286277300633871
244.079106365807 13.2640924634173 -2.1222812114365
199.019377765489 1.70635751363305 -10.0682630119702
-104.333827377224 22.1202731658024 -12.8238522197591
-205.921788379459 -30.41300348515 38.2762329527904
-114.07481041247 -18.2672330770277 -11.2411797865999
-177.260278851188 -32.3572147811266 13.0214501200926
182.460467739855 22.4027126086844 18.7685038226163
-212.165508233181 35.6315264515246 19.7485261038565
161.442553134958 14.0834939741131 -8.9126614287575
234.950325085153 10.4799599147577 -7.01141837322203
105.638531477527 18.3141470325393 -18.2886774886779
-194.767646761028 -16.4708196579443 24.3002795402004
-48.2747630816236 4.7892961867173 5.21869845933759
102.247606701086 -4.55696834331908 -7.98423460031777
238.055949930195 -53.2348708845935 -4.47059029307479
-173.016040292937 -35.0176613504166 -0.410025305137756
-207.088193214919 31.2997427830404 1.80782324487448
201.726105834066 -17.6590064375686 6.01833659003874
194.091014434683 -12.8393217392767 -3.47625925883716
131.423947504574 10.9739033916981 -15.2770783904322
-182.366794206099 0.632669832387744 -18.5459126479518
-85.1204679416967 -6.38121704660708 -0.210511983234262
147.448723319957 14.2275205341455 17.4554541204593
-196.108993266035 -11.6658191886302 18.8864284731002
55.265956436386 -3.59431106032631 -6.43156325806974
-89.78790097891 16.3366357900478 3.25301157181168
192.971776503364 -14.6063985076362 23.8551529869161
-57.1452229284262 10.0735137686189 -25.3583827260232
237.85724568511 -9.67172137247108 12.5538048424569
63.9407683252121 0.892838847340089 -18.2124070149717
237.53645574012 33.8195485142402 17.5450049147993
-208.603279073023 -18.4255161583976 20.3030489098832
-197.292247715961 -16.9626023174547 24.536949590778
24.7851317464746 17.540825682529 -0.810300912786972
-207.570921111784 8.13616924039076 -9.87551768177505
56.4461337279363 21.2888272813853 -21.4037450064053
94.3372706099697 14.3940287872316 8.0952122998958
-193.730067562554 -24.3120214474399 -19.4570048313519
263.724140566439 -14.4878112699009 -1.79174967935207
-212.651322094089 18.8654057910922 24.9293430839961
-30.9118123599338 14.5966908722638 0.347508780975745
-112.002301460522 -3.09340293923572 6.04900838505376
-221.292961013954 -37.9439020839149 3.43199282996289
-211.003598343916 -27.9708867856691 -12.6571234510927
192.721908429819 24.4875829863179 16.1171782405236
-177.199458199426 -9.80499715160733 -18.270013755
-165.499163162576 25.7308286844875 -15.6548474309208
63.4620232948909 -1.30304539566664 -15.8521745018961
-54.9301903710853 11.1673850286839 -25.2163481363917
180.346297065237 -12.741525902472 10.0435733430396
249.919202746118 -53.3037627264245 0.889678518766965
183.841365172425 -4.71234825101096 -8.45546301225146
-199.739789400887 -7.91083650606987 13.882643380531
-22.6502003333076 6.58130628629935 -26.1906409085468
-55.7264151662121 10.883448984097 3.80198019699319
125.926462043086 -2.36831491910209 -10.617460605834
242.615900012347 -21.0922775940315 -29.2466224298288
261.213842227919 8.39497593360966 20.2932398188475
238.701418287112 4.6390858423212 15.2350259954342
-172.703786796922 -10.5584480605101 -18.4119765287844
-186.528342579479 -6.61927451037899 20.4428645463321
49.8535454082479 17.7659041402043 0.638370253982746
-135.003992876719 5.47935667716793 -23.1264445312271
-203.884359556644 28.982144220671 -14.1906745696201
-44.494521931388 -7.30757681131401 -12.9518202947458
-179.356260827389 31.1613568942259 27.9749539372436
236.36146494412 -30.1913607052065 13.365185485277
-213.474556127594 18.1379376414576 7.69664364557622
118.052021075003 5.23080620833183 -16.1874421884081
-183.545432301052 19.2746326471673 37.5893624826278
-190.538815434991 31.9586590731477 34.2762160458701
-197.16575762982 -23.1424438999186 -19.7168587286027
6.70155947196176 1.26394551427569 3.09077299996391
180.69818894221 9.0128746177574 -6.99017399448306
239.199036063436 9.84343776796249 -5.57689712626759
105.466711554988 24.768429717024 0.292614009913263
222.922123655444 7.31570096184355 39.295151995879
124.420865016425 12.5507970108092 13.1431299883559
-200.83224641438 4.94213285449477 17.7142371654406
-152.484302904562 -10.1494087996748 8.26014516769822
-46.5093968547393 17.0434365006651 -22.9659031816059
133.699141059355 2.94516816311718 -13.1274685447036
193.016883148178 -18.5722635490737 7.51447381892567
121.527515752456 1.33958789544069 8.90431042218081
258.064557147612 -36.4582024558134 -27.8736000811612
248.654287850474 -28.207321769722 15.8751431152187
-190.756208266647 -48.217012687185 18.225183714958
-168.948635983238 -26.1267575871912 10.5603362918972
69.4050263762479 26.0269908785647 -10.0816521684406
231.294857678773 -27.0042526425427 -22.4432536460386
-83.2663151817565 3.19443505566007 -25.2320645875586
3.93608097354957 13.2788369972869 0.778476647011262
-58.4039016839808 14.19799506044 -24.2731830861945
-205.472518469142 36.5335058859043 31.0715571576079
-197.821293335921 -47.023801827795 19.9614003823481
154.957573455639 2.04387513317945 -10.5462422663312
-186.424029285162 36.5187704132523 22.3526076784614
81.1302038090483 -3.3114033469243 -2.90460307947167
102.651229406671 23.4021893144212 -14.1203046547936
260.69692427595 -10.7084110813614 -7.97130642037773
-213.461808352719 -43.3299011300878 16.4917019219453
-183.977707983061 10.8194498471014 34.4573351855094
-213.274655950859 18.6998864714263 1.41870750387879
138.294506250028 -2.5518773017261 8.29839444015289
174.836212082376 -9.0215408042155 14.3518572662171
-68.5933902460262 21.1411287760239 -17.4485205380373
-186.942374215442 35.027358318982 25.9700138131778
155.88370387019 3.08830003937704 15.9984466717101
180.58143122938 10.2846575626286 25.3177106135389
-45.2407872940016 19.4436117284091 -3.25532919106485
156.482621534017 8.2117454364319 -11.0954376160779
-114.494466476154 20.410940025202 0.692401698236658
226.805138322403 -32.503381401233 -5.52154051618843
-201.60842552199 13.4787325198816 35.15120627653
31.0247450663756 13.8041753604116 -25.6734110603561
139.289443657727 4.51310447745408 -12.8654466687221
-184.264411846891 -30.2097076383133 -13.0183538533493
-174.872362213632 10.8250998971904 -22.6889884709873
235.255858556538 -48.640904468882 3.05474583948163
216.417378313718 -11.118920252243 15.703231725803
-122.947203210601 7.99661983667266 10.6439907078392
247.352381705773 -42.0019665776036 -28.9482592634096
212.925023040221 9.31342578255499 -6.06083206025165
-38.0384374279378 7.09824477021614 4.42768905449066
123.214559041006 25.0673929864804 -1.95636988391408
169.810626838106 -6.42562712720953 -4.94205002937885
-103.128327156651 -7.11705852137416 2.2804272203304
124.544945029286 3.09777301733958 -14.3602638038162
-182.689716312078 -21.8115035301451 -19.0158839868878
78.1237400168136 25.8061981349166 -10.9169331504642
-123.197817434744 21.8864915274281 -1.69647910044682
-176.788637175021 -8.19049375155728 15.8178022293011
235.765861093275 4.00098503826021 -7.90387365176916
105.070291816194 -2.16435049975159 -12.1724686413231
190.565508511206 6.67541429726355 -6.2575604253141
61.0402791712547 -1.29843091628674 0.352193285052068
251.224376259621 22.8859475536286 27.0146111120133
-141.188365767087 -5.81026988690152 -21.3783226337353
240.666588797431 -51.0662117366272 -19.5913633467401
-104.373531934113 17.1034582968804 -21.2159892175808
121.722052523169 14.4724913149889 13.0833244337927
-162.0198169817 -28.2371401633457 2.95384306298745
-76.3578160636276 19.2108120033879 -19.9689660476153
-178.558111331202 -32.8174763072794 15.5781274962526
233.840591104138 -32.3455180326701 -28.2346256083877
-179.509214227583 24.3414546574206 34.8544833846059
186.692912761734 -3.11355318317621 -8.4967032640203
-218.607284828229 -15.3941373637517 -0.512196215465933
73.5670229175515 -3.7342857499244 -9.57233898675469
-143.377190509477 -20.3730092131558 1.36433984094241
199.691390055977 6.58465732442496 -6.3092748957607
-179.684535231151 -5.30844562137822 18.8088441758747
121.725405937832 19.0753882257849 11.7855660876232
-123.873452667433 14.0613804674475 9.58798517443078
-195.905663765468 35.2870236445092 3.18935035307461
222.779233427199 -8.15356707871302 17.2781385585942
-193.869707923211 -36.6821021826982 38.4632857836514
-147.464606515255 -14.4547922152362 -19.2639105966611
-213.277461090847 -20.2013795412838 -16.4298919477151
140.600681145281 24.8090555240417 2.60387212328191
-129.500145162973 -17.0990948362514 -1.22286660413873
167.997752583115 16.4774245182549 21.2501931970158
113.413591723874 23.6516335920556 4.92145512573585
-189.268278314995 -43.5202454907817 31.2132102296847
245.541892009295 6.13062678705323 13.1124099219417
-199.133508878966 -27.0374973812314 39.2695741608305
-83.8596829151729 15.1703233124979 3.60010605465904
194.71888044518 -17.3286412314455 7.03063521700479
-211.379958549832 25.325892608153 -4.59457477064617
-176.335855910433 -4.66212309315466 15.39102858026
100.999795913772 22.3010915348147 -15.8154689694574
-56.521858085931 2.31448472829808 4.63877888677235
16.7397469098315 6.52915818841987 -26.2311540809671
-204.00011348183 37.4968097020985 28.7308550834505
-175.649675911951 -26.511268861801 -13.1752868003388
-180.47380003164 -2.32990908014168 19.9440465731181
-133.52801128491 -12.1132866760362 -20.507781371705
-129.079018518405 -9.58035218089658 -21.4454849603895
-124.352014058287 -19.6903656216196 -7.72962182479278
-153.019028701056 -22.585058133802 -13.5052788319957
-112.850954385321 8.15715143923888 -24.3937502126731
238.086751274183 -28.529316944961 -30.4384876220256
-170.447697183875 28.9094557386217 13.3752823034515
80.3297244184252 4.44519019458942 -20.1249066636999
173.795470437991 6.07013381572327 22.4904462842746
-99.6014839212395 -6.79560570582501 -22.8799998560712
70.5473776642017 18.3906616275499 -22.2548873740999
223.927501967199 -3.61984786286815 24.4628455309005
74.6075880766049 23.5286046546041 -17.8337942215945
-181.752944335162 26.2914284307933 36.4246465041801
-67.2406153459532 -1.43636649650944 -24.7233788221672
201.787993612252 -7.40490808593361 25.9030562532409
-178.72996754878 19.6690656659056 -27.5016565630244
-0.995637822927333 7.02025434513267 3.67097194461248
-186.19367406299 -11.6769731984718 21.3004099596502
-135.772209872353 -21.7351912865029 -7.6051697171406
33.43389842572 1.70666372941103 3.78747765973292
-74.7573341669521 20.1130385130716 -2.64075413369347
-109.919998787844 -9.18079902169596 1.76717735499362
-220.815424874645 -36.4075046035587 22.6528523333319
-52.3588996428378 18.4604250401536 -1.83794990990425
-189.309902862609 37.2050658119118 22.0154033396621
109.359961508872 11.2253270776917 10.1700101077735
226.815915641288 -35.8993668285114 -15.318844455065
-210.086613435341 3.8919811737516 -1.6665923159718
260.332282383506 5.74664805262503 20.3029642866697
229.326377064808 4.92155267646901 -7.92839020658254
237.600946606194 -36.9248273104853 -29.4151905777665
-175.153737916382 -15.2059227025169 13.8841682800525
-207.149372605354 -7.56814049193334 9.00648836685172
118.877621711083 -3.94609184844122 -8.87689123105723
162.405226856958 15.8599656717403 -7.65628026819657
124.082740244864 -4.8397001519793 -6.41394258586989
125.269338744589 -4.04262356318582 2.66217336258293
-220.675509086211 -21.4730341730792 -5.51395865183505
190.544248217167 17.1056543182903 26.3871981005492
48.9264625136107 -2.83028546018298 -4.94447716864477
26.2106201414129 -3.12113975569379 -15.7487520413794
248.175603483297 -45.8029212191518 -26.4983550420634
-211.491986926733 -22.9168367200436 32.7228510278903
236.1299754427 -27.1131334831119 -28.7611516811045
85.898934382593 23.9798993963653 -0.167323189771825
97.9663897109328 8.33373026095742 -20.0200805055325
44.2263547889742 23.301451630732 -3.64734403729132
-176.988131125041 27.7616599005641 27.9049559206368
-211.800766608077 -37.1588287406015 35.0780438955017
-24.3513191402759 -1.64083058449733 -24.2510805197589
236.405192514447 8.74383729523011 -6.69301622057957
20.8458919892641 1.41943980696081 -22.7045585099561
-78.581075043969 21.6911701925853 -6.64654590835666
-150.79049616561 0.157037493345085 -20.66679402445
255.738893543126 -7.7551025396875 -7.88755498456985
-66.7128577865733 12.5069348766278 3.90069569155429
-71.8745395204841 -10.8415848125099 -17.9539133416433
236.167306619634 8.16027045584272 19.8325727156135
7.05247413524754 3.48045716448807 4.68820574752175
247.353157009539 2.2110358759291 27.5467159700307
70.7795610724436 18.4311417362025 2.7531212606284
-146.860363592423 -10.6556110038632 -20.3914415457972
-61.8845974782449 -6.82988211446256 -5.89482303596379
119.004056447951 24.7672073131088 2.04089298722698
141.458487470917 -5.61463997261506 -4.12621230927432
-201.610061131954 -20.8567982611189 -21.3183899617936
-201.490157616081 -1.59190201585225 11.2903022301113
-28.0903231003156 10.1394422673697 2.64469341846174
237.980683172784 -21.572279072976 11.6539681796619
-178.709963228549 -28.2435381934904 -12.5920498673748
248.157990146252 -50.0629950486659 -16.5161128880905
-175.911338399616 -28.6557697676388 -11.248630080984
-68.8922629574536 -10.66745850253 -17.429312618937
-75.952697597221 15.3123820614433 -23.2790086627546
233.945392652063 5.5492896609521 -7.62760973293173
171.772433762702 18.6368883575326 -3.41661414508036
-202.294857995099 -46.1938355326487 20.9147673470447
-170.309403053652 23.341114920316 -22.6013401739994
-124.681443325382 23.0158711577196 -8.50269559513345
-207.175066954245 -43.9829617449832 10.5218518266683
235.387643017438 -5.00604263238275 15.1087480755672
95.6475281401581 -3.32044024494213 -1.27208470706123
46.6807011200744 1.79436860476469 -20.3982834988316
-203.265828186232 -22.5471262554777 -19.3356482461207
-185.880470216498 -34.2345142201415 33.8207820010513
208.607446150566 22.5915651920241 28.0607738195364
-181.748829779884 25.8774014445828 -24.8926377709618
-181.270231306603 -20.139428880669 -19.0649665935822
-69.2337863365559 21.5406997213017 -6.48246102622266
-61.2335251527709 13.543020311322 -24.4659965034992
30.3749286138218 5.41290375779499 4.85782418578092
239.006281859601 -27.2166493988203 13.7665342133808
-175.579745908763 33.2365953009789 16.1813000811984
239.562545006172 1.63030479344032 29.7236391110944
-170.83696875295 4.43644382534625 -16.7962740558499
-213.790722682055 30.9469163329196 7.27230599879584
-82.3639061510915 5.4632693548266 -25.4543390540786
-179.938049277909 10.1952449429941 -23.9210322837609
-136.019642822352 -13.6591785560702 4.57005996901056
192.801557861647 -21.2906165901143 9.81403610805761
-132.945197584258 21.9265125028475 -0.0671272628114796
-79.6204510812714 22.0258554493429 -13.1264575527187
127.169305282433 24.8840740279665 1.69921172025665
115.196312509633 14.8041732170037 11.9098303896211
-81.0261163354273 19.9732079860924 -1.8325210637459
-209.889534889634 -45.6926811269055 26.6169318536039
191.249210276189 12.9358631954705 28.4838317848312
-96.6945257255219 3.35731138121041 -25.0535757804478
-162.31735104086 3.7279375705043 -19.7151900487801
102.045537341313 24.5875937487436 0.390451409414507
51.3423402593643 22.8962016607611 -20.1102871951384
195.494690879706 -19.2809038979653 18.5401535782525
-156.74480431954 -14.554609303403 -18.8284864194399
-195.658162224715 -46.7820216107706 13.0277151361518
-177.668537022858 12.3321027669893 28.5608350034549
-63.1396267010691 22.4147986333168 -12.5604061122568
-49.0180435796089 1.2088088780219 3.91677248501052
-2.90827981604935 5.22146580616395 4.7176728250094
-189.091622185864 -1.88968792011992 -20.097033047854
-209.83924028419 -43.5683875014957 12.5165143250807
225.308933324957 17.1594840883532 -2.80279538850735
63.5144449011527 23.0415632462624 -1.73128804257712
-95.3701370334381 -10.0249818422161 -2.14747837343334
160.590722323159 4.64250858813753 18.0435151641199
157.80006272647 -6.10183051628215 -4.09720685307772
-205.828534539617 0.0000877462730438687 -13.0270598430463
-39.0232514396988 -2.55833869429267 -24.2423688574254
-174.886841923516 27.6487020485015 22.1128114770155
257.089894482638 -12.8494488953931 -20.5373996508132
-175.341564845107 29.2814782263115 -11.6745000472643
-216.422206040249 -35.4120582752929 -3.57419440999946
223.133660361705 -5.03846969345832 21.6829536956342
105.123759522604 16.1987411702687 -19.0383753510862
-139.928233890129 -20.3174707607733 -0.978121669822974
-195.966254691835 -31.8428932944352 39.3899002808823
-187.967204080429 30.496190945095 -13.5264852675241
-187.805866690905 33.9005344948112 -3.26347185275986
-86.9427765833343 -11.8470206349536 -7.94106378298028
-181.072862738859 -3.99848687813486 19.9966674805361
-102.654165449768 18.6685855100009 2.17407227307115
110.951687942608 -4.87273918702677 -6.03744880949835
26.2498933943853 15.3618216005958 0.311577079538197
-202.827054899735 -38.6178579238534 -5.80746526499096
224.532924747899 -9.91421133707693 15.1621742228656
152.028867601496 7.38015410765914 -11.6390672092447
-49.4194297367918 -4.35496832319151 -23.4790048707793
-170.298125495981 1.65336182741623 -18.2674948666733
216.717939625464 32.3671382005985 19.2496494843102
-210.53779372792 11.3795372551645 18.5735481575589
41.7398769467149 25.0870746138157 -16.8244163668818
-203.290660855384 36.6929805715666 17.0992122819528
-215.711980368531 -23.9993294494808 27.9804822135546
3.43705335180895 16.7575341802648 -1.20501181230912
247.419372193144 22.5766868795632 31.7493420246095
-162.015864619647 -19.6915574932354 -16.1257816046103
44.9163839993394 9.90184937965231 3.4459559165251
-81.1761964437489 -8.03470784279516 -3.284833563816
82.64364548215 23.9838254533645 -0.570236232258114
90.7870691328394 -4.17758926092864 -5.40462275300115
249.838809340083 -50.1373432314599 -22.408223819114
241.519758589848 22.9339790068577 0.271583435120969
-169.143328230612 18.8557398189878 19.6787215452372
-206.979563993163 16.4985300666224 -14.1673369155148
-182.393533136019 -30.2753306987957 -12.1094095691348
247.628302539752 -22.0197721904416 12.6901663439843
169.077729671557 -9.11391157120758 -0.216677983809795
15.4356284898329 4.46253084902027 4.86253066041028
-155.119239597073 -15.953986899622 7.8229499030896
-147.011749552681 12.6815654913646 12.5690403464274
132.998719197494 24.4174445942984 -2.91143035626351
-222.553044711056 -31.0390370128022 12.5345759926975
-206.282476361174 10.4304873631891 -13.3695057600016
257.442889003288 -20.2567575241649 11.3238874950459
-181.154532509341 36.7102606993252 10.4015208790049
-214.611656605251 21.5557191482715 17.6501279655663
-130.296413073742 11.2017081032106 -23.3991593101644
243.486398897792 -20.477256433614 10.9215306921314
-159.376305333026 -27.8417351377827 -2.69798644921697
-203.836027321441 20.6627996309283 37.0696204207036
113.050293103918 9.27393528501709 11.204952268714
199.101343477978 -1.24450803215215 -11.2800684509512
-49.341918720832 11.6617255379697 2.98723541375835
238.224264166921 -13.5167992818206 -20.78063234513
-115.680343386243 -18.3356124225126 -8.86362778535826
-182.159685920168 -36.794595485864 -5.87030111633411
128.625854070997 8.15498073984642 14.0478174292336
-119.964416043223 -4.02846603893035 -22.8559843228273
-157.734015232297 -18.2190855741184 -17.1506273712729
227.650057724095 -44.9292066386567 -9.87959801232721
-193.754626550382 17.1337594503438 -25.0525354663741
-116.879429062167 11.7060042088657 -23.7038774338051
-46.7645108212883 22.5554659691377 -15.5051014118238
-207.039341497158 38.0879562575212 25.9455151457065
-4.83043989409781 -0.170444136552473 2.98326009973839
-177.894654005233 29.7508482326453 -12.1790233642959
-80.1397042611641 19.9414051001312 -18.8172397435193
193.642169723921 23.6473833726471 9.96931152752452
234.606641505761 4.61713589510691 18.2405960496972
-111.179004761463 11.0566715231905 -24.009843068011
139.847160585873 21.4741250036174 -8.18116883729504
89.970216833481 17.7590004356841 6.57692747058493
-199.986148163215 7.19470356131832 24.3899408681037
240.400012717331 31.5617913279371 14.506440490093
-125.847521448874 22.7721082140758 -11.8579927748288
-53.0929895866382 21.2976643468313 -5.81599346462468
-49.7708441560494 -7.56212380520274 -20.2327536854709
-211.764269954835 -41.3286683403113 34.6158029539674
-207.459075109876 -43.5676962758226 6.76214184673582
95.4673066714147 25.4781417013023 -8.87830758170046
176.330859020163 -8.9729834531636 -2.86152082808281
197.004817843974 -17.2835584759892 20.3223938600496
-171.842784427169 -31.5153040461243 8.12048963343355
-213.465426777022 26.2944065460574 2.22436724428766
187.236169678029 20.4741870970338 22.6232731248983
61.6459506415124 16.9365993446739 2.21952080084736
-29.742503352155 8.80246874088023 3.19040148123885
241.042154146899 -18.3267112396184 10.8255118136747
-123.201704391976 -18.134134362657 -4.90251988850176
-46.1235318104427 7.71500603828941 4.2055886207135
177.740819122401 15.2033900799755 23.8501983386603
77.0016898886606 23.7578275201753 -17.2045545045374
-205.713837718395 -45.3869014517679 26.8406185152059
251.281529126034 -50.3180414142854 -16.115498704316
266.574408085593 -18.0211597700926 -12.451814165471
-19.12880387674 15.7037659349261 -24.4695142847829
-168.222260384853 27.8429301085767 -10.0617084186394
-173.731502800304 31.9107381713829 11.2831218965899
-105.570175135353 5.9289076575602 -24.8391126794937
-61.2291680015145 -3.48585279356852 -1.31567544918171
-219.277546126989 -33.3960386115237 25.5441472657337
-52.3641426834082 -2.43203603214752 -1.28184419079089
100.462219102671 4.50946239804756 -17.9165114453972
-29.1960069446585 -1.77128134321697 -0.26664090536106
79.6476680725056 24.5126817329446 -2.10048996810859
200.443370730361 -16.402516247726 18.5340053697917
-184.267386395768 31.4477385108538 -10.4830908575906
-35.7713595636336 5.18104331884236 5.07216386984166
-176.890985932694 33.3393892877902 20.3158829347431
3.0205561935396 10.9643257890336 1.84789989707575
112.607232872945 25.2606146628846 -4.93878170323376
-183.217925512567 -27.0630794778441 -15.7379821202638
242.605538317471 -10.8048703822474 9.96979557099307
-43.9224595832213 -2.06167384654099 -1.32597958443945
241.775494793901 11.0627843551131 38.4019553134848
-34.4531032418967 23.2056109892132 -14.7507293480551
150.170068351827 2.37799872481769 -11.1387425283141
243.560284220024 16.7839641965738 36.7373697122726
-194.262288388786 -23.3148230662981 36.8060110781306
50.3015972673223 24.8532266369969 -5.73430881385218
-117.29446776718 6.72943687838953 -24.2887905994736
-201.503386364846 16.6475432334718 37.2234677749128
-132.674343997419 3.62499146020241 10.126423381904
196.651521432441 24.5248719558093 12.1277780588772
241.774806500242 9.44852238126924 20.1693011555922
136.628845639515 18.0432054255751 -12.077895892912
-43.8569042867608 -4.46484067128327 -5.14147821353001
234.931999875284 -7.46993545777944 14.8815677684811
-90.2341325036806 -10.4262385301606 -4.205954121318
-60.0587998162622 -9.58356003776648 -13.8665762326948
249.077346979398 -11.4143376449619 4.84028804408947
64.5625238605464 20.9423552794083 -21.1514358483418
-132.734642990444 23.2928910889458 -10.060304176192
-42.0018933670795 20.6502873001795 -19.6809396972778
-193.148808270933 -19.7129791249403 28.8264324519661
-186.836889411156 -27.6171509493734 34.5826377006724
-210.556963169172 26.2587754162103 30.6490353492967
238.307238834225 5.8604092543005 38.2254567217204
155.104766828108 18.1753536114536 18.2117654881411
-40.3498798445099 12.4638006252951 -25.1504092763773
142.76043826054 24.4201147060091 5.14334257546633
-132.737347889541 10.5445636400122 -23.3717349784124
-59.0278468811863 6.33982336827181 -25.5878594387404
244.08571382605 29.8818899001711 13.0048485629077
67.303361621282 19.6899635007006 1.58066511422165
-110.692788779392 -17.5897684078024 -9.61038494450278
-99.8122470212831 8.52041786441146 -24.8171776362253
-72.3678594004373 -0.475081390323207 -24.7861414081061
222.95568116288 14.6324219750632 -4.02691719330676
-212.031073921191 -44.330165906546 31.3399474588898
95.803193197324 7.11042716284739 -19.8181192514442
110.426529277323 -4.44538284534802 -8.50531723196267
-0.440447921015051 -2.28380604355591 -4.35374028759262
-55.0708708893312 7.78489668118011 4.71770260757704
77.6437630016535 13.0117523776766 5.58390545255836
-176.38235558437 -28.7907386715402 14.0237925136021
-216.789702195913 -18.5556573560203 16.244199307551
55.2216554355976 -1.84552861050636 -1.67002339049529
235.329118890867 -32.4364016552617 12.5956982460375
-46.9110150510591 -7.09874014428323 -10.9799960953176
-97.4459227119267 -10.9380825243381 -20.9020345593193
156.029840915925 14.9216973947566 -9.69044547216685
250.123506653409 20.3306965923978 1.74535596324871
-191.708924293956 -19.9728658107891 -20.9851805791273
-100.865962268466 -1.63062048707969 5.80257555344607
267.843660172888 -41.9683695814559 -7.38206769715188
242.74912561976 1.78023225118386 29.4232296990827
-114.788425558426 14.9848213397842 -22.4456239150976
81.8592864200458 23.9181410985771 -16.4095552581779
-58.2328622887505 -5.84256212142745 -22.9101491130482
-194.793134560198 -15.7556588492092 -22.8277891333822
-186.322167632596 2.64894115181189 -20.605823186932
231.288037880021 -17.8363342035264 -17.9647228422831
-120.173824968008 15.6672897950188 -22.0147664107922
-101.629716512715 -16.1240872082558 -13.5427492109711
-199.056606208029 -46.1216560513528 13.9540969483941
45.7278384991595 25.8901427793454 -11.9158393346637
-120.199679457841 2.56952095564276 9.38824962497786
-106.458540651893 22.370650349669 -7.75997455455425
253.752537557253 1.01612687077698 34.0597597195293
184.190297082817 20.2763906059841 1.4137880098265
-177.492959443681 -29.3153517120396 15.067889301443
-17.1525385262815 6.28354596888417 4.37808892970059
72.8611997987026 6.42154511449861 6.92877123450415
-39.9162910710017 23.0505652401401 -10.9679558584955
-191.393838166429 -38.508185213622 -7.2714928274926
-176.202911057862 -26.8244159836469 15.0600098323206
208.7833296008 -11.9358466141343 15.7078658754558
-190.39656149754 30.328363096466 -13.3564126168199
151.793458503858 -2.89234368590255 -8.75572125363411
-216.296296844459 -38.2251905731696 0.528664498166846
210.716292356929 -19.5891790361384 0.865690884235325
-175.802415157497 18.5267090689236 24.9413093930885
250.564612833306 -50.1550363595977 -11.9617364222864
-92.5119466314779 -9.39764953338611 -2.01153587957749
-144.851548774498 -14.5736183090845 -19.2766196880083
-71.6596938421381 11.5866461423229 -24.8487482663936
25.3038876984283 22.3726320890156 -4.30819102458712
-193.100068433489 31.9666773216343 -7.93372189267252
-114.381836379151 0.155452819514067 8.19768074977324
-168.16840562943 4.22498846779812 -19.1297283317573
-51.2521201727535 2.20322161329602 4.51753429049849
-190.148359719364 -37.2200487609197 -8.30020069521241
-203.08170052481 6.17218829813729 16.4611558950637
-9.91845225580518 6.78745153767281 -26.4142523506069
71.0059872760926 6.48756944699834 -22.5897119846718
-214.437992869393 29.6453973836976 9.64469069279385
-44.6179424681632 20.5582513722626 -19.7216383311156
-179.551182320601 21.28606007838 35.2507522494584
227.553386167475 16.8161833988986 -4.05798320327743
-150.988102785022 5.97637485953248 12.0183347768856
121.984058324753 -4.4341901905332 -7.66547641952813
-74.4634890289371 10.7373673584136 5.35367125675083
203.08504301399 -7.82431523008524 25.5330504121292
93.5398508787976 17.5358705171136 7.3020192330121
-73.2162413580263 10.8529602879237 -25.0140752871777
-11.6585257670782 1.94293129346593 4.46636134057561
-174.453983625979 1.64175480421774 -18.1890036903002
248.04276005816 -49.3772100584311 -14.1134383394557
-178.956718996129 -40.0642388398685 3.28575348733553
29.4254940220469 -0.772288054309833 -0.584554636872856
-222.287580791819 -28.831391226077 -3.28026493932822
74.2201378039785 1.76613815993129 5.17538172921808
-181.013903920731 9.05708065075689 30.5433932642687
-139.073493243675 -17.5994273334616 2.92951789324327
-178.336556457841 23.4172847389481 -26.4273035332036
-27.9528757435441 5.61169457880963 -26.1174880352389
-210.509228077858 37.7032946522915 19.7930220696991
-72.8783228817909 -0.561025730842299 3.75066012743032
-212.844732560984 -31.8991217762824 -8.84371650906493
-89.8451897984238 5.35722937699285 -25.228271551878
207.142509597375 27.9562178498745 18.4447824216745
62.1741778088819 12.594286866303 3.64454050634032
-145.02610901803 23.4794677642027 -1.13066090991795
-177.866528855691 -21.4091453599225 -17.6795917551407
-211.281517421055 19.8566840581479 29.0808060499735
-9.37132495629027 21.735897131604 -5.68903009235958
-30.8796116324485 -0.522516209928865 2.12848522399187
-150.412948481116 -5.09519481727857 9.13082643484
159.688001299069 -7.66642516383368 3.99374571127549
-166.953750897951 17.726909248611 19.1867980378324
-158.024263090761 -14.9233344775416 8.6914472170453
193.602439586345 -1.61025069468753 -10.1359910247616
-139.524262446751 4.09049967189817 10.6165791864955
92.7887333223798 24.2596067379805 0.285305982264832
140.31441061443 -5.86203338071924 2.70333250940305
246.69525433699 3.03730778677699 2.68354386960654
-166.001279816092 -20.9912410412583 -15.7250597033491
247.441170142641 -33.5652387689505 15.8088857292105
-203.618824859024 -22.9512947335345 37.2732773977812
-181.105848729579 37.3287073498668 13.3786663642284
-34.5244712860133 1.38389671457942 -25.677047226532
-197.472890643322 -3.86323396335981 14.2832597907857
-134.732431945385 -2.15574053468983 8.4679923663879
-203.19013017583 36.9325440695991 21.2598651809159
30.4542466022402 11.6905387195683 1.93556343647938
-0.917336149256366 -0.35663234593115 1.66772935333215
-107.188066139333 20.0212108138509 0.430440880294513
176.561330962617 18.5251825532683 -2.48557839831802
-214.117935755643 30.5414042075203 20.1259773907392
-185.542213428985 -46.7071364571564 16.724292541731
139.628858085525 -0.138633936661175 -11.5456790358717
-179.205738422723 -15.094975814479 16.8880147022395
207.681989270403 22.8760513593541 6.34006316274169
-59.4214150604167 4.25383659907285 5.68212950899462
-175.393444258615 -2.10671263381013 -16.171269108896
232.929629465451 -26.5491375843559 9.92629466525262
-212.379050058329 -15.3570364163396 12.2353635407609
-165.054745642502 11.6591449025863 -22.1411940783421
-117.350288771402 -7.25451260345821 4.41530730847285
-139.244192870036 -8.01021988423525 6.78927881534072
-101.071778349804 22.0196144694865 -13.1660854930043
-207.254903362079 25.9635538050565 34.8969361352096
-209.28675028975 -44.0072191189206 17.9495657171923
189.978473564728 23.186252626606 20.0138967542981
-137.396748878217 -11.4722502294922 -20.6058340520154
55.5350548469669 -3.54607966878154 -11.1065942117824
-213.160728290027 25.1494799906901 25.8618088725069
93.8028255200975 9.32198670706382 8.20839859015215
242.142959562101 26.9590507095541 7.07634206202633
116.293775479722 25.0275048196044 -0.216371797441084
-166.97958254211 -7.12121810188573 -18.6120238577748
-143.450806917642 21.1003387656056 6.80537517380797
95.4178017120517 21.6322956459073 -17.3989506551375
-79.7924831370106 19.1252916763115 -19.9245326375972
-105.648619251369 3.72072962929713 -24.8850769011482
162.746774144692 0.822862351929717 16.5103193561557
9.37296309070505 1.40925141846138 3.22319795566394
227.248660131153 -33.6961012561533 -3.67500891561008
262.763214076037 5.24024133748248 28.9338284776731
-202.882903335916 -45.7649032029692 32.8057185534655
-180.923445287367 -30.0867669181943 22.7339746744619
-35.7699862083432 -6.74073206236746 -17.0812673882184
-195.905131690907 -44.2385010660182 1.22010764857306
-152.362262390598 24.7819890120017 -4.27708850471293
48.7714741180176 24.7150945465435 -17.6528119174849
-67.2843263425914 -10.2553928298855 -12.1102141952648
211.776152366486 -5.71864745238678 -10.0454341810629
-111.205201452587 6.65887920681185 -24.5234596452132
102.660530128302 10.4421844079962 -19.8103800187442
68.5456832428264 11.5393894363695 -24.2434897775594
-196.630371986622 -45.8386515478906 32.709488683551
266.921070717258 -26.1156229269836 4.45600653798047
187.39274400178 -12.7395006319058 3.52714959635567
249.389777152113 22.3501095214348 3.53041217619262
-81.1945355799824 18.5205765623134 -20.5674163386012
-207.901010907862 -16.8944526170575 -20.850435370767
138.979494580845 24.4618007358308 -0.576925508385078
-183.104774667233 36.6946979496373 7.57567596737151
186.359715775075 -8.97614185695066 -7.11308164876889
253.005608520172 -13.2811865232048 4.06315644693417
-84.7808491737494 9.54695953569081 -25.1868582213065
-56.2201405630481 -4.8285529296342 -3.88805939168377
248.146893141673 -5.94399944500252 5.29569368415282
-112.760202227442 -17.7619696853251 -8.75780544909805
216.720808686779 -16.8130063749658 9.19703118327367
139.123065592348 4.69815361540213 13.5834962426389
-16.3061794024077 17.7055412290648 -23.4276761495805
-219.312681425212 -17.8415190536492 7.00452061512955
-111.515892674914 8.76201652949347 10.1472373669079
18.6949403055024 -3.61365816475409 -15.4512948678963
-201.580300832648 6.19031417598484 16.9247628766915
-211.540279329124 -4.61623327114818 5.06991641617435
-211.431819583854 14.9674289167127 -2.90126443630287
204.348212769711 -11.687470218595 19.9313899640507
136.999465497792 18.2857583731191 15.2696658245038
202.604491885167 -9.2812588527483 -8.85034871325844
224.507086667438 -29.4870896466604 -10.3152778534492
-73.2934822511501 -8.71762340108185 -6.4079789103673
-180.56937370526 -27.4579040773293 22.1561757337568
250.6393728484 -36.0056308392354 15.0997196349344
204.651130105437 9.12303122752132 -5.02685204602432
-183.398762993638 38.5554310750922 14.5093055993361
-147.188927800933 24.0702784274869 -2.80110089436558
-188.726569952506 -41.954679324531 -2.62797024105297
-72.8963026055715 19.4163370417258 -19.9068608208578
138.043010747943 -5.77871082311639 -2.47040809885607
-92.8976036990786 12.5600687184897 6.26923040518514
-172.071867689481 14.1276430542714 20.4828154532395
27.5669008997941 18.6136724142887 -23.5842946264133
165.285003968065 23.1438635597403 3.76653674109015
-181.002618896967 -25.6923465586937 24.9072172686609
-97.3639927411721 13.974933842397 -23.271717610641
167.1442863626 -8.88994416025343 1.87930204117865
-109.831145391928 -16.486967781364 -7.07012536833673
-132.133884580623 -11.6704020338793 4.65051621653508
-201.810174053995 7.2478886039768 20.8041725981317
-203.925224131189 -21.1237932751487 35.5949411384329
