-243.768408636862 -42.6719073816519 17.0406487937675
217.081950336514 -29.340583022611 1.88961239102018
170.420426839359 -35.7355519571106 -5.69410577664883
-229.187254005774 -49.1013719516897 7.27620992991861
128.132563494219 -16.3835894942121 17.2788781918897
126.691250368491 -14.1852452511636 -1.60586769796619
-175.621163924671 -7.85850286244613 -4.29360289982784
-238.062314942152 -43.4882568978593 6.30223292744807
-252.656677015895 -33.6810123421749 0.424230308529711
159.059660921669 -25.7610259946859 -8.75015280334484
181.187659205146 -12.7953386569724 18.8843663418823
4.99643400374018 -9.25621009288836 17.1169099508751
-196.133550838509 29.3425225893382 -20.6219049238533
200.153565301145 -3.82948929619623 17.2323164929822
-215.476993379754 11.0519573395532 -20.2674009336634
-185.320720850762 12.7689928956658 -30.342526638821
207.572845576304 -31.2652648788301 6.89556323194051
-74.3365494431276 19.6788875359172 -2.79953932606406
185.413156483149 -16.6900238906082 19.3597323811959
21.9521152222581 5.44476980641725 25.7592398281688
-48.5751285947043 21.1870016021479 7.0198067831015
-205.661205385493 -19.6230501087394 5.11941885323179
157.384068048425 -23.0964393476432 11.3949075700282
140.565192540289 -1.5961455825186 23.9602522899377
-19.7198312440897 6.55498782352141 24.3308645936876
-23.7231218529766 12.9223084677024 21.4113149028914
-191.401237050218 19.8673924674999 -28.2599061177094
-234.904177760349 -2.75362205559683 5.43436649727962
111.76634446068 -17.2930902205726 4.95191526457848
-112.809285557953 -2.97622077462516 8.25202646470236
-195.691339376293 -12.0551406633905 4.84271374166435
40.7306319518487 2.77430154402385 26.4777289898838
-205.452569362607 1.26811066635245 11.6222405015225
209.750670307948 23.2187640710051 -23.3482270841737
-88.2747474764518 -0.639013021324618 16.2444115725059
4.32052029228608 1.17960321090068 25.6837119200863
-96.5813162321046 21.3764287085353 -5.87395769912777
163.112286649215 27.1632288209609 -3.30257102641966
51.8081453314633 8.26345386133849 -2.59100424172083
-104.797282726684 -3.74737921386294 -1.31814418768458
-51.4685816442153 -4.27953403831811 3.15959170131294
-165.862160267701 13.7202717570334 -24.1826047104874
-116.998776531301 0.73819663312954 -12.122160649753
-153.197018271136 22.1427762832568 -16.2283777039328
-189.346230758575 21.0752535570886 -26.7407432481302
-176.337106174935 25.7312870045834 -5.92623675758232
-78.5523597617326 6.46461246506778 20.1214479603051
-187.985655277256 10.3479667045741 6.24193627797201
201.509849918405 7.71960072143525 -17.682858945499
-28.8550253365193 -5.49913677135028 6.06830340223006
54.5023431564656 -10.4809491937491 6.92679404831668
188.271335148382 28.1857153918529 15.2995308208589
66.4982193626046 -12.5635707997835 7.83994725751928
-46.9328508718637 -1.56257468258369 21.8035747316697
33.1254601027139 17.7633183796368 13.7525754916473
203.258891612775 -11.2786181736978 -13.4809130094675
-215.134106988228 8.19519675925755 12.3763724496762
-117.756398471009 -3.88359326538546 1.64159969760729
165.390158052806 22.9051871219143 11.8850941610578
-225.135326844271 19.8804870554226 4.43798852804761
-178.092661923843 -13.059209106883 -11.8642372803943
-207.12576001854 4.61862760474166 -25.5369755137868
17.89486269554 -8.74205192017331 10.0200796783766
-98.9629385910085 22.3755647230509 -4.14880613477949
-32.7702751295339 0.94514585407684 -5.72490975262268
-201.558487484573 -17.1216882644005 -0.882202704959068
-19.9952721123682 -5.67282390349093 21.5003756019346
115.231236851653 18.6271770422089 9.36497036075668
140.136848176124 13.6559119928885 -8.75434081937686
-168.75266799225 19.8026499760898 3.82373439555664
201.154745237867 -38.3804931243777 0.921390178008419
-124.27371826724 9.44380266089045 -17.5015465299186
-75.261778470056 22.2491520216198 2.9721466275775
158.067468740818 18.8252656106729 -12.0104959741561
48.2972764340806 -0.833117536488802 -2.76522356008987
190.95707779299 39.6783553096617 -11.400819481228
81.3152281912549 15.8332378487505 16.3934048675057
114.665620541665 18.2190190551975 11.4333467265448
-211.058393819098 26.8758392854348 -26.8320164003568
202.444732856375 -23.1372821698128 18.1154611799242
-111.086193257351 -3.87094030499921 0.114634459273315
-140.708903699551 7.82702354808372 11.6709889646843
-78.9685617984825 1.5697739621941 19.1742823379126
-57.0847092688233 6.75931280285551 21.9283310106039
38.6625100774904 9.94835086023761 -0.664362498123275
-224.40761097905 28.5783178830867 -11.7270272216627
-188.974735248842 -12.5123113775943 -16.3287299391392
-252.699749545073 -35.6473216941473 7.66169768172533
196.629278243088 -17.3865935359284 22.616490287366
-33.2888172466567 17.1172845210142 17.8480323121027
-238.105067787136 -43.9461639283929 11.548353922409
-99.0480736289801 20.9776122386898 -7.01760479353158
82.8607075987597 14.425980975866 19.0511463377702
-99.3950357373266 11.0491800233847 16.4827715929327
-134.118149675057 12.0170816524264 -18.9777007524384
163.974069060741 13.2660937012487 -14.2606101526112
-219.968599381349 27.6876790549087 -3.29898659482702
-134.968992056905 -0.128067891408204 -13.2749200291783
-81.3923616954294 -4.26784623022716 9.7338380260376
-193.350265834724 20.2248153584226 3.08502492328413
32.6705288957402 15.8638328721719 5.17131569640944
-221.638393302491 11.3589695069462 -11.2616044037752
183.060870814647 -41.486435187418 -28.9198645560556
169.558272075824 31.0900670509385 -10.2648753824313
95.1521410346523 6.54624160370797 -5.37797134071479
-216.787890342986 -6.46853969281973 15.1128576090417
-222.786153688168 -32.0071574049116 -14.6661408100622
-192.545827609048 -1.49534247733809 -23.8939228284109
-199.747140930188 17.1375850159197 -32.4822858304179
179.487723944093 -27.1203003965295 -32.1278448534408
-181.051266139188 -10.005411051242 -26.2697306481643
211.014300978593 15.6922944453137 14.1102222960555
-48.4718552252525 16.2473189966823 17.8525082381229
-197.60407809165 28.9442852319786 1.14927178097427
199.123624906679 29.0838666203865 16.269546786015
-247.884728184478 -42.0416163617886 6.68757783993608
182.665601783416 -25.2664890778647 14.1953985727738
-181.766028109398 -0.143044209680473 8.71238115180933
-180.424375913471 -6.38280206572173 7.04893184520991
-76.327303215395 20.8736449068243 -1.57859180877786
202.312962012242 4.71300963269425 18.3555597108239
-201.571223200592 36.0245393978967 -6.52004816556558
26.7816743897382 9.33044596169636 24.5018905211899
-212.61452508043 -35.240084100538 11.0125625318165
-133.346104548016 7.83888987375511 12.6914306845663
71.0400862447293 11.4296619584792 -0.440419463746582
205.189535431 -42.6320011467577 -32.0552362142507
3.88291951468046 16.4892172243841 5.44928324963078
182.025191115027 -13.585775900365 -22.3256239968179
-159.469296022854 -6.04851681421138 -7.71590204866999
-230.800027261652 1.55263067220606 1.23871185402256
-63.8060543819935 10.0536844826591 -7.71716499830057
143.600537064514 22.1450803202761 -3.98660162492413
164.465670440558 26.1349409557283 2.37464873726656
-75.1716418032815 -3.10739806148357 -1.61643675573809
80.6432802983728 16.9213097199376 13.1891576321417
-127.312036100118 17.6210709365847 -15.1651987860098
160.373326276747 -27.7308557999601 3.97706233935981
70.9823603829895 7.98533768079598 -3.84916042958598
167.100411961107 -28.9458844863716 -12.6102362075362
113.78436483067 18.6905798672229 7.87429274993698
115.681503514415 -3.30065342958806 -5.86439490686282
0.0591077000804158 8.18602398022198 -3.26118311387267
162.595942630218 -29.9017395646867 -1.79737060607802
218.222432365198 -38.1768689866658 -8.72691979359495
-232.74880254416 21.3965498843501 -20.0125733431157
162.222070669596 -8.19088585970899 20.0326018791203
-219.29978002505 1.37291816066821 -9.19184571061099
-238.654126564292 12.0674166996302 -22.5164164879001
-208.102675911134 -20.5127700433388 -2.01904474185911
-192.397869174463 17.4524834658613 -30.2886417609006
-249.005807108137 -41.0219877281787 4.78914754638092
119.399215925428 -19.7318370444731 9.08541176832014
-108.380617941033 20.8131918094211 7.40517538705915
204.748332750733 -6.34330710784156 -9.16570949628012
-201.239795592906 -6.27292878048756 10.9481230043359
-6.49508557931983 -1.25742038204611 -4.06356438371319
201.088226303161 -21.886722048856 20.3118219063233
-175.392070348688 -17.0259782205303 -17.9356535828131
-17.7969094909061 -4.41341579363937 2.83691765282769
-184.377548467173 -0.271927403954387 -27.6171423519083
201.294785394017 27.9614318472323 20.3120024171281
-66.9611604353719 10.1825646948776 -8.12201349389377
-195.288647609787 30.5928241511462 -1.97785451669972
-215.535170133325 21.3319691287459 6.82852003427877
194.368550531165 29.5157501902195 11.7635294389709
-177.822788624215 11.1041185746707 -27.5921254035092
-222.826099238252 22.7970711652548 -28.0260396425058
-32.0596764186024 12.3578094803947 21.4452548971825
-36.2013846228103 -1.06681510833937 -3.89633512131535
-219.939824629437 -45.8354069998025 10.7567823505075
210.029325671003 32.0792603575475 -17.6600057065538
-213.74503166637 -39.7010059425573 6.85733863624063
-192.795546775423 -4.49937964399869 -23.2534889439745
-22.9813635409051 10.3332557279173 22.8861691192834
105.694674618138 -5.06160784770584 -4.519549376069
-205.138785275524 3.83879430663057 -31.5313366162994
171.598787810969 2.16885757159861 -15.1418799861817
30.9289846272875 -0.274788792420865 26.212944273578
-212.186133940431 4.93831772530035 -18.8098708060485
-238.942778144003 -20.0668164719505 -15.5131302103071
-185.476315230129 24.5150506084394 -21.7727574534404
-97.8736047621614 -4.15439466423831 3.17731466811447
122.458419516251 -1.7345418281156 -6.89084154482976
212.208253817727 -39.7117796540119 -5.94286304246621
202.481774333593 -19.9681898201702 20.8802499085998
-241.871735487574 -18.1034344412777 26.8624552539444
-210.488380277377 -22.8452278943771 11.072771956703
214.1599794083 -21.5114789823192 8.24569597275392
-246.041552267318 -36.7956601025529 -7.97802573873557
214.888430760791 -41.6681428974511 -17.1867336322113
123.829460560373 -13.8340203576014 -1.21239252767411
-229.214523100666 -14.6782348495412 27.8997553416291
43.3996339547948 -4.27716488287369 0.386311905089823
88.0891088546386 8.55785946806423 -5.21216376241586
-82.2252978684003 -2.46891258091253 -4.98554865284846
198.764965629837 6.6722624102036 -17.6640116063279
-174.914171729538 23.6305109955304 -0.339217386008771
121.324852115702 -19.3901597342635 6.18388102856026
-183.993773944083 13.3936825563975 5.52633765710749
-139.852785244242 -2.6486135621194 4.85746944149371
188.468588774756 -28.7670794659667 -38.0764253730186
-150.296540691522 2.44202675178888 10.8960460567439
-209.583823620005 -1.00441543639073 -17.0935206869268
-83.3730689403951 -0.500644544226426 17.1164173662578
196.941196315279 28.3418994834573 20.6732978371191
-215.290179905372 27.6852526216767 -25.6069411289964
127.708476972419 -12.8906343443691 -3.20261336890607
-0.899354595285385 17.6736537667163 17.3306390821852
-222.623541516876 1.31880034152631 -6.2911698842856
-221.373737987275 12.1925472165111 11.4343085192435
-166.222443929733 6.58074310351042 8.91125746935131
-201.423250427755 -11.1670351625281 9.13703176546174
-80.1782440714193 21.8219939241476 7.33215802859657
121.13346605412 -14.9390853031478 18.6941298327816
-145.866485830664 0.117583500330718 -15.3154774210814
129.961780921665 -19.6990120137156 12.7455889406419
-228.823482902104 -4.17429365391229 18.3739715428483
217.208379607134 -39.8701407451096 -11.4053483697203
-230.828878985445 -35.6014296228932 -15.3815998252402
159.29909720765 -12.4797004311322 18.9514692154066
-4.31664655520013 18.6455619843236 9.21843238437379
155.175867960156 17.0871416925224 -11.5074224931238
-232.911872310813 -47.3108197966753 5.28118265541499
-195.38425002382 27.3735020289904 1.225415881498
145.919975117034 -1.21215707518672 23.4837761800226
-13.3563060954134 9.11262745973414 -3.16238681584552
-198.814681898269 1.10817009599289 9.83844037997993
-197.523149652703 4.03463211212554 -31.858780922246
-89.5155563214009 6.07208904642991 -11.7272757611642
-175.716035144547 21.6983020298016 2.1533793161307
189.136069081277 26.2341790594748 20.4920057741591
-200.170038294808 4.20725230398264 10.6317934259526
-177.472195657064 -17.5124018980584 -19.6314205844241
-113.149621899963 14.2152182913693 -13.9712526941944
168.380504948385 -25.4349241818162 -14.4538460768898
216.864836491993 -36.1107960193133 -19.5310068584875
182.530703639485 -15.5668594856257 -24.769856989244
173.107855007262 -8.503754269224 19.0808271056188
139.615035825553 10.5607831011407 22.5160616808569
182.290692216954 -42.827001711914 -26.6571076577654
166.630218352832 27.4988895516529 0.296217470679408
171.64497356016 -34.1530767132749 -16.0074310119848
-229.224604533827 11.4762747429504 -13.4626844248715
-117.371848259033 -3.91816343024143 -0.574887739185205
-106.140128955876 10.1272954747243 -14.9400064058403
112.708316506992 -14.2741537276767 1.47386151983743
-127.771107609542 22.0951464802203 3.09347964844275
-189.699170686243 -2.14509429747276 -24.5831876681475
168.94692097575 31.1338094820741 -8.04571282577411
-43.5983012690286 0.417534353355516 -6.23377983660125
205.283360086033 20.1702240695267 23.2345288559066
-165.151008205645 -4.11488415205036 -20.0047369045341
95.456724753436 15.2976784868821 17.588009231934
164.740639407095 23.7832947114978 9.36358049794378
-176.815424483172 -3.77533513654811 -25.4374928616858
-237.786333222099 15.3136718224426 -12.9178509918048
42.2212851168323 0.569190177354823 -3.42727398487905
210.033060718092 -27.8942020134253 9.43888240034905
-60.9979020627019 12.9513610431781 -5.4174053479518
110.598961018614 -16.4298576773867 17.0776441239271
136.622333977349 20.9842280587832 -3.25852044699725
80.4557749908058 -16.2319450230015 14.6682675047492
113.962319328558 16.3849835245806 16.2721841527745
161.472076004788 -16.5548263631741 17.0255648619897
116.63548391715 -16.6049685159093 16.9489759815455
54.6623043185112 -12.6164597045229 18.8964671443673
174.588971254754 10.1534670129507 25.42266237721
-213.633392241743 29.5755668712422 -22.6308143897016
-227.724182992517 8.92309207494164 7.03236632202967
-234.194664925089 21.6456154611348 -17.3102663971684
105.328655712338 -0.357569621044112 -5.46083007918808
-26.3775312834384 -2.40019281112176 23.6347516345718
88.9052984769968 0.275854164283941 -4.41132141599817
-61.3709375948831 -4.94929343552803 8.33823132090355
-182.826201917779 3.80925206214764 -28.3065159768461
144.157082555329 13.9416934995384 20.2308560286323
209.199940475843 -7.05825898659132 -6.72241206209432
-162.217594948676 -6.09227816132646 -4.43167992631234
178.241834092039 8.20505917482659 -26.8113381488934
185.949502923211 27.4168054859464 16.2188177554825
122.523309844287 -17.0187554991271 2.01110928269254
-63.0258205927819 -4.4689557784518 4.74618517686926
-218.143835193657 -31.6341715980514 -6.87979978396514
24.4133192962579 1.71258230147043 26.2300062081035
4.23846488631243 17.0410615105756 18.2251526345439
167.876890549808 7.28820438295474 23.3015586440088
188.455511328539 -16.6513731781795 -27.1844937246211
157.678119476867 -9.38840866676311 -10.0279459400696
200.479011001236 6.47724592667149 -15.6693588492249
-198.706403264404 11.5119320191772 8.21166661593527
187.570265371938 1.67301472498375 22.526077690746
176.255639814889 29.8939501614305 -27.2195890576675
-229.618904134597 -13.4985013417432 -11.0835267808823
197.928878097015 -45.1980127842148 -15.2566376325183
-189.373378471318 -7.3700910361152 9.36259487649454
-231.477814898947 -3.08032205467558 1.08810384758757
119.494090447814 10.9086284813893 22.6699155672071
-235.228316304564 -43.2313448790538 7.97130682240575
177.079619730653 -12.4815424957835 -17.8401840680002
-182.688010388984 -17.3217536940987 -15.2097162649939
-234.722599640145 -1.80722551846511 8.02595984925355
172.965535063154 -30.6906211574995 -19.3339590364733
-187.681029152956 -7.78435669246254 -24.1208749449868
-53.1459028720571 17.58576201873 -0.493223776351537
155.204033436485 24.6222824092686 -1.48380510465186
-10.8495165508436 6.47723482636593 24.5945221145671
206.120279237211 36.6044415521388 -10.4159641135678
204.255448744229 -1.16136392628772 13.3759814032378
-135.077050773319 23.809476780402 -6.28149372501946
145.238962632415 3.2102666263191 23.9529887798148
-33.5089293310954 15.895006711677 18.9558851560498
204.658620359231 37.6595981881621 -17.300770535279
-131.274001118484 -4.05933194786476 -2.35260967616037
193.257486912109 11.2804894980357 -30.8672271925978
116.918803593248 18.8467162935842 4.47774516893948
174.225795541697 -5.42286900255567 -13.7804335571144
159.534660780878 15.0861227492842 -13.3110984237625
203.637002588669 38.2503483984999 -17.7584787450707
-143.186739588585 8.91465486007986 11.1817662956156
167.546962882333 -16.0045068532914 -13.8494214271317
159.40744096642 -25.8290427275462 7.6861818860292
10.4549039667572 -2.78229915359769 -0.665409067294503
142.454078611894 2.85825289803469 24.2125346254633
-16.1637992632807 18.8291378599911 7.56681511174877
205.250040706587 -12.9486144632778 -13.1525700030088
185.130880835713 1.01012566133688 -20.6902955830984
189.770531562008 -42.9746114952392 -2.7331827288687
212.68248912798 -12.1852522913297 3.54616183836519
-205.198088713204 16.0838078743178 -34.2255991297657
-121.958888049524 15.3434973302406 -14.7275214199961
-91.5783260067118 3.199837543785 -10.8918761199882
-149.069273459571 21.0223699485261 3.37168608420325
-201.290583494232 3.88434935923021 -31.1869999607657
147.138013502616 4.7050700898364 23.7240430736634
190.982451105099 -30.194115314211 -38.8810274737353
203.204560885022 -43.7411512250876 -17.6108559746708
-3.36269781017855 19.1014117639424 12.2045131600797
23.852132993027 18.1018123375486 12.8434962926035
36.765507622353 -8.49479688938898 6.61171219404214
-89.2778764184961 22.8318196901677 2.74558275980136
207.172483613823 -42.388114333802 -15.5459672448898
-200.117109084282 6.04378852540948 10.3055289720176
166.996329919313 -30.9393964098719 -11.8561920564314
214.23425093556 -14.1621070904154 -0.421680947233059
-123.323850108441 22.6049534933687 2.10678412248735
-154.035133234871 5.00813114591383 10.3983013158961
-62.820331994069 -2.58008237263095 18.4348292994877
175.805627267082 -22.5190762070465 -26.0061206707169
-152.666724389487 21.8423117093519 1.67720990600107
201.083911596968 -45.408164853947 -13.4367239690841
211.373845771937 -31.3176513106869 -29.8046119367026
-90.0730443844149 -4.12316562571585 2.0926056770918
176.57756826511 7.05776031177739 25.1240047509924
-141.897688453543 -2.00926838733301 6.69312779852837
150.829528676179 23.6099170594478 -1.10261356823656
199.308303748652 -11.510040666812 -15.5245366480122
111.614666620551 14.3163674829684 19.4122737373257
-188.328136052365 -11.0310690201413 -2.28160282690139
-217.864473051532 -37.6934805758901 -8.68017463982619
-207.158463358634 35.7303931736881 -12.8782485674609
-178.363719389045 -7.85891402858867 4.23911207223993
-223.66480921745 -26.5140124044943 -15.8279670478715
176.953220873341 32.4476958265385 -2.19815799808804
118.334427681085 8.49145593416062 24.2121375878575
-234.845324824904 -10.331268802221 -3.36526442885269
-114.734155303908 12.8965680254396 13.646440654538
82.0946404740338 -6.04845377945203 25.1426376177695
174.558763906577 -41.2782795732584 -10.0572270258804
-201.5493298141 -16.8204289944259 2.48376873674692
189.13602421384 27.3634262673252 17.3134937086773
-222.373542279842 -6.2968747192586 18.4859833292698
-213.367903812424 2.91618310577561 12.0338395852318
165.572220215095 -3.62135679594889 20.6240403458062
210.082125688254 32.9719669128629 -14.3826019564619
166.469707701518 -26.8485078662204 -13.2135847763235
218.113330387679 -37.8559685559798 -12.40619459157
-214.843106643751 -16.7085452773788 -9.9319861315404
167.643904004748 -0.598239110804528 20.4818069221699
-85.4221898561067 -4.39902626254319 4.70271161668989
-121.446774022061 17.9789022713572 -14.0281779269531
76.9770833147525 7.67554760092857 25.3181060893757
196.391821449395 33.1359539036274 2.76353230147598
-234.551765296015 -46.9604331284666 13.1286880883723
-196.76068967465 2.30971956051751 9.74277342167558
-129.780004590623 12.2532903813226 12.0263710514669
69.6957343132785 12.4930678725559 21.7495202916399
-216.917078663991 -43.8732603917926 7.5697042079954
191.168379555353 31.2594850140085 7.90562672729089
175.113668511848 -8.69660221039504 -15.4599163922867
206.341326414925 -40.7304031647914 -33.7983039020603
-252.250944762298 -31.7586555282211 15.7473661676675
-108.122336656025 0.290830975210901 -11.1551360557556
-215.024455433802 6.29116758579557 -29.7610514735478
143.761344952534 -4.76588318935183 22.9273263147391
-146.777201297897 21.1795212259077 3.35754016428712
191.4290421943 -29.4552788029468 11.077433863175
-208.806664985034 -6.96927055229764 -14.1547035943764
58.719727993505 -6.33281204757249 1.4449201179363
100.141182338642 6.92175898851088 -5.57833700922697
210.3340219144 -6.48068719669381 0.418307545751232
-1.6317306200273 0.439224165692715 -5.00889970402993
-150.491085386933 1.58451056319687 -17.7095169315017
95.918828051798 -7.17504792066501 24.522335745479
21.5766684001939 15.4732047393174 19.6833668782257
86.8177554442231 -7.78980182574908 24.2497669706406
180.019574097733 -14.1042680579489 18.303828075268
-85.0842058510916 6.76147006934969 -11.8523480453691
133.078198394737 4.55704277629577 -8.68026636210642
188.249683010173 -13.5169211425469 -22.5838751060457
-10.0355458428921 -6.02643545204503 5.83154416064844
-227.118229784831 -42.5252573892963 22.1968220669829
-94.1422429147445 16.4715399059363 -9.87226336381331
-151.918753373397 17.6464417486433 -20.1056825648531
-156.643635451183 -5.43731867328139 -3.19030723798686
-64.5290819457613 -1.08079688017082 -6.12605123107465
-223.863787674925 14.0433330999946 9.5458310395014
-248.645538026498 -18.4451280056834 21.2353682049471
-129.821884352574 -3.17116708932037 -9.83605377139034
130.494227086613 9.57145841918124 -7.91834436401067
33.1669289567072 11.0575067836786 0.241554470073462
156.737967172836 -19.2192883817613 15.1148042928624
-87.019480659821 22.8118741792427 2.75650569863802
-70.3522782368083 17.7640556398707 14.4836195008981
174.630721031487 16.801084634943 -28.0498749449259
-111.168440628812 13.1644294397811 13.9586136117609
139.697724894028 -22.202381698335 6.07078918426307
-186.817953208665 -14.5932677217026 -13.1502498629092
-166.896511850681 24.9269619154122 -10.9852756127594
-233.932918070519 -18.3273772173705 -15.8474281215015
-194.069629441107 -1.90456030640205 -24.0833469151165
-230.000712187685 -8.61485853280163 -5.53022066545365
-124.966151254416 19.3931531654234 7.49795910034616
-116.139620356186 -3.28460004900228 -7.93621235085365
-188.596867846796 28.4700982615267 -8.83508812330349
22.7926560377823 5.66353281987293 -5.32040079842726
-192.110622571285 29.5579380882321 -15.9184499505422
171.826203819408 8.42328768355386 -15.9577305796269
-251.529453172207 -29.6881657266058 18.1180291145516
-138.768853446454 -3.2408620535583 2.72988271169826
193.381137735253 3.74975748503874 23.2309887372019
197.526542355294 -12.3607575297383 20.8844600999818
184.326416677837 -39.0843528802404 -35.5433406989063
125.571831788198 18.2897017006193 -2.81436537146423
115.562417653648 -9.00581673767679 22.9612537046036
-86.9067829065977 21.219529486962 -3.65616051200773
90.7573869131195 9.14142554430877 -5.22316955836938
200.5681960489 -35.4210031732448 -38.3764912373508
-77.2485920465424 21.879570679562 0.499611810488315
111.950488732971 3.19319292205055 -6.22548384564296
31.9132926891383 17.8228151004625 10.8953115017681
214.942075591694 -24.1408744565478 6.98292925193327
-244.78989397015 -12.0967777993509 21.3503072519767
-247.451814131943 -41.4069850345354 12.6632847798529
91.7367528182578 -11.3971068889483 21.8488925612478
-9.35942784195743 -7.9886455827864 15.4689689016325
-254.285062976383 -31.0961196697788 4.43270725996352
149.963589914975 -18.6760360077292 -6.57246582525089
-211.16060520148 4.79657279137684 -29.2691003665079
196.444355026802 34.3778905486175 -32.883018733118
-227.308005189106 2.18759150153986 11.2061337983093
-206.59178699644 21.1285298883595 4.57181958698574
-141.644502170749 22.185330188869 1.7198325629472
69.5276213610544 -11.0531478362019 21.6788444982232
85.9513401072808 -13.4878639337069 5.3564114690212
183.114338487033 -0.469088211069183 -20.2066341096866
56.5301949725365 -4.10941226571656 25.6733016336817
19.9841861406473 -0.934029076106789 25.9823849445546
29.4901471205268 4.43027658503321 26.1427687139882
-226.233369585226 -47.3996956684012 -1.343036617024
-59.8503776859494 21.7446018994448 6.43768333748457
45.7475319854374 14.4240980435056 3.242600422764
75.865834183228 -2.406595566315 26.453555713224
187.125098299674 20.6168121026527 30.7465280560287
142.545623247052 -0.153905276446122 24.0230612793216
191.187984176967 -7.50782318111058 -18.8130698134664
184.717152757471 -30.9867719760717 -36.5941810648049
109.548509542108 5.60792566203861 25.5602615023432
-244.603956673215 -18.0714219079465 25.1083450786093
167.491805558451 -1.98660671483093 -12.6961237941796
130.753292822873 9.17720668440898 23.4070410413496
-179.57959982678 -7.14943329716887 5.58295481278158
-166.011408502316 -10.9871922353677 -15.9527811950122
208.308635794893 -33.4859667447283 -33.643244795137
175.619085763157 -13.6040225101751 -16.1767373330065
-217.090261397554 6.4024500135416 -28.99292614512
177.955558468641 -43.4476753694972 -9.81456160653254
-6.15108025458777 -7.93120303731652 12.4673681057723
74.7094419067546 7.59204843619463 -4.45427599195364
-183.43654906427 19.9875357866475 -25.9055833567598
-107.642316666323 11.8780066219046 -14.6972499266881
175.108610898989 26.4142653690671 10.8494547709955
157.24527612408 -2.10845799263673 -10.9141800240982
205.748306064212 -42.4014164614872 -18.8407526127498
166.147769401514 -25.1334831267367 -13.5171698378333
110.44666033769 -10.8163039077761 -1.33309866496165
-213.755032253697 -19.7487000810047 17.2021230891978
168.669045215658 27.1688931378472 -14.4541181364367
-153.9230663247 -4.94313875172632 -10.235791019573
-215.829274194278 10.473691817983 12.5859446042811
-126.167991102004 8.70047929350046 13.6205207991458
92.7982537406124 11.1691741651253 -3.49812125726901
-184.824025550575 -15.7185117898671 -20.395610465136
170.376930204069 -16.7070366037746 -14.834572345323
198.427718673685 -42.2378599035707 -3.67360178921237
-212.335636497692 6.17263776470126 -20.0752738472583
-233.646706094834 -9.34690344945464 -2.76413821948281
-203.581204907159 3.54969673122532 -28.5415917644728
72.5815302523674 9.49688990418799 -2.36136281521082
-220.174323876272 -37.3539444024383 -11.1011896377689
-205.872217393921 36.4712513506348 -7.83721923487296
-12.8282414679797 -6.30612159842812 21.5501348741147
186.820893536647 34.5574153831861 0.352851626772389
194.016630769012 -30.1285684286271 10.417473572269
-182.206296777056 -11.0126504928407 -7.64008096350885
163.648106737512 4.80934356796793 -12.7067423135133
-160.505041571747 0.74692810805866 -20.3823763955633
-209.365524153896 34.1421148494398 -16.0157126693979
172.385024427271 -32.6432467669189 -17.8248851750976
201.725553689228 -43.1988952097858 -29.5647211949654
162.16200046655 -25.6421997296709 8.94695829846353
209.213134890503 -19.2158021705228 -26.3791403572502
-118.67410649513 22.0708118030126 -10.3133434807247
185.610365427155 -44.3297615385123 -6.04246223897986
44.1531343752903 7.76001593246386 -2.86663594798016
209.490664051683 5.49369567545347 5.58956819638979
150.390485513027 3.56648093296654 -10.5875361406777
-113.690698856637 -3.69279441042111 -4.34706924669871
172.309301029884 -20.3946124011803 -17.0015219678389
-48.635816951062 -2.60895759666434 -1.5243214428387
203.421475933945 38.2778044932705 -22.7733744253689
36.3755104929272 -1.49645066088464 26.1058954157064
-92.9742502504867 20.7719744885443 8.70158671924886
-44.668440629579 -4.8818889007693 5.13121640628941
-205.3457640041 33.2436204643251 -18.2839892845386
-150.019573973068 17.3622689613785 6.75246510973112
-220.271853300822 -46.1122331687987 3.60831052840287
100.895192238451 -18.1411098355182 11.5418888819388
-108.13100758639 3.50541114187725 -12.7778746502596
-180.668500750668 -9.23526730338405 -3.07397743608938
-186.033304977948 10.0940370127541 6.38610287820786
114.59160102697 15.3555701485381 17.9417207420602
56.8973061602537 -13.0766976255948 18.4010366489366
183.183299520677 6.77837946729495 25.9158487050921
206.883835883224 30.9466006158593 3.56854977800385
-120.373544075306 -3.94789237106844 -1.08312278120072
-183.401073222328 -14.0151097754105 -11.3910447195026
-4.30039123149555 0.0162578045856563 25.225847637203
164.542278852001 -10.6854399032899 19.2028085286307
201.373240030432 12.6517708744861 24.6133804676984
188.799259028199 -45.2254356664443 -24.1826403413469
-213.351949228343 5.88689626268552 -17.7144835307187
172.776296007357 -26.6191184740108 -19.2283302255856
-245.892388319996 -43.4227771247899 7.24972393658284
-111.209191018206 20.6150068487035 7.36082897310478
-167.222385844938 -2.02358056636556 -21.367161082453
189.091744438821 -17.0741038195494 20.4715055356891
130.385011353091 0.887207797944694 25.1616410537021
-31.7730137627502 -6.20442522177719 10.910618516199
121.442115192156 -13.7448249574075 -0.748907620737769
173.418725963627 -7.50149280596718 -13.4080327497963
-79.8679551424219 -3.25242104022302 -1.67189672812321
42.1453837727885 5.63785531410416 -4.65473623646855
-206.758007633611 -15.1085065941482 -9.00243369223243
-39.1740301352004 12.8501551030709 20.703562100997
181.516537882674 36.7315984858401 -18.4254893603432
40.8202633939226 -11.9008519359582 12.5092759065801
-6.26547170833341 17.0542542122037 18.3889542436162
-249.871815191753 -38.1386922388571 14.0170826201875
210.1660525314 20.2251281936628 -21.738548427263
191.040635930457 -45.421085672409 -21.1944535561734
-223.450058505401 -0.23334313465647 -5.94870245117898
-212.474056641647 -30.8086506267822 11.2090836038169
-233.828666180473 -45.8383302729129 7.02618049774766
188.539595911593 32.3059258529753 5.18910907540474
-46.2807142482509 -5.52161516465537 15.5252721699728
200.954633773164 -43.8154975590077 -7.30742152979224
-217.697341711077 33.589070529185 -8.91535662169716
39.253527613331 0.0626487410066827 26.3701641887709
172.148447186551 26.0345872757794 -19.7592964188869
-214.703858651372 34.9833753077768 -12.3812061281098
42.5845688194358 6.52976136214207 25.8909598591649
-234.722235336215 -44.3329975030399 9.21395418673372
-34.1797221818531 -6.34276606314143 16.1784188051818
178.902467269219 -43.8619306986007 -21.6111677021339
187.379915137612 35.0220351335366 -0.921396138538501
11.8041669125471 -9.70107441028106 18.3559605101718
199.085839152199 10.3078965303562 -25.6908847505589
178.583808896898 -30.5711033083602 7.54364388743898
-217.142863393865 -17.8043703859367 22.3598934382847
-128.57777247589 8.55342516315743 13.2855282757362
183.01639974792 26.3936986151449 16.5043943208958
-83.5258458307589 5.27051873646431 -11.084945356704
-216.460607180444 -38.9093818433687 -5.13667856149003
-172.007503244487 -7.32574102583851 -5.40379230350187
-26.258388178529 19.140617439893 15.4939030975861
-204.25730929182 9.62076378712417 10.1688055254348
-115.592379346884 19.6825297830237 8.09628437619205
181.416136513902 26.4163744533218 14.9356183600231
-142.081149339738 -2.80510536744814 -11.2238842666182
-229.054646059857 -4.22750692202452 -3.03048820865407
-197.081301672458 32.3606113324506 -16.3781020479345
102.191157844995 -11.937529538633 21.3906637609551
175.053820492817 9.71888010116828 -22.204366439452
18.7050263878011 0.276050916629158 -4.11643357260699
-225.599901221947 3.95934331388775 11.1243127854669
215.614761187233 -18.7814518559253 -10.8862888776292
-189.347412415826 -12.9933206523036 -6.71473688892841
-223.717437157301 11.6113590555703 -14.5624953017443
-75.7027501846098 22.2769762390532 4.80659455679486
163.241838280062 13.1958940120624 22.1599396937382
187.726783218885 -17.1903477265821 20.0921960744636
157.650909905988 -21.1466158471759 13.5348070268329
-7.47543813892462 -4.40725895696844 2.38935820850569
182.792698767256 -2.93980675423279 19.8648990516063
-234.039780600757 18.8366718751764 -21.7227967874482
27.5212384722635 13.1329484519375 1.92393378505934
-159.035497788037 14.285714631274 -22.9482246556317
-85.1552887778691 4.26432183830184 19.2518502152518
27.4109128345853 17.8981213491249 13.6202629237638
-53.5182997657886 -4.42922076442091 16.9111297226179
160.67345620947 24.3129734542779 4.84296459854908
208.719351157513 -24.4554733860791 -31.0214829240271
105.421110777239 -18.3296230105517 13.0245658145709
60.863342641975 -11.5046596737407 7.32701052860513
199.667976610937 17.6441774426301 28.0440463499139
-199.407312852907 9.80378682036353 9.14411492970114
-82.3750480145108 1.63292065717636 -9.60949294374111
-232.246795731252 -30.8779749565233 -16.8884092611231
-192.642154364684 14.9256307752102 5.1503558316345
-208.862597663512 -4.20838673006118 -15.5324129767062
160.192375484115 -21.9884886950953 12.8604245025633
-211.416854144295 14.5809304657766 -34.2385100789735
186.781356672638 39.5483043572297 -10.9795774620162
154.755875860586 22.3379645809204 7.50294475567567
129.406589827119 -14.4071666359621 18.9945226846828
185.715890779634 36.1332827126948 -2.75389107944104
138.992281233413 7.23161303876468 -9.18272386759788
187.100602269716 -30.4716337690079 9.85340907028135
167.837442868175 26.4813464128707 4.43116648450662
-102.295759828908 21.557736095845 -6.96916461610062
216.124203404785 -28.7566208711631 -19.4104418451923
112.974832159372 -2.27268510309982 25.6819767862893
-189.928262251141 29.5969993143392 -9.49928028089812
133.889724171498 20.0177008557075 -3.96261142158298
56.6193938199854 10.5043807071367 -0.378088073114913
87.9224317004204 13.8629077407933 0.0347927553822442
-86.9068322822849 20.7240445523439 9.15612704567368
-213.39212063853 5.84675345585468 -25.688319952875
103.480851670678 17.6272642771796 3.6292292428387
-107.851072303739 23.2280640084069 0.0926485448656802
-140.645336181493 -3.5142979121596 1.30159334677397
-202.813850495824 -10.8589327467234 -12.5388979803673
-31.3208644057002 -5.05038025781505 4.93259228344973
-173.482574579039 9.87719908699157 7.29980008734435
-14.4474477099057 -6.5081255532995 8.12362790630247
-161.601002713482 -3.03760904796435 4.82980666033694
-215.263725093611 5.82805990672279 -14.1137292277525
-196.112216522557 -5.00840599613828 -19.9434377466564
-211.868977925117 -13.9213180257005 13.27439030379
112.008450859782 -15.1793094478783 18.5686121308096
-235.941216420526 -44.4936313076182 19.5074533909039
193.197645334842 -26.7019654190023 13.9684633233759
201.38184298367 1.74407219841943 -10.6714011797971
-7.06666479220354 -2.08722878345099 24.7758063339892
-12.6203069201635 13.2699323018659 0.422857009092813
-186.322521563115 21.2514156635256 -25.730232425476
213.184802722174 22.1353525740708 -5.01535007477902
170.958746660987 15.4357088235294 23.0075977327695
193.970895417315 -34.7276842145337 -39.3874612334004
109.982716109442 12.7107902673638 21.2696463587939
-158.619824973442 24.5413721316642 -8.62417275151726
-92.9181744818432 -2.59761295795059 -5.9973134729934
-56.5139787088568 20.5200864103467 11.9801238306552
155.46237552482 8.72056855617998 -11.399583951835
54.9138020898771 -12.1821083386785 9.54930567511114
59.524110093972 4.03794389416605 -4.07563086545791
-126.569685614026 19.8614440249654 6.71266629918794
147.230025679949 -23.3106874883421 0.339167704951461
50.4166619076009 10.0372128206792 24.2068103837387
-187.849205923913 23.3173638053637 -24.3060984756697
172.171590439611 29.0663914688351 1.04187475527753
-154.04399194162 9.77849556084338 -21.5172536122561
191.164569269866 21.2625145825804 30.7918661836602
216.652493404962 -27.2821780581017 -16.3133165978453
75.4957748214759 5.4421673477798 26.1466439814858
207.042478326016 -16.2366802342628 -24.8824030082555
-36.717146182586 -5.93132076688893 10.5388592693813
-177.464018141334 -14.7002959719678 -24.422490788157
38.9094599826159 -1.86095868867739 -1.81127009085304
-236.039236729783 -31.8836393274998 -16.1780932256225
-87.2939333914945 2.89432980843223 -10.4550106488234
217.170577002533 -29.308643634859 -16.657436165412
-215.769312709236 -21.137536697481 22.4410770337091
20.2999318736888 -3.66017561362692 0.96259242916114
145.238175839828 -22.8192767861323 0.940069050995646
-230.668229903088 -16.6797574529729 -14.0217898373323
25.7326808603224 -4.44340606311937 24.9882362934017
48.6729976991762 14.208136857228 2.97326772402398
166.983375719834 4.67353397472582 -13.7130630347473
-32.5624619807529 -1.92688037278658 23.3097257259695
212.557028971644 28.2973899728875 -13.1273126601145
176.701935175285 -16.5304775586664 -20.4546207635731
-143.42894897443 22.8517708901288 -0.505975626110505
-65.2439696959098 -3.21686824817503 17.0313426595046
-106.91110297537 14.2403612899098 13.865201565258
-19.5481424193973 20.0442987182862 11.0014153143157
-170.470559469406 -3.75745281876713 4.78898501950701
14.5541434289706 -4.85864573261273 24.6420664105587
-239.522878215571 -2.71053435407034 8.94502873980465
-155.725472981642 -2.55304903691917 5.20621542982482
204.508969772597 -40.0085369263888 -2.27371753363538
-222.260587728538 -10.856431663185 23.0146564032791
-240.087869199054 -37.9809735598143 -11.6686653988526
-33.2028125578367 -6.49980407049283 14.5097792902604
-180.864536703585 19.3420284789279 3.64016418302926
188.492695037669 -8.59087558703158 20.7332159730733
-66.6372291497093 -3.16657832459498 -0.651953778635393
-231.297827661344 25.1401120860984 -15.8960817018173
171.469851513386 16.2341997356095 -18.7997753593439
-216.023192611355 9.44014603444903 -23.6511791789628
-235.796172044631 -6.03284507970068 20.5571830294957
-130.962752552308 2.59081206922724 12.803530611329
-214.921713376862 -4.94318998263907 -13.6190192994647
-172.62272977733 -15.8259196072015 -17.0237469468423
208.137567416539 -37.5391589595594 -1.03677495577157
211.217409978914 31.2749306840301 -15.3119299081035
-224.444111568956 -15.2743915425472 -12.6931076830407
63.4535972506452 -7.13380360353112 24.427037701891
126.6920165143 17.2502038152296 15.1969670349903
-246.335037459672 -31.4934857235309 23.753784747072
-215.122056186563 -29.9382972063617 21.3639030252076
205.638665005886 10.265279179433 -19.7565561698956
187.582153690253 26.7730560969492 17.9479454220616
-239.342976094418 -43.4140853629673 9.19160237709739
-238.417694753604 -44.2552730226285 18.8337859328816
-96.5915674396927 10.6023344103094 -13.2718602880791
-231.65049457759 12.4762660742563 -9.93123551144597
-108.067894953868 -3.17167346790902 8.42012005842466
1.85352236997964 17.2646359654101 17.9238031043127
-223.088326289641 18.1354505277578 -31.2507786680427
-220.756370467703 -7.27201623940306 18.1985955074167
-220.447361497094 -17.5000152813863 26.0738889817843
-45.0931813486008 -5.75598310178512 11.7573390273964
184.042773046051 -11.205476563473 -20.8724018944556
-99.0649840181177 -0.972404536825897 -9.54427561764977
172.181375866407 17.1980187304525 22.5684165462679
27.3319887808856 2.05646689449167 -4.60075878691186
88.6741011292331 -10.2772773514632 22.6494167069689
-192.78790773205 30.381163496475 -13.5336470994406
33.6139877617582 -10.6280473962504 19.6519046598623
-12.1680382358925 6.8542428405818 -5.20893327933606
-172.064221941375 12.9905113680413 6.41702929399105
185.432473551782 -10.6081158735132 19.7976250474548
-23.781673507416 18.5744917369957 5.89421295928971
6.33295224566514 -7.72078574168964 22.1378163496774
132.453147125632 -6.3378957240983 -6.78293328632703
193.816138408249 -43.492350467975 -26.4810414877311
-219.333019208169 -44.5546477823406 -0.447057384776239
-231.916116857865 -12.3265728602517 -9.09782771535723
-241.944522007885 -45.745501830415 0.393635108774165
-245.9728394685 -29.5158373516883 -11.8694667730299
-142.692926168054 15.0427995044158 -19.4954711385449
-187.319355258103 7.92395377822204 7.25393419718572
158.44539919225 23.7095165094604 -8.9783167787196
46.121578415543 17.2733703994285 9.19256704752855
190.870975429692 -43.5434155908282 -27.7325700384721
181.716460183042 25.3576426208553 17.7551387362568
49.0264793971113 8.11746227666371 25.2981954963537
-220.551233144431 5.19877400635709 -8.26386406009985
193.433173552047 24.8069194021833 28.0271610707253
155.792346096029 21.6471158000646 9.95540855155643
-112.527451415173 22.8974313042416 1.96506002592878
212.016861673111 11.9607566883356 0.688721775109661
-111.807368307198 1.27189020094848 -12.087410512072
171.267532462802 -28.5397142719706 -16.4566753442677
-214.453146448087 9.40016776053758 -15.4229835008101
202.046963780414 5.68346739203508 -13.3580591955506
-219.332089266032 -22.904411290176 26.5825892531699
23.7796412206318 -10.2999976436975 13.1224105686076
204.175600604913 -10.243400882473 -11.6803954290064
-126.744449364467 0.445628101767222 12.1332726158961
210.301894690505 28.0148016852989 10.8891003732426
-194.154596829387 -5.73016197464921 10.6633118353437
150.91488345663 -1.97521040803738 -10.0483781212066
198.769576611881 -2.38459740523553 18.375593568193
-230.860862201854 -21.3343382145973 -16.8794028910213
-76.098578540846 17.7493975156671 14.0051402050562
-104.645719309421 22.7689663168272 2.99061888344887
170.755398299162 27.0847608904338 -16.5139550731748
19.8594965677726 16.4930676620295 18.2035061478938
210.587425845205 -29.236336836417 -30.3359115336098
19.1829724728718 -8.18574071035488 22.5841272731853
216.165012079067 -19.2584854357116 -7.96918256861457
201.88535888661 -43.5087579451094 -21.3796695726247
-213.569528842746 35.6728279473083 -6.14363010142626
-104.556863176479 22.6764716604076 -4.31072044338725
-82.7332603374335 22.7382770147581 2.9411173725813
-209.849186429084 1.18740864889891 -18.7614659456219
156.179813146379 18.8235853596947 -11.4459068730283
183.727270541621 -14.7016331653785 18.2385002019487
-31.5624628443631 20.2577216696817 12.7700408107701
190.874283434681 -20.2127429936337 18.8361080372006
-39.4309594108456 9.65818763101582 -5.06157186415215
42.937732005433 -10.4406366195906 20.8423092406219
-113.210167209802 3.80693326385245 15.3739973430961
193.53449933898 -27.7516976694301 -38.8469639487114
178.440373359317 -36.189931028018 -24.5579999037006
211.281356470853 -8.85853924403861 0.898069044519886
121.699634108376 19.2190820578259 4.84640434016882
-236.205572379247 -8.32661967529283 0.528650330459466
-35.4251622470059 18.9402237274441 15.7235353135454
-228.267311293581 -21.4265102045052 -16.565880829648
170.953881136897 -5.29810343719856 -12.7948621997013
-40.9011948984404 -5.91943924197059 15.6253293646609
208.907388704874 32.7738760452917 -18.207856145384
108.684423036502 -2.23044105492229 -5.4601315143544
-218.569523556505 -27.3423398506861 25.7228145837052
37.4496540670922 8.06592147534542 -2.40939593860717
191.031896627851 25.0865429170404 28.1936294691729
-155.423919486665 -5.39491132732886 -8.73195891878601
170.425067746858 -0.965751972603666 -13.9692307587394
-194.01444462162 2.31968414387926 -30.0078752344304
-22.7810132929454 3.7845287093363 -7.00726977575089
192.304912700362 -28.4605518491578 12.094734294785
-58.614022117855 -3.37665718341601 17.9257502019226
173.697121893865 -27.5523056731639 -21.4509260992522
97.0383341801393 -3.46213289422884 -4.30400130094829
-32.6978418778416 20.5398562208647 9.20458075244188
-237.944448546115 18.1112524290702 -13.5602742837758
-66.1858619254038 17.7541568566485 -2.92685211200865
-194.334615951886 29.551016135979 -18.8015160489274
-234.812884232674 -44.6750225412107 11.9411346812346
212.759521287434 -42.378913222371 -21.6868934004154
-203.951913128708 2.75761107290257 -26.0714426601619
-222.551426380643 -45.7309945021271 15.4503834876035
99.5207600143333 -17.2854120858491 8.20146804164053
-128.108299198924 14.8313278301495 10.9316758807315
126.608197227867 2.78343868911098 -7.91000915279055
40.0646666425701 -9.51621527697653 21.7128956046352
170.359554664172 8.26095957232671 -14.9100588713431
127.435259164581 14.158100130104 19.7654151790246
-5.12938379708655 4.87862922095707 -6.45463268098376
-29.6306897603069 20.2553039730358 8.86264004529056
111.023372539258 -9.05940979365095 -2.86025715772796
1.91443646791341 -1.15993841177422 -4.00986245199974
-30.9896267590601 16.6894606469995 18.4067325235169
210.548844757883 -30.6422069969408 7.2618240047993
-26.9416725727487 -5.92179768594211 7.77727591531702
-71.0203750308955 8.15187062603944 -9.93287075585089
-188.781477955809 26.1498999185643 -20.807451812192
51.8339600944026 11.5557621562974 0.676137234840408
-17.2724045715498 -2.52907927633518 24.1814760278993
-249.556791082301 -9.72165697563256 7.19712425943325
98.6292807400672 17.4845477601587 4.52757535962828
-200.551887624165 -15.7866947977496 -6.52230621308893
207.474139499837 -41.4548371883842 -32.136102807871
-73.9592540888628 -4.62652303122425 8.71324290336499
-186.206507500121 20.0323683109497 3.27004588429798
204.931776342226 -15.6541514712186 -17.5723733326718
-13.6448535228776 7.27947636750579 24.2815549267759
149.778767791579 23.445590027078 -3.76007576448703
-117.069984399281 18.0165338552912 9.87397956038475
-4.9618160740211 -4.70321628201358 2.90398597241518
-136.021540355048 20.4236581599948 -15.3492616844372
182.323887141205 -16.3513983585526 -30.573466983584
202.870992187424 38.6490739177542 -20.106163376532
-206.169398289253 28.4770877978521 -24.8075434167517
-205.606907638996 33.9253675087175 -3.71630985712462
205.463417703202 -15.4635870135552 -24.5236928371706
-147.081835410186 23.7985512226062 -3.97676791964297
-192.298931260889 25.6949360109125 -23.1356514245785
-194.518111290804 -0.821201094110472 -24.8128001225117
-20.432010756207 -1.08141846169844 24.4308173523279
-125.24657598118 17.1724585695833 9.5381912109659
-24.0273782975959 1.04689154532898 -5.60978180589549
30.0332132818293 -11.1415969933811 17.5853377452254
27.0817699309217 17.328316255472 8.29555070053893
34.0821678407875 -4.9122618763222 1.86193056294745
168.462174996906 -3.14888216759861 -12.2199431774917
-220.184424285316 -24.0942427529834 -11.7636356094381
-195.551123391387 32.144670767904 -12.668854579984
-84.6061629474605 -1.48154965857471 -7.65665147302369
86.7572236839677 -0.254066705042254 -4.18787586477736
210.47218885026 9.42258041208107 -6.99218975679128
181.049152896047 8.17152766893897 27.0454564382827
-161.34254608558 24.3694238401716 -11.5185836096063
-8.95091955292904 -6.54296960377036 7.25430265473153
187.888941560215 23.3430208600113 28.8125279088054
-204.928722288989 -2.27881511319328 -18.7661875081505
-182.802111499185 11.2003422385373 -29.3853424865606
210.545527881242 -39.2392942434495 -4.51013365838336
-113.816648773841 7.81501566227178 -15.6859605230037
202.339836932398 29.9888755385051 11.4494644280848
161.896217020615 18.3205380267106 -14.2888667445077
195.577786794645 31.0866979712091 6.84386729163144
164.516700056133 10.6704418922037 -13.5187535027136
117.035988426156 -17.2945413000726 3.69707888014514
-79.1711094687236 1.80711172792987 -9.42210846887994
-218.948422174193 -29.1138270766819 -9.93784325004585
88.1713323869167 -3.99144032528517 -3.44116050883933
-208.627711034706 -16.4461846115335 -8.12866607116473
-234.340279226735 10.5052622515397 -29.214889100906
14.4753434571459 -9.69577695341313 19.2669670922368
135.427415595036 14.8624386841246 19.1356874856704
-157.55658822212 3.47836997435939 -20.5446793598123
97.7768066354871 3.17636860102094 -5.19551252698539
79.7728145754915 9.90695745140336 24.0192467059725
8.81321355818721 10.8995787280803 -0.581543309937278
-110.033552220038 22.7183888732147 -5.72075366322929
-245.544945197027 -6.63048744298323 3.03757050991391
-217.592852696504 3.04216117632524 -10.2942064930321
-164.902650275689 -0.560453619423166 -21.0161829030538
-221.95863949389 -47.1170904646928 9.49637466473408
138.087124504755 -19.7438352634674 13.664887154253
-216.081213685301 -15.9885471966981 19.3511178924044
-87.4232027467991 21.4760165725876 7.67175716454894
215.392031715394 -29.9205377179489 4.62162409943821
