-229.437220020786 -37.5842830177376 13.9987323809552
-195.584172140486 21.6391171753231 25.469940558985
-227.858349131988 -24.4608634037264 -15.818549242383
-228.929594576572 -25.7699929798044 -18.2467757822589
-215.649189865534 -22.8042600595838 -0.515502023650379
-121.3497499971 -4.43475174610187 -8.67182821035414
-170.95250309447 9.25542430407258 17.7752539388775
86.4784304232608 6.63154400592606 3.66642787833678
228.143822013129 -11.6922696712268 14.2851228099442
-237.00426814772 14.0334729948312 18.2119678226994
-260.078863065829 -49.4487115160116 -4.52818782826218
170.529558999434 -9.82659797498536 -19.6315146167669
42.0202854012736 14.5706052708877 -20.2897092109058
176.119531339171 -14.4181474427354 14.1096354184693
-239.112531621972 17.3150670875755 -11.9558919128493
-163.707815804547 -0.67618459939905 -8.01164808687843
-246.052792875382 -44.2902102880239 -21.9575329686511
-14.9249248742009 -1.21734715223853 -1.37130416877423
-268.853894381432 -28.9299131154439 -13.331506161818
-30.2658884950996 6.56902089046105 1.49428455263707
-27.2357509296229 4.43257522619221 2.24969925482015
-9.57671242206249 16.5833394615562 -10.3215339735309
-250.609581322951 -8.74473580980778 -16.35201087338
-239.331566185459 -45.8937906267124 -19.5607557186019
36.5735787857079 -1.79519975362212 -26.1555966432818
199.415270087172 -27.3846206575333 -15.3710458552646
-214.636649660604 31.0448177610367 28.0364720111649
-227.989919296073 20.3308420705862 33.6399538966109
-263.498863523667 -28.7045754372869 -20.4678056715851
-237.25241456328 -45.02274517689 16.9733300086374
-210.103030934363 27.1577013536281 -8.65732633362932
-207.054219082205 -13.7786447566788 10.5626999473581
226.025112550541 -4.73169699326673 2.17638296879419
196.347290042065 -33.787246981552 21.867531603759
-135.227824411314 26.90453348056 -3.1043534235717
158.998014589468 -3.97277261274498 8.00928152859312
-221.255689463097 23.7859560259905 -9.86377261930053
-201.677887888782 -8.90708164878934 14.5631365477771
-95.9619693903366 21.2658888350005 -13.891681224889
200.657474399532 -23.7304066082815 34.7912792928012
135.53072400757 -13.8913650590322 -17.4808291295769
-231.095570627191 -0.569732801870639 14.841887404652
-185.991388514546 4.13797515790966 22.9029600304076
-231.123753459953 -19.1271844592571 -19.0238063554508
-238.998918005188 -40.8906273739587 -23.1614146969156
127.564987481602 -4.62517547781863 -22.9863512301227
-231.022860633806 -49.4324384495103 -5.28601742580577
-122.486684470782 13.0608402009165 -18.19410243267
-8.76218555328754 19.0649400671167 -15.9258742979966
114.831235788999 -0.0346755304294844 -24.3882184261894
198.050414938369 -27.1444766503367 29.2521897677886
-256.914123197331 -40.2732008892383 18.914577342523
-246.412441252062 21.5646445005502 -2.87257017553475
77.9054252725554 15.4492856634686 -11.0899313014442
-68.015512684732 -5.61324799256348 -18.1127429790663
-16.2099439038556 16.6447367137519 -22.4281464204806
183.737355167789 6.83360481617713 -26.0682637333149
-133.250008593187 -3.5888015045714 -2.73342713546543
229.561752613934 16.7426711347453 -13.825816464522
195.232320174842 6.04666342329391 -28.3093136105417
201.613118527277 27.2887064284803 -20.5763435825139
103.353752791627 15.752489273042 -10.4995943905562
193.455305436729 -29.770374389166 20.9221893765428
233.449845639259 21.4655494204729 4.0144488699428
-32.3069289942026 20.2353038663246 -15.7073194830741
202.970464649282 -13.2744802550851 21.587261566652
-55.9191723147356 -0.201480879074248 -25.0452725078711
-235.299974038536 -4.11232343722172 -13.4526921492418
-270.940638518906 -29.9319715550997 4.96120787642208
210.551638470354 31.6077913776068 -9.57683567285648
201.84709481473 -37.7687985338816 -5.64130247710577
-231.614062052424 19.3592485078897 33.788074502152
-192.455717883588 27.9322444133463 -5.12874497491568
203.500769297359 35.6028052517251 2.21067935395384
236.720973494886 -36.3083782526348 10.394410833383
-250.41847931284 25.4366732521293 10.8315745634246
-198.03276022721 32.2701367806833 13.3008254843451
-179.119955322971 28.873805323218 1.66030259395507
-135.842800567819 -2.96647690102222 -0.57376339218807
204.190329746579 -28.7652464994067 -16.8804124911202
200.231213668231 35.6926136684914 17.336886073058
91.8750954730274 -6.17555954580332 2.28734585395729
-235.356617247007 -0.374912416171808 11.4112255966454
231.934793360142 26.2765259401381 16.6805766441369
-227.800520410243 35.1381805152122 0.887057629913528
95.0863963500781 -13.5250425406164 -18.1343297027937
192.429755045033 -10.1444644553663 -20.9463878503088
135.666643346152 16.0904114431809 -10.731241632367
117.030013176818 -4.4386532683208 4.5576187205715
-230.978940884703 14.1852246566185 32.2095061019084
188.408931001802 3.18114922186891 -24.9646009314031
-120.567597959324 26.5960414682626 -3.23544790276235
-178.052306941342 12.7444112976592 -10.5380386498712
206.292007198995 3.91963268059524 -28.8326019396155
-41.1155050567872 11.1744382120434 -26.0391288129815
180.088926696074 -23.4222657082561 9.22460081597411
216.076876995495 11.7814532935939 32.4130780302741
-128.430971466611 0.424898389321139 5.59325847118769
98.8441510048377 8.43500736230646 -22.8745445878462
32.1515451159375 15.7058652467386 -19.5712823990125
188.589936772613 -32.4537782996346 4.0404396372806
221.870196452802 -0.570678337849487 -16.7080459316359
229.422870008021 -27.8686066507822 -14.9807406782487
21.153370845472 6.98857995806632 -0.378845097079487
-230.862976829095 40.3411704523916 7.07952982331864
-108.972173536498 9.78890012116962 8.97362672481233
187.15136206526 12.4015620139604 -27.2688229860766
208.507437338616 -11.2813841530176 18.3207143682867
236.160522060455 -35.0092026421472 27.7337726241601
191.322054260852 -9.90894748122736 14.5854321757622
-185.999028229178 28.9191382948681 10.7402738321335
153.691868107104 13.7416681993666 8.13753229856752
206.156682749744 -44.1687749585042 5.60563359779028
191.288711840455 -17.1178376126799 -19.3160047780442
-214.20644419885 8.18932630383745 -11.3333222227182
162.903939901107 18.0495115057605 -0.0599594429610194
230.91330246018 -12.9966103295344 25.8050638435193
-194.231378244065 -8.89538990727413 16.4709605430321
220.337515034953 -40.8567888319299 21.1480704973534
154.751031016261 8.12004064035997 -23.4140521271001
-229.21467702943 19.6293358535814 -12.2392764081606
130.308073710303 -8.73394968416095 4.26871092520568
207.451061359595 17.9471798375576 36.1555931686224
-187.13613632735 9.63054313313305 -9.50440629632733
-219.305911780444 6.03611998170116 -12.4332751814475
-105.762390402854 14.2718740753343 -19.8426219587089
-237.328560314991 34.9423493583559 2.71741891967929
157.491407745298 9.71315975261162 9.65328606779318
-91.2681210085056 23.4358769765279 -3.91362365314285
-246.522461450191 -11.2104493502259 11.3339736639867
235.764953773554 -34.3012746181709 -2.30305213032361
222.050393534709 -20.2228445744856 40.1792897616419
-232.201226056384 -10.5812517983725 -14.0856996235336
205.422075416878 27.2198893285636 -22.1731647514604
-193.38303752226 -4.67613805920075 20.3870755753508
150.593306651483 2.16224418712629 8.27790466422837
-231.945536890143 14.8628800261511 20.7437610578874
-242.804730688009 -39.2796986374483 21.9906230464658
-245.953573877511 -2.56845231306994 -2.73473471293977
60.2545031913869 -2.44193577754448 -25.2590613208445
-233.142937554094 -48.4247498986824 -11.82229257087
68.9337907155426 6.56713354443081 2.01335521959592
151.29792457091 -19.0721729559434 -2.15312119691195
-151.794513299628 -1.8416262769121 7.45376469892032
209.520084231132 -44.3993133074979 9.54911229284266
192.134294818878 28.4352727009962 24.3090311504728
208.407403844935 -31.3415124288705 -14.9323642245899
228.934224586322 8.39318638657478 0.734301005544615
-203.295653703874 16.6592880718385 -9.03758577364031
105.661405446581 6.21690860937905 -23.8081414026764
223.286301717075 23.4286367236009 -25.5058988230332
171.668536215183 -1.74331651531692 9.18039994133375
-156.449401449137 19.3123525329927 -11.2825682708538
-209.216167683945 1.92432700458012 -10.8484365941117
-45.1853901616726 19.9443647049378 -17.9635945253065
-163.752882816349 4.34083324280695 -12.2909733997955
-65.9955608180046 5.8647272526587 -25.3953376349656
41.3485996258055 -12.0271401169463 -15.1160401944864
178.497262051683 -11.6131168954958 11.5892395991031
193.13738946746 20.2596918185806 30.0227586436291
-250.112816117554 -14.1318498645716 -21.7443592292072
-182.175091179207 25.3558354145407 -6.14986768227655
-232.6899001627 15.2597205359238 22.9821660579128
227.814304932588 16.6044987440118 25.1163987357691
-224.942556422212 33.4174923353784 -3.41301392263104
-49.711067504158 -7.24010977325247 -16.5816165897247
-8.08792217663076 16.0592535550722 -22.660313593721
181.990879221567 15.2958997098028 16.4813770431503
76.7135681526149 2.2643436822735 3.97056296338843
175.341757786364 -22.3579197249445 -5.71160886510005
-250.165935847538 -21.7708995689852 22.6124436240522
-264.493342884001 -38.3582636024269 -17.2585746324367
-250.400679562928 -10.1715622066813 7.13447481964477
-223.242653887743 42.5780474348379 7.8373866529861
-206.290865451976 3.6662044544601 -11.5336236033263
-177.640808204396 -15.6709179613438 10.8862225886046
1.03781462175252 6.73456556882651 -27.6669661315374
46.0794932235239 -10.1976674496577 -7.75213112938161
199.673774762688 2.60615082729841 -27.4292130214305
166.098083705759 -3.83725868926544 8.53475364227899
-248.938494158588 -47.7614283277063 -8.1347295588142
-24.251181747623 15.4096901673591 -7.19581916808423
169.236086904424 -12.8716943640405 10.9253750028599
-237.013141246567 31.5957893191989 -3.776607416356
232.232806736516 -11.3729822075575 11.3326621465043
-130.666328619972 10.6307558250169 -17.5535779481867
-235.333221032369 8.46565249047485 9.0538640309419
74.0528981118806 0.409399749709259 3.75742752180922
-250.891642829835 -12.4185005471682 -20.1974237251086
-92.5860233407408 -1.86753607711108 -19.2632222593799
-163.88409758753 7.26925676494667 16.2487620934104
174.399965854818 -21.0787759608446 -8.07072200007262
180.214278105047 21.7961834389025 -3.23845007806187
185.568306512384 -29.2669673526161 0.533336141094518
108.447278428265 10.2085769838375 3.98753791922707
168.482292325184 -19.0298658534764 6.88139531479978
13.2817184957629 16.1838409962857 -10.8447119652427
-34.9708584433881 -5.44284972531766 -6.94335537815762
29.3598612361411 -9.97432204451848 -9.91565343378751
-265.445715455729 -12.7432362646566 -0.867763571369275
149.435573809723 -11.2708673445832 -19.1851458257414
178.519840564953 -14.3595012250876 13.89721350492
182.684229022949 -6.39867019776131 10.710597159105
-259.550629186076 -36.5078283904143 -23.105383408054
182.948664827138 -17.828351934098 14.5274857680248
231.278300200588 21.7593959655644 -6.09445718109393
118.835982748787 16.008448944215 -9.64680101750117
205.718541213558 25.3481388613125 -26.0125802771192
-45.9227549664164 -1.6312551492289 -25.1354084812494
-235.375467775933 -6.61966578784013 14.5763422971017
-203.422288953074 35.2000777600588 10.5316278046071
-270.991117977961 -26.0067713106806 3.46066773284233
189.444723317408 -13.4903413973243 14.6951424763141
174.840618209419 -17.9652636689068 12.3421901124819
-226.032094516617 20.5272866573835 -11.3398108015427
200.926904653822 -30.8516155751459 33.2976385029686
-238.109613050079 -10.9549481454232 -16.9093415134107
-252.094443986263 -44.7163585782167 -20.5135619026734
-215.533243481482 -16.1018094367684 10.3920350804999
-238.484304130494 8.46358327129544 -11.5619888998229
95.8812761776527 9.10053964805303 -22.5325974210436
-168.021817181686 0.404978695291702 -8.60468136301021
193.061541505211 25.3772651495285 -13.5060775046992
192.90377785367 7.42800843397618 24.6114358334678
-235.492345939773 -27.7342083451976 -25.0124971134415
-222.16521065647 -5.49309144731644 -10.1358061929273
-213.034784880195 40.9721889128268 13.8548761154666
189.654041143061 -21.9417283009737 17.0775391677716
-111.800334394926 22.2998196558508 3.11315166158388
-205.711757388245 32.6170816642312 23.0954808986455
210.629144074544 -37.1793784970521 37.8023356989929
212.873591607079 9.00393138828051 26.8386678871498
-211.428977787448 8.22816149966877 -11.1411554682842
-118.144669625205 -4.32158995619783 -10.4910217986967
-93.1664738812535 13.4538226934681 3.69611446053503
-239.908400188516 -17.1938502867481 18.4058600119052
221.22424626785 -41.7583493431075 15.7495112422236
108.620494740129 5.1246091335577 5.97263572774468
82.1976593117608 3.87513413000058 -24.9488481193498
-118.483278522965 26.2449887285694 -0.465980418232485
-204.452530490479 1.60649905452861 22.3349954957157
-266.524998214758 -45.2496762878407 -4.20152815993089
221.212078718786 -8.25598531870549 8.5207168099587
-235.956588157023 10.2623267563309 8.82185006540632
-269.749556051827 -39.7165214604937 -4.26882939176113
-166.918677476437 -4.74930780160013 8.26921021736852
224.618030416481 -12.4997294178075 32.800676566423
157.342258192729 -6.15285542429751 -21.4088936948837
-89.0341071954035 15.9650944201341 1.87371387394367
-58.5990547612141 3.80089144917615 3.07609451545216
125.055667999882 -17.3571565983419 -11.6805176853964
-242.636048457819 1.93705407667728 2.24235728988845
-229.6978248811 11.5144106642543 29.2212507154939
-65.501669041171 -1.84525073724675 -2.12830745444953
-132.061223902101 -0.792564669392226 3.66433274140307
-216.623979949614 30.9210681896989 -8.35506685877601
-224.690509575952 5.91190442370839 -12.6686252152628
76.1209117887009 -14.2385655987106 -15.7147407097505
143.410252138669 16.8449014729146 -4.65347161910134
181.386525158542 -27.6123110586124 3.39576630361803
49.7012871012351 12.5039635217107 -22.3021632241317
213.493810295657 28.9330115753253 -19.4301503172084
78.7700471409001 -14.715901753432 -13.5958408440956
230.245617830119 -11.5888394298348 20.4141980471912
-232.017069953794 17.3573725572675 -14.6370175308073
18.7358730937515 -10.2184743071641 -19.7014199116353
-112.523559673326 17.0915189276914 6.00327149855887
-74.3568866515875 17.7366070199953 -20.1444085997391
99.1098107752989 2.62712003341137 5.56241252416732
-90.4890568133404 22.2786751727256 -12.6934866191436
-233.655044138942 -5.9964211696729 15.0565590135284
-260.862400629982 -45.1397441694594 -14.7490133074381
-230.862642649651 8.40642644869883 10.8672250780681
-72.552705533345 -0.126895087741995 -23.104458313234
-192.699536515265 17.999133439905 -9.02056542498404
-231.412959130774 13.7264964171277 18.6927447870352
224.503217495608 4.82331986675559 8.62482142662562
229.540300764262 -15.1519386637208 -12.0754872874837
-245.610538812225 16.3752995811704 9.24371361787919
-190.882003251643 -10.2936924898475 3.40950838034337
149.858496725148 17.0864908906419 -4.8172348071835
-74.057426874019 -6.22606433156292 -11.0898473559387
208.787797436027 -37.8217481899897 32.309659151885
-243.210932862842 26.3455305892558 24.5039579397824
-210.822373039122 -6.43477424034096 -8.09182237549932
-269.747883169802 -38.9612523829242 -6.69169908932123
-259.294314734383 -40.3143532923967 -21.3816114667861
-217.344976838359 26.9783713276066 -9.94035790249628
164.675586284178 13.3823786842201 10.9655464729563
-190.496951322619 -7.84264330810618 19.1750739381372
104.723051425362 15.5303878107164 -2.39864779657909
-35.674242751908 -1.39037127873722 -2.04912845624944
115.039772055731 -1.60324891132337 5.55672940673553
201.567856333055 1.40692242258973 17.8558887995327
205.225549955048 30.8346204772479 -12.2876416897438
224.047633371944 32.67733783693 3.67516888005501
-160.431258108057 24.1375792985988 -6.9329417643721
23.8540640250537 -1.1906442292447 -0.119415433690558
190.282345677418 13.8776659833466 27.6298770387433
238.690410298681 -25.4685421206848 0.330148648696383
21.5269896273383 3.18781988655544 1.61723553931758
124.65569647053 -7.65643217809575 -21.6877993203773
78.6858832114363 -2.41878540578224 3.9133740124942
201.724675026946 18.030402951319 34.6927296604906
-186.530024934643 6.35689954512127 -9.23345187665094
-43.9758107650437 17.997545438183 -20.8679153270591
226.122301487019 -39.2549168597578 18.170049863786
199.335058382866 20.7120787733956 -30.057734081473
145.782714941316 -10.4049935451077 5.7158652626783
23.412081886149 -8.11708673362275 -7.83356305989902
41.8326662537577 -9.47696110891042 -7.25604034503233
200.70185087573 24.5873288193791 35.0356168278395
73.333006018896 -6.97950609173882 0.417946799179958
-200.480430599642 -1.28587625439491 20.8137787032397
12.4726649963569 12.4134550681377 -25.178728199352
167.419483458383 -11.7593381387577 -18.7328450612248
32.1586305099912 16.2258984267921 -14.2610540454951
-242.539776522294 -49.8821301933136 -15.5332905802662
-31.6993432866955 15.3780254521373 -6.36829434002952
-239.213100635009 33.5642676300866 5.38069510381188
-230.889280860273 9.24809380418681 12.3079346899235
220.160368841615 20.2169183137286 -29.7260755376614
-185.218525228475 -0.363899162532902 22.7997863300308
221.056538731431 -34.425950242222 40.933978727998
140.693284800224 13.9727232153008 -17.3381916027377
-224.520975833681 -24.7703016265543 -10.496105732692
-235.718518444492 -51.0468105721446 5.93261920645963
198.744928935019 -41.7747307300058 2.75009448350519
158.173029122923 -13.7762543456192 6.71708494972993
103.451953430428 -14.2390963673158 -3.33931615645563
40.1551742048385 9.92862775028668 -1.86777751154994
230.732062704791 19.4862279598271 21.2547635753136
188.798045691418 7.67114068056594 15.5340619679603
-16.2926659915788 -7.96301392750712 -20.7755068515449
-10.7000649019207 13.554429293094 -5.81045107856885
-263.770458575272 -11.0092645376758 -3.32517351061607
158.831594356491 7.00511878490332 9.55059395605213
30.1368381061442 12.6978677543103 -5.34793238750617
-229.050483838999 -39.9440153567732 14.981060157097
-227.968789255927 14.7793484700302 32.5171275491946
234.199116301969 -36.7799761766766 7.24127971021648
28.5888141418096 -9.80115417964409 -21.4367406099001
-237.26810585629 -2.95255940667559 11.2782167956731
-270.158871286049 -20.7606434800598 -1.64289987676908
216.50786289851 -41.3252507382029 1.68097751795697
238.068955650272 -28.4553392092243 25.3590817655666
221.797282560493 34.4643835315658 6.66396261697891
170.607435335525 19.4973021496498 3.38388550712318
158.024749455596 -11.5454909056842 7.51535538082564
-267.859577372232 -40.4352447154841 -10.5704519283887
-191.078398609209 30.8686941156532 6.0448619296046
-239.316755146746 -39.4197661844862 21.2298037411033
207.024280310797 31.2097935589562 -11.2578749665054
9.4714719953354 6.28728373177043 0.00550394144849208
198.585214864982 -15.2267347986058 25.9880633847373
-24.3964761076146 4.5964190749785 -27.4350721234255
217.112811192897 10.0762402534773 -28.8573403330936
-85.5971795187392 19.6106717694792 -17.0263109592121
92.746957795115 13.5196722545798 -0.868575497233562
54.0467257341089 0.935881808326652 -26.0480215699753
215.634007183564 35.4846135879226 4.44236139542455
215.098334575472 -39.8333350655253 -2.16692383378807
-249.242455175999 -3.89146616134166 -8.24268893937568
167.295743393768 -21.5660972296321 -1.84874363467289
214.546721846922 7.91987508213764 21.6430196189433
-234.806887686961 -46.2627468866861 -16.6228566951326
-181.04120329789 -9.18477817227393 7.33664093428863
-151.330556126472 17.7207567613454 13.9875703675895
219.773068453947 -12.6093156208952 25.1205606410373
83.5412883228107 15.4701293711199 -10.6327794184737
-70.3570561550516 -0.727117859825234 -22.9994311975362
178.910965162909 -12.8710198389763 -18.5432334111688
181.750975546696 -20.3999893852837 -12.720726824401
36.5162290369109 -5.42634106064809 -3.25011800854502
189.587513802282 24.8750015604809 22.7283863542035
184.181620429856 -6.84976553168317 -20.8703292492411
-61.3804790809519 -5.3852687758569 -19.8344756516059
-6.98193462556154 -1.29315857074407 -0.431059110593827
-181.683499211265 29.3058340017921 2.99047896393877
-102.038454002286 9.41697271097436 8.25477173397656
151.627901263686 3.76799218061092 8.58815516620244
232.623408686264 18.0579475656042 6.07001663517516
-215.951007535752 8.3141868730668 28.1077736486868
-26.3700693895174 -6.76215217173094 -21.818269729714
81.662105402119 -15.030367385735 -12.765389945945
134.181794843685 -15.3389186280503 -15.85467332709
111.515883861676 -7.16906304234394 3.20240163998788
155.495260785185 17.0879857882876 0.761849787367399
-249.050181801508 13.6322121567402 30.0374196369642
-72.6488412522079 20.9841171449261 -15.7493896084719
-239.477233191722 12.2508049925684 5.78044854979189
-197.704080464177 31.9250819203617 -1.24279273602928
42.2661632922526 -7.753902353815 -4.80591686029844
68.735878544964 12.069371498187 -1.89691247936992
-241.528356996477 3.28986035376351 -10.084280663822
74.7875270305968 -4.63608087983163 2.01343819925195
73.4319815586299 10.3138055724179 0.201147636213108
167.39256707578 -5.31972897413655 -21.3739413146791
239.368308990733 -21.1671193011971 12.4392495762974
-86.1665395029805 19.2016304112906 -0.806926158655531
-136.749162420704 25.8060873154455 5.87069875963641
-200.403424572009 6.89436663176658 25.3153049964534
18.9272556607738 -4.17415773454432 -25.7271751903872
-175.979427340918 -3.12992700034216 20.4919274599538
223.924532721693 -5.16683475970428 4.33769840919908
187.732236558478 -18.1529337001074 15.9443122198104
-72.3794506761413 9.13754199397246 3.47653397204757
-238.065824132047 -21.4973650773256 20.6438592303748
-131.160998630674 12.4115021829956 11.4739595270139
198.03347165953 10.8515233278168 30.2663761034642
-126.856245354601 20.6839969408913 -12.7750383313532
-216.183833919697 -10.7845318217718 13.8300387522246
-147.909095358496 28.2754992871209 0.204329010628326
147.472754028765 -11.7101852550233 5.25340988089353
104.124169055159 15.8938030779612 -4.96022568682594
229.376880653975 23.381527553585 -11.6212441564071
218.678316828546 -4.42434467894867 -19.2097935387342
182.988471607232 2.29094908023269 -24.0205969984632
-139.484677440079 9.55354712130176 12.1927679281914
-152.705148038012 18.0595458275418 -12.3000286725509
-135.379055447423 10.3808000024129 -16.8631274108239
195.756248634879 35.8490951856886 14.2279616215901
219.406683809336 -0.770213185575811 5.33812713347825
233.690340356704 25.1592927021271 6.20052457745177
30.3372757533323 -4.26972710364501 -2.94870594983747
192.48278427203 -36.3256085139296 3.56347752192712
174.603747344297 5.96847049672392 -24.5368836249717
232.377190604194 -18.2917883730384 -8.36224924168173
-219.419483658779 36.6841310347939 20.9468679031635
27.4737010132282 -11.410093773143 -16.0519765614873
230.739885382941 -29.7110619285545 -12.8364336190366
-165.949821841778 24.9301308217772 11.7389037616851
215.726802932988 -42.2253994058951 17.7799166044496
-250.769137310647 -41.3322081791285 -23.261641490714
-126.428998510955 13.5755283487668 -17.4946117270275
-234.62980247589 36.0852949448467 6.08107487053646
-232.712493861228 -12.6270497408434 -15.0996751750892
-250.2306902651 -40.3630737493241 21.3368538981962
231.171728437613 -13.3773009472022 -7.28127026181069
-49.8899143683291 14.8623598948163 -3.91812763979303
126.080895994526 -15.6056596914407 -0.854553376374856
-221.080352951876 -22.0226668878394 -7.40856224939504
42.3287887393094 -0.415951848967526 0.829860709078329
-108.660406461292 19.8575043489682 -15.0401833607417
40.6006562720901 15.5462140626303 -18.4485073013702
72.5292735301431 14.2482048821783 -17.1902183113081
153.303135515883 16.9207846163196 0.335393014888255
205.833706406046 -38.2980461852054 29.6243571499376
-46.4661024096461 -0.754661244870719 -1.37153518916885
-206.975861873856 35.9686328155684 18.5070583275479
-86.1505936981122 11.4303171539746 -22.9774953924145
-240.191605967758 -15.1409073216426 17.5651707541014
140.802511723672 -18.509449577016 -8.02849195909392
-130.819632667252 2.02122572497876 -16.178851757339
220.987199798949 -18.3974086164219 -24.1124219875158
173.190098054736 -6.93824600692363 -20.4990917589427
177.611504129925 16.0493065216818 -20.0844122238635
-247.275943108234 -3.85425765188538 -8.94303047426414
-218.481156455703 27.1658767076305 31.0002718885714
183.428057837563 -26.6776673897958 -2.70797817710828
-140.158618461974 18.6944421856825 10.5289213110407
90.6081315314352 7.34498491160169 -23.5842446451103
-212.734590268558 25.4286395924509 -8.70470233285846
38.7864695852083 13.8550124360904 -6.78263309152475
-242.523407271188 12.8026524217381 0.102562718979953
102.627153750284 -16.1282127178366 -13.3350140706383
178.332475643314 -21.7024991389499 -8.89002203294944
229.360494054418 11.7713664906249 14.0714170167661
206.437449897402 29.7763136181723 -15.6702762635472
-247.832298717181 -15.3232167846734 15.934437527578
-63.072147968932 3.45195310706816 3.76533630700759
-264.25506203324 -19.6891894408636 -16.6312086573472
-246.071963432056 -2.96612399194546 -10.5019536250365
108.561142054558 -2.11806234591496 -24.0531472662072
-191.95752962948 21.2870634122639 -8.55267383434339
-212.871364125389 -8.47635160541357 -7.90266358729744
43.3458005274602 3.67653140630918 -26.4833154959308
225.732386593813 -39.461300527943 16.3182136753863
-231.373348179299 32.2228233758208 -2.71429722566614
183.000286028543 1.04350183403507 11.721747383401
215.663602818885 -43.7509684585021 8.09637282200821
-219.659925330716 -5.16511428969513 -9.68046030299779
176.050668911455 12.612588854753 14.2030512497031
-248.881284797288 26.5958621628938 13.3414388999574
120.767641490786 1.22114619592511 -24.4207263595724
169.693011505646 -20.922623706055 -6.23010043721062
193.864661707799 -1.20415658455655 15.4265174868688
-156.826425013987 12.3127272489816 15.2514959409341
221.668046667101 -11.7945280628425 -20.5523384264473
-137.859518376618 2.61405897117024 -15.3831819579615
88.4329535201486 11.8854444117583 -20.4893893191836
-250.775119830208 -18.4945447260066 19.3883317114643
214.904427315884 -43.4529430995311 14.1986060120871
-138.09710811961 -0.669861253554592 5.66568122354467
-198.668477853749 -13.7788918206711 8.80332644832113
-40.2472768025461 -7.47503550040896 -19.0292035118016
44.6473496404012 1.45240172779908 1.62762427325708
239.242190859949 -32.6690435000799 21.3194273540103
126.900193576317 15.5417217425056 -12.6076756811501
234.745399475614 -16.8260568039803 24.7591383736042
32.671469564508 12.1160440654198 -4.58977279307431
-52.9595448527535 11.4892023127545 -0.724993051064783
180.767176786104 -19.4637146115866 13.7959594386392
204.147515435022 9.04299872963998 30.7136871017325
-264.454050890423 -23.7523912666133 15.3293749892075
201.462675469403 37.5850240289179 16.3963979929378
191.056488474167 -26.082850527897 -10.8721212524166
-267.726673462537 -42.3163716873971 -8.24100430022164
-68.1996319105324 11.9756175596845 -24.3027551906517
-224.441097530077 -30.1584809870748 -9.2108592559471
-116.164153203109 0.365192980617228 4.2058003782074
152.732849031694 -0.929417457172451 8.0001868497524
-36.4104429442445 4.81698577847388 2.31639698626606
-200.65306732537 25.8061590448471 26.0376524527076
-28.2313396431689 4.34141450473454 -27.3470544454803
-153.915069944459 22.8478648675033 11.3447481712419
212.640911280874 -43.9624156727027 12.5799653247925
-236.253958105036 -15.5247489911164 17.2273732465545
217.384983586556 -12.7711374058061 18.742679066951
140.541750948804 8.43766754661699 -22.8948515154875
226.115496475416 -0.127548943403767 1.26084156422839
215.847972428028 24.9848631881088 36.5124964631926
16.7247035175293 14.374234993075 -7.75402850213066
203.522853441961 -27.547101851297 37.7920192441125
6.40400792592151 -6.56478257159531 -24.3155574220868
106.651078584212 -15.5577523778104 -4.77349565898275
186.184433869127 -28.4149649744752 10.9430843087172
-229.925062197662 -48.2406461337726 3.82799406308528
-188.578902534763 -7.03422263327106 21.0503351544884
181.920402170945 -18.292848993818 -15.5005585798529
180.578619022642 -21.5059183820791 11.9033508422636
-226.41466389926 -41.668808071262 4.04614604088043
215.748650910055 -13.9039256972991 22.1675311530751
-178.99047561845 3.19679885967549 20.5052464771693
-253.377328545047 -15.0914132224738 12.5941758205214
-235.299936992223 35.9848461363084 16.8281960413608
235.888943597203 -20.5470591779955 -4.19922223619172
-153.623453101486 20.9406351065028 -10.4367782581448
204.358716193538 11.1328949069709 -32.0658640358815
215.566988497389 -44.1077522565138 12.4155397710635
203.17110050186 -14.8239096627185 29.1401550023792
-219.876909576282 7.97830282629717 27.3074810163559
-226.115616951402 7.43697701904653 -13.1707222233487
132.647376074271 -4.53470075505102 6.09759428077049
182.666984999121 24.3863230563953 5.38469946634651
34.272389128544 -11.2197767579688 -19.1091237139798
-235.879213498401 -52.3212025240826 -1.56048866154365
159.525781029282 10.7261765960539 10.0072191120336
-128.377200523253 2.41259747377642 7.7134859266104
198.178209567287 -40.0903917265049 0.286566300904302
210.998467164272 11.0252058471281 32.7679600372867
211.287030415496 -10.506461320693 -23.416509619805
-167.544169645527 -2.2287961957056 -2.13112810539276
-98.4094718391109 14.8683709543444 3.96432240890045
-48.2679881341016 -5.10742814551726 -21.8712651532309
-148.129281716346 17.8412591528168 13.1101166771681
190.024559219654 4.21721050219021 -26.1480888143917
201.868855944112 -43.4777078398588 17.160159766845
-234.793040834707 14.5412195838639 23.7540221809953
166.913567520844 -14.5552222518121 -16.7980557079214
192.321274986189 -5.0435483516967 -21.8142333762965
236.550123139823 -23.4729016851784 -4.05682468874062
-63.0379997985404 8.30808456034876 -25.4242725890314
-227.816959003304 41.2586381514179 5.39851994990084
-77.1364515824159 7.39279290316912 5.58485321918544
-235.387118667574 34.4496191122526 7.22058425622727
-246.866711186152 -4.16741809682664 -2.82276640605775
220.945374125719 11.6750203759835 -26.4847592485061
-237.398339107579 -24.1421858068892 22.0324692615998
-157.933081830678 16.3288598954774 -12.428692728893
-232.616999309095 22.981473875916 32.9150329948159
-194.008673387852 31.4947481097891 7.44663973166834
-71.9899583278867 5.45295202731066 -24.9199013821315
-107.56086710298 4.48249018757475 7.12743242876974
-140.476182327679 23.1824085915075 -8.68639305842738
195.386833566975 4.39606332464617 -27.3511570226833
-270.505263210169 -32.0447849142059 -8.94129048789932
-210.893521385088 25.8810638198735 31.0096408538593
141.724006432513 16.4832087409947 -0.636100329907524
203.363700475268 -41.8959961151231 -0.386135714128615
198.466737986593 24.1468447532478 33.8042749773751
201.4761193539 -28.3051481100972 35.6213922734261
224.139215114251 -33.5025896651214 -10.1142587655734
-25.1603712471895 -5.39316407088288 -6.36966667044287
8.24851985124586 -3.02124080889621 -2.86070275555878
196.985769685424 -6.27927608203958 -21.6727608387752
227.16859531947 9.13418468927593 18.7230377784449
149.72314912749 -11.8059381217039 5.63942002912837
90.8571395740758 -10.8076413006701 -1.5972771800202
149.757095138841 5.84091216872464 8.70945854705367
177.69756129046 18.1790195143587 -15.7141375885414
-194.269000414367 -0.154205037063967 -10.2016334444448
-253.157508006503 -29.3690026945681 -26.4584479065008
-229.626059128379 -6.70336663928563 -12.8999084018078
-147.119823071336 4.2738921502105 12.0733605020775
-209.578217556903 12.9427572212032 -9.95731442930006
227.93156108303 -6.84150204738665 3.22157097980978
209.328580993451 -15.0089879106738 25.3226042992188
-252.786174512662 -46.401728059748 -18.4300871349686
-92.7937666390533 22.5440016392369 -12.2068958039472
238.594052141351 -35.2573412273617 15.7818627638296
155.866935028773 -11.5518923138625 7.07049990954041
-175.038870964824 21.9562840954002 17.6783336325237
0.337415603761957 17.6982531960362 -13.1889046442173
175.558850543836 -0.247701790191781 9.89031225596281
-195.431509760254 16.0749035107097 -9.10684666660832
-10.6294672709123 -6.57647333199023 -23.5543733716982
-223.616983793289 29.2364419833258 29.6419551699432
209.357675710371 36.4407501490728 19.7526285232145
130.960949767195 5.85232520822556 -23.8336414253246
223.736724474986 36.6822241987501 24.186441011295
195.000931225791 22.7088438040987 31.5581516174936
-225.407819525092 -34.9720860399593 -11.8891910687537
-141.582319773248 27.8053998318641 -1.39619256365621
-239.450405917459 -6.55844537866612 12.3284007535982
-191.241186229391 -12.079503202193 5.32096314823991
-101.452215992058 16.608773702648 3.86644228271629
-235.005391566534 -34.5239944236526 21.169623735437
-269.194864303029 -39.324154650663 4.20213812377227
-149.494122536926 25.8276018384028 -4.62209742112216
219.292695236176 9.26113817711884 -26.6635882713933
-233.510934109899 37.2252670688917 16.810691289187
126.214337907588 -17.4431987369297 -4.19851938495592
176.640099073357 9.92608227388833 -24.8810506475064
239.603547376007 -34.2245367517777 13.7611463300239
-86.581570357078 -0.294646865740684 -21.1170063712697
83.6317513884244 -14.0140230169239 -7.35240104863298
233.47680174399 -37.4014188258312 20.3987924544206
-260.07765573004 -20.2227137158883 18.0777219066339
-216.221080774968 15.3141063472896 32.903724602043
177.284610448917 2.8320583975774 10.769873971589
176.626248870563 20.0474067975002 -7.41645053872064
-264.745492632375 -14.6880559249079 7.76702782956046
164.833586181775 -13.8372079368672 9.44907814285335
-223.358508490804 7.87497605008124 21.8219871363479
-245.54824859633 12.3491996666496 18.7665597897387
-203.938779769792 -14.9767495999177 3.37943657206484
159.237330443994 16.2776955081302 -12.7665359156718
32.606909586962 -10.4335409219135 -20.6639499983761
-244.1393726162 15.1521497953723 -4.45900224026885
155.537381807575 -0.0894957822932022 8.30597193644861
172.331588549797 -17.0220570852444 -14.6039697163995
-11.4456705219384 -5.91284340954657 -6.79378373491718
-245.101956997072 28.6333669586074 1.95874889716393
-152.82176210636 16.2466325596878 -13.0350939362885
-69.6402954313078 22.7674056558834 -11.249378608945
215.897221509089 -37.2079108591514 38.8435413002693
-171.356791387604 -4.31651165836089 3.85511757672118
212.61879089864 -37.3152222401705 37.784386852923
228.171892403613 -14.1402572318251 -14.2096384594621
-94.4865678829843 6.863923316948 6.92301202183376
228.836707512382 17.9140111817482 -16.8222119392577
-31.7945703648514 19.8260584736481 -12.8406381671101
177.013483548306 20.9470706605621 -0.685088190813794
32.0527254049646 15.6985334143997 -11.1868672297985
-74.3076835864024 6.79363821649757 5.47663678148291
-178.201965455591 1.30751208651015 -8.03386507962517
162.400102924288 -9.47656808871286 -19.8474015409375
138.441408658888 -17.802515676074 -2.11978819981866
-74.8108959640987 -2.37877521954169 -2.02583293707865
-245.140798380256 -51.1247770735167 12.6912818121048
162.732851165461 3.22514020042731 9.26765871981556
196.299705884733 -13.7571827866935 20.5641685714894
218.476062150888 -40.8330524561092 20.1405395968289
-254.828532715985 -6.27264318933787 -4.84621358278581
-226.032126853513 -38.5623072573265 -14.1454856785976
179.809234719415 19.8430739959284 -12.3713220924088
-72.8415890389645 -4.70697238235866 -5.81883111764203
-245.903848955412 16.2152299782885 -3.13886859499349
135.590801752566 -5.67151078850768 6.04939737046571
-240.291802122745 -49.1123535133021 13.7431458095376
75.4516238671406 14.3551977328788 -16.5830903874489
-190.947206758719 8.19842019926782 24.3872413936313
211.196771144686 1.72883904084855 -26.527096511202
-264.093099745079 -17.9023607715269 12.7607473015973
222.502731945862 2.07944274860283 -17.4029301447876
-259.863114297722 -10.2418034047364 -11.732639008086
-245.29948894108 10.8201630421978 21.416914424522
-189.623914040357 -12.3964690528992 16.8400310036962
-168.88770332702 10.9609580898909 17.3501743352226
126.143877803542 -0.191945153448437 -24.2400350735742
-135.466381520345 -3.50824745281162 -2.75967468390229
-261.177885572172 -8.9812334927594 0.506233200026606
210.826086745825 22.3120186088652 -31.9124352698635
-236.513441772528 12.5328473983561 13.4970961955607
-238.581192668932 34.0184241009157 3.15650507333676
186.340665826807 -21.4654117639595 -13.9187988799817
196.733727569299 -36.9685497015289 -2.3815363831178
-242.791788392483 31.137203547069 6.25401868348728
-18.6105875441623 19.3863264966582 -18.4314693954918
197.705122892242 16.2849157348613 31.7116001714317
11.8195587219528 14.6954050146731 -23.1183616723426
-229.283128297012 -47.4957707254851 -7.58529859522082
-142.603318350061 -1.43764034606964 4.71622190881095
-108.669589736486 18.0504367905165 4.87996186136847
-76.5515541353781 0.655324109382853 -23.0988638269301
-264.938652121884 -47.2435006633705 -2.10329159759559
-187.996474221868 12.1502764400427 -9.44831727237441
161.807818037612 -17.4214601072173 5.20434712816089
36.5477983199094 14.4288404752126 -21.1317369930656
-238.917812309545 11.8313690824943 30.437109118858
105.409871271371 -9.54380636999973 -21.0383604828597
-26.2556731906297 19.3729610628424 -18.9774443951359
81.1097244307369 14.9587337746807 -14.3780450561498
-265.931789303855 -43.4158432059965 7.4060343575233
-234.916826266326 30.6041280552041 25.1159684521882
206.56499541333 31.7060330100216 -9.15288870756246
205.329222820292 28.84198956117 -17.6919384203396
-205.065343364708 36.1513231009781 3.34675588787798
-234.238433229841 12.2950346554659 14.4043935924403
-118.489812300511 21.3626513829032 -12.2916618631584
-79.7064791529209 12.554891183241 1.98328132986389
199.514857436127 -12.8497019348041 -21.6135783806487
-76.354450715713 20.342026303171 -16.4636289494547
82.5115516928233 -5.73162304700846 1.97503042811365
-196.550905576345 -5.78326415132025 -7.4509200718311
-238.210789163594 13.8691829751225 16.3808515486071
213.619427417823 -37.7648668326812 34.8132971470922
-257.90043776177 -33.7362490185974 20.7139641383
61.016389461139 15.1922193186128 -9.5548466320095
224.245961099645 -0.923874546863716 -5.33754306740808
-260.774152781513 -9.90550150762688 4.65838921538477
215.33167534227 34.5011719095282 25.5051569136489
225.587125138166 17.0206081297048 -23.1454794562811
-182.454814171447 8.93795991990053 21.3886336788938
148.488155259411 -3.880485639702 7.32767129139454
138.718182082605 3.69181704416695 7.76423454544618
-223.364139474535 -30.1093295062271 -4.5598464945338
105.041205581257 -16.7003912565626 -10.6196888290582
197.468974296544 -11.3659338103652 -21.433648807996
-252.685801250958 14.1914905313929 22.6641630994094
-233.362322946607 -41.1420229013342 -20.1433059852895
-243.774956585205 -52.5577535702364 8.34424140990209
178.403289511768 22.2408318748454 5.89208163378457
31.4369145967443 2.76073910704883 1.56897822476496
-263.582253914392 -41.6625750136483 -15.8869021393308
195.253002868752 32.7693802094324 2.76346877641706
166.425172531587 -14.6089678956924 10.3462921084682
174.16717964146 20.1423469874043 0.501106721083984
221.205572968355 -42.8052548287433 13.4485685967391
174.907673079268 -19.8048151161794 -10.8356855231523
222.848905172552 -10.7629882206553 -18.9962230192848
-239.915852939305 -50.3531125894328 -13.9416276263428
-156.189947539295 -2.91127936589995 2.22940963394355
100.767387334153 12.5677970306575 1.52336577678386
191.843014808579 -23.5607042549739 19.3466796161111
153.40015235888 -1.76460216287542 -23.082307749232
198.974193864741 29.2175717381788 -11.3217981357013
-156.474342368289 18.1346586661567 15.251052279684
118.765410752943 12.2448919794388 4.05658546392419
-270.234206762148 -23.2722527542095 -7.34525675510096
-238.091972310044 -51.8903489476415 -8.98987644012562
42.9335541083581 -2.8238284934507 -0.207051711156213
194.713420356216 21.9121497124437 -25.7555707369165
-154.259724224515 -1.38404484409656 -9.80059557707229
-270.611574133051 -34.1778764444187 4.4540312359101
213.617468480602 -13.7754549925437 27.4245644568829
-238.502966326126 33.7456242991028 14.9623501888796
176.719763625135 -24.9249500036875 1.49072249906059
75.6644197234576 15.4024186177248 -9.98338925013773
222.44156162242 -38.4525295415048 33.9606279671818
-229.543003566217 10.4756790300927 13.4699771154087
-141.487888244078 15.4051208932242 -14.7692709810545
-213.908543299533 -21.1444336999843 -0.157712308937077
199.758495074118 17.2184702318955 33.3499130682419
166.630200530336 12.1315060356249 11.6292007371424
-244.064667625377 -46.3968716700328 17.9626302001982
51.0311343184137 15.3840263392796 -10.0125162899965
37.2024778412477 -11.1252939826422 -11.0850682693709
-179.409485870418 -16.4650646535757 12.5806665501239
-162.932289215283 28.8426321112739 3.2033821536383
-30.9988393393029 14.4328209713261 -24.6633384526627
-228.638679071367 -47.7917000083236 0.497088696397708
-240.764382719321 5.83521498319127 4.04128553297335
-173.297677243859 0.772962146509926 18.8101533074501
-259.970933593654 -11.702878572554 -13.8945960354957
-222.004045337249 -15.2674144262403 12.877900102123
-56.4523989619931 12.0617444483802 -24.9775473896975
149.194394733674 8.30529041080813 8.85317973521178
90.4983613654037 -0.960092033113406 5.07439914151656
-241.688776512155 11.105163367526 0.881589914002229
215.884059536753 -40.6772848439256 -0.0843458236642481
106.344385331722 2.49355334535581 -24.5116702782306
207.763928347264 -30.3319733015896 -16.2486099270201
13.4284724101851 -8.77627703881424 -10.2649671427064
215.812568727747 32.6364616545407 -3.53208114315232
-246.144705066136 -34.9211084558341 23.4478238074805
128.691917925003 -12.685553075666 1.90563113704467
-260.4919879721 -50.0559185424689 -1.91094548982543
-212.885500871619 1.43496539467259 -9.79519205556091
40.6342397767846 -2.80595636374084 -25.7765935936745
161.263533841783 -19.9986552006135 -5.40005826573717
-202.674768002734 34.8947329346084 4.61105022621867
200.28436997124 -6.98217842111098 18.211474473992
74.4945526448633 1.25569238650691 -25.3293246456879
233.488156164855 27.0386258446294 4.73481955643914
195.939694162869 10.6313093146015 29.3820323075337
-209.266923166814 2.41314520718267 22.3202164610391
-242.231416030246 3.94913033918075 -8.17129201414475
-264.869398607536 -24.8819431440053 -18.3605344442921
84.5821256902743 -14.8892116886054 -9.43323171494135
-78.0352256368182 21.9089394559749 -4.90260876455161
233.648091963173 22.9234336037263 5.52248227383292
-247.861206800879 21.7051746036872 0.306706518368448
125.102113751731 -7.90825390267676 4.12166836477002
-141.520143911533 0.862853395116225 8.74820244310534
-262.86141383286 -13.1036976122078 8.78294866735204
187.093825286599 -12.7232703321769 13.3228505321856
-105.474769922528 -5.11219717263495 -10.231732119972
-242.812867843703 30.6440899611797 1.14030006844382
-179.446755005325 -13.8118651333156 20.2315214519486
-213.832965997761 -18.2446447029023 -3.53328067718835
-224.031000657354 3.18517941924341 -11.9646838888264
-178.485543997668 -5.66607964268078 22.0635800238021
88.371494201735 -14.4548920813889 -16.6681721294664
50.34625463737 13.9415208831618 -6.56191168870696
8.20944508785801 15.3824475151494 -9.29384976838491
-183.463344335563 -4.30394380337674 -5.16059459147602
203.725536048505 -20.0717775373288 -21.8705440351768
-202.390731030366 -4.48429400845396 17.9415640238685
-165.031617176065 0.0677605472357179 15.4149522353676
154.657672115467 -19.5759936776847 -3.01477827082363
55.746888453341 -2.0813444566254 -25.4971684283127
-232.38813963993 37.9215808668763 6.48191193036577
-235.867665349614 35.4066777277422 -1.06434568925935
94.1865943344915 4.12722221289541 -24.539018357892
193.460990970873 7.24818663601645 20.8155652256215
-230.087227887932 12.1755315266076 15.0787772749811
-259.63979426815 -29.8775384581982 20.083462899907
-128.305199698771 27.0265216481059 -2.48338242950403
86.9304234886447 15.5621591211317 -8.40218865549091
215.124608627522 -14.3646937431056 37.7339719946717
138.808330288905 -3.68793456290724 -23.0292157750377
98.7070644542778 14.1119082728436 -16.5403216850527
-201.504616739743 16.8563230991802 -9.03153542218592
129.702271420156 -9.20491968425607 -20.8163903449201
-146.001914186673 14.5875382523222 -14.5050120271762
228.805586095559 9.11331590737426 3.09188210583188
202.820412955197 -40.5963202042848 -2.37642953006619
219.575255747796 6.50116543441036 13.0807357587084
-218.351000712189 -16.4070353415574 11.0779852034292
-194.866120622274 17.9019153734726 -8.98577265990192
140.249774803115 -13.731330496969 -17.5746454977512
169.655966975355 -7.19925825192642 -20.6023459164014
-238.652513411037 34.350160254127 10.6306382539661
-262.652765786301 -43.0858754480977 -15.5665192874914
-150.435148983567 22.8343324092605 10.6173410841267
202.611734610979 20.5443939043607 -32.1854053005414
-224.562247832154 -35.7192943534786 -4.32653426582797
67.799697018427 13.8531233116915 -18.5828223643534
224.081161207696 6.75302811836515 -18.0823706220163
143.185453800843 -11.1738373077221 4.89022530746463
237.791311399682 -26.0200728025844 25.4886150516706
209.29261198946 31.3324843438093 -11.1830698004984
199.738471860235 -43.2644468959731 7.38748070683102
161.959039625035 -8.30819450281425 8.2465637059211
-62.8106453330845 1.4364003778418 2.47814928783655
217.948943787111 -12.8436541157487 22.9593980521633
190.334265168113 7.30218999530784 16.1105480987172
-213.322971484533 41.4296228755633 1.42375916833895
-244.360149205269 -50.2470807065411 -1.93255776054837
198.3143358449 -28.8919906899583 27.7697959930289
108.677315867284 -16.480550341946 -6.55329273590054
-243.60684006883 29.962397303543 15.9445383055128
207.329860349087 -3.40612699627058 16.0327286559023
149.523887951952 -13.313590589516 4.60479960056298
153.461844050009 1.23215776924207 8.34142415268704
-191.552361447855 3.21375157520944 22.1800998063597
-43.8783641083033 -6.89489819666488 -19.6187828653057
-144.133867555638 27.0494821910857 -3.00665471956151
217.277681444305 30.3487214516639 -11.6800307100404
-269.894292309296 -21.7225437890639 -6.70211594663454
-190.404349968659 -8.33804356150304 1.36861192505866
211.152779454709 -16.0936251856514 -24.8009429765943
-211.660505745585 12.9611065850963 31.2538438822886
196.844996330571 -18.5547780948503 27.6273524254021
188.678015418863 -21.7271729277831 -14.9544601740399
-106.464665799516 19.2688187832974 3.81222648595768
-170.415763261199 3.49030152567381 17.9433779959699
235.735636013998 -26.2404652965646 -5.69153995747037
-218.88485879675 5.23048245901591 23.9375109928487
-200.433287486413 -12.9649973631477 10.6021698233085
-249.869644553895 16.4068997654002 15.1272778491898
-216.591057532753 41.2192618085319 14.0367062267182
-128.612701315282 23.9064229889627 -8.22378034471058
-80.2102197246318 19.4379279266428 -17.7047798952204
-53.3664773757141 21.7263757850859 -13.9057174883522
-231.735824789058 -0.252354531897913 -13.0823774319289
222.178659093846 33.4333399390695 14.7802936451239
-224.06597043661 36.252329240143 21.6690008762817
-184.698652389952 -14.6067354910959 18.6357819203937
-159.276332914522 25.0706632278913 10.2904307739987
-208.292612705941 37.2397126825664 17.9406099213469
239.037034572094 -30.1765093882969 22.651994005718
-200.317714583699 14.9070996536081 -9.09254090448846
-61.5823913518864 21.9968302762487 -9.51383048648532
150.638444363895 16.5344594270372 -9.6076472697613
-164.790175111966 -4.37349937236305 12.2674968913676
-242.215521461132 -27.5366077782248 -27.2027149983263
205.671765830505 -41.7694776471971 -0.995504267964313
24.5166976748591 8.41257976744779 -1.36955911224524
228.28477736655 6.25476359279748 2.17216905851076
229.31254598701 23.0640264422954 24.5833094316307
231.251028175627 -18.5349425695094 33.2084328073594
-263.886948818089 -47.9977146151437 -3.61536860942454
-43.9976440247408 13.5743230417695 -3.37112661406244
-262.895830224311 -47.7608730258049 -7.55060385945678
-53.6128199344684 -6.62482094729634 -11.4855269997186
58.1537568416045 -12.1570818450074 -9.74585991206392
195.813787391621 23.5717461986045 -23.9042504789533
95.9582695264799 9.52023635365377 2.91575621071676
101.875719807063 11.9235438353037 -20.0329961467283
234.808064183014 -35.4093812603436 -0.0165128230590224
-162.028028330886 0.00954458197316411 14.2190177027485
189.066893857685 29.1672722675961 15.9259565605956
184.694051669182 -15.0656101952904 -18.6784605643437
165.480362884245 17.5112510902969 -9.5389943143521
203.624369514329 -43.2759865222706 19.2151253340939
