-203.413276721726 -40.8442908979265 17.011166287759
37.687282415607 10.727085743502 9.63762084983086
3.03899044574721 1.2728385612959 17.4565914022569
164.295362185471 17.0786418443139 22.6611049571113
188.982995079115 -7.29409731350634 -24.9245878565162
36.1783541098425 4.04202465431042 16.9849568190433
-198.818981226134 -41.9921657574761 -3.09728140169783
126.517856400512 -15.0597546019585 13.2614422049432
-152.922953474174 -1.77210962472522 -20.2484691482904
-142.430005163106 -3.20832228658936 5.04885850032438
-76.5655844869284 -0.274860203850137 14.4116506430127
-52.5493741925461 -10.1926973781893 4.01380223119716
132.666971473915 -19.5191019039884 7.06002407049536
170.693210441669 32.1758443741395 -12.4658288057435
-199.304044854755 -32.5632601848671 19.1842835051625
124.066109608263 13.1013054812174 14.4104149614479
-37.1246146928759 12.5544258449395 4.77120964353637
172.562369137833 33.8485649338796 -11.2591847868225
155.431933459696 -23.3501786370856 6.76906307218598
-125.772366009953 8.55077894131773 -12.9971208846185
-165.273595131609 -14.1966016500483 -11.481500221753
-199.44915339769 13.7840401219512 17.0586796465598
-225.009740457947 -16.3994185022347 -10.5607391842774
110.481962326747 11.6743210165038 14.4417567198801
92.4008630256712 7.09089701978358 -2.92035228713572
160.489759091113 24.0172179150157 7.41752352724817
82.6905628282523 11.520628467162 -0.331930056665617
-188.32890778929 9.3615448144209 13.2739819682019
-200.148080983021 2.28169175385852 -3.70679777689006
-70.8876508719146 3.90330133196629 -8.12802216854987
186.982428315797 -33.8753967419532 -21.2772788852347
-109.894101367293 -4.69028705218949 -5.74223959787695
123.348270065067 17.1002473573922 3.65162373923139
-207.06375338556 9.70560315688907 9.54084351985677
-193.407581662053 29.6701635500066 9.8838257317632
-196.704180639304 23.5412280742719 13.915941194045
-111.855486653766 11.3921968693249 -12.4945749573696
199.624631451651 11.1136403722043 -4.37888448901072
-143.717761732135 5.19460931241447 9.007780681967
188.571728297892 -1.47622965461702 -6.77408170780387
69.5735368506513 -12.4546568277277 2.17573926713143
-233.667854096888 -26.1665583476164 5.65678581301177
-70.2326919818644 -10.4600330578369 5.28088999171513
-182.089563779224 -6.15094972402617 8.76264767598988
-124.25233461202 0.793744666493297 -11.8999197478539
-205.170487212643 21.6494967755786 12.5447760393229
-233.376932532423 -27.7911271431747 6.60234172984432
129.996663198108 -7.2183098690138 -3.620693136616
136.451565333442 0.485644084115624 21.643877676087
156.838894494669 -6.98309258047311 19.4260269920333
-208.667344596843 -8.03173296233045 16.3071113480232
-196.30010638248 29.8951274648803 -15.3948862414513
-207.001110750149 22.3884881934815 -20.1234521568038
108.573523257324 -16.4636091916675 2.27480540497308
130.295826126025 -9.35602770455802 17.4145325206206
178.217877236903 8.23550610378601 31.9303085944433
-172.782934362054 25.8188685737683 6.60811601751708
-161.543434352159 -14.8948980250392 -12.2163554336514
-210.537115011055 -21.8604872888522 24.1707048456917
126.524280713456 12.8189612660662 15.2648339142945
184.387839563415 6.68200644644256 -11.3822989822597
-109.679114814931 17.2653976070596 2.08106579136022
118.012755531636 -2.35020739161421 -3.24887463963128
144.817887029268 -1.35104252396941 -4.11264249811016
103.413883614876 -9.12962468250343 -1.60225337279552
176.463851295936 -10.9780380053834 -25.9350981573962
166.175423302533 28.5764794277983 4.90257122869696
-174.318799111076 -11.1811803714076 5.05275134970961
202.086286054661 -2.9444362421032 -4.58069962335899
135.784927107138 10.3969125629281 19.4463440382907
181.383758823334 13.4720158286308 -19.3588583256798
-172.18053021535 -3.7866074789638 -17.7036199880335
7.9638604625501 -7.86327911026848 15.2005931556912
-194.22898265554 35.8173705600773 -3.98731667422561
-212.769691275529 21.3534437041217 7.29191962239817
-43.8364675735911 4.30644273583023 -6.91878723560991
-121.56435350843 13.5113991809835 7.82441733482429
162.257087948492 21.0531996773667 -7.90676562516658
94.6344995319449 -14.8821218713515 11.6400095453766
-60.6597829071154 -6.23167285246697 -1.61960657668409
-208.539798457618 -46.5951179046112 10.6620449625076
-194.450149626911 10.7893094820232 -14.0457021810456
28.1427031182671 2.48677450884456 -3.6750509892278
161.900562654883 -5.88805729679826 -7.6216010856651
194.014574165672 20.0927858119019 24.574068085247
184.275666083385 11.4020937898558 -15.4313194197084
-189.322538413836 32.6731163121747 -11.9304666125146
104.952277035885 -2.40744704070382 19.5840055247747
142.830695334662 10.6249112623016 -3.86343640918185
197.443407129529 25.3731509299806 -21.4897781344764
-71.5335812837784 -10.0064734301701 3.02625793908348
185.149508601771 27.1996336166543 13.711502687377
130.436031786277 -18.9354586755306 8.33054908203673
132.794623893836 17.7806621496394 0.444382923383271
179.637101339809 33.4906258194029 6.37692938010345
-158.055325929218 -9.19296214061586 -6.70624255881988
-206.211888188723 12.0463791835056 1.88136792329728
-225.797732463414 -41.0949775840324 3.66377784301373
-130.774925877451 11.4023505800248 -14.1474924582232
-68.776100744388 12.2741403978475 -3.45070196470789
-215.060224017337 -34.8973001946012 22.8125557377671
-153.901830219883 -9.65771122622831 -9.39014977045978
-231.312223480941 -25.5441620473302 -6.60389608379086
138.245909343561 -18.3801924568424 10.6305777624784
109.918464568901 15.9657727789072 3.39507546045794
199.901614124324 19.6799893956025 -15.0627107267933
-225.896341605955 -39.4944715529057 11.0528947361735
106.717862573148 4.61673020218276 19.3866729733163
-181.500392323291 28.3743590999326 11.8578553449915
84.3069445580262 -6.67654159231116 17.3424423876496
-87.017780166514 8.11479118608665 -10.046205113265
201.93997914431 14.8110263958339 -4.73601419351125
-24.471279672287 12.1457407523287 6.4052576132755
176.115956469563 -21.2115378621158 -24.9184074596617
164.600519820286 -27.9226950335776 3.50652674720453
-190.780529612626 35.3280285527193 4.18935265784276
-212.888072762381 -47.5001456849157 1.99858518501282
-143.939836449109 0.798931990204826 8.02495572795243
-201.872325181248 -44.1901566749778 -2.85943397521751
187.85754366249 35.3911738165686 -10.2675195260074
159.677933637642 6.3498613726119 -5.81093785106276
96.6600644422228 10.7537979865001 13.9153290363745
-199.776299876069 15.2453872454888 -18.0356939404578
-26.5137482386228 -3.66954488585041 16.2174208968631
-189.904053418312 -14.7744521325238 -9.24066742036247
162.528392894151 -26.5042395684946 -8.05011066203529
-196.561910740512 9.75563134851176 -4.99641670168721
-194.468716294446 -26.4573101688884 -4.78679926979536
47.5221790667695 8.25387082453899 -0.66982980179777
-130.163633321539 3.13317251353376 -13.3075729911245
-182.39644110821 33.5660743539391 6.54358493337324
-187.618803128482 8.61047535016187 -18.6804484601864
-184.109555171211 19.5079469570502 13.2442984882021
-202.834530805305 -44.9980320920925 9.68997335047681
154.348652969624 -1.1422354129472 21.111151226978
139.026037626538 -13.2229373572166 15.4884621705227
-78.6211790152145 3.71953976548539 -8.75018396610417
146.006874718849 -17.7663140980551 12.2280257085515
-200.511552182285 -18.4773519812805 -12.266613104455
204.160296559102 -14.7485410459245 10.9396399796827
-152.357297162482 -8.27561192055438 -7.15467976186678
-83.0876027784088 10.9190845798524 -9.316204275093
5.65471249001103 -4.31232011745056 16.7533417894232
116.149612457284 3.85957715859764 -3.14804788787001
147.453797071147 -0.448939817926195 21.8112145225256
200.677240425552 -7.9296898964691 -28.8053054241008
142.618597682428 -16.0892168184064 -4.30332141313657
-198.51817112859 34.4528805146574 2.34074367853737
-193.437573155629 -30.9261820887538 2.71245038111348
-169.653577332757 -8.92993261765312 6.46019401599171
-145.82878462283 -7.42995001189113 -5.05147603052045
-222.241788711048 -18.4904314723211 20.6625424112276
198.338418769701 37.945114141101 -11.0316156617409
-112.555687328728 10.2113339168109 10.4195817529623
201.203227666212 15.508356307746 -7.16694551915669
177.01254028352 9.59726868397977 32.2521831009284
-189.473962187687 28.1164868181844 -17.029228948188
-80.5773087064001 15.3587076693763 -1.58362411363384
-113.224063828213 18.6182801388584 -1.42315779764183
183.947200028863 34.8280841272867 -15.944195892786
140.507226229625 -11.8971919153019 -4.61514633873062
177.3997883475 -20.4461262887372 -30.5195719619619
140.539877393917 16.1378081109869 -2.80658815090862
165.60299279646 -13.1087547230951 18.1730691334984
173.549945591124 -0.831154197920372 24.1310234406485
-178.236904267268 33.3750633112771 2.39241078841319
-231.81335301069 -33.2911561591173 8.11305187252075
-178.945984389688 24.3359279451008 12.3228567331686
154.660297180359 12.6974624953803 -5.64777149604135
144.230881306589 -13.5970075788765 15.5710371046994
192.393172079868 -0.686512396278037 19.0278272159444
-215.015230251943 -34.7080512920716 -16.8974992396072
-153.736502278501 13.2410684657692 -17.3249909413489
-207.689317579868 -38.3303765661329 20.8342561569304
-8.4556259493294 4.95817996446139 -4.78209512208129
185.56050027238 35.3078094481027 -11.1577645136241
-107.714706137116 10.4752178273543 -12.0172905802867
-192.736293467312 -26.117991058224 8.89802687085315
167.629498096545 -13.3698529550855 18.2103078115568
-130.408866449563 20.997368458028 -6.78882952114887
186.752647687186 14.9677500404216 32.229881841466
-50.6639416547067 1.42698455637202 -6.9359996991782
196.767884312462 -15.0829643791365 19.4985237838597
-180.771634461985 -0.815360791255627 -14.8669892487945
-54.6220886502764 -0.924823352176749 -6.65515538680853
184.132457310536 -25.1083055715431 -33.7386936059121
-207.050881796366 33.0674899182908 -6.79987655491897
182.401275071684 -22.0521158328572 17.4898031843111
168.104236211945 -24.900277965351 11.2682385984839
188.44852027275 -28.2727312533119 -29.2870905047215
-183.284051154843 19.5964026082014 -22.5672052132102
98.709533149416 -3.81499141056019 -2.75573675231841
70.0453296695673 -4.69141182615316 17.9403909697054
-10.9185590789095 -4.25794570445247 -1.60454712395108
-67.4818400251648 -3.84133906763339 13.6605435517464
165.465052273289 32.392693316326 -4.19980428638546
172.858143907987 -12.8841118042687 -16.7264836254068
-115.954035834499 12.6827609609434 8.61254481655008
135.18754721642 -5.0234044612436 -3.94185128168253
170.811247429396 -25.4548265707526 -19.4064953128224
2.53263513344104 8.73038871649444 14.8386016905725
138.61099300855 19.1537886332957 1.99467192057451
-187.291496740622 34.3759484677715 7.13593338142929
150.753323427872 19.1567105579949 10.7115956772991
45.7318541471146 9.22208751448315 12.5458112712967
6.64223951683274 3.46931497494194 17.2215414837615
-152.885868163433 22.8440732916441 -11.9388837963362
-208.023901770785 -21.6112663240819 23.7636698908158
31.1056846108986 -6.51178264616926 -0.192096209902018
210.029757038181 -24.5705884743492 -8.57683451639681
171.684548494238 -23.8704992490209 -19.922241496384
-161.379948725635 11.6505849671144 -18.7354392251969
-106.987566270368 10.2953296028755 10.6675168818031
162.231090162509 -26.1259376256323 5.68314838768843
176.022980585188 -36.9807739161172 -16.2895475977938
194.187726328843 28.3206570058688 -24.0920512927543
193.339427808069 25.643899589 13.7493826828051
-160.770170521992 -9.87896209087537 4.3566802144821
158.740093749608 -11.1920006416191 -9.53372677280613
9.82841291541635 10.4653327982191 12.0128579458832
-92.827093326897 17.1954543394047 -1.22188609018135
-54.0549700699152 10.2240909405023 -3.38638301438683
-35.9264174187599 3.92157368521679 16.5449224134909
170.735578551067 18.5285866670267 -19.3170505933031
-23.1619091329892 -11.7263692236837 7.4316842993342
162.148440833079 -11.4494646846507 18.3385959497702
-148.957571454191 21.748565383737 -0.555168457596879
8.77099570956649 3.48324263341723 17.2350911044847
-201.717118167832 -14.5010192613109 18.1043002432412
202.946194906581 -15.0981697572139 12.624698192845
-192.7258651229 15.7982987773611 15.4734421684373
64.9941752701983 12.0747614087633 7.69709686168966
164.128377733101 4.52669311565916 -7.09865549852107
151.013421826833 -18.1940897303414 -8.119092654872
-211.58262549058 -5.74763970437232 -0.362731356119285
75.5342201479782 8.49539045922929 14.4777536473684
-181.613710015156 13.4113028375556 11.4718426557596
-27.976434337607 -0.208430700052379 -5.1563487590634
-145.42239069754 -7.07520983760701 -3.09770413532085
210.667521992995 -20.7419162632534 -2.48817966939192
-35.347159324559 11.2129184894802 12.2019852148859
143.308507147596 19.834217398257 4.00217256401856
176.13743414939 27.7165636480601 12.4241091693609
136.796104404189 -11.9464494647257 16.1672131987254
69.4446776402184 2.44036173093688 -3.19488759261872
-17.9671212144009 -1.85306213636889 16.9828007252529
205.909691170519 -16.1573651255326 8.42337044775279
-226.99694371709 -18.9949525570719 -10.2438856292421
-105.981999067237 14.4054409639758 -10.8671049516561
77.5231516252319 -1.55527238737769 18.728378061505
169.699596844434 -33.7640246939315 -16.9272821692442
14.6032968388585 9.04024469915883 0.981034972274349
163.881345683 13.862414765759 26.0227939484308
109.87620712318 9.92385607276355 16.4214074506027
203.985042921989 -13.463259674541 -29.9323219834576
-148.54711139434 15.9284837324926 7.55438059206946
-166.752627547509 -14.3334781037972 -12.5768052619716
-223.974785507971 -8.85294381111361 7.14469601280862
-203.327271309937 20.6700857895866 -19.9930613227215
-137.272260194039 -2.76554697779422 -13.4464233357964
200.710871158665 -29.8030119405686 -16.2281984518265
-198.567078414346 -37.8229906588589 -8.41765681175222
41.6941265065864 -6.41768193422865 -0.167700255932634
195.64406988866 25.5747233825439 12.6938814537338
-156.623971888412 -7.47267870651551 5.9697748238483
190.861338312015 -28.3926103888688 6.56609925753762
-228.505141199277 -38.0295541272356 -4.92506660610713
-197.65541196045 22.6537864051311 12.4497012560431
93.4958232029346 -0.29104711350052 -3.25482688449124
-219.724085746236 -9.00812983180255 3.92594765035903
-37.7809094889516 -0.570355457851691 -5.92674871449086
-132.344848574391 -5.35355941805942 -9.25005091126599
-216.225430008571 -41.3778186659932 17.9334473012179
36.543953649582 9.71769623224253 12.1365956018068
-208.318345770894 32.5976954574732 -6.30988795019177
81.9637407296904 13.2845784986717 7.87924803184714
199.828371080378 28.9161606422984 -19.289020741182
3.42908451627556 -12.1254871078523 8.06272573947902
-193.186674231017 -30.2135650198607 5.49888916109057
119.104244120929 -13.058991800749 14.4439182237049
-184.500785909355 35.3209965299642 -5.51258089046524
-79.2758124400729 8.40727135757029 -9.56069921508837
-124.373532260863 11.6189528602641 9.25859433030657
-162.989199490801 -9.75944747587001 -23.0561372175368
-130.406780300337 12.8147438180398 8.5250918593176
-75.1844634603032 14.30286637448 -1.78523532624169
-205.989241127585 -35.2822523441999 22.0752056841936
-194.772709094017 -13.8940578450871 13.3562394717575
-197.511111104611 -26.2038630826923 -8.95448945396335
199.38341231575 -23.922948933789 9.00503500121412
-36.6619231542081 -7.1639655717656 14.3526688526607
130.66817240109 16.2893458112632 -1.76865390048242
-214.278938025531 19.2042455443571 -8.10899748579249
150.023772093191 11.2584275701589 -4.71870841913523
20.448002025781 -7.47363730983728 15.6851131914829
205.903959334154 -25.5351324650374 -0.429518537568426
-223.508274160307 -10.3294644079199 -2.50548810858985
-198.976394607504 4.2752782322524 -3.64643309145673
-178.097712223844 12.903920006605 -22.5074105672062
209.60168316973 -13.1117881436204 -5.26845240255256
-106.478895925608 1.12316936149305 11.6191164141816
-173.700642578478 21.9304026588155 9.6039637945534
-178.392027112096 24.5973610000595 -17.8866742558856
186.316291245273 23.2146276250238 19.9866881251745
-200.51684864928 -31.3763845110424 20.6568066562791
175.440955144066 -32.0866371438929 2.11419398605801
196.277380033605 19.325658179108 24.1388165516847
190.676210007325 -32.4753156502701 0.872119866796891
-142.578922144592 20.8584358875154 -0.865999463658177
186.03949130714 37.6332605553921 -1.43077883760694
63.8216093851063 -1.87616687575886 18.2577970845608
-174.873488294238 -7.19869415596905 7.67183266698451
147.540286837026 18.3329489112167 -3.27426519594703
-198.370588714937 -4.7998262032827 -9.02366891006945
-180.280906495496 -13.7058838318381 -9.42464186314656
-53.1462590206918 -4.87705000033598 14.3128335452553
-20.788020630859 0.834564349149357 -4.92889006827659
-43.5102398312075 -5.75294162964656 -1.41142841952314
129.670196275161 -14.8257750537213 13.656462247347
-181.774785905754 24.9339505859507 13.6449143982224
197.301039972702 16.9201330751702 25.2935830252036
201.677563085284 9.81355599698957 8.2560072474689
207.179362796179 -12.2168898532753 2.26126678849306
169.95491044114 -4.28344708533943 21.3989543403099
151.627212319184 15.8045196543579 17.0200388524334
124.036340965917 -15.2581369825156 12.8823300341095
161.386041005596 5.8412583744094 -6.21391106546008
-1.55981162400199 11.6849885740054 7.44996675135893
-213.922789811276 31.1121609312621 -2.49047229571784
-125.069944192153 -3.44400193653215 6.23714827752486
-81.3864546887432 -0.197057758312078 -7.81308769037201
190.747306019743 -19.8027187717899 -37.3152190664634
89.9592360420654 -10.7354185036077 15.0172637385622
-104.391728243977 -5.87605553402565 5.90915103657623
-39.7940646527307 12.4488538643606 3.3209992137604
-81.0734874562697 -9.17889499693428 4.79248894629857
-70.3298876610787 8.03120050653862 -9.08631692707804
-164.833446562825 10.9008983872362 -18.9251235814089
146.198667511791 5.86414031366149 -4.08875515101359
189.010464764333 -6.45468061068455 20.9418152750041
-98.0885198131753 -6.81058509884363 5.21548304294212
176.737717882066 -25.1619763132221 -24.541647382855
175.403894606845 14.284547844726 -20.0123364232111
-15.1671230039809 -11.667522656875 10.3227105938387
202.465257006701 -9.20729681744629 -28.330996468591
-211.485717961504 -47.1939368610258 9.10841091422912
211.431962399648 -20.4326979552954 -6.65333704836689
182.633895880697 13.1323231462428 -18.2566795227916
200.672091068348 22.9808726396914 14.867517191405
-205.325532318356 -10.4553515218273 17.4439536271286
-171.335699882569 21.2794813932551 9.26383808095735
-158.27965964954 -10.9455980867239 -9.40698327630595
-132.299005096001 14.2126787154891 7.53271235078984
-226.991211655128 -10.8378573726155 1.50367444729
137.26909195171 14.3691751166997 14.9383327375734
181.074215536502 -28.3369783152319 8.75153439440525
92.2242906784602 -13.7079014422076 12.6141917121525
-171.498623378294 26.7101489359143 4.46933919490463
-130.899536251988 -1.30201884065645 7.77602098997143
175.433359281499 9.34800500329964 -15.1069916990735
157.582228721903 22.0850632327534 -5.48569704605578
153.287793576788 -2.19791431146713 21.1068393959862
-26.7611194193355 3.89588205841431 -5.56446977052601
133.634088722223 0.952270003813636 21.5598314487046
158.08010072503 18.187404284945 -6.86343271507432
75.3901782341437 12.6209829330809 8.21539487992856
60.5081350016429 -11.2879215285589 1.8912316502541
181.256717857 -20.7653819084551 -34.1034841070123
-47.7260351516698 -6.35349822694341 -0.965259965210066
192.355353295628 -25.5734044239436 -33.3358073695948
178.823212373108 27.7142646918798 13.0200495836842
-110.058474424022 1.29995815919466 -10.715375496031
193.376649393206 7.40367987073983 -2.52988449612082
92.4323784275346 -7.93899891743103 -1.33545713314963
173.284473337212 -19.7279020421429 -20.4386420079158
46.3935291422342 4.31143749566504 16.7822650175982
-200.977951410361 -3.9195905491095 14.4482670711439
-119.556051399212 7.54906424488506 -12.254486812143
-169.526239424501 -1.30799640256354 -20.2721428577544
-13.0900039959045 -0.764275027482203 17.2281270055324
-170.049829168695 28.0437124116693 -9.49532191439366
-11.1668198009353 6.3429755829483 -3.54368893688598
124.325972045679 2.05396653835214 -3.19178084326305
-24.2725132338194 11.5585013958028 3.16205904301015
-187.36676771084 7.25758003912324 12.5931516373545
-174.302704673543 30.5446706806489 -7.90754018696547
133.474736269528 -14.4138149151711 -2.24483859859597
-211.886321792395 -18.2786014701325 -16.5639884297156
-205.227685969477 -5.62257180376277 -6.49805303996214
39.5375991939443 -13.4360790244196 10.3931903174259
-5.7465234725112 -6.24138783031397 -0.332533784668458
175.830200299187 -20.2570938934821 18.3446183109779
16.2575221633214 11.50852975804 9.17519046605359
174.091822779535 -1.64121434032271 -12.5871344322587
-182.194797863227 6.34813117279158 -19.2351328033726
-74.1980884975987 8.77096050413166 -9.41278942049443
193.824898409674 15.7919939414349 -19.7423336179373
196.270932500944 20.8217535389113 22.2728252803746
-212.54889438965 31.2706609146949 -4.02423785502659
-189.347599951987 17.1861072898723 14.1772659285699
31.0263935465266 6.3839921548722 -2.45639392691387
-78.5397836526162 2.38861059482031 14.5783925981473
148.465082710614 -18.0762473575246 12.2389120332947
-61.3227577561679 12.0622958282951 -1.82458985393026
19.6107978455948 10.5834304448163 11.2632543512868
-210.82932192771 19.4072021849048 10.3406056093713
-176.942547769932 18.0034666052591 11.2929118370362
-20.9814560932556 -11.3285644352773 6.57792309891375
-123.376871420478 17.6488823692412 1.85255678892589
36.8267479843362 10.6239297817903 3.57245521353525
187.025958614156 -6.41127561837132 -29.7157349168966
189.137677749262 -5.8441586650774 -29.4696990395545
201.017265927651 11.9710765448968 -3.28143082707744
-144.06415438232 18.5707619691099 3.26230713120605
165.159522477096 -16.8457555232976 -12.9917303766385
181.148707586101 -2.18598192015678 25.051927488273
-212.282510585444 28.0632103155331 -14.3974483713947
163.794485602263 -28.3335159539778 -3.21486943112296
201.672188464293 -7.79856706125944 10.9598530487296
-204.520257520668 -14.1025748325473 -12.5104905767179
95.0686742712284 2.56101931447263 -2.97718904884587
94.1081425126176 -13.4221472057747 13.0225081745799
-191.879979556373 35.4336183126037 2.53449594528546
73.2127646799286 3.30245333398721 -3.13061177450376
128.358072753086 -19.1095886402712 4.24798856359307
146.40877046004 -14.1365384104999 15.3921083300024
85.6328667698873 9.77325495034571 -1.61001125167198
-17.1799207348407 10.7867303339335 2.24814181037195
-231.077897959798 -36.6459881094928 3.55639372398221
115.096100142651 8.21641085924486 -2.91119901686168
-209.783350975216 -13.478518523314 -12.7287545498825
129.803043059163 -17.5733825466017 0.752537470163445
-160.465919615297 3.61868891884824 -19.6906168933706
-48.8495403029335 3.7883673574992 -7.1490970431493
81.4872246708974 -16.0256736635302 8.20111158850995
-31.8277949271594 -0.833317562440525 -5.29393879236188
193.342993650523 -31.9575236683862 -0.104243558539103
-213.319080489214 29.4500148889669 -7.84030199569812
-202.361523102504 4.6113883449034 -1.21700504842261
163.266803635206 23.9765842664242 10.888969111589
176.027572385766 24.1940715325566 17.5100041919788
98.8939124753261 -11.3358038892698 14.9736216306683
-154.127539053792 17.9002094969469 -17.7786652541212
176.134198270152 36.428551693292 0.770899212664568
211.334454668706 -23.3123339416623 -9.82859634529903
169.895209833145 32.7800063774097 -9.99492768902718
-45.8273248108443 -1.62269834846869 -5.84390661309028
-174.811688348438 27.949511406346 5.99432506472907
133.348115924065 8.5400974715861 20.4126663507089
171.301577374879 -14.347695565635 -15.48081927292
163.907882787999 -4.5996988121997 -7.42038114113658
190.559765012218 -34.5088645021825 -16.0162061030419
-70.8597663088356 14.9433202024505 2.45662306735201
17.7465949576881 0.614790266270646 17.6692732352604
40.1432243480098 -7.7767453589776 0.421652311387538
172.519691122146 -7.9697532899135 -12.8153886096264
-144.733443511658 18.4065305668986 -15.6028709027543
0.166133611494274 -2.45290502922477 17.2088203930079
-169.777801901762 5.04950861817556 8.21635602333223
115.284803993007 13.4592835402556 12.477329348293
124.89012311728 -9.2455478371854 17.2503763684675
-216.474477862251 21.7457588748441 -3.11993601448974
48.5687108795123 0.163614465229798 -3.28785773614623
100.845305227407 -2.77518442416002 -2.98598056401101
186.819881539829 30.0491999324381 9.98068183643749
-172.245535702273 23.7495023829926 8.20657507495027
199.048372601795 -7.33004404029201 -17.398976756942
-15.060794100774 -11.8419192521685 8.32441365610421
-198.308373252443 -30.545014565507 -8.58626845863887
-126.513646046678 -5.9220194504342 -7.38887104914158
-18.4723253885251 0.631962704063474 17.281038580051
173.056194383759 11.9943870507461 -14.8975476152456
-154.615594563032 10.8397363786939 -17.4776817088064
101.021195185347 12.0092430647902 -1.10218187716009
-29.4372629354441 8.60848012842568 -2.24389787552873
-174.280932148217 19.2181640274582 -19.5189668764901
166.913638980511 10.5670158850358 -8.60593195997195
83.4417950012623 -16.2515784504786 6.06753860946707
-194.041557770339 10.9758711750106 -8.61373205548016
-29.7130629592794 4.36643869272014 16.6268371884196
146.633171829736 17.6856193239049 11.8878047396585
-215.139035995128 -37.1021601913364 21.6284434355958
-184.1858818376 35.6211354791084 3.58937443553057
83.6807821569164 3.62028700173772 18.2610767343197
-158.471858586906 22.781183608015 1.75123268765448
-81.0468413557928 11.561297018135 10.7250230212099
198.739226915934 -14.4047095476337 -34.1229309071038
-163.570857369819 26.3229409619111 -7.48909165510218
-217.190537417401 -14.6901855168815 20.8365287516736
187.53032274493 -27.0399105094399 9.58858081049129
150.5580064561 12.3312170663178 20.7642223716963
-74.2906700187269 -0.226047973239638 14.6451072729873
156.973444267477 -20.143314080171 -10.4034922070322
211.605016639481 -21.3132447323063 -14.3796944213633
-120.32738117536 4.36377250349867 -12.1030856391583
182.998257987463 32.9594191846132 6.93784661727949
24.6058153817532 8.45835404384031 14.4184626014399
-164.569930883808 -10.8124588294274 2.05550633948732
-128.234786813639 3.65156588481877 -12.9674372046226
-195.599296815783 19.4210368830798 15.9277269063364
-3.79788539636215 -10.5862144645164 12.7397403709584
-169.969670494957 29.0178981654147 -2.58523349872126
-12.6552883488849 -3.00110314645294 16.7813475849454
-112.713197423168 14.6966440064916 6.18926190733525
172.209518287996 -14.9311466334905 -16.7290100256152
-208.603988580003 21.4043088153994 -20.2845657214128
172.346396372247 -16.5087733984585 -17.7866042042771
197.840450846243 -21.581612257301 12.9539885684888
33.7610452660306 7.7324133441519 -0.633430673493822
199.711472228006 36.3054887540225 -3.93202316577535
-213.115625506643 -46.8046370167254 0.134796392831614
-61.1664823389938 9.4385170616416 -6.53340834507271
183.657912101105 19.5280274186505 25.6322125932248
204.365787601165 22.7371048145546 7.73547690177283
66.552992547351 -9.80793205002158 15.1647217295069
-56.6247806468884 9.42434562162866 -5.41125341982501
89.0078434653198 13.636329013029 1.89362350183582
-54.2861521542117 -7.18216212962621 12.4539259591749
-176.569911854028 -11.2562629743525 5.88649622986224
-229.790900342017 -18.9249768172454 13.0610471048767
150.378408793839 4.25049325746681 -4.46525224992974
-52.5503560086497 -1.95790910505443 -5.78943597200916
-158.83317503854 6.0927094144333 8.29761482366224
190.119567611135 1.37459764684365 -4.84901213322387
72.5631475537321 6.93731540117793 15.765873795305
-220.936235246151 -21.9441176512242 -15.7827872125847
203.385754021774 31.7683529846975 -11.4440881871822
200.387823670709 7.07855060945733 4.35824294963804
185.80637083014 0.521452246024914 -8.74406829579372
185.680008897016 35.0453391143788 -22.7886875889576
98.4355780135368 -6.71506235316617 -1.95075462153609
8.16603646937207 -2.22454021171814 -3.14561180571082
-206.686440213767 -6.96413330073714 -6.63777990793983
-196.831197791081 -34.2729238789564 14.9893807826598
195.448191142548 7.13372551455699 24.7819617060603
-200.3994860255 26.3169432643629 -18.6484779590045
124.203218192159 14.5491563029295 12.0201309669555
-210.203213301556 26.0575526510552 10.1801984572255
-93.9726398813463 5.53710213292246 13.2856040295222
-85.9998717348629 0.119448061174216 -8.28030237333394
122.168108197097 11.6024761907019 16.1059091981004
-67.6231881029622 9.99058050166684 12.5563424565643
156.032141733577 -24.7873786691508 0.203501871491788
143.753152730962 -11.5899798345397 16.7357906181699
-66.7374562814342 -4.15776925163529 -3.82561982973465
161.877371467142 -19.1389636955978 14.4563797106545
-210.078852972946 29.7245399436964 -15.0662807998752
164.227742530849 -27.3915082743014 -12.1307124504803
73.5763857097308 -15.354467256855 9.17258559402579
-99.846069601872 17.9403283584359 -3.25606755658552
-233.017589434868 -26.2427784031168 -2.31259326555825
-232.007653080448 -30.3372871219462 9.83534751207304
95.269858820526 -13.6061810707506 1.04822516779332
-6.00740182150154 -11.7043480114609 10.8746707571133
-128.494634801279 20.7810405241442 -7.17552688887282
186.530685489579 36.8230000860631 -19.8054954513555
-156.097021898035 5.26081542823649 8.35534753227535
111.020868425399 -2.18477259381705 -3.10475108892768
-163.712777980088 22.3403120953003 5.03764073334267
-209.692152666897 19.2217342275738 -20.3876149690464
114.867200559303 -16.5697662189025 1.77376245155312
199.317305606979 5.49650924351699 13.4567205677977
-99.4830145783954 -2.90391613610159 10.501641610391
-101.822306438023 15.4445815811202 -8.74482523394417
-215.540154078217 -6.67002392225926 3.40407873259491
63.1266972257423 -4.35856370151914 17.8400490100826
-196.765626634093 -14.1612033420103 -10.8868724688483
-154.712156258619 -3.56930929596079 -21.8307855044619
-147.105364726914 -2.9822405873234 5.50680377270889
-103.106552991937 -4.4245888747023 8.42989470749144
-185.840377899483 24.2131236963297 14.5790939670055
-115.24335372517 17.4403706841516 1.87505226968148
156.393637149982 -12.0837682277609 -9.70569833822727
123.024513617771 -5.57623455935098 -3.26320890372826
-210.051774136088 17.7577901129826 0.259002496117175
209.482986321472 -12.910345949371 -15.272568938086
-154.775019871796 16.1575844943417 -18.164344283615
169.589361188456 20.4955056438648 -15.6563666073776
-201.983655980156 -25.1035512459245 -13.7898625695181
-208.659017192949 -39.8847984479988 19.8732924903929
-146.52614680439 16.5671305803424 6.39994881779117
201.968678389506 -25.7202145250984 -28.7829258535468
194.474938037124 -12.5293345657144 20.170029557479
180.9495627266 28.7924996556807 11.9800648928437
-205.283607489779 -44.3971983906701 13.4938847987777
-187.827207563656 -1.93058275295252 -11.7644085188764
-207.765787053976 -26.5561033077893 24.2223439282015
190.265625740776 -22.8591032529241 15.0640312916616
209.997070548956 -16.3197433445224 -2.51499030458397
-215.998384397391 -13.1043028405024 20.0071706651381
26.1018449141507 7.29643147176308 15.2968282288682
165.908977901144 -28.856078105554 2.15131637015799
41.8469252588897 -6.3711849382533 16.653890545455
178.001846985992 -30.1763554383283 5.53167095295674
96.8232363406848 7.94807493224518 16.7475800675658
-4.88965931476219 -9.13230082616881 1.97984208449213
-119.882130724876 19.7636538415367 -7.2852793428343
-18.9613892737025 0.315266846870259 -4.8357366026224
187.476612296425 -20.2559932128152 18.927410746304
-152.599162102811 21.6247457293863 -15.3354846340219
-163.224032817097 25.2730219531877 -10.5762644489323
207.681775896137 -10.0332943035643 -5.0231094669891
-109.57902332366 14.0038290453877 -12.3441157776968
-142.68614699227 -4.79486581519586 -14.8402793393623
58.2798184461292 6.03245294509144 -2.60796541289302
112.052473786037 -10.5841492047621 -1.5667511241599
-221.218966427673 -43.0765653698177 -4.41873510559373
11.1626574996945 10.4107369804979 3.13653862463878
-216.421232843072 22.177872405039 -0.368246041908599
53.2290226748481 -10.846623199136 1.85317757237048
187.858854382564 34.7249872963545 -23.6160041606207
-141.069854401553 -7.38855159781338 -5.94721600039519
-68.5317123481168 -7.29494976224998 -0.854761731577345
36.1320574301193 6.38485682474789 15.5592321293897
87.5553924634828 -0.940557469860139 -3.21905659646047
5.13839331470771 -7.43810858884091 15.4357687960405
93.6672835152815 10.7459612031794 -1.47863704334694
-198.94872043462 -43.0204858672932 6.51324794371158
-8.28169949230707 -11.2408739721491 5.68144899439388
-180.397344625317 -16.7996857023817 -3.69324120065205
-192.808724836666 10.7039059534652 15.276548914449
118.149844632063 13.9761635756629 -1.3009186896679
151.147548727873 -21.0429248842463 9.19364070642748
-215.353622812153 26.0218269027688 -10.3287696045739
17.4370661217662 -0.25308033638532 -3.56455253065231
-118.349358262568 11.3510085004426 -13.2018978045063
-174.81399272438 5.36501813998907 8.7649246067987
-224.876603123839 -31.7722978257387 19.1769981129999
-39.1705330498798 -1.14819592211489 16.4229403112094
-216.769303923412 22.7099145995075 -13.2246959718292
-180.763047487184 -15.0889851323342 -7.71927009146206
154.902664846183 22.9455424300728 -2.95461702714263
-60.4926079997825 4.28240929526512 15.5623174108655
154.227153049588 22.572717827167 4.23932882506328
172.800833719828 -23.9230202044243 -21.0960964539411
-32.5444651629989 10.9586253797831 12.441613011398
135.583592444736 -14.731141203975 14.1947874412422
-185.782078463782 35.93517839833 2.64467511139729
189.868295201258 37.6662414885402 -20.2846190883588
-67.3493901961336 -10.595129806224 4.37790732089954
194.152044672452 11.8618282060479 -9.79729871482707
181.962646224869 8.76995260332779 32.9803579873386
187.297701010698 27.1046722049477 13.6317947400508
-45.0385756577581 -7.80319961205649 0.772226075615009
-220.89850299142 -8.10142195670957 10.8888154483826
5.89719759640515 -2.07464433347342 17.3377046922886
-86.5521237495236 5.92152747991166 -9.65488844780911
-211.981295362055 -4.90188893845095 8.72660499002389
143.896053516604 20.1523439820478 2.54680482768825
-210.012654936041 31.9296226225376 -7.24617000481911
168.276860004645 -2.76519696419198 20.7373440276555
-207.651106632373 -45.5109400760978 -5.82892052338198
183.892401582996 -13.4062376988056 -34.1713063366579
203.654786528439 -6.63466787989178 -19.8300551738029
-47.814203129397 -5.30194119755707 14.5860898491262
202.983710605925 -16.8254076740514 11.9674540941521
191.481942167537 -2.59919516265293 19.1449232138612
-231.566684690973 -32.1998435023348 9.62643554442633
172.15166538353 -31.4189345280775 1.60643691743976
104.810178813293 10.3357916791726 -2.23249934003972
162.850792006017 3.59244001128844 -6.68704584695146
-185.014975589039 3.64840196884901 -14.652284518522
197.121113861323 37.324827361295 -8.76194856119533
205.609772953903 -16.202806644386 -29.3021304147471
-199.796450383323 22.3035360308823 12.4294906117258
49.6821269470133 5.11095921239206 -3.08850236493147
-211.478076817586 27.5446453516758 -17.3035197228385
-227.867167699048 -17.558978851018 14.9608615105047
205.920538076233 -27.2053058214521 -17.4982019167824
-213.492708259922 20.0226140554497 3.65869552335449
201.352793687682 9.78102688441181 11.9897062479506
-91.9879949441706 8.18622980539585 12.6587608226822
-202.81447276566 16.9823742405626 -13.7561607631851
74.1650314042935 2.69266782539883 18.0863710032071
-17.4973207135706 -7.46760402666753 14.8792024267981
-41.489404669313 -1.40632514693726 -5.74745714576539
-75.8037288972535 2.67992381551869 14.8121156180024
-200.304454716923 -40.8580863100814 14.2715159662338
132.125919611396 9.76806865826962 -3.2055080201482
63.7592063981321 8.35273712066954 13.9654279946096
129.625350334448 17.7777896538588 3.25514078893209
-163.068877248674 -15.9681064294237 -16.4078653007603
136.939768406482 14.1923792542508 -2.94729690315324
68.1145864967824 -7.33563220623866 -0.366062358785113
180.920914278853 33.9806182123687 -17.8770637136247
204.674991135521 24.0836381491394 -0.310145950117497
92.7500403805153 3.86738010226821 -2.92964582490509
-202.41962436619 31.8721329043294 -14.1061889298532
-12.1583126047519 -7.0149567850321 15.4213005469061
-150.629520883729 18.3829081551737 -17.1197140732624
128.992576109135 10.3861283329493 18.4380197108347
-185.985241986416 30.992844510321 -14.2271266846143
-188.231504361856 19.8594284535719 14.805410868046
-158.586417761782 -8.33656339184315 6.03430088471503
172.950713592159 -27.1098444216711 10.0146841894012
42.05388136997 -9.44275341548517 14.8579632757295
-175.608243090038 25.0597648071436 -16.7949410845404
127.031010037569 3.69556521785873 21.2932520427213
63.7409850719777 11.2046441963929 1.07760587728126
86.6567846726288 13.9024289906248 2.74018925618059
203.140594775552 -7.84223436125358 7.46222230055723
136.867171690273 -1.96895017460452 -3.76563799244147
-232.94902294326 -21.4386306284909 -0.327238372696265
-115.448398911198 16.6210007144047 3.32332213633194
195.175484907348 -18.7615980443169 18.3098154577775
203.027427696338 20.2658170571167 -7.99688882978202
-110.548453250262 5.79013270984954 -11.3141108237392
-222.060544742088 -28.7218638600929 -15.8087234621718
164.128694526621 -20.5391043746103 -13.5191035745237
-83.8149554897361 3.66676092701198 14.2204374880741
-98.3111352994633 14.3775916072607 -9.41004338401878
-206.192636248032 28.6048655952279 -17.5851431297167
108.89982820282 15.2095524210968 1.44899366192291
164.229583839234 12.1088989505139 -8.0720691362404
-146.117631157608 22.1964546673477 -2.84138963504953
-175.613466728163 -4.6807887274503 7.82461926909341
-190.927383466377 14.7063749645622 14.4796571028688
200.762453236129 -4.6183847715121 -8.83378452581437
-215.309717841272 -39.6354284206402 19.7837618346671
179.546019309795 -6.76531197298316 -17.2927221002452
-37.3788441011092 -6.25366428176286 -0.749559537921878
66.0657320241862 -0.578246688961972 18.333964091547
-207.768420058287 -26.5098524239573 -18.0262927085134
-218.551876621845 -43.7309621954836 0.191296659360333
93.5014594240886 1.8081867165053 -3.02479933403331
69.5162837637687 -2.5000103579089 18.3456332873037
84.2215658453991 -7.18402373480038 -1.16137303117228
199.292180668261 20.928892020804 -17.0358074558609
-39.1085698155553 0.732352896754116 -6.21178136442196
-110.695000753645 12.6952977171493 -12.9802158740886
-225.401317966546 -28.691259988582 -13.6304951668966
159.695980969122 1.05566562514745 22.7172750878913
138.601049781435 11.3910082548842 19.0187410086683
168.010246358222 -28.2679661574671 5.17693140364931
-196.171561623452 35.5514229466837 -3.76351562951154
202.657217451771 33.1474058685999 -12.5956803017047
-196.162016343521 14.0794759839689 -13.3785875584937
66.394738563647 1.80497295634785 18.0216793681806
-132.529262265961 21.1918517436039 -5.68006320296858
-104.148460203821 0.337351220272558 11.680159235688
-174.704044135675 8.08438785525143 9.10094089518325
-36.9717286529162 7.04124923987992 15.4639230702943
-144.754669725959 2.26886453193084 -16.3799592116197
165.197731570911 25.8455944328023 9.29312032327215
-22.3243487452717 -9.98952888865799 12.7218341121017
180.789839960382 10.696344231974 33.8392899077306
-232.34296417781 -21.1550580326046 -2.58456122314987
159.432969718879 -20.9791151174315 11.7496696669952
-89.8106893966353 16.6552248069357 0.812345553508207
-214.515792806815 -11.2141199955788 -8.79112211787542
160.039155482482 -1.90227602667947 -6.29698778353359
111.949259781891 8.36470282410209 17.9363482594559
8.4589284143861 11.2280468065312 10.3218992927024
198.06593662573 32.9276387058218 -20.1716101029682
-200.602216649382 4.84696564781886 13.5451555486286
179.21266781194 18.9863654330433 26.1596130383837
189.632954475088 -37.9899396773048 -10.348647290261
167.0821544808 -30.2255560319896 -1.31074465250097
-83.993042374067 -8.87445799263934 2.83104929087765
-12.448530364316 9.28547133256284 0.266801499237942
6.73748641234981 2.99841326396193 -4.21843632930815
-60.6350673923049 -2.61130552369717 -5.13314630610062
-102.15840147723 16.7431623826847 -7.57478383285645
176.431422181966 -25.7335893758528 13.3217508033965
-98.8931065895919 5.55443802022594 -10.1222562409967
-133.397704233218 16.5969148615591 4.60509190700225
205.151708751103 -26.6516346257429 -2.65009600403085
180.708347040777 -38.4105852697607 -9.65459963548363
94.9441392718968 14.8050580099606 5.01769010913731
167.250649763742 -4.54347366075543 20.9411136452519
-136.060925886059 -6.58473649899164 -4.27150872391323
185.412435603735 16.5652842433648 -23.3726882733879
-37.9488314089722 -8.80604858906821 12.8561871059675
207.393430382094 -14.5777012357731 3.55097832202283
99.5579280165498 -2.44315853412354 19.3524574994726
-193.180235544313 35.0890103014578 1.07417836573523
-41.0030745837982 -2.99290508398842 -4.07873275770912
19.2078014651775 -10.3775421183311 13.7941592581298
170.194712824269 27.68722284973 -17.9441532904336
-223.360473663477 -42.3942806828251 9.12076517752669
186.630528971144 10.9230728870372 33.1578858785309
49.9231167003525 7.93706730876212 -1.06233839625799
172.858235200605 18.8183732463441 -21.2608707139342
114.302565431375 4.29439008680666 -3.1324561917344
95.9050884259832 -6.2340741019732 17.8478749342896
144.717358717418 -16.8616928334121 -4.79767455303411
74.4036495424408 -0.281297791422852 -3.24885283343084
-33.9852805345816 -3.73178094048911 15.9654401382325
-21.5320843887626 9.55792326816527 -0.13751157417051
-202.684476430879 -26.1289632371901 22.4198059751226
-186.151275228334 32.142270204945 -12.5550445651978
167.515820420033 4.65955045237684 -8.14252643775464
196.948814559454 13.2464223658411 -13.9485747082121
201.302533973427 -28.4091362295541 -21.6486023082691
-198.700742720529 -0.825594950854 13.8609838957513
-157.958416960474 4.01462229388947 -19.0677902033482
180.143054133234 -7.16155365412191 -26.2628679962436
197.246000042982 -12.9527293667685 18.9098118968116
146.647365643057 20.6670764944493 -0.349016791741941
93.9228510277611 -16.9043288243172 7.43793179431
202.256378339264 17.8656135226002 -6.75817786087159
185.308160826904 6.90141102313464 31.5589771501848
-158.93253496732 -10.2047294978793 -24.0025219821639
203.662249202939 14.2304617461546 5.33692585622115
-180.825898873854 6.7078257313352 10.2395144307411
-212.472908736419 30.3866582311794 5.74252244612501
118.388294618467 -17.434066230565 9.66934697140299
207.929912161684 -21.637541203076 -26.1452991204825
118.285577642618 15.6093881902326 0.516790833432255
172.571374108996 -32.8107729227381 -0.593945640825345
19.9778665141934 7.8547041809132 15.1639206336325
-151.677029580005 12.7585105232487 -16.969110325669
-101.783912227309 5.57252901647504 12.517345773165
-195.127229923232 -30.0945789129052 13.7798823857479
199.178718828876 32.3640379926253 2.49311842990188
-84.1427055332958 -6.91304698137161 8.44662277896416
-83.2919824617415 5.0904462428471 -9.3475262149926
-148.151897536585 6.52685439671815 8.88341640535019
185.701022382486 33.2295926440179 -24.4713714974947
196.614823008111 -3.35732734038677 -7.66821168592739
-132.933921783665 10.0688364535596 -13.9269802428855
-213.458800343329 -13.662329609208 20.780711467187
-218.612131047167 -45.3126208672759 10.0717857867196
70.0131638627307 -2.49491934200925 -2.8739671777717
-185.419557754593 -7.53878431231774 9.58460478051705
-71.2859504877263 1.80166766714579 -7.8059471223374
167.384957437348 15.8592169617478 -10.326455027993
175.820608816471 -4.6156728950764 -14.4970159407298
199.526033307523 -3.07006231914636 -6.31381812548103
-29.2346127815397 12.3712155078005 6.50787423627059
-140.069131781864 -6.65735893878933 -10.0293195092479
154.856349751209 -13.4189177706069 -9.7776500287599
-85.8738610941479 10.5547447810703 -9.88611218172209
-169.220433616953 4.46117877406018 -20.4466786741719
176.196856481743 11.1401543930183 -17.4322694401067
-89.2994252296016 11.060635036804 -10.2504420688163
137.252672456076 -16.0501303995006 13.1862334960668
159.269594666294 5.05442730642215 24.4846603846802
-232.588287288165 -31.3403379451534 7.46159780666395
112.687246021241 -15.1774552504537 12.2726836665615
-165.966876077643 -3.59594933008309 7.31459751608948
-198.352379666892 -42.816491357345 3.96952678622897
202.110768412339 -28.8157761840307 -17.6491586436476
198.728285262155 16.2381116854031 -14.2892598513347
-18.4899562645642 -3.6106516462971 16.5570945207024
138.063286366355 1.54595451257865 -3.59037372343805
-221.246467086706 -10.2338642357907 -0.513939611807728
202.209791764801 -10.3652703517119 12.5230547661608
184.999656596626 34.4660942251244 4.87891110258194
185.634459849759 3.12080250175255 -8.49158838456258
194.191815820124 4.99353427867127 23.9388705152177
210.129648671625 -13.456418173614 -8.66879204446255
148.312503757264 -5.08149989282006 -4.96703059224264
-182.729361301816 -2.40188364879382 9.97015888437602
-230.430196831623 -15.5657169651792 0.240107240374975
175.639762408505 -22.4607020336817 -23.3380753768914
-64.9342139366506 -10.3743863112141 3.23524857105908
15.9282069934875 7.46328197709774 15.6058223150229
199.004711969046 -14.3529848769347 17.7446629180689
-101.286042841088 -7.25939143103487 2.55823051117415
-225.360219930862 -10.3988474773545 8.99626195867989
208.302702417094 -13.4474534716966 0.306096233285865
-222.095584862518 -37.1319696734735 -12.6776794569982
-195.216459956883 35.7838834024989 -5.8601520649794
177.786601846163 20.5839441597984 23.9639315606425
62.9258274718055 11.8112317051267 8.20778399025238
204.07741697774 -24.6660532086161 4.10470416985229
-13.0090136578125 4.68431844990224 16.8019957086223
127.33218734765 -12.1043741212469 15.5525907596548
130.180917475351 -11.6921053138682 -2.90699736516012
-189.440723458243 10.9918722182597 -20.8301627748449
173.617541015644 -12.8520296776684 -17.9915776244033
-233.467001827466 -23.8693660201602 0.210020811691209
169.572507411633 -0.519443670902033 -9.32796833285951
190.361569920696 27.401015705723 12.3355864157068
200.494257743469 -29.2080522884445 -19.1403431234572
-102.869165150484 2.59843964095824 -10.1205108911748
119.903302584624 -7.82346170241211 17.8861638251187
-157.615370464859 -13.2902760587825 -22.012088927814
-207.581844880075 -36.1684200807432 22.0910150404309
-209.35526903145 16.8159687256321 -19.0552287527978
-188.725018350268 -1.25555954790659 11.8910743293219
141.325434516943 -20.0181592031745 8.48581765039302
181.090343911586 -37.4274534441502 -5.88222517820382
140.877024081444 -20.6093936946557 6.69859170003405
177.307430335866 27.6391610481108 -24.7137824722954
160.508189469666 12.5642626867951 -6.94766081965222
206.924853568099 -26.843746967854 -12.7778203093688
203.337154268557 33.2153032828471 -9.64031117765739
17.7873494133188 -7.78053021256914 15.5378540816089
92.4949897093951 -15.1112952949646 11.2038974811591
-196.343011992643 7.77266525217188 15.354982178854
-136.761392562683 11.7184288730717 -14.8773432090045
156.633732062084 -13.4743845477732 -10.3611132420406
-179.026369825035 8.85908680990089 9.702672114742
-116.385470500307 14.8277402153933 -12.6148317293838
-208.825218892563 15.6052917581403 8.97093675614321
172.101554642944 35.8564051690351 -6.57268981495245
-228.599931241911 -23.0743258953169 -10.2499236483842
168.05426359315 -6.34337533198676 -9.56292559356035
-160.76060956354 7.74144139253146 8.61458070573374
30.006892262101 -12.8256221374279 11.3905605726123
-174.852424923001 5.2491163390204 -20.6375770621378
202.911805190227 -11.4287674892118 -29.8304653264779
198.480470265511 23.6955228073977 15.1200214159747
175.986939977431 -9.08574327437496 -21.2849903857486
81.0614664927937 -2.41339242740323 -2.9684995680536
171.909669948386 14.2058047058339 29.3302345547931
-15.9381808892212 -8.59445291193987 1.58581926418825
-219.049956091382 -23.3997257615564 -16.8560574333223
198.229610865089 12.2082595006364 -10.3390083551639
174.562665900061 -28.8543640365186 7.17571871367466
121.363932906862 -11.7049912813589 15.4888139056751
-194.399225930762 11.9063154525131 -12.361677554336
-222.755937320219 -42.1466727959741 10.7625786596216
198.506677862231 1.47235247655623 0.163781997553819
-211.563124664431 -12.0629178452857 19.7156466267278
173.466318801714 -31.9573609854942 -22.0138748489704
113.696536687282 11.3476623393904 15.2313084358304
