-12.3237347890308 18.6049683848195 5.83698467500846
150.64452654859 -7.49556534731879 -11.2038784236122
196.380416680529 30.0508499270413 7.41960485733942
-137.946698534306 16.0884439237066 5.05284394867773
-219.746723343823 -13.7041302314461 -9.01885469862591
-206.88333789347 21.260731618511 9.67611197943053
196.160220076272 16.199459542885 19.2836517269648
-10.1711477511993 -6.60918654190004 2.61930952475545
91.9730059444894 1.72348634947413 22.1626270501048
174.421079433086 -37.8575456148918 -14.8173683018785
-178.459788162541 -0.793330481521598 7.6300078281283
37.0644693629524 -13.7556162087611 8.67745027057823
168.825269729639 -5.8684082941831 24.3729387368508
127.261453675462 -22.1009842979862 7.74582762422704
-96.8646375495373 20.9613384582302 -11.2173080835775
43.5867534555353 4.89492092554279 20.7661411529493
179.837802021176 -0.0828575655188493 31.4244091919687
-149.773436726101 -6.17551997185557 -11.1700183038068
194.696149917102 7.92118118584355 1.82375846165762
-175.846522784947 30.0478703044958 -13.8469591671793
-185.900853799409 -15.5511771733031 6.50904817255611
178.34553984992 -7.92442748211974 22.6176281261393
-111.594195014823 -2.45309347966659 -2.02629931505735
164.341562583531 4.33764835875897 32.8995038148468
36.465686912513 -9.36887454504624 17.052464014966
167.067257618221 -5.32972687389084 -17.5597556071113
-51.3605460338421 21.4421352767803 3.62060228624773
88.166352338138 11.4118793037668 16.8321662563672
-52.2283909477051 -4.08835231174937 3.38441894552435
168.522636575907 -4.58208952522883 26.2982532389825
-93.0382618960367 17.4598801382602 -12.6841717896717
185.824937167823 -4.67525398519374 -28.2482870099758
81.2045657078836 12.5950573346349 0.278701865764653
173.174778983907 -2.59879953818412 -28.7648651262662
-225.659397958721 -41.609886936589 -1.73511708221339
180.306788833535 -6.98044952823352 22.9919182140882
203.743169086307 -9.22584501947705 -13.7975700296068
-49.7939782763974 -4.36208622572022 7.24186438588819
184.386089484907 7.38901022830546 33.1102892851602
-3.00450509756711 -4.43370866924827 -0.297190178953559
-180.203194364711 -13.3546767364945 -9.97080277681936
-197.748745731708 13.9103980505114 -27.7228115118981
50.0772380420985 -13.8581797871438 3.6813106045617
153.135246158253 -20.6538769340923 12.6697660335537
-144.560861430565 -5.17017578565585 -10.0099476287492
-207.292729818406 -16.3878453844749 24.7926104931593
143.564426901825 18.3705042633965 -2.13555682932134
-171.993269011777 -13.1053353772536 -9.59318218146168
50.8824735146391 -8.42663079662314 18.7570979122859
198.356410385372 31.9936363112455 -0.408099711632028
8.67256326431366 9.92374012877099 18.4546936982334
84.8340050092355 -7.18369024617095 20.1480146814631
-207.976000131796 6.65407493604088 -4.58491886350058
139.039853482319 -13.8680249298344 -9.16884742821219
-23.2799279145342 -1.35399364612792 -3.25416256693463
-203.727144002724 -21.6636609718669 -12.4039840105184
-186.378628297294 -16.9812739083016 5.81479678131953
63.5344530914606 12.4683571593839 16.1677741027181
-34.4791901773908 20.354162955529 6.07124156320721
-80.1174888751255 -1.4188635470415 -3.02926683681827
-13.5578195614469 11.5718363364402 17.0890453288892
180.863247912164 20.2630322143821 -21.4218061604229
-147.928165168541 13.6251199383387 4.80873820019616
66.6876831001524 0.999030784033058 21.5529677605584
-219.501548030485 -19.4639885317217 25.5490760600746
193.171636364455 -1.61625868245934 4.48693511508091
-219.739993145119 21.3023684928129 -7.08084692231679
-213.551225395414 -22.2114217943226 -14.3197458398161
17.1314193656752 16.6569320475623 10.5923717900436
192.213476951823 -9.08672273786824 -38.6964617883107
192.575119749675 17.2299452489404 22.9663196608517
-38.9642289056817 1.90625685743322 -6.96185357439622
-99.2857286579637 -1.54772211498728 -4.54272175307144
-169.002267946636 1.88422304618537 5.75186843380212
194.147479406351 -4.87383980150532 -23.0850013223364
188.38473428878 3.59747522504665 26.9466302279659
197.281714949693 -6.67605244726437 -0.378435444732523
-17.1294041935182 -0.963482528336529 -3.56583695562304
183.605636656122 -37.5156770242819 -14.5720509291126
167.415976905005 -0.33080853998149 -15.1580921142375
-91.9782491725498 3.78615997082592 -11.5577816107459
198.265082824093 24.4644230431351 -6.20396165232035
-180.775751367825 -2.54886584028805 8.25224435788203
-193.661384933455 -15.9530238448977 12.2677315481218
28.8409395915535 10.1218924552822 18.7717211959541
198.558847351416 24.2087671468722 -4.20591653238912
-195.578272203041 7.37254456153913 -24.9387074080655
-193.525571674278 -27.2035163057752 15.4430449863923
-75.2145870335343 2.6107177566387 -9.60861407821417
102.261104459858 10.0897808518875 18.3633449998464
195.741877651794 11.2108470455198 1.67252132216049
-179.801702023847 17.5137794317428 -26.2812986675291
-212.473999596893 -3.69219140939247 5.73252421072539
-174.02714863473 9.81332864072432 -27.0757254438876
-181.68150760458 27.7004204541581 -20.0468592472095
178.460497451545 -24.6809042669995 -38.6200221362538
-146.098928542891 22.5298292109905 1.55840373451469
-54.0690027904097 20.9110124522045 8.02778628765825
-79.3866611235527 22.5349907488873 -3.81138924599526
98.6741373165567 -14.0448035256566 16.6519264178193
28.1260473544646 -9.61039089673384 15.8096645669252
105.483282874174 14.5611578942389 0.0941868389417971
-124.809564819479 22.5254908044782 2.10679606157268
160.796979119772 28.0276239516109 4.49781631003551
164.628354623449 16.4040860947722 -12.641931040726
175.140341043566 35.5340676421004 3.94597815703193
29.1949710566559 2.54530857624914 -4.32577905073431
-88.9219412764334 23.6597010630982 -0.725119940333709
158.033660183863 -26.6092400007069 -14.6072811350076
173.808178575518 22.9029548307515 22.1529772850787
-204.809001526751 -17.9226286086012 -11.7748036321751
7.78740774858825 -9.69743767300253 12.1195740331817
13.7144362028343 -5.33668474179038 0.0952809453345201
19.0047423347887 10.5498992493283 -1.51093539663265
19.1975802694164 -0.621717405065782 -3.6991448430622
173.256198111045 26.9698962471672 -21.2075199489574
190.401296253002 -1.69101928765425 16.2391677920479
-233.230475821191 -23.2380361595518 6.68422342363443
-127.634222059219 10.9403493636397 6.95861747428381
47.8749343292144 11.9479378272456 0.794538063842264
-92.4503930595057 21.5989738508669 5.74982367099356
-10.9275435481862 -8.15579787823951 7.46153259558995
113.614254587858 -13.8070954331097 -4.48039358138759
-210.049709199854 13.5944181553283 -16.7419342360406
-65.1105248372695 -1.49262289529297 -2.75982119328993
-209.346993100405 -4.3341201184534 12.7380376312292
-209.820356365896 8.67267278036624 -2.55912526878162
170.342479102594 -9.33837085531029 -34.5453604208604
166.960100692332 -19.8930474420791 -26.6065715449033
36.5300519011608 14.1769838373295 3.49207704522646
-114.264424765421 17.8976143181696 -15.1187590005203
196.206447835488 18.8820431440866 -6.69858159413818
139.57766028249 -2.91166210369303 -7.67004949201816
206.423549691646 -22.9806873265986 -18.4751359177161
-37.0969807211931 20.4304530931392 4.73601132095522
156.245987145175 -20.945270311672 12.9347127565802
-39.7006404372129 5.5296702490385 16.2440698265704
156.891655433502 -23.2989600544272 -15.4572380560366
90.7440017133726 4.59891711892767 -3.70128011754528
-172.708222314762 27.6744694653397 -3.43378397738466
-16.2841045091129 12.4955782570095 -2.93196767229425
167.209598250687 -29.5731083838844 -25.8110718097237
-204.922483866647 18.2221895801148 11.9908973822032
183.114045188036 30.3208826424024 11.1616563727074
115.97832401252 11.790244138263 16.2238870652045
54.7713821555985 4.8395988520436 -3.55740862841233
167.7052793238 -6.69746909038232 -22.3685584626447
-130.755789575976 0.831087881911961 4.52098606359337
-195.255868794579 20.6732193280115 -26.5792056407049
163.151980755418 -7.25368973103406 17.8803476294169
-212.769966819247 -39.9342309334385 23.1417252123393
-119.841053899205 10.8163769919718 7.91082948629595
-63.0480141958215 21.4586901055843 6.9694554330425
-44.1680278994292 10.0376168380687 15.9102764394835
-115.507469462269 22.3122453224984 2.78274597608256
-190.459775274626 4.18450081072406 11.3365914221967
25.7738497460638 -11.9878362448694 11.4903474641233
79.3010861328658 -2.8558737993215 21.3579652166147
187.368107340016 -10.7090417412345 16.4941553714825
40.6079663144997 13.4859218201789 15.6276960275983
-212.590048654052 -24.7256118200927 -14.8174448525299
166.461010641358 31.6343349049058 -13.7452312760702
162.807990569259 -32.3302900155645 -11.6930253986245
-198.467234634381 -40.7158351421455 -1.76546069812229
197.078970878082 -20.3059964414013 11.2163586662568
162.620101923415 27.228376219125 9.44271177811469
59.4713556426785 -11.4497085458952 17.3713018367905
-187.865444260004 7.91458520706798 9.69614970241087
-214.204280390591 16.3761116353478 8.17076955838824
11.6638042267816 13.8380301979646 16.1435829851553
171.731516868915 -9.2039194009768 20.7302308512872
-27.747146133778 -6.36942628996385 8.22597774660057
-92.502634104073 0.391970300512195 -8.69218632282055
-75.8213113053807 15.9140575636761 11.8358636957692
171.844206953324 -0.212590769297632 -15.5065331459302
203.610744168671 -27.5988330219656 -19.4094450523017
179.123210844418 7.65970600259203 -11.9736675903712
158.042685858 -2.06287911579005 25.9750110997108
-85.5272194301937 -1.86646844350708 -1.74743644403408
-2.85327414060075 14.6677535224708 15.3775680826613
-231.299188179725 -29.9752972725308 15.5007595654262
152.725378663496 -25.7030352128176 7.10780883685996
199.971605669142 -6.30537991042733 -25.7836330596088
135.040598563095 -2.95417861932699 21.6995716068154
31.2846624570098 -9.70209120711404 1.90949278814601
166.655221614057 18.1121504225083 -17.0499833233591
-78.7274701604649 22.9512531854568 2.93743148086737
46.5654216554057 5.51058587520189 20.7514389877142
-226.964960023453 -41.5358473511581 11.3293102308995
168.576172520586 -18.1693699219845 -30.4255632777392
-212.096290595446 29.5299787933708 -6.63246456336334
196.492078962988 -7.37554000370792 3.75485327937253
-43.0283608881721 -4.98946601233028 4.89967179122592
-195.433215817423 -36.5012964911201 -1.85891693154091
0.375015071833479 -1.42464976647287 -3.04181941945474
180.536680482214 -31.3713054978273 7.5052869266786
-132.929056110252 -1.15930307957915 3.11612001852492
111.37522317408 -6.83966350433363 20.1034535128138
-183.259100209487 29.3331867541751 -19.1902237470509
163.39275558985 16.6656846973648 -11.6752677539144
185.089073064305 34.9232625548969 -4.22863890352589
95.327725415902 6.98466046336075 20.9824900604077
-37.6722606600584 4.19947747547046 16.149678905692
73.9839299676518 0.319570004351442 21.7904639687484
124.241178205661 -21.3740584022465 -0.065457680657396
171.209521756136 8.3475288315423 -13.9538229510849
94.1055061093585 -15.3688849104035 -0.930610179656609
-23.8157492041535 1.88421698512881 -6.05131038334718
38.3878505515135 15.6052811353894 8.9390029844268
145.088292836256 -21.2905114815391 -9.25399567645666
187.101833008754 -2.0469740174774 22.0129506790212
-97.1002309208402 20.9690491241264 6.13875040986986
166.658467818519 -17.8759320849074 -25.8199746352324
193.997597183183 10.3710725058761 23.3777793727587
158.381111934084 10.8679973091716 -8.50993985774363
-210.081030457599 3.46793908112097 6.16771768741612
-134.685567417737 15.1882888025364 5.56992732248594
-207.791014211268 -45.508577171057 4.98891704529452
125.231522870309 9.07481589947679 20.0384752190064
-53.3196429844755 19.331539398508 10.6372938412129
-152.264282484703 -6.91078244611647 -6.58393757848175
168.366441562736 -9.15167018636148 -31.5551305321889
109.277330020305 1.64032157608452 22.4530434758525
190.007142311127 -8.59307017145006 -39.4877515230944
182.949550169063 -9.19669879132861 -41.199123157415
-50.1326513238918 13.1974807311915 14.7900842975295
-206.266584401899 -38.051270475932 -11.0774348017678
-224.858203033264 -31.7888281522658 -9.70690358239517
-191.362066222112 -22.7392198133938 6.00375377616265
151.645948042061 -3.98008909068957 21.3602696889903
-215.929994360891 -8.33726455307759 3.60288977573974
54.3478880049325 10.9456618067071 18.2262339333034
94.9484433680675 8.27477977500276 -3.0445203077762
-193.951013579989 4.76474342577454 -21.2114498543572
162.190807333199 29.346538447615 3.50815555651735
-209.768467103499 30.1285375647448 -13.7197543301961
-220.244253058814 15.1826215727424 -14.7528624195122
196.840265588325 -26.8265801562598 6.0284732482497
-16.7548353652952 -5.05760151325297 0.988388727405449
-202.209498405481 24.780756304449 7.29721791020908
183.438037440527 5.66336955073402 33.2229909981425
-204.520563558083 6.48095748946669 -9.2893123842627
25.0119339409108 8.38154339553765 -3.14398622927401
-213.786378909166 -9.55599732676657 19.3507243621762
125.83357115908 1.01667282210184 22.8837465149569
155.514264015192 -30.1812800983083 -2.55180133909878
-37.5324989955466 1.54589437268843 15.2742319201983
167.81522586128 -3.11912614028549 -17.0804438950894
25.6010382021961 -4.09700831332659 -1.04199831802953
-217.224608457551 -8.06034565046754 12.5204517062935
197.623437001969 33.7393769854383 -1.34179449281372
-80.9261369700582 -2.38448227459657 0.74082467175831
-189.899538914382 34.7641419303024 -1.67315727210241
195.512055556443 -22.3526809903643 11.8555536447313
188.406257725909 32.5411877994173 -19.2620999535206
176.021553761135 -38.1422754491949 -13.2532918360415
-208.008779066701 2.63408222842621 -5.61821649792698
161.977326003916 -6.0684499274624 18.0292311347821
166.816173435056 -9.24365577289924 -23.5107285859582
111.505197257254 -8.15480673803195 -5.02440289799598
178.126557736865 -32.0648986987578 6.72573867034616
189.705205255732 -19.8233094891687 17.3088100332119
-109.236047379337 2.34897140831363 7.04601675323968
194.363134320348 14.2946829552283 23.2891160811451
-56.0549453461985 8.86620550420478 -9.9729647583306
148.392927128864 -7.21277258988046 18.4684907364988
189.450239247553 -5.07764430608964 -8.09224421452693
-156.8760026021 26.0081234541185 -14.3599164729362
7.90743648984949 -3.57266905134351 17.6877266516199
183.452410582674 -37.7707502771879 -16.348829789153
160.336022159472 27.9484469703623 2.30950751077573
-178.648483413024 -0.739540185452807 -23.8406282730038
185.103632682454 13.7653121074924 -15.3156355922533
-212.317386369138 29.0271725048093 -1.49503379242465
145.072349316304 19.5369792817698 9.19730319240807
-207.290878238593 -45.524447016637 2.09636583537218
-207.372825951281 -11.0587009900487 -10.8186005087763
-227.053486943425 -19.506684564915 20.1866064243959
190.906855289948 -14.2907423918692 -41.5153780232462
97.136400738207 14.9373980663551 4.86279201011544
38.8480388409319 7.84575504281713 -3.21892400325895
135.807098988984 -23.4901731354669 5.37528420200781
-114.325937187302 17.9212920774564 6.85612033339424
190.957031892512 -34.302124214987 -12.811620802861
-201.137114321033 -38.3252775002891 20.7384187138813
-87.6373707979301 6.65283945202944 11.3602339349528
149.922476300775 -6.0697436226554 18.6121742657266
164.350250457113 10.9206400098855 31.425500005476
189.198539843986 -2.47185057484142 -4.17585813531409
164.341282909561 25.8601935039583 -13.1414504578632
-209.959044178353 -38.5019436605229 23.9852126051101
173.031669085406 -28.0985406523197 11.5628759024972
195.272374213412 -21.2259022242978 12.9719431693271
68.4486763251037 -16.934239272353 6.58095124271705
170.823547121886 10.7600709788596 33.0623458699106
157.57003082828 -6.09712776080601 -12.4209795046217
-90.4479494911552 23.4155385921397 -4.76733600170363
-227.241535620508 -10.9282903005615 10.0912469692759
-192.568257950525 14.6433277558496 -28.8227286361818
171.164224806296 3.20052804809832 35.4732053848539
23.0691873174596 -7.69207778076165 16.8169740748406
-172.65998552908 29.6587725605528 -6.33641261481815
63.5932609211178 14.5832543590392 6.13999767355694
168.730770120624 4.12580904102373 35.0655930515217
196.708985500755 -26.0453017068503 7.37064593596151
152.473573238947 -6.06694823227679 -11.0888632176878
192.211360758057 -6.2696938828193 -36.6046328567128
193.218897933163 -28.5797646569509 5.82251434588876
-131.062832636703 -2.81347731006722 0.453185115997322
-99.9085449434735 20.8301313369815 6.03136735734374
190.82258821236 16.9010515082638 -15.2031648324993
46.1309095013242 -0.166778013760603 -3.63464447946875
-174.22612467157 -8.15646470739686 5.07192095512326
-223.077084402106 -11.1694937512726 -1.23929051925995
120.518608966247 -6.46321247953884 -5.89991372093289
-165.245016047359 -7.80851827313123 1.07851495720573
-109.810834201145 -0.911871407086766 3.95665473781841
-208.896754933395 15.1975124663848 -11.0753195899424
181.977365173563 -0.239793164150455 -7.36246416880613
123.911790608733 12.7666582042367 15.3383978188339
-10.7619305556026 17.599898324934 12.07337723586
198.627181664565 27.7819163601092 -4.75371505494775
-41.5898320866229 20.7334133178604 7.22045288171699
-147.22361432431 -2.55774099556035 -17.642237288156
195.757832991846 33.5189624163538 2.49556784579525
-21.6943372761059 -5.04326793080985 12.9080358308212
-218.32108890258 -31.6555501715534 26.2518586451337
-211.505349360184 -41.8777447770854 21.3431973071819
-225.591463693346 -18.1598740090067 -7.70017300561685
172.317194588633 -22.1265607739909 -36.2837911325316
-220.122957070519 -43.7560859312064 -4.08444422708914
-100.121130329906 19.239780706481 -12.7822725221059
-202.818329064307 -12.0612352877601 19.2535903514705
-48.4068543563224 14.909087231185 14.2035164761517
-194.555705959437 10.4246095479761 -27.7813977723317
-7.72621359133178 1.47524486352649 -5.47514370261762
53.0363563278808 -4.69952325390655 -1.84242598282814
-79.0281916838715 7.03949381335729 12.4667104893519
156.103604111796 -0.402660778912618 26.3933749704842
13.0848937455847 -9.12740421467356 14.1284419255153
-180.339034760075 -12.1612426680217 -11.4447014288934
85.7227055959735 -1.05953687416617 -3.71244993496734
-89.9019244793285 21.4271463346756 6.16337956826513
84.2221146778662 1.49082572544685 -3.75255763096097
-133.876129347986 -4.06875931668808 -4.89223332588844
-139.370329857922 20.0450627815928 3.60508634868193
-137.721409134767 6.89885171491368 -19.0524881570271
85.4685068548389 -8.62065209669304 19.5789298439608
202.528673950653 -26.1251333063157 -2.34062408144621
188.112127337615 25.7414989653128 -20.4751745766945
-97.0314233118109 3.21754161265485 8.94421138665012
43.2270535410102 5.12644581398346 -3.8107757687949
-126.050502149145 -0.241506661151155 -12.5486088468649
-88.608859781206 23.4025922410633 -3.81750236477983
-202.667433076189 7.8441658451656 -12.0372781931657
-181.36261000037 13.3508500269791 6.67110032178731
154.092921580426 -16.7973318057405 -14.7247410651162
-209.446634925567 1.40978728295516 -3.43691099927284
-205.782728772324 30.3023888842082 -16.0102179545786
187.097173612263 -36.019547023611 -11.3017896061721
-217.089636694968 13.9985130515858 -12.4610600247258
-225.227167846947 -40.2136275095678 -4.08523948365348
-115.663595118519 -2.58380939163572 -0.876406568016398
-187.776364873349 14.1771054730061 -28.546224947851
-6.50046089608454 8.6616882263998 -5.23760441518602
-218.986805782038 -43.4118029004552 17.6390187160814
-165.88519259222 -1.78657778740304 5.91477122028754
193.878187653281 31.2890007477723 6.0484445748726
170.671717902303 17.6566507537568 27.8715110347616
187.573123026617 -35.0125189772179 -6.18894836357491
-142.257540889361 1.01548056481367 4.53823521599208
-202.552147303108 -44.0229586078413 -1.31313721360861
61.9696477306259 11.0720729896432 17.9498200187621
145.642040148416 -6.96166438996479 -9.73232731495898
147.239498502117 -14.3619994054624 -11.7875278091192
-2.03691703984366 1.5416179666699 18.6384046709806
170.724168663482 -0.431808620390091 33.0064881714891
-197.078621460748 -2.46479998705945 12.4519945828353
165.048187051931 29.8192167351134 -12.3329715937817
-214.283962618882 13.2703304115491 -21.0442370883539
160.704212256707 -7.65015062249062 -14.3215513000275
190.074143313303 15.1652674902189 26.9683810527743
-75.3290606902571 6.32159552717036 12.750137908839
168.513956541008 -25.0846141982629 -28.2431069651789
191.620077439397 -21.6119300157972 15.9652860034023
-116.093610495429 -2.10883407941038 1.45031789798845
-206.914510963966 -0.30643612875059 11.2435172259261
62.3018070300115 -0.752585697421891 -3.32467862150468
199.843304164382 -9.14480686850644 0.00652756108351153
-191.173849992181 -21.1283609463962 8.48979205558368
141.663072286988 -23.9306771591748 6.39589325735885
161.511813593493 -25.0784270859946 -19.7127405685435
-124.491709857188 4.51656095221806 6.41834152445844
194.925293152571 -4.06707359032412 -2.09769980407497
13.1413075285074 -1.27200515021841 -3.30342178339568
172.718317457138 -35.4918798797593 -3.35346829425231
-205.028208755021 22.5463708138357 -24.0332649823215
-158.659477635147 16.2150241279332 4.06541183432233
-213.787193891496 18.4820174107654 8.59455341442105
142.908814046228 -11.0543681296418 -10.0954255225958
176.232039121297 25.3778200519006 18.9743646794635
151.858203957142 0.694921278576284 25.6003363116804
-202.627671320529 -20.1889090149497 -11.2573781193682
-123.792839454491 2.14189606284903 -14.2268560463743
175.711486683193 17.4176463051313 28.0954836273024
-197.536006057248 7.48152138672755 -24.020534526088
142.775766596804 -25.3101680313941 2.7962185809208
175.219229918353 -13.7611109513701 -40.7790214234737
-163.03272046383 8.78383546752706 4.70511125653089
76.0107670658768 -9.09323157152176 -2.03920462038886
155.891991170262 10.1366030787717 -7.78574994028807
-102.362630784406 23.2969126170421 -9.8846742413555
-22.2862131339576 -2.49219848052662 14.9005426249593
165.71509737578 -19.4739260917442 -25.3967495679448
-27.2271921063495 -2.00772327730625 14.5920737274635
-112.444210988401 9.2410615149884 -15.5445355546297
-54.8143892427442 -3.82399745857797 7.23913201567508
82.8563505906433 -2.33211153719539 21.5750557850402
166.657220839844 13.3531810862653 -13.4605076808886
174.43553208638 -32.357091916896 5.97395441759274
175.52295528534 -18.0785981856893 -41.6958595275819
86.5529695622424 6.72365079081172 21.0488923453653
-170.216342099747 12.1179643330133 4.93681945898686
-20.7405542587958 -1.49874648434294 -3.0419680915891
161.000773966634 22.8386939568797 -8.84081521403368
182.543058869604 -32.8850681123526 -25.6393685674819
48.161943936004 -14.9480919056668 8.98446374825382
198.006695432379 24.6792494374959 9.38358273734914
165.992978437823 -9.37762990819322 16.6143085236956
-35.5273335900114 14.12563761002 15.1578530768778
41.8747933827768 12.6877875451056 1.58988205412522
4.24327019914448 7.91207739603511 18.8927839744684
-192.620078965972 -10.8628824013571 -11.5744642042065
47.1109190716941 4.55127940654884 -3.73875230472704
120.81640094067 14.8498238665495 10.9053009501482
192.13286562047 -11.4988516797461 -39.9583693219533
-45.7261964699009 14.4078503437852 -5.79408092584638
155.221983807492 -15.3624031604788 -15.2663046468956
-140.998020965791 25.7406315563286 -9.41098946003326
24.4374495740415 13.9671387687143 15.7185902483356
2.8865275166382 -7.51673702718242 14.2012518994223
204.934227094242 -26.8310060961677 -16.332894046945
-166.227906214893 3.28647001357972 5.28055497220591
-203.843134183661 11.1179205500265 12.7124674853545
-229.071932081289 -32.4733207773264 18.3163651332873
-33.1291659778738 19.9037493838035 3.76690028991686
50.2198220213712 -11.5560985053554 16.4305396937561
-95.0063703522585 19.78293036992 7.47154478455128
73.2946939394782 -1.44563068160912 21.5430473055016
-92.5297752087573 -1.634453218835 -3.2142189062121
-217.324371881935 15.9087539830506 -9.05465170452155
205.120024987996 -13.7399401011503 -21.3006516139547
-227.687621353024 -31.6084534458053 -7.05658242829247
-191.001574767734 9.12770835312999 -27.9370701358056
0.122307050293214 -3.08473259581936 17.1177549247529
101.589137776245 3.1742392300811 22.2675969213847
146.140768417497 0.63476753259521 -7.83479633496981
186.347037215989 -3.38412124541373 -28.7264503804737
-217.245118272665 -45.07790444134 14.4912298620943
138.998742495164 17.9161799372121 9.51671376497799
101.069738695066 8.45492747876464 19.9970625570545
147.868877775346 11.9699562734375 22.3231018320486
87.8323637339522 12.5920691148429 -0.315303998139648
-120.92530805451 1.07418092869213 5.11299001416316
185.418733046163 10.6642245098255 32.513465797085
-116.875119909634 23.7311110981197 -11.8802792084933
-110.242580275646 0.632399985133147 -11.0742744535771
-105.04672150787 6.79368721166821 -13.7720681306026
134.737616627651 -20.8616852967999 -5.01346240152037
205.53975594463 -15.7051018198714 -21.7603845253987
167.854127398954 -5.30423149819316 -24.5651124427667
8.40082744438958 -7.83813283740337 14.784942018832
-219.48666638496 -8.64834500578036 12.6909434026183
183.645795252578 28.4289067218948 -21.8814313194669
170.400868919664 22.5509430850057 22.3624391519173
149.38857961859 14.4081831510897 -5.96975399183179
-214.438783769281 14.3584301377642 -22.5277540815696
-208.557156469166 31.8168294068838 -0.772230062901189
52.6102807423276 13.5969361063617 14.7831867527706
-33.86485143909 19.0434062753499 1.11184337750688
-106.334599563743 10.3390603410913 -15.1338168058512
-96.8643838644957 -0.997573879069466 -6.13403789437887
-210.303798196735 -45.1141465659435 16.5665793395085
60.5217252933072 14.5499823032398 11.2131406991631
136.698063063452 -17.7201241798789 -7.83606073051198
-66.6556808630047 8.30294396923043 14.0427994874329
151.107616828239 12.2065273378999 -6.65218560236851
181.701572364988 30.9278967841991 11.1062267453922
-224.006135711429 -38.2519115543933 19.8303170902841
-231.540523484678 -22.8869788847717 -1.63961137092658
-176.469916573318 -6.45365216300797 -22.4512316209317
-84.1009571704074 10.6652922562865 -12.8767155720634
-182.111164465493 32.6536121453488 -12.7874857511114
125.142009312605 -5.08703656191209 -6.27591507026796
27.842746873375 -12.0638586741394 11.9374750298361
-14.247731047175 3.6318676472015 -6.42035003258343
-96.5700399891603 23.8521223701165 -0.890487330261028
-172.375816612355 24.6515298051331 -20.552417659085
74.3496778346428 -1.24591129530851 -3.38209605700036
9.15364445541146 -2.94397599236242 -1.54748646104665
164.490224889878 27.8341533776913 -12.466566150695
-198.263595559043 -29.9847936638645 -6.6890772552003
178.254097445044 9.72121609943785 -13.6772602343575
-217.742400585113 24.9251816385034 -10.638806279411
-98.1455959447623 23.8151999513741 -6.25546158683293
120.998084470802 12.0706727202164 16.1181425763521
162.167368197638 10.0003321242346 -9.96176634523622
-84.6524031896467 23.5132494646801 -0.0963957327349388
-170.777410852133 27.7005167728874 -3.19824729293761
153.730002045316 -6.06455680041489 19.6661212188995
193.468500155848 -15.3314891113548 -40.5542903691411
-217.878429548899 -27.997959796342 27.0812274942903
-57.8256929182638 11.0945197706144 -10.3085779158488
-191.587047948939 -10.6626226325027 11.0103968906323
-143.939470138671 -4.79758240047894 -1.6088676430488
-201.641839559457 8.37289002481873 -21.752422316361
-96.1502336061396 8.45138717370521 -13.4303431848844
205.647937232195 -25.9219875610824 -14.9512935567716
-224.088827664156 -23.4746844760313 23.7750086390093
167.554174397754 3.42333682771536 -13.218520682801
-187.002531122377 2.47929667044042 -22.759645337771
-192.055833747843 11.0846739058353 11.3098540239029
148.516047843656 -21.6093299939993 11.3244090350742
185.128041806085 5.56068207188807 -6.48342907919568
-199.205798800182 -30.006671882645 -9.54546243566385
33.8627478996041 15.0068352913038 4.84015715904536
-154.431835295371 -6.68409712932749 -1.67539569564869
198.465768984296 -20.7950059257786 8.56255926546554
-128.34319847196 -2.47040329000165 0.979351638971494
1.53613107096193 17.5718032089706 10.3028841534816
16.849223622353 2.57714546382524 -5.0990893339083
93.2004090680537 -15.7328708796388 15.371942787507
166.763195212954 10.5417110994805 -11.9350417731668
17.9633580653004 -10.2060623795254 4.06338434075323
-113.032600695798 1.15831008017314 5.71353201112385
65.4671904117644 -2.03914730100003 21.3324154718457
-157.960681022234 2.72129250049086 -24.0479691361421
-143.131895172067 3.66384756210557 -19.619459927019
-160.754240382827 26.9306832178688 -5.32692935773134
15.0835715968605 -11.2806697296516 9.08494285654244
53.4826678787763 12.4940406332576 16.5230298078623
49.6769497147217 14.8452999237473 11.5784750164481
187.944823758881 12.3412976768954 30.5022623323636
-98.1311195951246 -1.98558042841855 -2.10540828599304
-152.529040887826 13.9907943149542 -23.0266088158253
194.726870980234 35.8320203503461 -3.10446669997902
155.055976918493 -23.1975015781219 -14.0886292474491
-126.791343855608 25.1828959222773 -6.44904199771187
86.922986747763 14.658142059929 5.42766593202447
191.649022154247 3.10482702569383 -0.6537328950217
-82.3063434654672 1.57650022426084 9.80886629319257
113.67207090493 -5.81631309348709 20.4639558519662
2.55033848794513 15.0991592300975 15.0071616308537
111.795232213462 7.77158384459232 -3.6072274659882
111.610911608355 -4.46521712295516 -4.98001963681288
119.442774945832 9.21606547376415 -3.56592825643908
155.775951390273 24.9196747345346 3.11068953465828
123.317500617021 -21.825899115223 7.81646663728609
-49.8310507926623 16.2380925429209 -5.26614663324974
-195.299218344414 27.3045607096955 6.01263639475622
-19.7154812864226 -4.92035724168106 1.04299127627181
163.768573683121 2.84132888978166 -11.7028206520314
-181.990213676062 5.71941507212967 7.83337999550541
5.12169277468255 17.4089778866202 10.1896051452998
71.4837296273369 -17.024307963858 5.6089451309113
170.492476676094 34.1789060148492 -0.858746410399087
-182.25711721883 24.289406595363 4.21481252212447
121.383292768526 -21.5932374707206 1.78611347183086
99.7880486231405 -11.094870838133 18.3359481188385
1.26689540971742 16.1562565793909 2.82901335878696
-213.783773363704 -20.1149936945548 27.0549981437265
-211.907711985683 11.7938600099553 0.55663720990537
169.912073173825 3.3441897930181 -13.5708361096867
-149.167952714568 -5.83311569631438 -2.31131397114903
-212.479437492196 14.493700512709 -13.4996643582485
-76.2280670616295 22.6664580232799 -1.97194925015383
163.422805057943 -15.8469240816677 -20.3223708258735
156.826180404611 23.3142193806141 -4.75926197707661
4.26129081238718 -8.64306415306881 13.0995206644696
89.2031501817652 14.4539743145875 3.75797396531752
179.643641186426 -32.3972346880015 -27.8497367514358
-86.4327702872018 6.64879330617358 -12.0300778401062
-219.845394793478 14.0027618698864 -19.9683547049869
150.853096971052 20.3198742194173 -3.31726930268278
-172.111720070947 15.0316390561384 4.74302390106773
-139.222527153009 14.702218306796 -20.5981837330504
191.956089446953 35.846638787311 -2.22754420670187
164.399336899333 -16.2000921904183 -21.633363903189
-195.579776365191 5.36662233817647 -21.4138295506637
164.726268474757 -13.0999790125448 15.6412012499
-161.501605935121 -13.2834097171145 -13.5760279005006
-204.546223992174 -1.67703033089337 -11.2288837106563
156.321291122519 -11.6355176152657 16.1449319958856
101.731310974118 -18.0140978192173 13.349879119889
-222.068596834242 -11.4530646846018 2.610869610802
134.160609884731 18.0081038507036 1.65686458357375
-86.7152662987478 0.0872089838001052 7.6217896018107
108.244370236764 7.90174225919064 20.546253699575
-30.6415325071811 14.0941038120216 15.3712139188445
188.747391041341 32.5755754440321 3.3738375528807
154.72459110825 -16.443914554134 14.7246918464113
-176.362680120892 -7.28776527331918 6.23508226560182
-151.260141494879 -5.55517611555375 -0.490160383366674
31.5069025620658 13.5941918002612 15.9741826864062
-194.255198622885 27.827005566479 -21.5138150650986
-209.302426584081 -45.0312962495217 7.37911182275259
-129.010188377872 16.2127603983248 -18.0066655418927
-218.597634894373 14.1252587637989 -21.7967366901014
0.246161453358585 -8.07650938475576 3.49085290382696
-14.9827069047884 -0.216133751062703 -4.448180760105
178.761282928304 -36.926115197458 -6.70680612673386
-129.042793862575 13.1999356562802 6.51505045307082
110.029760789267 1.78458910071928 -4.47517916307713
-206.4279124369 4.39834015517729 9.40689907914611
199.593545884404 -18.3730300268973 5.24436493139499
-149.326080010807 23.0981461209126 1.03958484436468
-215.864552264952 -42.3857357708525 8.09081656641186
13.9235145253534 -2.51371138339237 -2.0471701701533
-199.777645028016 -10.6844414811966 -11.3071427587803
177.854308730985 -5.93338694962078 -22.2375972845645
185.912178773532 -35.5967155899967 -7.00881435611541
-166.277797061664 -16.7749825418605 -17.4102132864664
-122.285785515835 -2.36994400147961 -8.1467534946319
176.61200477554 -26.2264158211668 -35.0713242594483
-109.532182436175 4.02439317229164 -13.3392179476893
38.3483798586952 2.6265212888436 20.7498794660644
-68.1173037535335 9.96551528825763 -11.3787441835589
100.787802473295 -15.8343322018717 15.4068817268179
163.465149810518 29.9908834346601 5.22175711848662
-226.930021522956 -10.6652239644421 4.15194304674543
176.84713760747 -33.8650986895429 2.90937731065958
-210.147835776321 -20.965135804662 27.399236141211
-78.0680756575721 5.94174560926159 -11.1420505570057
-213.685856051548 -44.8600316741637 -2.53939694106742
174.729938066113 -10.8692907751013 -39.3332102103789
116.345367161943 2.99729478198357 22.6126442131632
-213.884278755875 15.0211258975755 1.86237735515224
121.308396932963 12.0520452892706 -2.70102935175211
65.2832407826779 13.894123326425 3.68296148894052
203.581485026469 -13.4689090448718 -26.8005672237436
165.015321538656 27.121237817103 12.6871743675399
199.393114514461 -19.3461366270484 -36.2326982905863
-102.218054747096 2.61944832800917 -11.7815045573003
21.3942514296829 9.3246951488228 -2.41886562305247
-192.867450130744 -22.7209824007431 12.6026921578241
-35.3037413560197 3.7837653985123 16.2519236367025
-200.346191561014 -24.4784284445585 -10.1122365707688
-47.4094350374467 20.7736340053458 8.1045852349447
-102.128193604035 1.46369343531183 7.11378970605326
-19.0157957798732 17.8834549446892 12.0528565482555
-193.918534070244 31.7483181549585 1.39956713168981
202.772274766542 -27.5896619235727 -4.35728736585702
-188.351081513535 23.7830487468402 -24.4532027474966
-39.8474995369897 -4.10365994480099 1.26675862615578
45.258973042218 14.3653215696628 13.6370792879548
169.415205920571 33.935543984424 -10.9103059946903
192.404227583927 2.50483334179273 16.4997222872663
195.739866952676 9.51978485884155 4.28264682406311
-24.1675520197588 10.0635888032233 17.1100744940042
86.6314436101892 -10.9253673166708 18.5398422389545
-148.45923328821 11.4457524636832 -22.2276071654587
57.0809211678278 -5.80314592311868 -1.60925283237553
66.5490710046332 -0.317330151378473 21.5890411274634
167.888549939592 2.34339801963545 34.2363766277652
-65.9186531046847 8.5938805234079 -10.8753667632652
46.8075136886952 14.5129243833476 4.75476324057464
-219.34220802852 22.6243294625351 -8.84202255524932
192.774838470467 34.4483987190093 -15.2920568099245
-224.141296603597 -13.268180637309 -5.79315208762756
-169.403114184253 1.01142380673722 -26.196452201469
143.757186058888 0.280609704639703 23.9159060846873
-144.615149341056 -3.92785912657632 -13.2909798601739
175.053193876961 18.9807396446128 26.6893945285127
166.424568508859 -8.44071408893971 -26.9924951703849
6.93007309098505 11.5212340308328 17.6782079778357
200.5191390652 -10.9005105153203 1.67175024386515
194.340359708095 -32.5006734418624 -11.7182917107721
-66.0090682170586 21.1002540076818 -2.99084123219117
88.1787817007858 14.3774383260664 9.93589783820447
198.380535636724 -5.1428555544365 -24.0017801287168
178.128924327674 -6.77835866166317 24.5382037680398
-204.154022198127 -11.0400099768208 19.1703784104101
-108.979579738644 -2.42967778690827 -1.52059767882453
25.3126214150398 -12.459074106274 8.85505870021931
-203.937422097403 -16.442408984913 -11.1918290640725
-110.395821292477 20.2888871598274 -13.5349678342571
83.2548512052325 11.500234186122 -1.23587399039193
-103.409837598779 15.9587755532909 -14.4648642789102
176.54720510672 -8.71809968820993 21.7596713848636
7.91159579158376 13.0952259906457 16.7600429917206
-81.3875302385374 3.78098722023559 -10.7143133296321
-233.257166061081 -24.5953161584473 3.93467005775634
127.119105694156 3.01942859797008 23.0480139357878
199.084562610654 27.6469981002746 -0.302398512964189
-4.46636306203413 16.6425969794404 2.64190020110263
-186.107415429724 34.8427090720964 -9.076769666962
-136.188748414431 23.0583991264725 1.10509334577681
-78.3503365927362 11.4839936617014 -12.5573544825264
-152.912834728658 -6.43601688584738 -17.0024909125644
-39.0030628744359 -5.37356627076504 4.98781522002091
193.107066002029 -8.06974985505914 10.4335821079772
33.4807327526295 13.6643330675381 15.8282829780089
-3.4248104223275 17.6579005542663 4.90633469732191
72.5972595430723 -17.6201997728259 9.14684078438323
191.630647885 -26.2790261966343 9.7375536444547
128.902359878454 -7.43034721071291 -6.96146275862996
203.548170921162 -12.1635273717096 -3.74174398515878
-36.9491838853393 16.5957720938369 13.5845968836528
6.0366268723485 9.95468206752215 18.367979862869
29.5468823868653 -7.00599899493974 0.416741298735025
66.3162814553336 -15.8563843477977 3.92917681615885
-231.781227403238 -32.409017511118 12.8260250018348
76.8264940325295 -2.0661471707305 -3.37780741257361
60.2860047612351 -14.7250631503022 3.27575885039929
205.800343214806 -22.3955259431009 -23.1391539403099
-37.0648885448416 8.28275420456563 -8.42157229667955
-179.908408007119 5.90251426061981 -26.8323284569301
-231.410597707393 -34.6631314587408 2.23992821634881
-181.229839377679 29.9224672400168 -17.9137921897624
165.657094684638 -34.8348884604765 -10.6353143823671
-220.73041354848 -45.1122508033655 1.65000346091615
-222.352584419858 -11.407185511541 3.80809058842454
-178.420524065998 -3.3520875376157 -21.8209320254841
-213.153153269425 -42.9899024868123 10.9041160498801
195.352717209176 -17.2478332868305 -39.6842863224128
-227.718441314964 -21.4697290743135 20.1241120255615
187.605809724085 35.4293741894006 -4.27231799521515
172.300617445555 -3.29866727527481 29.9446262944545
-66.30282307044 -2.5551909341862 7.44784217410891
174.281546280957 15.84464974767 -19.8785825023758
184.532810645861 14.6835541324332 -18.514778299129
-227.527952891022 -30.21396597202 20.7698599810743
-226.203198418204 -33.0955147877819 21.1638258162612
94.5711298695491 10.2617020394746 -2.36185437250077
-169.894695554061 11.6310547198991 -26.8174160842992
-221.875211970056 -9.43444005290911 8.77635819186351
161.053362517741 2.64079125324146 -10.8013949721202
-218.268388081566 22.4186122613706 -0.572831850099091
-165.380013374874 3.68677036010842 -25.9058573587124
-196.980324250996 -26.8830647196363 -5.41251603949198
91.7686943043421 -15.798246743386 -0.23862325127732
123.150880029123 -8.00837608556544 19.2255361460101
-142.302032930296 25.2984552440896 -12.5804212710887
-87.9933295454384 18.3025993902844 9.29064250662955
-127.591556177878 0.672053907127273 4.51234695737914
177.031548490885 -28.7350227038937 11.0611726806378
-227.664933378255 -14.4847910880763 -1.90547235909892
-0.983637373048141 -7.94636926832173 12.9812691747218
-35.374701186924 -1.31725441372916 -3.25464282297386
-112.452180025748 -0.134651444499867 4.64247768239291
-124.972242453136 9.15786942434162 -17.3741175994613
-199.395172951138 -4.93852131594791 -12.5054388057423
-221.068351646152 -11.3295582931537 3.91437290968289
-90.7311908397377 1.4571562403987 -9.7693271008331
170.15416144142 -36.3607558771899 -7.77600705536941
105.968383658934 -9.57497387007283 -4.38853219709268
-125.37054365862 23.6812567375062 0.123095574894905
-112.46820962418 -2.11476999087367 -5.60640605841735
206.325860508982 -23.7041242507176 -14.3229778439526
-141.119594784895 21.2126160326296 2.82158051818663
-182.36753102012 31.9804130575151 -1.15529654589581
113.768971999939 13.5076809513001 -1.34326418968591
-227.415754138612 -13.940586715124 15.1519259928848
56.8300096326189 4.65318602556233 21.1940661603909
137.385186234291 -9.80559938424914 -8.54730636040664
-197.524523226164 -17.4764565164212 -8.91736004521271
-154.389911589658 -7.6433600675988 -17.3135211506835
-206.892486554232 1.91335978234942 10.087974066378
-216.719795523603 25.3185547743981 -12.9105508773635
110.17217130659 -12.5645191209922 17.3595484505068
205.782229024226 -14.9786082417299 -13.285648675215
183.659215415096 17.2458050735976 27.311565734572
191.93722981476 -26.5477590024339 -34.6031173569417
185.521126844905 -36.8474055231623 -14.1849421375546
-193.310038705703 -13.5884826206063 11.2809228329943
-223.972978467778 -44.237747246815 11.7898314754102
142.191821356693 10.8843101810169 21.2993398607316
-156.654219860501 1.17897517591214 4.84924994962498
-36.1692565676613 -5.49317756506662 4.98476604500002
168.13389715586 18.5449144118606 26.5095471642925
175.042989465806 25.0937091966836 -21.8397986815118
170.173751540895 -19.5990039140534 -32.727150268154
-198.28394825611 -18.82758529289 -8.82834991173541
-216.112559294103 -34.1933640956696 -13.1532833861419
-99.034781023892 22.0319322022898 -10.8030751727362
-118.863165632869 1.59435865697018 5.56468809840171
-195.998250842431 -16.0386092593238 -9.07610387871117
-7.85495624352056 -3.2840034709545 16.0929875268685
140.365057055931 -0.0574590592754431 23.4564066376372
187.345998482584 6.72513726603458 30.5571269217681
183.087974832867 -6.46068000986687 -26.4170400433405
55.2957807149788 13.4770002822651 14.82959346206
-217.984918276464 12.9856346667278 -20.6711378661491
-199.220930008264 16.7190434733761 13.2836004544192
172.750671401086 3.32990684573659 35.4636350026613
163.29599373817 31.1991997272225 -1.3968112530998
-182.701791420888 3.0181493544489 -25.2505086479946
174.651605064693 2.10924671820575 -14.2780059788757
-185.70847217695 -5.04920828610169 -16.7581386621057
-196.816635720809 -38.1626989498439 -1.65303562626122
187.667450483212 33.4384665473272 0.933811909614841
40.3014829665156 5.40718181336747 20.5448501294775
-178.731586412924 29.0057328700684 -17.8604646813989
-127.997817382415 22.043488050411 2.65035080157668
-194.107374069269 12.7998223720938 -28.6003879226003
165.056802504524 -32.6988309744087 -15.0316018250025
184.404304484914 -33.4893254282071 -24.0865566463124
-58.9311897525592 18.2807072430242 -5.36680338793833
181.034064024762 15.0103947608953 -19.1678510562689
106.39699108628 6.7759333121739 -3.68982315262398
47.9641532625036 0.0964619246140952 -3.6461392296384
55.2814879153481 -9.92219240959528 18.1781896985061
-31.3960237325682 10.372476658034 16.6461019183525
-165.848885671148 -8.71557571510249 -1.14710392786867
194.730666032714 28.3403581284204 -14.4190195849753
197.280563329467 -29.1588010769303 -20.4862825459178
-198.351495503218 -38.3859852303654 18.0870986521967
-107.694954743358 24.4854242493701 -6.47977605019298
172.399102144215 10.2413636681305 33.5947420037685
-198.884187062925 34.5085601092293 -8.69599298060848
196.296374890639 23.0950016890435 -11.2660386893939
172.26695886499 -24.7742228978368 -33.1927215144906
195.047500899813 -31.5448240561737 -15.237262160004
161.994812817047 22.4623641062583 17.6592783805346
169.076759831069 -20.2499455977446 -28.3823524434142
-123.101706369017 11.0289994715022 -17.5208305350481
-177.479725540953 6.46248231709285 6.64275957582793
189.036882922918 12.3028597227297 -11.6827299249249
20.7260075159048 -8.38604437565003 1.87443551569077
117.053418343591 -7.46292401673687 19.6829631302955
-15.5779646639715 16.6393443928452 13.6422432372196
163.3200688389 -15.6227769648768 15.3409614973558
88.2978553806113 12.8531450568452 14.351166801792
-185.216258196511 0.891189936072356 9.05426768246643
198.769965942845 -9.57730999901483 2.84075015987161
-194.49772074532 -33.4409522618806 16.4610230876427
-224.702407284367 -9.6004828032598 11.2551943329983
154.815763632661 -12.3421745850496 15.98554181366
-172.559045467839 5.70452542070909 5.73449544921386
-9.29240116762691 4.30754945267018 18.4694903263319
122.040565057545 -14.8943339988336 15.7381347525732
155.527498795594 17.9839001465947 -7.03667012075557
-103.512289338213 0.341255424713875 5.84021330159768
50.1025446441555 14.7466835553372 5.75815481959262
-1.74412428100393 -8.85216942918546 10.9311486698075
151.039972781595 -27.0536497944517 -6.96312282081213
-226.667951950259 -42.5446522799156 2.64517590831942
186.268461042631 36.8616971054498 -17.9674261578518
166.479832841252 -26.6702186371467 11.0322901257237
-209.664092486669 -44.4585475822755 4.71971514087058
183.113382917742 27.2742967784665 15.3682457435783
-180.395768062316 -15.6484481103038 -5.65518046134315
-227.618029003238 -10.9902608930945 6.86897178489133
-212.186478798586 -43.1740487749452 19.6032592474608
186.646071316155 -34.8253511504642 -2.86088500899994
76.5669492594036 0.872686015577084 21.8662791660738
33.7487032363952 14.8499170871505 13.77813334063
161.568340016347 6.21011226962348 -9.82879112269678
118.393862463541 -5.44912063311952 20.5404505638174
197.072866228676 25.5854181759201 -10.1564181140278
62.3544618386904 -15.9697925464833 5.32175573795088
189.86720949637 28.1148567677133 11.01069542288
88.8974439481091 -18.6066178280084 11.3056889951768
153.547164141036 -7.63165188920262 18.4177715369632
-205.110504130939 -19.7044526701535 -12.2518243128729
-211.958423423708 23.0439611013027 8.01149476410377
19.75783553084 15.648647731306 13.2803026915357
152.688431991375 5.42966755999318 -7.8047833118567
-174.383766315981 23.8320822660231 2.50656794173763
155.295376691193 -29.486552844926 0.0926710152162481
-201.922988391672 -22.3512817744829 24.8122761028775
164.819661947897 9.47164008587569 -10.891446965004
-14.7190229470282 6.3885957486225 18.1590305753933
34.7812724673746 -11.0298809064802 2.64179899386185
177.591681794806 -21.1292144073888 16.4529452497569
-75.7571367103171 -1.20072112269181 7.89353740564234
158.86315099562 -31.3142183462092 -2.19394648150603
-163.301941925604 -3.54786748381443 -26.1965911128972
168.718189612699 -35.0679441699998 -15.6290616329532
146.561543180314 17.8043985458439 13.8909366740987
-214.04402778565 15.9468092858917 -5.43099990216036
-65.4528435022011 0.863606663670662 11.8898208621643
-88.5753235312303 16.3822958614843 10.3648407114285
44.7280628943055 -12.1515500798891 15.1285086402312
55.5067152981396 14.5858341020711 5.54216256094649
-183.997469216831 31.560604266805 -16.0766083132226
-6.68370905145337 -1.5064570285797 17.1585743823199
191.354575645032 1.52485550526415 18.0787085880421
-141.515967302361 12.3356598061193 -20.9716982215431
39.4133330275193 -13.8944113239495 9.81892771026757
-217.105326494589 -43.1149428442457 2.68958607313236
79.1086537690427 -13.88585145871 16.4988905535402
164.517398535358 20.4277960121208 -13.8311900647892
115.671598633603 -16.0627318651309 -3.73043881237527
157.712952891488 -4.53556455826361 -11.9269275682827
-124.270583117914 7.07455326438905 7.10534421218221
119.061359119145 15.762699206197 7.92085896329401
-187.278321688721 -15.1913334189138 -8.65573280172502
-192.514533636378 -32.6199882427351 4.2395882377998
170.690862980046 34.6812872289148 1.21205851154204
-181.568507714044 -7.96260166201194 7.45221569342539
163.624295712435 24.2593367287786 16.0327025183642
-164.85399001627 -7.55110009577246 -26.7662433790301
118.050502508802 4.81362264712909 22.3780545771881
-83.2747891086005 21.2338113994169 6.87862341411976
96.4383077180654 -1.54741590341011 21.8641565311417
43.1886243682439 -9.76644970846937 0.988062374966279
-48.6656476712408 18.3556131941432 -2.99535974367706
174.402700108616 35.3704130775964 -6.54819335247152
8.96494344046463 17.0919293704968 6.55327070813919
-55.2470139663427 -2.74839151545147 9.64542151941274
175.009879547165 14.1550941839566 31.0672743528863
173.904538021998 -36.8437642222991 -7.46169028779754
-230.524736821456 -16.9139818299398 1.0947654577599
181.247599182117 35.1992848920005 0.659189456209326
-215.039714636319 -42.5684935599123 -7.89392432981226
84.356869686671 10.0763389943983 -2.19470508009019
-188.944316427309 7.75084146748654 -27.3835355412554
186.011159084784 -24.2913170199012 14.9056474534166
