220.317406651026 -23.2950899346742 0.452468862237148
182.885422025883 -13.856296113062 -17.907988210524
115.769823816036 -10.0927446234827 -18.3446460943438
-136.654884630621 3.47154035081916 15.0971444482215
-124.703029660066 18.2369180166958 8.51624794799468
-1.38998751183935 12.7891134609168 -4.6424099927914
201.264859589152 22.2455401346656 35.9074654990888
-230.890296595372 -22.1034876919292 2.54153695332573
190.566119625756 -27.0455477468683 -10.7536249000369
-151.418738658389 -5.43878357531252 -3.66649135472665
-14.6775627362445 -5.13207532706965 -6.70723019706453
182.527198990343 -14.4195004736056 13.3085495415392
-210.963950522113 -29.2401265042909 16.3698468632726
-96.9108725812704 12.1786263582002 9.66179766768391
52.9757100694136 14.7181288751966 -12.3401751919769
209.065797600039 -3.60106338567289 -12.4007099013252
200.373118131114 -39.673398177769 8.37052186476356
-177.07916100639 -10.8118137987485 -2.22355563015368
207.828747119555 -3.1655047286489 9.70005134154018
-205.268963421872 8.59897912808194 -5.71865693853084
113.036882439563 -11.6108671072303 -16.8103267763776
-81.936705241492 4.35871713603652 -16.8374492528837
201.249202485551 30.0152089428082 9.25971090787191
-94.0511096144706 13.6000836164335 -12.5409854106195
190.85067675132 -36.637423601525 21.7716740397422
197.733518732723 -5.78295844822912 -21.2947831952208
219.010578494331 -14.7812499989208 14.6435434157574
186.223647465778 -36.9213332799608 2.92213548519959
-208.361497468317 -36.5628335649259 12.517104303447
118.806895784421 -3.34708123753382 -21.4404518470729
48.7457807322342 -1.98318025350356 -0.546594263912236
-211.71666907375 -25.0767044203262 -24.096766637292
-165.22895804018 2.64584816394079 -5.94850710091453
153.207594191883 8.59939854438231 -20.6044979994662
-223.559457250722 -32.1807948678599 -16.6903512264655
180.043958397578 28.222184649999 13.3214932768341
-202.009836626189 -3.80818692369793 12.6057962423315
134.959030122674 -8.16579609964922 -19.0802602590033
193.91370017464 -38.0200853600571 22.0890510955937
-8.20559893360833 -2.90991005365626 -1.72796846751585
22.5977703287615 0.751209651566388 -22.8123089584652
-145.651109084013 -1.82325804966634 15.9860373479944
-13.7564853107133 -1.70451512483166 1.35043463193534
-201.908483556803 27.0627071217621 18.7670035604847
-205.397655097392 -6.29118723152794 11.2490780842125
202.08061436915 -36.3338257396855 30.6665011866584
-162.544667438998 -16.8619315853067 16.610676780815
206.994047590084 -0.990532888349741 -12.2599822004026
212.512846205951 17.030884129181 8.32474651609471
150.238205898249 12.5788836856347 -19.9317782612071
65.3436358198559 14.8432379094225 -10.3521605107053
195.533048408569 28.5961032012538 -2.2340330907015
-131.924902177399 -3.85341425264154 -2.61648308568578
122.978097736928 -14.2641645885641 -12.573118676344
204.315033773064 6.78374815179104 -12.3145128922435
197.585542726121 10.9865639041904 -18.2438285962884
97.6040522234489 6.84909178041186 3.35984232857037
159.015545949009 -15.3791851632161 1.7738488821396
-95.3294864778546 11.0750292493552 10.5933667083361
-230.393236796165 -19.7887864560518 3.10466838889538
219.419010956554 -31.0942094921785 14.6261249499126
47.4230953299699 10.6182765521909 -20.7880505856448
25.609913789486 -1.05387432425947 1.41960131528378
-91.8990623177733 13.587775734238 7.84312725525933
14.3542480794548 13.2245897621229 -17.5812261432052
190.169818791892 -3.92908937827425 -21.4744185713548
-33.7836046984782 1.59729622288012 4.4891902576227
-194.579313106372 -24.0884045545234 4.82858744974621
-197.919040207187 -39.7841843992951 -2.12115201248104
-33.0243849240615 10.5572942402635 -19.3368275047317
-194.614172198829 -14.8638028627802 10.4042815921863
178.428387672417 12.3008428794574 -18.2721835535561
-163.872667928844 26.3407537403494 3.31997718005982
47.766205644016 14.3989883836566 -14.8025561405197
5.39927858268479 -4.17391400658313 -4.64236861721058
-115.297119701287 16.947118717579 8.58470190942688
215.900714692415 -21.4894201296048 26.3075524795276
-184.1996595831 -11.3366875251749 -5.80060079261571
-176.057319416762 -3.42462095953113 19.8376500429014
-16.9678917711306 1.95943785456997 -21.805819616718
-6.72847238009512 1.897214221932 3.79758072316056
-171.11823841905 -11.4213759009128 7.63504384124629
-53.444340082126 -0.79315802552979 -18.0662241272987
-146.077627645478 19.6230627332193 12.1884305401631
149.770156678199 15.3463016570511 -18.3780181641066
115.814038328546 7.51434466936038 -22.3937474836252
-149.353667862555 8.84802292917738 17.7609585910184
20.8491502895746 0.42430462503003 2.26583298832515
190.412407645774 23.6761354911057 35.1496022390961
102.567232598181 8.29253153294651 3.34650573508924
-133.019484723484 17.2204181735079 11.8984759232342
149.072073618662 8.74153305402133 -20.9667410092316
148.954090980814 -7.85539013459978 -18.7720344554978
118.394101968526 -2.21395346501344 1.33644981501435
-213.905936197049 22.076191361604 7.75853562128406
142.254942900276 -16.6175894543336 -7.42642579395642
-139.915123575778 12.2806795799204 17.6062853328273
88.5732422874425 15.3417539413981 -8.43311068339949
197.318912115042 20.1721991861206 -20.7934269581805
215.907678785652 -19.7322254108135 -7.76397913091396
186.905955190441 4.10096804080375 22.2124193818865
-28.1380255189471 14.868348785415 -14.8245601830573
189.261372563805 1.82619041003862 18.1227771576234
183.888623450374 6.2364687386183 25.1560733890942
-196.478425849634 10.3279630175826 26.1188502652156
172.013621675326 -11.054006240013 8.80692769205642
154.294168883969 -1.89009553970704 -20.1499771484893
-140.499613693935 13.6165216035333 -7.20134699216162
197.722774685666 -1.88429515129981 13.5920908933361
-67.4334929914286 -1.59026373603941 -15.2305682221614
171.265057176854 3.4571342044912 11.2766981137488
-135.785263072303 -6.00838018739315 1.01570346867857
185.564222065639 -7.40895463551305 -19.0209679107403
106.816605391417 6.74491183011524 4.1902410972335
-141.788869051915 -6.37782347526104 4.63032196195848
155.49919157629 4.23366209632455 -20.5715978615783
-136.265160705432 20.2825895795658 7.86325065086016
199.927059749271 -38.8465012435445 19.0785080788383
195.687824941862 -15.9781887476528 21.4907477798199
-225.93699939056 -28.5359400099367 -16.7052357211908
207.341882577447 0.949211205546689 -9.6802108796744
163.594619898463 -22.2362141696288 -5.92028995556526
76.913050166902 -1.58393344590459 -0.114794334268656
-134.550487116437 21.1363323393034 1.44856637080049
-197.651257415592 -15.6574580954457 -17.1145647773961
47.5235406482819 1.94142915226744 1.77552645190597
-175.619766812572 -11.437792788127 0.312634571880433
-60.3485131615263 16.8117939888923 -9.9051780678578
72.6015283300195 -4.20867700651371 -2.44303737541663
-206.907747104209 -34.7009998823341 13.3808192804852
192.409686619127 21.5786630496748 -21.8752101352007
130.141317263671 4.19123417342485 4.62840226001446
80.706693278356 4.71107821658545 -23.2428202580194
-204.831391132859 24.1800000929945 -3.64640984571443
-182.428664926363 -12.2492090929328 -4.07865892575512
154.864480111125 7.97961231119869 8.98600206328141
-19.2816972952805 -6.74339165597813 -11.1425318922196
51.185783128192 -6.75723073618399 -20.1234419343165
-174.367316875882 18.0988668610609 -5.26465784889062
195.059151012121 12.0429431264123 -19.5984190915138
178.37371525553 -30.3737368779591 2.16099999609235
-147.887030823881 22.184452628773 -0.143307258677164
-22.5819016894622 -5.48519295490522 -7.30108107136386
-172.828363165201 3.18850607486502 -6.80184445761486
208.88562447863 20.152996727956 29.087389981282
-20.9032476732635 14.6336458201911 -15.2439957919208
209.537168694508 5.77568414057838 1.77453699837783
208.212019863823 26.3031939473094 0.689549471677394
211.676215594447 -35.5676727012082 19.4782059292943
-196.389963010658 10.0551154494316 -11.4820498451354
180.119421148588 7.93806103205804 -19.4696356863143
-110.701622865879 13.4457732351157 -10.5879973333063
-157.556656379033 -2.03225103164871 20.1965704906733
207.370495467227 29.1031588368635 15.0393926095932
-178.64287101577 -13.0016741058792 6.44136488504351
9.87718108811385 -7.58936072488955 -16.5337931300788
-178.764236157055 33.9233556582637 5.32661980597828
169.804462696581 -23.2652694671429 -8.88895156938169
-193.51206654031 -26.753730559938 0.915274812121426
-152.332258491019 4.09348268804 18.321901679051
144.296852117443 -7.37666802650547 -19.129784340043
180.504820391436 3.37109810280402 -19.7454330466088
34.3795450174211 7.62275017602225 -0.780827488232812
-184.764646238613 -14.1300032451905 -4.31412569107421
-197.473638376211 -33.4004318269338 8.24890093703517
-90.4494585441781 1.43057728210152 -14.3157259955274
5.87185406083432 -2.83554919604457 -1.97910117282731
-85.5834182901353 -4.30067655977094 -3.08292387461622
-130.252710484631 19.7831219599992 -2.46855321942751
-191.511302200416 31.7365531938643 14.1910102965487
-3.69756523762373 6.1664034039558 0.780707418590622
200.278352048107 15.7671848730281 -18.3503573736526
207.9446533548 28.3535149794195 10.2208863277189
-12.1097123978529 -2.07260687737365 0.297099558818737
126.61696703396 13.4927320045727 -19.049555789972
35.1889677090706 -0.0191595205566088 1.57664652865025
202.076964338063 -7.06713271053294 -19.9204433610876
167.934294430195 1.64673243592626 9.38768514430772
-195.914811102208 25.6586026164732 20.4026749798513
-177.535054154915 30.6517922496816 9.86549101131799
180.924572273143 -14.7945991237181 -17.2177563111537
-208.300205141167 -41.3257178585149 7.28203649006404
160.367824974747 6.65949133295053 -20.0061821104308
178.786621195486 -25.5854139433387 8.88456991231434
-220.310822436505 -10.1378675958069 4.62561764249207
210.439484514618 26.9852598071 7.12984045180816
217.139846172664 -8.91035227274971 5.53231522282814
9.10462138910279 15.2060472796467 -10.7533152326294
135.720398168221 -1.98088275600328 -21.2095741099384
55.7264287988919 10.8478272304291 -20.478516414169
-163.058555421012 -16.9697022338464 11.5422809499569
194.779904700936 20.6044370115211 -21.4969233719884
-46.7548797204352 16.676038207181 -7.6187438868742
111.107962267661 -13.4191049482556 -12.7050702805481
-53.24562837921 -2.56450566477858 -16.4048487532868
83.1332203059256 -0.0752440778791698 0.628806646523133
213.096583204835 -32.2992308589581 29.0044620848112
192.820826912498 15.4118198724799 35.6448818164369
172.44767523858 18.8661778984419 -16.8648742706919
-91.8345737409759 7.31457260597282 -15.570741252021
21.6810574596901 -8.52989602185409 -15.0866285433444
-17.9324112297851 5.35731601482366 -21.839843720664
62.9256349206325 -6.40426568551654 -20.5954105132999
-203.80746576092 6.35148038115138 8.38930986373052
-211.096606153823 -13.2480671527099 -21.5408888131797
193.556461231714 6.03714626950977 26.092061843732
24.1439863744428 14.5203648470987 -14.6180561757325
62.3711503203153 0.2775116979521 0.838858061292869
-159.117006784113 23.4645652311081 10.1892203029271
-180.495694574076 30.0262636591946 14.1431999587838
-203.984928247348 22.2720013701227 -4.52661403440424
162.389339557184 15.2078354177254 12.9411094052709
-153.32436484507 7.68726971967029 -6.53986695128799
-161.841787675865 19.1335460900624 16.2785131312989
184.962705980721 -26.3048586371481 -11.155073038829
206.635905913472 16.5526795968307 30.3611955087856
-157.08989531555 17.998753396234 -4.5752655259203
6.54246871006725 -1.93258272083836 0.579205155378639
219.16626640809 -27.9217779799861 5.19640645649875
-176.944850269624 1.1285457790123 -6.91057923617624
190.8744966435 -36.8283554905368 -0.781786849634286
-191.897068709469 31.9080627247836 -2.15232997579092
-6.08737533962646 0.122871143415973 -21.7976874318593
-221.23273404068 -6.72991029257452 -5.03735877570888
-125.348512483818 14.7231303791693 -8.15841836071015
120.299163394869 8.57058441415869 5.35240137911838
53.4617675546849 11.9983776927563 -19.4162598450734
221.301618969953 -21.7808090584057 15.778816692734
193.403316387441 -41.6841858110312 13.1422725907566
-209.210975874019 6.7560314856864 -0.052824859439376
-160.78980572078 17.0743278166247 18.0954316097127
-180.038256350114 2.53716864571858 -7.40455307160713
54.1541985880976 -3.2306779568091 -2.51317494204243
-187.301405925779 16.6335724274154 -6.3599556246835
148.613564267397 11.3494780351719 8.96812617434218
119.033167177187 16.9244441451225 -7.59306622709928
-196.798476417604 -9.93639161471658 -13.2118593261392
166.809239976066 -12.4322227195353 6.17180131233833
187.152236308989 29.9627667169684 7.49296603873564
-206.683959629573 -5.35941604821798 -14.5283164452983
198.509735634999 -37.9641467669786 22.6357027110292
-66.9390065206311 -3.15052361706746 -13.4683353595811
204.696442336159 -5.96363332944168 12.4726146888702
-194.561671074687 -32.1723561027447 2.05536564374728
105.675498161207 11.6891698442006 2.08988225820822
-196.465083553033 15.8063578099203 -9.51951091415294
187.292664906251 -21.9387585926197 25.1064067020252
181.954219482827 1.36182031898944 16.0120708667669
208.577296682148 -6.79866575109498 11.4141907546223
-194.440806085639 15.8492828167818 26.3542566393121
201.302466768271 7.69782190609126 28.7377642801949
-194.76666044915 33.26976013727 -0.268793680101764
167.114236785947 -15.8542109228414 5.31556256099109
-196.245412003187 -34.2844454015393 5.2402243682088
112.264551863336 0.338283542889289 1.85352998185861
-194.888341797619 -36.4704523179279 -6.42144030393339
-215.114921604734 -5.0205771216614 -2.48062945195767
-10.7983778407089 -5.92980958290998 -8.23838681777725
-87.2400861619796 16.6162377778301 3.17402471384342
180.812294215901 12.1559376797993 -19.0133138875689
-181.072098800356 32.0389697288734 -4.54824297415461
212.073679122323 25.5677700987219 9.5941588941943
212.763504630084 23.4050500178929 5.54583905222916
-204.666353226807 11.628636867209 -7.62325604548775
-178.689264059433 28.6050635943292 14.3796137670781
3.34928362831751 -6.38469822019224 -17.9547858733581
-231.404345014096 -25.0765218064812 0.372642772521301
-189.15358461722 -17.7718977607696 -5.00090020142726
-196.549093503195 -15.3864668287033 -15.4427105301957
190.114500343565 -29.5889789864774 -8.59931560582086
189.136689990409 -26.9515492613185 27.3997434935109
-192.539126102659 27.0280433032192 19.8165307438973
-226.839407550051 -29.7096652708978 -15.0496503593255
50.1050589153884 -3.69686674635683 -3.29047710923315
-91.1514387993281 16.8776908593333 -8.87649689561599
193.598893006414 27.2743664383622 28.0597955537026
-52.2548101252878 -3.93143106002361 -2.08378049450953
206.755752185862 23.3056197191968 32.4845591515291
178.749246251091 15.0819798531315 25.2402628891656
217.356045974787 -20.7084703455208 24.023613259895
163.925400973479 20.4449622892594 0.808030427222418
150.433183868969 8.35485125118877 8.40499061725745
213.114067581678 21.1848679099167 5.68615498952395
-206.03431907014 11.4086603620349 25.7168674694908
-154.595907874091 -13.3770685877353 18.9557169760671
182.96852914228 -35.1901978151532 12.4456680426023
44.7968325271459 -2.12091597257038 -22.3806847448865
-197.836722514618 -38.6234056108825 -9.78475371820338
160.450367634653 14.2050950155514 12.4610535351909
77.9265849490586 7.11968396248892 -22.7486741240353
-116.218266687743 8.01078076906812 13.148233354513
-105.610847868893 19.0183499418988 0.113327124693691
142.201658246664 11.6429924234243 7.95644060683933
-218.381540503121 -21.2469114144572 -22.6064117804518
195.024413739606 9.89084480690901 32.3948134393118
181.480067437893 6.29530646136057 -20.0577654728626
176.764769824171 -0.108748124108378 -18.2326314146404
207.950821458769 29.3682003570828 18.2692169042197
-200.975064751381 -41.13898699936 -9.53989729675923
-202.626645326046 -42.7970339241284 -6.20114289680146
-208.874921213676 -34.1546274921663 14.1950696942275
112.91598335262 -12.8364767867955 -14.9842518362963
-148.815578112152 4.71762677804079 -7.04474284598603
-225.990493733391 -10.7334004730509 2.33255662282097
125.363683884237 -7.46413716997623 -1.08866843066213
-207.796079952843 -18.7787511498422 15.9342621490288
202.502856995882 -38.5817264669555 9.50284893700222
-48.8662949217537 9.53773221660577 -19.0418115095951
-138.048564799129 4.14613605650298 15.5844679652989
-190.225105645361 2.24524577197173 17.8074952099043
128.968920981896 17.3766490829257 -5.08744850806227
-218.266102657842 -32.8053016823075 13.6013594772342
-20.7664637500081 11.6929343397157 -2.16231965211197
123.022054974818 3.74083918841142 -22.6099679020993
14.315088823804 -8.21100910492081 -15.2001665459365
176.182003154051 12.6185727934677 19.7936101777691
-213.523274005558 14.01981768539 9.56392560581936
179.770830817584 -30.3949804724144 -3.85215226902426
148.392841627517 -5.71936574737617 3.1889092943084
187.831548708705 31.7747323156908 11.6668203905685
93.439219378031 13.6330550026648 -1.94580511748072
181.537339522531 -35.7388271652345 10.4982867353672
-187.278111069763 -1.30804495988927 17.6531062504894
-202.806240976143 14.5878414989762 -8.63466049935128
201.065935832179 -18.5130654316209 -14.2804212233312
-103.987788565867 18.9299666406621 -1.72440323267002
211.09062100809 16.7074092190757 21.5177761266405
-231.465129976736 -20.4433669214308 -6.10963519262343
-45.4859575327879 5.79438418571818 5.02315893436182
-68.5044652847118 -3.08008042515503 1.09126851763102
-35.8436751592966 8.85462724346687 -20.1257872560995
-35.467528600579 -0.310699349849741 3.57293160740666
33.281734611901 3.18976856747279 2.82690967493265
-197.25688640111 -31.434039755693 -16.9536386789581
130.548505311503 -9.48411816589308 -1.65072822683684
-190.039200753397 4.168586525462 24.8270595420581
26.2965026256178 -1.80811295380028 -0.51486867095293
-74.5352181054755 16.0921686393769 1.09953252157014
124.530455646033 13.2924794387438 -19.162542585379
203.16546703063 -17.4665496395779 -14.2042021619722
207.20587524035 -37.2661178913165 25.4465596056366
122.08541480607 10.4971972555985 4.95827576098369
-188.886827637233 28.7124241829513 17.3864175673596
164.52371588951 -21.923176519321 -8.10663413127637
-191.616117070135 -23.7872040662515 -6.42931644502141
171.072559217455 21.5168168656502 -13.5213821788085
-196.127505119946 7.47816653325723 20.0430167352613
107.159569351534 -6.76547248280705 -2.70603056046803
46.2005041634796 3.33464375403806 2.23887205113402
128.025330966088 14.1791015643717 -18.4091403542126
-204.370236415636 29.0711377560728 -0.437059258860598
-179.16551773162 17.8677976588273 -5.77194058141809
-97.6130839798425 -4.31554215441784 -1.31985032687569
-221.851822654176 -7.29929262109333 -3.27978077489374
-65.2998684757757 -4.94460449070688 -7.06648514494022
188.260215049865 27.9971960312105 -1.65774298998672
-223.520455329732 -29.954844637815 11.6479338311204
33.3425464553613 12.3661924490438 -18.82539784159
180.528068886267 11.7323523851646 28.103523791619
-192.490514402891 -26.4804747666816 -9.21938097532692
184.451693211209 -34.1106512256282 -0.499723373137232
196.694559770863 24.5648670314046 -19.7003184779151
-169.078836754652 -12.5785024232031 12.1395869456214
-51.4618029705728 16.7021075349198 -9.98184688316367
179.108627747167 -31.1732917406865 4.10762016822948
-139.537405668339 4.42751572596073 -8.00550680386132
-229.007582203956 -28.103907789216 5.86695540185947
-59.3802969841566 7.29938995837032 5.98017803442975
201.03699265124 20.6823470194948 -18.9454550185128
-174.230867767127 27.4708314743456 12.1836675992935
134.739980701356 17.2031400026924 -14.3511515106752
118.27074195288 4.01520207593219 -22.7565184366567
-210.873902887202 -38.2609470215348 -18.3481101501571
34.1062402142224 13.2291757640622 -5.97356689167904
213.941053679476 -6.34711190856847 6.86731870471702
192.882178557015 -25.2572620751738 -12.006541803489
-196.211577722344 -37.9203430147557 -7.45769286933012
198.36650000601 -35.6386438577573 -1.2285229982332
-173.427899759369 -7.23540301525945 18.9063287351402
152.179545765043 -17.058014371941 -2.39943972808301
150.605849553288 -6.38938674984967 3.31587403185243
-217.886478833696 -12.5343529594498 10.4565669215466
65.9790099896957 -2.94165080763507 -1.34404556561067
151.375184753577 19.654215171821 -8.37511263061983
87.3822040621825 12.039885463157 -0.607796609283458
-172.423059001351 5.68106369221771 -6.18379293202188
-82.3298274849313 9.60726811169299 8.9610287856384
-134.425569682321 18.3892589330723 10.7366450909559
200.244870881104 -39.5312498062678 4.90823305337885
207.040892396787 14.8307211402333 -11.8299754908742
-203.24874196659 -30.359102586965 -21.4694501261275
-197.535519539351 -4.38109778249763 -11.9341777691973
-205.460912004831 9.2036543006432 24.1922511374255
-55.2029862984975 13.8392311861732 -15.4907688455023
-206.396553661879 4.75391591561687 6.15193498895065
-208.349257236095 17.8034085902895 -4.25558968843007
-153.820150348084 -15.0438783654543 14.9058723416092
214.18675233969 -25.2738881557726 29.0470216299587
-136.599576486621 17.5980532669039 12.2747198773453
-192.055306140079 30.3813756914721 -3.35892363893342
-213.232148788162 15.6908107389626 4.30358764258555
201.443364173068 -38.0387140545963 2.84785929926133
-212.32988565083 -5.78294768453774 3.56895261014989
171.005790282037 -25.1160656875924 0.691280850214593
-136.430622983137 19.1597120861756 10.0936497788736
-207.185508224501 6.25369827235128 6.063722159729
146.393512899837 10.0224672838243 -20.8852349962692
-151.034382541942 10.7619545546978 -6.62147845960545
-125.832385265462 -5.14932454508627 6.60545546407149
27.6661627762507 -2.03392954409165 -1.29390044574779
135.289018767083 8.1676128678843 6.49753076396566
-191.508720118453 24.4249765994563 -8.38925203487929
190.624565012956 28.5652632982126 26.2914238648955
203.836546060941 25.8913296778825 -9.31852880867282
172.965309931568 -2.11793431921012 -18.7960472224107
-200.133416030032 27.9855027884498 18.3685891158409
-105.762015742104 -4.38491566688969 -1.16244369945293
104.617122707233 -12.9933168197423 -12.9859970107027
-214.584219568298 14.6453728754096 13.8963646525414
172.232372388873 -20.2620811156301 -12.5106283211912
-39.9769286559936 12.2304675550254 -17.7351341023927
-115.335491042455 1.38987902420109 10.6338741755356
-122.326455631032 2.93093282499793 -9.9660137070516
26.5581120887583 12.4639915175077 -4.75157808250825
217.08527227091 -28.7652212850362 3.71320661076012
143.371644436405 -5.42370869711739 -19.8971484554672
-227.436955489485 -22.6204577897029 8.93352082422322
81.6098130160614 -4.73258093851853 -2.84733893585387
-206.254001642872 11.9242624281004 -5.24916901387386
186.778004112522 -24.299599208409 24.4166976476073
208.560955467584 14.9093524465266 26.2689689291543
-101.709064384116 1.04940410125845 8.99026270863066
-203.153035561165 7.83016098245272 9.6644415507107
168.159586182123 -2.25173255544969 8.38663397141293
208.638742410582 29.7175312525073 21.1220072123247
126.479128569092 15.5971242277912 0.434858405371071
192.847051649653 -37.7130529086353 0.135617300478406
-174.908604497575 3.61608914982423 -7.2840127230821
-108.832461390049 16.0385932479148 -8.49916769187301
204.756518174 3.87300050419744 11.27345457469
-5.09527597753598 10.5260139509847 -2.21799354720223
-231.0167245689 -27.3324135325105 -7.02864175191493
25.8930482121875 -2.75013766557516 -2.62651788704542
210.968334817746 27.3008372628482 10.9801747783851
204.670793429817 29.1975492284311 10.1935294891579
-93.478055492391 11.3279114588699 9.96982117784225
-205.381397653318 29.8209678467648 1.06800124451963
144.830754912381 18.0247195315317 -1.76256573592643
-196.136446344066 -32.2463352185202 3.4739156294829
28.7704288677376 14.7868956369435 -10.2592927129286
197.019307994095 6.07130734975973 26.000668980631
-214.72454296846 -12.5793339791177 11.6703059015389
86.4351110476152 -7.79603773537897 -5.50492356498692
-9.19675351607167 2.33504587890155 -22.151108209997
192.697618086874 -9.56948783654835 17.1444989709936
-108.014427535344 -2.64495120684299 6.55829003986975
72.9756085141512 -3.95636975232582 -21.8782691452036
-205.434155074817 -43.9288884524078 -4.28253376981647
-196.302892626747 4.05084484961375 14.8632399850627
120.626829594673 -2.58162807239098 -21.6368768025331
-188.409703593779 33.3550113946776 -2.35445643724232
170.797810181085 21.8039982927769 5.66164543996939
-202.849467920011 26.1081387156602 -3.58702108592702
-214.586559199285 -39.9762212071513 9.15172776110492
-119.349388069678 19.4718095195869 -2.01405907475057
126.984537642486 -2.81401338342827 -21.4067794045861
-191.82807477889 24.6457390818123 21.5818436426372
-27.5112518025091 -5.99612675138335 -9.34831090886759
197.377973404656 -23.1227917292348 -12.2561050997302
-211.844437331482 -7.56237433949815 6.71703212026326
-160.20880798097 -0.197735861983384 20.7405232494481
163.9094952375 21.2104285087187 -5.9727267310352
-61.1838918510639 1.22871894891254 -18.3752328891456
-127.661084162597 10.8238422746487 15.5271175528076
89.1222784431195 15.2883398153547 -11.9371354293396
193.870349053452 -35.9458139856746 27.3536051418819
-143.954882978317 17.9170717566291 13.8594164824956
-140.501193157463 21.6257218008165 5.24507485241893
-19.2089889076923 -1.44408830751837 -20.6128872683252
128.400782894915 17.5994751755843 -7.03600043210443
-183.627212332796 35.4312664792838 -1.29958989603832
-201.074224447148 -41.7728791375463 -7.43230182371386
-112.942578066323 2.2440818326871 10.7946200374778
-77.1544484336216 -3.3538802720123 1.37569887312705
-100.988695425 -3.21694586564587 -6.58903811083398
114.058494477431 16.4368269202883 -12.0560455491933
-38.1033025760328 8.37899405157262 1.89348394733186
209.673733193763 25.8907089092309 -1.05370317178945
-82.7394778038585 15.2797493157976 4.23649351802519
-114.329253522099 3.99296963793475 11.5346287378865
187.298389008313 -37.5534140419674 16.0879881565118
178.930325317209 9.45735444906849 19.7145013029889
-223.038463346413 -37.076562432122 7.12675583583634
-209.890654495337 -3.46455569796907 -12.8197578019278
118.396226927801 -13.8877782824093 -12.7382088852002
207.544374109209 -2.8096095436709 -13.4867686226886
171.557030725828 -7.66840689945521 -18.2428203513005
167.835995132196 21.9125994711013 -7.54071263514989
169.378986533477 -7.29697642563383 7.81285265078767
145.243947143609 5.1866991593042 -21.4519963923946
160.340249223108 20.2899159812753 -10.8598594990779
201.949472797193 12.1786695036311 31.9871365294616
-139.233440156485 1.56118607114498 15.1929833478459
-130.446668823954 0.643287306003303 12.8275066598434
-221.24868403643 -13.8729259482037 10.4842786427656
177.691613690103 5.30666954309787 15.1496329414648
-9.91144311293086 -0.669541358431828 -21.388968718426
-130.310603955619 9.54938947892736 15.5454338397678
-94.563637496157 -4.29554721194014 -1.37114117262622
-54.3976671199874 -3.31597839703205 -0.120543941822898
122.128975147479 -13.3774132912726 -7.69032516025394
218.10837434568 -32.3759458240423 15.3031083566954
142.669354214847 -16.4575139777163 -11.8664695963843
82.8927923529637 7.25723409990507 -22.7150770956841
180.219371897824 -3.90078034793057 13.5171105902306
-110.488218827569 10.5403072605577 -12.1209033030897
160.581457660957 18.7387937283609 -15.5820386597778
-119.318730069164 4.16807041400693 -11.0714811942881
-11.4802359731888 2.83960775183858 4.05287998445442
163.198573778106 17.8910013395582 10.8803751782135
26.7636571086787 11.2395887432195 -3.46463159344303
104.89446561065 12.4463011295156 -19.4119453323743
-191.079870130559 27.4656288488544 19.1941581788774
190.246402979959 30.7808056366394 7.30845148128335
197.151044507705 28.1426351176165 24.1406127700072
-216.295111786676 -40.0734222639198 8.43297463060584
170.046908603951 4.77963102325976 -19.3504750584912
170.270121919271 22.1273360728229 -10.7157490381446
-179.042981418593 27.8791811510121 -5.07279660754179
-26.9182072017128 -0.466934051022362 3.18368941757925
-187.99051840022 9.37725719887717 -8.45560285889454
-110.225224247636 -4.04996578531054 4.16075751043208
60.8259803753427 9.44080105741347 -1.06872218090485
174.352138576259 22.6677035280745 -12.9387772708083
160.714134130861 17.3569120475836 10.0912052034445
-152.855395073687 -0.56780751067356 18.464765497989
191.562679738635 -35.1983673401354 24.8634908367298
192.593824138633 19.3868952407175 -21.533265585419
178.888046311951 13.796545328413 -18.4154636545284
216.848825208391 -23.9732047763058 -3.50939897432912
-210.161815328486 12.16629572895 11.1603778449486
-159.729570553023 -11.3934079547152 21.4330816959623
-110.397288313203 9.15840836611764 12.7346332184123
198.429327979653 -40.2396451278534 8.97821957630327
38.7545290423469 -3.42620954137579 -21.7140612880446
-173.21810155617 25.4814446854021 -3.36270525029077
82.241413678268 -4.58821465731337 -21.6316931032848
210.495353120185 13.0793802676169 16.3776506131637
-69.4178257865285 6.15090775317615 7.35268448501692
186.837450234161 32.5852598443745 20.6994716705091
221.595301412561 -20.6528787286342 13.8217859969765
187.740402718109 -18.0207139647154 24.9180704832123
163.568852712049 8.8184547347562 -19.3800874938653
149.909084131219 -0.786844574000142 4.96240023080368
97.3244431109407 8.72021456418196 -22.0537171768593
-158.232340032852 -16.2722631273961 11.8621247864603
194.976627620548 -17.618745631378 -16.6415970492272
-184.591841778989 35.6734124782308 7.28075297938893
-165.87694659784 -15.8269644742519 16.6560573069995
199.3638370086 21.4236563799236 -19.9789977268583
77.4093585624753 -2.7728430536595 -22.3151520615026
169.34404277377 -10.3444842735276 -17.347102198281
209.426274525288 26.5929675077407 4.44508722234792
-209.328752531132 -11.7959434354437 -20.4721454249875
165.016589572085 13.4648383437378 -18.5970499415506
153.457483129062 10.6154913954127 9.76574703222188
-201.882333415978 -31.119144300839 -20.5415875872273
-186.799250643259 15.1193709936497 -6.33485117365188
-178.637197223478 33.1152635232643 7.32960214740131
206.481688230903 -37.7410889781102 23.0773626521519
216.626661523969 -29.9553456333126 26.3491348438158
-84.1657413395251 10.0592355583158 9.18580940106023
-40.0711133013092 -1.16245607964373 3.02892964342821
60.3421188340303 6.30540453885926 0.831566267741401
-200.405118095388 -36.9423379477889 8.19763271629406
-65.7881806385943 -2.35562596184199 2.34701804022593
212.602289220901 24.4597321908028 20.7377260403891
169.159117325598 22.1265501363203 -8.90068784803297
-201.445566505797 -15.6562651057135 13.3286667105429
-194.343424489773 -34.6921357254059 -0.672369910872283
-208.930359645307 24.6315236936809 17.4143864885856
-212.416491574178 21.0522888015145 0.856772886550372
110.305679001422 -4.57533868864805 -0.664429068337929
41.3814590146403 14.2408259097887 -15.214105545733
-166.953578803747 0.532342302818266 -6.53352381480253
-206.122104495056 29.6137094973522 10.5221287457666
-108.742402839511 18.8033082344487 3.14135648184613
-22.63017848326 -2.53641600242813 -1.01536805428307
221.452880700804 -26.2165657008241 17.5505662960119
-91.6447327265304 13.8933352769844 -12.6011402711449
-175.580855222329 30.6651232615174 7.33101297759377
-219.124317321722 -10.7445793973539 6.34184572071918
22.5463253462791 -1.68100255643654 -22.1502111998638
198.048924897763 -8.51963349715558 -19.5768228800919
217.797825306322 -24.4798456488861 -2.07706171553775
-68.6128408515336 14.8526532968529 -13.4685593424653
-187.958895235455 1.93648500578121 22.4614876427158
208.164761965489 6.04396200963385 11.2825298228725
-107.141297184933 -0.667424297402613 8.57159314572433
-193.201247934293 -32.9886983549327 -8.6433296179806
-56.9163788864445 14.5740171411251 -0.425713028932783
-160.762533923944 -6.35618975274229 -2.19579455109068
181.231724196599 5.54305163283269 18.2021133053977
-40.5907520492083 13.7917087703436 -16.2150378852151
-189.411264802007 5.23085552757776 -9.40323350921563
59.6154269923062 13.4766953964356 -5.52686905598533
186.034039635117 -19.5826821856262 20.3912367806535
-173.353083231948 14.9508598130945 21.4485038600293
-196.252032991724 -20.7430485222094 8.42074974183697
-202.254227471584 -19.9315125022169 14.3472646110108
-179.164509929761 -1.26742085074669 -7.06168711513794
215.588674099699 -33.3797802710515 15.3118457308746
-176.43003032338 31.0763230127596 0.153079641162027
-203.862894919888 3.83404211433288 7.47962272780899
-183.967144381286 22.6978600833253 22.5049199785994
-189.331144040333 -1.39095843510732 16.3655415561912
46.6126475837431 4.29304919610572 -23.3888893432664
-83.0921419859383 18.0744357078971 -5.25785704952114
70.4350903198166 -4.40562895773441 -21.6721873851794
-35.4019927583952 14.1905340921706 -15.7407170415441
-226.563495844253 -31.0702714216266 7.94633629886343
175.068852670666 -11.9591241337539 10.2641769820623
-59.5269041669115 -0.360878666847409 -17.5632526927392
200.112070488018 -31.5100214872014 -5.37358986574817
-98.888408812625 8.99480470097142 11.2834580563519
184.489417484121 11.3074722267381 -20.0426010639333
-38.4832454040819 2.27762546863078 4.80690914550052
143.190173254899 13.202742894023 7.83513972514154
-209.786301013172 11.5221986126226 -1.34455146032261
74.4509682245646 3.01533467983771 2.13667947460672
110.508085291259 6.64772736006204 4.41108486976383
-164.374336857126 -9.23996071669912 2.76779251537588
-147.78110726612 16.9421683790836 15.8479725569813
79.5832648006214 -3.84681910825563 -21.9508804831225
158.183373446662 5.83361121531455 8.64519644680267
195.113060654726 -17.7056619174411 24.816164297956
-29.5248308899538 13.5011455353223 -16.8781699610241
146.929477390236 -1.47435235051059 4.37046425894344
-152.539715516116 -14.0866126675644 14.4359674050417
138.355804914619 -13.0002706354899 -3.10030191391703
-40.4952803869522 16.1752272303967 -6.84417593709649
211.426384851273 24.8564537757012 0.356911770398775
-54.7690056571061 -5.23613346088127 -9.37601571410682
-18.4831833801619 -1.80419284575538 1.09632337771212
161.896296183772 19.5239218528272 3.27110811146684
-192.97005834721 33.5114915621733 -0.58312709096184
194.853828808743 30.7490743910182 6.61990535687024
212.18556208567 -3.61154164827213 4.49181753502509
-205.460336842182 1.73039405953184 -8.88052878434861
-210.755126866907 11.6489821188037 14.8293960380658
-221.444351193159 -36.3015028742966 -14.6366973990093
201.875099250497 -37.8360175804855 28.7087365052121
17.6389930478618 11.0012861042746 -3.15128921138502
-221.252176876382 -32.3095057245439 -18.1232771013636
-210.835405591859 17.1371793807544 -2.91635240813416
-13.7301863860057 -4.87126027577824 -18.410279140836
193.307449613097 -34.7400989755593 -3.63086307017153
123.313723357919 16.8515433679868 -4.47309638299205
120.398576880208 11.6205962407408 -20.4168113696756
46.3681815702115 13.7636363248067 -6.89985625743593
20.8357374894752 3.6874532846162 2.83640828981072
-58.4437016364871 1.58719554443553 -18.8685880538167
193.565572705026 -19.6507301556819 -15.5265631800824
189.579052181203 -41.1123974544744 9.74710425569966
199.81455152809 -17.6059892105849 25.2420151516123
12.3866464335436 4.65528925933063 1.89818267101065
-191.22230740524 -21.315340825729 -6.90976370464358
211.626581389091 -9.76064918846832 -11.9858611670142
-198.691964844553 -31.0560651673525 -18.393166486107
182.437624349886 -27.7620368227905 12.1052489239774
-216.087102962929 -39.4307027091248 -15.1959765311709
221.889466718579 -26.770567307643 15.1853217400976
99.4377710726194 15.4294873276551 -13.5534054375902
154.400882916697 -6.70705003656925 3.9771828350098
171.546435797263 -17.3445730228026 -14.2228322591181
-213.682779756365 16.0818247080911 19.4419872489855
-141.649374660125 -5.91110510520604 8.74281601949165
-55.2404156693896 -4.63030298231995 -4.47232030529309
177.623346649339 7.37677882091612 -19.297844699958
-165.781329540002 6.28636961042114 -5.3897414940994
-37.8756629919539 5.04388537874031 4.56603394395981
20.3869479876149 -1.51947273188876 1.2978121959082
-37.1238016670297 -4.17440494300407 -4.33592421803935
85.3533020708439 4.2007611609833 2.75694095443032
-170.601501213719 27.9055839859575 0.389961108014903
197.334223457764 30.7647180243592 8.2253247163221
58.5243706086386 14.7854561102436 -11.7121990443703
111.008975484299 4.06096135255891 3.39357057721303
-203.163097657035 30.1732665936245 11.7489555022058
-228.948799729989 -18.4870168575862 5.57648988746077
157.498378110018 -19.9315148971969 -3.82780128059137
-108.155526406549 18.2238585041616 4.60677617189042
-191.098304453738 36.7498702487807 5.60277393224405
80.5892267688406 12.5467666562676 -18.9042182233879
131.484517820066 12.4897344695272 5.8206885572145
215.385158583389 -31.4712845116455 8.8077200480273
201.084061760055 -17.5196516567553 25.9602331443882
-148.838573566036 -3.36013811081768 -4.41183697075881
-210.186392265186 11.1508044198742 0.104367792744781
129.714737184606 -14.8924593361652 -8.92809517937304
-45.0143951016737 16.3310811765966 -6.36538689566331
-180.316595774443 10.5823633694051 -6.12815080467969
186.832498536804 -17.6818696870864 21.194539465478
194.019338509535 -21.8464832565749 -14.2042234753546
182.30479350606 13.6998596759958 -19.4048884141142
155.119671380114 -10.7060715170699 2.70718416312064
-200.874897996398 6.3177961243692 9.85448091234725
-124.329522980513 19.8512597565747 4.28421465750156
-99.7128643107073 15.8397656915508 7.20865941503344
-166.876390998485 24.1093619654649 12.6861118968639
-172.064028129609 -5.37135094728812 20.5784703221422
-88.6488211613273 12.1442430371877 8.22399200619233
-203.076934235137 -8.71206177776369 12.7919231927948
-62.7225823253201 5.2780532531739 6.69856628002335
-221.074202869137 -9.62484035090083 -15.5877168198064
-190.023977329871 -21.3888303316804 -2.45758822886733
198.543314573305 23.6207102659813 -19.7004222516888
-181.655343370128 17.262191703479 24.3007776452504
142.761424638002 16.7302941755982 1.91272307974675
199.750560960479 13.1098713929059 -17.8585104381297
211.166408551571 -1.64990114314576 2.44279233884592
152.15754395994 11.0242405931536 -20.3096834404615
189.051240960631 -0.626062419499401 16.9754437905917
129.358756133293 -5.77589815067311 0.532832866680803
-53.8580500276754 16.1818359914901 -3.49831777023961
173.955982283766 13.2912313575285 -17.9283565030878
182.291149733264 -21.950001034114 12.5966109371794
119.020714073047 -10.2292669149146 -4.38642852447909
208.170546326309 -36.9312030876299 27.3478243312778
127.264642892825 3.67364309561234 4.25027106606057
195.741106166014 26.8174825831422 -9.57964182781314
-185.807523729365 25.3202937063955 -7.81072350100382
217.510078380966 -13.7369713606022 15.7847321205448
70.1540922728975 -9.61242404333891 -8.97496739016932
-216.452385690252 -7.83852740549827 2.93512957675204
20.3917901140129 -6.11375331818611 -19.4016821398973
137.515015425617 -9.04765308905265 -18.5988652806646
160.687251299883 4.91812098970384 8.80762928126281
158.110821824476 -2.5550172602952 5.74202452421236
105.061272464812 14.3747078896645 -16.7264183298213
152.768606140647 4.91707780900124 7.34459470241716
-210.356247745204 -2.40192389301388 -10.7843913742727
-84.3737071951132 16.6081611194104 2.4818218891154
162.564518764277 -15.3844302004192 3.2858502932292
201.462143457856 -24.0835005914722 33.9086376003944
-205.183193040932 -41.9235608158284 4.67286988804945
-132.001030138609 9.39173132131423 15.6278709403611
-77.0814804667704 17.6692102099118 -7.55656384143847
17.6618287895973 14.6099354279075 -8.8470260690189
-159.858715677423 11.4835512049773 19.3234027155967
-178.293747259654 19.8318379612981 21.7393909420091
179.86095642661 11.1925962943461 24.382593387427
209.954771291771 19.3687990517765 -8.68074102663392
114.334760240829 14.7210814106616 -0.329847703713609
187.552060451322 -13.0817067482841 -18.5462529242995
209.647880595038 2.71245610410641 0.423447478373061
169.423575791498 20.1809815408772 13.0187897280682
11.0103019522685 -4.92140312405684 -19.9758107178319
196.721450715404 -32.1553856253139 31.7081411819485
72.7547295182788 13.7191268656995 -16.6392284672522
2.00880531691162 0.0705582068176613 -22.1463596522691
-45.6167802962184 3.04939512011186 -20.3881628998564
199.972389890011 -34.386640381966 -2.06455882717455
177.520474424265 25.7357180518704 11.7322617280876
110.182966549763 -3.22771482952441 -21.6659712007452
-210.714506303438 -44.2842790738004 0.476077380645072
-149.271955993747 4.5835180120998 17.8411841072388
211.565901053959 14.0252196785796 9.55909805025865
182.726345447228 29.1068710888282 9.7957981565354
57.077973624263 6.96832880979772 -22.8580336241374
-189.050527352041 12.3532237953317 -7.5926489050111
-70.7482235665096 7.62246033335895 -17.9931764131824
-159.464655823569 18.3907320506051 16.5325643863113
205.042886566845 -34.4276924112274 1.29495065794278
-99.6982919584682 1.85676372287525 -13.0970831470658
-229.740362195533 -25.9538810578723 -11.7199026624158
206.046944044322 29.2995674237223 20.9215063119934
205.348557710741 22.2771982582559 -14.6777388239577
172.339594790843 -6.81158538707375 9.12010853527881
-195.670395767074 8.24237208672562 -11.3823067825882
165.308062181529 -21.2472852591672 1.06899825093865
-189.480709504397 -20.7628969574456 -0.208813700657147
28.299437143424 0.727347673875128 2.25598115826772
-212.661762889668 9.36583064179896 18.9693715495432
-194.10197233933 -24.4101231716025 -14.3588151251009
-74.3328926365741 -2.43045255274376 2.83410221539675
-192.325373165551 -18.727040473776 -9.48060337803654
-106.504949874217 9.90414023363723 -12.9143614053402
-220.32625227056 -20.5716161114523 -21.6308969676267
-216.453804803356 -35.3105232660034 12.9480179886797
-139.129705694242 8.91580221166299 16.33391987493
53.8367270179573 0.200160503256205 -23.159290899981
-190.007038832589 29.5621223625254 16.5500040803285
-221.919734802111 -7.68575859855727 -11.5627090237845
197.563742409973 22.9927343280776 -20.7433477701674
199.695424444829 -39.8482490049369 6.61100941765288
-151.174663243698 -8.13547732195786 17.6064279110059
209.207816608042 -14.8096742378664 22.1755765857632
-155.668612607169 5.4375569833078 -6.31676417767635
86.7924721933026 -11.7489503510539 -13.5441671137455
164.466262899288 -1.10987338571587 -19.6484506563411
213.764356012994 -23.1850960076875 29.0915800455962
-171.399360169366 -8.08788910739336 -3.00006708161163
48.0877153609899 -9.32676206474398 -16.7594908584252
-121.684092961418 12.3068194768492 14.5372177739165
200.043523648391 1.95140170012845 11.5732545700764
178.333047156539 -30.3030534243826 0.125432627845693
-146.002679337068 11.4120944150753 18.0780192341309
-127.813097222393 20.4841231372754 0.494969940853262
-159.374529094693 -3.58091788577413 20.9592866858748
-155.640589595481 16.6438359588121 17.6394366329012
180.654762969766 25.7382296169882 -8.27032568181587
-217.530789072349 -12.151542138717 8.91515842295663
174.255116677911 -10.8807434039763 -17.5613728542895
-195.973758445072 -34.987881403292 -12.3982113527598
-3.15707486812245 -0.501532287362226 2.58946712787962
-191.854104101564 6.99948445665172 26.7549808393036
-184.564304056854 29.8042361132417 -6.119446064803
49.5348797857749 0.566563131367495 -23.1831101313347
-207.250043484791 28.5830553058524 12.4245267000736
97.4043258593813 9.46441979901078 2.35910254306751
145.5904856822 -11.2939935579398 0.198530880302606
-167.247499080634 5.41909782916697 -5.46128483413734
172.703930575952 23.2625329256567 0.231254158575503
183.305303982555 -29.3733783473462 13.7282214677336
80.6815768975002 9.98771329238891 -21.3478254273218
-89.3278167255678 17.5977972321573 1.27562402435837
197.231866621932 6.19240070381526 -17.3302324895176
-71.4153921669343 9.93560570550511 6.37446898283679
-15.6774350179707 12.5932592231668 -3.52760653479434
-230.172885481109 -15.9105810500261 -1.26916136915216
152.228383859033 15.802136974804 8.42913681554301
74.1574467939125 -9.75537709577433 -8.83085814860153
205.396543436727 10.5040144918439 27.3415790321081
-124.528061724325 3.82304984168474 13.1619484270252
199.874110248238 28.0161237528408 32.9324031876258
125.018954738788 6.70825249741777 -22.3665627445434
-117.835786211828 1.60849771218707 -9.88873226463862
-50.8916057961061 16.7976663571649 -6.67442783761006
-192.318849913461 -28.0972341466915 -5.75266802976916
181.071168452411 -10.675848647174 -18.1748491798392
-72.4076912684241 -2.71527039521551 -13.2219305146468
-212.66396580457 12.7063680597803 22.8639946772782
-130.346273584062 -1.76840034388493 11.091635446701
109.561034529103 -6.56375829956682 -2.28378678427921
48.0124932401132 6.83007945376922 0.0779562613981954
-24.3972751525327 -4.56938532208588 -5.35375139336401
-123.766538345319 -4.33698520873581 7.44614455580638
-26.8466358586646 1.97069747368388 -21.3610268291865
213.24225543253 -30.3576215129739 3.18811714679082
171.161749718814 1.98896864083593 10.5061285715011
-216.163782434688 -37.847248829744 -16.5944749026867
-90.645574631449 15.9382798173638 5.23425067676778
-140.511151316946 -6.37792677699927 0.517832573356112
198.811667720543 29.8242687794879 5.98988723666088
50.5867619105923 14.7220712868341 -11.1526072375735
28.8327910725589 6.58972242997175 -22.6487065367612
-124.905992298568 7.32354970755118 -10.6168371935572
-206.346396672409 -19.5243540667173 -23.4367628207075
-86.4021366252538 0.392792675474225 6.86839754034298
-230.307093711829 -25.7848752116955 3.77635530520024
-223.608571798934 -34.1718749005639 -14.9750154515783
167.353889702846 -21.9541491487452 -9.5824916951513
-139.986156165908 3.25702520793944 15.7918988670038
176.803960644788 -6.37324765056192 11.0387841670991
174.000088103784 -15.1971423909879 -15.8086288332342
-150.44248664599 -6.0172775769896 -2.53770999846876
193.33121134857 -23.2685494568656 30.8076355134355
-145.154349561042 16.4955385678291 15.7675312344559
-149.062180667828 22.9411890955161 5.34177676631214
-202.235754505113 -39.6874239455259 6.1767858857579
17.0782439836665 -3.49237285571029 -3.67042971744909
-41.919086485845 12.9419331359226 -17.0595255778362
106.873684562051 14.9644140140614 -2.29211414763344
204.633853753129 -37.9139550972419 8.71471448909296
-166.292638758657 23.1788225486432 -2.96533870782624
-19.2683575726613 -4.8502089539477 -17.9197230070962
-210.648124698893 -18.1770394703586 16.0715417080484
-193.768772736347 0.286995572895558 -9.30345373708984
13.2706445643926 -6.04864153044013 -19.0691701037676
-172.590596324482 -10.8799881783637 10.8865730677248
-211.129964164047 -2.32693275580949 -4.01417721812614
202.900448617328 29.0861484925174 7.05943833653335
207.716295952774 20.6553630424847 -12.4093485187486
176.954111503006 24.4955250875021 -7.89783805435517
204.745510389282 27.5608382213734 0.905100792707443
186.156063966735 26.3311864730932 -10.7452985936246
222.33615738216 -22.1458918189148 6.8549621093599
-189.045021899161 20.1548626172726 -7.24723238612468
-212.801975249136 -34.5466223690359 -20.6416236760561
154.442856432277 12.3078890184984 10.3400095075144
183.920617112202 -2.49817977586446 15.9134595553003
-69.2383654659202 17.6794461312005 -7.17545626839945
-170.141100091905 -10.5080694789045 18.7880503364004
-39.8963476695616 -5.73595050008899 -9.52916214352959
181.916427177963 25.7448908606962 -10.3339846696382
178.001040707375 14.0648528186208 23.151716137795
-197.046544211772 -21.6641332296886 -18.2113034068164
172.03768189068 21.9391336861829 11.2727784800656
128.767626933342 13.0866163037406 -19.4866522751095
186.30111087802 -9.81427563023189 16.6869373218612
141.514241077936 16.1678329859502 3.22748718518008
74.926266089564 -3.51108791465357 -1.54446349979317
-134.012287638413 -2.61935157652782 -4.14166697302797
-96.4942050787747 11.1645692772616 -13.8086442500877
156.418663761078 -7.72184684930063 4.10908008433992
-198.918444652343 7.09957932619009 22.4077489978412
-214.883352145482 20.1608979210509 8.04884543030071
-195.70578637831 29.1932492729578 -2.61327975307209
215.961347018271 -25.4825359629243 -2.25940203323888
214.504206209222 -21.2261211279674 -7.4518964670835
-203.662702357039 -32.6592308579515 -20.6515079616004
189.468781850176 -35.7956373526033 -1.73520740611242
-27.7177837124611 -6.28031197394477 -13.6162542415058
-222.400518112256 -25.5517389666748 13.4855630996962
176.736740995943 -29.1658885869218 0.981891838415177
-207.64542711028 -29.5648956754667 15.869524717494
146.873686735766 -10.4579570223706 -17.6597430001241
192.097974660429 -28.0723993484949 -9.87751496814541
