-71.5944971093918 13.7983219478308 4.2544806331488
188.175958245351 -24.1644474679719 -21.7523413044575
153.70949607391 7.61923437019048 12.0081484580675
180.250342005518 31.775384868179 26.8623693598582
206.925981711263 -41.1027908783194 1.73193124651968
107.535887370325 -12.6865494626287 -17.6335063397671
-213.29580478715 -25.7758794496063 -7.57380312009908
-19.942940709773 -9.1142192366418 -13.2073860173346
-227.63698181636 8.20183187640413 -15.4604998450806
185.131271994813 33.5292586362104 -8.60074451801849
121.104827585707 18.7396117098509 -18.8668739368013
-255.811935749703 -23.1011749931589 4.7719849518007
-243.648873296043 10.7300848645952 24.3540845511481
-227.926515525653 -48.5705562402379 -16.6783781373654
-211.596739199709 27.7312724157405 -2.96186098630414
-124.528004884372 -3.68687287495863 4.69343626291891
170.792639316002 11.043429432828 19.7512369749159
-222.360247296154 -23.8400893111751 -25.0163354463913
-243.454343884718 -39.2041814156847 -25.9289794701609
-173.332932542923 10.9810722368008 21.3838524370242
-69.21988566767 17.33079961635 -16.4499194631712
117.552063096558 9.78546294270749 8.99797246793542
115.042952476416 -15.0865363837077 -1.22854368828283
-36.8154766209742 1.91165715155024 5.06020134553524
156.246252771373 11.1636505487766 13.6476976356707
177.815995354272 -42.612082026366 14.8132918035684
199.288165636636 -43.3831861509751 27.2878464688686
-229.538033315899 12.0546492890418 17.6667476181968
218.672810644418 -37.3562896591674 16.0663974441626
164.982887201953 -9.08553534765802 12.1234323836885
153.822497428973 26.1741630302171 -3.59686109080411
-144.477685769389 7.09210672886371 15.386968337699
196.585064512416 -4.50740195464574 10.9822102699836
136.749370635535 -14.3530867077155 5.79075824794306
174.509492065622 -9.79228062798737 -21.236463560936
-191.474251597109 -12.085324122473 -6.75050246451855
205.23959873292 29.3098691768235 -11.5174168396056
124.19109921258 11.5616965255466 9.73124894543425
-241.924187918159 23.918461454982 5.53171430194101
41.3619418117465 -5.06948021068772 -0.445247804715286
-182.918234919214 21.5941128606172 -1.69273141176666
204.999200307712 24.4429235485655 -18.3661730794967
-204.659791427234 7.76482347622419 -11.0253924842855
-121.656087974467 -6.68283673044992 -11.5231191718397
-23.7564662817706 -3.81324513468122 0.333892314310511
-145.132669370546 20.8634383653246 -4.22896684520597
-221.629930719256 6.70727057852285 -15.5865074672996
-116.138795917378 14.5508981113861 -15.5563344516524
-117.274306699791 3.47473644325968 10.0052099540669
-113.235492104836 10.2980327775941 -17.7783726425665
176.226709864737 -40.4232918163888 16.1908717908859
203.381915816446 -19.9198700618107 -20.8178639470217
24.3561736348652 -0.969743200895885 3.06557307086751
-40.0284427047407 6.22846942549029 -23.8729379371434
-113.490765843632 13.3711303290897 10.8376306264604
195.27565128404 3.05808990913377 15.849358029729
178.404386908683 30.1174976165166 27.0722589586654
41.6913150980461 -1.12985534155685 2.73877767054272
-57.3945642117805 9.20897499403694 5.95273397094157
-117.001890555847 19.7969704561356 5.9433482293929
-241.117619339103 -17.4664483358656 12.7550736711917
121.474790108525 -9.56762042568617 4.96079294195871
-189.408380136595 6.93145343977641 -9.68259636162231
-220.909434411165 20.8259153609819 -9.06054614489272
29.8397241817208 3.33607290141372 5.41704712363802
-204.785318996932 3.66000246212865 -12.3523391229669
-201.397274723341 28.6633531034929 6.34289440691503
-222.434288123249 -41.1292296871268 10.9154528405626
-246.877055370776 6.21374599770484 5.26756018433939
194.165091415986 -6.21044613343376 15.2800958439213
184.853822811313 -15.4662285484739 -22.8710953631397
-159.674594845389 -6.85684222816065 -8.40818832390986
35.4255063716293 -9.06074122611154 -17.7457574112122
-206.94627115273 18.938646377279 -6.40120597188067
131.159453901846 7.47971525271401 9.22424063912194
-190.060792071738 25.0483787233504 10.7791046950069
-32.5042460128645 20.0060608034195 -10.0565955592801
-214.655626988935 -36.6399987466779 -8.53925289128605
177.540675913559 25.5928025711154 -26.2873532336622
165.691727923702 28.3261097493731 12.791030802942
92.0093276191755 -1.58514381183636 5.02250489111955
156.15878842364 -16.2201272788398 10.3818375431026
-29.9371914380993 9.50260417703562 3.25870848100838
160.272320242034 13.2530354367109 15.7762083233972
173.337248372202 -4.36985307296363 -20.7324850533965
-149.961555706152 15.6727283556086 14.8881198176221
160.572674511242 23.3565370806833 15.5969977565841
53.6755079379059 -3.62555670444054 -23.3921366095434
-208.594366117367 -1.44049367101902 -13.2133044042993
84.5995030856517 1.68270613818827 5.3136908652514
-58.3299791118786 20.0912497348192 -11.9877582072476
-241.9115969827 -41.0226101720241 13.134712587303
212.42738661194 -42.2135830275293 22.8631865253492
104.285126710682 -13.4805395728935 -2.21283342931142
-240.397185442616 -6.65666958580011 -10.1889116787635
-183.34180260475 -11.4905043272114 1.31852985781994
195.034414544897 -3.24683070236567 -19.7257418458639
114.020550044567 -1.79652327429784 6.34140751628354
-258.708153764644 -25.1235825623671 -8.41554220900782
-221.255161313975 -26.0394212614696 8.52699251416716
-115.031701756059 7.2117126688584 -17.4364262780434
-34.5435250385895 5.08579836024166 -24.0286923308477
-231.207395816262 -51.5858407065155 -5.17752522455566
209.185161302882 21.8915194750935 22.9010520427138
162.365664991419 21.7870714336022 17.8464718783197
191.425138038907 3.90604734758397 22.5966823384012
159.801398307564 25.895730685841 -9.42150643853173
46.8464180414928 16.3147966263781 -20.0545435786674
-242.564351277229 4.40589574369589 9.44133682033428
205.661877305367 -16.539063054812 14.7236875412421
192.987514771676 -13.8491738922824 -23.9891473966212
11.7266424414747 6.46700073360007 -25.422776298703
-213.834999892414 34.6241289458284 4.80238457205327
-224.290182114023 8.95102457912609 11.4253789140167
-248.926663791394 -15.5393089919804 -21.5002250623306
37.8691848293252 -4.66721059948649 -22.2224898967893
-177.276397296778 -8.29070767851886 19.116210282566
194.446118514516 7.56055047290098 -20.9014612898627
92.0283673591959 -5.51370267603339 -22.883287796281
13.892228595212 10.934124914425 1.54373100859252
212.372882491832 -12.9649996220025 -3.79162646154343
-148.92622259176 17.1124545560662 -8.93039033730184
-127.493145823327 19.8036387092312 -7.8279002684053
-242.150966336572 11.5789672622091 -3.23411555275402
-187.616785553934 2.11700388915772 -11.4716221924526
196.373113615651 -31.6346341766656 37.8043883835396
-235.71295915257 -7.1782190514238 -18.4949861121869
-187.340881836863 -15.9187161764712 19.7591055147921
-255.035608628591 -32.6906956884707 6.5832833432529
57.3665571637705 -11.1395912856721 -14.7234615984058
-186.845332670634 20.4621899236029 18.3869644964076
212.775941983793 -14.6678814463497 -6.20206503438318
203.207776817146 35.9552387808301 21.9785773893557
-138.234768166408 -7.41847212202285 0.403065135462744
197.818567359433 30.8314838401796 -13.8691137701158
-206.38824341822 29.1641887076299 2.10856597486502
-222.629631947161 -38.6461358643303 12.5115317105249
-30.4213815510401 -5.96175302053632 -17.9717621920119
-214.219315277862 -27.7410199185164 -0.401192749598558
149.479542637121 -24.5944754007504 -1.45618872910834
95.5985193319217 -6.28805178147762 -22.4583062177108
58.8813594950651 1.61247499616134 4.85415475414378
-239.769604264742 7.44167946117977 28.6617724428439
161.699428179981 -0.486123561143747 11.7218813165268
64.0859489555868 13.0228040875922 2.539263119412
-227.359643569061 -44.7566470175218 -21.8423576797478
-236.487602369998 25.3953092797088 14.8244120020343
-108.262787977379 -2.10539094492816 4.74486334962585
-147.591815535509 -0.277531762582351 11.9749951078763
-213.925074395318 2.60326472842582 23.8067424723242
-254.16496896907 -38.4925974579444 -16.8298820274328
-146.821861091434 19.3081330969783 13.1098627914653
-80.5272286649798 20.3211522574763 -3.61693313291012
-107.317263906555 -0.204654225609258 6.39248234065411
67.4041232565301 3.02702490583856 5.18844463109465
96.845819817274 2.28461476919958 -25.4037106494536
206.967590035192 10.9297634246183 11.9679963949645
-237.93744827572 5.60531129421928 27.4431205570684
161.887968413975 2.35874061076279 -21.4391698542437
153.139595275782 23.6613783930416 -13.0326601350601
-175.388377086302 -11.9977975819693 13.2140244202744
115.455393900321 20.1654598280588 0.202627221505551
99.4413446271922 -14.8254135401251 -11.2597679735074
196.012056062134 27.0754833053893 36.0045086012994
204.495610720311 8.37794697398089 15.0151161745518
-74.8041189872177 -1.14761701456858 3.88959524241752
-222.920050932052 -47.6588089233724 -13.3551747855489
212.663994239701 -41.1164790040557 27.3630865231911
-235.124690177235 9.88987188049336 -6.37377068136204
-131.86946056041 12.2912553072883 -14.8418558929643
-204.333109526975 18.6691307007954 -6.05549646405335
-252.829312791348 -17.6884638443904 -18.5653945284388
127.928803875668 2.83991533417167 -23.8141588870541
-244.507736364591 -8.93596951095659 -13.9947571091346
-193.196925907043 -18.090690847695 12.3077119770853
89.0494986585545 -7.87767883084167 1.594667530075
-204.43020118778 -19.1674588989284 0.812709210604216
-157.636378270065 2.32710617118015 -11.8399666609283
206.008860661505 -28.4781358841101 35.7539764589966
54.7448851784673 14.7413079053972 0.157513120113914
-66.4989845403658 6.7641652051878 8.23766887870831
79.7807593616378 -0.0349277055301082 -25.1721578098274
84.095671933282 -11.4934015752886 -17.6913587361402
135.814801309559 6.16778475747635 9.40213154834219
170.632230770923 -13.8457303165665 -20.7037984203071
-249.908819471972 12.7065457281274 5.4680840677114
129.271580668166 -16.2685103985768 3.07771625717248
161.901940935767 -27.6973459636122 9.37295639485722
198.537182353121 -21.3868006899217 35.5377984037853
53.5421722612311 -0.452583693904874 3.51070783675506
191.212620130756 -5.30847166660421 -21.1311317917109
103.784757440295 -0.454159992420991 6.07863929902113
130.867135379505 1.96110250373756 8.16647447961117
110.499777827204 -6.56151056288162 4.94530992290945
-237.774229320173 3.80945268226436 26.4393015733126
-222.103003074239 -24.2105798046618 10.0354518019454
190.274324941465 6.3027194777371 -22.1546935687822
135.69806417868 -12.708109048382 5.94282185611835
216.612298046803 -35.6878832429592 -2.25092639478839
-35.4857820487109 -4.78800291364443 -0.502966358343457
202.657666481238 -44.5342571200298 12.2678644425468
20.3469543582081 -0.437273869348181 4.15981092915514
-238.378906538075 -11.2343783467922 2.65737809800803
193.451152940118 -36.6503957200601 36.8281347569071
211.240959091123 -39.2267561675307 1.19171390367485
-107.738083762215 18.0766565808882 -12.3694287009932
74.1407383014531 19.3923157246896 -11.645339840361
91.2068582482342 -1.5295328970037 -24.5382545246241
86.5101038213157 -0.680738285571664 4.9700696550896
118.662924018609 -8.8491727790153 -20.645260277847
-240.491766987067 -30.8250709115789 17.0075784104138
-146.206647261985 18.8246256858723 -7.42459496398729
17.2120555151477 19.3283908411201 -10.9287040222632
-244.369007778061 3.26142276778069 11.0298224808993
207.519872940612 -25.1393338711817 34.0534101235787
159.586885901288 -19.9990031680716 11.9405436822276
-216.582058445067 -17.8911914290124 9.26286211571596
67.5309454366724 14.2126871029681 -22.6145794889938
-222.909826835004 30.6517799695807 3.35825622040546
-77.0937854782205 10.6120466865609 8.01521530388196
-249.650073408294 -46.0535381272968 1.10533810305095
26.4156090862038 -8.20715602644016 -18.266878986298
-214.223029084539 -24.7602241785282 3.21181573724915
40.8845954384104 15.3574317643747 -21.2104568689861
-85.7824088742277 19.790943027079 -1.14585227418456
-3.00083506362517 -0.70915913300464 -23.1398806147492
-116.810626487743 15.3162381284265 10.8111625914072
198.583872159425 -14.9964957758215 -22.6315208485693
191.06805702072 31.5882347385025 -14.0194315472835
-240.55333026393 -36.338273148885 -28.2060474287338
207.426760799059 -41.5897519113309 32.7334135249587
-241.07700768382 24.0537185437417 7.35413225438438
-69.2058507918656 18.3630699045215 -0.984178711710469
-201.564655572584 18.6862206093068 -5.65490309982042
-239.44110780775 24.8796738717699 11.3205477074839
-162.996169329595 -6.78248467098901 9.21765878987202
66.8763581100957 -10.9277243242189 -6.74649903773877
198.255870897964 -15.6088804748961 26.5414676197221
133.195474532217 23.1361298515414 -6.6066454845026
-70.0661065257344 16.0872490152268 -17.7944552052231
-220.840611170994 4.90206694027569 17.3686736513567
189.658708056952 -14.3413047850204 -22.8227050659367
-101.861952023573 20.7053151992015 -6.80059845680974
126.086895195406 2.11198941056464 7.84850667946814
-43.6174637127197 1.60277787999717 5.36477212335136
-202.318781055414 7.10972978898942 -10.732531309615
-37.6012629361961 -1.75229331242473 3.1209983366547
-8.97646052396847 6.03485148850412 -25.0032614178443
139.576232035189 22.6386403222511 7.83389727337423
208.539429395324 -16.2978221802924 10.4737353013487
-119.751384075701 -1.68975690140506 -14.6096951511742
40.3116829791812 13.0362891054047 -23.2466734686379
6.23825453575458 -0.887531408759377 3.44909937486119
-201.931882636359 27.177816373772 1.8758477052931
169.927161112099 18.0302565979478 -26.1032625936114
-234.474217456275 -17.8117857559083 -28.2502633990593
-34.0093783950446 1.04994966367159 4.65897215021853
-246.196368334778 -19.1105607555441 -25.5190606894303
-247.318438019024 -35.5871144811065 13.2390959074166
-254.351852881364 -15.9651395063381 -13.8760405243858
-88.0108536892814 16.8586439214762 -15.649670752922
191.88045667468 29.7136759355085 36.2831525079411
158.539394534673 26.0162903568478 -7.83562115285071
205.43256906564 2.29577820229885 -8.17887011807564
125.952145094633 -17.1353801286974 0.100443256420395
170.551044157369 28.9893588278261 21.4438887073506
188.912752594449 -16.3963713625049 23.7043868396204
-252.587150440418 -21.2603732106509 8.52894189603726
-236.753505642582 26.575215057649 1.94438418997364
193.010347450175 -43.6613172144119 0.30714959518725
76.3077409033101 -11.4991803278235 -6.20152088210361
153.525059524969 -22.9750811438441 7.65272728546836
185.563153952523 -17.812283830084 29.0235379156207
-212.378569007986 22.3132326811719 25.5640427971249
-251.200255926419 -27.988510834245 11.6127040565538
-158.229223092405 18.716170222228 14.7252577985132
-227.937853469702 11.7734968072065 11.1967756221473
214.558780141044 -25.3258904772743 24.4777314939015
73.9230459346174 -5.55172450761291 1.4704863130198
-163.419879307396 11.3886377968259 -10.310062084644
65.7935506521122 -11.6296108153419 -10.2979626662381
-204.369162093946 -6.43322206064723 15.7313246134519
-90.7385083380971 2.44873398935079 7.31727542858639
210.224335059387 26.0172661915011 -0.186277585668527
-17.8633079907821 11.7823158678912 -23.1661245631212
44.3772328415467 16.8355176111109 -3.42721436288981
-183.684082925397 2.6838646510371 -11.3654578703293
-169.202426967837 22.0461892427033 12.069631170437
-162.364066261798 13.9400258194246 16.5192065592463
71.270415010555 6.19114620415669 5.48854057246246
-258.582309694327 -29.621115820284 -10.5640886298039
83.8070209399402 -12.9252140925286 -9.45942061997374
-87.6431988970556 20.806294839916 -5.49167867270041
128.895388880536 -12.3204945663007 5.16637916025437
-186.129733433236 -17.6841577758778 11.1627381013101
-158.715660659058 21.8980728071187 -0.555373216579859
-184.717104396651 -16.0499636270696 18.5664865361046
173.437289156969 24.4720957563665 25.8556738995715
178.455102949635 -14.0333594115374 -21.9727824579539
-240.019429010984 23.5768073184844 14.9669169803308
100.738160989645 14.7849679336001 4.7606127140768
160.443304942037 6.40474380285279 13.0717968762143
-246.717238168646 -18.683498369228 12.790959023134
-233.192944452511 6.53221418377069 18.6335580925282
194.644954486949 -44.4777343357069 1.97183986138029
184.391755946491 -6.22356149875245 -20.109285660289
123.219380698855 -7.10959441791247 -21.53719361293
-167.718354931108 -6.36671532272425 14.1922800705946
135.406143500672 -3.27745703305412 -21.9883405102308
159.79827950574 -27.5144279939708 8.28740863589471
177.889083619886 33.2262420683694 -0.700267261263903
-190.926925737981 24.5733700566697 13.3808972291693
196.013594813545 9.90005729931185 30.0277170263937
42.7283640988495 -10.1060799729024 -8.95178145111462
-128.028548059159 -7.27393513050434 -10.167158557519
166.137529915525 2.78970629788213 -21.3158644510146
202.183008905986 -9.0165999538631 6.91718438163692
-113.268981669022 -8.50416582383233 -7.85530433870863
-7.30747761605434 6.72576277147287 4.24976124246197
-256.259008849139 -21.0874549262175 2.55204990164251
-124.533082469207 17.8923340498393 10.6575466537267
-181.990733763487 16.6964737062567 21.4846320732173
-240.092083498795 6.41932191647012 1.74834692521945
178.130748092316 -21.5424923621145 21.4679082821678
73.6974511612242 -1.42167167456026 -24.7075015042854
-121.858827756215 21.5537851023364 -2.38944744140264
-241.43843169601 -29.5774439138282 -29.2774874215213
143.329006095721 -7.45570774608613 7.98114096282992
130.342730944187 6.14919819052792 -23.974777576819
-219.76709753176 15.671699175614 -13.0309965501271
99.6290164496392 19.0343790317047 -2.23584539789439
167.427839117912 -6.35629292887472 12.6531658430134
165.549357322821 -11.4452258317119 12.8118211776732
185.460500437666 33.9369501591648 -6.58561052642595
-245.530395875468 -15.0624907197624 7.29184393117674
157.741321362484 -10.288241490106 10.2051469657836
81.2039575152317 -12.4325225409738 -7.84329009745625
175.409858159605 34.9898491663873 17.5940013032614
127.877543293891 -18.1470995621602 -0.798457338704648
-222.612087775421 -34.2669313116332 10.7725098260179
193.539734279504 -22.6897209541076 35.4471700196654
-253.062262635564 -12.3989175223267 -4.35636945012947
-134.740605725765 4.07271045569769 12.020217373209
212.584972599911 -34.0026313047779 30.0398869924296
63.0853912218447 8.41487231893715 4.72991470787215
-111.525277190798 19.6351479877049 5.04284676373356
-142.437571012167 17.81392468757 13.5783797923986
151.752786962492 0.0149840102785122 -21.6163611399265
165.918523545438 -26.0252872366618 12.5767532690825
-189.443220963499 21.612995158832 -2.26518626593163
-137.608939827168 -6.34531796665604 2.70058583020785
-173.876873703114 -3.5984473885008 18.2436685884325
-26.5403787746029 19.7483170894471 -13.4932058845342
-60.4974276176065 -8.86195193716299 -9.16575625019431
-190.076030212127 16.6120993147813 -5.84671785416701
114.562520375182 -16.6715401903704 -5.3351523915041
163.586007477949 7.71312971607067 14.4633707423507
-234.377348524491 24.1589969991049 19.3460887454427
208.326122957549 24.0868761746432 24.9337022888796
-227.121405006097 -41.2485550179338 13.1880068560996
-157.632515369871 -5.89187157431156 7.23815487785655
153.919174025497 -3.25604612030821 9.85009319886032
210.846629922533 18.4514268528004 1.7632602038861
-223.477505290722 26.3179140653241 -2.3756023406762
173.416895000239 31.4591801951929 -4.44293333763636
-86.1135795601061 -8.21914782552069 -11.5548107230313
18.1345051209339 -2.77305806724959 1.02521710528738
-26.8447101335083 14.378969778242 -21.3230299528589
-138.240456483123 2.29850296475592 11.562305959863
201.17250196402 25.1871776867719 -22.2072310046935
67.2369181534055 0.765575300937953 -25.4272733970272
181.157989482802 -43.3399688499971 2.65910236732837
-198.164355676232 3.62485912618419 -11.0630391680662
38.4172462047745 17.966885438187 -5.75588979514449
136.31140279082 16.8403379270794 -21.047354311493
-60.1456988896033 3.54403605468505 7.24543038434813
189.812569112862 31.3696655865878 -15.4568035146291
-102.178118797025 -8.70848031371891 -5.70128243017397
140.6834999677 -16.4132242704853 -15.604481093194
-33.6612540810011 13.6577655592508 0.564658000385818
-69.5721897120728 9.41439309753381 7.76210007742339
189.254979223984 -21.1951238915918 32.8197699475527
-241.991727467967 -50.9056665816084 -0.26356785472158
40.0473199701437 -6.85223047223147 -2.22383310234049
208.990057351019 30.1710926809793 0.602936631866914
-246.245746929715 14.3100588822466 1.67817024854877
-211.532933410047 12.0779244457646 30.9158658373829
146.417360290569 12.3115819683536 -22.7627008580216
-232.341545259258 27.8542816998745 11.141103133358
21.3177399864774 -1.09475537783061 -23.9839263397491
164.015500329235 -29.2490625204078 -3.33562884955006
-249.319084546303 -45.2153490500327 -15.8012768112067
172.493860763723 -27.2444894758993 -14.8412215509278
194.246645202434 27.9952296652241 36.3494543921021
187.849252942063 38.5451361014384 12.3249302178261
-222.106001937533 25.0736018324701 21.7742481944028
211.556834329539 -23.9016312428622 -14.8297099799717
207.451519602083 -42.5249220237652 14.5279362742475
152.694116423585 26.0630095456948 8.37439628082641
190.651562074761 -16.1500025942047 22.4328083164861
192.365219475436 -10.5731971586651 -22.5383334446109
202.159871105174 0.0572967839855733 5.91053016759711
165.241257745707 -31.251792815357 8.89758627816502
202.120927354865 -29.4788151289624 37.360888597238
211.145036791741 -20.4053848040498 27.3058305272938
-221.036470665385 30.2654030165127 1.38843206878332
207.422257521589 -3.66214024554753 -4.19687837742312
-2.97134284061641 2.13844983265811 5.69258592121175
105.801346534533 -7.54661391945434 -21.6421208241582
-179.98018368932 12.76066437977 22.6685411485524
-227.395599768968 -50.6215738078959 -3.24282289548435
-37.6253838522593 18.0172658809841 -4.12341229593206
195.78713627999 -13.1143943788193 -22.6340172536313
178.483332503806 32.9705159745057 23.8204999064144
205.803081907316 -43.2744555605225 15.8251934645418
157.836155210222 9.65511506435558 13.5362702747506
3.47775492366583 15.4505647054231 -2.41295256627503
54.4662922834283 3.22815919517818 -25.8142458469969
-246.888551300181 -24.8806540305334 -26.5315413289453
-97.192109463789 -5.72509967952375 0.314088944720955
158.954018180655 20.7669830695428 16.0926224633225
23.6760783044147 -6.29219571664055 -2.22783464306233
-217.047525453275 33.8760600965213 3.94327539005522
195.349150874628 11.5917680052213 32.1214893733396
-222.996237538635 19.9454904079841 -10.6250771076958
62.2391753186075 13.5600173193615 -23.0710058008569
-151.112150995635 -4.47378418093191 8.18343843122008
40.6297224138673 -0.406076431704232 -24.8022548675003
-225.535789384597 3.56057192820375 -15.4413101581394
36.5940240343704 2.89341048057708 -25.6294305521741
-245.811685058974 -50.0074367413112 -2.11182131403816
194.789346406767 -43.1475467043142 24.8576899293226
196.907847070246 -26.0256006099655 -19.6219372765366
-21.6413145687581 16.3039155146372 -19.7626876206253
-184.470868503295 17.8671866988488 -5.21143794252033
-150.353843016666 1.23294687177743 -12.1640672478229
-221.493094388084 26.9667665991975 18.9405926323433
-114.438507097311 20.752911826224 -6.12350628870392
-235.375049996289 -7.5234554234992 1.99987980401774
-236.277004303596 7.56165622129591 27.3726241785199
-227.648376208709 -11.3755797310481 -21.2881244671979
129.939373626573 22.8103639047912 -3.6570928675135
-143.087028407998 -8.53256273732628 -2.84780958578819
-207.073359294222 12.8440595866057 29.730888836423
145.500878903807 -7.87306546001453 8.28988279537939
-2.30341837974762 -5.58076272135561 -1.82675955666276
216.735672008492 -39.0407078052128 6.47298810477135
98.698310158615 20.3904410191455 -10.4481212419435
-235.76817179101 13.3619253134336 -8.75328439723129
163.65461002356 -31.1485178578201 6.53200241407181
-22.6591836555031 9.81168604226438 -23.946328539193
200.421545917957 -18.3377872389948 -22.5688234781924
214.751569823564 -40.7839346998246 11.2864521932468
33.5562180283782 14.1665745319684 -0.481040804537127
157.226333046436 -4.07786332152733 10.3503253957704
-54.9020226423273 16.9352225508512 -17.7241828208537
-219.509087909855 0.188747488246695 15.1605643721098
-132.02272601444 20.5270221717173 -6.13502596423741
-117.699285938438 7.25488275494734 11.8707766772978
-252.349676685431 -12.7834301510644 -0.15168393856035
-132.92962522896 4.42932032442549 11.9645429435129
-35.1696591947157 9.98102690998085 3.35333917250449
-151.095785672711 22.4203979839417 4.18636859069797
-91.2775821873307 2.75612310051026 -18.4911169621772
21.8615272828041 -8.2087202015079 -17.9925275958956
-11.3355554123387 4.83632664969551 5.21413411825609
48.999707256932 9.53043487339696 3.6033892160125
-243.514640255678 -30.959514167943 -28.3446988896645
-2.15663942824353 -6.0154322138635 -19.2741032891066
61.9154620443924 -9.80235038780115 -18.4809217633527
210.244785338173 17.0602253509367 6.99243169418322
-233.834754736506 -29.4704692707019 -30.3619605692863
191.912206514618 -12.8305703744738 19.0572819022678
76.4346702107116 -5.20700595620424 1.97153534220697
-205.220461926641 16.3632222617759 -7.19553769886619
-213.387411976089 32.2797159723759 0.971205014390198
-256.668736887984 -27.3647042930971 4.66095417133718
-230.150457148426 -50.5919474183442 -12.9692364942716
146.314151169676 25.5368100438987 0.151315922995988
-17.3333884585415 14.5778690701076 -21.2979183339896
-17.703151698306 -7.56606165824106 -16.7690972730996
-6.38852752668931 14.0973371717281 -21.9021732988534
-235.989325187978 -12.3986367063892 -25.2068157680706
61.3491109492171 16.7470495272262 -19.5564009799739
91.3576576136244 13.4713908281899 -23.4753374513256
184.038475079287 -45.6256604614068 12.4113340867998
127.422741852794 -18.98089324632 -8.95557924086639
128.82080058945 -4.96516282081641 -21.9809693732122
-178.454637507513 16.8525359851361 20.3490886451674
113.686727506977 5.47208034852193 -25.1128903110415
48.0460673148787 16.4629875448926 -2.57979014670045
176.191243960952 -5.11534751571718 -20.5290923510374
181.680925726473 -33.3129144995997 24.5520759988281
-160.823651568587 17.3050868017791 -7.32238616780824
109.847606382732 -11.2947156761585 -19.057758219792
37.9303943052153 14.7082599856333 -21.832516965059
-74.6241037151474 19.3729347349383 -12.8381578744683
18.5090334982405 19.2299883326731 -13.9486964090354
-228.740475325149 4.20945936814671 -15.0608267961147
161.459556746064 5.78450380186717 -21.3264565917128
217.092892547675 -20.2202112780191 7.77198738254649
-229.405704772137 8.34456930686861 10.5672391432477
-145.275913814774 -5.83399167147411 5.08617997047467
188.741550748617 -33.8827913853864 -13.7321694733957
214.223247486466 -41.6240282415341 20.8071516291047
69.187453887216 -11.9493523577346 -13.7167213406726
157.61281652712 -11.5321727565808 -19.5779603273625
3.48290930607708 9.31441537638185 -24.5931108485887
143.006395132436 3.59384014980545 9.59072149028044
134.626366424317 22.9053678634101 -9.19203126000324
10.4393584368745 17.2064652794198 -18.8331555724679
-206.414840487065 4.32705374702285 27.8709961082005
116.922550934855 -16.1204278979458 -2.32116487076813
-218.363521336961 27.7616135743197 -3.70328774334364
-125.220534501113 10.2012136520634 13.2886656681061
-61.4261972346592 -8.34977300455729 -6.38160776236053
-15.9986339192079 -2.64977816477373 1.28465930924325
-213.9456926111 32.3849087529922 13.5515584390116
58.4592015571809 -3.81547512840472 1.38004881821159
-236.400507009745 -30.080808767574 -30.2739848667317
42.1346632169644 -10.4031414756945 -15.0037169623828
-172.686378283712 -10.2880991848841 9.47960641166947
179.428746180436 17.5839628990506 -27.5327593945755
-257.740239685244 -27.3995195978152 -13.4331230083969
78.9907795459326 -7.69633202885545 0.348552548068657
-209.645406293975 17.1284650611722 28.4551587268029
60.0751404121086 19.0930507931191 -8.94080525206676
207.50339852093 -7.20996884203741 -10.33213128227
-233.806267703915 -28.3842939981353 17.9260892638551
-211.332193561259 -2.92185610481811 16.2945970667356
-206.158793210799 2.43532376613461 26.1398759619777
-109.206412956192 12.1653867939492 10.736201660797
-219.639868174462 -10.3338182080445 12.22803749147
169.464005409458 -9.51768062607109 -20.6757916016954
-67.1309910766406 11.8068575890117 5.21471810066122
175.146419681785 5.33192272788208 -21.5985238319323
-161.314734254097 -6.6488734117679 6.66689610954818
12.5563598907572 2.29463377973849 -25.1258911279892
-228.206294564545 4.60082202977694 22.8706715562283
-237.813295252988 -36.5870550042819 16.4614894336042
-168.836894727216 18.3293941368608 -5.6081926215939
153.830289948215 19.3071566217049 -20.4429334201445
112.644069716816 -8.43898154818184 4.26881229285497
196.265837676262 -45.9339781505675 7.26050669614443
-200.752068656974 -9.58481343851687 -10.7588966916492
-243.574662979344 -0.0539121556993868 19.0535199203794
189.732264049994 -41.5397874682046 31.1388316115039
-4.63416415602596 -2.00809322014537 2.14075601272974
-83.206591855201 -3.35933483477361 2.29241617845621
140.791513298323 16.3037099544496 11.7504199999466
-216.993588203595 23.4085094493966 -6.94881209185113
167.20521722003 6.4422832290782 -22.2219224790934
120.545643265308 -4.21221699633758 -22.6234024908475
50.3483033425331 -10.8139528200911 -10.6253845359732
51.1490972546946 6.71890033472407 -25.6899807169488
-51.9969617290183 9.96798912385353 4.93388461001921
-205.804402182878 8.6420863589679 29.9627323925782
26.9555067288609 7.2802491575165 4.23695629169479
-236.754434833191 -16.8827997946612 -27.6328090108361
197.366572580763 -44.4068976229712 2.57184503550443
-255.53490486149 -36.51418590127 -15.7739957719163
-69.2178788695246 2.97983735551155 -20.5939102715455
-40.7248056959454 -8.43309606447633 -6.74440744230641
23.437732876143 1.81174307833772 -25.2321109009012
140.71970036522 24.1566426404789 -1.55339986042078
-159.146574508191 -6.50482468069639 5.76961566566446
58.5459227429303 16.0601400529491 -1.17735739086133
204.668725939595 -23.918224304804 -18.6051322452675
-234.260310187957 -50.4387126960915 -13.6540880812295
-108.740240972531 3.55305593456973 9.44102327475011
162.476989885618 13.8930674315625 16.7383785887435
156.24153316467 19.867071005361 -20.5583041087274
162.314506596554 28.2937027691462 7.81802121327586
-233.996360638521 -20.0194506607434 15.6377396810566
114.905688564987 19.1325083555778 2.43052411138103
-77.2220443083689 3.45697660906996 -20.1049167641004
179.442652060025 36.3671369742122 11.2711964364843
178.850556594187 -42.319359007144 3.43433431896198
206.896999104437 -15.5571775010679 8.95312356547841
81.7439163192995 -5.92426875761016 -22.5579612297474
-244.413947669027 14.7060294537198 -0.318058272628294
197.184825721026 -40.1681495137331 -5.92431002015146
69.7242136974909 -10.3094222073051 -18.2579054799782
55.9215572992871 6.23174687749562 -25.8115850756562
-240.935817000841 23.8551396448645 2.09080884496159
140.028938303774 -19.8126197520443 -11.1218525330448
54.2245810881095 10.6843581564496 -24.6797328974222
-231.168652369629 14.2579330120571 27.687570502697
119.083173282947 21.4660095992057 -12.3673460160682
-163.305139229965 19.4057596314085 -4.90041526381918
30.8845961632562 12.3001665890794 1.18639027560545
-245.652676733023 20.6804139004903 4.63217314664899
-138.11794413279 20.1840531932968 10.233698518465
25.6947926026747 16.5330879285618 -3.69907352567263
53.6943156707074 13.3539411744989 1.49587538627334
-82.84704611365 -8.02019587248697 -12.2688222278165
205.765934539497 -21.6967359169468 33.7129326915628
-190.604869560032 -7.92961936141932 22.6432084390741
127.682438975843 -1.07415232174286 7.24364467246887
-225.538521491318 -28.7341212859434 -28.4857427131774
29.0153038479289 18.1413900451939 -17.1035286598801
50.7960426823273 -9.28602919897222 -5.00332368359893
-98.2348910485364 9.00639866321525 10.8696191168138
-213.323021721196 6.42768678946097 30.015355856874
210.603651774483 25.2170384358017 1.8329506229017
43.9786092270078 13.9361504427601 -22.5636074868549
156.406211521056 -20.4808606995751 -13.9517350011801
-186.934513082053 -18.035085743993 13.7700367074481
155.131142737169 -2.67133377810142 -21.0797771366104
-78.8476207802103 5.50030727758832 8.82685164812822
-177.139461097587 22.4887463216667 0.543184986408616
94.7460689148044 -14.2396462215424 -11.8500937893405
-204.028293190671 11.9485504445897 -9.13914435254524
-222.879073385055 7.21343162786342 13.9689911465689
199.331394025322 -29.0445047653732 -17.0905818825185
-208.334032444122 2.77949828290988 26.365779988133
166.580831005245 11.6335726433671 17.4588515269059
182.342601513902 -45.157378143685 13.8019008783669
44.4302396227514 18.1283993004341 -5.87020085330062
196.867794367927 4.4835965103502 15.4966611398925
119.621340069255 -1.71826063212 -23.3357515643536
188.653736136602 14.0972611468282 -26.3620057879867
-6.4264154061392 -7.63305843727808 -4.96904161435928
201.628014902173 2.33621491087714 -14.3895352891855
-28.2434842578801 9.4467741489312 -23.9618728453982
180.113842867287 2.09820710729178 18.7611825892702
205.627479752519 -23.8047341550002 34.820491820684
189.303599478199 35.7728000640222 -0.259940416156545
200.817727921584 24.1832303418223 33.6203239163516
138.750231341554 23.8461293600168 -2.17516429204083
-234.60622733462 -51.3114152540771 2.43778887505677
-97.6093203586151 4.68966690180966 -18.6378882784803
-233.953887659607 -36.3200103638437 -28.8234584446548
-223.929257795106 12.3828808986805 13.2809211813814
170.725664088878 24.506915947305 -23.4010141399372
176.958845331409 -14.8927815585967 17.6880114373097
174.661772965594 -17.6586824002766 17.0440296850614
138.642320551241 -5.00231077232654 -21.3392022544698
-133.07576407593 -8.58587251994617 -5.03640548853742
189.635482762622 32.7649011257667 -11.0185146777352
200.476347038968 -15.0395323688908 18.1832249458107
-4.73567701399564 19.4461661179266 -10.0090339332332
130.438007219324 9.97837523013172 -23.7974450568974
148.454363217685 -11.3428951771488 -19.2191967712784
160.27182662798 21.3686076952486 -20.6024767535024
196.349975784467 -0.836278494132044 12.2448730528996
-22.9084952011307 14.1727908180885 -21.5589280493854
129.410055265813 -18.7038746490947 -10.7453323302799
-214.047435844472 15.6368016774106 29.8198349658094
207.870077658375 19.0015603146831 -13.7536142982659
170.275163047682 -12.7846483497021 15.1164762305789
12.8916495973106 -7.6584485336625 -4.5834057741429
117.835925625102 12.2114225219406 8.80971695568113
-152.370968566688 -1.2685922106475 -11.6100675246087
-183.077720750572 10.7481998750309 23.2656933934874
195.560255336941 33.2626542193435 31.9860051073289
-159.420642584033 10.1389924471067 -11.1962130526622
150.289268071733 -4.79191996996496 9.2048632018287
49.7288172467579 2.63771295613795 -25.7008317495821
192.421922115514 -26.4673966390101 -20.2390584567125
-190.832221304013 13.9437935413178 -6.92295949907724
-229.152473345473 18.5926439487513 -10.4028797435394
-140.021715810437 12.9103358669258 -13.2343251754208
91.4870964975227 -12.8132705510041 -16.0836029602201
173.083707213013 31.6558166496127 3.73070828843133
-257.486719216417 -30.6314631816285 2.6390020428754
-219.337522335678 28.7284718020965 -1.9541571938099
133.498158826953 -6.43567631355589 -21.3028530040002
-236.523588904811 15.108971243976 27.0901813831399
35.7291371541658 -10.3815281003457 -12.3884873147002
181.478946098883 -44.2430525102994 8.49924883224904
191.304094680312 -1.91825246289667 -20.6736015250614
-235.340083041191 4.43771725107004 18.0081068508702
-162.37952530489 6.28332255141205 18.9093624917224
160.093162056726 27.6528247279246 0.432804578468249
204.135060470935 -14.8827409978243 22.4887646219387
-72.7195679975273 -8.79818647118054 -8.01137036708206
177.755345690708 -11.1436263736807 17.0947661895162
-239.059379833069 1.95460956191183 16.8263533618979
204.176362163456 23.4595894910748 -19.6736062062377
-239.169645573069 -14.1999470546973 7.57151260045202
-220.055526102532 -14.4368836592685 -16.060688586048
-203.699522261853 8.04954641353624 29.0889630503425
41.0098276187045 15.6630077078101 -1.93174696014905
-236.503659857948 5.21076216275639 1.94474262781626
117.840697452823 3.30671571656552 7.73315291962069
55.3273007452479 16.7344874621798 -19.4458435527333
183.594290822647 18.6266525990813 -28.4081310402514
144.794545681137 -12.6457526375789 7.54655084743353
-235.160254434843 -49.2048444606261 -5.38590382734457
-42.2529968099979 0.491908882894185 4.59421881969508
211.1195574884 24.0355193166411 15.2464936072914
59.0637298869257 19.2136231771981 -11.4029199115244
-221.807136541118 -36.6469553713601 10.6783059146796
-216.077690503146 12.8017606832829 30.5040473657019
-72.4816041717678 -4.12233047654092 1.03810266471154
199.518259871404 34.5005899685939 3.91745660300902
-10.9009173799431 8.24043237454953 -24.6379712462504
171.153165829155 29.2554714992987 -14.1963580395366
47.0048310177191 4.44505248266782 5.18148394594698
-149.516939179956 2.07391928506992 13.958856991898
180.225732948123 -9.52847234196411 -21.7914891650635
-239.131819127509 20.9870733281782 -5.11122482543023
-72.1368162652302 20.4531621871985 -5.56327375719944
190.943912938564 -23.664097121031 34.9137084128741
211.016794277948 24.5069461162782 6.76567304734071
-91.4733862481458 -2.50616925722697 -16.3281696781644
199.352917982098 0.985962155235861 10.1033613928534
48.597975761628 19.1510551812423 -10.4426393857285
-249.87641637794 -32.8915568170138 -24.0771675198558
34.8027340463555 0.960354154258644 -25.185074880128
174.582669570407 -27.847466007033 17.7636701486836
2.85561051095349 3.19950714147816 -25.0891934301221
163.827550658199 -5.65199663378535 -20.5845516934999
8.33439381349744 -1.1507252937708 3.25432412885498
-163.031267379567 21.9338805763897 11.1323614399335
103.718623663644 -12.6493629325913 -17.4727381607169
146.287429397985 25.0741304937288 -2.95123052925541
-191.251729686896 -2.66782974553487 22.1594851972118
-212.288520263168 14.4701168073548 30.4214790332606
34.6892114455051 9.48677338413121 3.22211438890363
2.66789399308086 -9.35631246964074 -14.4084423600263
210.889955785126 -17.863636536852 23.3153539243762
214.255347151605 -41.7140582547362 18.1844831390257
-153.18595536381 -5.46017837812281 6.80271135316813
-53.2377739272919 -2.4919142946222 2.19062760543969
-229.024181095167 17.5696086743831 26.6989239227349
141.427858695115 -22.0085359588509 2.27404382372969
-244.650113440691 -48.3794990849861 3.73699975185312
187.606693856859 38.7303963615628 15.7736865795418
86.4709166228476 -13.2086957840657 -9.39935044188077
-219.965186857368 4.15972138773039 19.6171786619099
-197.470953093906 -10.7310152722912 18.4938379286479
-161.523362972245 5.60246029547231 17.8212280104281
180.668700057734 -36.9978060664474 22.1453980459043
128.447268018914 20.9240327335864 5.2229513120472
159.858764921402 25.2585244553704 -12.1717749722803
-0.520998045849184 2.19877796771005 5.74857386084518
144.536837800004 -4.78748533670716 8.42649975434031
181.7976647064 -18.3946147802512 -22.9165587587417
-145.829375005037 16.1794763513575 14.3491802947377
-246.588455281808 1.69902208676443 22.3474674628074
159.75410843204 -0.523339402985364 11.2293032611767
-153.620845706943 14.5071640139274 15.1321712026097
-232.045993753985 10.3961339080888 -11.1823736369868
-53.4416737316996 -7.90229235239919 -14.5081818174077
166.312097362796 -19.5583666143337 -18.0707720830122
-177.781427003334 2.55084302704843 -11.4116343356581
7.15799511754281 17.0135972582583 -19.0848599442724
-170.613051954003 8.82505367585141 20.722584974129
157.099541070582 -15.4599001945013 -18.1329328542856
-123.114512344099 15.938133418838 11.5181417960116
217.497268708501 -23.9773100296228 14.3908823323011
-234.570605903534 7.43663460279704 -7.00391244243239
-235.623985397993 25.316375809455 -0.881377883571487
-64.3777547506308 -1.58504855677852 -18.830848957079
96.484654382814 17.5986965025656 0.727265720549166
121.404863299265 11.6221681957271 9.38610899340748
-233.308936369915 3.16421570299816 5.25018332514544
193.225791677419 32.2692769664798 31.3513179529496
137.164984912278 -17.2120398408454 -14.4435159757686
-230.047124326545 21.5826613874311 -5.74589676814473
189.995375801077 30.1268971664903 -18.7594345470381
-247.502528727209 17.1808513665342 7.99310725140871
-163.666550878026 1.23287902506367 -11.4900248556857
32.0182459324488 -7.40637218409715 -3.34169100909501
-216.118731849477 32.7185270340472 11.6923308443823
-226.887568887826 -49.4136506726279 3.01843243965354
180.891000268827 3.42556931982603 21.6840062365468
100.792898866015 -14.6015398457176 -6.78252769235525
193.531800503621 4.80827944910213 -20.1340871292101
206.544003540998 -42.499849469128 18.9103538796321
200.382937860116 22.7681674725476 -23.4765131510167
200.107558665484 -23.0756940331464 36.2894487861238
-248.26694532202 10.6661813789951 15.2366757255334
-224.205023879703 27.8659722135183 17.0104284432216
38.6661442319804 1.12863171471063 -25.3156638915317
196.078690519385 -15.8583080287608 22.0657596236677
3.66913904690125 -6.74641990372594 -18.8836598240052
-83.5430577616169 -4.68062351159625 -15.9112034907936
157.556846597891 -0.248081920685724 10.8615804502685
49.3568165841044 -4.73584343458868 0.341946969487083
86.2772946345946 -10.4992774180834 -1.84442387829911
-135.587716076891 10.5604885615455 14.5196683360666
-253.266742748851 -30.1931585362291 -21.0652832576041
-232.254540754666 -23.3005785206424 17.0844698975091
-68.0242744867931 -4.30229935889072 0.649087674225016
58.3850296569685 17.1649126111944 -18.7563447250145
-5.43049172752245 4.19002073984967 5.60268520043846
-219.932403755922 28.1923482444532 17.7925495149604
186.694571273369 29.7741939324223 34.8937090832771
-78.4164330603734 0.851345802776788 5.8815139463262
-203.800619315639 23.5885718828005 -3.05057826377757
198.765492803543 8.50213715626464 26.2734727887307
183.295279283933 -44.1185865625485 4.35604798645898
210.606287831284 -13.5046032066559 5.84921102946134
191.34274033674 15.4617697010623 35.4455371827129
171.666100412172 20.2279001364986 23.1082611423991
-215.580857752846 9.83242772994421 -13.772377849193
-204.371405490021 0.420057467697213 22.862290035518
141.832071539285 6.05716658781334 9.99873139758459
-205.781577142081 0.776124597220783 24.1489527697722
-27.2134027889084 7.73636902230521 -24.3633812087562
48.9066105534675 5.4906667845861 4.93346715328292
97.1647275390367 5.93561383107458 7.04359926763526
202.919418247705 -5.1652046787207 5.17797509781982
-219.5314320603 -24.7896011103499 7.4669911012823
-204.285262919654 16.3009413464015 27.2488339735455
-133.935488445225 14.8797257248248 12.8364097323691
-225.280965530646 6.28575688398084 -15.9337069994479
-179.994907246011 -10.0589147117907 -3.91352756150119
196.664620230243 5.91230565945821 19.8148265263586
159.427580674336 -14.5873248664011 11.5560130184691
188.535235254008 -0.357665429236623 -21.0775083678334
92.4697917270038 -13.7094821632749 -13.8127223379534
-79.3468790664735 20.8111090928103 -6.71246941402669
177.163702945796 5.74221564834135 21.01171736064
-243.192151656733 0.309839934892928 24.2716784486567
189.061795785108 -43.3201561035423 23.5593492426673
-155.043072405531 5.6084423166582 -12.3293670019107
24.1007064040508 15.8771455540273 -20.5108113058928
202.722754119 30.9280773648849 -7.25799770713082
-58.9369613663915 11.6421043247725 -21.8410940707946
-102.196456361809 19.523088259893 -10.1807397874482
-151.854196936883 -8.62066850566805 -2.83501537565657
-241.509882708786 -10.2284937721039 -1.5405291792683
-215.339597792241 25.6580944559498 22.3545866134226
207.856720333817 -5.15415923577312 2.36397194585762
-154.575268673039 18.8983145221146 -6.29527412623824
137.076097965047 23.5988989113006 -4.12731718534241
12.8709750554739 6.02960350714446 4.82314987973349
-79.2732118774662 -1.44467096827272 -17.7269449710709
3.49716209611048 6.16908845346546 -25.3021150753721
194.812507170775 37.8439681434656 16.5503684585992
123.938503613827 1.96553288520417 7.71252017143622
214.833672752878 -23.8608630915575 -10.0250986794392
-141.574386719934 5.300477616814 13.6722197217006
-112.397085035422 21.4094230914167 -2.90350591147697
16.1808142803339 -6.66745177935055 -19.3875070711123
118.091984276103 21.6661625843302 -10.4331474866715
161.043137403473 10.578300315427 14.5311224678607
42.8511381631676 -6.37377005480502 -21.1697465629158
-111.124547582427 20.8878161287378 -5.80350735432348
-248.500520686595 -10.7269098285098 -7.41255993940071
-19.8107463007242 8.4696382897199 3.32215652425301
210.839774085114 18.6983972361433 3.85803536215595
205.072991856194 -43.3785473125699 28.0238623977489
-192.262069199718 7.74826779829052 25.4789763331481
-41.1289174410705 8.51724942050538 5.06824849073771
21.7620428651102 -9.01255473745014 -7.40960034923107
-145.854827400538 0.665199376503253 -12.4696295261161
42.9261831501626 9.81663895641093 3.3470967900002
199.190973993827 35.7201885713064 17.1437836700594
203.248816369336 16.4698467028779 -19.6568191766917
218.845862537732 -32.4331086612896 13.7833158199571
135.863657851675 -5.27365214120034 -21.4478696131256
156.88831855647 -3.78838408078714 -20.8069339189913
-151.07228800822 5.59658523915129 15.5733863697667
12.9115490087627 17.9488487026008 -17.6372667154234
168.602706265867 27.7880608290684 19.989769544798
181.303016005734 8.97780854749706 -23.7861581794709
109.480182140845 1.80918028810063 6.87040122825577
139.022445293802 10.1641130076038 10.605943718425
197.522836240911 -12.6842298566948 14.5915640529411
174.412607509815 -0.134712790574679 15.6896740825236
-249.135479429326 10.4820773060181 4.20841674678398
191.712993380111 -6.27278495549501 17.4915237942448
-105.055189277525 20.9017485593587 -5.82164200304095
179.957399871744 -41.7264923265244 19.968813929278
-93.2215671063682 20.0453247748374 -9.61129991387879
71.8439115908716 19.3693923719769 -10.1168680155682
-158.24617323889 -8.82389066626357 -3.66806105203482
-37.2971178105797 5.9302124980861 -24.0319870297809
136.957307743873 18.1591891085974 10.8112910677434
203.714556291985 -11.0987997574417 -18.4406732585361
-240.734417984585 -9.30752085956334 -20.1477999710185
45.3441848141014 10.6557366409404 -24.5409112446895
-233.931797657769 -13.5962584420206 -26.0485233546989
-177.174270539272 -13.2537646802402 10.7075823568772
206.29002804378 22.2148253102423 -17.0563489443055
-92.4134665869345 -1.83011392743403 3.99449216336648
0.0682635409865655 18.289298776295 -6.6670942617937
-3.76897757114002 -3.29125953868982 -21.2710550751605
-206.377750969232 11.4718679971486 -10.0637272388991
-20.323742775107 18.2403392540447 -5.60257643310331
3.38062127399061 0.610020311572601 5.03722095385355
146.648159361802 -10.3035281609954 -19.5960061327999
-101.433695999663 12.1122850577882 -18.4563225651152
-232.375926373125 4.04768349861595 21.4747635947217
202.312679039568 17.9070072073846 -21.2246213949352
202.859927201049 25.6344757705551 -20.3845001803907
146.097777314537 -17.028654860444 -15.5884427657165
-219.014538663256 3.7305766811873 23.7951193797576
191.273205833823 -45.0267759471135 18.428447103659
-239.276528114409 4.43300204962654 27.4610415300805
190.199642195918 -23.7216790287389 -21.8857173252791
-254.936707920315 -31.5503778166829 -18.6882462657808
-257.811034297147 -24.6410388599569 -12.369001399832
-228.237479936032 4.29969493581702 25.399928558587
204.970897456732 -15.1712033253203 10.2608224065275
-59.6819746295437 14.70882090071 -19.750123915442
-100.513199687075 18.2250070214792 4.94393900452173
116.64461145131 21.0486146941535 -2.06408988875838
-250.697902943558 -11.0579479395123 -13.4503990064758
4.91918406176042 18.080219416767 -6.3371348124856
76.1442183778657 -7.23262751935636 0.387042076259285
176.695158243679 0.277336684024372 16.746607892713
52.0764234398559 18.540550455334 -6.70110909800298
110.397658101206 -3.58669027544502 -23.2199300807351
-134.936366146255 5.3133666369699 -14.6024356579085
23.3359653226154 19.2988600129213 -11.1305980483735
111.101010967125 20.7565477050995 -13.4258428299323
-141.424489320155 0.131274916912425 10.8643816556461
8.71871455937051 6.84497668863849 4.28236487966437
209.865453466891 29.8697251691172 2.41924512309698
196.006461015419 6.5089028159671 21.187543700133
217.56761323979 -36.0448823761629 0.0312606821986367
-233.293837397254 24.4982789356367 -2.76118314435333
135.751470368842 1.57002074991361 8.47329988573089
