25.2277705685052 -4.50908991089384 1.29552867915444
161.411258092016 12.5110149430773 26.3931451584118
106.168469681281 -3.76668978399154 -23.6203459721565
105.198542123849 17.6344708412773 -7.30499136533483
49.6420509590894 11.506080868186 -1.65976515257765
176.776942390136 29.2391194735448 3.13664690835899
-215.53784294009 -22.6303945270837 1.78125682358432
160.653445789821 11.9322929642982 24.500692220557
21.6646528918499 -9.79351527894869 -17.813408082591
66.1404548446622 12.2663531021969 -0.528576133590546
-175.690934603879 27.4302128903197 18.0534193282432
165.135132366564 -32.8066364440893 10.0037441578876
-212.970747818988 -17.8030057244333 2.53982009311384
135.85413062681 -21.5889267522832 -5.96973225839652
97.2849179713889 11.1912151411872 -22.5995115107206
-205.497080901455 -35.6341471577168 9.82155520488335
177.397849689841 15.6481184565895 17.4997931147043
177.72660641548 -23.4552931844362 35.4283573262467
-60.9315036278323 -6.63602852299161 -7.75743594154058
-205.316927099897 -36.6819785720516 -19.6729279036932
133.129990316699 -15.6492545112031 8.92912206084941
-145.511213208845 17.7333663369418 17.4974266710652
178.274270079609 -18.0098502094154 -8.47673685546893
123.174841833811 18.6558916662585 -9.70090046275273
180.985692403656 -17.0441125788132 -1.38458271703677
8.67566885645254 -9.67211298909988 -9.90330038316154
22.0768931256375 -9.39519042763025 -6.91563882220774
-170.087648587346 -8.00335764979252 -6.46343276651832
-24.9891495001005 5.45592611811895 -21.432179108269
-190.136974058655 6.45078576969785 -8.29563454294894
-125.602040513009 11.5584213174656 -8.43355342491305
96.1503544852752 7.51977870659845 -24.6790191643858
-194.701777130398 2.49059668049295 -3.27080114555889
-180.033560477599 3.04317254438797 16.1864424126416
-197.711827590696 -8.85342224691377 3.2142884430995
22.5753886114354 9.31203222312577 -21.7010280130801
-183.472149481883 11.014484199437 15.7835249761343
-210.225367152314 -21.6853861981779 8.58927766727325
136.709013661398 -0.232706189669048 8.45559289515485
88.977032752477 15.7236694423695 -3.03338793903009
-179.972651027472 7.22379475613182 25.0211791951224
170.126525038866 28.1803788637464 -4.66373837979396
172.795807152683 -26.5108260560394 36.1629390684565
157.429636758521 -32.1477440313407 13.5624397050289
-119.897482196489 8.04324104994637 17.9089475090227
-123.59814624395 -4.44968349818721 -5.98507426237195
182.540435061556 -27.4195894018416 25.7240318337101
173.427111390262 30.4382980116183 8.65486835017808
152.54477892006 27.1555852305751 22.1516247775503
0.0414425932520863 3.28405155186919 -23.4051771722713
-177.530270037225 -20.0334208533284 2.06548863979923
167.129005724169 -30.8111371328277 19.2966625326638
168.990604001301 -32.6110917717404 10.2951103371907
101.949585594302 -14.4971759926777 -0.41022400122817
-196.179595313939 -16.1899911180859 9.13749073897787
-172.546170477256 -17.4614053901099 3.33978502450865
-114.796494083216 18.338293969109 -0.382391469205167
-116.214750954982 15.1184662561254 12.8204821833383
-144.097797974276 14.2490386847597 -5.37990305826078
153.099918263333 5.48261055765995 -23.2224139054854
-162.062431545656 -9.01274631911856 14.8312871342169
145.165685704375 2.13507257845371 10.8090794132587
-112.859204366 15.8001046252387 -6.76223867745664
74.3446510695554 15.1314378426913 -14.2794620092449
120.748731243074 -18.7751336546125 -1.10568338251935
62.8183260538359 13.5771186130702 -17.4261794768888
-160.541546387395 -14.8034196909448 12.2076890162146
-86.2213077833043 7.37315936271536 13.3051206553235
-103.016629891683 -4.39348169616445 7.64545913167719
-20.4002828411934 13.6256883054487 -15.5622204332227
131.749888142683 14.7043952163915 9.00978564755343
153.182515943998 -22.703566306655 -10.3646146319708
-176.706768240833 -15.6249934549605 -7.27003588531926
-4.71577189904379 -7.55044458220323 -5.83528616003619
-32.9275680570331 9.12816826608962 1.31415597876909
156.384375662188 -23.7727492561165 33.0917257701441
-205.221482510864 -9.72791580351791 -7.10351853216917
173.727717129811 -16.7552636686986 38.0772643585844
-142.519861968432 20.5604866387837 1.15958486806385
139.22124009789 -23.033710751032 -3.27624194865736
-107.723968861759 -0.810206838184733 -10.8688068963626
102.489115837782 -10.9507658916151 2.15005741524872
187.423281919851 -22.4825839599135 21.330302090653
150.367008483339 9.2734388395051 14.5091053044138
32.8946571327967 11.7984338167827 -19.2620297664484
-115.645607806414 16.5736255096536 -5.27323838541034
-156.789929085707 -11.3409162712675 16.677298272527
-11.0382727101873 14.376923443063 -9.76045070525375
-57.5703470158155 -0.880566355095377 8.09961089429065
-169.007235934689 -16.0178184404613 -0.888532238809804
-210.677709537703 -40.0025009452776 -11.7145344291641
91.6695582493738 -15.785339834035 -4.34550275784825
155.929544589843 7.37153530736659 16.9407344935593
2.29528313439466 -3.99654256597521 3.92686853694377
-201.995993928564 -9.69393713281612 -11.349191050471
-190.41143022319 5.07345145935489 22.926487395804
-135.656502754564 14.7631886231989 17.7902640516426
140.594836223547 -18.082466153067 12.6672515923789
-104.187248851519 -5.4994328621075 5.14367035702656
-196.484190594466 22.1761206392361 11.885460786193
160.844723914404 -22.5800165946655 -12.6633259496495
-148.888064074846 -2.88289655504523 -5.30393765518704
56.1009630760579 -11.3430607591645 -19.6325682776978
33.0594354418284 5.26857692868544 -24.2378774826483
-198.328852570375 17.65052695987 -3.31902078348445
-148.163633172213 21.0942684041754 11.9659002473865
-113.285650179788 18.0896586923209 -1.47587699039622
34.3853319986273 13.8779069988184 -9.67807373301408
81.0317665681819 10.6280167433814 3.71117527235256
177.900633720101 19.4090150913027 20.2371446810352
-192.470072403306 -41.337268615267 5.19811002065722
105.186378200951 16.6808654354969 -14.411241965575
99.0452014849832 -0.0321213593369526 -25.0587672691332
-124.632989284996 9.84822418185961 -9.19240247744053
-5.02857851597803 14.1872886756446 -13.7162511760341
-104.370244311313 5.30029175622307 -13.1239594173164
123.109021997455 18.8900742882338 -7.59097467467497
-12.0982364575089 -8.0730850018445 -14.8442463309202
182.326068600663 -27.0703034834218 18.8593142099684
156.261024903515 18.8166825749799 -23.8925370179991
-48.9272103878731 9.29012454325609 3.46868500995243
-166.863809879247 -15.8144120844859 6.01233543514718
99.9641500212141 17.0967321993858 -5.18200663791315
-16.8823718066635 6.98272005844175 2.07756423264545
118.231762667584 -11.7732394101559 -19.163613083489
-113.102351702725 -3.247807630798 -8.46376176661233
143.023573206555 12.4331883952719 11.8212048544175
-147.027476624976 17.1194424530473 -3.76779079157103
-178.595220103416 18.3611215947275 25.4697932353982
174.954844797185 -31.6553921117121 14.5293953759731
-80.9491590657597 11.1711401820718 -14.869613468317
161.940666041709 19.1321330929241 -22.7841659875551
-176.692594587847 10.7061473183214 26.1446697523777
161.961955951328 28.3221908873312 28.3511931834419
165.298793214458 -30.4905933866557 2.06045851956861
-94.2181719717843 10.7796427226723 -13.2172485050884
-149.2887383448 10.9417593876376 -5.85813941546269
178.441296137113 -5.89093872451281 20.4398741503521
96.1644213052234 16.9712731114546 -10.3473383924638
-28.6834754901166 -3.52891433711905 -19.4204823044646
136.833820054863 -15.5166300160676 11.0254944003982
-183.469902244687 -26.0135744929956 -17.0447863265655
-155.82824412242 4.07088110469417 21.4341726247687
101.707268841602 -9.84910889527096 -21.6134096256523
36.6561063706687 -11.9523691371267 -13.8302701091392
47.901984558719 -5.25250876341578 -24.2957596126227
81.0754018819097 -12.0296824048188 -20.4889653601468
-105.631675701173 7.99927654174232 -12.5709777092317
-127.16087577959 -8.14935285681787 2.47270615852259
-103.674112215731 9.05944500196252 -12.5926996821901
-39.6479384402808 -4.13571861107889 2.89137102420019
153.739649080402 24.9289449813269 25.8369181438715
44.9850229021938 -6.38976787087474 -0.651710270829484
-190.940980829293 -31.1258576826062 11.4240081095932
85.7434565092004 4.08691762059177 5.5567215045692
70.5426154705476 14.662624742355 -5.10380794858018
24.778232772386 11.5683317732667 -3.74067785869593
-53.2316494502632 8.73065294293932 5.03769811875045
-47.4568663471557 6.47778462648211 -19.8113527428505
135.316236662567 14.0609473462523 -21.5271854151377
-180.267673020288 -16.648311033298 -9.33534197433236
134.780239547449 -9.99467829955758 -17.902359542481
-190.7963085084 -26.9820750804271 -22.9185345202989
-141.303483878879 -11.8242384119852 7.27909916243522
-28.2430571385925 10.8018384294316 -1.27017518822062
11.4887744037067 -2.93364749286075 5.41792422152451
72.5730428625045 -4.19024675912798 -25.1065340468093
-114.960285124255 -2.00293591154328 -9.09893841044718
119.714701287693 9.16093081233437 6.65652607955566
125.321292923324 -19.5725840942568 -8.08901742562519
-184.101061496388 -23.1320541973403 -15.5362451860558
9.634887317063 -9.99517589298332 -12.608188196443
181.731324602095 -27.0557660679472 12.2441144577394
25.259633651012 -6.68306648602514 -2.11456365009207
119.267460694701 -13.6874951317263 4.20123546164999
-199.918732228893 17.0662425228904 -1.14437892794385
156.832651048835 13.2030901312012 -28.339021861845
122.568396420034 -11.8723102264561 6.11976206239631
-22.1785004264109 -0.267853821373762 -21.6524904667518
118.802619956037 18.6261728676747 -4.64940374654762
-124.627423419669 16.0253300427324 -5.4514712131872
165.491560176222 12.10732762095 23.3183666929066
29.3279164233058 12.4148792957964 -18.2222306705493
164.550520136243 -7.35512521986634 35.3204790668778
-99.7992858310769 4.51340796269887 -13.8384562555596
32.525301927158 -0.774301776677827 6.03064339757716
157.265295614705 -32.3603873712267 16.2655709493841
121.257598972403 18.635856275912 1.30669870713406
-197.062916055789 20.4292111577958 16.8709135803198
85.8744663071452 -16.5874684998154 -9.63294425398569
-176.670524070598 29.3116990684869 -1.44497523810559
-63.5210454823877 15.8380738689316 -5.27444043307433
-178.253562015048 -4.98528998204945 12.6431345979393
-194.784599472012 -13.2714711246216 7.90364898272395
176.349799162097 32.554318309692 12.0457252245088
-72.9131346165149 -0.957151221335196 9.0416059118524
79.2018606637672 1.59049812470004 -25.9448262125191
115.827173275177 -5.23124175817831 -22.0964929697073
-172.308576609382 25.0936220205061 20.2865640769671
-150.310913945585 18.5308961536984 -2.8716146108535
-149.252005439118 -1.24726729310602 19.9140477682809
-7.00882179335824 13.5251083161157 -7.03282547375845
-106.953493481475 15.6292240973683 -7.53212066688332
79.5795811114049 10.8338168899611 -22.4353790851397
30.7770649648143 -5.92500315087379 -0.842885300597847
-143.488860822472 17.4631235425373 17.0204080395287
135.162892156025 12.9155966592772 9.64897181096671
-174.140236728283 27.5904444254035 -3.03030266406376
-192.857811756568 4.02766773338978 -5.84974532266921
29.3963695446023 -8.5589599554191 -20.7468241766024
41.1122273385211 -11.4049871545784 -7.6777627802935
-183.194340010653 0.985357928404653 12.4006175072988
160.471593047096 -5.14055485002165 20.071060313716
-72.0187426074207 12.2511735577089 -14.9385038643079
170.152049008975 -31.9839153189689 8.94206613492196
130.83987132932 20.1338045201079 -3.55030937039913
164.82876450759 32.1522143277566 0.31846482709869
-186.563752357306 8.08734144985961 10.5105641297767
158.097640306474 33.0798837505462 12.0229454231585
-107.726882514876 -6.68762602976139 -1.5006646916884
94.6856487579219 16.9273268762498 -8.59938880143777
-156.785244270314 -15.751574728238 5.97317806927439
-133.962648030626 -6.43908720180923 -2.17680573115066
137.24340762461 -2.23076278060622 8.88086246553679
-113.651592406046 13.7976761626139 14.0997809580795
-22.7402149181397 -6.88354442113456 -5.03255558427831
72.8947491243283 6.92788080677823 -24.6098956525413
168.088483003304 31.0673832063923 1.4932411506279
175.543880428349 3.00578313466551 -0.254049147803621
176.805686057864 16.452194838877 20.0969862090959
132.701495972305 11.0681200230307 -22.3047827274404
177.871186651962 -9.11737804856723 -8.91416208376215
-177.520750046339 10.2966657960983 -7.44160151502977
174.315028541359 -6.36300278097838 19.7162735686985
51.7944043765409 13.7991416820543 -6.3689720166198
145.256880069341 10.4632424916599 -22.8405289305921
145.340981265937 26.0458426109354 10.0657465317238
89.1981850079184 3.56012042134457 5.52837136316007
-173.69065543594 -3.59586616938997 -7.47906810312809
154.77863978836 31.2042148806906 14.2484652008756
41.352247249629 -3.42785600867957 3.39817562682144
53.1591976181437 -11.8900824772122 -18.316925988118
-159.117187467585 -13.7668692810736 3.33345594671366
-93.216455583317 -5.5904448232411 -7.24857268901788
136.617794229047 -16.9714465767065 -13.5037792955494
164.971974419006 15.674021248219 28.4341172829836
168.515627667658 24.6975409644432 -11.7554337391485
168.307804191334 -26.9974593763569 -4.56323794471226
-145.924790827933 -18.6116176604322 13.0953651287617
-160.576120776142 -15.3328741221986 4.98614348616203
168.665596708488 32.1948502035678 21.4088994331652
57.4741149367193 -12.1447693192973 -5.99946500592725
-114.793572292689 -6.61857411308759 5.80432780122864
84.3612059626756 -5.97040850407015 2.41008390864249
-128.962026388193 3.83695954470433 -9.233173319602
22.4868206979893 14.013728051657 -12.2200147231984
129.198560071456 6.68772393491697 7.37704965532444
-66.9741907698846 -4.67801882127349 1.97395383606292
71.8205892413264 15.2601187470436 -12.6876783872748
-205.231999095901 -12.2337276234295 2.57164076785772
-173.641564848745 -5.35941215676469 -7.26359796729312
-175.152219386137 8.80604254060459 25.7771374048265
83.4789848582421 -15.4458026731333 -5.97198502561656
44.652313988983 14.0051295335396 -8.647380461377
145.377655730925 16.4704588785284 -23.5578881821475
39.1735127393854 -10.2838422032633 -19.3488686843616
100.614570330931 -3.50561831727533 -24.2373921420282
105.797319430555 -13.9480404651132 -18.2770313853968
187.72838300448 -17.6630173487524 7.08990735743207
-59.7883965993614 13.8614960797576 -0.440480945201371
183.897232181859 -26.645764904892 19.5608178773033
22.9537570266513 13.6254143002315 -15.0221291592304
32.053658465704 13.9311360031228 -10.4420060663538
139.38125131717 -17.5662235475746 -12.8996101506979
54.2760268089966 -3.62804057810867 2.87219416075459
126.524937076395 19.6262771010079 -0.669880416944825
-91.8581285835028 15.4666403987072 -9.02223192085775
-196.580909921797 10.3546349142094 4.57132893281997
-132.661099332051 -6.22813127794633 13.818082126899
180.94329060783 -21.5744335822377 33.3151295336232
-150.960591939268 -1.69098237836079 20.1497205892596
-20.7991169325324 -4.80669215454394 -19.2246736056404
-31.8184615003131 -7.2874623549506 -11.8584664275512
-148.430744870404 -15.5168439263652 18.5987914183955
130.748302890257 20.4879622904077 0.784762089110078
-100.920014916512 14.2377900310547 -9.60544591073923
36.2852659192923 -4.35706857798303 -24.2348742201786
145.766889546298 -21.027051599577 -9.87838891379593
-2.59748139044408 -7.58665958278741 -5.79526684523978
-185.718335358047 -19.655241697268 7.08302325586643
-203.085774422635 -41.0499372572024 -8.32797714227893
-45.2470887273438 2.83598660243133 8.99909527445842
-154.035769439762 -17.9346470675137 16.1815972998381
-11.192782252589 13.5520104905625 -15.712118571995
-112.068637134469 0.177841467505064 -10.7836681031397
46.1220256972228 2.14276022020983 -25.4254605130425
183.634186132163 -23.221216104816 1.92707039956786
151.611663744969 -29.1768403132527 11.0595509736476
-146.433709061922 -17.767655997641 8.54262104528886
148.48209252819 -7.06690993928829 15.2399611783413
-201.389611307016 -40.90923423335 -9.70251537187077
91.3930587733328 14.1619909010076 -18.8578699964276
-178.579110564068 -2.88627211409256 13.5041691112878
-132.387562784786 12.0031416084599 -7.42664109562838
32.9667378420876 -10.508475789548 -18.041291874851
-33.7925011780152 11.7539918536688 -17.6540688074372
50.4407187773377 -13.2395471302916 -13.3432461399551
180.935711833585 -26.8661426010379 6.95129368511591
-184.826871918118 -37.6279046042304 1.17335499695488
163.91990597677 -8.61600451546209 -17.4423316280166
99.0742862610735 -1.87761949028956 -24.720202121754
-182.033802236485 -0.601227629903072 12.5540984100624
-193.872581141363 24.0967266844614 14.0826570908505
-196.683204213064 24.0909058922627 3.49879096723244
173.136061579414 -22.6003164526546 -8.14952805727236
178.253493635741 -29.0207706229345 12.4663537699609
168.013614197947 -4.3841877864342 31.7393539946256
145.647261162093 -10.6410623426968 14.9905264052625
105.766748388228 -1.31540653089534 -24.3893417310729
-20.7754481294001 8.05181777264035 -20.7939383246554
173.89539220074 18.6754347709433 -18.0099761441172
-75.3599807983392 -3.70885330949382 4.83220075812796
177.73431973382 29.2110425548743 19.2174432757162
84.1281443995727 -13.7087620770417 -18.5140725421016
156.11714367688 -31.9950238881635 14.8050681427355
-12.7374680191913 8.4950295779637 -21.042688672233
-66.7042661602238 11.1818707339311 5.36929008930859
168.519982767162 -15.777984395727 38.9520395170124
152.389802140966 28.7376835873416 18.8479337705257
22.8774345578163 -5.76349924193211 -0.824643979805809
130.228194085345 2.95479660940229 7.24612331103435
-199.484308135443 13.2103274102221 -2.73445882546262
123.201480180056 -16.9985520101795 -13.8396953796997
-183.722161463417 1.66729514061333 -8.91758029240878
-75.0700734037653 14.8648596979494 -11.4765420682252
176.552846242075 -28.9701994770518 21.9403500102136
185.446365818759 -26.9355452038266 11.4393441388328
-78.4582591391964 3.32598233807358 -16.9286256903937
-126.70675367645 -8.35005070093126 4.63718120322116
-112.99973511362 -5.53856474145697 -5.76407337778428
142.135961203465 -15.3535267008826 13.9922927047847
175.017011680534 23.1654373441266 -9.30937574572836
-26.5323802795649 -3.86456961681881 3.25287969078263
-0.409916181219239 12.3946752092048 -17.9103016209777
172.807298871071 -28.2574504336249 1.90789289852175
23.8665154176139 -3.02488693626327 3.47372364795736
-116.201281178525 10.0877234582736 17.9058543179926
-194.045407517756 -14.7855141614381 8.77406261413926
-204.016039378941 10.2445318759629 19.1446656822583
153.176247804936 5.71321842312197 15.8491934577591
-191.288071124416 26.8099108254428 12.0406122832803
-207.796888681653 -40.9794112638001 -14.0773668168923
-103.706684375224 4.91551216632936 14.5853140394017
-73.6111213621878 15.6979547903842 -9.69681243650796
143.696620017253 4.99263906338174 -20.9783980739572
179.534330929591 -28.3393519486772 18.7644002605645
-187.802951029008 27.6798777294916 0.872781333939424
19.4569269965615 -1.59077701441545 -24.3944746576751
-179.807389157691 29.3669040257676 15.0146556180614
151.286485979428 -9.28656448922706 18.6795208648117
25.536981545019 12.6255508627505 -17.7377094967244
55.4145478746626 -0.389002068179688 5.09516924790913
173.831596517582 -25.6389671580993 -3.54018010698479
-46.0725831576563 9.7636995363394 2.43434332450223
21.2175980871418 13.8659137703974 -13.8634023789579
-48.534789841175 14.7839598433705 -12.5737418347632
-143.867420962331 8.43182777930929 -6.73351675395165
94.4402906668364 15.4885597172004 -16.4515783889106
167.119369466605 6.23390430958961 11.7129004657271
-101.344859949442 1.26651231272262 -12.8419073507565
-79.8487673109403 15.3650622529512 -10.1189721026649
142.283028342267 3.43632792248568 9.75678450509919
168.669356668549 4.54006244067069 6.94141132874653
171.602074934121 10.1021791149506 18.6474176089542
170.203238670047 15.0976672769796 -23.0081472439406
-203.179877701142 15.2970290631653 16.9365335323459
-183.451960663665 23.2993624855385 -5.06809073035791
-200.75159746791 -16.8148037599308 -21.5162825208556
-164.069911560494 16.5945752385331 -4.00582963081833
-105.447769979003 15.1900360547224 -8.21624028040096
7.74866368022548 13.9722963283351 -14.0065532579588
57.8696158846375 -12.6265603264313 -17.5820184955969
150.684538849442 -20.6142551113999 20.8802689469921
-142.870903570838 18.5342862738669 15.1656449429841
17.2569122649173 12.8406484190891 -17.1285527689942
-190.266187903552 15.5925568738139 26.9286975421815
-152.762807693315 -9.55633720899064 -0.0885382895055256
149.149500554617 15.8290803147616 -25.2946567278328
119.704093323812 1.23689222825572 6.12927955231592
148.580686307906 -24.3315857907454 17.6696185724645
142.203377979158 23.4680753976322 -1.95504819743124
117.426465573807 11.4485921317111 6.49156502424127
54.8418635068591 -10.207272762078 -3.99222551199029
-163.91371398569 18.8539542270195 -3.52985381426922
-6.814959549862 12.3157182936702 -17.9843177582904
42.547510426916 -7.6702240911992 -2.26648344257589
-81.7546290329726 -4.38461562271902 -11.3170424143238
-104.736872889123 10.8223725641871 -11.6096727308045
-123.843933541086 -6.46702729191934 10.1882023943889
149.778618018965 -3.2184614332015 14.8603120058359
-64.7620204893953 13.3985506968894 -14.2849929851333
165.610292903906 30.8275249211407 -0.771519073917516
163.413287996664 27.6698209252488 -9.05013111567145
148.329280135772 -16.5261934462038 17.7603298609824
144.516922893506 -11.4287428659919 -16.6803643158839
152.352815126951 0.721972746276384 15.745911863047
-207.410901881278 -33.605658425411 9.85053508221903
172.881143481359 -5.4978930899212 16.3192445462941
-185.858975641469 31.2857917550838 8.85545461050528
83.6951277657823 0.554847363577512 -25.7802796181288
95.6151020479351 13.7931464644468 2.83161442619167
-194.501965881611 -44.5341539312249 -9.28243390181708
177.145337566189 -2.03023218314661 9.57377763417032
-2.99603873124111 10.0334462635172 -1.86892248076399
-77.1131002761843 -5.16947434903886 1.42247770485869
-95.7484089757171 -6.32528926189835 -1.38106034856617
-194.579119704964 12.2339124332308 -6.73922341545455
-194.233634876007 -35.5950864248056 -21.4102007208586
-204.485820283041 -11.5375039203378 0.899509428350705
110.274444438923 12.4976540787564 -21.6666651528336
139.899257833119 -13.1880858703828 13.2665536936626
-149.783962058159 20.6194420014501 14.3836846378456
52.8465398518254 -10.6577476875662 -20.2732872681381
-176.952132864388 -8.31754636656536 -7.98062916948961
6.16916322776526 -9.54093356680135 -10.0629067413629
-178.751366495151 28.6779264663714 16.2337857764901
90.4559260137968 15.65327149601 -15.506618271232
-171.571547898803 -11.7991229787908 -5.92099614848125
155.195297994625 -6.74096017098774 28.3913266215255
-131.265641653381 8.97337407744206 18.7609044540783
-212.019202496363 -30.6633847566873 7.28412921377854
115.416995254058 -5.79493860985938 5.75650348034766
-111.708817288402 -6.82659718381984 2.07010117056553
108.587419882332 16.4322361197302 -15.5807518548729
-101.0430406601 -1.62440774720379 -11.3135929786549
-194.835536058769 25.7405408015052 3.93450597338318
-197.794155714487 21.5201386207674 0.379032741122476
151.614402336575 -30.4199834310949 18.4396755104461
-104.687066982431 9.90854199076727 15.3800134523652
-5.60837737351338 -4.97238685408018 0.900278377428723
81.5696559225313 15.9944681084755 -11.0045563482657
30.5696559502924 4.84709082101554 -24.3294053639671
85.7996014569657 -1.00241835807091 5.05074226060811
4.45760688500605 14.2454529061353 -12.2556006632299
31.3627129926612 11.8419230059378 -3.82979425439653
170.09233783673 -5.7264280391964 25.8194432808119
101.253021545823 -17.0886408190921 -4.49702908391899
147.380526630326 -21.194685310628 -10.1707595453259
103.81030312602 6.33547186725699 -24.788236496391
88.0547221759743 12.7547371111221 -20.7022729751357
-191.410433716864 -18.3286435446437 -20.9326669510645
176.583718635057 25.2447626286266 -2.63056862235142
-184.410924579586 22.904362752319 23.1076907745971
-179.13603943198 5.41715311378984 -8.84311846100382
-144.414623543955 16.0953749825289 18.8256484048267
-119.433459013314 -5.42810741359129 -5.30102338763079
-202.687735721643 10.2489433980277 15.2240807903721
-128.302008127584 13.1711721012267 17.949793008133
-62.6134771424457 -6.53609439662049 -6.03311531312523
14.6242452445256 1.39426638647228 -24.4325969707658
-48.3814265300857 2.74527589523905 9.102248230153
-162.9850307069 10.7417667710366 23.6544376824249
-81.6794035433621 8.73153010331516 -16.0771316927202
162.582433712045 -2.00261822070766 16.0806053297978
-196.266189727782 19.8410296663617 14.0601872276054
-161.427881651803 0.400157874977814 -6.14211817599724
-183.527012726569 -20.780307482508 -12.6517611040099
-173.62010996405 10.2583266397791 -6.42674980961869
-116.454969422048 -7.22194893764745 1.62228423632309
160.191673824499 -28.4937012150456 -2.10595926234904
162.962665646738 -28.8464247880255 27.5456796064002
142.67628851445 -24.1271992731134 6.04392300081537
164.154900823594 12.5282613765276 26.8570106771327
-186.143372328987 -22.882863089023 -19.6442647865253
178.404334389145 -22.416607491356 -3.08027074305618
25.6731070576836 4.94816689938149 -24.1509150623993
136.360051747795 -20.0690802669284 7.34680211873666
-195.614680490973 23.1451640553961 -0.619822563430899
-186.077332026096 29.5653680499525 13.1066866541225
-132.889291995225 10.6681186559698 -7.81478821774271
155.26943477416 30.1094057660947 -3.83276576629485
-213.296515149305 -34.4803793343404 3.37798273807093
-114.916887349897 6.97618224615343 -11.24888517428
148.796156300356 -8.62686015093087 16.0453731884961
116.947599255215 15.1033920049423 5.25767062672407
183.723253827516 -26.4844530374823 5.69489531543093
159.20372972668 -2.38863315162916 17.746361924764
-182.640719722446 -30.2407461592892 -4.1068146854618
-99.4827651269554 17.0664631059652 2.40371433411268
89.346071540626 10.2211087512838 -23.190087717007
111.591200584836 15.2760756799762 4.54260363228661
160.528151316399 -17.2635578410934 37.4539928620744
188.220270568137 -20.0032507050216 18.5462211662211
140.520523872353 -8.38608334892555 11.8088403456058
-185.072852461629 -5.98521853240309 -9.27488004961941
-130.583207856017 -2.32623217230062 -6.86531137499122
-202.102097593445 -16.7276773074667 9.20649616566289
172.491745878481 6.32670750860049 -15.6763401890484
166.019259860329 -5.18401170163259 33.0437034398602
162.881019944096 13.4516933559859 27.4422258237926
7.1791326635932 -7.16034352858683 -3.99617841073279
165.826701756523 11.1179429695099 20.6053677585375
32.6382727965616 13.5601762178036 -8.07669809117124
-95.0290209186473 -5.24607188131212 -7.79143598836892
-24.7320822520706 11.5884493086621 -18.2115759282542
28.7818360836041 -6.50217835613238 -22.6154069289369
85.3860915130079 14.7799676395269 -1.32755212515053
34.191552552903 -6.72269866570717 -1.69551813116131
-214.128676761012 -20.1173633609698 2.94615394757407
24.8952124004072 -9.49697670955915 -6.70307944725721
185.248524808444 -25.532368693656 6.08715664037811
111.095200179159 -10.1603920461926 -20.7082168503507
-102.212325881743 15.8745939563479 -7.63180196974845
-50.6946599135957 1.868357403725 8.96434242998603
-48.1758765354711 3.29341483687588 -20.0723728208161
-154.030813156875 23.104702313033 10.3318223140253
84.1189728075533 -15.7835902157133 -14.4212314517089
171.709851043903 30.1243120726281 1.19861465037805
-55.1575326927981 -6.48259277389829 -11.404720920359
122.144874659185 -17.2703857148499 2.06002489774658
91.9822193294076 16.7650509494228 -9.43566939602739
165.0032122801 -2.7126330536947 -16.6897346164499
-88.7627196842533 16.9314690371012 -3.68684915569515
-158.584869719887 -14.8844039923952 5.00435703643389
-99.007920218226 15.5484011497881 -8.27659982635354
187.112427778541 -24.7623846638822 20.6405488006725
172.309348062198 -13.1932432248632 37.9512966832069
-182.065440124409 32.4968899147285 4.1575370268446
-124.156559384109 7.14015398942538 17.7134870481549
161.292900266717 29.7543982231629 24.7090115379669
-91.0012754815115 -3.42384154714595 -11.167400310337
-179.736463958219 10.7365920195276 -7.9066186487926
-127.165021688887 16.4875915557608 -4.82160553580998
-56.303621951579 -4.41007668767674 -15.4684634430468
-181.002212583836 -11.5075564399846 10.0686269425493
11.0224892149254 -8.36324117101778 -6.1957362279681
104.318667619952 -6.41097289373944 -23.031873792455
-208.319906831519 -11.0521009722449 -8.18561538664049
111.339782781208 -8.78193796432459 4.54445227080283
172.066009267809 -26.1513025241127 -4.04039496060579
-52.1733823539106 7.57839368182388 -19.1626690864629
170.269694209236 21.6291044632299 28.7200972085267
-213.163580102834 -15.481083899573 -8.23599753140203
149.323122003128 -17.5939151839742 18.7890756539566
168.090513859081 -32.5431124312151 15.423338187853
129.258165967145 15.8605514502199 -19.2092148045222
-155.448214041276 -11.9954620863354 2.69032824415729
159.587189031632 -32.2788663498014 8.96848714746962
-196.502098699139 17.7267511047698 22.8278239722564
164.163496896345 -31.281059477436 3.98919486580633
-161.950707296553 -5.36775542963449 16.7189900811537
53.7930100277351 6.53187777231419 3.5823951394108
157.524624889597 2.07844744077497 -21.9301989900364
-184.958483367685 -39.0214393450144 -11.1000018366637
-197.498692234193 -17.0157427243518 10.5313619617814
172.969587758615 -7.09601615414117 34.2838549701194
-121.199618663251 5.56815944914483 -10.3462611538596
-127.371374295392 15.3619110452706 -5.95470662548256
163.321168290663 -31.2917413702328 23.7849196038379
154.236492419789 -30.6508988939258 7.47789252904766
171.387219256014 -30.6012886104215 6.39087170292948
-189.547145369018 -7.23022043214264 10.0513081495648
-150.459980576821 10.7729263501279 21.0025383132349
-165.558360373857 25.6637247304307 -0.014616876238198
152.37289547252 -28.036084902121 1.02286926346609
-197.42030236138 12.2684695327564 25.3216896160477
127.912881860051 -19.6205647524045 -8.74762168906698
57.3368008951972 -13.9450187628798 -12.7815865536703
158.678528554862 -27.1537367297172 -4.5965686578543
-95.6047608670938 14.7156275769747 -9.6305043083887
-38.7177778056744 -2.92689837806915 4.75121636661996
-164.19330544354 5.31729655060834 -5.93254457818739
-0.717329423137245 -7.78036522001189 -6.10382574991245
178.209698774131 11.2328374504324 -5.25789086959589
94.7563960062897 11.5484050791624 -22.2382175300146
-29.7893773588414 14.7080653819616 -12.7386000635432
11.2665226583231 -7.44025678308172 -20.3348497626124
-185.180380766327 -29.0689574121846 -18.7800831414701
-76.0760767198029 -4.47051835698525 3.18789284446817
154.936638855433 -22.2760662715714 25.449880073733
91.8153496771898 3.00868164764601 5.49478630682168
139.642316647177 20.1333356377842 -15.1794664554803
48.8908545616893 3.92859036946716 4.97291981108397
139.801626751443 -0.905315764560079 9.27771194422101
-97.298533103115 12.3267135258392 -11.7188759452137
171.999226946894 -19.6777401415921 -13.3330167848162
-72.8111254932475 5.23531369231996 -17.808000965221
-82.8067836705868 2.90577273095882 11.7467848392521
-209.91182219638 -30.562288287682 -19.5963149997087
121.491758780767 10.0767139119691 -22.9518078444005
-192.061852309052 25.574682247392 13.4754013019456
-178.549343979764 2.12143162986337 19.393030128157
176.174381355177 17.3753704767994 22.2910224913238
154.652163058722 32.0879610730434 2.47841203053973
-58.0008129712553 7.29609318913136 7.76356751207623
154.104091330714 -2.47006080298401 18.0576202875304
186.30423009575 -26.2691962044199 20.7523145858792
-98.6572953115516 2.49541425505725 -13.6369243420752
-197.458194079177 -41.9217700050975 -9.58566522326843
-164.816883899638 7.48507240431739 23.6252096220934
-123.08033464452 -2.92376042716583 -7.31007743777241
-78.4267225513216 -0.623463417489031 -15.5328188735398
106.725754109734 6.97417185064001 -24.5142476544234
45.0071391102094 -12.7572803231678 -13.152794792832
41.2733203192881 9.02213866499256 0.467642856532072
67.7092504416267 -4.31447153269008 2.17441544898923
24.421749348893 10.4135925496199 -20.7414123613919
-176.508754017042 7.46411453648383 25.4159876935024
145.55750892265 -17.1903313714261 15.8945489307793
29.9864550468259 1.64702868444871 -24.9611697234819
148.819452436481 -27.0384253522477 2.37110137420026
174.541348874516 33.0407283567195 18.3078939265423
78.3638710234076 15.7231022674237 -8.12261882230838
-198.139029959185 11.3380578130551 -2.42708081853672
-190.512752831313 -35.4259174527466 9.53513222358069
181.370331024293 -9.33334509543339 -2.00998942785833
75.5131048807046 13.8295578381909 -18.1440406668801
178.899005974715 -16.3150048104821 -5.82163751199866
163.886701676505 -29.874396678357 0.268040180036025
152.431360847022 -14.6070345925481 24.8323516492329
-27.2529664454002 13.6140033280503 -15.6087682978099
-129.353367266319 11.5022849311102 18.8273989812875
-98.5996798965978 6.80673372590307 14.9050147727188
89.7388713367056 -16.6541112260566 -7.29544189410932
-149.097599789648 1.59211018882765 -6.55838504674904
181.04214581092 25.1515156278015 10.3437429613499
-189.188183056858 11.2131775737897 27.1847155036009
-131.111328544918 18.1396849043549 -2.56275831064257
-84.553960427679 15.0457232119383 -10.4134265917231
-113.784425205582 -5.99401143855403 -4.76761980480933
-124.735183244534 4.22694420428945 -9.84593147164294
122.574032172557 1.68780997544524 6.38685027023637
-111.548343174671 13.5076746922916 -9.08575423432275
187.966228326752 -17.6392601626701 20.0804555871084
-73.4311699517719 6.72521111446918 11.614993331569
139.21653461172 19.2663352904578 11.2837014724128
-172.276697911236 3.56681047060356 -7.44899572824852
-198.067429770359 -11.6290660192095 -17.0142734492814
49.1779196796299 -8.90893346092413 -3.09214646272298
-170.592833321021 -10.7964981186217 11.0411018513029
130.202860289395 -1.81527008995424 7.46574318431477
137.267293790065 -22.617411921935 2.65023800756405
-177.282161766397 -1.7716055634465 15.2202641655917
-150.069862501295 -20.2088682227699 12.6201400394743
-164.014596359454 18.9629458167237 22.1577579559522
143.317850431291 -24.9030078825043 2.34992364538852
-51.4800869730845 -1.4536706198577 -18.4179511818586
-137.993361079021 -7.76875020450103 15.6666168380521
-106.417506613641 12.6308706466558 13.8086413935669
-59.518237183191 9.93107504744754 5.15786719356255
105.497592549881 -18.062935002385 -9.13066992875796
157.074191580711 0.125447770177527 16.5644530360721
-155.195407350747 17.7165228655229 -3.61895388206273
-58.6879755348657 -6.35786641488466 -11.0270110612137
69.1942052186658 9.51494999428689 -22.9159450732813
-110.4327423077 -0.309806930086488 12.8077051781758
75.8874099026113 15.6640176777925 -10.7444696235219
-177.970514283361 -12.6240617275476 -8.2656164579613
187.921799928912 -22.944973795144 18.2799495877025
66.795544074692 9.92338290924617 -22.526786502798
180.280878097394 -5.27233172490828 18.9395180213982
110.370340924096 17.2448068935479 0.0214553049702511
79.0374330281215 -15.9150172129626 -11.7679612173105
-201.493688438706 -31.1037019634797 12.7543146970976
-177.059159028981 -5.93792649951861 -7.98746627771751
142.45456709385 6.25385149109914 -21.3511525481194
-146.767415554903 -10.9009621112833 19.1120254657857
43.2433859194176 -10.7539598442651 -6.22490978425498
130.243845495362 -9.08073174953851 8.60459857150521
128.49262945502 13.3953399715622 8.10404711310626
-172.349750465721 28.9139069005773 -1.49578197142864
-155.525212069633 -8.98076737883138 18.4968301159657
-149.626581766596 -20.0731929839845 9.42532252086109
-56.9734568954897 9.76351946366921 4.77268413423651
170.013152555021 10.4666426474818 -21.6701538867717
154.909420929548 1.60425230714938 16.2323121710853
-116.819994218044 -6.86030454404668 6.5053061271452
154.065389960088 12.0331597044045 -26.8875286864801
14.7116791639479 -1.25291468546023 6.53700509762229
-102.121848484199 -6.44393651607777 -0.0823883217122308
-13.9663918790681 -8.20801672650588 -13.1150204954052
-140.265537695827 -12.7964411922529 12.4458359286847
138.632786598318 -5.37495576536936 9.98047892951438
3.25264174109169 14.162739625259 -10.5265967163692
-121.261628381763 11.2772969213775 -9.11967585443522
44.4328157071862 -1.924885039249 -25.204851856885
111.005571974405 8.1534955501168 5.99979720620427
13.147970224141 13.625202365066 -8.8064181476627
164.925935018524 31.2339065688946 24.6631204590683
-181.754272773435 -25.8822838739066 -9.21679153411764
168.764696802283 -17.6886953945867 39.1021345331854
6.19790714701367 -8.76972374099026 -7.71345263120613
-158.713087886787 -4.7943030166824 19.1348630395225
170.043220714629 7.09179479404087 -19.4829986696964
-40.5213686117116 7.2727492023361 4.29931919208552
-121.826258785489 -7.49887222134034 0.515421771488291
-108.851855036996 -5.84205500803154 5.77112610502942
155.088994733268 32.2376775094945 10.0427842962008
-192.64774887738 -4.39180599828593 6.3378880318757
178.226268652494 31.1437966874339 9.06026316123552
-138.090326745476 -3.47450613764713 -5.42365997558979
164.72737728166 -17.7710087443002 -16.1787196620351
-182.937141559912 13.694003698294 26.7932752562811
-141.872581303752 12.712319918616 20.1304404574181
188.573208791873 -18.8441610873273 13.1010596451992
-114.781526134219 2.28034879477932 14.6576947319435
-148.41480012562 12.6822126388396 20.694508063756
-192.958463513193 12.4124986150952 -7.85677733643893
178.807350779143 -10.3074088589216 33.6428346568367
-123.162503901358 7.27875957559058 -9.95953267688943
5.33638095552619 -8.65291064462846 -17.5328306226645
-188.480522944447 7.32226852090057 25.5759163925496
161.532428594856 -20.6790172824484 37.8086361077602
153.962104425649 16.4089131252298 26.1405983161904
-90.3473735954553 12.9191992623866 9.73321776391259
-202.85894016157 16.5756911264705 14.7773021327829
102.207219727847 -15.6936276561926 -16.2530904765837
-146.885623490764 -5.71008414549726 -3.24736773398003
163.683135457599 -4.96260113673922 32.0144235172383
118.354851220596 3.15318394180614 6.11684839989822
-154.000015700156 21.028293915815 -0.967528376950401
159.061265059678 20.652344362 -21.3633631540391
158.163093188764 1.83578795446868 15.5131031915316
-211.885617767814 -17.9806823308532 -15.3330452342109
-158.145456831969 -8.02081663929027 17.3362352058492
170.807744271993 -19.3805016643974 38.8535774095458
-201.97310508331 12.3341150666675 7.57452767960927
-113.573504989763 7.72146412401574 -11.3556136152825
146.292628953008 -19.7577944571266 16.5562359843005
151.740882439049 14.1168030490042 -26.0306718328499
-182.839584706323 9.35927753061503 17.3343320936834
158.177318728902 14.4412681300367 27.0628350470356
-59.3322754805257 -1.74478061731968 -17.3992168371942
174.918699767946 -31.4197734847969 11.2889197593201
179.906815553816 -5.50673050013338 21.8624139840147
-42.0188553689902 8.49692226814497 -19.3892402359974
-172.5979199935 27.6987869159501 17.5483516037166
-29.4222709408928 6.56129066470141 -20.8753358920102
63.3884406268693 10.3155460469173 1.46302667009083
175.515689856122 -1.79260405934904 8.99821323717137
-162.223715568249 23.7555841660829 17.3930962859476
-155.452534449722 -10.5169504723718 -0.024160497295904
-101.684244149714 -1.24564663388564 11.1615897056854
175.327177102246 -6.30902323834212 21.8975190029494
150.017135979002 -7.41943575929792 -17.1683909633798
-106.579697162713 -6.10131607936863 3.66499905151873
145.216190441992 27.2464105634209 7.11670662489476
-175.704343996305 9.67112953597701 -7.06114272188426
9.16755438162977 11.1547787295281 -3.40881751656849
-130.876346028069 -9.08042250924263 4.81545312232605
-50.6348614744898 13.1452361549542 -15.4157446413989
164.545699356847 2.90779481669443 11.9307610653511
-28.4428076431819 -7.30037418135178 -7.07535427097335
102.286774890867 16.8798499274708 -2.25159766161587
-7.20165820460441 -3.26026607213727 4.8221578427726
7.00417804573299 -9.80421922683246 -12.2743144660115
-50.2357775689948 11.6480483160849 1.02651321833743
28.8450199018003 9.37967274481427 -21.8226829212451
-168.520241740052 9.59106897096605 -5.88622808939631
164.630211774143 -33.1088950211763 16.1827622696841
52.4085820916834 -13.4339202281001 -13.3102516785618
129.190530046015 -11.2093117364287 8.26754519564865
31.6101439819634 -2.42567168149768 -24.6823313957374
177.552674002074 32.2109089229393 11.7788767478655
163.903336551428 32.4176113963915 12.5742509177567
-149.252473373337 1.34575045231129 20.1938591341127
18.4682304446458 10.8688238315395 -2.91053158221963
-194.336871981446 18.8776399461354 23.4110374198406
170.064249701932 -3.50816617546649 13.0362653505911
-140.147402183501 -9.68158040312068 3.16132036668218
-142.207363530352 -9.17608506554152 17.1475365423778
-30.624374281675 4.42522927880989 6.59421070902539
-190.574709686817 -23.3837330910794 11.4290820142067
177.428480479338 -16.3493072041923 -10.230801417019
175.77281837559 -10.8798370311546 -13.100187280511
149.252146796355 2.66538696697692 -20.6500817443117
-164.422173153796 -12.0423763588948 -2.59980658654745
159.800148227609 29.6721997189929 19.9800020039205
127.064195919953 6.51638405645781 7.08743032307928
148.200933576378 -25.7075217905638 16.1119941163558
-199.4620773817 -20.2560736607593 12.5239217051889
11.083480983874 4.59419678271855 -23.7378063149673
-207.656127308654 -11.5666634282899 1.36994715173295
-66.3603467551507 5.33727558073472 -18.5317901655158
95.8232376800886 -16.4878306958334 -4.61461773716675
-135.135518929409 20.0779785673491 6.55351364448436
-213.242467703842 -15.967991974529 -2.03166331231828
185.240988769564 -9.82756700221259 24.1561166123338
-42.4761476474151 6.56177276149098 5.2774531503866
-9.36397463381495 -6.15797920980878 -19.2558289848996
80.4079275456714 -14.9410539617419 -16.055706906148
167.683733648189 -30.3621350831137 24.5125938169537
-42.9566991988782 5.18744660164703 7.11359696831556
-180.383976492062 6.6945209963196 -9.21589972168486
-64.1270650702802 6.16173136688185 -18.6601737930519
161.780025848468 10.7621345589634 21.1430457938619
-191.181958304687 28.7199680855282 2.53019532519469
-176.41266339115 1.54601034077746 -8.20225090723501
-92.8604278578245 -1.50720557052322 10.2878695708886
-210.276313048412 -21.4185727364947 -19.1920161721961
-154.577769684582 5.19731665745583 -6.04682339182597
-212.926105972345 -34.1657037595671 -14.9805290469565
50.5394822656538 -10.3376144413428 -20.4818141323777
-34.3708539677578 14.9304169803073 -8.76423000802673
147.20381137749 -25.607488945541 -1.17527017825375
172.39246994143 7.03219340914971 6.52670447807067
128.986635870461 8.29536852719859 -22.8348120254207
156.647115688735 3.7351181984095 15.6915143370236
-127.698690748622 18.8246693686986 8.48706395542898
9.39450423795706 -1.7327065177773 6.43400106826209
-141.465735634207 -6.26287407912528 -2.33606292659895
-194.227636826908 -44.5408859009075 -2.40357713338157
-101.170915384807 0.439019178211686 12.1704942447827
-200.211315509226 -40.0734616712946 -7.82979745637212
-187.263069594611 -12.3380937875327 -11.5997562585205
139.322218777079 2.7952058180905 8.67912801409471
4.46044018801532 -4.9550234428844 0.819320475738167
-187.116909762348 -7.1345969049228 -9.83768871418483
-91.4326812820786 15.9195148622315 3.47108612021559
-114.613819490743 -5.27578813953081 -5.98889801017755
181.369954074825 -27.5191504268534 27.9018938811522
-54.4586655843299 -2.61468796426876 -17.3637213486521
119.322339948158 -15.6611403857462 2.53237129989351
130.912602238001 -10.5684684288493 9.07414840841827
121.252094032346 -3.60204270313492 6.49587373427473
20.063890355086 6.38453678461349 1.78900795799578
173.013032457258 5.03226122439746 -13.5153496785344
-192.702246212295 -25.5386137880311 -23.5462241887409
143.570768378292 17.3514134337403 -22.0851574925345
111.447775060295 15.8486492106237 -17.2217450549318
-164.443822581691 -0.781760386530585 -6.38151815465317
152.434837517686 -29.8858152919253 19.7807928324678
-196.261907546144 13.6181620146909 25.2105350058333
-119.879201881005 -7.52060746245806 1.98990366620107
173.595893448672 11.7300698208589 -18.0565779700795
-157.915424786706 -19.5193031580279 9.84373440267988
170.355240642606 31.154569663137 5.52414776571875
-169.80108715836 -16.602720505455 0.786583395414342
172.498983226623 -4.28563355788396 13.5145283226669
-61.2969012894099 -0.28881337133393 -17.9764187163792
-83.3593698792199 -2.37380387187195 8.10298343387889
-84.7749646458572 16.0278766374379 -8.48059465003766
-216.425338135553 -30.0937331309655 -10.303226338948
-163.027837505742 21.1654049807607 20.5671362550611
-175.214768618263 5.91071010792834 24.4173287779286
-137.637834113678 -5.22589320384292 -3.7436979318792
-188.720082748196 -43.073709627477 -4.99861919294068
103.738936968429 8.26645769514522 -24.2323384336647
121.431470519329 -16.9343888266861 -14.0181502743117
-151.257660957035 19.4587434745582 17.7666633037983
-152.569821671756 -19.8085817304016 14.2278427986612
176.341057746155 19.1063387080171 -14.491154941166
165.63588625666 10.1919802958031 -25.0241695541263
-93.1665856137205 1.59028480939573 11.9310850027012
65.0098971433725 14.9285854144612 -12.2631121180195
67.1409289225447 -7.39736430727179 0.125252311099994
132.424173889111 21.104438340804 2.70181901884756
-185.694366348539 -13.5189590473635 -11.0761922867382
89.9836655060444 -11.8994940817023 -20.6237204679961
0.396171762077059 -4.60627268473635 1.90998224332347
-182.570677431558 -21.9493306846675 -11.5163059378443
-184.832810876895 -26.6519405112635 -18.7454044734179
-124.935989581583 -4.92167628429513 -5.32604524515278
165.645719807122 -31.6170947441772 18.5860108844437
163.261942526074 -5.8469314252167 25.5806575040134
-121.70649950977 9.37680006272922 -9.67363021458647
149.57522184957 -8.8787546705492 -17.0049734636966
118.009810250018 -16.6468528437088 1.15979275627789
-116.662817933051 -7.14874672451003 3.78761057141456
156.870036033233 -19.1479020143923 35.1041863712945
29.9252440063907 -9.48459578240986 -6.06417111664357
152.892752620355 7.71890678463412 -24.260371814044
-39.4685361820807 5.70722088282051 5.85052005543651
46.9670386720726 -11.4822753015147 -18.1750404521748
161.322066080962 -32.5882805878077 9.37219274806552
-74.5811442987974 4.7177927177622 11.6544670591725
-181.237950303091 -19.0712813545039 4.96593348636282
162.175846879925 -32.7316796435582 17.0526706889571
151.082981218599 -10.5411207826588 -16.7654214209024
-185.867902264183 -40.8447067657465 -9.28554711715674
-125.911473701367 11.1571230586305 18.712514190633
65.9305804238603 9.85485755471269 2.21029538511749
-207.58636118524 -27.127330403105 11.2215110737066
-195.097019266739 -32.0098716292905 12.5251369760512
151.714079453306 2.5738539851686 14.5348614088526
-206.187505548174 -9.59641669226007 -5.80666131443299
-19.8941840028356 -7.97412215997184 -10.1611073611784
56.2029107177763 -9.04426938668127 -2.46287203146379
101.386808682716 14.2240362333331 -19.4206737466416
-191.349581774545 0.204779719630615 -7.61823727233178
166.926000285282 31.6963579360313 9.59734053054091
-184.068530122044 9.87157646629381 26.3000607271521
-74.9063456580184 15.46506597793 -0.492727483712398
-108.628638373997 15.3782608031626 -7.66678368597863
177.023802020644 -26.03806169833 34.6611611387068
-185.891320153267 -33.0780926059069 6.32347960632826
-38.2302049771861 12.5988471753363 -2.29296097026432
143.421173005871 9.47407285664841 -22.3289511362608
87.8194832961486 11.5514040050908 -22.0241163921058
137.662133941558 -21.7440677222253 5.37635991412188
188.517111000031 -17.677052386486 11.0231156175057
158.603526058691 8.83078755492289 -26.483829602788
-190.777872477688 -0.274957847364001 6.57172844262291
-170.260546784926 28.6065203985914 15.2811442306704
58.4357257387055 -8.02352128982385 -1.06701107623915
168.839889411041 -29.2283813321347 26.1644831138194
110.716467638586 -15.7018610874412 0.210343054128931
147.341089467942 -5.62346348611887 -17.3272556413379
-136.103284089962 -10.1050530196078 8.14344000741002
86.0033024902673 -16.5957825799721 -11.0610210721571
145.05328127864 23.6118024222443 -7.76900700388741
150.229925651984 -4.38003434636299 15.6417962951542
-88.9073161927588 -6.2988161393264 -2.31036684684523
21.4481539454228 0.278463707979457 6.64951223648705
165.152777361638 -27.4451160167677 32.734968887548
-147.099555724319 -4.18081374875038 19.2640368980106
97.0267399901875 -10.3995265613882 -21.544582458324
116.767322474539 18.4039946602685 -1.76022394470003
