-183.477211616884 20.9152576554845 -42.8599471674235
70.8214054958914 24.7850033742485 3.11819666712022
6.01760339563933 27.1506945570127 15.5852834026059
-186.42176920401 0.638247619076083 17.9940423505072
-169.226934112216 -27.7685354164806 -20.090872978337
230.809893562477 1.00669147309125 -1.15808886966424
-159.447713776068 24.605342737182 -8.07799785907533
126.605607409479 9.16267354365833 12.2190275019687
130.356120459499 24.9705851847429 -3.3408883821828
-181.003876255572 31.5208820414319 10.4421643279528
238.01217996924 -17.0605042866937 -12.5425468762967
-159.197010877466 20.8671373218404 17.2710268258163
31.7108572575994 2.89053961805274 12.5202906536653
159.826952338628 -12.0289712336979 -6.08745729051214
6.75654918434834 14.288497236058 -0.758110198216976
-175.193853148485 -14.866674272892 -15.7450198064071
229.78385586187 1.48772047313334 1.04483381671708
-198.928390927426 12.6535887589453 -17.8296813804998
-125.121691420104 6.12886126017301 19.8067583795032
131.986358383578 5.46301832548889 -12.1680370565621
-24.4163873125759 24.9938721456884 15.0885967580282
176.759910990891 -11.3501993538333 -5.27559024015235
81.9014410764 12.523112156607 -5.04548894777849
-190.363847337263 9.01391440866828 13.8424026433535
-103.697492572176 -8.55136443541978 17.6277834302961
-111.786317329267 -8.48496410830228 18.2706431972646
233.382058948866 -49.7846749954211 16.6000776579609
-163.893121300513 13.4576984868529 -42.1719313927396
-161.24264501202 -4.08971383050759 -29.3074636232765
50.2383489958207 17.0609781071829 -0.294040065724893
127.783268330305 3.22231822772779 -9.86724392576716
-190.118910228795 11.6185394139967 14.6898697796002
-55.224926799296 17.7818665750738 21.9635833849073
73.5352617978332 17.257419130837 23.3054364987591
-157.613762903173 21.6527177165941 -17.4648770404615
258.008955313001 -29.2024219449656 0.797124577743505
-4.92934580160205 1.24208992329524 16.1195831634374
-138.622575697278 -2.19945917995461 19.5375242342557
37.0276586275034 27.1092684964201 8.66577015580271
-149.993874367677 16.7369200541556 -19.076846180424
71.1616948906961 7.06781741153414 16.8934518027514
-9.17057151323839 21.9276619572755 4.21160497570233
-176.899011076088 -43.8813357953046 -27.5903840482925
214.88314100436 -32.4334730540569 16.826055687513
162.276526786455 -13.2499088896253 -7.21606888045605
109.192320354965 8.09845219015242 -8.97600852304758
-94.4861382899915 17.0535967375575 17.8876823368228
192.535404592323 7.39154598370468 -32.7951366960171
174.541669793346 4.38080989858409 4.03525227520433
-34.3342871729387 11.2506862507981 -2.94439891122089
92.4156726452337 2.49466740174181 11.0915126975128
214.355082288815 -45.2687276250697 6.52909177267232
227.165629760945 -35.2968176197685 26.6402269090012
127.211454771874 20.6548844420924 -9.60097770953928
201.086961832171 32.4344566324439 -21.2031576782967
168.034854885782 15.2163577776625 4.66147566873807
-66.1256301111081 1.48616091026433 -3.62265554094697
122.388048025083 26.7395204646336 7.28178846128064
-37.3634622520498 20.128055026025 1.75079958455759
163.567396723068 -15.9428619671911 -9.54095794023188
-86.2599026572151 21.1826491844092 9.06977272853673
241.932481427504 -41.4250050979892 22.6832269377604
-75.599096409529 19.0314322994493 -0.94888212513094
-29.3011433657255 4.18624048128848 22.9676373517523
243.5571608922 -39.2881914998165 23.4337816018559
-172.561017361835 -9.16429554425318 -18.4013404794608
-137.75951345392 -12.2365249404244 17.5310638911702
-169.011323117733 -45.3606238418935 2.24184226922701
-48.4817491902568 12.9362598862821 -3.91510671576413
-155.890973969909 -0.861277923204842 19.0802487265055
246.618228240179 -29.6912303226204 -17.7122967279769
193.010022895328 21.5946824283246 -3.16880173179455
-174.27308673811 -41.2724421339478 10.1027273060718
-169.483986334822 -6.09037358192454 21.2822050161789
-91.0441365711927 10.5710520045534 -8.71722199044636
180.48141808608 12.0592000049164 2.83067692970963
-159.160728583808 10.0897926066894 -37.6712544990041
220.325543989628 10.7775740316416 5.14961378334299
187.649042018195 16.4794400889607 -29.6657107212138
-26.5721288920906 8.65222795796156 -2.44897152892124
-68.6568505069424 0.255438552781643 -3.38379791737049
-164.567081486628 -6.57781523399828 20.8697923381036
-127.707408777718 -0.179908095520786 -10.5941382120849
120.621783992336 13.804429801713 -11.0103810539566
-68.7646438387339 -5.92129313043617 14.8251209966333
-70.0841514063998 -5.25770697010839 4.67834090288838
-152.476910418425 20.6975585693389 -10.743893077156
-188.309571954618 -20.4302900394393 22.3626867227295
-183.377663965055 -39.8515010302672 10.5433311919751
194.257764472554 27.3519628304625 -8.32594365455377
-100.0221306275 -6.89647443629366 -3.32478927355141
124.315360832718 25.7811795620064 -0.925999572278689
-16.3779719725703 20.7570096284726 23.4343339260904
-162.968749365907 -20.243880905033 20.6816308962166
-161.022029223589 -40.3477366738567 -0.714247329219534
-5.65312985948987 11.3226893759209 -1.63277345170133
-182.712195508088 17.7637335122904 -46.5353056158117
-153.795099888432 24.0863436298047 4.21948877298666
-163.105471227601 -35.6886993869162 -11.414336902444
253.279841685276 -43.0982756439596 8.5947437879324
-149.565796113403 -2.78134174628723 -13.4604818634719
92.1749029456434 21.9414638229 -1.88675060676985
-151.368311150279 -22.8123241799152 14.1504571409497
-167.58283147558 10.8300296904144 20.300366846772
-198.761357909331 22.0737041887835 -19.8945668600426
106.123725084849 7.02842353047878 13.4412067316091
133.176035295581 19.1038906004188 -12.383272575746
216.945646826272 28.647451745603 -15.2956459171716
-181.906167623789 -50.942470361981 -14.9311127216354
-180.675556789905 21.1912219798803 -33.7613563706332
-52.2834276768104 -0.729186628040223 -0.698014567701411
30.1295625321242 15.4523462817262 -0.214029005172926
223.221213727426 12.5291410287663 3.06454570207544
68.8620666264692 4.50903523991592 14.1217905591197
87.368997590603 4.72617284269628 13.4292698924569
111.803328270675 2.0618095079712 -4.07409153222762
239.119680631657 -35.333361274179 26.4655830747447
-186.316478354663 -39.4591391316168 10.2385604400276
-192.483843724597 22.8076211363565 11.846830588273
90.1906576178046 8.05616628554932 15.7539160343268
250.045109210072 -39.5455226065273 -12.4554361065027
-32.19311680498 2.30397681872379 -1.2503929323065
-126.603173717938 -6.61365646933304 -7.35918168314583
-102.891282040464 12.1815537330687 20.2282461087682
-178.254220236374 -47.3977396901595 -5.40362298552697
-192.355412527748 -10.7670396641049 21.6676781016346
184.785311957423 -11.7146557264206 -21.7717472834159
-158.504504489893 2.77407234390765 -34.2960064287522
-168.559741966098 -38.3464442569985 12.0949891403171
-117.557145461138 -5.30916135568064 19.7420083986468
-183.577361024917 -50.7664668543467 -21.902384876702
175.984632969375 21.5298253066422 -0.519042881721704
-164.484521651461 -39.4016965503209 6.23054816263646
167.441566341892 -9.18100366888923 -18.5569795621877
-173.774110270397 25.2774101164655 21.5761422998106
-135.957950758444 17.532377515925 13.9062322972359
-89.3692671598044 2.3091039428401 -6.8417175818385
106.00224663711 27.9815015823824 8.19806177531998
-159.217866329596 4.34215688369939 18.1870635940503
-191.589994483813 -47.0620643583949 -25.0116742210634
179.397132969848 -17.8467893167769 -8.16763084797732
85.9365257337695 20.9123996802539 -1.70216397669506
-33.4407855744139 9.20002476332425 -2.81533225849815
-156.190180731787 8.07400971748126 -24.8582706525464
244.202394518066 -8.80258006996811 10.3300007401827
89.3495281374292 1.96586266026253 -0.430418119808759
-94.9776593748205 8.37657023769471 21.8259023036388
229.866904221373 16.0831950977826 -3.22249368755671
-105.749391175658 17.5215074547971 16.1696357926499
-178.861536296616 -7.8612042222453 26.2964607670066
234.370889535416 4.91715820827661 -21.474368028738
89.4254857292465 22.3209127307769 -1.2095060798993
-128.496974179176 -17.5279004951429 7.97311141810477
201.897282218899 -18.4444142190303 2.31623335346817
-140.636274537798 -15.9156962482042 -5.22946162580838
72.4607995249178 3.23618633031076 12.1856899428632
-189.512513053285 -37.7354072133619 10.6878748954652
94.7449811567717 10.630237901194 17.2266340630723
33.0823112549148 25.0790259005544 6.0443605627867
235.17456616273 -34.0145786099803 27.282708757348
124.692890098682 8.04172051129585 11.8077420214204
243.953048396252 -49.8613483566977 3.78556230916811
32.1924551568077 17.4914509973983 25.7066439094683
-52.1647662838533 -3.47904696370692 7.89722964941084
-34.400976466373 -1.66479680186531 14.4226495871964
197.463140119214 3.03784964582086 -33.4752751632012
202.483790214889 -18.69035555629 -11.7518014462125
76.6487207242459 4.83206811267453 -2.81475111503374
223.069646852236 -18.7293120245854 -16.2484068042799
144.423706380905 18.923616593004 -15.0593834906851
174.027930129459 -1.32078278748758 3.60645511175565
-164.712377111252 27.9110913212362 -2.73330193617323
5.10595888832312 24.7738850038567 21.6675537687523
-197.235095807571 -11.2329226233013 13.9063247968491
158.107912137968 -3.07447823269729 1.19609392854034
-197.292281618505 7.99315175721051 -13.1136982832023
-199.357569130065 15.1954471111585 -29.5670632417706
-158.859219713001 3.93423387010485 -23.8710460295728
-195.865099467131 -7.68034624670898 11.0357602411947
231.078895328103 13.0615988058775 -3.66494841702507
3.99292970714342 21.6237155046974 3.70053123017182
-170.940562566112 12.0596967748514 21.8484442740038
-183.547599935309 -13.9945705110795 -9.18129005354979
254.450908107941 -37.876393485801 13.9655829709846
232.09128301941 -38.0260037208909 26.3555564097463
-186.308496947851 9.63808066455598 -46.2771607512009
217.845656265565 23.0543094208997 -4.76126162980412
-193.703134168418 -36.5680149374726 10.6229610873576
216.403141000777 4.77320497257542 -22.8045594920724
170.636922042099 0.485226261602445 3.51632162922764
-186.189398456625 28.6835077643727 14.4406881208081
87.8796498024057 18.4793086798986 22.1140746494516
211.89662179677 29.8987295132564 -14.8174303991856
-137.331666918896 0.684885685546862 -12.6622838571659
-152.54823917699 -9.75513852143231 19.9359168027543
182.392901852584 -4.68039234651522 -24.5187874429302
-168.414564401282 -19.0298563309804 -15.7148943249954
158.214224136314 -1.35031562984391 -16.3568585161897
222.90220412966 -13.828237008849 19.5717122885764
-173.308500662944 -7.1841046450477 23.2293877736013
-176.733754371584 26.1804842836763 20.5109966932733
-131.623071983656 -3.55516515811372 19.7171979188818
19.480595722921 7.88270969159765 22.8622461638025
168.152403693736 -2.45479616350589 2.24075272366443
155.986765037929 23.2491997378964 -10.9569643083907
-169.899739394738 -46.0217758303066 -7.12675663019081
-197.299050337762 -42.9612643296246 0.879275629874445
-166.492500474557 -27.7343982559797 -18.7446263565507
203.039444451164 5.03303410143082 4.36255525647344
-65.4336828716563 22.2064125859957 12.1495158294412
-45.4925152845039 15.2380959121305 -2.83097138516806
-182.762317299881 -33.4363169584991 -29.6443156622048
154.081572274683 24.0944364446217 -8.30337789363112
-167.752831263347 -16.8553996140319 -15.6831365432799
88.7478377898617 14.9677175736895 -5.33343378874981
-109.451424883996 -12.92003484503 7.18903999975835
-34.9801441000086 2.70646151444396 -1.6805390366711
248.771862810683 -13.0682013226953 -5.33823927384247
104.230630679833 27.7477496874906 12.4930681921492
-180.407924004877 -26.3489188152443 20.8457267957368
65.4411951384274 28.7645747916457 9.75681431193065
-188.537537881758 18.5604021848554 17.5534156337011
-196.977146472549 6.15642157650407 -21.8526674406792
-121.794709480019 0.285515264606964 20.2216827809015
256.533188125857 -24.1110568272915 -2.33365654997471
-143.180239996375 -10.971523603952 -7.69422381051602
-147.679289877903 -6.40066642610543 -10.9450233842466
81.7927764781299 27.7745079147386 6.40702209511237
179.46997796648 -1.64387084165556 -24.2881255995045
220.651897240941 -49.6963180139804 10.9208879423738
57.1804263003987 5.80297168581731 -2.88967562726246
39.040872343777 2.6568914287936 8.68469097353071
240.860623800541 -19.5013877770194 -16.0420749684044
-170.89514704301 -48.7829178457556 -20.557076396578
71.3851628277693 8.86265294115634 18.5685549727039
-33.3532387691188 23.8439956874032 16.8809160891483
248.507630730027 -12.5813647517217 11.9272883383595
-189.114756691767 28.8886557007757 -3.65710125955594
191.179981086167 24.0983693009681 -25.8427424268571
54.3023788070046 7.05365462282005 18.5640483636654
189.537632131263 19.1109953888051 -29.4546199154615
202.28767049244 22.3718341743627 -4.11873262877664
106.593940155899 26.9816504127057 13.5649083577504
215.214487012136 -29.9870691944638 16.2553853066161
-87.1227432770707 14.6846035893285 -6.50590438964191
-195.647839406866 27.1789257513279 -19.3177665806077
-200.955199884431 -44.4009125081087 -0.166591340136218
234.43688323575 -5.44089434036399 7.013423393336
95.9663365741135 11.8294726815519 17.90948223578
-171.437882472298 -46.3246041391375 0.878865065081618
-195.135582970286 10.3955536851765 -38.5380810723231
-18.8168357290972 25.4822547269968 13.5773117881475
-109.918340037764 17.6212807004017 15.5440815387427
-50.9547998725986 -3.71907372371021 14.1560861968958
109.959185059921 17.3864446521528 18.6856379767908
-0.821146234604866 26.6301568593719 13.1882979880032
-177.404786736439 -50.2137749345756 -18.1846593598674
81.7964971353683 3.92228173096868 -2.20535085703627
-144.598299459161 -11.1256042725822 18.5867172242967
-198.190429372454 17.9390691226491 -5.35232979974122
-22.6401708368733 6.48664765566413 23.9273153874121
84.8713567715576 28.6845230278864 15.5443746939471
-196.814697106769 25.8045976889396 -17.163090805565
112.3553965017 8.9853429393794 -9.707186788008
125.055923243325 14.2565783289179 15.0640486145947
29.6315445566594 22.5926053722983 24.5874562204442
211.357576904133 -10.315868280524 8.7471198369796
230.299308245546 5.62097205140386 -32.6683608745381
201.032787301107 -4.3983871249477 -23.9867335009821
-173.035898580489 -26.435316673722 -18.8493310409254
224.747928263012 4.95212050085485 -17.0974560165637
-92.6181118003185 20.5376499425665 11.4809848760798
99.1714990990107 12.111076580038 -7.7250839427429
-140.616611558106 -14.1239264397769 16.7746634378391
165.577703828907 24.9540965089291 -5.5029720937252
-180.777022238706 30.0607980607802 14.6381139581241
-124.985984706132 6.55204358565689 -13.1091827958736
255.997063056577 -21.1727897892775 6.89280037769226
-65.6545330325382 19.6793526504667 0.690135222763355
-184.615868963588 22.5812780395033 19.695786680806
164.149220738503 15.3298877133128 5.63405672992885
224.75937560863 -45.4611443862602 20.2961946710246
156.652662745849 9.66963183225758 7.60481989853432
-196.654838602791 -39.4654968659399 5.90083007280157
-167.221290596444 28.6554183302753 -5.10022507631292
149.116504137265 15.503925331525 9.45273664090851
-163.014066419677 -25.2559828785138 -12.8875242540307
-180.822171109921 15.3069484649702 21.7480698853822
-164.679561753138 4.77806361720375 18.2690362957102
-54.1998110027159 19.7442692609678 20.3142439014911
-156.087905823827 21.7979696893911 14.373788000789
134.691048942778 -2.67513066216419 -5.70994843345959
-108.326015473875 3.69656056902973 21.093899693021
-181.157141931527 -36.3030981298107 14.4793451700329
-180.194608885345 -51.6171713706986 -17.7448117784091
-178.23972482324 28.626509812538 17.5271774576133
61.4552673329614 16.4531342255726 -1.27522414755904
149.784374898276 12.919338439884 9.46694698105809
77.4863981018205 17.7609197342715 -2.35358011223786
93.1440990059458 11.9527599803294 -6.93408431792229
85.5855332178598 21.1018957151917 22.2735662521395
249.709235477564 -23.5822850845792 20.7709324520178
218.367954716158 -25.1460291225898 21.353334500992
91.981611699647 15.6935206087248 20.7769419964215
-168.929219207061 -46.0294587427804 -0.199956606408759
212.36772583071 -33.1794007713078 1.35923255988598
-94.0273690155729 14.2379438001707 -7.45477329912083
-170.899732163624 18.2210955448949 -41.2451285724545
-204.191764279306 -43.5584685649745 -6.87327106802658
43.9299689580561 2.77021168223891 4.79433221281139
134.223914136166 13.5760626471926 13.0886960295061
-149.635937456565 19.1771221715962 -12.7979586977533
176.73536051374 0.769474651165771 3.69391912653346
121.480733234717 3.93352788629369 9.94381002501769
166.164033685729 23.5802844049409 -1.10185016074649
69.3325712429542 5.73642428334024 15.5691448335004
76.2355085968157 29.0088856710878 10.3572477020634
232.690911883199 7.29590949301077 -17.8805915833066
231.340988086762 -49.1792342988862 17.802155819858
-96.4678405683969 -9.34236286081745 3.16026923147974
64.8829674410088 2.72450327815249 3.2049266572193
-149.14755155425 -11.3191708450438 -9.05422662157202
-42.1406882523093 5.72719487498108 23.928250005989
159.93246255641 3.89122251460337 5.28256876728954
209.07195317344 5.68629414478054 5.05428319050279
-11.3153695093154 18.4027078598041 0.680380606732085
-156.630291341079 -17.757360381578 -9.79472357982477
120.311181629936 21.6909136410075 -6.99717194865522
74.1601186318373 28.8286008306144 9.61818786648378
96.8508208798905 1.60447767903071 -0.684349394619106
-175.15608011812 -46.6772244814391 -0.542467310965221
-80.2097774407967 20.7048239960575 3.86166333788214
-168.233163251145 -39.9794748715158 -13.9556080671893
199.899249187516 19.3922971816128 -33.862495172673
253.814033829326 -23.7937443117795 15.7324972892378
-161.695518801478 -38.1219343043212 3.64017266059947
-142.038873996527 6.57759811610885 -17.1590402728448
74.971433391568 28.1962934776505 18.2594361450634
110.998790403663 20.3161269737718 18.1905331918642
230.891134484134 0.636489516446637 -23.369568632691
114.256153927337 5.32330649660172 -8.25680828456813
57.3816650546703 19.9327791595624 24.8475426293654
-159.044510594169 2.4985622690964 18.3881467285072
-126.680758522866 4.00628672017734 -12.3613666465344
47.542707634392 23.3853780128683 24.1922302879692
184.6224933542 -2.08125978020611 3.76567138666942
-77.5926401674073 3.90277733140106 22.8432589069021
83.7962370419428 15.8191660941522 -4.24236588879271
-199.250380754858 19.9864158469755 -19.6530161324625
218.181565523944 -48.9421855462855 -0.42130634851252
-170.372432111818 28.078450027299 -18.2486851158667
-194.677725131805 3.12518086670087 3.00425111298815
110.847566318155 21.1577241203875 -5.74595721932008
182.517849139073 -20.1542962935368 -9.52173614955699
-4.75050982773264 19.9657144365539 2.137321752738
-182.420260386589 21.1633461067527 -41.1268608532272
85.3051614312288 14.1809574536829 -5.04327527318437
-56.2880745789011 -2.25597205425385 1.23240347209003
-180.636136755464 -50.7029861634281 -20.9022025634381
-178.083478547066 -46.2258973855259 0.17254142840991
255.450467377572 -40.9692253298075 0.423798695901522
-194.260858554064 -2.83807695103587 1.52397084854057
-179.190809786174 28.8399163746543 16.8198645388795
-168.813991404844 11.941974076334 -46.5382827878763
246.342666410348 -49.6564365941316 4.06768421913003
172.860214001676 -5.42567459291578 0.810503963179772
137.91493800941 23.3288168380527 8.12459631666631
27.6414892735744 2.51669197810712 10.7601725006579
-38.6294175643353 -1.06123109035313 4.85848468873974
-169.173123313967 -21.0408706980325 -15.8740135425307
-24.9524168846013 1.53859377290726 0.340904837500979
-102.51407584575 -5.015249724408 20.0163518953595
179.483084353498 -19.2713164652895 -19.6321661107029
147.541394947215 10.891510515436 9.60572755689734
244.603688675263 -9.45921993994973 -4.2467261651218
-195.325080499253 -33.3543527363712 -23.6504828334913
241.163065122133 -23.2743948222463 25.8260136882967
-189.269332651595 1.81780941265278 -39.8066143621687
170.372973641154 -16.4841631289954 -8.11057795649401
-192.487894129083 -17.8727646480774 22.8160002327875
241.627891312007 -44.285452205042 -15.6176497983969
193.411985480972 3.53421650006203 3.89794808188227
-39.6548335884268 20.7059775934539 2.57413197185276
-165.539476918453 -37.1764812712274 -16.9292649235725
224.211704388632 15.5447200394088 -0.264824218662642
120.482972049508 21.7620283761046 15.03405340861
-155.424900969569 -23.8993756481233 -7.42312164826781
233.077438928803 -21.8449917002646 -18.6899792114891
-181.806965144796 20.7179372080371 -35.6970665691232
223.35517942097 -31.8452798164463 25.4440325540504
196.867207324766 -13.8043426114133 -16.1164987786003
95.6746551944025 6.90964267030896 14.3262112705273
17.7499049626822 23.2553124505284 4.89605487268728
-14.737661952382 15.3447876239445 -1.04976837100292
-13.7552499984759 0.106235208173115 10.8778991004093
-204.200924007041 -22.2012675159036 6.9926212012103
153.478507617814 22.6730592378809 3.82593127082947
-119.068127181404 19.7483859284329 2.71467218251158
105.083467852152 1.8150676511409 -2.65787697479801
143.900741676585 21.8846614825111 -11.4534919183024
216.971822990467 -28.802043214774 19.745094289031
-161.567657985786 -3.01436479650125 -26.7063837672847
212.956934235273 -0.653615284866929 -20.6970573978495
75.1419793425686 18.7829812036324 -1.51007514956787
230.18453108423 -41.9123631571966 -18.8590160928912
203.00863231526 -9.28581675766749 6.2827057882
149.760350866434 20.2155908495872 7.21225619341857
229.098320214088 -20.9647630051381 26.1504722660497
60.9112300849076 3.07220169261142 11.3902043334878
78.2531623658224 12.8399996719075 20.6714812508817
-164.051601854606 -40.3301952827351 -7.6509983311213
-117.95184969005 9.88318145197994 19.8244638404951
229.442640729508 -35.2800579769728 27.1288536350724
228.758770060667 -49.1654307905506 -13.0232261701377
83.6964796479539 22.486601701646 22.0584269394749
-87.9608100760511 -4.93549074232661 -2.62487776652485
141.086913721194 18.4846228177646 -14.6547910821126
-55.7855706445244 -1.19037275603516 -0.772336774353106
94.3832149372444 0.669543683644747 2.51073208600804
-202.695424952673 -26.2510855946496 -5.33727879095032
-144.843556073747 13.8024262978404 16.725569439838
-188.471893672248 -46.434839746675 -26.5500013189239
-112.366115351298 19.0901864469892 -0.62860419395726
198.234083342897 0.483879236223783 -32.3775377226702
126.262574234521 22.2760297714519 12.8447684615527
236.524663447515 12.2463525067332 -23.7674930294153
212.140849331683 16.0925671156772 -35.070598481004
59.6534764396308 3.13647985956379 2.27741996586058
235.6124301145 -36.0069466398776 26.7762761932225
-123.585316824547 -1.6481063523474 20.0787251979455
256.954641817397 -37.6464693068446 5.96726630187366
-155.535523273585 -13.7481186774694 19.9841109722851
-133.772555312577 20.3716765167054 4.24392421708887
70.8775046008476 21.225264421153 23.7055553178565
-111.222919255224 -13.3476329905814 8.09574909499614
-28.4958251057529 2.24932695035156 -1.03567325700327
165.431097319339 -2.65241314162189 1.72570827640683
31.2686275858434 3.7434102101968 15.6959664798626
-118.14438652372 10.6496923141982 -12.8155220800823
-198.893248497961 -49.1977519115438 -12.6082413071216
-0.987623187555357 12.9175466920231 -1.21063256160519
-166.930646149745 27.149636735854 -19.4145260356501
222.403386338231 -51.2460713120217 8.81000350511776
-134.807104915805 16.2877818999318 15.2387620059097
39.5696883311862 20.395330741014 25.2831747421157
155.317515755265 3.06418026719475 5.46790993256212
-106.895070717089 -5.57767970108019 19.7794398565109
-71.7217250985941 -3.17833559560818 -1.53269121823794
85.4200644723795 18.7254953259695 22.4124359450835
213.071908432358 1.65036190982422 5.75976683696457
-170.790268168595 -46.4062504784421 -17.2475000891003
231.53303638895 -20.596862779376 26.2601951752027
-124.001846071912 19.4896693316791 0.860031575713102
-205.991377248242 -30.4564482893041 -1.18809365742945
179.487936078006 22.434150834943 -20.0422577052978
236.822163423065 6.01568561527095 -24.4302138137352
-51.5892469489635 21.9731394052464 5.94523275440858
207.641631227902 -26.5582114554578 -3.37712207372944
-85.5576522600318 -4.34060573406292 19.8197948406215
187.340852058529 22.7936993694365 -3.4186575151741
216.060783904417 -28.8220272036289 -10.8328239056004
-192.759424535185 16.3137930251144 12.5437386838633
-194.351974984573 -30.2078994006592 -22.8333560736976
-167.871134862892 -42.702115788136 -10.3793724265097
-189.690049007409 27.0446619299613 12.6102840217213
191.73939810456 4.18616781681353 -31.4645274816468
-201.23824168588 -45.3661407538145 -2.61272407714656
-159.044169370027 -7.75707702790001 -14.4200769774027
-177.52622351722 -4.65075618669685 -30.5258882915957
-151.475694623814 7.60705031887864 16.4118991801687
216.805161170944 -10.6103953211898 11.3580986008644
-148.249810802949 -1.22529902441211 -14.1199625348707
-158.207978052788 -14.8781126968394 20.493963638081
-182.251487557327 -2.33481651896112 22.1724852107558
149.411339602391 -5.33469048707315 -6.20068970323223
96.600808872681 3.00112985955969 11.4045276664825
186.716449919055 1.75938755037828 -28.2714508548625
-205.476331195251 -29.1119810582457 9.13420362461287
-126.80209088503 -8.40956406361115 -6.42712205172944
-167.697208178866 -41.7143742353061 -16.7215732295915
-163.886805771024 -2.40168065574303 19.4768847601962
116.058326269267 26.1180001088661 0.951418545547568
-126.95340570165 -16.1666843646642 -0.292967772706061
-33.6970047507485 23.6468582445525 8.77369315048386
228.041258015937 -26.9618504204006 27.3446025256173
214.306733663831 -1.34666015101392 -30.1688549506087
121.355446857984 -1.74207090857467 -0.0222678707646858
151.409187452483 24.9878500998598 0.101274168916685
230.333773501138 -22.6064120929114 -19.153949656935
63.4718708638333 4.71220515664488 14.6452283432062
247.866823397868 -46.9894248404095 -7.97373674852152
-150.16090969003 1.17942253015346 18.9577297751697
-184.30391360552 -13.8638261175514 25.3004191166535
-163.167169020569 16.0643821466584 -37.7758508253515
-165.937477365883 12.0343174016812 19.7711405092647
221.878329755874 -46.9574192481372 -12.4064012221883
-26.2743749789511 1.028755521076 2.16944329543991
224.426027403755 -13.8539176433871 -15.7316921309669
-163.35663240657 -20.7072478811193 -11.6627341968829
206.571577459192 -24.567999342631 -6.57183616717637
138.120773690877 -2.06210931285617 -7.51445396077503
-72.564700894006 16.818732201859 -3.623803399873
156.560845060639 -7.68906703364073 -11.7121862291475
-186.068523747539 29.9717657321868 11.6609617752571
-195.65202563491 3.35523288176848 -10.2557499249149
-190.38722783687 17.2357858938153 15.6791640274045
212.893638536051 -0.702585112835617 6.1773369811239
-160.095031736279 -4.95131629580859 -16.7571548139096
171.542403665101 -17.8260439796284 -20.1360541825187
239.171744704641 -14.2273740745376 -8.64788983926572
209.915117789223 -8.23027120739143 -18.1850302950213
-146.271031642205 12.219853068773 17.312435817794
-166.704151056359 -33.9196291943102 -21.2303943568215
159.857516286928 17.4974207987898 -19.7300836954878
223.918697776537 -43.2426753985362 21.7267257951671
-17.8198167609238 22.8481365444224 5.70928155560769
-167.469231498183 26.9009827346668 17.5507152961212
246.433149406972 -15.7036493658545 -11.2172431492641
211.465849893359 -41.1488702724496 1.77136916722557
-152.520105814998 8.65865425521521 17.3861625734813
222.43829857603 -34.2377570775008 24.720856036225
-154.445309261433 -19.528659625713 -8.51436133697206
-107.28712457809 15.2376756062101 -8.12611718450806
61.6118218089518 14.6550998063585 -2.0045263976994
228.741967990073 -13.3818263883246 -13.4267657236339
117.782888941288 17.074025825461 17.1404849740632
-131.096974897869 6.05002418453253 -14.0737668324408
124.357751932732 26.0097614152738 9.04186480703338
-123.600929790843 -14.9821920426658 12.2274935511853
-163.699067564904 25.5610020510494 -21.0189005033356
-113.176300020629 7.56401073865231 -11.8363478676567
18.3397805269641 13.0781742313443 25.3805232399049
-167.278948628999 -23.4317147590871 21.106562222207
67.3547069186992 26.9621678262639 5.9405710548559
74.0687333273371 9.89660251771183 19.1046516454733
8.03137789360829 3.3830120018738 18.7492240780962
-182.705092226555 28.8089103143125 -18.8265657358065
92.3439599703099 25.1780242526318 1.39987828537863
-148.575584188477 8.00762944779344 -20.5149329887532
-167.043198776238 -39.0063504509377 -12.9018115819681
-108.660629890246 19.8828230469002 3.15017463699007
-155.014623603996 -4.88370854011216 19.8614898738588
-163.970333966735 10.6147186085238 -43.7376244028736
-162.25982523267 -36.005194364547 -9.21781042265886
-170.212376363699 12.9150969152115 -46.2997163222023
226.666599151718 -0.452080730217586 6.94764765606956
127.34221385313 14.7075379010445 14.7519498524785
144.359513651272 3.88512547368338 7.05510199307354
171.996119217069 12.8719915895098 -25.0652079920387
256.866104458155 -35.9519325053322 9.25005199897311
-144.231755872699 18.0193531232626 -12.3592902820743
-56.6916367101778 -4.28925358224851 15.2914912640185
239.152265580608 -48.9479540862948 -12.1351000417084
10.7324313120769 26.5646504183852 10.6530859155318
247.934500878732 -36.8890628883459 21.8985427677786
92.2647677809554 3.31292976971908 -2.73176366815352
81.2025693940114 6.77496683005765 -4.65632182265826
-164.013211639664 -8.95284110574646 -17.2603490754689
-172.16979276021 14.1866434859356 -46.8173393574683
70.3058749662434 5.90661339373902 -3.45652455733145
-173.497793543842 -3.03576270478116 23.435866323718
-177.806846311814 6.58592489132847 20.8109597378097
-202.395974549147 -35.4077572215863 -14.2602870762769
228.392887723018 14.5808733326044 -2.44971416081456
212.392234968954 -40.1740821106825 -4.1880769579669
176.334429943659 22.0831453291193 -19.1323405960025
149.140887031705 -4.84521373028395 -10.043804615848
233.466694291059 -36.2809693284924 26.8927218756449
235.026151587959 -8.08137031353213 -4.21699678756371
240.445506584237 -6.12778100302785 6.85559483773671
93.9805171474517 7.17780599312807 -6.4108008550328
212.696660803729 -4.49295774871659 7.65016618061277
-147.196624874278 -24.6327122369226 -1.90298730866056
-200.722794757828 -20.3770002550796 15.4345710384585
112.943889749754 20.1720006004768 -7.06293018092612
-127.47227225484 -16.880753781322 9.64784512416976
129.358007125779 4.87100333098975 -11.195839567499
-116.248446357494 -12.5889388970144 -0.390378193307152
-178.55865986342 -50.4020458514737 -15.2835596857998
-101.147672318634 2.71570638584994 21.5267846362109
93.5384642949836 4.17656420548436 -3.98275789604432
75.5637675144983 18.9090783014639 23.4557869840743
-98.1783844510725 20.557419769684 6.46057597836414
112.396994026527 5.41955402289131 -7.9932886454915
209.99821041632 15.6984295630018 1.06116124230408
-197.788731524588 22.4743692488219 -13.359255372003
-166.965100710106 25.7247667161039 19.1838341425825
-167.092608216178 4.77340893095879 18.7605680945484
-198.822971927092 -17.6842037220049 -3.39921083046739
-109.74578734959 9.86119964549646 -11.9769067651477
-170.904289292793 -44.4540093331872 -15.1615949904263
-195.777186658583 -16.0342854735751 20.2366580290866
232.331607926268 -2.76553508504307 2.51724350838762
-198.401627533942 14.9964692977617 -13.0215134635415
-169.996732012064 26.3373710488334 20.8693926411878
232.315231673867 -29.851485751986 27.9962321777504
-111.120411016126 -13.132080601441 10.3956342081132
73.3962288840368 2.16276698092465 2.38358516224094
-159.327947052712 26.0264743317983 9.55643061632522
-190.212265732621 6.85106251361838 13.573314396708
-179.188413497221 29.1679417827494 -13.6905081273738
190.847575779394 0.936756092115677 3.88368476213503
-143.139940696647 -23.9774662752714 1.09135401521556
180.007896982404 -23.7007921645607 -11.9327482566851
-203.821286136175 -22.0441736848595 2.76684875221064
-10.0761485117186 2.48111017504112 0.628808489021655
-142.100595473291 2.54993802753863 -14.8365720064515
223.084352931016 0.46425797221736 -25.9660779761053
240.390388468179 -8.95560743093799 14.8681863742357
16.5193949387632 27.6470907768303 16.824929459134
-177.683101973019 -7.4056262485067 25.3161212910435
35.4917870175045 25.5254597865549 6.40147618880893
-168.493579260109 -41.4587186581448 8.20224703921
-187.952021179432 2.23710861017207 15.7344595723213
-10.7352636736112 12.1634123108369 25.5150469763924
-53.7727636543332 10.106071032966 24.373760645536
-134.872681469696 2.38992003425478 19.448386765395
-12.7552153047752 25.0347792550841 9.89655370744197
187.230120979757 -2.06412967110851 -26.9076139279815
156.513247887937 12.9600578421698 -20.2633042793203
120.233769844005 9.41571524219821 -10.8497936403938
247.676474254657 -45.8643277562073 11.5523307977644
114.055049626524 7.34485582211043 12.710216303692
136.961957921682 25.8462619899577 3.10152292066904
228.186999628518 -41.2098755151913 24.4858460750717
51.5582953327252 23.8789370209602 3.67029424345585
233.450107507637 2.43907126271169 -22.9584944462471
220.426715199211 -47.1669867419841 -11.0559657361561
-190.135197737822 7.52299941500374 -43.065982357292
183.318806477101 11.5025148054922 2.47655064007876
-147.748983536856 -8.97591973000414 19.5211574701445
64.0801400857816 8.72483443486771 19.2589483907725
209.523135053762 19.2633791622674 -1.77667143482724
-162.432211336304 16.7999119424149 -34.5832274807711
245.211750505412 -25.4751191652006 -17.8139774090085
223.402006749722 -29.5348976391502 25.3091816015758
63.6751828528177 23.9602609603432 2.99485238259508
-15.8079286198368 25.508300438811 12.1397564938899
43.4424867636061 10.398724876276 -2.47289928913523
171.695830016969 -2.175001110903 2.74702313389373
214.21648234155 -45.2609425617438 -3.46220678408114
-186.501236267366 -41.5582346278177 8.01661465739001
223.898635439043 -6.01725035770217 10.6440550532355
178.252076167465 -23.9449520584557 -10.9611682974689
-8.27846211492468 0.534828367599963 12.4315480847376
-51.2960507329774 23.0345871274679 10.9305913097534
196.212982812616 -16.0636646176813 -14.3403919723451
228.108018397588 -52.2998418187716 -6.45396124516947
-128.48442668332 18.318509517639 12.8770851724909
-180.869364459543 -21.6361615118216 22.5857038060158
-111.590169793467 -0.570301143402569 20.6733181161994
-174.102811638393 29.0399206530382 -14.6746416024075
144.880104185707 20.4472997318231 8.38666822033036
-174.301622448515 -49.2186964575542 -16.7093966668583
216.661977314792 -14.5184706625063 13.0000073169392
194.185317386558 11.824389485596 -33.4526492488789
-77.7371797017835 -3.70382659410956 19.8619144618198
230.677024894156 -47.7203620615232 19.7005741722805
-115.188226771319 17.1784682785071 -6.23165230628674
163.097358285241 17.9062489382752 4.97790288213008
202.3492953724 33.4871450843148 -18.1810343154184
-187.578571188166 -16.3104804771456 -7.60244625278227
-78.2029379623346 19.9172184552068 16.4728679066594
227.045083863648 1.611522437409 -10.4023637046609
180.742467695593 24.7102978981252 -15.5860810897523
-106.162953445773 3.83087048265185 -9.38253310136209
-187.451711982922 -1.01894003127708 -11.2860142988368
-191.157932678772 1.56228583332669 -12.2892419200095
131.347570302831 13.4004214064321 13.5729494435181
109.913003166397 0.00530035303523142 -0.54570364245641
34.8941259324226 5.27484005532827 -2.06075252962457
-116.321006267025 -10.9724644051827 16.446340299866
227.995629117534 -10.1595423026872 17.6352100710422
-168.758832587118 -40.7525200664139 -12.9323193907861
-50.5578637645074 -3.0924838466683 16.7203007764045
122.824298310129 18.4645516160949 15.8191462517755
58.7285312764639 27.3001419521437 20.9379298164039
-165.69225078072 19.3638543563478 -32.7138177517589
4.25045610797761 18.881578558524 1.4042889817793
-32.7274336343401 7.43047382800817 24.3997827899705
218.933600614924 -39.5916696345558 20.5888647827584
251.623804599045 -46.0964691204256 -1.560978714521
-186.613864294679 -2.66894803622279 -28.2285699789213
211.075264105733 6.50780031538818 4.86268071571082
-186.642929310385 28.8778378890468 -4.4026767633292
-184.102689242596 -10.5363310077848 -8.14734329980461
91.5975941309596 1.16623884005858 9.10002418558334
150.801444745374 -0.73385034548457 3.64939158735977
165.385174375792 -5.52685364186987 -0.966699852715932
-13.2430480971736 0.61631894078051 7.34588061649028
-113.809835454767 8.21807377560232 20.4453308583737
-101.41048126778 -10.3361431638979 3.26033267672052
24.3110952052563 16.38201132944 25.8107567196062
-191.385512394486 17.1291972687158 -44.072759694571
-116.139184726923 15.6813961712546 -8.79252793649234
233.223552671523 -34.2248742113234 27.4416587524612
221.265647597481 -15.0898939389249 18.8323050335504
-82.0939815638486 21.3965265334343 9.27019158532227
195.667353016223 10.3764145951705 1.80588945922829
-107.176512472848 -9.3579077085863 17.1468554465857
199.127627445071 -5.37585449709225 4.75131155077878
240.776932099478 -36.3787743460624 -19.7813604062712
70.7506168582823 18.0438638972753 23.7507112773698
-16.6436551403609 0.440178689477849 16.8657384590747
172.576953760513 -20.9966714092091 -19.4596922552406
204.539729689046 -11.5118563913771 6.99188186385576
32.8662011071791 15.4222014221572 -0.299805214218087
11.9087502048953 1.87743341909874 10.1647710796154
55.8416847275155 3.9621340589696 13.4517420221755
192.18188123363 2.30574793195794 3.97420997470423
153.116621889186 -6.97364505899807 -6.86817154688649
169.963885900495 -1.60407035097087 3.0332299327639
221.239598992676 -39.2463248346739 22.420882193696
-173.421563281673 11.3595459966185 -48.1403701732907
131.906006984759 2.61615877368071 -10.3362683238381
164.272694612823 13.5284279947787 -22.5862934072322
222.951731119502 5.87946452013408 5.55281930572994
-154.833209087388 6.70644054435509 -22.9645914867205
-73.7273846379681 3.88572118069122 22.9835449732048
89.7008860999991 4.56630791876766 13.1400230320628
142.756430878584 1.84804473954062 -13.3486925460046
140.895973530925 3.88138073085379 7.50537221082775
-171.318543335612 -24.9285564223933 21.3294002143211
-141.767219508391 17.2706194561327 -12.9444526372794
228.824814820723 -1.89129069776906 6.56769031781548
-27.4724240918767 23.4030892694262 7.4015212209812
153.046161842396 -7.29538489997943 -9.34343916706466
-57.1511402786174 9.87276689711407 24.2371008046967
-51.7304533869682 17.6347814809039 -1.60544682662844
194.152476231996 -19.8449597910547 -7.13264334799361
-154.562829480972 -30.4655901111414 3.74277620351068
175.103059684847 0.339292535653748 3.64504071494297
131.204021365856 9.8246712646246 11.9771040325994
-161.636117202765 27.155340562694 9.02057932822089
237.565419152494 -37.2244438302889 26.1960767946499
230.113663420044 0.462082833935727 -6.7357433497708
222.403255326154 25.2715718786844 -22.0243695981015
123.226574714932 -1.19443537354011 5.27032544284306
127.98114069615 -1.93991974750351 -2.46880190237225
-187.589408503221 -1.33204789985573 -18.9197585518629
27.2210673986745 13.861365964597 -0.746751873362046
98.9003519021304 13.2801868543621 18.4743146748302
229.105834492077 11.7515755138366 -2.79777568927723
79.1789760308634 19.5975006747047 -1.54603463235871
93.612364001801 26.4088513056425 3.11760691137443
-165.437176553978 26.4986162061496 -20.1181082547527
213.746139393531 -24.25520380885 13.2411115241828
236.145040906178 -6.54305598750261 -0.783744230542612
218.50860944772 -26.6084657002411 21.6372012576604
136.263638060458 19.1112847600603 -13.0630143106738
219.862211904134 13.1688199345951 4.26239445950556
-178.72589227453 -20.9535267207502 22.8464990004787
-69.3032948510361 14.0934569201641 22.545488152254
212.560970956682 -30.9762083891293 10.1987721189096
77.250914714263 29.0017360423218 15.9885957513557
-178.227474239384 30.7674579394325 2.7767555645685
94.936292767849 5.29458102943476 -5.20699321810483
146.259712024826 3.98347846691377 -14.9518121486035
123.151909815427 -2.28634491946454 1.58794437997342
-27.8202856862448 24.672659708423 11.7900982540654
-190.815128570937 -8.91355738933402 21.700561225967
-176.131897831679 13.3385779459292 22.173883286195
-173.039504848769 -47.043084689239 -0.701751278806782
-201.308992566042 -21.5482160535455 -2.90875647045509
-181.790777340445 -8.05573281828488 25.6732348557935
-34.4919344036784 4.72103004106165 -2.83997267766768
22.6454609888891 4.18732057627026 17.9160322798879
175.15859118137 15.5528810545545 -25.3904232896975
-4.79803292044494 25.4314124507935 9.77485544744401
88.8077835497815 12.6031993990906 -6.03080911279274
-84.8977906112509 17.2782827455164 -4.05249898194737
-172.313545853489 1.65307041566707 22.2341571020243
15.7152539807141 4.34700802696789 -1.73645771625956
-103.850711370793 -1.11114839321422 20.9902864661574
221.620799970062 3.62460420001489 -18.2060371756023
233.009653283391 18.5265926296917 -10.5026035305797
253.080503227348 -26.8774747644903 18.0568396392295
-84.3580716584144 5.17300796417676 -7.73984527858589
36.9725889618633 6.77695996569445 19.9332734408378
27.3400604329203 21.8102403358569 3.40391483878676
80.6416131007407 8.06451124852453 16.8412214595793
-101.334294348185 19.4116822253744 0.536442160979529
59.8046195439501 17.3181863905184 -0.757736595006983
-202.373984786274 -23.6190772236516 -2.62244655813068
-74.6587893069479 20.346851230523 2.35330667599073
-190.624354853348 27.2371807074737 10.9857831633727
-178.021329792599 14.0519504525241 -48.1583395020069
140.536844520773 -2.35136995508297 -7.76934954743842
-170.977884930315 29.7041703812848 11.5952093348516
226.534205570255 -53.1769684419045 5.10802585034408
-70.2862035930214 -5.97662298259432 7.53783201316237
79.4789474737471 17.1578755129261 22.731997700587
60.4390252228014 28.7909426130609 10.1278204688214
-104.785414173849 -10.7572579727843 14.6601359910634
192.094279689768 14.6904406912763 -32.2429471493123
237.977888605859 -7.77591876410716 13.7843102416172
208.400988927086 28.5717437548729 -27.0354176740982
61.9738217949717 9.42931818475469 20.0677087504111
220.300361529463 -49.9199093405483 -2.84640907640113
-139.843891017061 1.62223086976595 -13.7672901231723
-185.649610457573 30.6275507962867 1.8493006291223
-188.609721473376 0.0916517681184206 -12.1384865157886
122.365882025196 16.3613012865082 16.1141222800888
97.4753659642783 12.614450516095 -7.31746392651992
136.145366443396 9.34958124007104 11.046976052546
257.14372752834 -30.6699937382289 10.3964081055715
-161.181253504367 -2.05649554772329 -33.3644616068019
-196.443131428737 6.84474587473354 -1.11433024817873
10.0695821084173 4.89208368281212 20.6616415881322
-133.892426008657 11.9402011614619 17.964810491768
214.425573016287 12.6695380360177 -36.1540570108718
69.1843531634323 19.1999297009973 -0.615500643592079
-198.480345314669 14.7962325545572 -7.49924939834391
-160.536792020088 -9.14409996913297 -14.4568844810915
229.357334376498 -17.2337325300525 -15.5546688675817
-185.194121272699 16.4261334182207 -47.2530022457548
243.227530902746 -23.9362315711563 -18.1624876610651
-203.001676104666 -25.4212076740132 -3.41433294341558
193.212466438032 11.7553143547581 1.38007030434168
225.165625598533 -4.0025651338497 9.29675995076883
72.982602839263 28.9818047911216 16.6583794782721
235.857328809101 -10.0996539175054 18.3528943759787
-106.307679431797 -3.66230377369714 -6.16804717008821
-184.422789924347 21.5935803405417 -40.9463730073232
-70.2390137706072 8.16800249268045 23.511706993489
163.349986000944 -4.72853508211934 -0.33308858188334
25.9565508178545 2.27269180733715 4.11972747795613
-84.0320848704524 21.0540255633498 5.92668573668165
-141.021265630228 -5.96991758424815 19.5546831484563
214.361580407357 28.773122007697 -14.6031545477813
-164.174000256557 -26.49803601152 -15.4186490497533
-8.42114475231013 23.5181539387215 6.40376444783943
-180.641321076326 27.7758227547841 -23.3965072442653
114.082737993455 2.2790497869687 9.53668225795645
-171.655406685181 -28.6532943046163 -23.0847172091151
-178.848902764705 -4.90633380245233 -36.4183797720106
-197.454955352617 21.0759580903508 0.536017658901597
-46.3313437712831 6.21204340786245 -4.0455832014352
-135.843215474091 -12.8976297418895 -5.44816271996466
-195.323989898407 7.8276361629926 3.57117564710333
-187.017502001709 4.22441167625225 15.9067920467761
246.293673289859 -39.8535688066918 21.3762502167451
-74.564135850627 -3.41514994428521 19.9211327968494
220.200970414592 25.1881176258704 -25.3564232662868
72.3355053388874 26.2370389450664 21.0209793547538
-180.866811961847 -4.5900148728269 -35.8879235240753
196.383731901764 30.5114873067445 -17.7846767186354
-192.03650026584 27.3890205876457 -10.3400183733832
253.91305717368 -43.5201103566178 0.665710986404402
84.883907481275 9.4650369772262 17.5383669723136
219.337143735294 -46.663143307686 14.8208746510991
-148.607397794297 6.23383423017256 18.319527389837
-22.6154271149979 24.9960722485266 11.4708733467599
232.512180524883 19.7051414647239 -21.1847349701669
-59.0482066268882 1.57853415671592 -2.95306223046626
-18.9280627849005 4.33898602421776 -2.13504092209116
-191.072385554943 22.7590981576256 -35.4797189324126
57.1835107133336 13.9797736802156 -1.88077448235442
249.092817436592 -12.0149525118668 9.17815258714118
-30.3089773865341 7.93516276854576 -2.74422428048947
193.910740204144 -1.57314794204161 -29.0389025910158
227.798554085493 -53.5256589869103 0.481404235546004
66.480120344968 17.0384968554109 23.8990640588554
-198.181622756719 10.0707086072574 -7.2482454229115
210.205706153154 -20.1790273849142 -11.7579909139788
-131.860189622666 -18.7897033976897 6.84350133505799
-199.279305371552 -47.859776996164 -7.33653161884841
16.1715654779325 21.3956833014571 3.30092463273351
151.009374654734 9.98772278329761 8.60307814433217
201.487491981799 -19.9414534336997 0.212371411422149
-194.343146282517 1.18039772529697 4.7644482248297
-160.037562332341 13.8043514149598 -33.4741204834021
-145.171452088384 8.72370502553053 -19.2205306076715
226.634914803427 4.83404561670777 3.21868375988425
-172.576801929283 8.55059472300809 -47.4634283528871
66.7627849019907 8.62630203376008 -4.62713344455568
111.957851255489 16.726028144033 -9.14367279998484
35.0618735186979 5.16259037832716 17.9947094694949
256.908732614993 -36.8856120109014 -0.955434226296314
201.442727780831 -7.29677316670335 5.43002763658703
-147.011075587769 4.48115445617059 18.274573697481
-19.0387731098375 11.2692188978723 -2.04594630876124
99.228984538713 17.921024083088 -5.94924317867683
-134.337256057439 -10.5915289124262 -6.39335777154981
127.227205971821 24.4912501407895 10.5649736597668
-176.024489478201 30.9112868791554 5.28166856821868
-170.259254915705 -6.43074447982145 -29.4815443793899
-102.952762358689 -5.7001444132531 -4.73084653418601
-169.250173657912 -6.42300988095985 -22.0655305890901
225.156881773012 14.8979824126632 -31.3862045729302
-53.3256825855686 2.8889305398481 -3.09228641596124
46.4659401912914 11.9873428276285 -2.04402023109331
-197.555765054329 17.6335913214034 1.97440799488178
-175.969063494922 -47.3911990863564 -10.7257424612397
193.335441862985 -7.05671987442007 3.12747865798273
231.125717005495 21.4811358989601 -18.9292096941968
217.560093673755 -1.59054308159869 7.55387352341597
-138.96576076397 6.93721008156137 -16.3990725263863
-159.73085346267 -1.04625741644789 -19.4521186788913
45.8595812164681 11.2407258160176 23.0285679499135
90.6587447923033 26.7478675509695 17.9508760516779
-191.691168195242 26.7751925080449 9.68885233584614
-53.8507133752092 20.374838365963 2.0982382389689
-4.55208352504869 26.375139095051 16.3009265597252
190.778170236635 -17.1426144753054 -13.8271218413949
-152.884688294037 -26.6790531738228 10.3472297778978
80.2028353150549 1.40394272919315 4.1714439250732
209.71525818944 31.0060915472825 -23.9509579354012
67.3866984962997 8.78887395273488 18.9708796826141
9.1075406506929 9.78218398213169 -1.79956619636648
-153.337346537614 16.9932317439462 -21.442175829999
81.5844800554166 19.1990588919506 22.858633962425
-143.073735609298 -23.3015129043145 5.98400168727356
-109.489614229945 -1.33100174085506 20.6903471538767
-168.01422170719 -37.9227990127751 -22.4929983816767
-172.590154315435 24.3172878608675 22.2639932380581
-181.982359142298 21.0051348661873 -37.7329065690596
-172.210677989057 -30.0515065299772 -24.9644193076119
227.691787485943 10.1217395097238 -1.83885094453834
173.474139708767 22.5685665516112 -1.08982535569845
41.7473120041605 27.0751158131289 8.13228081608336
