-241.447036929641 -42.7979831585774 4.27071198726782
207.990481160798 36.0157985122734 -4.87840591849057
207.151180112774 1.89559689149716 -9.1245750679252
216.691809243378 -23.2749579751537 14.7735312021884
-201.613741952632 3.08169866116835 -17.2294190638719
208.041740138285 -15.8566996173182 -35.6940026943104
-228.889646163823 24.570743727379 3.27626480967915
222.717163212227 -25.3289315214575 4.1126876974605
204.726050326812 3.52021476206983 17.5180236671322
-225.756415721303 -2.64031536787585 -2.66087039224134
209.80139424382 35.3920127568358 -2.05077018675389
62.3935752556136 15.3977112255689 6.07049275665213
-240.706536219354 -41.532543039916 10.8992136690366
-6.32860740456996 13.9006825331658 18.2851920996288
-204.477901770372 -26.1211634538015 -5.0046675432503
197.106561285398 -12.3803436909715 23.5537135731154
-173.043893567966 22.1364232467186 -18.6859701060264
207.31948437948 34.3563330904587 -33.0523641310266
208.650828693875 39.5514465830498 -19.6276769794956
216.238143838404 36.0711557799282 -10.2769551848962
209.695303100142 -18.7543993668 22.6306009694144
131.177354961364 20.1027297992247 7.4042259304801
183.731368018691 33.5912885421093 5.40902491223328
107.168814413789 12.8041789469168 20.0271065358071
51.2022987369455 7.80614125522535 22.7646214885754
214.630673421524 -14.1399787608097 -29.0987536859816
-175.198025685362 -14.2131659630039 -6.88232482090864
-201.086522852018 -0.352589805183534 14.3673008405451
-202.19451964075 4.54012111213062 -17.3406020194653
-187.284265365852 -2.21012839288352 -24.6265918933177
205.844387394832 -43.3356323798882 -15.5808820095565
207.040502252578 37.9802036279722 -18.2980124310617
151.393065433582 9.35269363180213 -10.7858803434805
-189.51320570688 35.2513823368366 5.42363695611323
-122.617057116608 18.0188021160322 -12.0673883926052
217.04597655799 -10.337750141644 7.55539206384949
-22.6894774713439 -0.437895978422221 -5.39811162050292
219.418672247858 -18.3929033600009 -29.8796439020462
-203.653295354092 -19.0366943290307 15.5322371651345
-114.654687128083 3.76669682420772 -11.1817819840011
-203.681423480946 -24.3118774921519 -5.92400084043792
192.761533890168 -7.70744186181055 -21.3637122586377
212.531592687539 38.1410065548416 -24.832857870547
194.304879630712 -42.2106211424178 -2.23722324138107
-223.419130893971 -26.9340655572355 28.4885059809194
-193.203587306504 40.5400308017328 -5.71210464781315
-245.041384638806 -32.5683134613234 -5.24663690012898
205.119843595883 -43.8195978441903 -14.0073561999936
179.186420712394 1.40901509112969 -15.7888947111778
208.953852378748 4.99629556642364 -9.66160870969198
197.792717940491 43.2911887778008 -15.8002399744147
-226.707971650693 19.8880841413692 0.0925059779913716
-14.2403608276941 5.29343101364906 22.2649624321045
-24.6829866189969 15.283290189763 3.36615514385083
217.385057863798 29.6422980983567 -14.31198471384
-46.0665128473301 19.0319409143542 8.66686149872955
179.480950487751 -28.8085750457793 6.73427709068354
-131.674517155938 -6.20939359127462 4.70781054551551
226.450749279127 -27.6545298701012 -4.67579290151047
179.721438314737 38.5974230849061 -14.7248000018528
206.712081203476 -26.6508334392884 -39.640519977649
198.264500181433 -10.7678688341058 -20.8711063261052
159.585572352086 22.8059547183368 10.3322654455801
89.2674621801695 -8.77618341446904 19.6607198867454
-167.048594150103 -10.3913168035713 -1.77392279046251
-127.709864167323 13.6095216987688 10.4925220277767
37.8042630444597 4.84871706540789 -5.37526269755347
71.2418512571601 -11.167652019695 2.50822611978953
-101.419452520835 12.376405597355 14.7922797365337
-74.123851756834 18.3557501993976 11.8547376816767
171.097677248768 -27.7788260632385 -6.78503438031963
-227.749281520279 -49.3755120126449 12.6593551885093
165.310562432141 23.2266329215288 12.279007490556
212.671912266623 39.9765617936899 -17.1240249773882
86.0420851147716 10.1706721362 21.6563390289237
183.935540913693 -19.9656299343314 -19.8532940426285
-164.152221168938 -5.13048769822745 -25.6551342167098
-211.663147456592 10.5185010985235 -11.3566857764565
-237.454764733497 -44.0404952883902 12.0920567393883
-226.374088854523 33.1836478054391 -7.28876026560351
-175.475983400126 26.6661034359783 -15.6045677140473
-184.41369600944 -13.2757819863459 -16.3387806425073
-138.717559600079 -6.28873795264103 -4.70730426615212
-196.935829815902 4.12099399510491 14.2713536157297
-226.252410117127 -40.2120959161716 -16.959596742619
-234.09169457646 -45.4888181007381 14.3661178478798
-179.173377112936 -1.67670428437856 -27.3006487678593
-236.22275818264 -21.9849787379575 24.0838761245851
164.387888242607 21.2043350437281 16.0060053721721
-224.049672652421 10.4703585982045 -23.3923132562211
-181.715112416621 -8.58728835434819 -24.8787457821473
-208.424848947966 -12.7388845168017 17.3492173926711
-170.758506023033 -11.0285445377561 -2.31175247102706
-101.078594914106 21.9500210805981 2.52734898717781
146.142447951208 -5.30077225827923 21.4180760424106
189.285066370429 1.28100037914867 -20.8259675167774
210.283087991903 39.6997935389231 -26.2104093797415
211.96223224796 18.5870015729689 -26.7746184119858
197.747615840929 41.9908289915427 -17.9312378716876
-159.6190962851 27.0014937952626 -8.36487394453626
-219.079908284297 7.98167013776828 -5.18902623762367
-108.716847731466 -5.04992985357929 -2.634568466333
0.429694584411955 4.86860066130988 -5.56527783031418
-198.127106591253 -13.4161370778607 10.5918399026108
-206.331102492782 9.72870634413458 -27.3487818657435
48.4339163684024 -6.20922131531033 20.5746340254246
-5.48364857892264 3.94932020737003 22.4940747365506
-30.0064875986591 1.89905652646258 -6.05913104770773
-190.988895551442 0.181126308954775 -25.6629778563343
-202.655202521995 -15.9749485033564 -10.634010114441
162.081142120284 -18.3177684279779 12.7590413399044
133.713497026845 20.2305014989531 0.986157925944084
-22.4888777853725 1.46352665640725 -5.9601995815593
-180.649592799205 33.0974084902979 -4.28525712336642
-244.938254696354 -36.9137630652695 7.57500853912966
178.06441463948 15.5781323730697 28.9410688697596
115.602510390934 -15.6236761923806 7.31580676411547
194.304178149669 3.27440696739406 -19.8880549697195
29.4282068929608 -2.32264626784666 -4.71131338789839
-219.267387860731 34.1875996462703 4.83504384240839
-190.242341110561 -0.851775014387058 -21.996559566249
-186.607937484145 36.4550666424486 -1.30889805997171
153.910862208555 20.9683393690268 12.9688367056678
-191.473048222659 33.9314300259064 -18.306582909288
126.166136155352 -4.04627416108105 22.0318915710071
-217.897159349743 32.0141254548392 6.07301383917052
198.192091978532 16.3930476802607 -34.3406092191963
215.546415449463 -29.5340729282394 -36.3738671413276
188.816596845573 -6.01520135402727 21.1568197268936
198.725567065861 17.7553612433177 29.336644757913
-181.427784969409 -14.4330456114987 -0.953137293447147
-54.9493556761207 -7.8116765191403 6.82991720146273
214.718524099053 38.1457720520051 -10.2017997282868
-92.155474973622 17.7602953621527 -8.47403814814021
-72.0151597568882 12.7845588219143 -7.45875699505446
38.0039446405238 6.7526220958874 23.0191308420266
21.6133500892133 -8.76723611373555 16.8893381399185
182.807376044771 -18.1651779920822 20.1507180884297
-13.7884381723409 2.6929801422648 -6.24092233337899
-45.9026928839998 18.0975708753284 4.60894602048137
222.120503320156 -27.5095858724472 -29.1750623657137
-212.882568420449 38.6303602641743 -9.49065999865915
48.9717683335151 -4.5413036999137 -3.94505454172399
-207.75312286819 11.4923170572403 -27.2991174383301
-244.404233700165 -24.3800866908294 15.2532035224834
-188.01567547159 1.43369467105456 -27.3817947428968
-231.389756918572 -44.9280504453819 -10.6477555700616
-186.828133939104 -16.8860123733691 -0.0368039465019919
-193.370583568668 -4.47294917818474 -17.2767613609487
161.197863354814 -11.6465303959338 18.7690181957216
-48.8565390031072 15.3152672048955 -0.103737018481934
-180.685416969731 22.1814035524717 -21.7746583715064
37.6624166196472 15.6517020845827 10.8545658892607
168.005863107254 23.7501537561102 12.8374310850966
-203.128372910252 1.31861358828369 15.2833150999621
-106.526349915452 17.7783119915701 9.92891504359612
-106.406076289547 5.27980772387807 14.7807736154597
-194.074534756606 39.400469401357 -10.2960962187071
-245.368940927421 -35.2199208625454 8.85573070868109
-229.108135590437 -40.8055801614567 22.7852426270945
-190.019256086392 17.7417779294158 8.32283251593471
182.708717860172 37.6888304033765 -5.09726703143067
50.046786017449 15.5317539886393 13.851576445671
103.791407133328 -14.3466643911406 5.40347646002052
142.919644664432 21.5394379342556 5.31957317956689
-56.4393298428127 8.88610815913552 20.1099442862233
175.391727094483 17.6101678702825 26.261409491615
26.8851797403942 6.98615662063708 -3.56952359244862
156.319919591689 -14.1573964741574 -8.87307155265973
-143.748639754709 25.9406478974726 -5.79199220720132
-207.863412939849 16.7885106999901 16.6328283992758
176.465007384432 -0.709667345104284 21.8414056383426
206.191728883914 14.4372955251411 -30.768747919981
-228.36910602958 -15.0073300562341 -17.4088207283252
-4.31433167244406 12.8022003607382 1.95236038208125
-114.770634959429 8.19314004857975 -13.3369801799151
197.918545467615 38.7136040164098 -2.20492533856608
-194.32878888898 16.4310717371188 -28.372616554785
2.08718460173152 -5.5918607319587 18.9604893626112
-127.472351626542 -6.16989856715111 3.93462027201688
180.689757601582 31.0900387477403 -24.0922279020951
11.8109256917387 -10.2208527469435 13.1135018749007
-38.747236518054 13.439635771512 -0.194598762283042
-223.093041768955 -44.8143079788458 -13.6083360291571
-210.198100476061 -9.33277797773232 -13.2950469669123
-183.156546368659 -16.6224537002703 -6.27583473312876
-223.314728430503 -12.8637126219129 -16.5184687587526
-140.781539302109 24.2436375299021 0.6293038199926
-210.401533943597 17.2643952263318 15.9825776744956
198.728652492999 -23.6938240009777 21.320546948201
212.604122293032 33.9088503217898 -27.6485049631067
-218.813374366545 -16.430856935237 -17.1176343165982
-205.888300780166 28.1387425915235 9.34640748665928
-224.693791675456 -51.7535573314571 3.37637054968383
-171.834767750071 -10.3317619605101 4.86738353173178
-193.539790583592 -2.39551728131537 -18.5629265783282
-221.042141154038 8.08887023288659 -3.75933476036282
-210.743739716869 21.4084130194106 14.7946066283083
196.137746357384 -10.6384020140349 23.012763156013
207.441518775583 33.9675871942065 3.25435233456422
209.906518568222 -13.375767293201 -30.3274355999652
136.32866273456 13.4755418909684 -9.07231150672169
-241.232190787873 -39.1959011877206 13.9123451336832
186.336432437198 7.82321586182658 27.3777296376603
214.125645440925 30.4372927053638 4.1835327131428
-72.9142723808264 2.68403105964409 -6.96185350979339
-227.519885860667 26.3503538005565 3.42914941683662
-191.815145451094 -11.7067792791165 -13.2640788064258
-187.729713394163 5.48530517499788 12.5583644402622
28.566818606547 14.0944053448303 17.6742936633068
-219.431284767164 12.2639824962878 -24.3602626998692
208.154269846595 29.300829533451 15.2530590839256
-190.539697307169 28.2348769875111 7.16304799551448
76.9437822586423 13.8595576727248 0.0978183114928461
-53.4898395988282 0.964553210869926 19.9840288099585
-84.6055943911947 21.0981566251132 1.58464306082438
137.632515272511 -12.8291277786124 16.9028062775992
168.108232276476 3.4180371382573 23.5618372234502
72.4011108625879 -2.3698958832979 22.673174994202
-175.615829176113 16.1265579873334 -22.9408292791464
201.341754727006 16.7117964723487 -34.1719884264015
-55.0343556140231 2.6448272630466 -6.30749466556165
186.32983913642 -43.2869123656839 -14.6287872704465
-125.500778373186 16.1602896709606 -13.5269950900786
178.745727119727 -13.4628187615769 20.2692741180188
-212.097592212234 -41.8910451379777 20.3003950764712
203.933858834492 -13.7094624837918 -30.839199824447
-180.520631439386 -3.84018084000271 -27.268664148625
-242.887771443123 -21.2390996306918 -9.96418690097721
-198.246421215159 24.3854455411068 8.2020320969332
-10.5117731312386 4.3390307948972 -6.0737172130595
-9.64296073987203 0.597806534746925 -5.71045836882817
102.634633342981 -7.55461881603772 20.3368026790989
-163.136530366329 -7.75120032013743 9.39656126787602
-203.623127813784 -22.5536883651578 18.2160732407337
111.983243300203 -2.97078203195086 -6.39481131591249
-199.544341717254 1.12931501450967 13.1881718606673
-49.2490071203091 -7.30893552436043 4.16426078198333
215.712667384707 -39.636764233157 -21.6309734007052
202.858265647209 -41.605958156619 -4.21290656167027
-132.965896662314 24.8168930777375 -2.01877086043162
125.739188673221 12.3286652552808 21.2569653171337
-130.813756240458 9.92574995136832 -16.726230486323
-200.885185971256 28.1301701127447 8.96646125299818
-230.853986206444 -39.5880718551084 22.9583310560919
-216.886238793473 37.5915407309943 -6.90097705169706
-27.7053588334423 16.8968339762808 5.41343578184438
-202.793779320719 -35.7139192720972 2.89144735410722
-61.3498258828301 -7.47796275583583 8.88604065462135
-238.50061903072 -19.8363981504548 -14.2092579098139
164.063955063519 -21.9118735152792 8.11930460411879
-184.934114276382 25.800717534622 5.82523166722615
159.391269133203 21.0168389056911 14.3749161578565
-214.762850962321 20.3165588815144 12.7737911656971
193.478412079395 -45.4937039111621 -13.3820279578468
-119.340456932811 16.3616782554195 9.87146361898045
-234.327844885278 -40.658890960393 20.2544819482355
-232.958495400588 9.9823798619632 -16.0314299468681
109.653746302002 -6.46411933955197 20.8859949428917
226.494923384981 -23.6576049957827 -7.32450066468072
-149.829070492677 16.6393976013806 7.55275407301473
207.429038184072 -13.6299814347735 -21.4712605616915
-208.825813067613 7.9281454487855 16.9151949819669
-242.981978112667 -39.6027944762444 9.28892884370725
-222.54369646523 28.6166768468274 -21.222833849546
201.462408627748 39.3571736735312 -28.0895355776129
-195.440976552955 23.9580856474509 -26.2028778703917
2.75563909124832 16.1938189054142 13.9300172202362
-29.3384468598993 4.38459851323559 -6.32336992624192
-150.739634971245 4.01395675687196 9.44529111951908
-121.551668462223 -1.26494874872105 10.8627094860688
217.476221608455 -8.39070264142169 1.9739117488767
-40.1602680163211 17.0543462730375 3.78167308707005
225.609003282772 -27.461905738502 -19.4056960522926
-235.802023884578 -10.6714794562995 -9.63656890246692
-190.421626591017 6.36413839431434 12.7959109685801
191.61513194858 -14.4967117845498 -26.0390125708888
195.908419149135 30.3340802848839 17.587250892976
-112.708337995711 9.25295081979292 -13.3743987145628
47.0943170926824 -10.3675188496995 3.31242197555147
-132.708943718616 -5.71136828098214 -4.37144448914274
180.233739546337 19.353269996938 27.8006296627941
115.607099018331 3.82629119518287 -7.74675869830626
200.368669423464 -32.787006928586 10.9921179502268
184.459534640704 32.9669005795735 7.6104115724015
19.3694561400357 -7.96227645888393 1.33993963520182
180.598886232765 -12.0152896486043 20.1700023157169
219.781951442535 -28.8370811947402 -32.5743514141643
211.548807893232 16.3790982890599 17.1881975776843
186.591876019912 -7.70604170322183 -19.7486094400981
178.465656020273 -24.2394623727618 -16.8976852075775
-198.853177979543 1.88331659502909 13.8727063719692
-208.709382619554 -16.1636688896377 21.5726216370409
204.143428059387 -13.3443005423744 -33.0399931446604
-162.307153911674 -5.81083858671307 10.4519765272561
-81.3589490470763 4.2546011016749 -8.27386966915378
-228.123463547373 23.2479175267325 -19.7396090030479
150.129218099563 -18.8053125849788 9.27908676001761
186.066207572149 -22.0651438533946 -22.1001876300535
-209.175421307372 -2.48585869957918 -12.5833470380129
-155.647905326218 -7.58496986037885 -6.11965653683152
-192.725665787967 -8.76043547012985 11.1771953576124
-72.8284678578771 7.73028714753937 -8.74512927341903
-51.9595617491897 -0.458544129535709 -4.58211765793672
-206.54185412678 -16.5546466412757 17.8183974964699
-208.278782170188 -44.0482084851415 -7.64731070881994
89.9537396235283 13.5098509770147 -2.04551951703631
-203.499622872596 11.6620918408349 -29.1525311303706
193.579388933332 31.2668684742225 15.7305412185723
-0.825063024928869 4.25381993531439 22.5661035269036
109.176712843074 18.5254881600241 7.27794684269778
208.935492477072 -17.5255610826676 23.0318322026605
209.794050752148 -27.7318454944819 15.3400056187304
197.698096054314 -31.2368096044259 12.6911812911933
204.53900075811 0.568369697046266 16.9154080593608
174.177401881219 17.5138231433937 -18.4007673735416
168.128597020543 -16.913805499676 15.5920410473248
169.281618827422 16.9763743658652 23.6936322271638
-181.199151183377 31.9541849674409 1.95703819878183
196.706185175151 8.00828933253501 -24.150834290569
200.437742326019 -4.82619657401344 -16.2280004252588
180.662417713435 -23.3281581989753 -18.1127072409191
-75.1532907849243 6.1069798368453 -8.46839160911713
-185.180794938131 23.8979493781455 6.21825104350176
192.968425230873 -20.0837026326763 22.8873838140742
198.520820161074 19.9224576318675 29.5892052495619
-193.674507012718 25.0625932891756 -25.3126490043435
183.97160786556 -3.40849314203932 -18.2182349776838
132.498070470802 5.29897018446464 -8.87249502938225
169.617002864344 24.903146181326 11.3434222828972
188.548571589845 -26.5974122803209 15.7763371583331
170.935221565364 11.9070265771913 -15.8840975368098
210.03202095467 22.5180905384695 -30.4740240683273
97.4717747251034 -1.04863479050326 -5.97785845497246
-119.870021983808 -3.31654672143228 10.1895153177633
-72.413403558984 11.1698095461721 -8.8413227420062
148.701888064413 -1.59570680811129 22.5692420806486
-83.1363491350772 -5.11330249050824 11.4875877744458
-211.167795485006 -45.3044597790882 15.8075935958427
125.735805770067 -6.86914132602549 -6.46144661685773
205.196431833711 -14.1775438853198 -26.6324957025825
200.556168553377 -24.6509498212471 -38.8885816110208
203.455721994451 37.4045462502278 -1.82339729167946
23.733392894553 -5.84571646997065 -1.29366210805535
135.78156858746 -4.22192207448221 21.9831509613117
-40.7422434315892 4.76129718573524 21.4853694088012
-162.307200987146 -15.8193686955588 -14.928942293943
102.178303606619 -10.2189401762723 -3.23980475628468
126.582307517541 19.6815252320214 7.96248288210013
-243.030005667461 -13.4335123701091 11.528706919341
-92.7664915151641 3.91272353531704 -8.79201760434657
-205.176999228373 -6.77027076687272 -12.534513313328
-202.45161772432 16.1285488665848 14.698911898016
-245.895882018035 -27.0921095601873 12.0675476630974
-71.1032245254715 16.1369874591795 14.9067101993408
-169.604060201511 -15.2061038716634 -12.0146717456261
-153.836710667847 -7.79458910798295 -20.3973434665925
-165.182888360852 21.2845869323146 5.28543059183264
216.688498248666 -13.8488060122288 11.451459394245
213.910358638958 -30.678247253807 10.2651625899773
-18.3564280737956 11.7370882180688 0.177748003653711
200.53966713838 38.3420825732079 -17.4368000837322
-165.471030884509 26.2995260238393 -11.8050022729095
-152.249673842225 -6.9452043938459 6.56970531944771
-16.00538899723 2.02499480220782 -6.09018651754545
33.174437311735 15.6136111118448 10.1092571626167
124.928150615604 -2.39164190146684 22.8111866055985
125.403461794659 9.89926578504425 -8.50697845402098
-216.783497530278 6.56000808039423 -7.04586279868206
-203.914785452877 9.08861537073813 -28.2270396749653
206.49913188066 -13.3187446500576 -32.3575597535865
-197.057817666603 13.0462863953413 13.2310845774039
97.441509265309 0.460332471925924 23.680716760973
-2.04736261950602 -2.49152838470138 -4.05804366836509
-90.5282708690457 6.20279306752709 -9.56158762740497
160.218016137693 11.7874732020304 -12.9134118937009
204.277803263907 -42.7060264964712 -5.04228710094528
141.142878194208 -17.3076874830935 0.45698387325979
157.259817176385 -1.61574534409565 -10.632849792618
189.931061300597 -41.6150168372961 -3.79565241538329
222.852699824996 -36.9331380252395 -18.3100066757835
-200.368627574842 16.2401366149276 -29.2030459089369
-244.855419103712 -37.3256160540148 -0.0502269247358013
214.480850057323 36.2822594987504 -22.224565765998
100.961160445204 -9.63136986392687 18.9175513814743
-118.180505746433 24.1004350313629 -3.45063632895371
197.299400441084 -45.2273876207964 -22.2773981377508
148.363592824539 22.6252247351181 2.35784551510486
-166.853575923601 -17.6737442189573 -27.0346133414528
-215.936645244683 30.1863480863362 7.0503925431126
198.532303951331 -32.2988665846672 11.2741344493853
205.825768393153 -23.1239314403789 -39.513418262302
189.667698750943 -14.6130101999499 22.9381947877241
223.372143368132 -36.3497803631668 -23.5450834775114
178.308954952054 -33.3511586643521 -3.5501193748886
-139.946698210253 9.42864415281472 10.3826879482724
178.6910190887 -10.5358609261909 -16.1686771735243
215.402785513531 19.1821445983652 5.26383485388336
34.613402108364 15.6206577645407 13.3739507223121
-33.0699659784397 -1.0305178866883 -4.40275014915748
-180.679312755003 18.4853693162418 7.01459899238823
-163.985138930396 16.9611096432697 6.95003883575034
-206.063601649611 -39.1555561537598 -3.01982637992068
195.457779317088 -33.3673314873874 9.89059245622195
158.340807101331 24.0108452197274 -6.39053375402857
102.58832017897 -4.89428642651042 -5.50210999570206
109.092569096506 13.3927711976381 -4.81014371812574
137.141269417921 -9.16752405250638 -6.82261811180181
-161.564929603472 -6.74325619381288 -24.9336201760673
173.925537787005 -7.98438073924487 20.2670488558505
184.935431531876 5.82000096973877 26.4144925045339
69.7092293268917 -9.60633838426846 0.444393599435055
-88.7160396099404 20.9070999776745 5.27321416097629
202.075626767966 24.1146842907378 26.9664205201375
207.887205084765 -42.7581690984389 -14.5876248049884
-173.650459382742 -9.32993316807597 9.29285782092195
-32.613715300371 18.2102643057939 7.79200045974555
84.9836566922899 -9.51012952390415 -1.23017033208187
-167.317060396824 -10.7243948961042 -7.12690360267206
-246.637371900978 -33.3679879385361 3.04862462416799
182.393168821897 28.2754809012976 16.4459370874772
174.605457603169 9.57835123415635 -16.4315050259869
-172.148590302167 13.7424162374448 -23.3148496023104
191.043394805054 -45.3229638460046 -17.9528273747291
150.830897283025 23.0457834701039 2.75111047155448
108.87458471883 -10.8013267361138 -2.91287858870041
-190.919936990245 -5.09154619252086 12.0967246682809
-82.8564121853718 20.8958547217194 3.88209658662495
128.236622575003 -16.6497086114401 6.0317626764717
169.164776042526 -3.66289604183876 -12.7041985521924
-208.869455813094 18.5268460609114 15.7382809296095
-194.494348343374 -0.782178220517066 -19.2485203810408
153.438915497962 -17.0873034684828 13.1254278341335
82.0623616131819 8.4431694688568 22.6758605074487
-135.638961612578 2.80331268988054 10.7483865501062
-93.9994111311124 19.8112334050859 8.43216404468094
217.243273980176 -21.4530612342394 13.7655389834416
123.586577460793 -13.6640494979101 -0.860281388747768
37.2039613801203 12.0453262170913 20.116173245896
219.1213956028 -9.75242121234021 -0.86127213995641
26.3700436033924 4.76446179238815 -5.48234830103331
-209.205580371953 39.2935763697612 -8.05773582356232
204.106439780069 0.456312721182354 -10.6934618410863
39.8244297401213 12.7718190219023 2.36791080744574
216.219718150501 -28.7386083221155 10.9942817977386
21.8188980412976 0.863621389428404 -5.5921383768776
208.12591501208 -37.1725556558478 3.2902710849546
115.947068939892 15.6772651175744 -3.62575447858165
-222.322437847554 -52.5216011192399 2.83130581692278
-87.6018145182008 21.298691946962 2.09491224059041
144.698339022153 -7.34525395333592 20.5907152138665
-181.494805743034 2.18678022294454 12.7248127202318
-171.714231075458 25.4627828610248 3.56945426566842
185.83627440794 -9.96806467608917 21.6485339312124
-197.544963415629 15.6133636947916 -29.1948193758931
198.759946167825 -21.8356052617411 22.6268837353435
-207.763171798609 -34.7784763512144 -5.18212220902477
-60.7538385202301 12.7988845763094 -4.95069398759035
-212.599236396383 -34.1984337876154 -14.6521954402106
191.063648341468 29.0863363024177 19.6159895568269
226.299779056542 -23.5391429449325 -3.94070533823236
-203.904931796001 31.9888855174316 6.8498993515078
-232.907786166924 -16.479804434799 -17.1380953681924
213.276542357587 -6.36739632859333 9.8626134292494
135.431257704715 -11.6483498126655 17.9091878697624
211.274054805502 -10.1228827717569 -12.6231685947475
-12.9160478449256 17.2571409505538 10.2467543525169
203.026824708204 33.1393371405288 8.96927473272782
127.299580045917 18.7471781522181 -1.20523339569964
-108.463125332298 12.0523966575202 13.9372041627813
-197.985068233788 7.48569859398845 -28.8341333400933
-173.066322979476 -22.0689585529788 -17.7759247488582
-55.9922983325415 -1.03649673609899 -4.22934519654437
218.486875965333 -37.8810412520733 -30.6651739003631
205.884151162419 -40.2108114156476 -1.46175105976643
183.412672042966 22.3178776335006 26.7067466680337
224.243737405044 -20.9167467533151 1.8497795035409
-28.585497843363 16.027344745875 16.1306954111101
117.632683700197 1.74192935973827 -7.57628865841746
138.212204182862 15.7464074199663 -8.90107738738003
201.77988711759 20.9053396662715 28.0809059440038
-230.285446935938 -3.13246159501324 13.8391376915769
6.48666192401725 -5.21508536301402 19.4348852783895
-108.144895205401 5.83547646865621 14.6093742380443
-111.17168043498 0.923434215335031 13.1912892778496
62.5895611086709 9.46012626111736 21.9250004808562
-63.3840904297287 -7.46374340803297 3.92983160412286
80.8418284532714 9.04060422259821 -4.7350242209474
-152.525359397431 -7.05479413362769 -9.83652094409581
-242.634661447079 -38.1018241553562 12.7881803071756
10.4034988770245 -8.97012803554233 3.04466710271126
192.824010432671 6.6652983258815 -23.4683092473554
-26.0018667134246 -3.84245669498166 18.8102161092647
-190.865414068693 40.2357220266359 -2.70034944703369
141.922648677132 -6.26800932853134 21.0880031124807
-194.154172269716 -7.59747692924844 -14.8021548372698
206.135929866514 -13.6854335426538 -24.0734387920526
114.768820875425 17.2016839096699 -1.43079271842986
-213.967702962634 -36.5306861961399 -17.2946406805456
201.574939633962 -13.9464229698299 -30.2106465950795
58.4084002613916 6.10513179199081 23.2398839400924
-198.904276667699 -5.60906716256982 -14.0160760766623
178.294161332044 35.1582541105144 -7.59454367776529
-236.709146703799 -34.7202891161366 -14.6865971947307
213.985628579938 10.8983507510894 -5.91768216803173
180.387910790584 38.1003678407957 -18.6891541489123
100.825010457982 -12.2168558747202 16.4454212835856
159.546321675953 -12.5224951758185 -10.0840077398268
36.6841426197989 13.5714925108904 18.4026908427756
-187.111826725197 36.5325940318514 -3.88410143246341
-2.85871384066465 3.47341955845676 22.5402956940039
167.52395205376 11.4095695999973 -14.9577021040422
-117.882177820735 12.6849879345993 -14.6025147613214
-166.260487431295 -5.39509411771016 -26.3105473133092
133.139551290087 1.69884260655516 23.8083204172042
187.160662853261 -16.6006060145158 -22.897565707376
-131.34209263208 24.8152177089471 -5.80619182211449
-209.645108599984 -30.6647126534668 24.3511194466006
181.829769009409 23.4773010317782 24.4681615147813
-15.3845747792303 13.1980536004829 1.78296307897581
141.287898885923 9.670438360444 23.5115317238355
210.459971195032 -1.76144459236786 9.4652258282537
-233.848621090643 18.9222649676058 -11.3809658627554
-179.156391675574 -12.1291104485032 2.63445211714576
189.052187828532 -31.3426296974282 9.77167218263851
74.1413742816314 13.7590456136959 18.14592198853
211.147579881212 37.8703568686772 -27.6944432447838
216.514192284762 -21.89391208435 15.7370164234815
148.148758526277 21.6522820437136 -5.86915662733389
-174.281797041992 3.70323471000688 -26.2196608851352
-183.323991482946 30.6315946046071 -15.8757860102301
169.505120445149 22.5139547908819 -15.8369857170773
-166.407475863137 4.13548943760634 -24.4671498479472
-207.262534940951 -38.8790195086602 18.6088885981581
-81.2947723134881 -4.97698069585595 -1.09244149665367
124.698164263561 19.1960445540982 0.979224624026644
-213.777127026825 -5.44209157903603 -12.5194456231171
219.345954058322 -37.9627259900249 -28.9672546892912
-85.4537852890209 13.7329444427093 -9.32878594950781
203.902113657449 -21.6736320790826 22.6589361405052
-223.750977054651 31.5325288281508 2.78079792141625
-195.232290468098 -4.83971411861542 -15.8862670412736
-56.3118887355887 19.4428375113917 8.12101778133014
151.937900257834 7.19852411425361 -10.8128172056834
-220.073753460243 10.417961800553 11.6757553964566
-181.362157004925 -7.59441935269662 -26.3990339906941
140.781785725042 -10.267594855089 19.0137960845561
209.224207164742 -42.0117606584186 -21.9805567508833
205.57276653406 -28.1797898358654 16.3705430035902
205.01975999772 38.184972862036 -4.95036002965554
-225.827295019044 11.8639328292953 -23.8744844970035
185.44225329853 -10.8275737492977 -18.7615541412416
185.873742817275 2.03766392391399 -19.5658100528518
63.5249281506747 16.044596095715 11.1656562796001
178.50602221491 -24.6791844521061 11.3330129999973
-117.580349618124 14.6854534774495 11.3606700932222
-122.038193482215 -6.11592651748982 4.82271259122307
-129.840575337405 -5.85040950362731 6.30472732392572
19.4530261999209 1.31300090625888 -5.7269518181129
6.9850146229638 -0.0150087506164044 22.2162915493354
214.235712762879 -36.5646285577692 -0.552891424410757
114.547570941038 1.53861544284157 -7.36590499163116
2.77544180979147 6.91530842985917 22.3525387619583
131.499598538983 17.2394818011676 16.3551235343053
198.0601677507 -13.7508740162487 -25.1347230702826
202.57117756934 37.9765063597684 -23.9290460689834
219.981419259103 -38.321941512579 -26.3527945271181
174.822581934931 -12.8100191937754 19.7856367987624
193.570194622887 -14.4084764175792 23.1785359963481
-193.936914526049 -12.7547940591429 9.72691710474291
-225.772452314845 24.1029025076421 6.47859337319818
-204.117999834035 17.9502475134187 14.7062190247034
-132.467303910331 -3.29217990212611 -9.64850202401092
-102.68779089708 0.865225730075831 -7.87024585878706
190.787567434183 -42.683065821665 -5.47153554013388
213.64332292217 35.540161353495 -2.46961284910293
158.71641605956 24.7366170452778 1.82402511874437
-190.645485473717 6.57508689353284 -28.7949475546133
64.7447751682625 6.98608678717617 23.1077531153055
-179.480792632852 -16.7502324246953 -21.9154543769053
196.543150204604 -17.3616570104451 24.0291376893697
42.3713390957178 5.67862357540599 23.2308752937077
153.475464736813 9.04228805964696 -11.2272770221689
15.8552088616733 9.49185462483462 -0.878801505804958
-97.2392217843448 10.8949892473501 -12.0787783955321
-216.114491573295 -49.2584725880784 13.5615528061603
36.4588381477315 -5.23326763076701 -3.55495964984731
-237.926855847766 -9.57714823552969 15.629902685852
172.783259223221 -3.21929776519853 19.6582886659858
175.74384410681 5.84138835349791 -15.6420571702325
153.883713451577 6.59600534733176 -10.9908380253771
-27.0166859110457 12.6601821717089 0.482774094533394
73.6370001335827 -11.0876450982935 2.18231093783583
128.665103787988 16.4747516299795 17.2250770945178
193.988219593333 42.2210698318959 -9.37595793772777
-85.3637258750872 20.2780030089538 -3.10884851753256
-45.1407659896765 5.13529237410725 21.2701830868034
-202.341498388062 -19.2099547696379 13.2354555749855
214.237628563525 39.0687948630466 -17.7085998238294
-231.03455021035 -49.2469169664145 -1.06339872400374
204.323789368582 -38.7756454457943 -34.5937919328808
124.719487948508 -16.1891621213086 5.15334973865215
196.250827419015 -45.3650256260423 -14.2324715764486
-183.505731480012 -1.42972364469172 12.8191670388174
-176.373597696775 -14.9613894763677 -26.9159166409377
214.819461520585 36.1080337423992 -4.87894961721583
212.308516561394 -41.8804811312031 -14.015506910328
-192.424914750114 15.1518880465806 10.1070503862508
102.469737659037 13.8191667976956 -3.42194508126499
-148.530298143946 -6.79822211399848 -5.06563985821657
170.487730435845 26.8300060904034 -13.8130586609349
-51.1021763334909 16.9223219012664 14.9661460534839
-224.03258521816 -4.40516053128976 19.5917597853038
-224.569891409354 33.123732789467 -13.0175620398286
-193.904322181713 10.8271299963844 12.9274657940776
-202.893774433528 35.0885413796159 -16.8103821740716
205.336511398311 -26.4029137390693 17.718615265615
195.604947279377 43.6667769613231 -16.3197531596898
-243.796641837692 -32.483852977446 15.0725765772942
-1.40388604547696 16.6070261459776 9.60165462630367
-227.711079346887 -20.7459704338184 -20.2126683748995
163.59875886569 13.2671261784662 24.212811462387
178.375651513127 -32.69095147596 -1.23474268874832
-183.889438442107 22.7711288771662 -22.6688839206752
57.1228381631269 -2.82166999402669 22.3626255770427
44.087193264313 -6.71099021954897 -2.23402623029743
182.54839251465 -10.6181669504707 21.2119814046072
-223.133996119413 -23.0200461927105 -21.1881343841274
-219.195108691782 -52.2413736444123 4.27884469584385
186.675405290089 -41.7011905756509 -20.1340946847895
221.008054032517 -28.1160706771389 7.2917798279333
184.825030756558 14.3945323311864 29.9979800274699
9.45433619568339 5.67083885476718 22.6674045150929
213.296699196263 -10.4451408479795 -10.7556397273633
-84.6077644518414 15.7831353883281 -8.09707252403053
-10.7877865223712 -3.82318113041555 19.6058220394069
-199.090910209303 -3.88736991190827 13.8226845285698
182.005006204179 -5.84525059864814 -17.0011559552811
-216.639422708487 14.7521505127363 -8.82179603954618
209.58970108609 -42.8056659304668 -18.6171143414335
40.072866086339 6.16949933372417 23.1438517540318
200.746588981222 -40.9987910253865 -29.8520645271993
-233.142321640551 -8.22719214595137 -2.89910195737631
-215.787742987 10.2200796951654 -22.2791882987472
181.55918069834 21.8152437211029 -27.5268656367194
-204.632033018283 -14.4140904757214 14.3780666098093
-184.567572096301 1.25212612785373 13.1579939648952
225.739437070636 -26.2513073834032 -17.9368870595351
181.595039353738 -11.379237104989 -17.0866961337291
-216.809530072695 -20.7614336280259 -16.932608091825
91.2482446460292 -0.861874340392043 23.3752248119845
143.889228597774 21.6362244653133 0.233286015762121
187.265836150727 -12.0868909882067 -20.3102366520792
-223.747861854582 -50.3365623356677 -4.19935550490596
-200.498902701056 18.6650633321134 -28.6629608261692
4.30192759949671 -10.2965026054985 10.3418964417981
-11.9269194779331 -1.9600007231529 20.8319115919024
200.536842760301 36.7434900557094 0.588332939946461
208.504018751476 -14.2396554184602 -23.9972913737088
177.979651695891 -34.1380592498165 -9.49823619867836
159.960654353148 -18.3400854873446 12.3082052762791
-9.88890341289385 11.7488917381594 0.553937443977849
-154.096219188631 26.8788584146989 -2.99349163525447
-190.496051741176 10.7708621413442 11.3305155278072
37.9237283229832 -11.3701241827503 7.10000491099722
-199.193532857749 18.6037415962066 10.9086071151406
-104.907011490907 15.7120912291899 -10.7487880662158
49.3588116674563 -8.59741325181417 18.6843838447233
225.492462617941 -30.2225035296998 -20.7211309950487
-112.075706225182 17.8207213492379 9.21616588745845
183.655742153685 -41.3424294497128 -17.7726762561036
66.8714687145872 -6.10855774015047 20.995625572103
-217.105865480899 3.43062484120001 16.7029425847884
214.497256938056 -9.63936924042416 -9.09731252961144
101.002860596321 -2.08779415491164 -5.98411049246954
128.284628144706 3.98382379593023 24.131378962782
-125.409605199356 21.3431622668563 3.74912108059673
-239.801307305374 -44.4378649653787 3.1734388426147
-243.443688893809 -36.5560226328311 12.9898433067222
214.337173273319 -15.3778412712226 -32.2197010103366
-31.3162195599954 -5.31142728161933 17.1446507552705
-216.158139065877 15.8967995750275 -25.8511271212181
71.8357339702146 14.8820074413836 2.61638986373766
-229.908583546925 12.0992082072521 -11.8203344689542
-239.204147711953 -41.491915877347 -7.79172956766489
-240.733507789633 -12.8459362544638 -7.95858362218667
-215.738007065011 36.3373880106149 -14.7131524444934
-209.012439865248 -33.8054107923739 -6.89084588536423
-11.6652940323784 -7.99534922382731 3.44856989353982
-63.0222785264821 19.7491159690841 4.97780982441267
-195.262319426065 33.282399543873 -19.7315513639279
44.3508006300333 15.6779833310995 10.4861641983399
-30.2281609883359 9.05074970001482 21.1407461555188
143.483732776515 21.1701687875629 -2.21309390009558
-235.682417044611 -47.2546993411458 6.04366547543334
-224.608836011832 17.898990038871 -0.944964452798813
169.224162553695 -26.6577357218412 -5.82312397541994
214.866166782052 33.9748531404389 -1.24431987443972
212.085038993764 -16.6802844927424 20.8965228056797
-103.807080330652 19.1250467471414 8.56490563484779
209.149671402624 -42.3864317164069 -8.6806429861924
69.9492685945473 -6.89980421813145 20.5752984510784
-214.53586567114 38.0548592327332 -2.86901224476928
33.2068471636376 -3.62527853820302 21.5388780979186
-217.748747112512 -45.5743799476192 19.2120007825783
-35.3434674251244 5.39502056360413 -6.28951059403258
159.633272348616 -22.136721529801 -1.59533709187179
186.991821001356 -17.770641002015 22.3234004694027
201.907053051279 36.6150641861832 -18.9745878432359
-37.5204847912085 5.29030017321645 21.6207058178566
218.308271113857 -35.9722977417854 -3.1325437652927
172.30974048949 18.9563406356472 23.2651110086379
7.51428438114838 10.5346918261923 21.0738037416661
-26.2471191583636 -0.243436148495896 -5.4831781405545
182.171869275974 29.1801055373895 14.597242374726
-77.2929458048366 18.407744022976 11.6617381261102
-144.272941032833 -6.90723627267977 3.44545761448811
193.189589585579 3.41455402355662 24.1830942152393
224.121963900032 -21.0667123847876 -22.3226534591035
82.2896320368401 -13.7503804094798 7.53411350278826
192.140695009504 -13.2828513066743 -24.8056876027804
-23.8955738906426 13.8474908420034 18.4720423650769
-60.5755757527392 -1.92804502681764 17.6654964540376
202.826323712251 11.9159933853213 -30.9306827247949
126.619896011421 -6.4090025140594 20.9482867376985
-158.506499294242 25.6867153971978 -10.7722933326095
121.812785249553 -16.0414633479352 6.19120873707296
22.91203149114 -10.0663638420263 4.66542218002176
-174.435394312542 -11.9074878671767 -0.973758901638547
-214.032035776537 -10.145873574591 -13.63835588648
208.561399878615 -39.8160193200696 -2.56216577735311
35.7248882701905 1.49567845879936 23.103917928858
-49.1793477702364 13.2084505864907 18.3735737986925
226.832739346812 -27.4677475454405 -8.0575365230228
166.261562755287 -24.5676613978526 0.823991233131754
-78.9172906139916 4.73702343127288 -8.43498641683194
-58.9401757406795 19.4767940706522 8.60166039491401
144.511177882412 -13.8486763249513 -5.93749038479749
65.2021754668439 -9.04044084778073 0.0607823594802679
199.975888752088 -37.1179188575994 -36.1982418179532
-98.329983064008 7.19511441871652 -10.5916619993921
123.434299672768 -7.50789776347976 20.3950986943535
163.307523454711 -23.2480749792405 3.19959100271697
-218.959726492265 36.7595431763237 -8.64383658251407
209.669792428621 13.3087525058172 -26.6933042143709
-103.435733342084 22.6939437963755 -3.96637593974463
-201.067967952349 35.6675789402273 3.09711917323338
61.7806448457434 -12.708581640553 9.11883167382639
-141.490431142361 25.686275185876 -2.5275500432642
-233.744663185426 -23.537420299066 25.7061904037734
198.205184963499 -33.74889901397 10.0147704559737
223.685742393588 -35.930218114737 -14.3021635272446
-144.732415560796 26.0543349703665 -3.05106591730803
-206.888938205554 1.95424909919036 -12.6335181531216
-134.397449095847 -4.20206052925557 -9.01289438699565
148.970574723225 11.2031297852676 23.4418095882768
76.8957480786917 -5.36914936328294 21.5014088447879
187.759893998168 39.0064139817464 -3.46547780342837
-119.070224328203 4.80704615526331 13.1483165337587
-221.405238842363 1.51343869894702 14.0783313147211
157.564741756177 -0.950219492733771 22.1162577582192
-145.610915650462 3.4073591583674 9.88180370596059
-213.012135149519 -23.2988110472168 -13.2182410167535
-98.5438870218161 10.3846415423613 15.8326720804044
-212.107419405816 10.795088216694 -25.0231567419714
-211.764794919372 38.0674797479271 -13.8780733620343
148.45044843792 -18.3677390698863 -1.96904879854414
176.101412346326 16.8810387244056 -19.3111143750959
-230.457904487789 -4.10597130980024 4.63424838270508
0.640764721036047 -5.33357052588033 -1.54463441011544
45.5772622661876 -5.88535327745833 20.6967554048018
211.421637737555 -38.2317322975504 -1.82140803725089
-208.971290838406 8.38571801791592 -20.5862658184225
193.867952946291 -29.8491032841561 14.1698535829102
-226.42809934714 -6.53672436575894 20.7129906818583
128.476458483361 -15.4453604974678 1.28623083746209
-212.903060176001 26.6329018130018 -24.7362495340926
-183.153065616754 -15.086874644108 -16.0560445227339
116.624578789164 14.5714014304504 18.658706610957
36.129016198922 15.0015582472023 7.21907823472224
-155.303021140177 0.125484822698409 9.56819019347391
-182.359084011391 -16.6704792589483 -14.6065752999786
-98.3595072736469 21.4184551948798 -5.42844160146833
226.874472922136 -29.9900109619206 -10.6986441878206
36.0891558219468 -6.49479079659031 19.9608331527613
-163.718867371353 -20.165575162055 -16.105497784612
176.45571942457 -4.73921961111793 -13.5116708182011
-41.6823292279031 15.9153652490087 16.2871386112158
176.840521144806 -7.43824284119606 20.5416372862147
-91.5856857503053 4.48114579639126 16.854207545745
76.651636974372 11.6481098078328 -2.40528598342418
170.993921183105 -26.9870897982526 0.0692555222864458
-213.127050212511 -16.7754985582648 -14.308124978841
122.115733772541 5.21809744632405 -8.34665540048615
66.7959140687717 -12.8678065397421 11.3903836942652
-204.227403146003 -41.2638159991835 -0.505920300012493
-154.290963928424 -5.57702490006807 -20.9883723310706
-2.68331645340468 13.4435245407845 2.83436715956057
-109.222393093984 16.8170142282847 10.6217869340551
196.637557787388 -45.4938101969674 -20.0880665405264
-118.446173084629 22.7440701014381 1.53982195114288
80.3438318353294 -9.45460656448931 -0.641681251224704
-230.323015916182 -10.4874023760023 -10.647785176587
142.128341533299 1.44395631291026 23.5828392153255
61.403397580975 -1.70233904132567 22.7641229045612
222.926214786399 -18.0937606187093 -22.1737915183195
184.274308809816 39.3937449984805 -6.35574139133481
207.421620809639 -41.1764878564913 -3.69068220569455
-210.205151457592 -6.91648225545894 17.7127532048755
131.955843995898 20.2030015381803 2.13565557499239
152.688602096043 -11.2341782707945 18.6678369506661
195.171021650838 -20.7035398031377 22.4105838980745
72.4382160027899 1.5534883696445 -5.63275750784997
173.800093143492 22.042719813821 20.4178455357941
-85.5619500244895 -0.807379518292911 15.4517474669527
-222.423365900065 33.9222978412105 -13.0866517052385
179.941368214143 17.1596475301938 29.0971021979404
209.66159019625 -2.8758805944379 12.3454600324218
189.34485033026 -29.915523244354 11.7838732128562
223.959339512689 -15.6687280028208 -7.63469450933355
208.142553410091 -18.8043287006695 22.8126493730435
146.577361090602 11.2486886317138 23.2662722782714
212.57691408364 0.205043550824868 2.06684417843958
222.916421285354 -34.2931206231528 -26.5386028037069
168.289989741525 28.6487826724034 -7.87794201240402
-128.650199840171 -0.418581413300262 10.7950741238724
170.129696670416 15.3076416362136 -16.5726195472585
207.287062916233 8.87722556580254 18.6896574857437
146.071240255077 20.3029861440953 -7.46968538607229
135.251934784109 15.9188612930755 -8.24477094070201
-64.2483575140038 18.7079329050463 11.3727116745325
-167.370651922268 20.2227351197203 5.88232039426288
152.573850655743 -7.27747260394408 -9.28752590174891
133.410578987393 -2.78972681942113 22.5550164083909
85.2528735779466 16.8236451227133 6.04280273636603
213.601286677097 -13.047039800661 -14.9070480330981
-188.37349993347 36.7254948240679 -12.3257246161282
-193.891214936654 0.879312405735343 -21.361375731924
-82.2529244808326 -6.70723975771231 1.83959999446471
-209.497736568851 14.0175958923114 -27.064296432255
71.6469905807923 4.34846896973911 -6.01965683613112
-185.247964023072 -13.4695995655968 4.85650730822946
217.565634575035 -38.9361267778724 -27.6185132493327
-232.746738296152 -21.0096893562841 25.7838319384448
-238.97908513362 -14.4539465187244 18.9236849318123
3.8052087897922 15.7633187418335 7.31633895392501
-6.76093501978645 11.5252247614019 20.3160544132822
11.0366047626302 10.1131094527657 21.3618551323373
176.426522815097 21.9651332124721 22.4932038297896
43.2108596416031 -11.0968000360689 5.40005345095869
-229.641347833219 28.1813588457892 -9.05025768193469
-108.778845189493 4.62930535970558 -10.7141562940479
-17.5048155245634 14.9789771067884 17.3085919415929
-92.209940450165 21.6643128662316 1.78482544250729
132.128534435409 17.413771982824 -5.10606059716327
-224.186645128823 9.55536799926545 2.99464027317354
-153.047462496657 12.1109598062401 8.69406511276742
-219.640485379657 37.022399994335 -3.92195535073355
15.0916024917635 0.403054032867971 22.4935310120134
185.311527286731 -21.778486460879 19.0352862323716
-219.227616417781 -13.6181775182648 25.2480311651876
143.805247646363 15.0343316294552 -9.69304653688609
-181.783590347643 28.9660614645352 -16.7980553252785
118.224497607463 -14.0500676281131 14.5596826452154
-175.336238417892 4.93153660517508 9.75920317428972
-82.4475130767535 10.3574007907474 -10.5014146321476
196.244928073949 25.7964687466992 25.3757727873078
20.1391228357123 7.85664706693802 -2.52658119818049
-189.151204657476 -8.28210703715914 10.8799346744576
189.281931094619 -44.4045104461325 -18.8419634114296
195.042608275043 10.8652125464323 28.1501819843116
35.3526345989287 -11.6168792540672 10.9653598760073
204.558686657923 -29.5196772350709 15.1942612283788
-171.80279918723 -19.5373925986532 -14.3322351479454
-198.784858148316 -15.7607823205898 10.2944229982429
144.338116721647 8.53127908849519 23.8835631523973
135.577274008686 -13.8588035783654 -3.45670067318426
-242.517857923425 -10.9190791734506 6.25348466703831
-155.233483063099 4.51105614042703 -21.0283212481521
-213.474379083651 -50.4236766233221 5.73073274457973
105.174068735117 16.5515738436225 14.684483521441
190.838428911536 12.8441865706311 29.4802740653896
175.443861287094 -7.43637685302102 -14.4808961589863
-230.574156503641 -4.68469492969973 2.82895303837634
181.583515938827 13.0903301802471 -22.8771729448187
156.964008691001 24.2193016357817 -2.16270465862174
101.089472512876 -13.9067573606408 4.42145736380235
210.33869793963 2.05546858282807 8.30150588591122
111.990137339572 6.15720885128952 23.802594385987
118.953219989298 19.1395084067445 3.45696508410886
69.332280702061 -13.1262388094229 8.8149306975853
118.82805454067 11.9776413091692 -7.43987305070436
-220.407805627972 21.197028147936 11.2024358758843
-246.509873443454 -27.1423006969989 -3.3405180402219
-135.18683980871 21.3934865676348 3.74028784282314
223.780040744351 -31.8456701841263 -25.6378154713149
-174.303318673 -14.6037492012851 -9.0058535172518
220.958585312668 -37.0075310854549 -12.2013274039609
216.996995799336 33.7386775220418 -8.90742457377388
-173.646300373751 -7.94228843156929 11.8398581945293
169.889141175039 -22.0178203456107 10.1554569287508
-124.390170055461 9.19882734623097 12.4864883172318
211.36748186035 6.32031977746468 -9.03092637988202
222.627637644565 -21.0364742306749 -26.5710180820662
-211.222195884284 -43.4389252932629 -11.6622568660159
167.658093706894 -9.39874768169122 -11.9251703938841
100.938208141283 0.751608518614921 23.7386588735747
-155.90112748966 11.09224022087 8.52778496690258
142.444834849409 -2.23100208434244 -8.92178906180178
140.807948107591 14.103923134365 -9.43671416273768
174.567603742232 31.391325585028 -14.2978974300352
-101.094244837227 17.5126135247143 11.020328965185
149.929941095512 20.7969550959605 12.1087707109212
187.898823405798 26.743398740052 23.0202658868325
-52.6415970399642 9.32294980972254 20.1968373931915
150.189848973216 1.79728465633584 -10.2441375196732
7.30573191460622 15.1721233741785 6.37475248568538
93.1431030730166 11.1711910971365 20.9839798842903
-244.019495160988 -19.8157237676934 14.8137550147337
