187.105699039977 43.1867987709136 -3.41987158367039
187.570791523165 38.0221354375013 5.8572406678504
1.4653774063529 -20.8689173635423 17.8791153623534
-178.724242655615 6.30231278004194 -22.6437620476178
-54.1916031760627 -3.05496559481957 -6.54379318489011
-222.823993400239 -15.124876990664 -5.45180037038822
-160.540602242932 12.0259309285453 -11.5776870983619
109.06117038121 -4.45673777036781 -5.05248258743011
66.8096153645269 -19.0417010749203 13.923610433425
-147.612439690281 -25.079504130386 -2.84791393909065
166.553283186303 27.2372402578685 -0.435323711612858
-234.679995418965 45.391726442424 -1.60701081250826
162.00107349999 -19.0752062491231 13.4331520870796
-182.95225782208 -17.430005970367 -25.0529800359281
159.174534811781 -4.92058189948338 22.659445500292
186.366227281539 -29.1813078507108 -2.40122564864198
-146.274008933965 5.4410549212714 -4.88276167618249
169.392420660662 23.1555546535324 11.8419931975747
-177.766711985105 -29.557944440463 -10.8489715399003
-225.525577082962 7.27453388804908 0.179113810822975
217.95403572608 -29.145147747282 -32.5524025435113
73.9658941906532 -8.28611414528198 25.2676815628128
220.428079596128 41.4864281074632 -16.4273866695317
-229.94173490326 40.9794513931437 -13.8885208915669
-15.618530714866 -4.94120924466585 -3.05287220013145
-8.06720501159996 2.34277459083771 9.37563125383171
-184.059156062303 1.59497149994793 -22.5118730688237
-106.299532348501 -7.30389014546198 -13.2777042828781
213.461979597328 -28.2083059091075 4.80414134825827
185.04802908623 20.0324215753051 18.9778467937936
-161.166340721547 -26.6702263568373 -3.60438587881775
-40.8636176682739 0.912662040703093 14.0562585905245
221.052887607089 -7.40110996940894 -3.7691875250446
-37.5457864185388 -13.127163398992 0.163986267886049
-100.961526995081 -8.34895995984921 -12.4625173207655
-55.6762832056947 -10.8949416241521 22.0641139755441
212.495851185941 42.8658361674889 1.89680145892785
-201.782901670657 6.01597840199041 10.7838917801518
-214.594824818809 38.2204201555299 19.7260023299492
-202.375957842804 -1.62713185648067 -13.234122469507
-197.036155916419 -10.4440581298608 12.7004820432856
-221.286058815354 7.08227273595038 11.8478342171413
207.397887414012 31.6482008618074 -34.4108528425942
112.322208482983 -4.67504643342919 -5.2938210906911
-238.349388581721 23.781528257569 -11.4455021899781
182.645048408735 31.245952097922 9.70258697329968
211.310829646471 -31.6022337531651 -10.3974285860237
125.759282944108 -8.57885440933225 24.3492059317094
135.231480670878 3.49495252191922 22.9391544855327
-98.3956530566622 -24.3793323257865 5.72507595786433
132.923520235526 -14.4852616901282 -3.08839462310482
-192.296437873179 5.38499496698237 -13.3963630670068
118.393704258634 12.2628077540836 19.251601705264
-208.188208002727 -23.5644887690834 -23.809130392374
-220.966339881948 9.78317231780846 -8.77830709202694
-70.7280305198099 -23.7368443650294 7.38239369648676
213.377419883435 43.0707591360259 -12.1972848186556
-165.501028332821 17.2597814782534 -20.0450870995405
56.7922330429295 7.7842073256903 18.8277928274846
26.7565631076613 -20.4116302307015 15.0916715473288
-157.832931844147 -20.1158235720008 -17.7914899965302
201.568822256667 22.3108915754273 -22.4625308184281
-223.461035381326 15.4413744383362 19.9316499680265
-213.633867618182 13.8193593373503 -14.1183344019916
-204.825055546454 -8.95051584991278 -17.5308001042207
211.341903533254 43.8929629891628 -17.034312365559
-154.153371713346 -1.47628477162197 7.7417728711155
35.2849814288396 -12.3649332528212 24.4145248758734
194.945369974898 39.1389028101274 -24.9372793439363
63.600478308407 -15.4484792792664 4.54087322403934
57.1242804162379 -8.4797262447164 25.4656449014841
198.122790528061 -9.46847596341852 -39.0274677934344
77.5411911070637 -18.846799369839 12.7000880534101
-218.607484752777 -1.77839317783933 1.56031207482097
-159.717614857704 13.2968087171711 -13.4494791037631
210.628497549338 1.29117045357984 -10.4500769373397
-185.658410040427 -30.2250943057294 -16.9221350943965
68.7971117427156 -4.6910637436357 -2.43846735893927
-56.8003487472273 -0.617396445120446 -5.88730967669486
-102.877661496837 -21.9865391967172 -2.04344173711479
213.128223410986 -3.74554687662753 -21.0527819627406
-73.8318120140423 -0.542120179580038 13.8057926081328
63.3732628969683 -2.41780920309253 25.6592064542893
-161.112893689055 -4.29343377547174 -21.4353429193622
-237.855387463424 14.8528323077751 -5.16628415792418
175.482190767008 28.0663844812078 8.64482169458868
-210.326543933639 21.251260751041 -16.9750320394433
-241.97100863005 22.4894599682689 -1.46337118492228
-198.062775502546 -4.39719854966261 -20.8869686509476
219.896307586726 18.1969416313811 19.3516115902064
212.691437150397 -29.881477905397 -36.4909933829147
-68.6513206310897 -16.0733062875003 -1.75273800239189
203.866820842895 37.1320218673922 11.1413364550619
-230.054532806273 -10.8882309445361 -16.8364774065169
214.056958609617 -8.25775474547035 16.3544774034073
149.273499254617 8.49924657012995 -3.07690748272223
11.8301354889788 -0.887207779467161 -4.52396048038066
50.4739688386149 4.98560463348276 8.10071660745179
-232.995048650489 18.4832246790196 -15.158501216657
170.518623555144 -9.37477161242992 -14.2490900592882
-218.568171973252 -10.8434894790148 0.756123039790623
169.69414694838 -21.0453697560028 -9.00594727079128
163.570078662006 -10.4455975636046 -12.3911185480022
149.542360886515 16.434906271819 16.6864942522242
-90.9288640084625 -21.2273031185857 13.9063925185769
-212.591639091562 -13.0144724648232 12.1011311002273
-170.531844454604 -15.4314304947627 8.03671990554625
183.703978081611 -30.5055168294146 -17.6935690280464
26.0315448755405 -2.9332241356519 25.3909615678444
11.6109642936884 -21.2137707674306 14.0476853270028
-217.906671005803 -7.66371049905071 -21.5418175749916
219.887658322813 -30.0777261807751 -28.1002757162386
142.062525883037 14.3319011092645 0.572354939659429
-217.859841590992 -21.788433560563 -23.8754591698594
-198.859675265679 22.5560759219804 4.74273980764059
137.573881499629 -9.41499409987063 -7.53370981069842
178.621832106398 33.4690344282642 0.275539816542237
-192.84035599816 -3.21780280759615 -23.2285581264745
49.5726699503259 -2.36901480452053 -3.56572548290392
-19.4249960089384 -13.8460916803542 23.3124666669722
145.943792222212 19.0317108238837 13.6529176703023
-204.760171785225 13.0790107362498 12.5413493724033
-232.374044873626 21.0283238438727 18.8379761376106
211.911507256315 -9.37177806702477 18.5457834952456
-100.879149164786 -15.0570027686605 -9.01625847308253
-55.7630714676901 -18.3741880192143 19.4316421416884
-214.123052525381 47.4336766553389 -7.18333921308277
30.3116933868614 -19.508100725951 18.0933837198491
-210.867481568309 -14.6134478261928 -10.3544197174777
-120.914193266651 -4.13044955984179 -13.8018646934815
203.656946504207 -28.1029902371093 12.8086012639867
222.492559633879 -14.4940224149082 -4.48087759908809
-210.805411667197 0.184823556846986 11.3227342366462
-5.56213619294492 -20.1137427819484 8.43188658762048
139.97788244333 13.8966522049358 18.3793872350818
43.7765175219977 -14.2173628534278 4.0113520194724
202.46817438536 -28.9082977125752 10.0367627834983
203.606747670536 20.3797611447091 21.7442816770447
77.35173497724 10.0402225355874 18.3592457037577
156.737494252874 22.5037797015025 9.48033829530767
-198.715820600081 -19.5416662611433 -26.0145054050607
-146.016422934847 -10.036502012629 -20.1315705567447
113.399056479719 -18.1056882771441 15.2821774806257
-174.905982605417 14.5937015796419 -21.96419220289
-212.953734247568 -18.8762201428983 13.5428649514451
229.530515443154 24.4580399352624 9.44593023963076
-116.725448199481 -10.8901910576807 14.7385344772448
-135.966310478058 -24.8148976565086 3.96039157298425
-200.786463585153 16.6385721577933 10.0524232091221
-198.769011919942 -38.244043971717 -7.67740212176777
18.0097761561897 -1.71674658459821 -4.09580768965105
211.524252699335 -2.126665467088 -12.1236450511958
184.612223266022 -24.2580593467536 17.8007117691957
152.891576827801 -17.6172504449057 -1.78720095594352
-237.952738380249 16.105557838601 -7.13945264641669
-202.009840686422 24.8265302803134 9.85392985071254
175.450567830481 28.8811730908534 -7.02349819373217
158.318000442346 -3.33392558465433 -8.94630495237185
-200.919317053338 27.714945421934 7.46556583417162
153.565870495636 -13.1591495965528 22.0012266324537
9.75950298004939 -20.108064187665 18.5594909140646
-224.273909675973 13.9383868211254 -11.5266768471171
-170.495235463603 -8.07674196922814 9.7955209077276
-97.9471024056001 -2.58119287530134 13.0495550795421
89.950732788502 4.74598611953362 0.557186514692649
-237.041724385929 35.6332886897111 13.3647118750257
-177.4701540055 -24.7452296705585 -18.3333351536859
-100.097045340963 -1.499109597877 -9.74607264804299
198.525609324937 -14.1232309729513 23.8231369689604
-212.620746051699 29.1781618578131 -19.467201560578
63.7363293738232 -1.43157464104394 -3.83126851818327
174.080963262966 29.1093036078854 -6.07046590847505
41.9059063972782 -15.4079721708637 22.657818704173
-215.717250242305 -11.7396305130806 -16.4626344015535
-204.909533043081 14.9409207655987 12.5017486429489
-216.306639778411 -10.8601514219009 -4.11178862443221
227.555815580225 18.6819341917019 -11.4371667714699
-220.955355636973 -20.0031686650915 -22.8892706699009
81.6214572554327 2.10274896120384 -1.59783604051261
-167.057415791071 17.5174992081721 -14.5653397852522
42.2837463631946 -0.557617964945505 -3.83721512725846
-195.187641042723 -1.70421753417939 -16.7059733034018
168.23308791808 12.2516784027877 -5.96241414554822
171.701673055916 -6.54295322415065 -12.9585040335142
67.8480597149597 -8.28602193130333 25.3872175494124
-113.945981405865 -7.6825780932969 14.4263200577845
14.105257688958 -13.2091834709089 3.25595117860201
-232.837441469769 13.0797293730401 13.4358155147343
-26.9589290280076 1.51346256855769 7.9967093296606
86.3279946308975 0.313346487392985 -2.82979976103951
71.1676502823933 -0.115948826249224 -3.15297266567494
101.201189805586 9.52782381099797 20.9080592908325
231.792926499032 26.123171701361 -8.74000127673995
-126.91049714016 0.697210742681922 -10.543921626688
33.1912675234411 -14.1597474433735 4.01683592542287
149.591267184351 15.1185535855621 -0.672187753123358
220.947779774811 -30.9713118396813 -18.2944173380396
-216.529262079444 47.6160567052549 -7.97836633100881
-229.486403259133 11.9753164550586 -5.97366251440955
48.2852511789553 -19.2766962047837 16.6963409703913
189.639191881806 38.8086177776677 6.91250194192738
-217.342665245032 39.2933049163747 -17.3714264729419
-15.0397496288091 0.518536518641453 -4.45483388688928
-54.918407055856 -17.7918179238635 1.07685409282266
-227.11852792663 -22.2470084014995 -15.2851797118268
-19.114499466989 -16.5376848827805 22.2298740311024
198.908478723064 5.03065185173243 17.3127056188674
-233.209064512016 12.6733237618069 -4.66646571812533
207.014586386671 5.23805677448034 18.3500552625988
-205.47172701108 42.5133718305346 8.30020584164033
11.5265901477935 -19.936596232468 9.62387397073866
197.01424878798 20.5130296908006 22.0150542895312
14.1677677695362 3.46360170990466 9.86642556602048
31.616946313431 -18.5227131371114 8.67752611504403
-152.905259008541 -25.681146681651 3.70801044112353
72.6343899644938 7.38034291509352 8.69381422353539
218.940759250189 -30.6885476089388 -26.5540068643007
197.63981513364 2.26850423726306 -19.266814656005
-212.97884568799 -27.6650823729427 7.79556375928556
-216.016410914676 9.95140328441814 14.9765828335257
214.058096728009 21.1078770904674 -20.6658900435644
65.6902299165432 -6.07999574749421 -1.55372332710798
-209.967197133743 -17.7960500083393 15.2183465119501
5.95245510504056 3.09720086882854 19.2943639448447
174.544380408743 26.5685438340284 -7.45626470153641
-211.615263891594 13.8705379739692 16.2762309590797
190.541854513445 -31.2544124950319 -4.73277036313526
208.403701907623 -29.1917953711061 -28.3301802795175
154.449153623422 -19.0180635254044 11.9414101915626
117.622631951463 8.10190932908477 21.8509632952872
197.711322997031 -33.1466843446321 -7.03401627016017
195.656991576918 25.915612886208 19.8557236154873
65.247317971573 -9.2804551048628 25.1740539642509
-204.701427027517 39.0812066609606 12.0770434029078
156.813801157453 12.7524915447354 18.8442177259819
188.7875397346 -14.6515100959831 21.679761938343
165.192860914701 15.6361406415582 17.1822840593788
166.788873014433 5.3291981333643 21.043104112003
-32.0939753527847 -15.0676114477056 1.86657618307248
-66.7222221009327 -7.56313964102604 20.8349017459674
-166.549879371367 4.40712696007946 6.14044414377478
-137.03469861844 -7.46549816130791 11.2090819977267
-208.598238061779 41.7461125251246 13.7114002426649
-224.565689803911 -26.5239815348321 -3.29454864193906
211.16160599195 17.7088788432383 -13.481023974856
157.84631499134 -18.0266788334038 -3.37458125251422
216.303402616564 42.6257950479813 -4.91795539496945
-220.058370669514 -14.3865909382469 -0.0332456584762042
151.858130803516 -2.04036486987307 -7.68289384057015
205.915658531015 25.9516228249237 -32.0438104161415
-180.054206542482 -17.955001972515 8.61187033799327
-174.909094324014 -6.6429775154531 -24.5739021657395
-89.5533286377551 0.775990509736255 8.16853965989395
178.505877784472 26.3711017199229 -9.58328550448134
-130.621496378185 -12.8184172390724 -15.9328298106792
229.282489052973 37.712325290752 -10.6198818508437
-223.999399655492 12.4347435547694 17.6878663550472
-201.694515882884 -34.6858910475175 1.36898965113475
-127.755785689559 -0.901760446559228 7.73979257602563
-209.329962586897 -35.6866807488272 -6.86769200563206
-82.660833117751 0.928696448779247 -6.78839073976319
92.4924259934142 -12.607110825326 -0.130187611301674
-199.907578532359 33.6888561351662 3.99027606543644
27.3299964891427 -14.4333182378991 4.18564381101648
172.407773973089 2.35610204247883 -9.25587309222393
-145.867328112417 -12.192571213003 -20.0938163905943
21.1065661292576 -13.8062337029584 3.74892470342275
-145.568058355538 4.8520244865826 -7.41593939928091
138.750775375969 9.48780787613961 -1.22672925864428
-173.434745097733 -28.0272817968835 3.69054824882233
-206.450893360974 -7.98129253475874 -22.8434720999788
226.90452249511 40.0527368417794 -18.6829944045047
210.271235688574 -23.7080799049886 -40.1416280004205
198.085659667503 -24.5020112707235 -39.4228676532167
-232.788112223618 42.4113956855251 -10.4899422971904
-24.8637372698809 1.48168242217264 6.7580893560294
200.419176676557 6.07468876337125 17.9564883447325
80.1431098123338 -18.7532452686751 14.3836751144368
175.739315198969 -6.27653399280805 -14.4386829016828
-118.353644413153 1.01584234655287 5.46425607240003
-169.23744625783 -24.1990385923046 -15.2655445162505
-172.249662410917 -26.7669062021941 -12.5181905613393
167.553760946345 -20.275963258738 9.88907548904658
-108.863084032663 -24.5350619194801 4.86401740796328
-115.538677810165 1.67803172506714 3.21568491121221
-100.227855706143 -5.06826057424574 14.9996733841348
-138.979060672004 -2.54389908399092 8.68807920490419
-176.68553599349 4.84632058754883 6.52145967440894
206.79683163826 -8.59027630246977 -36.8670726076002
196.495439658607 -1.69048200774814 -25.9278053683031
-220.628502535583 45.7545581065014 1.17613246023743
-206.252101033981 43.7567740018651 -3.98571184818071
174.876565989095 14.5300138608253 -8.96949918589475
5.88602163719387 -20.6883225893677 10.5351562919373
-202.265945863066 -25.7755463797309 -22.580763299942
-16.7926935648722 1.9401499585444 8.27146472453824
201.142348156588 40.7109281613227 -31.0588458661401
123.952763337574 -17.9689893004169 6.38781554064594
205.966865279985 32.6962622232822 -34.2249272746464
216.619468142556 -17.4886068057999 -35.1099902784112
-209.521957014155 22.2758776846589 18.7704220613453
208.987195376767 -31.6779795308482 -7.25309042181305
-153.465346018753 -20.4472569468508 8.57974616726379
-152.980816774823 3.47930421053986 -17.8554814820076
-213.344712931533 -32.340708954608 -14.1537320335486
180.491994445969 -27.8543413871343 -16.6012360862803
206.680360612989 -32.4640750819816 -20.5534816356649
40.5204145112071 -18.7054534597383 18.9831912226434
188.515861174544 18.7120018359669 -12.8775804368154
-165.40253107325 -0.166916060017877 8.9372469785183
199.557239477616 -29.4390952190368 7.72414707597168
218.626575024523 -19.0683031564535 12.023626243491
-202.294277935036 21.2786747958392 11.4080212926659
167.255600063609 6.92636923939841 20.6792268464338
178.938638582368 22.2379709890239 -9.72236618227167
-72.0636678999955 -0.184011483786222 -6.93455436651875
-198.886163753755 8.13061066775659 10.0456010468681
-233.009999843804 34.1569755965879 -15.6287300220711
-119.123819209245 -4.7888733117049 -13.9482640028765
-29.5198960856358 0.990966685404446 16.7560037483264
-12.6261161166864 -21.6852037018405 16.8765594784552
-234.519348975798 38.132515568947 -12.370097201249
-14.5538841306875 -22.1339011238479 11.4420117876766
-159.16380685295 -8.16144748339685 -21.6175659828251
-140.82113055631 -5.80835425378809 10.1929332809355
164.683263283064 23.1501621055115 10.7515350111469
-22.801418985788 -15.1518537578741 2.80079419820382
-185.506849633526 -10.0597635836934 -26.4274362208671
63.9889554015605 -19.0935812342948 12.8469895197631
189.619132181988 -27.9216518281518 7.83124518410069
-163.732844280196 -24.8656874586407 5.94118356658762
-239.344677421665 29.7285760157581 -10.1683832302046
-200.643519443817 32.6151884740106 -1.00623283792673
110.522905671617 -10.7745931745206 23.8965415649875
221.053359051573 40.6455564521207 -14.2063192972935
-164.630364176062 14.4766954541608 -11.6504077333082
-239.287644510013 39.9179814195186 0.291880848945023
211.353589738483 28.788961114275 -34.1671282823361
219.224598540498 43.6462935158082 -26.6346726531929
-8.5364630806148 -17.3865480546618 5.37870103143678
-226.225326918159 -18.5064997151953 -4.57356102968984
-209.802543990353 40.523777808311 15.9750210848745
64.6434756864394 2.79440354160079 24.2856330587499
148.194542574856 -18.8123293793266 12.3452592920348
-224.367899991899 25.4437856476148 -20.3540482195792
190.239179223427 -16.3829979154068 22.3065196011682
218.488480581598 -27.004789698489 -0.185853420150381
75.0649897747062 9.12681365198859 19.6112503058645
-237.909069445029 30.1838443894789 -12.1692983633197
-218.976303713177 -30.8013290520466 -11.9209909613298
-221.452889979937 46.8172739078864 7.81818074421651
208.006250809134 -28.8725002420032 -25.4636929277466
179.304546952707 -2.12605407237538 -13.3284913481851
-167.006816094471 -3.48865429167826 9.55119553212995
182.460869306732 -8.58306814712937 -19.5338066985492
156.885490546774 8.96976349469508 -4.26068827242325
213.005007179691 -3.30475555362843 -11.8725668591482
-219.458884331079 23.7561154803115 -20.568258719757
183.428569165748 -15.2212515494878 21.4008466871106
218.070795982005 -31.4808296374032 -21.0932326962016
175.214321561843 -23.4845703121273 -4.12605239974651
95.2588702231585 11.6579225979951 11.3734433652766
135.365511139103 -14.6373968297339 21.0936899693858
168.008449041765 27.0166522106371 4.00103166905644
-183.426869330972 3.02741337066601 -21.6918562836856
-187.563294156728 -34.3864459102857 -12.0480857157949
-224.567764239771 17.7871249809313 -17.4785830199547
-204.062782094407 -6.33970663975756 -14.3832153998865
60.9201813958425 7.7891259007936 19.8612651409791
211.908843545117 -1.68332341256364 -10.9125491618683
189.723613941796 18.9236308935264 21.0435921966361
113.108857509133 13.4041304841557 17.8727253143395
215.695168181711 27.6177230129808 -33.1305352550994
-39.8557660426849 -10.3968410254898 23.2293507404932
-144.749452574343 4.0276050909424 -11.0719206783909
203.138863110961 -28.2288699588631 -37.7094194306231
-200.971526237791 29.6940298560351 9.10266297479479
174.753889733264 29.5204673425292 5.14133365319779
79.9590122488192 -17.6965125582061 7.61808902767949
199.17274750375 -32.9151979505949 -23.378038003816
210.826021377536 -1.35831457895673 16.8122067230343
-188.958228042814 -4.85804900900654 -25.4734484663145
-225.311445743158 -15.5741452647449 -7.3071478693701
53.6721069663047 -19.2553687908969 15.7980090551116
171.208085979601 23.3578333009119 -7.9191492647058
36.8546959124679 -4.44362294030005 -1.76343690389234
188.156233751268 -30.0743289624519 -3.03315614689859
203.695628230192 -8.80131438959705 21.44594733068
-2.68150771921982 -21.1740422889314 10.6902171904076
155.449708850637 20.4474188344085 0.447720968614618
-223.905290007699 5.61614651959674 8.05756390759493
-208.144872342712 23.1393806095085 17.9324475546373
-235.154677773261 31.7228173909065 16.8740164493746
213.321631013385 -31.9911578638599 -15.9437708148033
130.655174914583 3.87449424669391 22.9924444205596
150.323653426586 20.8429717525543 11.2546512098955
180.813541443664 23.3599860346585 -10.3007516428124
-204.316333218347 -7.40500162348427 -22.9561557074431
215.719046988047 -27.4735757843636 6.59897143202388
-178.774209062266 12.0827438717771 -16.1029802533086
205.334962294117 38.6358341573924 -33.5995613202805
56.4664074895397 5.09565006020033 7.29137175924186
185.523011390957 31.5735748187866 -12.0793578135783
186.126437080183 13.6615274355987 20.2183474996965
31.8324537087356 3.55542971548202 6.27918214689587
50.9857746087122 -3.98665404244128 -2.41472524557098
79.4260087187365 4.95182014320528 23.3489571513935
-201.262724683515 -11.0279065067093 13.9359635252727
-88.187025486753 -15.7401845576312 -5.49956496072544
188.980519089454 35.116746207567 -14.5434665804816
-189.256499791441 16.3694298788128 -4.70472952421311
208.28426141516 -6.90790542892429 19.7561883690835
205.619604959609 -31.3626863154495 -2.50789930923491
-105.92736934012 -23.3527554845934 9.59823624156415
-19.9012311914535 -16.5002858038854 3.94476403971235
228.75198268816 26.4042603967667 -19.0659424688387
-200.828097978283 24.1566935277231 6.46638301628539
210.182325176112 -3.43412124997736 -19.0170596856481
-165.254679903904 16.2924528868258 -13.3104551403139
160.155903676184 13.1351409319349 -3.75212471438499
211.55043409107 22.209344142238 -29.9554242220549
-216.153452950849 -17.1171477326019 10.6229226243313
91.0698279206521 -7.08297447540137 -2.72699147011076
-187.201555612808 -35.3653708390995 -7.1153278933322
181.721748976474 -24.5879289037947 9.3294542068021
-108.383056217443 -2.90972020308429 -11.6619772730564
142.553634854331 -9.86845737172141 -8.36611453477979
217.871019410655 3.84101834839436 11.4322659989886
178.277916451673 34.3511672861514 -1.79859635330897
-108.830339805828 -14.3878267937626 -11.0255374302978
195.143514887506 -0.751436426151673 -22.704453861365
-197.511133224352 18.1467793130873 -6.8498821468059
14.3224163477974 -19.9416224642179 9.9407162251482
-222.435123368038 -27.9167187480997 -9.32863783543207
-239.470121542697 22.6913100530967 -9.42071820674945
194.280251289366 46.9851075101785 -13.3378297414
224.82322584558 19.8693593612856 -18.7398540591666
-68.9865822226142 -22.4907328112189 14.2583924581187
-178.00886090225 2.76844869444723 8.06383204561454
-201.288074958164 28.6002108044402 -0.292881862734719
18.1769531610177 -19.5167485408527 19.2759089526024
-191.912481435792 -33.9344087376688 -14.9386254608477
-227.617472091256 18.1735989974086 -16.3822451001825
-228.715224892636 36.0675037020247 19.7503742810699
221.554681047911 -29.9779455655729 -15.6544270859321
-211.866388121971 11.9775361987768 -12.9757014019225
-101.501666788784 -8.21811176756801 16.4341231448984
184.66756160335 -11.5179424232198 20.6655026875112
221.719413609593 42.8511188933572 -25.5192318776513
148.062771855188 11.5009798468257 19.6082714052122
-157.65281581274 -14.5903852030421 -21.8498521917799
-35.8816264424444 1.63757106178365 -2.85099803535316
-165.780272911484 -12.8894730667759 8.23004196784481
-133.329627377273 -1.12826222408566 7.78716493815778
-138.68553978326 -24.4462599700565 -2.09179867876686
122.261557534103 11.244901446418 20.0914468316683
-219.299772828713 -31.5545918804258 -0.654499461287909
14.6152653015329 -7.05913296086992 25.4665263861685
-130.936458977502 3.69877910224115 -6.96145885480884
-207.280625889665 -12.8308826760367 -14.6391614702825
7.78752353114239 -17.2318558179843 6.04996264196429
-12.7123363649888 1.59462040756509 -0.162692495873777
-120.031995511983 1.43141646600446 -9.11608915896667
-201.929171830488 -22.7274728304971 11.5602104240031
143.285891867424 17.6225792934683 15.309850154651
-232.508962163527 13.6798294555902 -6.14013038071859
190.160151555363 42.7672355559076 1.93088019350729
151.658443149387 19.492206530477 13.6291234592784
-160.153530435615 3.59296327643554 6.03786013613921
-140.73190325373 5.56024373439211 -2.11385222831643
-145.357800906653 -0.425959088264057 -16.5163164623943
-39.2440561840412 -5.69679692503808 -4.74867221656044
171.91123214313 -22.2104607097958 -2.08286954510942
200.673676501923 -17.1014620929449 24.9375838746429
201.805627006711 5.94078789567167 19.1028679519841
203.630494970008 -32.2417627575728 -4.70352547007778
176.626709353297 32.7802770876277 -0.641909877483944
-223.019817760882 -24.0558251342872 -18.6965778425049
-208.15541931667 -11.7894248226298 -25.2981177329525
212.247617830006 -28.1007661571248 8.80231039245613
160.778870851184 15.5520749907225 -3.21097836894314
-160.046777237182 1.20183190824353 7.42734537026992
-187.911154275845 -32.0865596279062 4.98362634060078
211.864426592942 23.1422370438153 -22.6345702676053
-240.150739393696 28.8702742881436 10.6172927723645
7.51651398368874 2.17599438577469 -3.26200394857737
13.6258723165443 -18.113281949534 7.24862766136031
192.530908092668 14.8652346516243 -16.1203408907343
184.119951010616 37.7497448439158 0.0569022562983488
-28.5989620203578 1.6841172140773 10.0789439691972
214.78763445492 -0.815511488558595 -8.56006707378706
129.694669833526 9.00551869347565 21.1988227678771
198.203426677195 15.1175430331078 -17.6237503540207
-105.13986072916 1.36565487301894 -1.95320560777749
-211.335411108073 -34.4560632307017 -10.1187147968164
142.44647349982 -18.2840245794558 15.1397401523259
147.88126146734 20.8904229683627 8.72115405302185
141.086238933945 10.6822332300463 -1.10264429902407
-93.1485256929853 -14.6517995153914 -7.53329445727832
-238.297862894259 40.7907480522041 -3.19302589277044
-145.960939608615 -2.98644780811311 -17.6706024049845
207.597817201447 -29.2434663323743 -24.0444416408087
-162.123867909228 4.87484236754326 5.49375162821865
98.7874645844705 6.80425111796225 1.98473050359221
67.0681078011727 4.65076040436968 23.3497502321529
197.397283722101 0.640183699135199 -20.410248105667
-199.976011319105 -6.34693690359405 -24.2278170934762
114.905989430927 -1.25392073852542 -4.24671903190239
-215.397700054908 -1.38236391733387 -5.80744639416388
186.444171262056 -26.8001041620463 8.14986736194979
-170.52426470138 9.78073794570364 -1.51181166237448
152.2820802764 0.992605507772015 22.7025914041175
213.363394350604 7.08981959943626 -8.5112763474939
-201.534465029669 26.3138726611426 9.0272160794727
-94.9776177725972 -24.2805975408257 6.74401788789569
32.2556699036497 -16.150710532782 22.2737055979664
158.413524693328 16.4090508365531 16.6710841124925
146.795096498641 14.4199524029971 -0.418195426006475
133.170862197105 17.2967969398084 8.25680227622571
-201.605128412888 29.7351255780414 -4.18597767670996
-20.2907416469283 1.79928591713285 15.8607381111578
225.040217903025 14.5054589242361 8.87281394155975
180.491561039371 -25.3812043137551 1.57142939062017
-13.6244534649927 -22.3611071068326 14.9024799797779
-161.113925883663 -23.1779622961954 -13.8620601963687
155.546056807751 16.0462632678429 -1.68102270963304
222.290567618458 -20.2411731572456 -5.85339996638674
88.650563441226 1.1402960801875 24.668727722882
176.252129775546 -11.8526195583489 -17.9584977573559
227.731752270254 16.0779545225517 -4.88897858620474
-31.5290330272875 -22.1938330992277 16.7031086133042
-117.729604220037 -19.8407781736014 12.110889640084
-179.197288674827 -22.2485096471572 7.41670982210154
51.9449541394334 -11.7697485056489 24.4808677230717
-236.709540724043 19.7871514054251 -12.053342402861
-163.185046526011 12.0455996601768 -22.6287878230673
-167.454655993184 0.626234829216975 9.12954362097802
195.520670276256 -20.8663930304011 25.0913254102628
-224.99515847819 14.2851386811986 18.8195107669455
-200.666616648151 -18.1883610245649 13.8499866602844
123.071513724416 -18.4982034347054 12.927920542192
97.205585456951 -10.638552793268 -1.85812973638417
40.4096550043292 -1.47425625550871 -3.97134373119179
218.959376482471 -28.3542477408559 -5.17916910755307
-229.132985232375 16.4387278527811 -14.1114347452633
168.63483038672 28.6389913801646 -1.35679911009211
192.990517812188 -32.53804905311 -7.59246491514958
-128.160276732953 -9.83392345235465 12.9737435930221
-136.968897095303 -0.538481414983253 -14.302259704121
-143.456182343728 5.52749627774812 -3.9470349967253
-167.668859656052 6.17671564530283 3.25308926052265
188.35933885251 -17.4636147607765 22.1647148249316
-119.089919866009 -22.9771977651704 -2.37545182891388
165.447639737484 9.39842592193377 -5.66763430064115
-238.788523513945 34.2174373237635 11.5774887215688
-217.516689751026 45.7851395078991 -1.77906749297771
-27.1790151867412 1.74578034556744 12.2979933603173
-203.731845108367 -19.1611970196002 14.6684199928765
122.100142002161 16.0601114026259 14.6085771789386
78.2844722240916 7.94784736689416 21.2881528438519
-86.3138104810057 -13.9322891494995 -6.40346040994263
196.256834687063 -8.357530371214 -37.9685701082653
170.912109243994 25.1263915936437 -6.88425853998997
-41.2275109573114 -21.3384438902503 6.34595756856745
168.439225109492 -10.3778044500127 -14.0226757792223
58.2221507596847 1.53348878366155 -3.03384062920723
193.557391295064 -15.0718002101793 22.8282519888693
-232.891417457564 10.8665092906565 10.6708123793952
-203.193665851434 -38.3490551825242 -6.33352439618532
-57.7130806755205 -20.1415941701993 18.0048725866515
-71.4588207346764 -16.8285982333014 -1.75743169061972
-214.046271796088 16.2211500827611 19.3959628227673
-219.73808438954 19.4149322372534 -19.5927648841444
233.134185960473 32.2072377562171 -4.21678985569749
-222.438569947343 43.656628541345 16.3116625855118
127.485173234397 -4.53885747320456 24.6318266069719
187.689566314976 33.5306049702046 -13.571325137356
155.924172472563 15.8122671332852 17.0667313707944
-61.8543202613408 0.755856944544142 10.5169177256797
194.840157689185 -31.4630003190132 -2.70189210449486
-180.797499174154 -2.6254239194701 10.1821273485726
25.1701720239989 3.33138836847505 -1.01700044109982
-208.820720261777 -10.4637330237596 -24.4843779849596
16.6206692489158 -20.8158900086586 15.7026576743328
213.001007881743 -30.8820528705231 -9.78806933326977
208.364109519305 3.99854397544189 -10.1948642285215
83.4448693033459 -17.6903819449308 18.0701013218472
-194.056526960971 3.97231475188338 9.4696305280046
196.975487124311 -12.2692133558917 22.7845248440498
-213.783289658813 -20.2478332651587 12.1186492447114
221.394617542408 4.8253419953646 3.10262344013871
-105.47699465013 1.27246004290739 -3.41867983954221
193.034790518117 -32.4117687222318 -22.0557302170415
180.814604877424 -26.082659637212 -3.47607084647085
86.1866592864109 -4.63200054555489 25.4740422704531
181.836895933042 21.4535452777166 -10.1171782143556
-178.162241811809 11.939316935976 -18.911836609837
133.651645235016 -16.4076441042905 19.0065968774329
-209.860279214873 18.4222087545471 18.3418016103408
-206.668961855348 30.8557152106766 17.9209776899355
-206.478496370982 38.2313017890821 14.9981877576344
-86.4941441802719 -17.9058775369396 -3.52796750941092
55.5753672638074 6.12265096078502 21.4751276960089
-221.170140096473 17.1230461917055 -16.7808335166773
-193.632307622036 19.4571608232875 -2.53661493122449
-217.901679602578 1.90986578926532 -4.93654036147963
-182.467574922735 7.86155685716027 -15.1604785382326
6.20828007503157 -21.3340165810196 15.6446762522596
148.322150932127 -11.3681113076056 -9.49255915412581
213.496068487734 -31.8624973893182 -27.8558845171825
203.054355513977 -10.8110894037409 22.2872867584678
-229.616547334056 37.7504470869631 18.4805963615324
99.867776717114 -7.71631656649803 -3.41539535816468
-11.0060853072218 -8.44824626488067 -0.294580274445093
163.824470689554 -19.7964706195331 -2.09284735393824
138.576106706676 -15.8670593366768 19.8063698898517
48.9842318574636 -0.495120367838971 25.1580334119321
78.3627407415306 9.50253663511129 11.8948827696947
119.717958617825 -16.0202371497861 19.7230201037414
32.2710154663595 4.36618276132003 9.50053617674428
-120.659547528614 0.687779546370963 6.0118293649964
-127.452527674655 -20.7059242939601 10.4089856539697
-237.973584567447 13.5692160261909 4.1331947410743
-179.505616335771 13.7895486731059 -8.24323070902969
-219.842251856981 34.4080139316472 22.2175922793548
206.999768381372 0.657155298708881 18.1253515169596
194.882236527068 15.2255356222611 -17.3691245079538
-194.3446032503 -2.5679544839039 -19.6388170745912
-238.617826830102 14.6865102515773 -1.93347878490378
159.126642617119 12.1589165560295 19.0198389655627
201.693339845755 -7.99235719345796 -37.5499656894405
-216.602312933965 -16.2414024123783 8.98286890711674
210.849790036405 -23.6615068420427 20.0023743464639
15.021693550518 4.22153055225377 17.7280742097128
204.888044058378 34.3860609126589 -34.0224017944916
185.759011242422 -27.6832485908423 1.0574742013873
-153.437605390851 6.86290121457902 -6.91271779505008
-204.944895095358 24.7105304642304 15.951214308364
-84.1926531537917 0.882587602768523 1.88190080779669
-233.858705704857 20.1743070486425 -15.1701684541324
215.171760789204 -25.9688982834628 -37.0856524941906
185.692577057832 -30.68774383301 -11.3559344565688
-150.799736392575 -17.7056697939685 -19.5380231070839
-229.734464966825 18.8518344104324 -17.1130102702277
-208.624691065109 -15.0622614417793 -11.0945572885769
159.59471707091 -0.0588257056477436 22.1398002787743
-211.41737658491 39.4144436557483 17.801552543369
174.611780753985 22.8920855788832 -8.67954586987287
208.054146703939 25.8001002519347 18.9435380352602
211.222829908387 -18.9525276290123 20.6978298087554
-200.818387778999 25.9583501785435 6.6044841146397
-184.392577599066 -15.1845694082052 10.7625365705072
161.99688923596 22.5896552354684 -2.39684550052881
217.008469244326 -21.2239048990125 14.484528456455
184.254529009628 -19.8394610221729 21.7068403790072
-143.270380763763 -1.82544395359279 -16.5444141847912
86.9386303596736 -18.3143386028422 9.5755855096195
-69.8683413559039 -9.52364149443168 20.875236654806
191.252804629144 -25.7177539314579 18.494548869147
-199.900517498813 -3.62825451283418 10.7635315354205
-223.532897338454 26.093014799829 23.322545905898
-172.656660826911 -22.8369829196544 -18.4479017054589
-236.37724055564 14.1636646671095 9.64907234179087
154.500570475527 -19.1435895864217 9.3812294718312
-101.862851214059 -4.10844112545566 -11.6636610256351
216.711042287054 31.2939813007362 12.8115124508957
20.8097682144069 -5.45769299003727 -1.0707717340323
203.759673685978 36.4772121810542 -33.496181505892
207.716720505679 45.2824144228336 -2.14894435488393
-182.17849991372 12.0209301751094 -10.6078019891105
-68.2868616420304 -20.3024212540938 17.0132474944499
-0.0458426716779196 -15.3962645373468 23.1608462201132
-57.845720439389 -6.90153604145024 21.5194950273451
-7.09435550994478 -4.27348986589273 24.6009916305151
191.476491773096 -13.3575357191395 -38.6034420441747
163.307251372078 -19.8457838744551 2.60200142422115
13.207041725996 3.89591468156268 12.7606255270838
-196.918003405911 20.6699729490589 -4.16394140895592
-200.667416323931 24.8064709723476 -4.33426508262087
202.801941719926 -3.30488610535463 -23.0239696947388
46.463960592847 -4.96581212224384 -1.53181596269587
202.224278079816 -27.806290987406 -34.1399933934961
-226.756206880164 11.6539220140011 -7.47352758881875
144.666140240427 9.86955293358416 20.3958738100497
-157.183408680159 -5.04922466132635 9.07281882687628
193.026598025925 12.4204134800654 -16.6924824485017
104.909767920736 -3.61303768334853 -4.80436641889428
130.846413722469 -10.0506770849873 23.8114984499719
-210.355771972704 19.4060176344082 -15.809009618934
-192.684175681935 -33.6218200434009 4.79019741507845
-205.416880732811 10.4856741969021 -12.0943585243774
-175.968935754825 7.87570415811566 -23.5924073508163
-228.579775926937 -19.3651205713083 -10.8499477401367
-85.8462690451065 -11.5125892258276 -8.01778160425663
191.765518803391 -12.0371577744562 21.4843184515765
-209.827895013281 -3.29237823140874 -10.4535833228941
-85.9400324835068 -20.4619630175327 15.0269463986146
-189.700147917296 -27.7974011249443 -20.9307803040756
105.011416386506 -18.1354928990755 15.5566275088269
-210.895870844616 -27.5519185996216 7.82774321255356
-173.403028877487 13.3039674107741 -23.2068032001031
-191.182248339919 -14.4244380119887 11.9590825022651
-212.675068481975 43.4450303522134 14.953887091236
148.215035051389 19.8753433898302 12.6083827257308
68.4418827997409 2.39672619107617 24.4828039791587
-210.667807022187 47.093942377812 -5.17914028206916
50.8444201598966 -17.8838016381161 19.5907923931763
137.467187533804 13.821383659519 1.32605950420096
198.110689914952 28.1222727235188 18.6997295210858
-193.976331003807 -9.74296640394176 11.7445026943296
-179.694645232539 2.43675604620235 -23.361829995459
-191.652272126841 3.06450844525147 9.15672954593932
51.2731447698335 -5.52716537005411 25.8310950482291
-186.023704455406 -35.148524760587 -2.95003706198678
-225.970822597404 7.68308265032275 10.9209933845172
-127.652638282594 -7.49455741181629 -15.88196320538
127.634050272511 7.15658579477542 -0.954828593166325
216.585899467442 -30.8905604762082 -10.7117137012963
179.870864915991 -21.9174503702899 17.7266314253623
-29.012933439766 1.24639375319404 -0.0450119101719188
-202.49053875489 -28.5285861783191 -20.8410547667113
198.461294032343 -34.7548261608602 -12.5158899113015
-59.5458388934692 -22.9076014752654 6.5604346709565
28.1283273347235 -19.6594016550073 10.5564702381026
-61.5466918480073 -23.444490999804 7.95509930756601
218.988346218383 -29.7560092981976 -30.4038053329086
208.672760075691 30.8373792559217 15.6024202239961
-49.6629576645886 0.778490490360699 12.7584985742867
-240.482861170723 20.5135471616645 -5.71803455489239
191.946963601415 44.5615810878628 0.421076039417001
-143.964996540661 -20.8101508843862 9.18370121982746
-203.327654263506 31.9246242970632 14.7214528807264
167.675918509243 -6.14342861283852 21.7872352209549
-131.537316794437 4.47665184541912 -4.65880725310916
-228.48957146743 18.9295750684136 20.2439953800302
189.1537631115 44.1904843661619 -9.84480190093331
-217.674789890912 -6.04882663639999 -1.50474878734947
-60.4184605340878 0.335420495774721 13.0389151421496
231.986327040472 30.2476259277065 -13.2906367376799
0.435063792151995 -2.31343698097161 24.3255233931374
185.668804867749 -13.2607648945738 -32.1400209169473
-90.5003299151492 -15.1797229613929 -6.46295610643334
-212.201677052854 42.8848805156094 -12.7477840840803
60.0913086443383 -8.35367947382202 -0.145807198128688
186.674510173588 -31.6149110576508 -13.7217470891846
-191.499485853694 -11.7566355448081 11.7446738103457
102.999443439108 -17.4404022024289 17.6293494458447
-201.198832285309 24.0322964982858 8.21416524421216
210.200291289435 -26.93926531177 14.9699418292455
208.135994165736 -5.75983813125609 -33.7464521995048
187.089328376564 20.9629226566529 19.4419133020993
-193.815962735578 10.7121678623106 8.10464385626259
-113.525769595422 -4.48747857029076 -12.9669740057964
122.773868269937 5.90607272663006 -1.19548275995011
180.194569135207 31.8132347964683 -8.21955123092972
-173.641373638037 -25.5525616701473 -15.2826012253196
-214.305951405688 -29.4628179053629 -18.013762354136
210.011043395759 44.4614099531523 -21.0912675741373
-220.860643359178 -8.2165560746934 -16.1749556493401
-113.723432614621 1.50070248619543 4.08008706442654
204.723677240617 -16.9392804401304 -41.4230073003733
217.03108229401 -9.05702504473868 -26.0303068202846
-23.3151550051026 1.46492598482985 16.5413404989883
152.646084112591 -5.64689909160187 -8.81728857167183
25.1471471734666 3.12975706391669 4.87724505273462
183.192597735151 -27.1391897607427 -1.67822027471324
-91.0769567867784 -23.6941372314866 9.89199735270373
-207.999419680385 -6.91432946357733 -11.1641620839695
202.692488723857 44.6664350775428 3.40130434296797
54.2188091603968 2.71503209981245 24.036059601521
-60.8478358826168 -10.953960940908 -3.61755457181846
-221.7312480453 18.3073392508216 -18.6766767610895
186.939049455082 43.8212641042988 -8.34241025730065
-136.476276135717 -15.3335823065515 11.20139288885
-91.2505037138756 -23.934891321321 3.2575592389189
-220.640039834706 -10.6113810575258 -24.0843080237526
-158.61802958167 7.27625902928217 -1.72676219120683
-74.2080802297549 -21.6084388719458 1.96072033715047
94.8104107038143 3.50179280515637 -0.713653568135311
131.340223642577 11.3709589860448 19.9700879562309
-236.485722934795 43.4963409185569 3.20110139602752
215.402668763999 -27.2425854994824 8.6531073912116
-160.891944902591 15.1364079549631 -16.1350431395376
-88.4079892592693 -19.2520764174903 15.7290628656796
-180.099144966418 6.19058176552051 -21.7327794671846
151.694564621362 -18.5014741990684 2.55393621019191
182.104697616546 -26.3666470698165 -0.192504476252813
-91.1107898655851 -21.8650679950193 -0.710970735652332
20.2379757277923 -1.93009761085546 -3.88241102476547
-228.928780522004 25.1824102118989 -18.9080114836867
-159.301729014963 -23.6144101325705 7.02225138171952
-220.818271907147 1.27071253872651 5.03470368653971
-226.40532633465 14.2492677288619 -9.68630528309145
106.843834183602 13.4964263196689 17.0719370479056
202.280400471265 -34.0321172562966 -9.83009521910765
108.480126311521 13.964744458926 11.3755555211163
229.963373730414 31.9565677862332 -20.1832003190471
-109.574299841089 1.11728841989577 -6.69093220498146
30.764089677236 3.12183022853093 0.929649158710028
41.206367695039 -7.79694898494349 25.6176639791895
-64.9331523552015 0.940090384710802 2.68680117424138
207.003162959838 7.42526203996969 -11.5688020692711
-116.948311878173 -0.0750981161051028 7.56140473788021
26.8157285771251 -18.5538073784818 8.37870078318708
-227.158758725743 -19.917800709619 -6.22294047177402
11.6896585140522 -20.9502944359185 11.8680642021758
195.783067719287 41.3019460102836 -24.6842249798041
-241.447818176998 32.8533547119327 6.23975322508296
-219.045937039544 40.906458709279 -16.5614401195772
225.100777081038 16.0348954860338 11.4797182394868
-133.576588958143 -24.6894725662934 4.5041264127895
211.484874888901 -3.52807719272218 -19.77027862543
-152.481581147479 -21.4322941529665 -14.0329369540686
204.283347368159 17.664474616554 21.8712141504312
170.090753095597 21.1477800921966 -7.87214766575482
-123.899293703517 2.47922789639635 0.105375682920529
-225.145721251391 17.0955086633532 20.4589549343719
-128.111441183708 3.76342455091282 -7.24325476562088
-132.214017172192 -8.89950718434219 -16.7051345550931
-218.835210325004 -13.2026405736075 4.6856351491657
154.026353487712 -5.78616580084796 23.1591694255438
-228.464170963719 -12.2957376836217 -12.3895426135628
-184.28093732032 8.91402849197574 5.62773124594236
16.5349521467752 -0.178452159651388 24.156810582713
222.209885562975 -21.7996419073804 -8.23041020569866
-171.539689311258 -12.242943421727 -23.9947232335119
-171.480229121675 7.10985010273974 2.47219876917195
216.198523337979 42.4572144443606 -8.98839985619509
-145.198285687918 -8.50197901044688 -19.308488902101
-220.799203456655 -28.9818560998574 -12.0822579659157
-237.081855259648 13.0569982646767 5.96580675146545
172.561413966376 -21.2585329851807 10.7818017311989
139.774395033007 -18.2567288852472 5.12418132970249
214.179079431883 -2.66265137963963 -9.62600830196431
131.466483368947 9.31933532980225 -0.41817072299907
8.7130098829002 -10.9654227233048 1.82508748179202
113.181590905564 15.0046699635064 14.7426653526491
199.100859762517 -0.667224351242853 -21.0322392944742
-82.1717445782477 0.922359083365405 4.56317758291021
-225.408698231311 -25.8243423484438 -9.79410859685665
165.993281011041 -20.21902039179 7.24306770041737
-193.385817999491 -15.9471737459532 12.3523955316958
-148.552345730881 -5.36296646124265 9.51335692432049
16.3402786995467 0.496446980890127 -4.17964841999564
164.843439552707 -9.9148286953698 22.3242289857696
-90.9239829657267 -15.3183629205542 17.5463497888099
-235.535044127499 17.6973099022652 14.4230421072858
222.733810041848 42.5396356094045 -22.8159808677016
106.686994476137 7.37755747276653 22.2517741083867
-114.203673306789 -24.4643496829364 6.07760995826563
84.1143902183418 -15.6853078404947 3.58197174196092
203.428969018614 22.5253074018727 -28.6063927094653
-10.0353637824804 -10.2099842576991 24.6005155767689
202.852743540151 8.76286959264026 19.5485872279331
157.380428432557 1.26566597705667 -7.07332605950287
-168.526418316779 17.9128006052413 -19.4749127877758
-222.767431968194 47.8902424816519 10.5834629442058
180.27438628306 -17.114264456085 21.3265079537
-172.868828485105 5.92560237466758 4.51218041664242
35.8560193382925 3.77294290240987 22.3672940967662
180.721870419308 -9.67234366751195 -18.6903952807522
70.5417019226231 -6.31794402360892 25.6694637404123
-221.181193079078 -6.29280668825879 -18.6766143093564
208.139212600483 -1.34754502525266 -15.398407683139
3.75916559513255 -2.63122651170742 -3.63711945764487
218.556151325364 -19.4293184766852 -33.3284232926475
120.041425377893 -18.2806932340456 8.35530555528144
182.508110714596 -26.525352885806 -21.8552706369277
-209.345927624872 -9.4540729033437 -9.48929906170766
-148.527546658429 -23.2075233964779 -9.1790104633073
210.326590640462 44.397469001897 -2.71937983424651
-202.166916310685 28.531504285158 -9.48504980300073
159.526037045521 3.07054496270695 -6.61052760415877
224.400386190286 15.0154659903913 -9.26053281397892
-110.927202071563 1.56121237277861 -4.8368112818204
-214.164829160821 -31.8936880580911 5.06197735696424
-178.430484024361 3.73042491836095 -23.4116783714452
-185.376573581549 -28.4889328809455 -18.4767358192647
-161.972184365286 7.7575141162743 0.217000203901889
-218.848374707322 -12.7852136150773 -9.54014393485953
214.826459102299 43.0208093128856 -6.80857149514787
185.827633982493 21.6363594287858 18.3531963716802
204.880084734839 -5.00047633067903 20.0901193434187
164.38171010188 1.2796462397629 21.5757521379224
121.878238953891 -17.7665464669766 16.4137138738185
188.160138701716 -4.18419130413631 -19.4854533967599
-92.8805910776236 -4.84291034286575 15.977762206393
-136.51238353988 4.70837793234881 -4.79595542783287
-41.4099855789662 -9.7508814198623 23.1960725411106
80.0103670441712 10.6533858070864 17.532580194684
-34.5980105884397 -21.7524795459907 17.5981804206244
2.60715924317202 1.90087256475552 -3.52946572585565
-212.558847052036 1.43357069445532 -10.1406833512451
-117.358784610338 1.63469086759691 3.6258631562996
-200.82782112873 -38.7828339462235 -4.15355492547802
208.81366956857 -30.6843943602148 -3.26510843362326
170.031010114883 -21.871343731003 -3.86578746830203
111.074942136346 -14.3641257322975 -0.470440223393389
167.330131692371 -19.6670492937318 13.8096301460279
-205.9826982716 -11.0989717642207 -25.5168678481105
-163.73343684358 3.01321482832337 7.70163688833335
-196.993655516104 -21.8616072126582 -24.8831035074366
126.439060423604 -14.668061298583 -1.93930593936705
-189.488397089814 -36.2249362502038 -10.2234131675002
116.464993657566 15.0986517831701 10.6356182209385
204.113452884194 45.9320492445826 -14.5291656338756
-176.240744811709 -11.5540292534607 -24.6784022556069
214.071635302363 -27.934375140752 7.00812426356934
-162.258904447582 -19.3810031356919 -19.8833169387675
-24.8613583510544 -17.7560168403859 21.4623324885365
-196.462102049484 17.9136872889806 6.17438731110827
-199.49181465704 -15.6906494726873 13.8732847318771
-215.422665940692 -8.68032111886181 7.58353571226521
-195.046287368951 -36.000066389154 1.99638975553834
173.262690220646 30.6315324456027 -4.59059806791584
-237.708689649811 40.9972403606138 6.45783949198963
187.326344922266 39.4994347583645 -11.5045797173453
48.3442228117342 -14.7055511938325 22.8695511955588
