189.751079052109 -14.1239092846449 31.1215940616114
-6.40420050152752 5.41032393884215 0.880484532356993
-199.714769534518 17.1162247628654 -9.44956079076563
-233.28936762526 48.7936061229086 12.8106797022203
139.301961607224 -19.9574170123543 -5.58842272360232
3.08125747166497 -7.30091715990691 22.4910513246778
173.360989405727 37.9299228745257 -20.9330419095408
-60.4733610414069 7.16914230844751 4.54432410737382
107.941919934089 6.6290620207216 22.5036849972245
65.4388604186187 10.4877202513631 18.1620587268775
196.600167820123 -26.7274807189972 22.3874253713322
-227.103544983359 -26.0316565127252 -4.84505296899826
144.680845870268 9.73572319799208 -7.79288653292193
-213.128561971106 1.89535592828485 12.652918416854
-215.276790528789 49.6740176427045 -5.09223392007311
132.668270315111 20.9948810490324 -0.603640065303925
196.283905734337 42.6203615813373 -16.7143772659639
-203.748715490956 28.9599642995267 -7.87393582767354
185.032564733597 45.3139936809089 -11.6870352557879
1.67861275260426 -12.2020240153975 -1.61757618620712
184.862917583384 42.6534760326071 -0.333893449223226
173.679295050593 -2.23355354658594 -15.1629036268683
108.823615298141 -4.99253571152716 -8.23198508196034
13.8290957122744 0.108001870343955 -6.33870053083425
20.7458125265785 7.9211187266807 4.6895673000049
171.794756802522 -30.8802376894345 -19.0379250241331
175.563153410809 39.0130610047022 -23.0648626023508
-178.520325441495 -31.1053048690304 -13.741105628046
-235.657360979261 33.5172296656536 24.4134539775048
-203.581983349489 41.177362298742 -2.98999739611187
192.043014794001 30.3612206758168 -39.6146574953689
127.290211285572 -19.8308984900873 -3.79190764804751
-160.890869932014 11.262423671366 -19.6353841998228
-66.245532702018 -19.4936633963379 1.6807999323075
117.575895044821 18.2149824312886 14.7095689399861
-201.405259010105 28.9395244462688 -2.3876774829556
-75.3693499320813 5.36273294619222 10.1756796455151
187.795149766181 -14.4242049773825 31.7121177197946
-131.659073916676 -9.02774664339954 -16.5577006731165
68.1850933638867 7.76515450428832 -0.709143910790443
-73.8450673430698 6.95644312506136 2.87941249036582
168.10201024644 21.8899493565876 -14.3089987984542
178.919049619689 7.97788893958733 21.9931544460255
181.095998297048 44.5769852730339 -18.4762592001268
-158.965050819571 0.13658444136309 -19.8805546537329
-243.000377669284 20.3815548563949 16.0689182113344
-213.330723669002 -0.690574472094287 -10.5062314324059
-218.34290460849 -16.9977779782055 10.8537551380518
204.731447155352 -17.27793269178 -25.6252096824092
92.6012367075712 -1.81805531884047 -7.21760446087104
110.125311748619 6.71020315853883 -5.01887680136035
138.874569520207 18.5041334455482 -5.193308896753
119.503238757102 -20.0013176733704 11.3615886638651
129.624205936611 4.63964561898438 23.3328266771069
153.850637695085 29.5185575421061 2.44420333846365
9.74989933054699 -13.8535814480236 -0.123067545065415
203.520091964555 1.94278739865362 7.72850746822053
-188.882814094228 -4.18081992439135 -21.7574613955625
105.708802736832 1.78071518224639 24.0305476026498
-134.660631907463 6.58626838474365 -0.774420178659413
-123.755653113929 -4.08335430173012 -13.7838109564725
-213.507448671823 -9.74084666420049 -11.3564181541808
-133.500685806664 6.44295312445339 1.74144378359828
-192.203703497919 20.4052174946057 -1.72396545806669
-229.801419380958 -13.4646419746488 -22.1905475020895
37.0465203841997 6.21368506359489 0.293067011131073
192.349082176294 -2.67287446202021 24.0961361009523
161.767019172166 34.0356435826048 -1.22849933802318
-139.780653749819 -19.0240715569531 6.26341491400295
160.830724489586 28.5720154644659 -10.3426754930296
-44.8568822833449 7.15314804511224 7.37571402893122
176.328524738864 1.87137728662937 22.5919363628781
-46.1509766293008 0.411835647001948 17.8470339179244
-234.005767944995 12.7715325362201 19.2429780058504
-229.545959242835 39.8918899979959 -16.6324147841626
-230.087097890469 -23.2562737261043 -13.6026153623338
168.266541221546 0.468304533652489 -11.9703106867604
205.151866678099 33.2922258257637 8.90040879673235
-139.191940443254 -9.92441263700481 10.0399805488907
-139.67092690173 1.56410026005698 8.30446405918255
-243.333382658383 15.7781191544243 -2.96460484852504
-99.6791020012883 -21.1118308430697 5.11179739466588
-110.866337468567 -6.95374070193058 -14.3218242529689
-95.1898332370296 -4.37988951454528 -11.8300031634806
36.0777212539547 3.44585287599261 -2.86380202232852
7.38180893557256 -1.92257947884742 22.1612845592473
-141.156246152969 2.01681860794263 7.97595324663625
-94.3272540184785 5.61348310409123 -1.68923344669997
188.314932380423 -38.2918368353539 -14.283638150424
-222.953157480854 47.097189470476 -12.1516276284919
-194.152292451451 -37.12631843217 -13.5960237687302
103.61694507886 -19.5601351801128 11.6826780086032
-85.2680037874984 -7.12038429594711 -12.4355734148823
99.1730251196668 17.4912871913857 8.24657802278704
147.683843090923 -2.95198635279039 23.9724791519223
-191.099871043382 -31.7964574501957 -21.967951911763
-232.770698828213 11.2826647269357 -9.10996140184815
191.556961840905 -24.662797556104 -34.5970784190953
200.146275456689 -7.17370308174778 -21.5210749156517
54.7552239193195 -8.20522990229648 23.4884566946468
-181.835660242034 1.39263188777036 10.2260150325122
-218.303754712012 24.5879567172557 27.4257729335087
-175.339942981198 -5.76558831911443 -23.325036812121
177.126066042787 35.8855063589917 -27.2702128494854
134.004162239235 11.6862142021848 -6.20082990289662
-60.1712978682135 -17.2488867274624 15.3267921545743
190.339024627091 27.3246879923101 -39.4848373627529
214.152530300953 19.7447564961276 -10.6111300886498
-247.004382433715 35.8564421975092 6.72513690291353
194.520936632158 -19.7313336982359 -32.8402777168225
-93.0220317900114 -11.1878918967138 16.0993416029892
1.21601826141309 2.19907081596649 -4.06776298733576
-212.303737925325 43.2163104506698 19.2966936027854
55.4235285883898 2.15562661050044 -4.02599571484481
74.3532086146629 -3.37513581119903 24.4024945051077
-51.6889095949905 -6.53758133741379 -9.53884933009977
-5.4639032100937 -14.6862120776091 0.629278012509076
-204.024148652672 9.0638756202125 12.4612493316206
-9.80623387840573 2.57253430364745 18.7479396567496
167.186810480023 -19.6636366054463 25.8721729140411
22.2252158959123 -4.43121639052823 -6.65064261433763
-223.185248142356 -29.2889667292489 -8.89165026343532
-43.0758559069618 2.67322304284331 -4.79670396814053
-168.951098876406 6.65614436831803 7.40652141967775
209.098266153483 -14.3027508548079 5.47419808240569
163.718109056408 -19.9093146063719 -15.1711095590352
-29.3963798062747 6.6702110748086 3.57891794121151
-205.759984987363 37.2015179148931 17.7172548876756
40.6824614834638 7.42303167265914 18.7896820950403
180.667975275401 38.5133256618099 -30.2298547710019
-244.49216544915 41.358679871794 0.650751559466197
175.522029668027 4.85633235453208 20.2697921365695
75.6280255635449 -19.602218144331 8.8926522669191
-187.805647092838 16.1187568951727 4.46025602933052
-236.14194241343 42.2742638361098 -11.8982915128954
147.348335707111 23.1191445300616 13.6957799055091
185.149431053897 -33.3801173515374 7.83665701589772
-206.284944380636 26.463038047943 20.496305559498
-114.829484310741 -15.6480359925569 -14.4110763537624
176.112247243198 -0.4375025218023 23.9177127275068
-106.405570435593 -10.0729602075518 14.6362389950908
67.8199553392762 3.26513201794389 -4.10575814333694
35.3294441957266 -16.9799904789263 2.77345546289352
-245.424060753859 23.6782557262345 13.5149668740054
203.306005917345 -0.0251249852275914 -2.58800589443664
203.053057600801 41.5427684263278 -11.1181295050049
118.518245489291 9.68533043350016 -5.07648041253361
-229.481407378155 45.6281970643663 19.2599515764259
-102.325125796745 -7.32776892791972 -13.8746398000592
-204.573892787361 -8.22788939810016 -22.1277905518415
55.4907436901656 -16.0189042441109 0.502858204706512
-192.41109329949 -39.4049813075519 -2.79767353249547
-204.530032395457 43.4716177859311 1.2665457315053
47.2069247627643 -11.088094580115 22.2440936772838
87.991769451548 5.46656443784621 -3.69814929414614
194.310297628185 -4.9712258576446 -13.0106212049486
82.0840397958587 14.335800516693 14.0960471683295
1.09012399923204 2.63809094756586 19.5235732992071
148.027380710909 -21.523718115699 -6.08576871538051
193.111066551794 -0.732381925654044 22.1969928377994
-17.3666124484986 3.93414653343077 -2.101926964848
177.772454612996 34.8349003557946 -33.2770049195154
-199.441570600065 -4.01591572360136 11.5786450360883
25.2267343141397 8.76731881126268 6.32596109756476
119.485556184557 -20.472407949458 9.11646723425209
-45.0150166619743 -15.7685675870143 17.6745194385031
182.720000234741 -3.65943856736595 27.3801959138902
207.00791922455 40.2999174582472 -29.1043460447768
-214.235749514756 37.114188820689 24.4394150099703
-159.000952844734 3.56488202833734 7.60040183413638
107.988439779251 -19.25003432708 1.10998310869187
36.6035020974044 -5.87889605251306 23.3096465128879
205.928023674623 12.1801187846014 12.9775703248137
138.106394819113 -1.224917265062 24.2108495335536
-215.025154446037 -5.69074134710801 11.3478077429677
169.08262514599 -16.9765011250676 -20.4648322423302
137.573067134684 -22.1538173095779 7.65620488514875
101.543366890264 7.64135587962588 -3.63750919918682
114.950766149876 -6.3172478628437 -8.27657300540983
-143.848281112989 6.60176254678198 -2.04633065436834
-105.83358147175 -20.9319241792805 5.6673028320108
4.19570011456211 -9.99847943109333 -3.3393724549891
64.7138138140213 -19.4212109101871 10.1278445128475
-139.563793075502 1.3733970003335 -14.1545952717876
110.986588754714 17.6865654545205 3.56462539916304
79.1706687575823 -17.2273900611403 17.042173743157
-12.557226382322 3.54386656063805 -2.65550431896558
-79.1321304036342 -3.46804212053743 -10.5785343584888
206.725442604142 -13.0591016891995 -18.5425830083578
-33.5127690356234 -6.61041529776997 -8.31468757982265
-23.4402933487074 3.09716479420009 -3.47080998851139
-135.956456263285 -21.3263134350882 3.88720796278041
-207.886348927113 -18.8680044932595 -29.1711925012379
-218.977272569919 51.7127809344102 -2.36170601660592
-247.799526932886 27.4900164810639 -0.106716720711531
185.289704008493 1.00992058499617 24.7056825731597
-223.859450296536 -24.3445629137749 1.32274808458176
-210.132779432569 0.732943822997584 12.8112601445642
-242.344943227271 13.4228795866261 -0.243072917211109
-108.318417010407 1.57629439639291 -8.29689221408756
-31.8687652552748 -7.59360440129491 -7.48827345993329
171.137692131273 -16.0981722445923 -25.3348280747834
-207.647402894199 11.0645096538142 13.3415302600067
-221.639132650911 -26.0582679885319 2.27334512685266
33.02854010578 -8.32151094698516 -4.10343781566877
181.875233538281 -23.3103540743511 29.4360415188544
98.0791463534954 12.0287847114678 -0.0997413359602022
155.245610165296 -17.7582975640673 21.3353363844533
111.043491947077 -19.8545461056533 10.7689835092676
193.624211270137 -35.3342960445023 2.77316909611439
-102.642326316206 -14.3652231919335 -12.9018704038997
38.2234473248836 7.5134502127924 1.99129213531068
27.7795859113919 -10.8818708826815 21.9737516681969
199.841254672638 -31.0644278982574 8.50145762055947
-212.027406959099 -36.5991221671692 -11.1585150658414
24.6144007580457 1.7825690758066 21.4808061121904
-159.663091877015 15.4123524850449 -16.0360293239787
-40.8024323251078 -15.2003548873936 -1.18600359573103
-192.597389214747 -14.8848216069043 8.555784819888
-184.217083275681 2.34550737112987 10.0516373722693
-147.001627410346 -12.8892921024296 8.65837799060766
-160.385202026022 -19.2588043003317 5.22798793834532
-128.58204621036 -14.9666680374922 -16.4132020639517
137.007061664822 20.6675079331516 -3.39313761309538
61.441402792056 8.97226979940343 1.49403003185164
-107.054201136114 -19.8095500979627 -7.77858560937724
155.869536885768 0.304207598373746 -10.1733597782806
210.111326759651 12.2955196035874 -8.90101206390591
201.727182802179 -29.0438001513852 12.4540541074
-55.5149263062363 -11.1033472653526 -6.51689700257881
-20.4538009513202 -14.5246399828115 19.3399149465112
-184.832338555319 -35.0494466095975 -12.7032430482082
-222.191255354749 47.0336490123721 18.6074599810011
-229.384803587135 -21.3442544774195 -4.77309197285837
4.52645065005868 7.7346908067224 13.0019549731081
-101.970975997439 -19.7469857925044 -6.41037984765918
-175.217091720686 6.02234443145011 -16.6728064879053
-19.7576756014027 -9.44121709891045 -5.02347970852115
97.3295201505434 15.0891444494928 3.31947497111971
-81.6139201353993 -17.5345317837996 -4.64368417831701
-161.536494288876 4.72224144614141 7.92971304187197
195.8095091321 34.1531917318116 11.1741474228281
165.559547424709 10.650948385464 -11.6108782427129
-194.585287360076 22.8593429418618 1.33659863814538
-133.540275890755 1.95812431852882 8.1583435859358
134.297152225472 -15.2769464522254 -7.92386186246735
-197.940986638264 4.05245359483532 10.9725059915085
-107.016111740598 -9.80584931354903 -15.3256942956894
-18.0676223407547 -19.9741624816686 8.85940440915822
85.4422912961125 -17.5435848456448 0.19043308773227
-166.855193777228 -26.4836173172864 -14.3419389951574
80.6828453088597 13.9134861846951 5.75435174812877
-184.216823626705 -6.77023736687872 8.94444079858457
-55.9458634126776 3.87522868041505 -3.05388771810702
-137.654473060992 -16.1233750366866 -17.1745756948603
151.059876292758 -1.48881592882405 -9.93971863650254
125.298579632439 17.744763423218 16.2540921058882
-140.60457420573 -0.508090612293607 -15.3001432117181
171.029855910618 -10.3292392214277 28.5549432896422
-193.08551195877 8.06421489976641 -12.4964103526982
-56.3848177950881 -8.67195014549324 19.9766427055283
194.88220760167 6.23271146741583 -6.42728253102955
124.912554334177 12.035465583937 20.5487342349814
-57.5355969290455 -18.2236047658815 14.189165508647
-43.2748710665941 6.84129908528126 9.39328537635925
170.552503901935 30.632863013831 -20.3607867044933
162.40317617622 -22.2615298953064 -13.6745069463461
184.746371887908 14.1130803231267 24.4258156230973
72.9153498663974 9.27153229830454 20.0537768964859
-25.1588838594304 -18.3728248802172 4.07383546181962
-10.8987150946438 3.41089036416656 -2.8227959405584
-120.668798850517 -13.213865785579 12.1718150425935
-182.565765001029 8.54740607059156 7.41214585520648
70.1275415179152 4.52886713001827 22.4773700730198
91.8932946160444 -6.28738400463317 -8.10144027323554
80.2612296684943 9.0258179447696 20.5600986785967
-242.592758941019 13.3378498709986 5.13242887959815
-97.9796805969993 -8.56334523113695 -14.0498518248852
-88.8118815389464 -12.5080827931933 -11.2558577983177
108.313151880918 -1.69972313199926 -7.72563122444835
-232.484790016145 10.5423102234784 17.8580352644954
-223.801263900895 -14.1758736271342 -11.4128197687468
175.009135962362 0.186681138820429 23.1347299311037
168.192520686123 -9.55232390679036 -13.534795287827
-239.801034306747 44.3997066758698 13.1473122963144
-158.773071786824 11.4008187494593 -19.262058820326
191.18283553473 -37.3413262963931 -16.6847033769974
188.468199539716 41.8012939717879 -25.4880035215976
187.757009728994 -38.5416495097857 -11.7593269676341
180.843742078132 31.7809288732219 15.8809839773055
110.642413751798 3.96421707652081 23.4706092005193
-157.73703771899 6.39742968044457 4.58777219728083
203.354861328966 -6.82337132209893 14.3615487537355
-2.40644061701958 -11.697822773925 21.2329412737716
68.3076266038017 12.0307589986255 16.2246421716773
58.1234725682382 4.1421080562482 -2.98771426713826
-166.475179397938 -8.54831046341198 7.62767641960577
-85.4566675303804 5.44451620046672 8.99058485937994
178.060941181932 2.98609136467178 22.4737385811044
194.893253386767 42.0790432257428 -27.8006117363038
-159.015777455937 -5.41246371588692 8.90764052672698
116.22518157372 19.0632926617154 4.02204119774273
-184.177436631716 -35.0003800161416 -9.46774407840098
179.14811551573 -36.3875871429571 -3.56524696957963
-244.312956578897 40.4825487781887 -2.55146355449947
130.42163500508 -7.28182498028872 -8.88547302459797
-43.1592487633311 -13.6587413120057 -2.8218449493011
178.147153255663 -33.7322418668907 2.2803642989919
-89.6946145465945 -5.64309136901412 -12.174366597221
-41.5245139692445 -18.3399793750957 2.5680268579617
98.9755845869777 -11.0608867112429 22.8844619156086
128.845307270668 -17.9814776141768 17.0569505932276
-220.756353739477 17.8869049520557 25.5929100776028
-72.2238241022689 -0.15987899861835 -8.03576410174719
80.612487945994 -19.661965976213 8.14926293028764
194.132652488436 14.5701730302548 -22.1602216090487
29.3067736050199 9.4090344539953 13.2285494853751
135.494552280253 -20.996346772073 -3.07335783210685
-9.90602092730205 -2.68222413294146 21.6501510857484
-108.473878153064 -18.8610958319478 9.69146696433735
61.5604336101225 -16.1150063215334 0.188365922931017
-112.549690805001 -20.7363604450095 -7.49058023581662
-240.403808499185 46.2553377268739 -1.29525871744568
-221.615610037475 -2.24978563278138 3.70060841538806
111.7647253277 15.6152034996707 17.177536655587
-219.80404970411 25.4008364222948 -19.9114137857347
-157.825695956647 -3.44928164505511 9.25506680268575
-201.93275935327 39.0231944784659 -1.86117506921942
-190.52725749634 -20.5897891677796 -27.604968215654
208.957889315875 32.6151164944931 8.9703927191948
161.824243458498 -20.9445218697444 21.017208006264
205.819560013583 18.733495210879 18.8128958979864
171.266501729436 -24.4429643710232 23.0472692220718
71.120369980203 -19.366455564292 11.1680801352561
141.169671213955 20.5623082131169 15.4513941508828
125.03317004286 -21.0804924919176 6.60985911252941
-78.7364579936351 6.94674838568185 6.39904287881478
192.318945604029 33.3522158955446 -39.3257597235131
-237.648379162203 16.3379529768669 19.6386297004571
168.942536505046 -27.4388721620545 -18.0391389031123
-181.301803343388 -9.56711698134489 -25.6253187268328
61.1564635888046 -6.52488800373663 -6.7503084604327
-5.5942154509853 -18.231508508159 5.12231890841209
-210.346240198032 34.0269775434804 -16.1530902151778
144.30997022195 -21.5021307403922 13.1595352579107
-182.777396393959 -21.2671383889693 -25.2356572330691
-30.908631195596 -8.32893166548991 -6.75705989334421
-13.7616139017792 -8.167053972418 -5.58594272530971
-62.585183526535 -18.9119644517018 12.7717449699105
174.752267522439 40.8631135032458 -21.0382275089218
185.445225787287 2.95579509748696 -15.6606534627927
-203.394808465982 22.5958915768432 -9.35400129132971
-204.211254241234 -2.20925237403067 11.9160748847647
153.344704055208 15.0739527839486 20.0611350898939
184.628473752652 -36.9732045608609 -2.37435838463432
-205.307833611852 16.8728247983439 -12.1157870876169
186.04011227073 -13.4843757635005 -27.1080235143458
194.403223197872 0.560895311824412 20.4145853428495
55.4463248669913 10.617744662857 16.3240746387816
95.0841507454988 -19.9008148454595 8.26270029398099
-211.776244915917 -22.39059284607 8.91505881875714
-72.5810914622904 -1.41770354375766 16.6613295497561
148.044518909196 2.46297340994037 -9.14596103962917
-218.919473190607 -29.4590676386374 -18.2844088577015
-115.004414996981 -10.5993589230501 13.5084196406946
-219.03427358158 5.13493504689593 12.0702305342587
-208.900138726255 9.01437480335089 13.3211415461439
-97.8570811113747 -21.4363476245323 0.333039040898203
-208.588883172756 23.6213021704488 22.5657147587811
21.3582854871804 3.2848073609038 20.5219436554739
-110.465263414774 -3.33493619188274 13.4722062866685
207.640043939566 25.850542456461 -31.2437690781137
111.645954913741 -19.433759355672 1.07351404953472
-141.583189699178 -9.94409964858954 -17.5439299606899
-152.193006891126 -5.09917497927724 9.27343862731071
90.5634377038885 -0.796359211509467 -6.98205125499745
194.83712568828 -4.223171864213 -11.4127370705544
76.2881902614461 14.5778500091161 11.080822029065
-120.932199710247 0.7212107960305 -10.7432350310253
-213.152617869539 7.65910071260376 13.3322431255442
187.179968948531 -18.3144304397929 -32.2964840386853
42.4278399293432 -15.526196415038 0.731848246387717
-153.781846538114 -20.6371777561996 -17.6493336382076
-147.060302614886 0.269275284969697 -16.2992726989786
7.88155914107108 -8.39926650516624 -4.53428020193076
-43.5247353889496 -17.5497455488709 1.33798058815063
-244.006061898644 41.5720117156106 -1.41489576769748
-198.091839546713 12.0022704599716 10.5655789928395
-28.0025451250765 -14.530459480049 -0.849876051154981
175.385781859424 -4.08196221306317 26.1147834578014
-118.509047434673 -22.4593939115268 -2.05968796022152
-18.0832731786693 7.26453289871742 6.06577175784296
-163.284985957916 7.5800822664516 5.17234590856123
-37.7297034613494 1.28329832583 17.7825930288383
-199.062990576414 13.9553662535207 10.6885361458443
178.285909504393 4.44460420560385 -17.2882729927578
79.9255448642606 -15.1846707529812 19.7206891068631
-59.2322390417522 -19.596939408743 11.5485879773646
205.022156124565 -30.4899348323252 -28.6509567623762
47.9938859838419 4.31785855868732 21.5018696495758
-183.68553835585 -23.042606898085 -24.7028383979939
103.792607657751 15.3877614234823 16.6332662919524
-202.051116490341 -37.8987806681796 -0.574042016878439
-174.260401928028 -9.0836045700466 7.06629179241866
83.9440648975432 -1.94223460917833 24.5004578685674
133.782537623373 9.01704262699626 22.0241281267828
172.596252363269 24.3222179858327 -23.4045521917323
77.163493735106 -13.0994937439229 -3.72790392370471
203.578034028411 -10.9307369147839 -21.7002565709663
98.6905724233111 -17.9806627252554 15.7020840166982
29.112383557334 -12.6896368493567 21.1084661495836
-214.305173069702 7.5606903161907 -11.9231330993641
200.567699373803 -2.97646045165704 15.904055983996
-239.183632073417 11.8544536238263 -5.13891239226944
139.553285250701 -8.3966304501541 -9.44628022986764
173.281206728758 30.3672448364034 14.1951044779082
-20.3334465191008 -17.9530787810363 3.86884579007417
17.8603340906302 -1.95372469725848 -7.29446257294072
-237.415181758126 50.0651529806396 5.36363727091629
181.986603066546 38.4834308956689 -33.2412977150255
204.749044245187 -2.85338429562288 2.27750201779049
-222.862011438468 8.35226965522381 18.4153127674127
-69.0390538265533 0.411353524408253 -7.39975742653302
-104.17103804769 -17.3806198669301 -10.4570701885278
-8.71154649327821 6.6723472376574 13.8446161496986
195.35083993266 12.1278978897433 -16.2966102205965
168.091626653332 -23.2287278601031 22.3303121982127
51.5459544462893 -12.8819365840844 -1.9741408880127
-231.028653336102 49.8456593681804 11.2372496925077
-38.6066682665866 1.21683010990381 -6.20940658210008
-240.968582837955 15.513907745489 15.0402643493879
-67.5909199128769 7.18078830726966 3.72087771662065
178.876351544182 -35.5652775315142 -18.8369671397278
97.2804317226796 1.31631176922721 24.0669906629128
160.36569723335 -3.98440625058554 -11.2471552002398
99.3900023543251 7.26498387717012 22.0982144963528
-234.170733422984 15.8362208595939 -14.2755256978077
176.035269120981 -31.0942933630373 7.44890695414123
-203.753788414786 -35.9498102749201 -13.8444517188917
56.5181778416493 -19.2832004490091 7.81439075619767
-207.596136802316 -32.676846698858 2.95238866807386
-188.345750787874 -31.3187446925479 4.25172268139674
-195.382880317127 -35.8874257386426 -15.7766697986461
-207.970161465869 39.1179698890362 -12.0341937727243
-74.9708056415599 -1.88397649292881 -9.60670170494881
-205.482116273826 -36.209200052128 0.930134007426719
-125.769370402735 6.25059348711158 2.68562161013882
-104.436794913817 -3.58421848334179 14.2030642461093
-126.170940774757 -6.96854653359644 -15.3341488844495
-213.579594253771 48.3651626092538 -6.00988871529607
194.534018731748 -27.8097559303568 20.7133044675329
202.790525745436 -34.3811675041952 -3.42605009826161
200.200176376615 35.8707253189118 6.49142545206862
-164.826101497949 -24.4250350999834 0.152486523385324
185.149105600486 -4.30451563599385 -16.8456343922947
102.339259871436 -17.7348943172482 -1.18353791104188
172.672241670578 42.280129427548 -15.4071414132294
-107.162204089564 -18.3632742117891 -9.98881699268155
-153.633223895043 11.4321653628388 -16.1637978859804
-201.526339320058 6.00681826740434 -12.9904970807385
-247.978474751189 27.075313106388 6.38104037407434
160.615178605411 -13.7964508802218 -12.8214192404693
-34.8877099295042 -5.49076114104649 -8.91493993556383
-80.1371846826552 -20.8464714911206 3.15196052058628
110.472531761612 -14.7438538094002 -6.23336144785854
-119.920413696505 -3.83379984901295 12.4572478642348
-56.3706508555793 -8.80856401112563 -8.57017957615557
181.508176252025 22.6979029253482 23.340774393158
-143.089251930871 -4.42169067131625 -16.5553793177097
-107.575651193597 6.51694466060585 2.46284743692561
-17.3028836199076 -19.9821377799425 11.5898171500802
-195.640959275331 23.1033479187804 -1.07195883842192
-16.3437157302211 -11.1607482850852 -3.16498934676057
139.942837105876 5.61817111682497 -7.83916779664786
-109.964244676834 6.49929316161434 2.50920923982074
-247.267810967049 25.3448768717377 9.23934042024952
-100.557208163544 6.53087675286319 1.12444392626924
137.529570540057 -22.3855391420336 5.41120557138573
-240.237207297499 44.2690643984873 -5.74483755170852
-96.151821562819 -16.1463316547806 -9.88806604225792
86.9334565054656 -5.97931289943736 -7.8366267098632
199.236467808295 -38.681348017643 -27.4075027708421
-102.877178212903 -18.148354165852 11.2165795599494
211.001469162421 -22.6427987979859 0.53256534388573
-49.3978059569011 7.16438894481715 5.35417770947442
171.904199210804 -28.8714291691747 -23.9831230633716
-55.4494534710371 -3.0691721424108 -9.76380137011591
-222.890660916969 -14.2826566329106 -8.6600845392784
-115.713415947525 6.47577963558323 0.757825127380308
-223.404064305966 35.1014365187186 27.04781950014
-137.302075546482 -10.0498653952951 -17.2396687278573
-229.770019450091 -17.7884344550139 -12.4413122266137
155.550114746065 28.9299901639917 -7.11481538465991
-229.013146502817 23.4681389607983 -19.2884803455659
-197.700693641828 -24.6901049882107 7.44239750049274
-108.996346592653 -13.5309097909716 13.6039443284576
31.9957688982811 2.26600670603038 -3.77060329791263
187.690592764119 6.44201813410273 -14.6432395085952
-49.7647436499293 5.68497797518354 0.3071700573325
17.7469795279961 -12.8977244159742 -0.854244766528276
-218.951611253429 51.20299963182 -0.24849354087844
-246.424059962089 23.4461570163725 -3.75884983578193
175.759306185764 35.4226322751175 -24.9445550782842
-61.6876219534396 -19.9153224212558 10.5662946142836
-140.300091994329 -23.7978546586762 -6.72772669349835
180.554891527597 9.14634325803733 21.9877690616995
184.653086866321 32.7790083531309 -38.0615206534757
50.0224234879145 -18.5630062027874 5.04266603713182
210.418733388492 11.4714925330444 0.999275439733644
211.553546677344 -19.6952457932028 -9.66796568624943
-50.3054010636457 3.63191076211119 -3.40308643636523
180.777496172431 43.4204525096421 -2.11556812561486
163.646061072548 8.90311021425163 21.6545002325446
192.754991815789 -22.993759138425 29.0618004663467
38.6052144429715 0.668672015989612 -5.49439847233617
208.304136138508 -12.6448522704885 -12.2008106208378
96.5018810269726 -18.921962076487 13.6108330188626
171.289876226766 -26.8525000810267 -27.7805438399884
202.313320699385 -38.3471421774112 -26.3059913416669
19.6661624971965 -14.1780557170507 0.215174566575233
182.000909534419 -36.6985183628919 -20.3918121526126
173.47383947842 42.8030096497308 -4.01797258662405
180.892469802839 34.3144416903556 12.4416491367099
92.2734977468745 13.6471368755904 2.60564452748466
210.621799296038 13.6345732138917 -11.7071852237639
173.80454971552 -16.7364233627634 30.739409043588
-201.054017697238 28.3033204963142 9.07969652164808
-134.66475726816 -13.1784110212321 10.1518729164852
-219.691028776531 8.40661219224207 17.2530732947775
-196.211252611998 -22.7008232734279 7.07714423128789
177.466305650062 -27.2956076929502 21.2838619819035
189.229161721956 -8.72844012849887 -20.412381202036
192.296899766499 -18.3088391880181 -32.5650643545188
-161.396868170209 7.47975896353165 4.18922818429958
-163.159511710382 16.9408467444553 -10.3329017847457
135.748861801315 15.5816764256643 19.0026693632314
72.422718294982 -17.3212192281724 16.878232105897
40.1065980407286 2.18868234479507 -4.0912676506423
-210.994041667149 0.960684987642438 -11.9730362874101
190.606352080012 20.7479370666299 24.961628623578
-83.1802976630808 -20.9013851982464 2.40731160405783
-167.088918693173 2.72467198720737 9.71401705284682
9.67799625136066 -18.2542333124294 15.4661653947843
210.628704574862 27.7705177794645 -28.1099531113196
209.260931848874 9.72321737876364 1.16848624771446
70.9083847240278 13.5237192005795 7.84800988303361
-193.847834585923 12.2709676582567 9.17420949690804
-231.533337973008 11.7637704350629 -10.8701146857272
-214.066389345291 -27.8218532036196 4.53537627318636
142.508536903866 -21.7349332443485 -3.88230461995946
-183.390259858778 -27.1061709702873 -22.225441118962
-171.936895181308 -9.11654667712348 -23.4300575294156
132.103987395143 -1.26657466907815 -8.60630765107839
150.498310598651 -19.6287386020056 18.0341426175276
196.0881561988 11.752150061199 21.7139023123284
-219.316004752841 -26.201157673802 3.97684582522482
190.770498761255 2.86666333035668 -10.4365126734942
-214.598057013173 22.1281619913715 -18.0023862476138
-172.318790725991 -28.9919081906285 -6.74216745511546
194.937540758828 43.8716914629261 -10.3908216392
-238.842722456969 20.5576778581701 -13.5492957196523
-68.2144379831895 3.22307209509882 -4.20303349090543
201.079084958497 -12.2843848204298 22.6104985040989
-213.617764601235 -21.7123379735927 9.47769211306143
-128.306299025833 -22.109617338297 2.31131464746159
-60.3771071282863 -18.5076561422288 13.6120705525359
199.482003882648 -11.8818556998144 24.1297164195507
151.994824581428 7.02588976919536 -8.95484614702475
-224.662780749427 31.8120883604869 27.8128145045312
-87.0229724620199 -14.3727945637999 -9.48992834315165
64.0661358144663 6.43510828824947 -1.59670313065319
126.515802100271 7.93285155870018 -6.2708020323678
200.914799960242 11.8205257150469 -28.6751666627885
153.235712185732 24.3017884988924 -8.29434520774695
-15.9821928129173 7.20552177346693 11.1581627722061
71.3652608459515 -18.7536768916449 3.88673395704743
-30.1517564918477 -14.3013367718763 19.2871489234934
-122.403779801014 6.06562826382351 -3.0586675039594
-6.04277851889507 -6.79056988084831 -5.95723549586854
148.838153226314 -2.37261749922082 -9.88839872164482
156.431165464335 -0.979478264863013 23.345571893299
58.7642319942983 6.11719946914583 21.1703416897787
114.180282227499 0.540266296651785 -7.51510072558153
-143.760029489102 -11.0152410975275 -18.0075944657593
193.702114874408 14.1520658498842 -20.2677111308951
187.448317699009 45.019676945393 -6.18400745612867
-53.1145065639645 -20.2721517742058 5.84577366853391
-87.7380200047061 0.0990118424476108 13.8132136966737
-244.427441729051 16.3526916025206 -0.0780762367715878
-39.3878140263895 -3.58030011062814 -9.00367979089099
156.821636412591 19.8440576366475 17.877873946651
-173.266514282662 -28.1038895481317 -16.261994627371
-218.527812757514 -26.886595750202 -22.4482524483258
-154.111545964875 -17.8536296483828 -19.4921251493843
215.941014580998 27.2271158307787 -14.6117694470655
137.850698335862 10.4064254176713 21.5861010795552
211.841797514386 17.1220173627657 -16.6442564698423
-36.5911085733052 0.977757752839736 -6.53882318935869
-193.102578807507 -0.0616751867649601 -16.8667707421476
35.5603447076265 10.0028708478286 8.72689281849456
-14.3955299162818 -10.1561787708699 -3.88937824869931
207.763300125304 39.8626374883277 -8.28027425666833
-37.2359954426284 2.92789606214018 16.419773220693
190.307605448838 7.58180704469527 21.7740127766366
-185.083390469545 -5.1563004494563 9.50982639212654
-84.9687844923685 1.88279143014356 -6.72834606850001
11.9931226761163 6.74717835411243 16.5879121128772
-134.52560688336 6.42530962454465 -5.00068847232441
-234.309077021126 14.9899383607713 21.1093086771683
-216.766132463048 42.8334866968961 22.0172985821421
216.002264438746 33.5670138727953 -14.7289482120414
-181.390415427296 -4.48385470315866 8.87205499367493
209.52556816777 40.8344039647667 -16.2135684170612
170.070449901358 30.6049174269918 12.4064643695595
-198.236070098693 -26.5910235477078 6.64245951077484
-81.8692042996737 1.66882717180589 -6.80466621149493
212.577942303678 17.2464601692731 -13.7752661450406
-198.683638510152 -35.6356431520919 1.04655177136758
-128.370685730752 5.18250027667771 5.66427708575821
-111.344582013241 -5.481975004755 -13.3206151968873
174.512650013352 14.1938862010408 -20.3867235285834
29.8417976997354 2.32738942736031 21.4970365939258
208.191663541564 8.60187673782477 3.20785344406066
123.559132996613 -6.63119950217343 24.2629951543727
-165.676521274239 11.7381538295463 -17.6748453263966
203.059696291625 25.4964094096603 -35.4601813957053
-243.60448249717 18.837099479607 13.8123666486337
-228.679293528144 9.59422746792253 19.082550550241
172.60320011192 8.14618985712755 -15.3452264322866
-142.101967890747 6.53222771949557 -3.14869438426972
-73.7914076726487 -12.8218302471323 -8.0184828065502
182.420270540414 7.47665557733048 -17.377020923176
147.035507732739 4.23928144509248 -8.7783746721011
-211.446218419576 -12.0206792418669 -25.8829418168755
-231.464925036211 16.5594141312166 -16.0103740301113
-187.499454527113 -37.0484173132164 -13.2576493676445
-138.157149305051 -23.1139548027593 -9.71353414665636
169.729025006863 -6.41957691977037 -13.5304245882146
181.228720776538 14.5582514106273 -27.3694505522337
75.2759480162295 9.03480961799101 0.0614593423333131
-229.293638006439 -16.7265896291423 -22.1147254284755
200.637666793663 8.96822399019814 -6.86319783135321
-37.4950177230137 -9.1180242032664 -6.44330307600598
-62.2614414113364 7.20506839239881 4.43065924066824
-219.541347972204 -0.373689047746759 8.74366792365058
-70.8394428702384 5.37255857671809 -0.944439581994327
-62.397517175891 7.18792604022635 6.51650868672027
86.2140422119161 4.45549588308414 -4.16186898164758
-108.595421676293 -3.5365155541306 -12.1516991049389
-132.72689503661 -4.22404412823897 -14.9229685335677
52.7544091643817 -10.4486323469552 22.6590520135554
-66.8870764080016 -19.7886044343711 10.6300753451603
-140.975498292733 -7.79621732779344 -16.8680382645766
-220.142127582712 2.3899939356213 -4.95421077679709
64.1659850504705 -11.6750638426132 -3.69516206652248
70.6643803567598 -6.0831759213871 -7.13760370104729
-202.964740368521 -7.21921134126868 12.4505804270088
158.265593089247 -25.9710094455963 4.07083445796708
186.136491999701 44.1490661341027 -3.70914343111112
165.689880055574 33.622193686407 -11.9884374214298
50.1198285201569 8.9848883204493 18.0745808515092
95.6845737421639 -19.8200191772558 5.71644044969251
-81.2222388657931 -20.5742996780121 1.39166739205178
-202.319394822515 -24.6421769415801 7.85051426482628
190.31738851631 38.2377985366957 -38.080074566489
212.879106692314 18.7731897107524 -15.6753242804529
211.552745025829 40.1856761140464 -18.1377661718084
102.387640011315 -18.8246288574992 13.9800642343163
135.665865835528 23.2541352733523 9.64908336025103
-24.4791173484063 -11.3903089146774 -3.35457864246168
57.4147353448915 -3.45416540144784 -7.28434337836183
-200.885429461869 35.5184641952825 9.17074409328795
34.3700230346564 -5.89785328082105 -5.8563132819452
145.601654772984 9.46312399804121 21.9095768604116
198.153125322634 -11.0761838823597 -27.3720499365638
-216.171162915417 -18.9470829303009 11.2903188450411
179.859514946661 34.9212205578193 11.1308632621894
-187.304855899766 -31.9132887045451 -19.9938496115291
-147.400712498548 1.03735756643518 8.49445660188723
-245.450446327542 38.9799446352655 9.05879091416135
196.684315582815 42.695905042798 -20.8626842924861
-32.0528291587197 3.23318282513993 -3.7011327977035
-224.791611957821 12.5445178690666 22.3997593741291
209.723567737015 -18.7333341770549 8.3882738637633
-54.7939957901218 -19.9276971112457 4.22823810898542
-71.3119540557189 2.35500592433416 13.647777738922
-42.045375794361 3.96365652458564 14.8615136507331
191.673254112245 -3.31736102519587 -12.7965864190964
187.139118780144 -32.6172372302359 9.83989370127525
-204.622427654936 26.4751944417511 -10.0288747769884
183.688443915537 -2.62492561610036 -16.3613382419498
72.8997371742275 -1.20647841130229 -6.57837559019125
-228.622153367011 36.2927900953776 26.3708367752576
-226.680577174144 14.0655058247511 -15.4239562021144
-140.148487741254 -20.2789677750196 -15.4173398751668
-81.2693490081954 4.95004759605672 10.0916691644204
-196.486808782376 21.5934066241054 -4.70949821160164
128.969909214309 14.9813220712257 18.9628525851246
180.494932939115 -38.4204487058109 -8.02857460882209
-220.217739940629 -11.3982962631501 -19.8793094163856
-219.121461231249 -29.3088419111837 -1.1155340583207
-214.651164462971 50.5445868324738 -1.10943865918001
-110.188087800471 5.44453917367054 6.20187027649963
30.8448116175286 0.389773143561156 -5.66323315123412
138.337279348012 24.3746628823894 4.69657173403551
155.195940580518 -25.3689431640719 -1.38819262917658
-223.843384477078 46.8594983307351 5.4039044105652
95.0238222145172 1.8918778589689 -6.12916010851231
178.425863345107 10.7956851234211 22.4982578293305
169.750781880331 9.64641137409374 -13.0841269698818
-98.4738684098322 -20.234596915807 -4.30359559317699
146.83239868354 13.1051787499362 -7.83156555059646
179.95521875186 3.78491296351091 23.2669214182262
-156.871846624759 -25.2227467008111 -5.53350611849319
71.0270002930498 -3.0732553361795 -7.07963304259394
-17.5969625075394 6.23703957859111 13.8094874288601
-92.4884564587816 3.91179191074046 9.96397543234142
204.812440648381 -26.6966847033943 14.3562351694772
54.9390122661193 8.29589711475941 19.2991663759308
152.121706226185 -16.2914202211469 -10.827007142078
24.3494364872498 4.23200545504013 20.1366683573758
203.965358162227 2.80515873717619 -0.659528276186466
163.812925300113 -24.8150603170163 -12.9400444934273
212.124434756573 39.4370924843053 -19.7495076656941
-59.5172394380923 -17.5062654148566 -0.482280467157267
38.7278010723849 -18.9145689429043 12.5786060104858
177.969277972261 14.6191569382687 -26.6168305496999
167.396433298308 -31.1774050592652 -9.99727017544964
10.6294001836488 -3.92276405126695 22.64128241842
15.7356406176001 -6.63322820518118 22.8102207208273
99.8495951537622 8.43736924475072 -2.96501241453467
7.14439092854123 3.58699825242366 19.3381127084207
-136.581219115352 -13.6156003268826 9.78213546574715
125.877465499056 16.4355438450524 -2.89143510803462
-74.5539387503411 -12.8453252881666 17.3971934473702
147.049546064901 -16.8198531674562 -9.15151304339938
41.1385003870441 9.17933523238655 16.5471180682829
93.8384695230029 -1.01453345666573 24.5471119763396
164.850551062264 23.1213459842606 17.5851145772774
-196.004122045189 3.34877162939933 10.7805975747702
-138.101011270883 -17.0209098331974 7.96046692315834
172.981805238586 -28.6569727321386 12.9328891641663
125.269226780491 -1.11075251342393 -8.27176657787592
175.45427995035 -15.292987801646 31.2438649589112
154.988861527342 -6.96639943364303 -10.7226121858951
199.307480948065 41.9335625538355 -28.7943391351569
153.998483156677 7.72196252913099 -8.94042345439771
-185.59083458132 -12.6778842741032 7.35378744421903
128.64106547582 12.5318466520923 -5.50349261749505
-161.757708638705 -7.03611804695339 8.38160790513715
148.268218004023 -19.5397044624673 17.7224075407841
-221.794160252797 -21.0076315460759 5.24678663877786
-38.0739340609813 5.88816265732386 12.117357807591
-2.63282302114712 -12.8758769648531 -1.07152662986277
-44.378376435518 -18.7321024672865 2.86386349506221
-133.641663181252 5.57093251591622 4.95238141302828
-161.998723462635 -19.4427471065148 -20.8921006900659
-215.392737586204 -31.2930806092655 -2.56840975739115
-205.354721375876 21.4200881970176 17.0959222097848
-46.000652384904 -16.2769256063623 -0.39786277397309
162.106055782836 10.0476885067651 -10.0185601406267
201.276882083552 42.2009993401138 -14.007285688853
139.988658965082 7.745372550997 22.4509325811404
-221.097551911311 49.3746927679342 15.1824574603352
144.872104226071 -23.3611450722302 1.51091834252322
-159.34377346661 -21.3192269760617 3.60118525372781
-228.342125675138 25.8165375966859 -19.8709011164665
28.7461261565563 0.990101212946597 -5.06124013548753
148.413795002532 7.9496409819492 22.2762189524659
46.6477788187504 7.84729493145989 1.78336434643249
-236.553036639306 31.1951400104343 24.2323992225467
5.47321583839207 -3.17478850328127 -7.61370767711932
-14.2151299968712 5.30527749155505 0.586430171742121
-99.9749912578719 -13.1176108730144 -13.1422091044249
190.155201452421 42.21745211629 -0.277464805268783
205.096649490253 -6.09641309396612 -9.74895558109983
203.717603579907 -26.5763075703279 15.8471119739373
194.882679712892 -25.3288236161036 25.4266103717521
-182.763006427944 -6.9871606642862 -24.6296987377945
-53.7070741310393 2.90355158063378 -4.46567962743291
-89.4288698632421 -0.0279385785579321 -8.71631001646893
-230.711490565904 -17.3120146302147 -19.5300037449748
200.415966882826 13.1843058605272 -30.9721371959135
121.633978946576 -18.3853767991211 -4.66490441728936
-122.709037949971 -18.5323597676527 8.46736572163243
184.28007277754 32.542893622206 15.2485948818459
128.27694937272 -11.791360011702 -8.42951906602098
-210.018131123827 -38.4370599663872 -7.50623647811692
-42.5073770198703 -0.172342488161307 -7.73750929538096
192.000238642578 -12.737776030454 29.7508900119722
-189.398185062812 7.58324052361958 9.30813236364041
-243.593053736925 40.7144962177741 -4.17763621853112
-93.1794021287065 -0.598300346194898 -9.63031597936216
52.7475083765666 10.9667451892062 15.0685199878484
-202.138203192677 28.452606801562 11.9820840708773
-11.9953258431803 -8.59405020997379 21.9194030297521
169.900917346702 34.1054737901059 -18.9221016427354
-0.532198131576916 4.81666492700121 17.5762935204745
-128.133044922578 5.7219450924667 -6.24170681622336
-200.627098876665 -30.3690486435349 -23.4257300172469
-94.9484563748941 6.77620690063415 2.42564762909704
168.710982239591 -29.7013822547187 2.64754559565322
-191.530932820601 -19.966565386265 6.57294215693809
-242.012128790824 34.033171432156 -11.0816335591465
-153.653399134173 -13.4079474827546 7.82500987678368
171.162787500634 -18.3047297086281 -27.2952424138083
-0.881595060598208 -19.4999258310291 8.39206139016559
211.159814842102 40.3466542719649 -21.0413237670446
-87.454801588322 -17.6040977422973 -5.85175058344418
204.162512384431 -11.6796093702834 17.4207743146166
-103.843582404839 -13.0420056467289 14.4144732225664
186.256364186258 40.4687546155948 -30.0581870804887
-131.32778950345 -23.2011112423874 -3.51504090135017
176.032246996561 -13.4020190136403 -26.7751392046912
-194.065422478244 6.45383717109237 -13.1541702214279
38.1174908454165 -17.8879876269725 15.518867495331
-88.7086970667264 3.71855986932723 -4.6920891377084
-69.807579590225 -17.3306825257297 -2.45417280706323
177.912735234683 -20.6448937724054 -31.5644701170038
172.603075607188 -5.75935218257959 -14.3082343870295
-189.900461685831 -9.55549671793835 9.59803173310593
-226.36268972109 48.8171413384342 12.2731906608972
202.195828447856 -32.628759222837 -30.7570690954999
183.104081989243 -23.063724608862 -33.8694661419658
136.146418113068 22.1592510790698 -0.918167538743567
-165.251995708739 -16.1067179270325 6.26895344345111
-139.78071807503 -2.73087449859202 -15.6243222317734
-171.832446973636 3.76652710850111 -19.684941050579
-234.319034783507 7.88922787219995 3.56160899504368
150.414390255493 -24.1887931120384 3.86447024067251
183.783640164302 -18.2271784167354 32.8522157170467
-0.874752946087902 3.18018903764446 -2.80648221201608
102.825596130733 -19.740470963796 3.73383913423641
150.414918109643 -17.6403833464807 -9.79928224397523
-200.675715921294 31.3063403446669 7.98307068575449
54.2030512499469 -19.0988471712504 6.80304243059902
176.390540151853 -13.2463900406054 31.0031703239488
-202.811541725594 39.0548631169429 10.1805346799684
204.172496492559 -8.77842628470506 14.5682706370848
-151.49348785945 -11.070450147623 -19.2171988429902
-195.836736192434 1.60359580411845 -15.2667597062606
119.990108508876 -14.9210219753699 -7.54988466415669
-101.976734859802 4.13133583232186 -4.70025000652027
-43.446775594982 -19.4951442531374 4.48825659833666
-155.092159709295 7.52280222860367 -18.6223625626618
189.004643647267 11.3708768271246 -17.5685863701166
198.44622497851 33.539441863964 10.8999724600942
-219.191382951236 -13.0330890014916 -6.56034495190478
-28.5857917876175 -11.2864410627555 20.7771280614964
197.783530620437 34.8478397690605 -38.2838629021553
-173.83411295959 1.76847549938651 -20.0832651927465
77.6863958804001 14.0745941177793 6.94877156429139
135.060556750044 -4.23129428138565 -9.09748851360015
-204.914513795211 43.369547206849 -1.35249696816024
-34.3443691924735 3.22989161420605 -3.83888710347094
-41.175068971862 -9.87129802367177 20.6914549301416
-191.186171820226 -5.70612647238152 -22.9088650333663
107.871423260532 -11.3304300491473 -8.17680459646708
120.961570208492 -12.600455144959 21.8879858815838
-167.587388393535 -15.6124433289733 6.29564300131605
43.278471028633 10.1445341485611 14.7876829537723
-140.080078461033 -23.5108326760316 -8.7307392496601
190.889408992942 7.19781972312806 -11.830184179932
-65.3476744885438 7.09328188165857 3.54657884067807
-233.628453578024 47.2701559986076 15.2779363354359
173.64179886616 -11.032748054467 -22.2041837262785
-41.7998502925619 -16.5190020094931 17.2204329885072
146.541935048366 21.9621368662238 -6.14123856632447
12.2095168696527 -6.18683399394173 22.7539742058106
210.39587906998 30.5953366950466 -29.4649617762705
-173.181762074153 -13.1794913429149 6.61267005081522
-194.227449176079 -39.7375687389386 -2.73386206617954
-204.845646438583 42.9446208260656 8.76217308623275
-207.629553221082 39.1797705796245 18.6212266547411
120.449330044137 2.7640091294605 -7.17858480889014
-85.4722694848303 6.98864827646338 4.41259420557965
-208.296702283525 -25.347818885571 -26.5099308382329
38.1177056360793 -16.8806395603193 2.54346704883921
-241.855041316909 42.6802779144702 -5.2291471254674
-236.2171348642 8.74762535142016 1.48457636513296
-73.2460713690653 -18.6979964120784 -1.20802069002048
-201.97454221892 37.0374944597061 10.4530810633409
170.933065973431 -14.9054846860106 -23.0006203915449
118.11769457081 -7.97522604764047 -8.26356259552717
173.930477309085 8.6402861912171 -16.6945203209014
-80.5344378357068 -20.395233542801 8.19386406304258
-70.654020949542 -18.9116054416117 -0.297404100164358
-181.037735032349 -23.0298061654158 -23.9896904704379
51.6834945203977 -17.6471187286391 16.0387118232838
57.395698455674 -17.8624044472264 2.95052394064628
49.4468974211164 10.3846768671257 6.08294387209009
136.972955829248 4.19549256797413 23.3603652081407
47.3867337961691 -13.513521321625 20.8060175271427
-207.103161210382 -4.37621035198602 -13.3652338470783
-46.3865442139798 2.76973299687772 15.7426262712899
174.676575162624 15.4464958242737 -21.9293614655138
33.7274993125775 2.88198193829661 -3.29016281937432
180.806597828543 38.1992358014886 6.89416743009573
172.716672945861 26.6109277613817 -23.4635436707962
94.9673987239098 10.1979803656416 20.4883436553489
209.241975927724 -16.0574586576546 7.49300907665936
-201.464335452715 38.8909076397124 3.83269654992644
135.664486651356 -22.1895335934082 4.14704641264723
132.196720174735 -21.6180594045383 7.38647265416375
-72.1732105045902 -19.921254038872 1.52608585060715
207.569577418497 -10.7929107022135 -9.84884674230943
-153.849099947855 13.1304105572219 -11.3210871833631
66.6865892935073 7.55068597978654 20.851270229863
140.43671724481 -21.874697192909 10.7214877090955
-92.2954114739651 5.40629326792473 -2.03527025181011
-91.6310378548811 -18.4597095745188 -5.59906676273396
93.4328375289209 -19.6690589215972 10.4755217096404
189.505801003957 -28.4020635079895 20.187650475985
-142.271671225111 3.36972389665156 7.06599085354664
174.868207746206 28.7028077098114 16.9931030610482
-239.736909100555 42.981568363264 15.2188719363417
-207.321301060103 28.895519087731 -14.8114676349874
182.34633407821 -35.9069766005382 -22.6603024638983
