-92.184134086933 -16.7696246111223 -1.0780884062219
8.82451552519145 0.322393858046159 -4.4298282639631
-6.96040299507485 -11.2680940019722 24.6372125993162
-73.5025934574664 -12.2308096793057 -1.53438960615319
116.375566147825 -0.771448947550097 24.5913505146262
184.262806792827 28.1673297339573 -21.0306704318631
-13.0366040810289 -16.9253230814101 7.76725180055194
-47.9428825911299 -1.47843447424993 24.6966174840501
32.9283904762503 3.94405827207536 0.071683965330866
-252.77492886513 19.6057032570656 -14.6492222863962
-226.150994809722 34.4570081590411 0.889392289222773
186.009310176364 -35.0912490740847 -12.4531406499339
-224.779902581187 -10.6131042802418 -14.4827209871737
-222.974304772148 20.6195185022195 14.4254915703749
-126.848662508688 -9.54831018270967 -12.6932963024377
162.384295919769 -19.1157956751398 16.28087650558
-75.6716019410973 5.42438781345544 12.9855219379894
-217.564292383161 -14.2305242510786 -34.5097299291296
81.9374716114226 5.72656200367568 23.0038519460176
150.02276119692 -12.5289701478229 -9.56416104834273
-173.09559017094 18.150975088087 -11.3068474550557
-138.976351171794 -20.962014218665 2.14741042452031
-66.0086890596039 -2.25462678539999 -7.25895333065959
-219.815582822135 0.178220392435556 -16.9808821907903
191.360706360288 -3.74140429313855 25.849955014341
172.689597102043 -11.6328409073892 23.8863060009882
144.140121419813 -13.6000360200169 21.3026410147898
4.81579574364862 -18.575375789708 13.5183389754719
203.823949535746 -10.7897817449081 24.7122260626934
-225.645479242918 38.4406343660188 0.0892896574531918
68.4670648191403 9.7028429392581 10.8112044095334
58.3339476319867 4.93185730751232 0.409350295287166
-210.318781959953 -13.4814464479478 -33.9738370396571
-125.290937238169 -21.0917824126949 0.921831112030792
-230.857308819797 6.94599782691061 16.8903602933221
-224.294194349791 18.021542193529 15.7899655305727
19.6549257105013 7.03602584180974 12.3657341226335
-130.979914259911 -1.58908315802044 13.5480905466701
-258.786217911201 27.6827122769557 -9.84748931153224
-221.003549354219 11.8858547084081 11.6719512870869
-84.8697781536971 -7.69946948223943 -6.63063496754651
-165.045081152649 -6.39560120362737 -19.371645916675
218.705542234721 -23.9435383216 -11.8642898192681
-234.55886413175 -4.16739230336272 9.54199891902418
-231.188723856317 -27.6723873498082 -24.8729887598734
-211.390094522066 -36.4649657782632 -9.48197595955649
174.54357186575 11.0522396117249 19.450388849652
-248.38897184468 38.5054883110796 21.8263458835268
146.121166596375 -2.79820613104991 -8.4419286268912
218.710829964115 23.7919090086955 -31.9349815360197
-242.540578600663 2.91595001466236 -0.561217066871087
-91.4770850402784 -17.8143738612009 14.3014025374099
-190.619659363022 11.5449839246078 -3.34058956194572
121.386103229838 -11.2562399441967 22.9567367367848
-225.809204459787 9.28111678860149 -13.3152914735232
-234.557444638225 28.3042158601491 26.4371131565947
-214.640831223088 -31.89970174426 -3.11989201555465
-246.227087494911 43.6289256287372 3.27955885409625
-27.3051742152041 6.34118901190766 15.5923662345193
-133.100805865449 0.561609953839238 11.5722077390369
-116.41225969412 -7.71793800259065 18.4848509488996
-230.227726603266 25.8833500840282 -11.714820788003
188.920442080569 -29.8842692672425 13.9432629637676
191.423366055265 13.5032120054676 -20.9928547203327
202.052170308527 17.7621095385786 -31.440599621544
-242.371226670089 21.7683025123668 -16.9487865026661
198.85972897558 21.6060168143462 -37.0543436230064
-237.51443079929 33.9460061756748 25.6699942908824
-226.115099234843 39.8302325934436 2.04191822898362
200.511049954806 -15.8976303014323 -36.9928174165154
-71.8355689059569 6.18184129427414 5.73383261995537
-123.365675790486 5.37362902898445 6.46690427735038
185.046283950479 -0.610095840288028 -17.0304328288446
191.966720665315 -29.2721363180638 -30.5798974827447
-77.5992821264487 -8.30582614516095 -5.13658258904136
181.662864898346 -14.8565180051444 27.2953384444793
-208.290068507764 7.39130564486185 8.02099028183999
203.869773375918 -34.4744826985765 -8.54583545363651
171.765352693761 17.7345796464357 15.0747251549612
-182.458120689488 -9.5538777643035 -23.9547483095441
55.1238473517341 -3.85289531600999 -4.86152042916725
207.925156928077 32.4878459925482 6.41242319936215
-248.480390418879 29.641090240199 -15.8803313329396
169.33402757362 -16.8727236215983 -13.3864698457685
56.0252722555192 -8.59050357890142 25.3154854675654
185.352722237522 32.141351128332 -19.9322743337953
-243.62824833089 26.1914143509954 28.5939652415127
-229.755587249771 -7.28135559454637 -31.871732474248
-225.898203959878 22.3811868674334 18.1656116627805
162.333830840651 -21.7263330808433 5.52168735368552
-213.11682390622 -5.18360042494311 -31.9835943596063
11.7697382937774 4.29919396371254 2.02330169216968
-224.479329955764 37.5647195126866 9.09408618778574
128.475950270142 -18.4137291026659 5.74326082874941
-75.8375166453646 0.326824959287227 -6.48988191734083
-236.851719461521 -15.0987735867764 -23.3571750063692
-111.719157582993 1.04830036755418 14.3665723115038
-47.4300189331157 4.46054608302872 0.417935402815458
-193.150201549284 0.333724215800877 -25.957245504118
58.2082358596922 5.93592747591024 1.91255934425831
-226.663732598648 34.7371842714556 18.178595005185
-217.042717990991 5.75084828730273 -14.8443537611746
179.470519269267 -28.6608800591472 -2.95573549089132
-106.043020262638 4.23313334846701 -5.03214261883502
164.387734166586 -18.7693385613763 17.7036970095649
109.434640134867 -9.2921902015966 -5.94251606793362
199.719801035772 -31.9002555435379 -34.2585802143487
-226.662451169543 29.3193501071928 -0.747593109412085
-56.662272961487 4.97646903604488 17.0262791791252
-140.77963120317 -14.9798571776729 10.6559142830062
-208.037416952065 -8.89445420324962 -33.586109216751
164.266431590364 4.09526022006835 -8.90087852546121
98.6525871951152 -7.74245973954809 -5.55780088802765
180.881927494826 -4.99909059594338 -15.851301874511
201.808138826716 -5.80436490413955 23.1281076457848
-235.69516569191 -10.6672949623261 -30.3241460132798
-263.22382835803 33.1955905344719 9.23349645445922
-244.343584620146 13.8250054223447 26.1402587960323
-261.691929204714 36.4741420892855 6.92460979941657
-196.453107252475 -4.88253459485105 6.38853955070062
-168.50074422013 11.6838344480438 -11.2189296658633
154.632288657329 -11.2120898089994 -9.9984055075866
47.5658574813914 0.0574471865211201 -4.31734122730865
-206.585903710115 7.23251718796326 -15.2798614439886
-236.41779090852 -20.7445690516118 -27.1257531269816
-124.154400805753 -11.9471193724882 -11.6097285118369
-63.6369594645455 -0.604925494908791 -6.77827141959138
-193.444682376983 -5.22028960548966 -27.7896616789824
62.1754387802135 8.9814642046111 10.2540595843122
-228.28687410732 -29.3036956910096 -2.28177634259864
48.9345810694595 -7.57948257889942 -2.32020730552257
183.571850643729 35.7998850454944 -3.11207281962314
209.095800693239 -35.120708161641 -22.3107644970671
26.6089200594475 -9.77608498966442 0.0193473767348984
-201.480779795887 7.90495691556432 7.02985112897532
-121.260766964217 -6.00975265494201 -12.1045429854938
94.2397987244487 -10.0004522428173 -3.95431245000468
-140.411194668864 -18.0200539835671 -10.5630058194938
-235.689140406449 -1.47239508313062 -7.27321595646998
65.0828202767732 -1.12430991823668 -5.01529246985509
175.339652545005 28.1293244680129 -9.17410179156958
14.5794831394632 1.43840197890354 -3.40718473295459
-242.90374996627 39.1520006059348 22.4236924651824
181.760000635968 37.2271138151593 -11.8282532064544
-76.7791019424073 -17.2595595719687 16.7813111549925
196.514775678316 43.3882623495956 -16.291388544584
174.387018424498 21.560750395896 -11.4144221474331
-159.211788820012 -7.10942303697176 -18.5423991309087
178.400536070518 -27.5776120990205 -14.8694088819695
143.985157794706 -6.6030448498383 -8.69136263685614
-190.812868649891 -28.0004702918837 -9.30964599928666
84.6229257902626 10.1922477653994 19.8135858201687
-197.166798093293 -16.643485072135 -29.0354322289088
20.3712865921822 -6.09395767061463 -2.56451106266925
-168.857101213441 2.53457096217515 -18.0134750200038
-262.846029294069 20.1665654930352 15.0831049478388
181.070449603723 -20.6561023861879 -24.1136657353642
134.959098565915 -5.88415335521339 -8.17675250982203
-20.3994963347356 -5.68681893112587 -2.93724038904011
139.700303143539 -17.8195959059551 15.3581312546719
-219.348976782768 -33.8089278105378 -10.0941173768094
60.3482858004849 -13.9083409994605 2.15460547378725
-151.701329116495 6.25758494199789 0.0401883890751677
139.314002226317 9.06068463661415 19.6772019458952
-231.001815210749 34.3057337645659 -11.7208319886552
211.943162001393 27.3216190252638 12.2251421549344
-240.898754486485 7.42128558628901 -7.72229927811654
-231.060244265722 23.4545453341813 -12.9047924792748
154.040189864688 10.9791946319626 18.3970298599915
-207.382538356336 -0.517996450855619 -22.9789156809977
207.655884052086 19.911516022845 -36.7464963790396
24.9389417111487 2.87612778778675 -2.09012333718903
-119.821771569615 4.48257724437884 -5.16104536872984
196.757454941878 13.9341200886712 -20.1911555708593
88.3789319865199 -14.5094628350284 0.820405938797857
-219.455156514547 -9.82435507678579 -33.5900820157192
-221.611203679447 5.98552605601132 -14.2775212181444
188.966255074035 -14.7314329042684 30.6326929588587
182.602916687967 -3.82296875937144 -15.9999840372054
-234.640211099291 -12.6551526990166 -10.4776039597093
-112.120700675746 3.23161956613836 12.0487871462189
214.903926028479 -31.1630008542387 -27.3031628945928
81.8967441472513 10.1426307592134 8.02307399359803
-47.6234793078592 -19.6276435412371 13.4169041263565
-242.443465452661 9.80746678683642 -10.6461490725694
206.58525084131 31.7632308457745 8.00430190765352
-199.625858143736 8.88709634766251 5.76773076422168
173.712138510104 -11.1668573619796 -14.9851362448953
-228.85339922567 33.67778643619 -10.407362413593
-185.343247057543 -22.5303957126323 -19.2193194629262
123.89013917293 -3.57458711587161 24.7954467871723
-188.160617574838 13.1708173918694 -5.87847023039218
17.8294720635083 3.43869164957787 -0.0728864523583704
2.22535741798229 -11.1737186027612 1.83543375822324
200.265004684181 -7.56638799428637 -22.5550090326806
-146.522364898551 -16.1657275270036 8.60617717201532
200.328751279375 8.95077966080398 -14.8410694167101
184.280119910011 1.26312461859062 -16.3086011748711
-195.251377227898 -25.0947643301436 -1.73256242177711
-237.9075098099 -18.0603408931054 0.256887468739958
10.0648366597569 -7.36527484308649 -1.74862990846331
-6.91326632797495 6.05261991266911 19.4488281830124
201.820786218228 40.8406538984225 -26.5167545495386
-14.6365149157836 -16.2903227483496 20.611604733481
199.03524875607 -34.9046984470049 -4.31724370766457
-26.0443545820372 -17.7097302448287 18.56575932073
8.52140842677286 3.46216470311874 -0.274999628505588
-92.5316587559178 6.37113709072518 6.14634589331504
-186.044039714499 19.6046638367123 -17.0058908949167
-73.826653597973 -19.2282594816997 6.5498776489004
40.1761134057121 -12.9521715390716 23.16687485792
225.070490948311 34.7953506656794 -11.2314784698111
-18.2524058638392 -14.6408470967895 5.12174582501989
-232.890481076943 3.46147755772286 -11.7954847168142
-141.771251856961 0.508043504498041 10.2128535983249
-251.721110097256 40.8000200407956 7.43402621549126
-135.613988540807 -19.278116431839 5.79389452726892
-71.5847303972111 1.73122340729132 -5.23169841914192
33.3691363589916 -5.47947926731202 26.2799343793152
-258.558189455298 33.9625649125944 -7.06779518535528
-228.639111008206 10.28873958178 -13.2923425135913
210.432113618944 -6.37065692301901 -13.8118047064754
204.545650364257 38.240368121278 -37.4006295725794
225.501980306181 34.3911671073089 -18.0565173689236
217.573948353387 -26.1070517720935 -24.0130576961222
207.545875840944 -1.19567106929006 -7.93458731801278
59.6325445745642 3.46794574571467 24.458688481173
152.73388390231 0.958576685643278 22.4793556984074
61.4315955616333 8.64192658366596 20.7203336238656
162.405531609897 -20.8777286166232 -6.10666860734809
191.272748709614 -28.7895812375759 -34.2224579239505
210.314906407838 33.3505105375799 3.27581035604461
-197.291286385927 0.954028194101038 -24.6377166687938
-240.399462924679 -0.963217942651824 3.66883856187066
122.416794500874 9.37711804228267 -2.25837096399935
-228.261724515702 31.0668775585616 -7.44098339077624
-209.412459009685 17.8566388601016 -2.77972255900037
-32.4654786501418 4.40858826802663 1.90380411328413
78.087230090091 4.80183696921149 -1.02001518433284
64.3921032762536 -17.4052496534932 9.21205632888351
36.3678561611636 3.04813828215364 -1.91463639941298
-239.919194292853 16.1280047285221 -14.8788058020567
-238.114712455767 -22.5593743121912 -18.9487099033332
190.481661558969 -12.0241642931349 -33.6312899090548
180.420033563822 31.5002345898483 2.43754416313478
-22.3078950947225 -3.24387304760842 26.2639975461914
118.206975207442 -2.6297112342915 24.8726106820664
-175.538597480015 -12.4296089126796 -21.888722190422
109.885541607445 6.25871364779427 -3.2765028752307
175.583017629543 -25.2050683321033 10.5153092180167
122.594056417013 15.0772939828244 8.56794005878223
217.67824581093 39.4968039795669 -24.5493018799367
-172.977751465162 14.7071997009782 -19.2957645301049
205.937804830316 15.5604839089385 -19.8683627544414
-68.3533233478746 -18.7939605168267 14.4273336453687
80.6732358266051 -4.41007527010449 -5.84261428422276
19.5213518286661 -17.8280378203225 16.3432823100207
82.2186322988503 -3.5009182266348 25.6524026224666
-15.8104591084511 -11.2683719320537 1.98067118475789
-39.0598658018629 -18.1982175058504 8.02152490964648
-103.154703801953 -19.484317340874 8.21852393887335
188.702679717087 19.9266642697966 -29.2567739830562
-241.338835445904 5.15693991843276 -5.91957824930704
187.494500472165 -34.3510600143471 -8.76916721480389
185.324208216582 -10.9253938489501 28.6434553709222
-148.214463850221 -8.18108265238738 12.5750621828623
-49.8898578186734 6.23378922421895 10.4112081782723
72.6730378723654 10.4921343613146 18.0761451042457
200.079997886119 -29.8511122750574 18.6966045255504
209.738785428583 -4.33854759399966 13.8841121702362
-62.7362359598365 5.92293531188248 14.2492130168241
-246.509596846034 13.2944463850094 25.5051397450148
186.629156012223 13.3402449051785 -18.7967478892973
-102.796163098591 5.35228236533381 9.34480173786009
190.156645794641 -20.9055211692667 31.6866527512736
212.40878254891 -34.1480598231514 -10.474660414573
-117.280521733111 -17.4462339803548 11.5301620743374
186.260635013799 40.7700165786342 -12.0864081672562
-119.523307973846 -9.8572715146696 -11.3187517263076
167.650429981956 24.7881702297088 -5.86638343103958
210.687039677568 -27.8302574377429 14.0745716500978
-231.072534195912 -5.04766092763222 -11.1654181263776
189.385683866905 -1.5728155032769 -20.3144614257407
38.5924942804585 -2.3046740405509 26.224269233064
50.1295226017592 -1.20109176478038 -4.77270048825376
-215.630317501534 -3.60908525718479 -21.843057098195
94.5142010544346 -10.3917249625723 23.8434550929443
-224.420135254461 36.702468474521 11.2173690784261
-187.402813128013 -3.7249389064785 -25.2534424674814
214.789341286969 -25.2308915991407 10.5840858969363
144.430354326602 16.1563469637962 12.7729927794319
215.212489120407 -18.7706059095373 12.2094108561104
193.671905311863 -30.6699665756984 13.134072701805
161.50816906387 22.8742079414773 -0.219756485552085
-41.2815234235214 -1.5196350536786 25.1242364925994
-228.408572792853 -32.2455395866416 -12.6664737193324
-41.2550030395572 -10.2061980593384 24.5231612604015
-219.567559869408 -2.03354765474581 -18.3547864380022
-247.590936989481 41.950648898865 12.5205542971496
153.153928105357 -1.87729793409131 -8.85569851383339
154.681985648725 6.33657182185755 20.7417345175008
215.227239564451 25.4382420222621 -35.2847495172442
194.021095361815 6.59851376263813 23.9086455140232
201.72914693107 0.966185198952768 20.4736077952695
-163.027070996326 8.0551662270707 -7.50756820367994
-261.129437754429 10.9087818762757 3.59746155222955
-224.165846526199 -8.19286226767787 -32.1684833913675
116.508639815295 9.69414495612443 -0.844589551959983
-240.252762695729 26.5284762166042 -17.2499569011786
-138.031121721879 -13.8888163717526 -13.2825800334204
-238.279266771593 23.9800151971134 -16.9386854822394
-78.4786655018774 -19.2249450519597 5.76455613859365
-45.5677320217527 -14.9865779259098 3.94140453634712
69.7018407654944 -2.29616371521338 -5.54594399071551
-38.6988279539087 3.29752322897901 21.2436126589702
-107.913961511266 -7.91419776187015 19.8568293570521
172.705255526402 -17.0403426255642 -15.5155224728415
213.543394020983 -0.105079531783852 3.982150006528
180.800747731245 31.5326356827569 -12.3332928415978
-29.6249548943004 -3.98610262123072 -4.73363495288203
121.331069028023 -18.4499054281582 9.51417071553887
210.311425978026 1.7537672032297 13.2640973601099
-137.739238141444 -17.9252767096692 7.67098451157842
171.476953079056 -4.27729855494319 22.0200279859516
-5.01919838976175 -17.4337211916098 8.79077205774612
149.179426770645 16.8047573786823 -2.08294170207782
22.6442743856961 3.27879398182842 -0.856877475390934
-247.021255338484 4.50914566020904 -1.60877019299756
-119.076099504728 -16.2937762018271 -7.36109953012242
217.185226683915 -16.6570654531699 -0.280089304615783
-118.259584394281 -7.88094811476387 -11.2664409378916
217.319056093886 -32.4382955139341 -13.6444798574441
-172.513039844846 16.5443998833735 -9.65224006531323
198.973625338677 -9.76126037967229 -28.9609157992858
-245.209129300354 40.6728369524597 20.3986416905572
220.944576582725 11.0324166197801 -8.14240999967116
72.8298076440754 -17.2101791595464 15.5827789586663
-104.049554949959 -6.92427003745817 -9.62989772996946
203.941360140928 -18.4554543248083 -37.147838043731
-32.0988837954524 -3.58940906772162 -5.04584771790383
205.834831002012 40.8508504895589 -24.0256864821552
-7.41019518087751 -12.7242906654722 3.44942411552625
221.534922604028 21.7254412413547 9.15229969241096
222.213210703243 17.0810061691757 -20.6105138715783
-165.544224626983 -20.304219419751 -14.1921983582573
-200.789672399993 0.896404965043952 8.52362961787951
-235.818961689384 -7.78934832682953 3.59235154719103
183.36730760141 -10.8470513366176 -26.8130851875041
-151.867117053544 -22.711191642481 -5.93059077244611
-166.66806184735 -18.9259887740878 -16.091820732871
-30.4575460279613 -6.99912998934148 25.8250575099943
-4.78951521807085 -6.60556874134835 26.178920951056
195.360521789454 -9.39195537479708 -29.067741948792
-162.229665448307 -10.1635853141539 -19.4115007464565
-180.61439223312 -13.0973614273669 -23.0931887272063
-120.103094841173 -20.6842877118075 0.442288098392212
-262.647113890029 21.1804948381302 -5.15249835964838
-182.751386163217 -6.53566615039741 -24.144498888337
0.794113815483937 6.99092530873101 16.5287962152693
-190.669296686535 8.12750622722695 -21.7457481184469
-192.039226063759 -16.2594322949111 -26.4231277912091
124.04944094696 -18.4093897267885 6.85692611036421
-240.756361703618 3.2276786395966 -3.36873276292721
188.962300126807 5.37601463055823 -18.7189912727958
-219.909335068997 -7.10630768120347 -24.3113719206367
192.73862627629 39.80408404976 -31.4736387602014
-21.5762062110607 -18.1113347769673 17.7387476760287
217.980145679508 9.69069386532581 -12.085834445426
-226.277445472011 -3.84823451839678 -12.9724803312533
-167.790132271391 3.26830635305951 3.28371718389315
202.708862556462 18.1150585543305 -30.0944630597376
192.498168866391 26.0385981619723 -35.3483247348039
105.374835315023 -3.87311519449075 25.206020473571
154.392641429474 -17.5824910530016 -7.8975349890056
50.1602073267777 8.10285743698279 10.2306594581935
146.851372008584 -10.7323362435718 22.8108822015956
117.375769166737 -3.7388361230106 -7.05644216229727
-55.7630154764497 6.04447184945759 6.93533539602162
-34.5321213900905 -13.4260949536233 3.31385700616908
-134.51703692682 -15.5346407279802 11.2535898913267
199.704446174438 1.58618571322262 21.7281095816717
-65.2228271050317 0.399033910798897 -6.179577298863
-245.005222176295 1.05048884035287 2.93040237208337
170.051310521534 20.3557334806367 -11.0997751524521
144.030859878243 -18.8981935395973 11.3539732725965
-52.2016179940512 6.28044543813008 9.68332661634755
162.956827668474 -8.29135313814604 -11.042213155514
-229.339969545689 21.1262541219445 -11.3253548997367
-12.7077109750112 2.63009885785533 -2.60090419272243
-50.5561281911729 -19.1840638461895 14.8682094827982
-222.345735861229 -35.8784283131534 -15.8530981583187
203.14916920972 16.4688575966111 -21.3850774066639
-198.439811757711 -31.351650603754 -18.3349695525592
-68.6589215968981 -8.04961031096373 23.9205369746648
-253.482328692561 9.75276271443809 19.7029205856157
-238.087282894634 -25.9970733336244 -19.8623613387749
19.6036919003023 7.56790822373873 15.8015522781756
23.2148483057623 -8.29356188436753 25.7782292182504
-25.3008783946773 2.72520094285388 -2.54366758223598
-234.075287754819 -1.61348625771985 -8.46604635121883
185.568042069865 17.3834635198646 -19.979249027053
-235.887912789451 -9.72671965164581 -4.72172239119718
103.430552301166 13.4056394483558 11.0448589879428
219.798801700006 8.61691931040442 -0.743494981331773
203.004835388083 -16.1567466452066 -36.5362571710032
203.342317133878 41.3167128090024 -32.203241275137
148.046221678663 13.9440240383023 -3.46545250879729
-170.690860360677 -18.0293199616069 4.0777158183054
224.761850855697 30.435184168538 -22.4855524428402
-128.561551919435 -11.9288243564856 -12.4636577053396
-31.7116665044713 -15.4060882621359 5.11512024396816
42.4416278036092 0.47805605443761 25.6460174422726
175.889339960276 -26.8817250882251 -7.06795556342717
-51.4895695767157 -19.1040058887494 8.60808463081196
118.214304214618 -6.19514339480433 -7.52061678352547
-172.224879197368 -21.2140382179412 0.908733914006182
26.4589715217248 -5.50466640768712 -3.13898925211443
-128.841952873462 -14.4771907462055 -10.8665143088945
217.067206702897 -19.2553189300092 4.9319400602481
-200.864660243835 10.6924153115416 4.23073068138327
-36.2303479848453 -19.479623364382 12.7462468690711
-180.102724588966 -23.0366131456784 -1.34187610985052
184.857316291872 -31.5171081506393 -1.97513441662921
181.475912507831 15.2374629181728 -14.9279639528341
-162.59646595833 -12.8095094381182 -18.985398428702
223.165830673882 26.7951416695234 6.16011254559535
-229.541828241651 31.8375610254817 -11.5808350793166
204.204220803977 -6.83676240677365 21.8454873780989
115.909344640099 -1.19674691440771 -6.51191819024122
216.516332171837 25.5108087311634 12.2992297210754
-60.7918912172582 2.36224504621186 20.3148874574497
-158.261033370508 -21.1050697142474 -11.2820902422613
-103.44428917032 4.58575788825737 -3.80585093159946
131.065136651045 16.1830107310562 8.91288637703592
202.394217152897 -13.0868135238751 26.9943698220072
-86.2407904435829 -18.5966952116102 2.99756891295403
189.562291331534 -19.3470925304127 31.1322611556397
167.02290831464 14.7456291368965 -8.36364310422278
-193.628880863322 14.3323200593565 -12.4276824286266
19.1482402254427 2.55647464969827 -2.02444600544295
226.358346471437 24.6344827228245 -2.56308924962838
11.0066674135591 -5.00370613998318 -3.57768164945924
-247.371748555135 13.8933564037829 -13.6818843562212
49.0000650099223 4.60474969419978 0.548920504708708
179.52120959394 11.578295980017 -13.3380903890029
177.436272036348 -25.6790840188225 -14.9311822680646
-160.709674164268 3.20776195484103 4.30913086599397
64.1624187330501 9.80700625420246 13.0590687785447
51.158049183891 8.77075240858297 12.9547796756812
220.423545254904 11.675328352121 -11.3157765340517
-218.217401908772 -37.070308735209 -17.3228049953322
185.819904426985 19.1685065823537 18.8218239908152
-236.286196697298 -10.4363081791398 -3.28068485443743
-123.809369048976 6.39396486061865 2.84294279473318
-243.978076270328 16.1964276180954 27.2208943932055
-66.544763000017 3.16110209390759 -3.99488806496908
186.333808275476 -7.33435302620672 -23.1652958478338
222.041002952144 28.4478942558111 -28.0448075469301
96.4031746692287 11.8487292484901 17.6282985447607
-192.397543831097 8.93085734348192 -19.2189952010766
201.956196358979 41.4783827264106 -21.5880667270074
125.21033935141 1.91663039785731 23.5961506653068
-111.812172243029 5.81486781724285 -1.51456189256835
178.815653652758 -29.3996517128163 -9.87628497870539
1.20658542519707 6.35526262314091 11.0613473836537
179.205640416885 -29.5844651297934 -14.9805426946875
-210.901100871975 -37.474916902208 -12.0470350333321
204.402087539367 -2.59370742143973 -9.27010259575737
-172.903074679143 5.37044426992411 0.621552545305911
-181.018610793149 9.75455547245629 -22.6889672046734
216.573801532052 -13.6250359244922 -4.26987569362417
176.345857574265 23.4141469501186 -11.1924938673394
66.516937621264 -13.3820307690691 1.11823501841347
194.400202573031 -29.6799353493493 -34.9732398862496
213.089020756109 38.1963908981262 -8.57190041085704
-193.085433929341 8.73167626563935 2.94769741368169
-214.615149414777 -37.5856696372693 -13.8493353800827
162.590839958197 23.3019046825939 -2.17615897578541
-209.653631423183 -34.1988034879748 -4.19914411545688
-77.0576797588916 2.0779704667777 -5.34237240015928
-222.536545363597 -12.2276256226674 -17.2249561901334
117.622162488799 14.5011678283029 8.733297965448
164.91835254061 4.60240366706328 20.857801767019
-236.611141647404 46.2363217113316 7.81746679629724
-132.805468242374 -5.65432017686912 -13.7949778349335
-204.513139486863 -1.45028019658071 -28.4335064656281
187.125842661903 23.4164132257732 -29.5402950157155
90.1115889858145 5.72521856840202 -1.19449302623972
177.646397597997 -28.1686038153901 -6.72293938122337
-55.6060654594912 6.29207148399778 11.9889281741284
-206.959996480798 5.3638656636809 -16.5088034462385
-66.8372001278464 -9.79620225057018 23.543632101658
-0.779625959162969 1.71034672167729 25.0836284525395
-206.777333207102 16.4128948083743 0.805568152855429
-213.552536479617 9.78345064548259 8.97870360205742
16.3133023508874 6.08043872430583 8.19883082461492
91.5689747667324 3.06249513035792 -3.84519528569582
-239.085734044195 46.4103276983544 9.43682399901328
-164.464221580204 5.80380709633713 -0.0749005596814878
-226.078010185336 31.9144324960036 1.50449096234818
-197.144674995266 -20.8515868921283 0.936884437657114
103.688227873776 11.4063371768457 18.3892912194148
11.3634049473118 -14.8525668255398 21.9780136123075
204.505827273117 -3.75682519182017 -10.7270546778986
-234.356482121913 -6.708608203267 7.40073842211193
-184.335650160182 13.6964812442986 -21.8344323651281
48.9801568416599 5.6904400357873 2.73679663109061
-215.682277972734 -26.5621881249744 0.0811637320615266
136.582676233198 -18.8300881643704 6.90209930253933
-156.824333954914 4.94667926218915 2.51542818593006
-171.777452647627 15.8537709219759 -17.6678611961534
9.46352938841671 -18.4048344856357 12.8466907416211
188.981042601264 -7.21000949570013 -25.014967304539
219.516478675018 37.4620268630301 -29.3078919473565
-123.987134036744 -1.42756591099473 14.5443372727132
-77.742744260386 -18.9472497939218 13.0888068484621
47.3069633155798 -13.6838262241073 2.73675668637601
-231.92909831102 -24.2289334695733 -28.0420950954971
-242.199095746634 0.914798337579262 1.9552051497477
-130.727336737736 0.706897130782423 11.8598241471919
-213.874488429463 -24.5479499016695 0.535168338679071
-78.6079575361615 -2.17897044778786 -7.93452111573693
191.976159190838 41.3951891568504 -5.06903899400286
-227.325135150822 -13.5693125181673 -35.3083681079399
176.211843410018 -24.2934524515487 -14.6570581797829
-210.246091331964 11.0269198848998 7.63404874774083
-248.783373354646 22.8269719005273 -16.630648254184
156.493634864134 19.4219249685783 9.44350054186938
-208.819653395312 -2.71922338853027 8.41663619501003
192.35290691184 40.2674495987789 -2.43830942703065
-228.868296224408 2.58619607942686 -13.5355950486848
132.351661590685 14.4073087907076 14.6869815650816
-235.531819028828 39.7461011515846 -10.1150066317366
149.014354060088 -9.89601430241461 -9.43584174606585
-205.785456694763 0.377645794979555 -21.9586209849698
62.5428299036036 -17.1504426290773 16.003470233663
-193.174073113882 -28.7422584012425 -7.93387723548628
22.7530790502624 -3.61056509155308 -4.52037961895158
-72.4755773097418 6.23254393986709 8.34939715929491
-81.5915751777782 -7.16334527277013 -6.35760682281852
69.1265865321411 2.51619728440915 -2.75024524352521
-177.929583778361 5.71748676926324 0.518049480240389
-73.5248887256105 -5.8473952674381 -6.08715988439704
-241.824181536771 -0.391581106057766 9.58500786357906
-165.854012166816 -23.3789240840713 -7.65352090727017
15.555457022778 -12.4965671364228 3.0162382752364
-156.599710051705 7.30314204639876 -5.03228384673257
-229.904269685643 0.971408431178381 13.487040945566
185.749612342282 13.5294658526969 20.5687404297521
60.7372494168699 -15.8901394932851 19.0207068179025
200.563491904703 -30.7991919026463 9.87247585498986
177.909870836006 -23.9149174692652 17.1865497135082
208.535896119343 30.6384576594709 9.19875129961507
-249.029479371496 23.5601418566662 27.6448714206183
189.604210281578 -31.0750937267019 -24.9190459768467
-135.275799255076 -5.52538957741207 14.913842540854
-236.040355304805 -23.0450122593215 -26.3154479046956
-201.124611279389 14.61074291725 -9.74300405213124
7.75936112151205 6.20408251460313 20.6302732035538
-137.769135088317 -6.78191291909308 14.6810586261256
-98.7147236805782 -18.5185085225071 0.148923174984583
204.016846637891 -29.9790432056869 12.5756873536715
56.1629855516829 8.14544050151429 8.9009785605925
-34.577803004533 4.19322680313901 0.795071881771034
181.213518382664 23.4346046513345 -15.7953986735827
172.924018364241 19.4209371359629 -11.6061740368621
166.862630398036 23.3951143070372 -7.23653103769025
142.702644152975 15.1618075065923 14.1047372444507
-252.373253213278 17.3273236126589 -14.1164169980543
34.1061711201882 8.22377377108138 17.4688053820977
18.5417030765319 5.59165768425272 22.6227401816719
178.539636292817 -27.9922438607491 -1.19959484745475
201.703080865639 17.7813666246314 23.6154180342065
204.763450215723 19.7941663225077 -36.8693473737862
77.6970759331665 -6.73973997338534 25.505928542482
195.087646969636 43.3797428620052 -11.0141538797239
-173.656318274303 -0.443781132669698 7.47624071908039
181.328871948589 -15.4061493287903 -25.6181625602278
-40.8372639981299 -19.0770557842756 15.5446573724375
-13.2756419849202 6.45557536554393 12.3356695684654
186.184324577717 41.3248698043915 -9.56585661018398
92.4382106838963 -16.0391527712684 3.10369404314386
30.9654708744829 -13.0437119071878 2.91673843551216
213.853399217201 4.36953961562353 -8.07097633093377
153.009778798367 -9.86086929784543 -9.80897954550161
42.792906490111 6.23320022710516 5.3171384648603
196.892854991623 28.4189857782439 14.0171760990155
-228.290734367283 35.2807356938146 -9.03307902274368
68.5665384756935 -10.4649864739884 24.3295526660674
-108.455078696816 5.56547005462578 -1.94622677975788
-37.5713396163639 1.25996173759549 -5.12782094408782
54.7480153403538 -13.5115855146929 22.2811366649141
-102.938401651059 -2.39662031521009 18.871362274486
-18.8449851620114 -18.9922699212046 12.208972902114
-76.8795395366896 2.61637939103696 18.0083865322525
146.699076732582 3.89857307955245 -6.9785844968711
-231.820469982553 -10.2129532193737 7.03762768357246
205.664597920468 -9.22977310226703 21.9407016298579
203.834211600488 -4.98826505578053 -13.2502637256377
-237.712130512161 43.5943581233561 16.549996962992
-139.606307171536 3.10290818275242 7.60088857773608
-236.335297069635 21.8163354108664 -16.1655813940247
205.294631133644 -13.2429485457786 -33.8767811249273
-26.623026095224 4.35451150612113 1.98978574938656
164.46612346334 21.4024653485724 -6.44288435152847
116.107368486174 13.1108429248749 16.433559433783
197.96003894804 17.9271940670213 -32.6289433916553
223.752246732756 21.917071344013 5.01823590799842
187.703294655543 -0.548246851011628 -18.6762348071954
-109.095228374624 -15.9744887585834 -5.66678252175086
-100.884817767952 -6.22649092077684 -9.58477906731505
-158.060203837993 -1.94243145180656 -16.451359490677
-20.653671733018 5.96628883089618 9.22531458110302
-225.378409114111 25.6059059886068 -2.83000655678492
87.6154837633005 11.1926100824289 18.2980856414741
-57.9801788381384 2.09256686771545 20.9043690923839
180.007362697647 9.69456937499937 -13.4254352790666
157.938543204303 -20.0764712872946 11.1665323207356
225.340741818768 27.4600643813779 0.842673078955998
204.207309504754 8.94176832908327 22.0246502280093
187.63630419634 21.5296502751645 -29.6705578577331
-75.2521584961514 -16.6661254214187 2.0539609297749
222.966949271801 35.9963534575326 -9.01230559544094
-207.256387228726 -1.85962053863854 -28.3755183343282
107.89365502413 -17.2900113643463 14.9294324665001
-216.904388983728 -24.1050512026935 1.38696818546286
-165.836963905486 1.67795323302274 5.72556049518404
211.45423492797 -7.96703906094834 -21.6934239308975
208.486739055239 -17.7772049669128 23.170638625412
172.664169667543 -20.7970188740205 -13.6607660716914
70.684056112389 4.34929394317771 23.9663101383344
-260.021887628369 17.8704389101759 18.7472105666704
-227.646946453104 -25.2676778358616 2.74414213013415
197.225230218332 3.55290628661787 22.8678207755466
-155.200454511064 -22.6624343116426 -2.47357312190174
208.128117538231 41.0064500140284 -32.675854432539
6.47491210247645 -15.2887996274497 5.91522359012528
165.860969368664 -22.6598535306506 3.74733233906493
-236.987096983287 26.6503185205257 -16.5892926790239
-192.785089894724 -27.7124811515672 -5.78040122315781
12.8979464820073 1.20203621202552 25.5345845004587
-235.279577909294 -15.5193607641069 0.875478932350086
-73.138228556051 1.82442511909319 19.5056342630911
14.1420901974994 4.2054572578216 1.84036388231033
-228.577981188509 39.0928955750852 15.8863762629896
-200.745384766751 -5.90530570275144 6.43320796892318
-84.3446493564986 -3.11539042276031 22.0927937664421
84.919560208536 -10.7753413211588 -2.67458874891472
167.59733820966 22.1584166643094 -8.22798396974117
201.398558446348 15.6894730030236 -20.8178709302762
-235.406593972971 -25.3752844527687 -24.8149810387842
209.606482597508 14.3583054550731 22.1348713915914
170.393128585632 -17.2781502595611 21.7673353956013
201.210533957601 40.2749524682338 -29.1648295027744
-75.1675240060208 -16.6147638530653 17.9058495602176
-38.1628497644063 5.5107139820625 6.07285831995036
-258.1687351654 25.0824849245059 22.2056985279134
199.716699253428 39.4512379737429 -35.6825986447044
23.1955623715171 -1.59265649675211 -4.95243349948433
-183.606723053449 20.681953523595 -16.4333361484477
188.513452614157 -12.2906099276662 -33.0111625739889
192.65798589425 -29.5445869106531 18.8911425265401
32.475495014025 -11.4239503151482 1.30318523179079
215.309498982007 12.2501617660787 16.7781460251509
-225.799667983005 11.6673923920722 -12.8391661932244
-219.343179135135 12.579189140164 -11.4785211805041
192.627199314519 27.3914048791201 14.8608311358779
204.021049422106 0.82047188871581 18.8573414114565
-65.044943498316 5.8950839741063 13.8990538263171
-252.011790738865 3.8781715862199 10.7872030372194
-183.075398037269 -2.50108131787444 7.24219234655264
215.989406326019 33.8014215072719 -34.3913957438752
-202.966896843833 0.687887371072478 -23.1804874081889
-211.457980387052 -20.2774337265964 -32.5929637780451
211.174445918165 15.3167179841096 -18.0617115109645
160.5608620237 -21.5485986940384 -0.413381033106743
195.738637883417 25.1960194539828 -37.2335268131741
129.646809355558 -6.4675918319683 -8.08424308598128
-157.115698780477 -22.1254007446693 -9.19596055304054
-215.182697492248 -22.4462518372677 -32.1755934915618
204.665696516688 -9.45511188842807 -30.8316405244661
-28.4829936213857 6.42447588917581 13.2065176695203
-241.02758134596 1.65394958952592 -0.506193167630996
182.717941903361 -28.7986696832918 6.61126504685876
170.462149829275 -21.8825762256191 -10.7950065860673
211.545517818111 -1.85509106384936 -7.76617850632037
-264.901140531547 26.4727642388463 9.88225766971202
67.3096456906018 8.93223377715381 20.7465915080809
205.416766511839 28.9598576573774 11.9169984188936
-223.356711441715 12.2218526427126 -12.2052557178941
195.335230513448 -30.0704056801784 -30.5734545265183
-27.4112885131155 5.57823910764379 7.15994203356129
-201.610126144046 8.37848747086563 -15.4310637743754
-242.283642219461 16.5914294754532 -15.3948679086205
-260.824064234731 10.4561566483397 6.0797852802759
-235.151379582015 -9.04311691067982 -29.2182577287429
179.215497042927 11.0866010575755 19.9218966046008
208.749202793599 -33.3853451291033 -8.22439329338809
-126.839490139237 3.36448785716399 -7.11709949326992
42.6830569907488 -17.50609723737 10.6048382264625
-12.2110920307643 -10.51412052994 24.9796545099204
212.342705965079 9.47438676810199 17.7760545659475
-40.4291477772364 6.23353535146263 13.6426577150471
83.840839693938 11.3238360903871 11.1092551098817
-141.052898253113 -18.2348841654616 6.72797590458882
-37.1716566924781 -4.63529834075295 25.850980161772
82.7761273031178 -14.9724514322567 19.9628289511984
-260.847372296355 15.3927038796684 15.9750376750463
204.206993314424 40.6003742888131 -25.6311295141133
-67.3979936880731 6.09349418614377 5.4441038895135
-68.8540403806232 4.47989037984753 -2.58238864513095
131.718924464271 -12.7821900459216 21.9007150212726
156.531880744974 2.32707932091913 -8.276614237154
-212.745786324713 -3.2344911308245 -28.3205462764917
167.806021071176 19.3970009997506 12.3899592637597
-80.757754759983 -0.569093756938498 -7.1803350282945
-70.8824749670824 2.47759707500851 19.0778254692953
-203.167150390755 -1.34926491430296 8.55363704173177
37.2302291649581 8.16526485898076 14.5095674857872
130.343975525387 -16.055662359632 18.4816002329421
195.85922302911 16.1925193648466 -23.2073996723851
15.1252584272906 1.81496014466654 25.2750664862575
183.751823560253 18.218155287518 18.4986816971875
-154.803158892261 6.69739674983973 -7.40964860004313
-81.1105514631016 -4.91959253794509 -8.09059140670249
-188.641841004876 11.2232292481735 -3.64015380319353
-229.028677720878 11.0825063271081 18.0810073966719
-152.001360250862 0.0566032253470136 -14.1066243219777
190.317889761275 19.1901294889765 20.0757944135002
82.9084111403556 7.72071820472535 2.9841443685108
-224.726123731404 28.2815742375399 1.87507719274947
-18.1514556045977 5.66456700875496 7.67066877515434
171.064723606552 -7.86104448338745 -12.9124906588335
174.989840346842 -8.04704538504243 -14.1588114992726
216.118391657066 14.3930266727828 16.8467697564176
165.070013648564 -4.47089472753616 22.5097473833708
218.02646572777 9.06659399782128 -10.1563667947323
-228.035286102941 25.2624751463264 20.5066788748427
24.8759971042178 3.67671758535528 -0.0367467724479727
-172.83516164171 -22.7957086032888 -1.55387867041517
198.821561577958 -29.5044729146738 20.462550863692
86.0950044558933 -12.0096607403085 -1.79075543467997
216.63561918072 28.4611224251943 -34.3458790428341
-132.206910760052 5.80095748577136 3.83120690595567
113.477568905716 -1.56718145731155 -6.48431212421812
-27.3825530370423 -18.5370346515488 9.74358239598839
80.1145521887351 11.050436428277 11.627029401492
-234.491452363618 -17.3334975767841 -15.5112550557844
164.332491087873 24.0129961913507 -0.620890601807385
-133.446806172945 -21.6164510342434 -0.734431304811084
-174.311422360306 19.2228029115809 -14.3643812841461
175.627223805532 -26.485870585371 -9.201266709581
-154.774721130602 -13.5822578939752 9.01054643572832
-235.580236892632 25.711091070419 27.2440312962894
163.306086763081 7.20551336459903 -8.01029492994942
27.2705315652297 -15.8281421445579 6.36063351986318
-54.957724176469 -12.6420925013914 1.31536443420291
-220.508169043858 -28.7198167047661 0.0627892931156829
-209.326224897223 -37.4490216076221 -17.6139399299145
-216.691350535493 -34.7297855390594 -22.5215812648255
50.9992738554854 6.12140561962276 3.50691304091378
175.029942480224 -24.1428412158265 -12.8459264398198
169.485109553325 -4.81474842151307 21.7370552876059
218.160664215212 -24.1713564280284 -7.5023880334253
102.055967137139 -3.83597610316074 -6.5742252800456
195.520318294838 41.2683642319538 -4.78751694011101
195.432085699063 -29.4118949255944 19.5707175711206
-246.412210639662 29.9515251716887 27.3579543144349
-66.7460376994804 -12.45910734146 -0.166312272157134
-64.5487126597295 -19.5824661216847 11.8739599138307
107.379889024569 -17.9096090481902 11.9747340018273
-100.541117038159 -3.46168539651508 -9.87688546727541
200.287968063863 18.0998391395991 -30.9049973860189
-92.5916566680186 -19.2532780592048 10.3345682859369
82.2111516570071 -2.52211099940097 -5.84278876087332
203.923745273315 -33.8540455519717 -4.26360203254192
78.5984371407512 -8.15381237425705 -3.85582932591324
-23.3402383749895 -10.5221848684716 1.18635807243331
-201.988763035276 -24.640962530219 -28.4558000555938
-3.79827166637048 6.1562379349469 19.5118944256533
209.826101584379 -13.9913206648838 19.9200746750493
-186.171205901543 -17.7944748913895 2.82377053394072
168.102715507501 -23.0987579628871 -4.60592366974688
-248.296982639538 41.1225884088975 6.38287367097197
4.17568449262812 2.26670805098072 -2.86943159745097
-17.0042668336054 -18.9189492600572 11.9927937267774
171.726028562893 -13.1218805808035 -14.5315444898526
206.236819937445 -4.27364644593798 18.2089222045036
84.2469729632974 -12.4016055211173 -1.27874554107334
125.214156706591 14.1388081030834 4.03290508829699
142.545738085811 17.3685274295042 9.9327147146551
178.42639346243 9.33397718087147 20.1471226332594
-237.879125682262 -21.7824154084464 -25.2617836205336
-17.4978148946409 3.03023208758566 -1.83784267901079
93.1931690996495 12.5319440344658 13.0254889181183
-52.8448440891383 -14.6860249035614 2.959606175153
191.067772680276 -6.68099490979541 27.3240542911498
-263.431749828584 28.332584586437 13.8559196444188
22.3901651183093 7.07993683781986 12.0681207660347
-255.238983529539 5.26956478298013 7.36541508560848
88.5707536760968 -17.8997706717558 11.2370483303395
-264.880847190849 21.154078573153 9.88261320026166
55.0408650594231 8.56547070726588 10.9391033444056
77.0784718585349 -16.5297487883178 5.24084054067749
8.30100015510309 6.02539925871445 8.7447487037151
-249.088453753097 42.8247734524634 3.55897027036738
152.175339895724 -4.8708066366755 23.4002590849257
76.3070290632884 -10.4322513934065 24.1389773063065
144.277217840387 4.32238478115702 21.9833937601615
-144.084123807504 -17.8459154718734 7.07068588299201
-53.7600301146898 -9.9606748830171 24.1823765474183
-109.605043369009 -13.1756233684306 -8.38240915836272
124.629814185704 -9.5033750427419 -7.75345170688418
-240.654602816223 -0.819043820199013 7.6849395837092
-63.2592517973159 1.74691188473002 -5.23183138857173
-100.047489517276 -8.98615538974675 -8.59117365326805
28.604198946575 -18.0445385079481 13.7396098913297
58.243042799773 -12.7528248102679 1.03054015184955
-219.720534477362 21.4154855900106 10.0926389512277
-257.615819178296 12.391360941253 -7.35112959610315
-205.946561818934 -32.019225298782 -24.8277548588249
204.333633704185 41.1517160684792 -22.2228299438366
178.573578924201 -26.1373069413546 11.4496976969186
144.082085206889 -18.0114846017826 15.0964414110359
202.181293219235 -30.0668619888803 14.8314131858293
-45.8918266185362 6.07262270471654 8.83314696157375
-220.261358565424 -23.4345698062742 3.69833958726974
-226.882816236016 35.07429178556 -2.38377714392379
-215.043690405213 -19.5035705240307 5.23056377522298
-234.150600481979 -23.0150076329071 -27.6689609229812
202.198218395972 -1.8015562230657 20.6954403829458
-222.409998388666 -31.5449119860231 -10.059873777788
195.970501222819 -28.1517594705774 23.9472396258796
184.442868149156 -9.36858641303477 -25.9968837180075
-109.655643326004 -3.7425810699276 -10.6147793532186
-102.810295452839 6.28405056846454 6.29315726280705
-98.0723548908586 -1.29073281909901 18.7448196087434
-113.294463843115 -17.131513316862 -5.1465747002541
43.8035844501438 -15.9094244541431 19.5742595835246
-64.1377025737326 -5.54765585677518 24.5530673527089
181.788898745921 -8.84315809162 -18.3527799107987
220.904527488536 10.3195642393298 -6.19220235274079
188.350760427509 30.3063678393367 10.3353267074775
-68.520523079184 1.37137116442682 20.5678185966287
212.27587745846 -17.1037403656482 17.7946447544487
145.899944756708 13.041211497887 -3.40731988600553
-193.197497189541 11.298292863939 -1.44479783483956
-166.356975464271 1.22457939440002 -17.5789104515708
-205.580742707749 -14.0633243636444 4.29852657728744
80.2271728703511 0.284331516879454 -4.77471304704954
141.113563027372 -4.2191768593717 -8.36451107823673
179.710005135214 24.0152657584031 12.8205759225059
165.897563663093 21.8312512025634 -7.59209943709347
-233.785833794269 31.3136606406321 -14.4893725897378
-32.5177755491352 6.391032650514 13.48271005008
13.6197740632429 -13.5474561144847 23.1745309026818
182.250238455217 -31.4271386674717 -18.8330526081275
206.46967113462 -29.8847843171794 11.6250236373314
57.0824897375762 0.343326821610547 -4.15624928404878
103.750330304806 13.5975491105455 13.2887999290669
53.5763329486431 -15.8121358432786 19.3532561674475
-191.874099610252 -17.6885561270024 2.45173201806354
177.730025490804 7.68061158753476 -12.270705456296
215.740731125488 18.4104176167563 17.9460046119929
217.804279218922 -30.2983075111403 -18.6175348379642
-234.607429568081 -20.8908850795629 -28.625930329139
-258.824175709381 8.51844904226731 1.8033971127851
-38.7476426539882 -11.5595886046227 1.59177900571829
-141.756438505553 -2.45310679771892 -13.4319172928978
-22.963040662704 -18.8080840434544 15.7428793160391
-200.577319917924 -34.945447839059 -15.8878323495934
181.357604938038 29.3694973778006 7.18068030466491
188.113235026395 32.9427848581066 6.78411557509141
175.06524416783 -21.2660464158228 19.7938867973462
200.001774253733 22.714125890403 17.9602574661389
-143.565570243985 -8.44797009645208 -15.8573049993238
-199.241614334898 -33.6199822086848 -11.4328629606999
-192.423451291584 -2.508718868902 -26.9233516368018
-215.339419111651 -35.7704927415506 -20.6117902986231
225.688442724737 26.3555616219395 -18.9833725122169
-154.670876607315 -22.4319845807146 -7.76181940076143
193.743436805435 -25.7429170982301 28.5418064474768
-69.3847705430591 -19.6917454840454 10.6702923897066
-120.727702005132 -19.3148731544497 7.27739465150586
-163.939630950417 7.1566400659081 -14.346941455868
205.027823311744 10.1604244344202 -13.6694621684513
-83.6791316737528 -0.478221841559475 -7.2656712515509
-250.675795077538 36.9604306920155 22.034267999894
-208.809740223931 -32.3346485700575 -2.58150189672929
155.286778519356 16.0494355296925 14.050646371783
-82.6137492108335 -19.3967741476294 10.9730189939289
185.037467304473 16.8348279547474 19.4455010382108
-203.019453722322 14.7824716893298 -0.0098582970944665
179.242268459338 31.8232529896782 -2.70468931123601
174.424401398758 16.3509349365382 -12.6607976123828
188.26122550956 16.5009773131902 -21.9856278193934
184.349369091162 -2.69316396956677 -16.6374568773485
217.003041244265 34.2971078548741 -2.94622190091086
-238.19420630465 -21.4781312616458 -7.90275580022497
-259.815205960102 10.0540500077113 0.137389894724013
40.1468989628009 -7.84809687441434 -1.7920491066519
-174.831223062009 -24.1739252914012 -5.59587395766377
53.95432677838 7.27100899248152 22.0384036820021
-250.716576098077 2.3502355649606 6.0523479504451
-17.2353326370341 -15.3563519545726 21.6559219363133
183.255839396657 -17.8653199281259 -32.5475119538383
-181.402303847435 -7.68335309982269 6.94755111368139
105.375490734547 13.4001118701565 15.2059197801535
-39.9806539556622 4.16526729027837 0.0840320274087476
175.934902388163 31.3471093063458 -6.02359372125554
46.8399559195954 8.31648133115504 20.2031305871325
-57.2257876519366 3.55854474841897 -2.8358637942396
159.227029816729 0.234882352947181 -9.06296271049925
-240.594850106733 2.00187333565041 -2.32832404080975
214.208172833406 -32.8782994826767 -6.73345442903583
-229.663158271948 28.9920591500306 -11.0633370829047
-176.417266249554 8.50059191762037 -2.72123206415336
-175.800223583481 -20.2890137608951 2.05856004026674
