121.729656759507 5.12946923608238 6.58200963247247
-73.5692708790714 13.6765866154322 -5.39899207428722
55.0886178760863 -1.57310635174869 -17.3170001972703
81.7549583189817 1.97417740227476 -17.6574722174285
170.516611897421 -6.19715964362608 28.1981605526444
31.3857221984736 -1.15604955639255 6.12395866887672
11.826851530336 -7.75608343638698 -14.4645622747357
-177.674507378012 25.343436056623 20.9041480529967
145.597900926221 -7.03535316434282 11.69577501887
148.014275322137 -8.25530980322938 13.7498838067339
78.0482629695199 6.63585911976222 6.92454986862877
155.096983166174 5.26384929419635 -30.551385728919
-121.593873442362 -2.41609251530905 -6.29778667816884
154.679541519086 -4.73125717054939 16.0672927909231
55.6895309695336 13.0543117659428 -0.426066389402453
-205.703507378289 -8.75428221666164 0.52579756732029
171.19849414446 31.65727496738 -6.12169552420432
140.939931844439 0.258232656461495 -21.0424687331625
-86.9378479394792 10.7259168179824 7.39891416335928
-180.21492235171 31.6779622162632 6.48748539179458
126.482880316257 -10.76984733115 -15.4126957893258
169.83109739063 32.7985351441494 3.04438790254939
-29.6558737590785 -0.181069484762282 6.89819017525449
139.892275774135 -5.66906385749326 9.88096673223331
-87.6598979522477 9.71694224411815 -11.7237075494865
138.726377630908 2.75976077007865 7.69866868266142
-190.363034106742 13.9857243559895 14.7904442584729
158.213680435417 -20.5874916583844 -17.3354135634951
-4.42369119367978 0.643392137471358 -17.1876752619917
9.76862648735148 10.9407197571257 -0.64688045916971
171.865110810783 -4.5194606753472 -14.8969616099762
165.968589208904 -30.856626886418 23.4090104226409
-30.8253176299569 11.900167763137 -7.74935662132293
94.4047566398081 4.53067697746307 6.83152245667616
-168.815746482477 23.6805181312087 -4.95112877056567
-133.676033657294 -3.46825162732683 -3.42016635306888
80.9703460166982 -7.06033544942095 4.01449949997552
113.463556796504 -8.08160369976922 6.01739253903898
-161.465603081339 18.1550458292609 -5.6863456824854
-151.30331391032 9.5803249572184 -7.45343895365637
156.470378278704 5.9718986863699 12.3605292714345
106.081407471675 -11.6186327828681 -13.3717471513595
-135.957926655439 18.5197188107486 9.6722902783473
-160.784876532634 24.42155824956 20.11984456106
124.121346784465 -18.1522633409505 -1.41462332868627
158.878794190982 26.0698746792664 19.2078763657903
-113.738083357152 2.58370260946517 -10.581070065817
146.782728631307 -27.1523942099493 8.28861631199208
-7.7419499882773 -9.04131633467412 -9.42626496592195
146.253572008682 -18.9247519469385 -13.9394727519256
152.900876324952 -31.5901714945326 13.6289098014005
86.9363412562224 -10.7338210629876 -13.3928603393665
13.9861929650574 8.09951142203175 4.0667840289795
-182.055580535037 -29.8116400900353 -9.01469901970342
119.990782651748 6.91095263818595 6.44793662114144
-121.470806387106 3.86187762590984 -9.83172915921034
-83.0941349113899 4.35712340933174 -13.7915315824106
-129.332050693676 -6.25509772249076 5.76110388259808
-137.721390723436 6.1266739055164 15.5370668688807
56.6795466304515 -7.45068901074828 -15.3590072738596
-85.340565748461 10.404154842972 7.47688289758073
-84.7811085960755 4.95410040978075 -13.5414747928405
33.8579719365124 9.19197212578185 3.7397138457682
75.3596581374026 3.79158840067916 7.04649288867393
176.299664701905 -29.2309874598334 -4.06440246922313
187.684875924746 -23.7176328421724 15.2878987417779
-100.467757539559 -4.34877685721194 -7.04035025915535
158.910078327906 8.21518561465316 -32.9258929706838
161.911606907369 9.75449068588296 -32.841973571353
-155.816260029867 -8.05110652290809 -1.75284495349235
96.6176951285413 -6.95509126455838 5.04314969956122
176.660577954976 3.18409771917422 -0.680079490785299
-179.726938010968 31.1176423366557 10.6553363396351
-29.1506709110036 10.6545726596451 -11.7798336187486
-195.926549933272 -38.8991990651977 3.78027321566941
163.016131809398 -26.9682537626391 -11.9374729855694
137.22294892118 -16.7326492229722 -11.9591269365298
129.961667925927 16.4620187770921 -8.26886407005837
-206.228998319568 -30.376331742574 9.8894680002026
145.837563641635 15.7996420481481 -21.8788508780554
-70.2542839715694 -3.65819603721248 2.15395648448837
-188.994294895132 16.4603750546389 4.70739089691312
167.946357379476 14.3733608487546 18.5857347907353
-213.918754372994 -20.9007192138374 5.03777430540064
7.60707998212983 11.7830609802747 -6.02005369551172
-16.8784587414546 -8.62962959499139 -10.3598623117198
-41.718719114607 -5.20502269983051 -14.5798507009651
-179.805965739778 -23.670303907381 -1.82654385720212
-179.344292092502 4.0804998116807 10.2563261152368
147.930082065526 -19.3418717670184 16.3479480207011
-7.06657497629139 11.5557234248096 -7.81557151548163
-172.737393582817 -16.0108656108358 2.74753157017604
149.797473168953 -15.8005364512897 15.6367533233451
-139.776025568886 -6.7215061469809 2.41229092781252
-143.294499754257 -4.06563982441158 -3.09359818631973
-196.606959253434 -5.02807741332845 2.88248531807843
-54.6551024834332 4.06247135665762 -15.8050457381049
-167.989679853067 3.84480824092734 14.7394119286287
176.22398285123 25.842814661858 16.6479254846418
132.391863406953 -11.060166350093 -15.7177311511425
-34.8279725458235 11.9334957164132 -8.06075957336366
1.50818397070779 0.335259260432974 6.68577926475232
-179.194526576478 17.3348292518882 18.0154902311219
-188.956186212168 -3.26475753694569 6.27115829954153
149.009960549384 -18.1016349624521 15.9895457723537
-113.964118845273 1.59933291867033 10.9888251899583
32.3026767181669 1.1124712297294 6.96375755029056
-183.467427937495 -31.5296655053855 1.80331469411539
176.777234080994 30.1205589139178 -6.47761644832282
-182.937878582021 -28.6721934834671 2.63785882190868
180.464372715136 28.8034732534005 11.1774142595837
-41.9680689117362 3.07892350530211 -16.5860656546172
133.879465953855 4.26324173722959 -21.4927037882147
142.645639210084 -23.844600237462 -1.86160965298608
147.463699966438 -27.0477496214498 14.0524527189808
158.762450769208 -4.23100509089384 15.8464138156923
171.97919175229 -33.4991459835012 5.65067582444687
48.8697054485545 -3.19186428408422 5.22765276808858
-186.997050605695 20.6581214840838 -6.79850894702935
-182.328149542805 -30.9745752706104 0.276872809935625
170.713069372863 -8.09527090956658 10.4144323448485
178.31925918408 -15.7582267096474 31.3144892376325
-183.273146683592 30.1272169026154 10.0304750148216
-193.481850695628 -1.3507855880114 -0.336376523895466
-169.777144884196 15.9516640679388 24.6304412188308
72.136240459138 12.7729205761073 -9.84336744615062
-66.899809100697 12.497351451894 -9.39067808283667
169.996755121727 12.1369363706697 13.3699635077797
-189.054418759567 6.28647289780582 -3.37804375426589
174.985236413965 -6.47285321534546 -11.6925073169523
41.577759620746 -4.46189518424904 3.14610664967174
171.405013992298 -25.0112854469089 30.6454404337436
153.624546839488 14.6100933960395 16.4130734521629
-193.135980309745 -39.8722177870661 -4.25562956601627
10.8465495875366 4.41607883214242 6.83740786145808
164.407680700883 5.99667456863641 10.1745744585735
-173.479380216455 10.0233107133238 15.9279780808366
29.387798749861 -7.81566004361318 -2.6894317435504
-195.652502353266 -18.654284260913 -22.667331006451
184.694880302015 -10.7797019817917 8.15060165525664
-75.099507563921 5.67492746863961 8.97773431009527
66.798492071472 -7.28016381961935 -15.6286415825506
-173.234425102621 11.0388975978552 19.3861766949868
-207.431842752422 -21.2529764718445 11.7031235184243
169.191084785986 3.59994702081759 3.68286178324598
-99.8589375958317 9.11345844425476 10.224123258262
182.318263718051 -28.2736132766788 17.6350499776792
-181.289337391038 -18.9482254619877 4.93236873100703
171.89282908783 12.2666493819988 -27.7362634556644
-12.1695388778289 4.12099308185331 -16.8328581573751
5.01966090436481 5.13480464379326 -16.4268110085666
22.590048671781 11.3167306741642 -0.382636228714202
165.802086785362 -33.3871383730623 3.628252234725
155.534697472332 26.3573008063761 17.1956556376778
152.941111078683 13.9207431384856 14.1674527432051
-208.183277448592 -8.45765492231213 -0.76522760085647
-116.987923169396 15.6815997092562 -4.07777455478308
-186.696097263924 8.54621165691151 -4.79912831333133
-65.1325082276833 11.9748830461999 -10.4452363195158
-208.503247001321 -34.5114184307389 4.03377716050006
173.01443543995 33.5439186516443 4.47437529956365
-208.798462471643 -10.3639206774132 5.31497303885125
-109.380949854154 15.5267612750907 0.313749565356079
-145.70052276488 -12.6166825699542 8.23404906298753
82.2443315769819 10.635382907883 -13.3521978175651
176.564769594426 -0.27992748176702 -2.35668731726729
167.051199030462 32.0653834874288 -7.39510376204096
-0.664890679924205 -9.05579307523693 -12.4624216630974
144.836666999247 -20.6110334481266 14.096475191742
138.411351674983 9.91914745882819 7.41312499080493
172.171425897683 -6.5077070307531 28.2465761636775
-31.7505077329103 0.550383738562917 -16.9572589609211
184.187061834926 -25.2148662712449 21.9726802734981
179.017105123239 30.6435318121926 -5.29798240678088
-165.891305781443 -9.30381252589538 -5.6684544795282
165.665473279492 -0.0116396517409148 6.58716887755561
-213.808163923615 -21.7480609797694 -13.3611127942654
182.894949187836 -19.9459181385128 27.9783174990758
177.571088219652 13.7734407805261 12.0330066961886
157.223825193618 -16.2252519947287 28.6429490924682
-20.5935919642726 -2.87582008260572 2.82274114476205
-80.9085282185036 12.5657625088476 -9.50273763289946
-43.8523099917294 -4.92954227266266 -1.69920141747167
-108.086390457238 -5.98509686411757 -1.06422151303523
51.4705817740004 13.3411491795212 -2.89930985164933
-180.090938245758 -12.0763240419928 -10.3223517052842
-187.992956968497 7.52764844692805 -3.98543992612055
118.920988863071 -12.6381851848005 -13.3113349963853
159.016544770974 27.8429406937268 18.9485768498417
169.639763476162 -15.80806909824 -19.1562617263865
-34.9678438326712 11.0852668943751 -0.973745165690771
178.848093515346 -14.2494392663451 30.451448656878
-156.545113012053 16.4052162678639 20.6723881697706
-12.8748439979936 10.2594189995741 -12.3509189350844
132.372865889579 16.5289274685013 5.24836474829271
18.2686488368369 4.13295155784761 6.94784480040141
-2.42470931886154 -8.60184589042554 -13.1754561672641
-165.227959457099 25.8416702924813 20.7172452559833
-50.8721180731236 12.1809081611655 -8.9929864619243
45.8803277674228 -5.58392429295831 2.1964376742598
-49.5018659992654 -4.42964462543142 -0.451685688527268
131.293245613149 14.5855909570184 5.83530985692262
167.949120593746 -7.43650061330989 16.5966919247282
-210.749466313388 -25.8022794816907 -16.6357758394083
152.597846704748 -27.6688849518359 21.030523604222
179.077484148085 -30.6801692766005 4.85416031767025
175.898911231896 -18.1139200314878 -16.1940697476929
-131.232085406127 -5.1580816257952 10.686454466579
186.29888478534 -13.1837945256081 6.00513099131432
175.454436108719 -32.4559311277055 6.28042918346557
-193.269408322196 -15.5511841789715 -21.4463045353197
-206.625777233964 -7.38592609742632 -1.7225645096502
-38.8420199689921 3.80302511039993 -16.6149119219917
154.127026461748 0.622096774565161 11.5715090112715
52.9420247686404 -1.21263928798637 -17.3135261283279
100.461979026508 2.2309540301539 6.72221699078256
46.6643451147845 8.25591465779683 -14.0511091843392
-151.007904669896 16.8355174433284 -5.05808325033923
151.572602688544 4.40906630738091 -28.5768438839513
-180.976634998285 26.6009634097683 -3.7362482816374
2.04933329663433 11.2101755965415 -2.07595748070358
-68.0755641709358 11.4823582080519 3.20034419900652
157.133360146427 3.56617309799547 11.7745879626515
114.682824665779 -13.0100275763098 -12.5456157768264
144.921371902205 -19.758359464364 -12.1447806080735
171.050373695096 -30.0676270286867 22.8032145274239
141.124080250011 15.2924799688623 -18.1638578399424
72.2480287889319 -4.31427278444935 -17.0176813416806
-142.949234674772 -12.0701983185187 14.6366796587158
30.5590798256809 -0.380441597136921 -16.9932068438599
-182.878196908473 20.3164890409134 -8.58760154707458
-187.633151327001 14.7939768745936 -6.36966346538146
-190.835016154199 23.5372766790614 17.2227303049605
-190.976301123255 -38.5013921526639 -9.05615691572038
143.697478841196 23.7917781217501 0.737469210961386
-172.380038845991 2.66339041395453 12.5706932441217
-194.83857696115 18.5387895396898 16.9563797537547
-171.191138051651 -1.4759770533042 11.2043591275167
-73.7891912328125 11.750669003266 3.51574267995125
-46.9281790789722 -3.30879703165949 2.17429394662749
-211.702733949936 -28.1649681196329 -14.6900398272098
-185.411545851619 13.0396565667451 -8.59789847170133
-155.961604214855 5.93777903939194 -7.89493795517272
-103.093566660885 12.8166636102353 -8.41517033128357
-4.68545641650413 6.77568884160893 5.13411052557427
-110.417013618798 14.0861821308358 7.48936680391091
-146.300280624731 21.9244735758738 0.181394005800445
128.249283114715 11.4496511526193 6.25526654044433
-150.265282238241 -12.3659416161791 9.01897065609886
157.035919545003 -33.6639223626415 14.3889017274324
-188.624753496126 7.4458924047181 -1.16844271490904
-192.578287930577 17.9566974749791 20.5221277378463
-195.353723010795 -37.9656359250781 -13.040400927088
113.749719679208 14.1613966790025 4.57151818650963
-212.657158662517 -32.1746990164352 -0.312813151076793
181.875751036982 16.5353603776984 1.16864974783659
152.317828386064 -22.9064866280128 20.6111523645859
-185.07648662479 -19.0439970976199 -17.6880903686974
73.1929008100981 8.11628361676364 -14.9323710546026
148.939937892669 -28.55736517862 12.6960652189642
154.291556582659 -24.256738662811 22.8943460501866
182.803630353137 -9.07824556246211 5.91592443175038
-167.597751489279 13.9194068642928 24.5507318070274
171.680356805056 20.728109022021 -21.0949862520006
176.206520142135 -27.6390155919857 -7.81371142088746
-23.250876345178 -8.19745037251705 -10.1854073180838
-205.756521450866 -37.5232122947057 -11.0667321233384
134.308303451941 6.98053818524597 -21.5733785307468
173.863241872333 -7.54677014514489 18.4765981939895
53.6621396530002 10.2394526784893 -12.3479084721998
-168.324513905541 19.7712895459736 23.7524649155037
-181.944636719885 -24.4993151745604 -12.573617280429
-183.655514477484 -23.8050461258269 5.07231915313862
152.018185050857 10.117218281085 -29.6871286783986
150.562931317752 3.2886807653318 -27.3185272817353
111.124622198397 -12.5763091572191 -12.7222810299413
140.861438847504 -4.02333405407302 9.46240349785677
163.923679816317 -11.0868624374515 30.5377055007333
19.7382910370128 -6.41231310365584 -15.4134792797508
156.913203824454 -33.3356920632942 16.3142510240416
-31.1047366429914 11.1553934955121 -1.57805152081633
27.8315697350285 -6.8372562489134 -1.38754749202557
41.3721608471939 12.8886364464253 -4.45179507940427
-175.864438448893 -1.3150074319877 -10.3559267490429
154.114136877807 -12.0966235597095 -18.6472044439439
165.203313169949 -6.75883015882654 15.7691285329445
169.517810166476 1.47751640166365 -21.6455500171571
167.875475938317 18.7265320767227 20.656709215294
160.837611632063 -14.2664943407893 -20.7761510072334
147.904089754328 -2.59118889641805 10.6283749312638
146.25834021491 -8.60009504455748 12.8729477577903
-140.232757379593 -5.01467338919679 16.7744592552993
-40.5988830891945 10.835495979427 -11.7892338396094
167.982714370309 5.00805424891307 5.86268370826249
124.114687955011 -6.94027201074912 7.59962575529482
159.240469893771 13.7146017508035 -32.4582226927992
168.851911724996 -11.2252271339172 -17.9584609844952
-181.062547567047 11.9329555628485 8.39574797541588
-168.588406584443 33.8853240877313 8.40567799610193
-77.3320585992295 10.3971702018023 -11.9014912397339
-58.4505430388363 7.40638986078587 6.80432449414724
-68.8074675609458 1.35246190211923 8.48801718522692
143.221388832619 -11.9116533437745 -15.9250515046633
-164.833042509197 23.173746659648 22.0794188542466
-181.432904333954 -6.17563224879231 9.24535377486864
-102.93836431348 0.023146657814729 9.23429221690107
149.366133544271 7.35723663231769 9.18574050233596
41.6576020501488 9.48613890045606 -12.8922202192025
151.109484784008 24.7840380630293 -8.8284514411467
183.358226058231 -9.15408968236738 10.149052976643
76.8008571485326 -4.74313618833847 5.34887268234002
91.7029340105137 7.00787860507091 -16.4307859742451
61.2541714546624 -7.53251387695557 -15.3700721354077
-201.753385506969 -13.2475843959194 11.9852209471434
-160.031656980782 16.3505598940185 22.2382595474117
-126.759307378161 -1.90639887608971 -5.97058167042582
164.712848642804 -26.2816988423533 29.7413289499552
-42.4177019705764 -4.00680636763856 0.548773395338445
18.9578325786157 11.8908537642306 -2.9848217458936
-159.289017416112 7.40475646513203 19.9055456062526
63.820741199369 11.0583038810555 -11.813099239074
121.433893774438 -9.07167634305259 -16.0946203673671
142.668853546735 -8.21534877120835 11.4372543587181
-196.158184286354 -3.11155379395864 -10.0315514149923
32.8091749159693 4.3252697226672 -16.1838981010128
-173.518547673783 29.5460978815947 16.7171999938079
-188.749210254008 -19.5181439195791 -20.1157307080194
-212.905418045878 -19.2706542982352 6.41704285670538
-180.879129173893 30.4392548802665 11.9117026859876
-106.222776220666 0.597919270109711 -10.9940806380664
-195.541633903618 -15.3225129778348 13.3493949628601
-124.578220084831 7.29713009436844 13.3009182823662
82.8565578088779 -8.24920720499196 -15.304780436463
144.885319741452 -16.56582485092 14.2843661982351
-132.521448625284 9.10358571128266 -8.16289765724648
-197.274916864147 -32.3156690804257 11.3028631494504
-188.666900578798 13.904309928564 15.6828477662053
155.123157211306 -28.7540971525062 -4.73957318924102
185.697727959321 -25.5218751523797 19.9457139913144
156.796339744869 -3.24534263277179 -23.570636506401
177.641935766821 -7.83511677297424 16.7734960135469
109.703314794437 5.60685064053264 6.45793476339669
146.946677391684 -26.7685736473396 12.3492558048274
-183.977390563335 14.5192326834736 18.75049499743
-188.418637240515 -37.8392213825601 -5.5217176211327
166.229869600872 -7.49844337177733 29.2427119873024
172.948610639081 35.7868663998272 9.73262219192399
123.168629691816 17.2219250351 -2.60166893985973
176.684056315118 4.61169567709769 0.258945238569776
183.066542276507 -12.3622830065083 -2.85710956930654
152.131564463905 -31.6995341034521 16.7863416989868
-63.7470988623951 5.22403177975271 8.76922264177847
188.024248428378 -19.0537628999121 9.30836026012507
-216.158649180657 -21.222647409405 -7.13809996973539
-191.401907706104 -4.04999033270784 5.36470468845863
173.677388840997 -24.8248891563936 31.3201367036718
36.8635335304653 12.2123482832774 -1.18342998303442
-184.198616950057 12.1523859152517 6.82169009520155
145.703720770331 -1.05947637683823 -20.8635121796201
-193.222135217049 15.8493594271443 20.025510259685
-49.5056693056688 3.66111489445422 8.42588227242201
180.638330193773 -21.3484585387534 -10.2211626191331
-177.563113397053 -20.2440770129202 -5.36476125844639
174.196822994791 26.671373494603 -11.5493071441635
83.7780746355501 -13.3242981133114 -8.93857597545102
187.666647599134 -25.2888790391751 9.27985683854863
142.625075363416 20.1987200465254 6.78158388757843
174.960040738385 9.48562888089813 -23.539522688077
-139.136309394042 8.06982245401639 15.9695670188707
-195.012139073853 -2.28974806735569 -3.85657273240533
-78.9272605816165 9.37283714762977 -12.4398866605985
145.574493411686 -26.1800869373998 2.80845648696966
-166.449315914532 33.7435783407463 7.48645562207369
-139.164886778863 10.5703175463013 15.7392469770522
31.1992487172234 -7.14161542089069 -1.51583956613602
-119.742073598601 -5.0512690519693 -3.30399762404444
-53.5165377465468 5.63109202632281 7.94131856495617
180.246362232768 -25.6725306171333 -6.58468079168349
-189.46799166278 2.72572244226965 -7.161175736204
-195.197815599033 -7.75176245752949 7.73526024491426
22.8556428771242 12.2426059683824 -5.59068558007772
68.818707405004 -7.58932352586453 -15.4994879688888
129.855722381713 -16.8968691940644 -9.42578991089897
162.545730291211 -4.31960499111295 -21.830867848409
-158.17962786104 29.4652964515426 7.82674443787332
178.946317804774 13.3217732492194 8.28046833748031
34.9092003682562 2.54761711124117 -16.6986492696467
-207.846188246681 -37.2856754197256 -3.74916984897347
-139.216609973584 20.1905988734104 8.24330727446425
60.4289069672611 -5.05632484483477 -16.5996241225198
-172.054156104075 -4.5038409710678 -8.89165512820381
168.362458110599 -21.1339207227347 34.0743328418751
-32.8295796148593 -3.42832862210644 -16.0954241900876
-3.87818943429518 11.3880950133706 -3.19586800124536
-175.743253927732 -5.77066086917576 -9.54168439671699
-177.909826414968 -20.570939984556 -0.893417828204761
160.734201611563 -34.224642075409 8.22429353318953
160.473987265974 -4.90254432759968 15.8353447816035
162.34292008826 -31.8231697041441 -1.87432061083714
-184.992841697217 -3.14146754516428 8.27100459031474
171.319059382122 33.6560202954455 17.2738401016229
88.7494847627186 15.3152047778869 -0.723286414341159
-101.275317800735 14.8350104658752 0.304517539868845
36.9230565843767 -6.61433572057836 -15.4348414751286
-167.775772028996 31.9706356794361 1.74318127131423
-181.857674227218 -8.35039301159566 -11.4626331422305
187.918715103425 -20.2105233473831 15.0117198339115
137.807014781072 0.61783117619986 7.90595310223854
-39.9557135800709 -4.19862001365822 -15.3814504065601
175.704719871231 31.0163488752338 -5.42827437966708
170.392528903252 -20.6668961230471 -19.3868925186997
-34.5345260925935 6.08844715761108 6.53059844156833
-31.5983923871285 7.26073791650601 5.28055992006752
132.086050848136 -17.0255721251409 8.10396596059021
1.54672377742942 2.17142767068244 -17.0591571643673
58.5742399995775 7.38252000442112 6.26194516060335
139.916391308447 -16.8452577324783 -12.7863414658471
5.84159937218772 -6.26494263003544 -15.5000346323529
121.27589928303 -5.89763253739303 7.29972443941355
45.0118632601956 -9.72548110596202 -12.8300401127954
-203.550609182482 -16.171480196618 12.7246457597744
-75.160860355964 11.1374480276381 -11.3978664823674
-193.098082281876 -4.71204586980101 -13.3634849153663
38.6313674694424 10.9837301769491 -10.9507274786362
21.2270920178669 3.812331439507 7.06550521432588
-93.4427574009615 6.11788893325125 9.98274104767772
-132.398811672992 1.90812390011469 14.0411438319576
172.457939629606 28.8697699585674 -9.52221585392829
159.902181276909 3.5752027044052 -30.0487626967844
187.337825312009 -25.3582461176426 14.4374643815787
-180.476628112633 -25.6570972063626 -2.42188859012474
156.180822799531 5.01826926274817 11.7702196268697
38.2140423347926 5.88031299945538 6.35695186554162
-53.6009402184872 9.41641373871937 -13.6615896573007
168.880929665491 30.2944563399268 19.2922273319457
159.492075578244 -13.0194090621041 -20.6911908220194
117.895151124086 -11.8385338862734 -13.9714713927408
-203.221466679373 -35.4345917722273 -15.8024708044615
-93.5351161530288 14.4479028557761 -1.70664938815079
-152.768893196532 15.468759239929 -5.85822821371123
181.636699567639 15.925997445115 -1.61229524495737
-183.997374167854 -1.28362155914725 8.29786945947895
168.746870997903 1.26240777047842 2.62099604775169
-145.35585066095 -10.1551039866572 6.65159651191447
-146.391544507199 15.3813821811889 16.7504821598532
40.7164289329088 11.940236675462 -9.24557831623091
91.9573648668385 -13.873142931289 -8.6581265289235
-56.3710799513792 7.62107498839272 6.4573853935387
-94.7601737561192 13.5753304206254 -7.76675321002477
-180.100039753071 6.88076748023061 9.28544326498941
-50.7597700165766 3.30368632681708 -16.1295289120931
-192.714079542439 -3.9035502903561 3.57374989782415
186.769678134275 -20.055323582003 2.62785624615878
-23.6919471275887 11.4569324045024 -9.22335392465934
-9.637079170945 3.10839605333094 7.52556578394428
180.40481795667 34.0728458786559 3.02282829743362
-166.176698163556 15.835346605618 24.3842430829935
-158.174285191038 -8.05138160362646 9.06811056840476
-150.72832789965 1.11077982847885 17.2746126342975
155.296790293865 -16.7543413190367 -18.0417894902692
-188.232307302132 -4.9760130079393 7.52296640185421
146.712324006998 15.5010087422888 -23.5747763821727
167.23216903769 1.32198590000717 2.68241511722277
177.704764437908 35.3648679448056 9.0227436351373
158.875279357627 -7.68986368844977 26.5100597056129
-174.806456644193 1.6649712608211 11.4658410797814
63.6547007154588 -7.60802457672833 -15.3848089859233
31.2984954830043 11.2591440252044 -10.1747791967737
-0.477935817377312 -8.31892473885596 -6.42752790515896
117.727423286739 -16.9611636843024 -2.08936779942475
187.164218001783 -26.1240887274873 7.38167059851002
152.849594991456 11.9624642812914 12.9580705992024
-52.2245182343577 3.74141959481216 8.58478271115846
120.022127709129 -17.2563430963234 -5.53130629817617
-132.765116380199 17.8731180640474 9.38466192351765
166.141283978918 -3.50468006168089 -19.7845732872483
144.029678226967 13.5634082509449 8.96442641674708
-196.900700990272 -29.1512914198291 13.0322924511697
-151.537359871425 21.2220959902567 -2.3391155824354
154.384516787167 -32.1743914042247 18.4449114396944
-66.1112569029385 6.27386219866629 8.4468301448842
180.904139938305 20.1957009756667 -13.2458062493272
159.21130371346 -30.7406713574048 -3.55858050316358
184.201235390649 -28.2927867024228 7.30383558954943
-187.118871301461 14.4614881240015 21.7965397931947
-89.3942163362133 14.2467633240653 -2.16474007764686
7.74382876207419 7.41602009720931 4.61293468745211
168.564044262495 27.3524990969404 20.083659527739
151.196920114917 20.8716026223314 -17.6216856884567
168.226124852372 20.5274598964542 20.8826207653967
-203.720419229607 -5.082205640406 -10.6569151411288
-74.5998815276953 -3.07849550940624 3.93417359299637
144.271501133632 -25.0498041910196 0.0430571755742201
-68.792471287752 13.3906595831236 -4.16549198614014
-69.982637864067 4.04909919726532 -14.7385523976311
158.293325168655 3.29096982247001 -29.9333898847119
153.320169644864 -14.4934757964907 22.5332704215992
145.244052817576 21.6230264794653 -8.22296052385306
-178.537879861285 8.05118361226854 9.99633204261366
18.758731997782 1.40824432197483 -16.9051117784667
85.2595132817032 -4.20302381540488 5.69413331519174
149.534789960833 18.0049412375141 10.6756607697176
169.234772628502 0.122738969743816 -20.3416396109297
166.580738406557 -27.3538236107384 28.2708082160037
-114.50716162896 -2.03524939807587 8.93415331468071
121.966643942006 1.64983481997371 6.87455807825338
34.5805274721844 10.6792692371692 1.95767200309775
-190.381910573583 15.0610321103082 13.3265823921392
149.549437716752 -2.23971272142495 -21.2691593307172
83.4083711978807 -10.1935993082139 -13.8020120203923
159.202326420148 -22.5277671268144 28.8739855240845
0.968648174390986 -5.15088083426092 -0.379414930988018
-17.8236412370314 5.21186418363497 -16.6033155325022
-166.29694309589 3.34637669153822 -9.07352740395222
125.868820983242 5.31767968212931 6.68951550735022
-186.130174143146 12.3224550957617 -7.03613531493178
44.2595981545606 -2.90665523790561 5.1288135268726
-155.287170967971 -10.1869995825401 5.18345466777835
91.5619604803505 -14.1475442512964 -6.99748507175004
146.921526239871 1.60047717091983 -23.6981957960538
-161.680113314804 -3.94457510892843 -6.60419973271078
180.239245468298 12.6034935647865 0.896608108536462
-11.7576740120569 0.556140439367666 6.63920090640027
152.740144525784 -9.75067406114422 18.6212423908245
141.442009614455 -14.8629487289857 12.4136327659731
-148.008273722816 -3.66177196726484 -4.19181328454485
-136.320713091948 3.24521358098704 15.0513515338524
-203.424772874403 -4.61604428061753 -7.20132003631801
-32.217507717291 4.64361954162556 -16.6173426247503
36.2385515878554 9.85371149594989 3.14391911325085
-113.070117729594 10.1555290092904 11.9272331932792
-194.014054035244 -9.61861903672973 -17.7429148316596
-148.131559549705 -9.13749499543772 5.01032608704161
-128.544618107423 17.2954042694439 -2.79168051462901
-174.60724355755 11.769355193092 19.7360065964357
-192.326606991568 -23.1036996175825 -22.2003852771369
123.2931828574 17.5700473414683 -0.595903197034548
22.3345551802323 -10.3067348296205 -9.02774785848688
157.699246771384 -33.9057674027632 12.7839592021271
175.72593635883 -21.131692347187 -15.7507190108649
149.723185118588 -13.2861864395979 15.1925820671639
173.06853758348 6.18608166078844 4.14014816318354
0.149761952916815 9.2536566331729 2.24716606575594
162.617357545246 20.1270886473039 -23.9977828184709
-38.8540455068243 -6.73106113974907 -7.28442581512557
-130.282456322772 1.13018700777084 -8.29500417505016
-186.17606867737 -7.9655457559126 -13.5402747349564
-109.612780871731 10.0115228304022 11.534908657716
147.303693426864 24.0312900498285 -5.02288534076087
-149.549338168883 13.024674885463 18.6067849348695
-202.149858530533 -28.900701590415 12.3501633040213
171.004167706279 2.57281171243866 1.86717093420642
-99.7431451904052 -5.59639085985341 -3.06041876689402
174.318341321219 34.3897842686026 14.0507253785058
174.394872431415 4.64631101641 -19.5883365071495
159.791189293899 -33.103609532097 4.42781429394745
-72.1181870886479 -3.09649766183674 3.71642135504302
66.5683972302413 -4.67424249343044 5.06352723973419
-214.680181864289 -26.0228394913083 -10.6714604629754
-26.3472659037962 4.27870448538692 7.51115404836373
-161.870083586928 11.0436435424746 23.1584969892495
14.0555893620259 11.6074929315057 -2.47703239833615
184.874332171749 -23.7624883671031 24.1556660416324
-153.431146349831 -5.74518940544576 13.3387423938274
-209.511967526903 -32.1743313570646 -14.2810595402145
-155.924995757167 -3.54830935694217 13.3584569569715
-200.404549331292 -18.3743211151796 14.061101930793
-191.127140977454 22.1665919848814 18.5190493760291
-7.15917765348699 -6.00572265719188 -2.27531105027736
-112.116424330189 5.47915771264768 -10.7300091326415
152.176232557528 18.4684800953417 14.3644835045527
12.0418206136399 -6.0152495139105 -15.6596818366128
-124.438657164487 3.40695856394199 12.7231306738312
166.411155065739 -33.0414868065593 17.5588419102615
168.52445196887 15.6657421949273 19.5182784756962
160.360507234196 -31.8848089089844 22.5423951417294
-119.860272238772 11.1809715764299 12.500867470905
-187.797793179243 10.6892674226783 -3.60926757791924
157.505647061711 -24.0749026163387 26.2219920457089
129.570093675516 -6.41324908612742 -17.5405457423662
-178.245962044265 -19.72610088459 -7.29754605721985
-190.031195844186 -24.3420854790566 -21.1334750696491
-9.50959910174037 4.48723256065639 -16.7229450079293
-99.1427371352597 7.13667394907818 10.6152889999864
-183.304484888116 27.0226180379418 -2.99066664541902
-146.986971735387 -9.6644648135714 6.02696416335249
-158.854277059666 14.8189511583154 -6.69583939973181
-38.9455237240073 8.62063503836315 4.29431737134416
157.407027518152 -0.954834657870693 12.5600155676259
187.583611509918 -22.6384883149028 6.86866064557494
175.114708979016 -31.7376755476819 1.39074596225958
177.498789244866 5.14764174437039 -12.9131301663682
145.168163586406 -9.6077724360266 -17.3539558836709
-177.213833596823 13.07391806029 10.536183693756
-183.741393273468 -16.7385583000968 -14.165808803398
-137.178935540578 20.19096101825 5.96655610668201
-210.909547697794 -15.2876147777366 -15.4881920785879
157.602062470311 -19.0222393447165 -17.4941897091112
63.6854226349121 13.9874266691388 -2.30300441190861
148.515133716725 -19.3919489316173 -14.734728174315
-143.116375566984 -10.3168241762793 7.203344067648
88.8417885932047 14.568675572963 1.67201504481792
145.641954987837 -6.25178814846501 -18.0642376604083
171.2753141202 32.8863434110752 4.09514057762221
175.441488991088 33.8286052724564 14.5971437483744
167.512191482673 -25.6817830404749 30.2068239025966
71.3828193933252 13.7238148337671 0.570887600727561
158.784975689265 -25.4855853069417 27.2091040910998
84.6914877575853 4.94801366730239 -17.0727068591615
-142.342514966969 -9.00864044195166 5.74863041451401
175.264608705466 11.2834773475466 -24.1124213464782
-201.056904899877 -9.19623550565257 8.71697202499125
61.3807611974767 13.5146663657752 -0.752623184214746
-186.693385319179 -6.14618029370603 8.25701741108991
5.56232320273449 11.0855255092473 -1.43154536173294
-85.1722298959583 -2.97589715563995 5.27773112307826
-25.6906423276083 7.91689371152709 4.3646910885276
-28.7926897366828 -7.86170048639786 -10.5618231984492
-188.396776947207 -33.2231192356377 -15.4213433166773
146.466547935271 -2.95776459525259 10.1804561504145
135.964417401295 -16.1121158124676 10.1922466732161
-164.920259506646 -9.85301157192755 7.0658163863461
2.87409897128143 9.47353488112473 1.96576280115983
173.101725852805 -5.44838301757715 21.6214030313382
-171.008209743939 6.21506671222273 15.1966420452544
-120.138447749033 -4.28098773993212 7.38302989196999
180.988821126676 11.988898587585 -9.20250157349629
-180.976988263417 4.11230131180523 -11.4853695071648
-177.783400691584 18.1334141612559 16.8048104990215
96.3516706987386 9.81555852801522 -14.7743922316165
-201.215673470618 -37.9299502516801 -1.37340579820197
130.128722642124 11.1308244211148 6.45532921415693
-190.16873225763 27.1081087722212 10.1654876652658
-135.705919427711 -5.10331244653282 -0.756178724676573
-167.214578552939 -6.93043808666492 9.05040310352219
153.682694145491 10.8739193374154 -30.2917813359262
165.840463475655 33.9899260382262 -0.196575192065336
-181.808695844007 -9.69808959165902 8.84394078611153
35.140659137513 12.0482865622904 -8.53146955579526
-67.249379966071 -5.37998089749589 -10.4661055549998
112.005355038465 16.4848639735768 -2.23898737439612
-157.139971187446 8.8526713952987 20.6468837027228
163.610804586843 22.1581352067105 20.9736379954191
27.8606163123664 5.51926304360045 -15.7271465747926
-85.9211619591145 14.1252040945592 -3.56436558250197
151.245505590049 27.9825914623284 -2.46452333308117
83.7294784489018 13.7059874770991 -9.02848239357137
-97.5515407523814 14.653096811401 -0.827026339606753
57.246337120305 0.677024815226641 6.79284004816469
-64.7378655223339 13.0661676832128 -6.70388428628158
152.063992667583 15.7154195541656 13.6726230765402
118.05180282384 -15.7735977242006 -8.90693410445945
146.719061505588 -1.60577871241044 9.85243131461147
-158.834522932466 22.2749240822496 -3.10017536450903
-157.757115675376 19.1568872664464 -4.56804115517221
-192.032037129595 21.9262435567062 -0.82053388816796
5.40392031561509 3.07961511936689 7.24509028003595
132.41560930414 -16.7498402725025 -10.3674692283261
150.010009496982 -11.240150575309 -17.6262279388386
67.8137269836864 -12.3696323079313 -9.4081441192745
-117.908777556967 3.27153762968343 11.8520541126623
-163.562637101806 18.3661963400844 -5.93627627203493
-135.05661874032 10.7190324038343 -7.53667437533397
-36.8204239203994 -3.76487127588092 1.09253412269511
-197.383023622186 -38.7040141798418 -11.9291703777915
138.048511150494 -9.86428727448996 -16.4990759428716
142.186621958461 15.9862509004968 8.03204202290867
167.152642395209 34.4091088307248 16.3983440254005
-192.884473540604 21.04673984446 2.57641795850839
165.050041048306 -32.1764194569611 -1.58194053534393
-79.8545151227213 -5.44132467419614 -6.51615880392418
160.054358450376 -3.92668998331123 14.2894920441052
85.6949878428457 14.1011612604213 2.11533586552848
161.540227099754 33.7515612041423 9.34024413824642
156.097878435879 26.1483606435803 -12.1844839787811
-66.0858885043712 13.1874750880537 -3.46733957417716
-191.875015919698 -17.7624349798239 13.051683876379
-191.300986316198 -12.8082479071164 -19.2319685674141
-181.758239636643 8.66982118908261 7.30037965912903
35.2567399791101 -5.00794425720041 -16.1916010854741
-135.581622366773 -8.05740469324 12.0414793817073
91.5182102222698 10.4397105449361 5.9562281298005
185.250708726991 -18.1352408341964 -0.798459617773683
-203.411042856081 -7.66012995961666 3.12019232537311
-189.416237832801 -0.437659223444332 -10.3989943810305
57.8594077769927 -6.43154073412987 2.54500031800409
70.4438533509471 6.47566892751986 6.86976124530081
-211.130779882806 -33.534264605384 0.787193331790899
149.702697988129 -29.3111366776825 10.4853504450175
-213.162366841777 -28.3354636602851 -12.2763172506576
-173.02531393273 -2.96074430770131 -9.32026504488135
20.6906809089212 12.0358990214896 -7.23947175691122
-132.444011463096 18.9170301137173 6.30749538299751
-28.5123511020879 3.5999478122384 7.81118443371132
156.861589196495 1.99007397306917 11.6151097693567
173.142527753277 9.6899073751269 9.48689705916403
-177.420943043584 7.09081002607566 11.115125742597
139.396730378353 -8.51729607646709 10.5554833503106
136.640578488388 -0.574661802106434 -18.6959156333172
185.280380790581 -27.771096939367 4.52838770941462
62.0040853043665 13.5042018263886 -6.76488879794614
178.50323670144 34.3346803949661 2.97304869440067
179.537365990991 7.1230883365277 -4.76039915119365
-154.037027364542 1.93008959165087 17.0399429212868
181.309241118403 -26.3341978798894 -5.50028109361239
141.973597316242 -24.0117209730267 0.489968710215613
151.724140676624 19.4908016987564 13.454368125447
173.219839882609 26.4838337257066 18.6146977145682
178.051202887324 31.4710255303737 13.7844111721563
4.4472945745201 7.41460181701022 4.54614813285596
-32.7528993225062 11.8190219421784 -8.38268097941818
134.958772856166 -20.5877083630969 5.17185465331736
144.145322612657 6.63616702679002 7.94750869701103
-208.708620209969 -33.4523163079507 -13.8113158001421
164.338139871561 -34.5280758465548 13.5488705662496
-128.550656683143 17.9190586953463 6.64537594211376
178.028435745779 11.3543151818697 8.14078220626721
168.106738435158 -24.9177743419797 31.0767012606851
-169.049547210741 34.0333687443143 6.2963521909196
-81.7475996708635 7.53417798062343 8.6946091221652
158.423934835749 -27.7388416366922 25.8593566068766
-189.688254797746 16.6560756186224 -5.61611810672534
183.37480837497 -23.0928547687008 -5.1813777158266
158.436310660298 17.7203590878215 -27.3447388168715
-164.996277484662 1.94088703229638 14.3074851324985
-44.1093167305678 12.0948459435559 -8.35055517082593
121.961356015696 0.018877324274208 7.03618958066677
-150.096627288871 23.4366246768671 0.635151138426663
181.679544663465 19.2309457043323 -10.5390748378893
-156.092863053519 27.1904022445471 10.7939244600215
17.0856175836185 0.847755231706245 6.93986809347093
103.943523415797 2.81734273367148 -18.488583086527
-195.567109211336 -9.38718147432487 9.18919549156663
154.750026283186 -8.88129655251136 23.4813780950279
-2.45020944606419 11.6134634388232 -4.78924265738833
177.533774349618 31.0024608367756 -5.03203578042692
73.2617284515691 -12.8360578606657 -6.26147789003657
64.7345190492166 1.48312572834239 6.91661743129286
-56.6312468618388 12.2221937557277 -9.46107676642468
168.246117181985 19.6516103565765 -24.0706740911458
-179.669147344506 9.73208007901097 -12.3872221990859
37.4933051418874 -8.19172851620242 -2.38768460598975
105.548776235761 6.8737292518067 -17.3630596677369
-157.485978654957 -0.235770018664787 15.0664241922049
-196.91656858094 -39.952712227191 -8.15318970060372
-139.342073871522 20.7787003885357 6.17316555231874
171.749458515976 24.7101417106824 19.6219845677835
168.978977984585 33.0907601237091 0.829623464575006
-187.800329640946 -3.64311464235682 -12.2057581935842
74.4780841351217 6.55419101974555 -15.9300386412473
-140.519494329479 15.6986221245547 -5.13822413833941
176.876477710164 -4.20220790501765 -7.02923321826384
-205.556141938655 -7.07103442938147 -1.92982338727878
38.70292416956 -0.875860378104148 6.32117132121333
-122.034364614979 15.4445627872981 -4.99259783114611
-208.264902608032 -14.2518739625176 -17.603517648567
48.9936727990489 -11.4291269887937 -8.89078155274456
71.3947114857517 -2.72014925675902 -17.3801283133887
-188.88478774428 10.8409259490389 -1.39534095468216
54.1206283730211 11.4524710213294 -10.8057372961715
-198.051332264269 -25.1990227173992 14.2110948457475
141.927547567042 -9.18265202019263 -17.1015632270473
-144.769906615586 -3.1845265495096 -4.05517719718335
148.253737727615 -25.3316900657422 -5.55486725716512
186.829961434843 -13.2948310867287 12.7709015167053
-123.983230753977 7.95491829314298 -9.06217670685997
-189.092877322974 -38.1386994300543 -3.28437589475829
-172.254993862407 -16.0736283770485 -2.69156202551578
167.865650839793 3.51664686486194 4.40796292631964
-111.779605684651 15.0681411190272 5.39464854590479
163.243251950593 -28.9087920039756 27.0347175909617
103.653641961396 5.38990117916233 -17.8675330277488
-180.088748389804 -2.78313190405758 -10.9545841161782
24.4412425088549 6.89123200851576 5.35208664587639
-107.934050010349 7.12454665186847 -10.848053636752
61.076816795735 -1.53038662461871 -17.3945462780975
-165.683783736312 -4.01507798126125 10.7940205851119
136.487190224014 12.6588734114088 7.05876406425576
154.029522220226 28.1397018737577 -5.98123909744814
66.4126069599101 14.2039399328246 -3.14621377984104
108.054346866163 -14.0186282863871 0.735806760139824
140.807887775409 -13.3416358340999 12.1383955473838
-190.830952829418 21.9195699355337 -2.49774530562981
-23.859770670238 10.4477917924985 0.0569207229956891
-185.760903666881 11.8802479445268 5.43857619679161
99.0402506584858 15.4338445570056 1.31121343639343
36.1048508408214 -10.3954451847667 -11.3476952009185
177.542159209748 -31.2202207028467 12.5515557842853
155.569667623304 -3.84362106859786 15.228038392032
-158.409756792845 -8.91877295365797 -2.16521337647004
142.117058108971 -23.6802241873313 8.81756512825299
153.370532030362 -32.214863399897 9.11524420210194
63.2329608238409 -11.6206375689792 -10.9122707705418
-149.881925702416 -7.8437446998375 2.30067596658071
162.513804882862 -14.4447658370047 31.2381998644414
-171.538246855571 -8.0002964923962 -7.80759805961052
-174.019947161479 -15.5340423362882 -5.97107941551183
-94.6531784222656 11.7727369233512 7.49920688584105
-204.635550124831 -8.00056184474591 2.2445143905905
176.669694760361 -5.27237030928902 22.1053231553779
113.307391755193 14.1216402586201 -10.185819549284
-172.157740199662 25.4856558576776 -4.39893741984005
154.162876712923 -5.97078050131438 19.2593310327912
134.018612170842 -18.3025992207785 -8.2740618935651
32.4198523487677 -1.38160722240746 -16.9739039439361
-203.01909626184 -4.94799720266316 -5.68365792068524
128.072354687154 17.7865491402999 -2.90824530758395
183.005367313323 25.8336808434442 -0.715040545391536
14.5905346855246 2.74889239137681 -16.7279262884458
67.2837226133248 5.44548166623397 7.03144125587637
60.2976629121501 -5.94472394289684 3.45812031533518
186.997053041908 -24.7370349823785 17.6680800188574
-125.795277125584 17.78691100121 3.42270675257682
155.546887395264 -17.3714041055469 27.0754282021437
-173.404792772231 -0.29043703749408 -10.0380011991724
26.2168965497846 -9.31131516578585 -5.52259780182485
43.6136193129961 -9.86154401617139 -4.35041594124274
40.7324469690418 10.8535804016276 -11.2081545799297
140.318796973707 -11.8308685788092 11.8704502835187
117.34736656958 12.9937641880538 -12.7887344982743
54.0228696242877 13.4123322760496 -5.33788199037949
169.521929243234 -22.8082500127011 32.5241626451789
158.083185851362 14.9390267038449 -30.8000798384632
-158.467883126888 25.5926222723235 -1.41565725465697
26.2547681261629 4.2251792568315 6.92397416195436
157.648482554734 -11.6067268145408 -20.464642322647
-186.871463845484 2.63218888240522 -9.80747924683694
-13.0802504668703 5.4114732707078 6.43147263502557
-70.5680909529879 10.2445446180413 5.69626976689226
-157.244009889916 12.9604215491581 21.5717491665109
170.676959305829 33.8268230793768 7.2603256935254
-189.623732214688 20.4444626751771 -4.86608968692622
184.276276160323 -28.235993836658 13.7786351869335
-94.5994542284132 8.09993922584685 -11.8208840819191
146.111909362523 -25.5450875561699 -1.7136062202911
30.085341769957 10.1220352474692 -12.0002658039965
66.4177617064173 12.7696622323751 1.69467607046842
103.584877947058 -12.8067183614718 1.24332933697345
-155.695626468775 3.53185956515641 17.8207162308047
-182.715004197901 12.0872576342349 -11.1811484536552
73.3570569441513 13.4447564152891 1.49567258308704
94.5932561719045 3.84100580264636 -17.8190312582781
-116.865659412608 5.78177625220153 -10.1576298184604
181.510527625245 16.3856701564235 -9.67628458614265
160.033436947846 0.536110795298087 10.8893933183212
-114.934226244646 -6.74797911645929 1.96723575379718
-165.608069081988 -11.0667568220099 5.86093722597088
169.638040799546 28.1773542783015 -11.8631622733329
-164.728842053049 7.48790703475351 -8.92284800574381
-165.930784697096 -0.603789672121984 -8.46011402746234
-173.292782690558 -6.40002388856037 -8.93346732229997
143.063306956913 23.2025115994184 -0.799642886130928
-46.1156773123689 -2.48238270620562 -15.8098512115086
183.485977352497 -24.2406964252154 25.8857343313901
47.74429496832 11.9185230144551 1.11186417303133
-151.698123243162 -10.4765511569722 11.9356329195283
-96.0433575606163 -4.76082485015093 2.63955822230844
-213.677472913441 -28.9053366016652 -10.6164151791655
-111.808057496185 10.7190743897408 -9.13530135078212
-175.325416250608 25.672371870592 20.8079766281677
51.9937817064082 -6.57360161794874 -15.7859407156691
131.288876698817 14.8227725050015 -12.7011903438263
149.413068830728 12.1276545773052 -28.8315517581378
160.296881831949 21.772453058682 20.2391786575871
175.748980750819 -31.3796702088667 15.3273228508414
-200.960336866763 -39.0985812586624 -9.99946270757313
169.210702813279 34.2266785285395 17.0255769883628
-126.991730857648 18.0464661192979 1.7391090734047
-118.166957129871 3.22940280536274 -10.1575486227633
106.216693513113 -13.8684439166308 -10.5788118970541
101.551981103217 1.56862317951319 -18.482444170301
91.8983077312193 -11.4703698830171 -12.8177761165096
180.102897281999 -29.1398185434355 15.4664897217271
-135.870736688368 -0.171305517314117 -6.52807225490651
157.005971611581 -32.0725107121521 20.8471008677183
149.839400437891 -1.8624280994871 11.11282599528
158.758318519636 -33.9662322116066 9.04734078959628
92.0258569637658 3.81844499382208 -17.7056057259675
-166.107258496061 -12.367831867647 4.21373853190055
166.050181088851 -6.68476431122397 17.9829450542648
82.4353838172025 6.00989307753941 -16.5464395305649
-160.936860105236 -10.995154508897 -0.931636231810351
184.758547195064 -27.6920029355685 -0.0880660641082267
-96.2274200812544 13.7256104535762 -7.46670447492656
-23.7973728114871 4.22306112357477 7.47023789632318
171.61339725659 9.48936819230002 8.92972976887031
158.555418085171 -19.2337738562019 -17.0671519657751
105.00043975877 -15.4997477292355 -4.77105647520376
10.4230111656186 5.88272522629421 -15.9471442307036
39.5462592601939 -7.93812414879865 -1.77805474416721
145.836359395239 23.7723092563149 -3.41600652666804
-36.5403486452085 3.43543427254573 -16.7018732491799
-93.4578527752622 14.3711931509137 -5.03373224786881
32.7393807697187 9.17507392667156 -13.1507094352354
111.725713785801 -16.2507687556052 -5.51342740152423
138.69984652042 19.4621127830489 -6.36469543043765
-84.932049897582 1.36282180295091 -13.6312933992756
183.401569709081 -11.2362973406855 -0.671462255971566
140.958016996526 -21.4468360968048 -6.34025097000327
-208.177851225462 -29.8898304900348 8.76660941207319
-175.720383672923 14.1425072060157 17.3396553104054
-154.395664946476 4.65766032094238 -7.91176064907827
171.212342061244 27.248485254303 -12.298679797306
143.054616763149 1.89843621438038 8.24088282459534
147.704519978202 -10.5887733806757 -17.4181731743254
-193.515848226519 -6.37828780995517 -14.6417086855524
182.624896613961 19.2601225522088 0.267428276224143
-183.899511401355 -9.53075860778121 8.76866169867046
56.3178433699265 13.4479727262732 -5.83959980901687
-136.770793620006 -6.5897918318241 15.1855775736008
176.358261261899 -6.9771246894682 -9.99293054901434
115.374308130206 14.6989635406853 -9.03176832194815
65.8584429545171 -4.72813758108295 -16.802634041887
-114.012418464133 0.668056527882203 -10.0554734629351
-204.277854558566 -8.08836295069509 4.22137293123592
169.332137631079 -22.1371569440324 32.6022732314075
-50.9967975629646 -2.50971843663383 -15.5050245087661
175.089056430425 -19.1608302100987 -17.0769787096655
137.433324380806 -2.19120707610066 8.52998110586062
