-205.525633419979 -47.5285958739467 -12.3846705689378
77.9252079197503 9.7630740338519 -2.45723804036905
-80.3854972057487 18.017312573059 -10.5998230707099
109.376509947196 14.460059936765 -13.1912305183777
45.4982437263529 -5.02098225563915 -1.5544755393324
-22.5558230722641 1.01857621590446 3.74575274469148
210.425753034689 32.4846557310419 5.16085035318737
-208.372354043788 -49.6090750197198 -1.78205495127853
210.466336315238 -29.498286599423 1.17266229689576
-62.9971867866617 8.03663183120749 6.66631981600222
177.101081506102 -32.382900668762 3.43977710003548
-198.001333136013 -16.8145630280024 -15.7108205549878
-128.410610609533 11.5069556546568 15.0583767565454
-225.123490018116 -41.977727578675 -8.75075169268651
-194.93931662758 -8.19108312740301 13.9264390137907
-212.51434911586 -23.8280087295902 22.1469689935109
-196.246962993169 23.4715709020978 -10.9409441810978
163.919455877286 -12.0119086990662 10.8338847287525
-124.180117423433 1.34171702562825 -11.4650227012731
-195.69988823295 -23.8877874694981 16.0244657379811
-223.105251651621 -44.6650596168815 -5.46579610139107
-29.4649487054854 17.2188615269003 -9.25560192874196
-195.480086484592 9.42038000942578 10.5957194523732
-195.183087013837 38.2949588441897 9.39050930933785
-45.7718827863738 -10.4054465070243 -7.31496512057404
128.057479204397 -12.8566795663027 -21.9150250909592
118.26917116098 14.887851244093 -14.589921191827
-197.156749127111 -8.28556252458991 14.1259658570924
204.131238774335 11.8720161864383 18.1122061717877
168.984120103827 28.6163324165081 4.37058373193835
-231.600166325061 -35.2076510883466 -3.56262142618164
200.602227956848 11.7687681765651 14.9856039065422
-172.839887033779 -9.92424769409822 -5.24621311295975
140.118162901752 -1.16571860028058 4.07181345896611
-75.0054270549023 20.8267099270341 -0.743572585570165
213.175320715141 -5.03242954292977 3.65508577441206
-97.1732583428118 11.1391172743362 9.80110719706787
202.367624848173 -32.4827500884367 36.3061055604228
-213.561483164612 -5.6366960079853 -5.14652926747507
191.409219798165 21.4643025044777 32.3507021719471
-83.0766459847337 11.5347020680851 -16.3970987207861
131.593616360242 -16.7687472640769 -19.2380736194128
18.1075555070893 14.3266359473082 -11.0047158123202
-135.334647814323 -1.2994358051794 20.1475364528005
-98.7769800515069 17.0329559054874 -9.94778529836415
186.868677198794 -29.4949418493555 -8.11687745783044
-221.534616059536 -11.6687572100916 11.3662406474907
63.6661004826152 -10.0813159258532 -23.1719709681205
-163.903215314493 -6.39827141284789 14.1382845449503
-147.172185285221 -3.03700227225759 -5.25535563126515
-43.3472295844177 -8.19574214918025 -16.0405152580033
185.968810158754 33.1460883119503 31.160531740822
-203.619104429581 -5.56000558667802 -12.4918904219236
184.778616039019 -4.20595060788416 -20.5196039258749
117.368778871697 12.2893376912672 -2.48670321159719
174.908204638365 -3.14453804881903 10.6787818110629
86.1333818879367 -15.1538876434938 -10.2080649612308
192.264361128559 31.5003674797949 -6.05040078628229
-195.586277479013 6.54954924158821 -12.4938527380001
-149.546273509228 -12.8658216789813 17.4563527881895
-96.0640356723455 12.8384274423946 9.36582470176778
-148.283725512707 -12.4378230765039 21.7006646884596
-217.332070905741 -6.28710178757893 -0.458945448445481
190.600977116173 -36.454373309188 0.77087474962079
-211.035549573843 -10.5202366166795 15.7745470488645
127.077333250273 14.8598095139334 -17.2407152026311
-195.77658889736 25.3871564689653 -9.68527557151199
-57.5662771275525 -1.268708976821 3.4248704929184
-83.0452013033599 -3.55966041034715 -14.3445584667576
-212.987089582739 -21.6782545260812 21.7426933869166
-199.783437622283 -21.2655522754559 19.536045854429
174.286729368495 -12.8500129401502 15.1567139306144
-56.7293423326834 7.07469310975313 6.04061781821232
-182.78835022076 11.4186300746213 19.5461842564154
203.728874750411 -34.5852145250838 28.8984611864877
144.706993745135 -13.8218772954086 2.04104372606797
-2.5809870945421 15.1338021540017 -16.0904839415338
187.526034801277 38.6361084554561 9.58298540498283
174.536287114447 -28.2535057813289 15.5107939449124
-128.043445768391 16.4281254637015 15.4170147917368
179.099185840739 -28.0115257213692 22.9195816146343
208.716509169689 5.1041924967248 1.73447216535274
190.402360101289 -41.2640520568457 20.3436329772353
10.3375412023052 10.9223405036632 -4.19891564995469
179.686410159792 -11.6431031524893 18.1629919697334
152.589166090785 9.06240839209932 5.75057714766195
-163.411060344502 33.3423258003152 14.2753959431732
-97.4532840555851 2.99226732020273 8.75665614246872
184.033830763369 39.1084907731371 7.41384467593274
-219.75740722327 -10.3871827493744 9.73593827807768
-2.52159569632813 -12.208030822891 -13.00071693545
118.952325371914 -4.62399509804974 1.16836601342532
37.6656015492128 2.92106813118007 2.66345135029509
178.690914022575 -30.8035363787081 -1.6639176299505
-206.187234912891 -4.57819373271361 8.74630464108545
208.532931015719 5.41390234221426 -2.84725590465509
-191.11333986175 -7.14862452553861 -11.1800138093705
-38.7469533660407 12.2433293758221 0.928807311055656
211.93520863524 -10.0657078041445 -7.63814217260028
209.546425742544 -6.08987830998795 -7.64447501961631
177.944896381041 -27.6082461927244 -6.7892281235085
82.0444860735785 -5.12484454024365 -25.6013232750343
206.850106600088 16.0586857541914 -18.7928024589295
-160.01225538501 -7.9204663962026 -0.541001153964954
-9.21418568237141 -11.2352502039978 -15.7229888471943
217.319412476971 -13.6096646290886 2.61396076166702
-166.583400087373 36.5349281995309 5.09436011484393
-64.4934670406482 6.81932478495122 -20.1361263754983
114.355332568448 -18.4835117703471 -12.3536852971777
-160.787680233883 -6.67353265629994 -4.47696505885559
-148.109172966364 -4.1847739367215 -3.08300240672886
-43.5979306453404 11.1602690069069 -19.6297995367417
124.737999296626 -13.1940139331213 -3.34599196430837
-181.425681928681 -19.6629084123475 -0.906070353264027
146.33554501345 -5.0324966870041 -23.9408710361887
74.0004986193741 4.24287875150644 -26.3641515396408
138.584391407308 -14.7024691263183 -1.0294168371352
108.504061794667 -15.8711551143381 -19.9614623150682
-53.5270043207487 13.9998288871259 2.26848748609236
-172.516579988027 9.11250660689269 21.7201990272298
-221.508266178341 -25.3627337039191 -22.0110111584006
121.828785734168 13.0469426878173 -20.996323570219
142.359835752913 9.4545679059439 -25.4939675344599
-194.033392878947 26.780543153691 27.0743010962971
-198.779367023728 7.5292852884911 -10.5354881599985
-185.537496557662 37.9313812412445 -0.868861553478745
5.70028327723714 13.6191539194735 -7.61138201928119
201.93499841727 4.53516362293136 -15.3984408157969
-95.0076135307168 -6.48512641858359 -8.38878952208285
-198.106525101125 -11.2030686158881 -14.5146962226824
126.239911325337 -4.81233827614898 1.82040121414287
-122.825842320496 -3.58055159981172 -6.58743095544629
-2.33317313767385 10.9295365506077 -21.7800534879262
145.678333482332 -20.5776479995796 -4.73926474074328
-124.426640755886 15.9647647972952 -8.70953757894866
-53.4096199158341 -1.31284160988147 3.16420498652094
-206.05604065592 25.5570434439954 -4.58847428406667
-187.854119662539 -16.3127327770561 -9.83392762208702
212.357388186328 -10.6070694555932 29.8378058937927
-22.7805198598254 10.6054673473639 -21.1046058640748
-2.57157011205766 -10.4783361346732 -18.1117787536387
-193.63355853802 -1.1934405030029 13.5418495191222
206.101443946033 12.2009240200343 -16.9441852856731
-37.5690942418347 -5.92431107408571 -18.8500658135082
120.220100644531 -2.48116725649002 2.11386060030083
-209.390027928829 -12.5518538807493 -20.7064337975341
-179.375276129946 39.0195545869874 -1.41189835045171
118.6136163309 -18.9366288566239 -12.5066626553871
-134.076474574688 0.516759940944056 18.7965520056501
-62.6096480996095 14.173846270102 -16.1188421336766
-191.148543608128 -12.4459905025252 -11.3720401317264
173.403270271355 16.0470292604709 13.9205308828796
-3.90850878135036 10.7789038439279 -2.57231159825313
27.1932640696967 2.27662589012344 -25.1485986271586
208.69687811025 1.28497724475106 3.93871972490992
188.330646906327 -26.9270858441696 -12.6387997087069
161.088187002639 8.99067061966747 7.35256743558015
-89.0208758331794 22.0662613562351 2.87276191801067
-160.331201712371 -1.28056049579056 -8.63217462396105
-229.297116831243 -17.9554964907999 9.45546477320535
-121.412142065344 14.3013336502786 -9.79560857938872
114.120108487617 9.55789485822846 1.62917807922175
170.857626535484 8.10624815847247 9.88819164527071
-111.05683300909 20.0208413517726 -6.64347206445975
-155.495161852945 4.46777984169608 22.5728170621887
130.101622089606 5.98119921684001 3.87452350371094
90.0044993254521 12.8295061129427 -19.4962435414341
-174.294518751067 -10.3995079102538 11.2671920555709
-230.097336192507 -14.857154965236 3.40302546529197
-46.9638425575794 -4.44395716551077 0.679635714112011
107.832848816274 -8.34170522672143 -1.85719533005804
124.443957111625 14.9555136968195 -7.01085451260967
210.477620394729 25.8663625803407 14.0801859319548
-15.5305245341784 -2.93667536838708 0.850669318012179
197.456450422386 -38.321746705002 23.5017890426509
-21.106006814243 -6.7455952685353 -19.7044161970624
-224.453046701022 -15.1715314612484 -16.4756652979782
-206.015220217525 -1.19874618129822 4.44488004285434
-101.030311702214 19.4323959106335 7.56584173255907
139.617886597626 16.9488134363288 -8.12264261928264
-188.910150321173 -32.1453318200741 0.513244631437737
177.779624465038 -37.0237263330809 11.3766722842403
-151.598008652495 4.23384405949032 -9.79970640451067
211.452750264551 -3.36709047378378 1.94100213345194
155.51801415022 1.46819439406554 6.09001206650585
-133.925262554215 -6.18278837677266 16.8322079244904
-189.293903382521 12.4006357473204 13.8822468704552
186.382690630614 6.56587876648341 -28.3099426231866
-179.128177709911 29.3983225602176 -9.10687096933105
159.11237839757 19.7912829360381 -13.6698948677677
193.338865030775 29.9452054070464 33.0378694850176
187.842368525401 11.409194578202 -31.6233229508167
206.637640436842 29.4440330596966 -2.32062806886757
177.430465059173 -4.79808910895661 13.7473603305165
159.24052402735 13.8581220239775 7.2932021835174
-165.67594402067 -7.53438374529499 -5.37475155102439
-134.152841884253 -3.6677898503998 -5.31662849316571
-216.619172389536 -28.7583289842356 -23.9804823153069
-213.557189635058 -27.9495101126019 -24.7946017032529
138.660124349161 -6.60663729283565 3.09298944527958
131.291043956722 -17.4694295020401 -5.47119545473018
99.126912829499 11.3914065711728 -3.17350420143471
180.494495107528 -15.3133555960975 23.884485605543
15.4237379062295 -0.917900450282047 3.16488008858512
-97.468355824411 -0.0578564136657162 7.65263905689852
43.7266534682998 -9.3811314666477 -22.5223093032124
-186.698480088235 27.6242833320324 -11.0364995774251
64.7886501208818 5.50513899816201 1.95110394071892
178.735572521381 -23.589213861461 -13.6947860579413
-140.821221715977 -11.4676864533403 20.9738407436385
-141.21301698815 0.84206592840081 21.7616987932624
-65.2649596874604 -0.377909035427574 4.48077302480217
193.153155098824 7.56745716875727 16.0382448840936
201.279972761267 27.431398854969 30.0894582766267
195.955564943639 13.6095459430583 -29.1566070312599
-97.137051776619 6.65806323086392 -15.8720916844851
115.962967366285 8.90993003628254 2.77996904597779
-204.561523936596 -16.4004118994302 19.3857083837521
-124.247707855743 18.2190117289683 14.245392551446
-220.174736401326 -29.4866845199902 19.8990748125981
48.3828648053313 -10.6330486586827 -5.99738262207202
159.74556340841 -23.3068495466346 -0.705706458895341
-157.435670817881 2.01560897577106 -8.89987330636902
175.431377437222 24.1403874230742 -16.5164502638553
-211.213284117896 -22.564582436831 -24.7213748585773
-174.53152481756 -13.747233894913 6.96449021566849
-222.262049227324 -8.80793787155312 1.24065003795347
127.847557903641 15.4560070510019 -14.7237976175354
48.9825601539729 5.09795082691222 -25.4236202174387
53.0610377000678 11.4511979342626 -21.558943300096
9.29818334264178 -7.66364673920234 -3.79456326207815
113.919824868193 -8.60909140292588 -1.50396439143304
185.875874806651 34.882342342543 -0.885746625307388
210.33947859815 -23.3493234570793 -10.6236645851522
-119.541634851412 9.81154172818852 13.1982786438224
191.424892440164 36.8956983759664 1.96542418822958
-51.5844159990702 4.26342139877937 5.5223829758953
-206.638428490783 28.8336579481374 17.4749836034488
202.769128172144 30.9752393976505 28.7769881169021
151.463481962966 15.8745130418871 -19.0624173712222
-228.552322840102 -12.1676299181544 3.0247694519915
8.6675885405804 1.12780914747358 3.58631942835904
215.35963325275 -21.5947523810937 -7.9806734455116
168.311548955245 -25.1779636071391 -5.7414276164432
177.963463783165 8.22360898269966 13.6935094989662
87.0191234691735 13.5895062751363 -17.0820091250273
-194.647707278696 -32.9379585801155 13.2649476405832
-69.3604394070926 -8.15393613656954 -10.9170616617868
196.104924327084 19.5487549258873 -28.7371333142474
50.1211895600161 11.3418740867567 -6.15097690437236
212.011102542156 -3.68582448574465 5.21267264149957
-212.52789995849 -28.9838502774657 22.160724350602
-214.835642653791 -44.7754599618808 0.774524141471132
205.66422956367 -1.11175385033174 9.73656924928538
182.264412350818 1.40764339273364 16.97567336962
-168.634102766008 33.6373232362375 -4.79635558011329
207.613837924084 -6.32793746688238 28.94530553894
159.11001761122 -23.3644591336085 -6.22847764698367
-180.51880997559 -18.2663122716774 -2.75616602101994
-132.837009766644 26.4096220335742 1.77363401841929
-224.563855934291 -40.1378917983565 11.4956050141271
150.400121055604 -17.5014742682198 2.24873070315117
-169.266751941781 -3.81909337985807 14.5961356825268
-213.160669338037 -5.2687411834639 -10.3276825124352
198.325943609113 -25.5790615869275 -12.8763739182211
195.736021520037 -11.2437228436828 -19.4252779697501
166.419752682093 -24.699757465298 -6.00371686117362
-183.836964046623 27.5505217853609 26.7464719584242
-200.182601966756 12.6953950706313 -7.22730918306565
-14.638411452211 -5.05384225191512 -21.278726187559
164.77796174942 15.8146925903236 9.31408808383885
204.198675590206 -33.9600592909732 3.68047901641967
185.736172877153 38.3439953360798 11.1596359032093
119.481505017884 12.619335671935 -2.64666534448085
-21.3127972414032 5.35796018051699 3.75083006876634
177.152918027566 4.88031368404232 13.077812200977
-123.690306628075 -1.87971019503047 11.2317292636771
103.102929931345 1.0785412050408 -27.2335805754568
199.962774148468 1.79672370326124 9.73629592168614
-167.730140997366 -2.26678816493929 15.8204591405039
194.556149653134 -29.9215362391341 -7.95134039231414
166.765185827738 -9.61545386654924 10.2703714243842
35.6782861454643 1.03106016507962 -25.2144597514984
-167.381038589111 -9.54157708303944 -2.56205388390076
198.043400041832 20.158521836581 -27.516272698764
198.602577177863 -10.7372901432571 -18.2490323347666
197.200451823957 37.1569951697629 18.2467293602386
-63.3164196578383 -2.10329652151142 -18.1739707771796
-58.2794945220462 -6.0139423832021 -0.515085174960947
116.763879749044 -18.4911571872037 -11.411282047908
185.940205051377 -27.308017605845 -11.5727687112305
-202.001999758579 -49.6189580248238 -3.41829266867289
-104.460384129727 22.619266406053 -3.25985206112348
-204.565691535633 19.0697518043185 0.11782419440898
186.506228951853 -4.46679388210347 18.5522948245113
45.1313926498696 13.0415743371987 -9.86189485678928
37.3988317040773 -4.03875631157298 -0.725701929038495
-104.277324067458 13.9710319683278 -11.9616852611737
-114.446219462609 15.7972978334196 12.2847936779528
211.5698064073 -31.6660940389316 7.74023864005958
-115.584975042739 15.7343485361693 -9.51018845352274
-197.803182754945 2.99422009091506 11.2488009440952
24.4112713392471 3.01858555488969 -25.2238124234941
-207.497330921979 -6.02372851792221 10.2800252065054
184.387139918392 -26.9438133909797 28.5859756814083
112.028680793747 -14.1974179203017 -6.27407210575553
-3.56185247339801 -8.62474842118067 -19.9482541319287
-157.548652172878 8.43572902119914 23.0561417785123
-16.2461765818183 13.602198951444 -4.35437950785453
-127.899721183173 22.9948162553983 -3.5489676210202
192.492974570636 10.5130622929341 19.3022318075012
-182.521635504318 33.1913985721181 23.4944624053481
144.46807886298 15.7279475305455 -18.0912008916018
-218.619635016119 -17.1249705750059 -21.5203474956214
-222.635636691214 -45.3503084909828 -2.23339610619823
164.358418005144 18.869433195682 -17.9066779394492
213.121563290888 -32.5526847234558 24.6274847057725
-143.670921374031 4.87179158185587 21.0304364630786
65.3123910453727 -12.368113953658 -21.7771192645592
-225.734419261511 -30.0179136213314 15.8346306747408
28.6214371018185 -9.44260110963563 -5.04279356288546
-193.171578039458 39.2111321111911 9.66977089299698
131.713748351126 -3.48600396022402 2.84720153162217
192.77539810604 2.51370382107558 -22.8304568360551
44.7140509831643 13.7013668289068 -12.2763599974144
-230.88234751175 -17.3399285668346 5.19942041180284
181.832396441153 -32.5274695089008 -1.27178686468223
179.160443219618 -17.6072899748363 20.4759304697921
195.947471554661 -13.5876448161504 -20.1805341447849
189.726109956801 -2.15998737005279 16.8093313451468
-166.397273041508 14.7276869126455 -8.86478725111789
95.3799033523343 6.8318002633728 1.94648101656933
110.618005150507 -18.0815718311244 -12.4880554131045
-170.575613963865 -12.4210580651584 5.48977890748646
205.978893367936 14.4125578421154 17.4169022227677
194.815649364766 -17.0053145738014 42.1534838020288
-224.860872956288 -38.2885631551103 12.7065791981364
175.660172650112 2.37281628592838 -24.2576187712511
-73.693045578721 1.11234236861454 5.72612532578929
-218.619171181496 -35.2822848800319 18.7533390696101
205.394652794779 10.1550319731629 12.6267601736179
72.9219289798223 13.5330364370626 -16.7275350879381
26.1074449569368 4.05067710681365 2.63173888571805
181.661780093904 -19.827509325545 31.1697710714306
183.311870758213 -10.8352964049966 -19.5055837912761
3.88745098240453 2.98045380112048 -24.5581487830659
-198.277664127978 37.8033724907176 6.16524570327488
201.655892389857 5.90926046234447 11.2257988158444
190.049758422115 36.6640023470703 28.6602028564185
197.510842705374 26.8091222991226 32.2391414500003
-111.001179448408 11.412793140922 11.943089935453
193.184894439189 9.99176590336613 -28.6671041875886
-189.517398023742 32.7380233230358 -5.24582265866162
55.2386090038278 8.6209830233137 -2.0117495195277
168.358832987228 -20.2436368916847 -14.6071336422528
199.618890166548 14.2838817028916 -26.6563034973252
-117.190418802741 8.562229588531 12.7481718373907
202.719330626248 26.1286173723657 -14.1014437932408
175.43895600485 -21.3708756265091 17.2710848465618
-7.46649464029373 10.9575462392458 -21.6030768536531
170.718175132487 -7.10555234171456 -19.9831477803912
208.10032680333 17.0575967631466 -16.9384883276218
-26.3755664022024 -1.67555760050466 -21.9778257920532
177.266950042736 -24.8039611871445 -11.2286981095378
114.106530942278 -8.58397446360799 -24.6406021626243
171.013299307566 25.8309662185553 12.8162855347593
90.1652804541946 -4.73776546218192 -0.0956555659263591
-139.352556456297 1.68995030295826 -9.82820694708409
-192.407567737801 -41.2913789011872 5.94400352602759
102.784281884832 9.25871612412628 -0.0754764585642746
-163.230135238076 -9.67150862459245 4.13610202625363
-51.5024479390064 -2.45252989255361 -19.3084487586487
193.93567497379 29.5202576234843 -9.96443184583002
-229.510008700759 -36.6702141819885 6.9976040276811
125.830881502645 -19.0790814555567 -15.1213631519715
-48.2972912717399 9.48637960765717 5.32429392050611
220.910311853996 -27.3275268211269 15.32622968227
-136.691979628323 20.4386483522552 16.0687578845807
29.5875679450967 13.0850676485904 -9.08896389458694
122.654894462745 14.3961904071248 -5.86284344265887
-208.045460927213 21.9534612137453 4.7807524123332
-19.0586988113202 8.88656897635933 0.95131227981418
-229.845351384713 -16.4521601496338 -9.19376915261802
151.550658378344 7.26303290710139 -25.9810995347502
197.754464736608 22.5078935667577 -24.3167689114277
185.075721157825 -8.52670242104662 23.7408459555349
-76.9872804403205 1.90553066355474 -18.3065016128975
71.9223390094453 6.198747243483 1.42875580932577
-226.080378525448 -11.3293864146087 3.94838490023006
44.4844145623876 3.97507843722429 2.47810665835951
-38.4322261748992 3.91417512501947 4.91644275320363
-215.949400575439 -16.9696796126509 19.7590815016248
162.120282038447 14.3876574476678 8.06662117529658
79.6234515583082 -6.54067202441605 -24.9332947484359
211.272869728484 25.0084264153939 9.00412655908503
145.294662744989 14.1935624372065 -21.2297706747012
-160.435085316498 -7.17228564367555 -2.42348421539515
28.8323052865975 -13.4645715671202 -13.1571617578258
209.977191579456 -9.43911303420017 31.8856586619263
-208.338636210234 -33.3062617665524 -24.3381970500192
192.985973141323 -4.45330239770416 15.7510054967536
177.791536410748 13.4827774030849 -29.152579980757
167.842437351994 -20.7728709438911 12.2903703285792
-44.3219474320688 -4.8374854598428 0.22077845766121
-202.323508639398 18.8575210856395 25.0760143910569
175.706611558978 0.0816469030516219 -22.6387880426622
210.481031041461 31.7444695762529 12.570226062091
-222.708688788372 -29.7246671815648 -20.591230245834
-123.174864219981 22.4464342791498 -4.10439866486097
55.7934655210759 -14.5619146340872 -13.5982558802824
193.684379527933 5.89124689340948 14.8750968414274
187.811586855118 -35.607336285043 30.5935459273728
-73.0958971391942 5.94067861792061 -19.4813960312315
-202.301794616601 35.8908896647719 10.0991288215624
14.9244497700602 -10.1035102591069 -20.2194256793804
159.451853841167 -15.7624350391023 -17.7353626329676
72.1246025127599 13.5175411358239 -11.3686845698727
96.5341127431613 11.0184914776324 -22.6482072556062
114.427379969372 -4.01950646567937 -26.625207031078
82.6831284588399 10.8709499575267 -3.68264321473105
100.291933701008 -17.3102522912061 -12.4369281266686
-141.509987947512 27.7263843323806 3.44702560050398
169.376158408643 19.6378032037863 -19.3023919002263
203.751439924123 22.658197455099 -21.8389069331072
182.846610982885 -13.6927377708743 31.8445131938112
-96.2894976147423 8.96698424373813 9.46675126306899
-217.338725249947 -35.4248875175644 -21.8849491499658
-155.765298138673 27.7751069061674 -1.60387863198536
171.751336893872 -28.5571782542709 11.4427419276935
152.1930683189 -9.64967556223908 5.78434485107123
208.691486415359 -22.0050312124499 -13.9160815981348
207.905937538789 14.8976968177617 -15.8065885589404
79.8295593415996 -6.31282370282241 -1.61387050403343
219.382185858706 -16.9098996765352 6.52364666979493
-66.9177032807677 19.6782526560778 -7.05715696846477
-196.843710616244 -5.92480568887134 -11.9570193725184
-215.036069533797 -4.5501873266305 -6.11120424234469
96.6569089203863 -13.9846705030204 -21.312950778132
107.615553375595 12.9871866378011 -19.6895165264881
-199.179831688078 0.290735857849543 11.2454722686706
-40.7092111228231 17.9012726913616 -7.8294837798143
-196.701626384162 -3.19499545695544 -11.7825457514177
207.932129467766 3.07124987630864 5.88531190680629
174.978439756518 -33.7884529172758 15.3107545763319
208.282620259206 -18.5651240941365 -16.597414864182
-217.669432122502 -24.2505305496368 -23.6781847962279
-25.9496789201651 -7.71215713254372 -18.5259645260975
-120.960735586642 23.0932779571972 -3.3570148800346
168.969290926459 10.4239179455343 -26.6359436065397
-222.287874250927 -30.3448657705187 18.4773637906718
-75.6421449541261 14.3168370510895 5.24490675025769
141.219617935038 -10.2782613655621 -22.365371749529
-6.34998043477292 8.48387013748198 -23.0676549804868
205.818804553461 11.2353420939281 13.700374724442
-24.666979824257 10.7378371220823 0.032848415091382
13.9047510877008 14.9019163079911 -13.856136054927
-92.7419334053172 -3.29769637819398 -13.0780121762288
137.882590021297 16.5114760791486 -6.53992314543738
185.604702072021 -39.0473564215336 25.432559365095
-204.467541734305 -3.93838006998843 -11.4279051918403
186.186747880749 -5.24177231885033 -20.333187800063
-209.0968917465 -3.86258940778277 3.21193520044925
-181.068820363681 -7.95118378531869 -8.41092587863287
106.202222795308 9.30277749429759 -24.782345745148
24.6950550161405 5.94518442855758 1.02982562041956
141.801992471197 -3.01927134002432 4.17642405064036
-170.620974674802 -10.7122591830259 -3.34263794753208
-154.334223268861 -7.34953269899038 21.2738406372822
157.227813788498 20.7079681084636 1.90876564717088
32.2037500937381 -5.37783953954889 -2.06553909289401
-48.5649789374452 1.81588966433689 4.82075923532188
33.2872461716946 -13.4343091500297 -16.2296851678919
-98.8162901515142 15.1334317376378 8.73819605546483
-20.1841310428834 -5.21719349145789 -20.72918513738
-194.450039653347 38.2458905028564 1.41011271293747
147.723879938528 -1.56431569716176 4.96340021668247
-91.5227444534203 -6.72824764980331 -0.156147128925547
-78.7215058166344 -7.66413000519211 -2.23592518239026
158.141086404069 -20.8404491621936 4.29221950140956
59.3455510270431 -2.68278707710722 1.08774269164095
-143.763142263267 -5.68859266950515 7.54401846429129
-122.154632601488 -4.62870548925502 -0.482353158857419
112.869567121011 12.3433810616996 -21.4566249960333
97.3994539531195 -15.4051440934992 -9.28459943726758
-20.0000841207384 16.6099325528795 -12.8336755936595
183.65495005 -22.4708182284578 36.0340188391775
-178.791364168547 -17.7748233998852 1.17728958611696
-147.472715222535 -6.55160414644805 24.8178684159927
-85.5606937624956 3.55064631484425 7.61593497750576
33.6575152042373 8.49553779901241 -2.03362548062174
-138.178684543709 22.1871597538598 15.4319070300149
97.7190317562203 -16.9094079573508 -11.8304824999995
207.667288373804 8.63516188719648 8.56349269136853
184.17829048734 37.2555702378159 2.97960695208353
103.674219718654 -10.1523297461464 -23.9316449149926
-7.11549139471465 -8.53166978893723 -19.6670495074803
-232.164592370091 -18.3973129226763 -1.48096707164442
55.2867619275764 -13.4658821946315 -10.2758040056762
120.06482942087 -8.95740281531121 -24.2200028554153
114.431037653129 -17.9721160523902 -17.0843437186706
201.331720919612 -6.04693554203435 15.5367628899835
60.2457251649024 -2.85225201460147 -25.6772022022944
208.292139421531 21.0280929255077 -16.5331169182972
24.4239219197551 0.864663191606563 3.0209278388577
-200.914018637183 -32.1877921582375 20.0455765711862
-129.290489533467 -4.33351532713224 -1.26225941832546
-113.585867068298 -5.28354755149625 -2.65248603113455
-29.0029963994973 8.71731923335394 -21.764904857181
67.4012142795107 7.89966768139721 -0.943957018362256
47.1903911378727 -3.91386042843329 0.225205110739432
12.7618250806261 -5.220467488515 -1.79763399809927
139.806997009839 -20.7215543390259 -9.97569937388075
-29.5158421060017 -11.1621686831291 -9.46496268668331
-55.8216680827119 -5.8450070383103 -0.395980271807121
90.965278603639 3.05042048352906 2.86246293457648
-159.921192807852 5.72606073683487 -9.04312978215395
172.237403342039 21.9326835202267 -17.7405574008991
128.952685865769 12.0680935492343 1.20086298595896
-185.851757458628 18.1573480214202 -13.3348260814861
-73.1149574902197 -2.06787923038082 -16.9027138122691
179.248443885183 0.683141428734187 15.2569624817568
-173.77621453797 25.1278385637174 27.0764916917527
57.3454739746409 2.95561701993286 2.41427566089571
-167.843879165891 -5.19409777240056 14.0485924265885
197.250590488697 18.090838549362 -28.8290050385379
-27.0545996017498 7.07521556488557 -22.6207107139105
-102.604360061628 11.3575022427904 -13.8029140139825
-218.866002721215 -6.73695594444693 0.324032978406496
37.1046608146083 14.064081398405 -15.7715089066782
-215.252568918257 -7.35933257199865 5.89681659561662
187.241130478061 -28.756926038217 33.0771630514016
-207.465363295685 33.1665538045005 10.5765413476415
195.283909390156 9.10251226259466 -26.8149191396762
190.867252397625 -22.3997619426381 41.5743187719518
42.5833527750053 13.887127316732 -15.7871826208685
133.072964415536 14.1732127749466 -1.71570858693223
-0.722005457036386 -9.80450352214084 -19.1582199367577
194.775306752027 21.3176828833355 -26.2405309235024
-189.999908958619 -37.3373994718022 -9.31293439871497
71.5816323929945 11.506811417581 -5.50184460565178
55.2181017051835 -10.8624394874365 -22.1809590698153
-181.393913461599 15.5978486319532 25.6912944824723
-198.663331432487 -17.0947372412364 16.4593488721826
-161.149424992663 27.0337938786423 20.598017188735
191.901770184008 -27.8765360110338 -11.212051834049
211.089556018495 20.5758770842397 4.6578078932882
185.308033590464 9.52427364408094 19.7889027255478
-130.260162194264 6.9432940638967 -11.203199217677
184.564681994962 10.1992385560815 -31.3725475615868
127.299045442533 13.5920887416468 -2.63236760903128
189.735970637575 -8.01326785139132 21.1384617109029
203.01824566529 -5.5445784105445 14.4319870882055
-214.908357923192 -28.8432546549105 21.7996657765543
104.037766263014 13.040915688736 -19.3592229092401
160.873917493847 -6.7273907169241 -21.1291397894669
93.5614420558437 6.35544914807609 -26.2037704591096
196.641868373516 21.6942959266598 -25.8899137194269
175.513614197164 22.4950884854807 -19.2872924345819
151.820748118929 16.6405707226083 3.87948186894182
-199.391333793745 -6.82237893569973 -12.4107933109054
13.2926750603163 -0.0136033723806642 3.39658604340632
-160.191690887196 16.8548738067561 24.0625003944449
-114.521476895402 20.985817153179 9.38028334550151
166.797560826627 -4.10044616330886 -20.9964335078054
25.843245507793 -12.5639223213481 -17.4472323817081
-64.3459839486248 11.2451377796587 -18.2864305737978
-91.948832648962 22.1506869514345 -2.90600583140694
-132.675299376846 -4.20166941123075 4.00270668401875
212.80937919855 -5.04641490653534 8.52060680605626
-101.688819919099 6.65247103379266 -15.0988558392366
131.901327879763 8.40683037175391 4.02437613180064
44.1821895503087 9.83434934914643 -3.81953709358803
-106.991595803208 -4.70400661445325 3.22852185882935
-199.213811999214 13.757177130988 -8.97654985662972
151.575955113243 -9.2181230881492 -21.5421717120701
210.377381880784 -8.55206452270422 -8.91975351182798
188.966428987244 -41.6563445282515 13.0813065467127
147.857713423162 -2.68560007035969 -24.7589668507726
-32.0884012787399 -10.8023080438143 -12.6135210495873
40.3529158163082 11.0425656367514 -22.2065670115313
212.517043567338 -28.6122097822498 1.9527325029189
193.437736155949 -8.23897420813565 36.4643315591375
-131.798713037314 21.1058471066822 -5.03934817358064
167.935172440916 13.5955656913944 10.0631924760932
190.460600569471 3.12246922548833 -24.4358817614118
-47.3520052061628 -9.90149160659339 -12.7204194534054
-163.811542293625 17.7613684337876 -8.00810135254375
208.905686188947 1.32412664139565 -0.929971061903805
8.01722201522211 1.26253349199235 -24.6314834439377
210.298707982675 12.4844471148225 -1.09401672176365
-226.27113520042 -29.7012049179058 -17.4456100050771
-218.515345436948 -48.2608481535653 -4.04300155474565
-210.585871985019 20.7188246579524 20.1664376294144
181.948438100238 13.3479305541053 -30.1388410931234
-227.416736302712 -19.2524803690759 13.0598933841056
-151.957183282529 -5.93121192182786 1.24036624297856
-175.272034859542 21.6447207314927 -9.05940428527553
157.856890213333 -22.6505207659373 -9.13277705362356
158.120663701271 13.9127767472001 -22.5729208433732
183.540152865774 -28.9833646631344 -7.68386049715906
128.033968985626 -4.18481996327863 2.22451684985817
179.96540902697 -33.7712434877749 2.15043499958154
-232.51617343696 -28.7903908486704 -6.75862674598505
-184.303971824392 14.3848883602959 23.3167075848473
210.669901002565 -2.87462326740811 9.48426672223302
-79.1355962405157 21.2389133458162 0.338297755867083
-211.063535342935 -43.8860695743533 4.97671859376553
-144.674054449898 -13.1453204101955 20.4242823497052
204.236957081886 12.7682616353882 19.6353311837278
114.714561838223 -15.4870835270834 -7.1078985577178
50.7464793044347 -5.34875575940489 -1.81424938438277
176.329236056745 29.9480041757263 -4.36409367958534
71.7973209180039 1.06374542863666 2.10821228120933
-147.608723594829 25.4787530248454 16.6080333075692
-94.8505442079279 2.62098181737398 8.36834024003003
152.612966106497 12.7910219970894 5.59003566032048
180.818761091102 34.7162216843974 12.0641546378809
-50.7929834102591 18.0783479415057 -3.21875302978285
-170.420444844601 -7.98241900086956 12.3435234736089
-193.90259971675 28.7899262682377 -7.83649570384549
167.562727359686 -2.23237009858781 -21.7161659857647
200.153797089704 8.95049706651522 -22.3283743650061
31.2423802825466 9.30438503163231 -3.121315179437
198.797725589997 -40.3293761821866 16.2143056732664
212.384600867974 -6.30928754244966 16.6390725416715
36.7377798007612 7.0146505273082 -0.207806894763912
-204.360890562969 -9.00579846129801 14.0675508190339
191.067989857408 20.2792809925747 -26.8968653204767
-162.44002412717 16.5993424917024 24.7842197667325
178.133916007052 19.168605211465 -24.9195401777403
-81.6531186765526 -1.55605250778848 -15.9302322166813
-196.427207339128 34.5864239484073 -4.24733069233188
-73.5904589450656 -5.94975125029304 -13.4923125709064
23.669552343592 4.47552603805151 2.61523594999014
191.001475614986 26.9381888706088 -16.2533861708102
165.77910538385 5.50483649972099 -25.5083167354203
121.954273744692 -19.1834686797846 -12.1294303792672
68.6266501738564 -4.59781988091725 -25.1249349783445
204.548417115518 33.0795983958759 3.18714113189164
217.982407120673 -31.1982444437837 18.6299698055287
-16.7540314309194 -11.8394525480991 -11.5767355173802
-221.819438991765 -8.1547744158633 -0.530528624638493
68.7355589870461 -12.1675192266017 -22.2021438681211
4.04863522936161 -6.88127039603951 -21.8415867677801
-181.397447967517 9.23743224503239 17.7663043443275
-169.657234953743 10.1218425393344 22.2936884387637
-11.6344269224028 16.1816653607781 -11.6783851891667
193.20256721658 -10.2593884358059 -20.1147694314455
-221.676906623089 -41.2022616189145 -14.6881732335838
100.259866106112 1.58322954139503 -27.2436825862952
-142.961542891258 23.5165867604073 16.3273213079751
87.2238207970757 -14.7523608167084 -20.6262348954155
-226.182783968305 -10.0664905696444 0.23497690740406
16.4977750227155 14.5840437714058 -16.4063263194595
130.539842300702 -19.7565309419372 -10.5232010183816
192.838261784521 38.5052183105283 5.65289302472851
147.080715836472 -10.5967221342413 4.14014330806545
211.417699881173 23.1807198853964 4.1981222705754
-148.93709682412 29.6029961243156 6.72891732673885
-165.592946753666 -10.5034786231463 5.25439751106689
-190.838061564776 11.6053811147781 13.1456867298733
-66.667762584915 10.4885239543845 -18.6029692530656
-208.705335189692 -19.6000607722435 -24.0104954082589
-175.983321538979 11.5218008064899 23.0526197778362
183.833587098824 33.4504201817136 25.0836293521572
174.500116510127 4.04205590754839 -25.2965634153313
-58.1197906432105 4.47375613205874 5.99566678381476
174.206959739212 26.0021156380126 -10.9168550386076
185.394713252265 -22.6314274175342 -17.9722370291014
103.212911132095 11.8372902847396 -21.7486920109203
-103.460424233948 7.6807220104624 -14.6725382005425
185.636344168619 39.3450444882581 6.51547476922794
-170.806919367453 -6.87177633653439 -6.98356808027107
194.251621393132 -9.22033299194047 26.3832687436039
-168.331975021038 -7.11595226465306 12.8084943027509
-201.899226263925 -38.9787756797857 -20.3087743822443
155.24981239944 10.9140736979226 6.27830478821866
-205.697561040388 -11.9872272580923 16.5918931614763
-151.16481294305 1.92003118886137 22.1881062316789
218.729587189325 -29.7418296258342 11.0339747035809
-80.5451141151275 -4.04727850545565 -14.2492137345543
199.483211541767 -31.9716257055607 37.6677115907163
-231.234172858579 -30.1026329527119 -9.74063306463128
-229.347957210088 -14.7104281740007 5.35723395502327
204.631693214473 -31.8221138799793 38.7245441210212
-170.771767083148 -5.73267705213888 13.4452411808944
-203.053522953814 7.44479646437343 -4.72050102880863
-204.772387138898 18.4204709558225 15.993027151993
184.429463118434 -3.10977380759175 18.1299231664056
220.618557773348 -24.1877690874075 7.04587963957565
190.991164825705 -38.9420209939154 5.54929998543073
-202.567629652316 -9.86468386510345 -15.8460351787235
200.08056568841 13.4335547510052 20.6283296880158
-189.488282305418 -32.1726302770663 -12.6698644265719
-180.945018792479 40.149905666986 0.499218409209203
-137.526400293546 25.1460414311027 11.8010268462729
-210.494570634726 -8.18660274633967 12.1447499361581
-211.12911900937 -44.6670681922376 10.8510266706492
-102.726244759879 -4.93250073833884 -8.82933525383749
144.335849025993 17.54283730939 -4.70337552826292
-211.817273000812 -12.9631018252913 18.4279756645962
193.513485970517 -41.2491325347553 17.4877698496715
180.14405036421 -21.8203116093739 23.4382703050341
-182.084118352943 9.23167497552581 16.6348173962818
-52.0533958267484 -8.62350010772804 -14.182915439525
208.604508574382 -32.0157458709914 33.8903558974009
179.876501996254 33.5243715980222 21.4891104202831
122.827357244196 -1.92643065756353 2.40954468022905
-186.485482340334 31.8717946011022 -7.84097543506501
199.788149567362 -6.06950994150553 30.0197419421981
197.667348388834 -32.1143840596045 36.5968339077006
-71.2854223505545 -4.84854456628053 1.10548899925102
-188.239610118306 -35.5507919961798 -1.91147876578759
-224.39461427036 -12.1355930589406 8.61048323081646
214.459513218843 -14.0111796726293 -5.68225202591272
-203.035740459837 19.9208956693375 9.28439998553439
-199.430352366391 7.19419505145368 6.57031197112506
137.695022913643 -20.4736914103999 -11.5009147935211
177.728677545375 35.0483972766139 3.0985031992004
-183.497026760916 -7.11585527996087 -8.79500111484431
209.324351996113 -0.403633111328779 4.06424521465349
-180.191338397902 36.8968768631031 18.3593163204731
144.789311622098 17.1809566153983 -2.40204176633932
178.038666795986 24.0621638161766 -18.8348548427441
-207.008395704313 0.92298619318559 -0.925717324144588
189.206745558897 -7.54163365600029 -20.7177046700902
-124.555588683614 26.0304896117821 2.66505115018335
-200.739676573754 -40.2198518244653 16.1978048184137
211.411805628738 25.9369285805116 2.39910865310549
183.066279877868 6.86159869492509 -28.9239365789753
207.071652561409 11.9703173550261 11.5608991307697
-207.09751479354 -40.341670754111 17.8669100888534
53.2653833964209 -9.940546323945 -5.12808949223139
111.722403873114 -12.5558871401861 -22.6028571682008
-195.530868948293 -10.8486666728313 -13.2254613074076
207.654836125814 3.52012804509415 -5.54642547496494
55.4541349477065 10.2917735554982 -22.8505515318955
-230.934921207869 -36.7140508658007 0.525750104425449
-90.9176374310875 15.7447547357247 -12.3164237745119
29.7244891861365 1.9634922045392 2.80936273654019
219.675823113841 -15.8700345606733 12.4909385228927
184.449277357395 -11.6211260536855 33.1596335781753
-228.005941040032 -26.9920617364763 13.875535976727
211.185986499821 28.2216382902924 6.25090457216302
215.120922198219 -29.8823014551157 32.508304619514
210.530049377639 -2.65097274640443 -0.287452005235924
195.410455427603 16.3295894852444 26.5311806049681
182.439952846297 -12.8891244993187 -19.3126005256945
-158.418788631293 -6.93852866280729 -1.73979391899169
192.152722552206 -36.757929918651 29.8267890692101
111.953137368618 7.70887214590302 3.12590447561407
-137.260753676431 16.4948559607398 16.8657301843629
-200.815616894996 10.6284103600737 -6.9634432073724
-112.406107747779 -2.16035816083087 -10.3101056104708
220.84071766722 -22.8679061203082 10.7722916194043
176.318514378692 -11.7309577793581 15.6745787932589
-226.228873835377 -39.2691568726971 -11.6760552962173
25.9300262301009 14.4599226776702 -14.6082489203008
-205.310713610065 -5.36155855837411 9.7857699723436
51.7084459083263 13.7028961377642 -12.9777704199598
-0.23315093337932 12.2025015118531 -20.7377859533119
209.342871265926 19.4887867185594 13.1193489394294
-160.117106441966 20.365523885559 -6.74219057507876
-210.184982465636 -48.1884488178574 -3.59029810397
173.775368497802 22.4237822948333 -18.0103726200623
-190.974413081193 -1.21239905911745 13.81085148512
201.854679175029 31.4560333140709 -1.95920981212983
178.069526093184 33.3747558962031 15.2570482451402
97.800066274026 13.0775613236164 -6.12558972369809
200.288360025268 26.654178999979 -13.3691513092719
-213.177755354785 -4.86459420689801 -8.77564301071163
183.847301191626 -37.3041345791588 24.3414895940889
-201.811776358577 13.9806126815092 -5.13365168178362
-223.584154230201 -28.3976508054735 17.9510506160765
186.222786690398 -40.4420422338719 7.83402818203536
-187.796498775987 18.9168988136572 -14.5125017471947
69.8039255103042 -4.39626155874599 -0.163263542247406
-13.219184830762 -7.9095028142191 -19.6560305617106
208.294212073816 -7.72677166968323 31.0884080207536
-171.077077401732 18.1068274611483 27.5401092938999
180.821213997682 -29.4443838714968 23.8999547532789
162.045824488048 3.93618305243486 7.26687906163922
8.85834022523721 -11.6754713448769 -8.46488065505024
80.8616289603072 -13.0474803039476 -7.80906764031551
-70.9379893660434 12.7716013662817 -16.6985613749309
-197.337740104308 13.8780132012705 7.36017386611263
-171.640136991895 11.7974233995246 -9.84389404048989
179.326367954959 29.5853163857563 -7.7772833197111
219.917935975766 -24.0791036182047 3.62867526969243
-158.394306017904 26.9946390676196 19.6005309038866
165.531344244402 -10.7260829957603 -19.3038195539491
189.956261259669 32.300929974722 32.373244068463
-182.115023997808 17.3529148547052 -11.7127975974926
72.2537195275075 9.71888762634729 -2.78189534579986
182.701850173274 32.3781477201908 -4.18712511429694
-136.746097776545 10.3102109831932 17.2960661094409
-207.91937608491 -27.7779855824892 22.331188136019
-189.919100141245 24.8521846525123 27.2113236041149
36.6690001616241 5.40436206393004 -25.1156129896837
-19.3667881782679 -10.8063204146858 -15.1663018923632
-146.209694917255 2.10341629349871 22.1983650811365
201.807248674578 -38.5550091794698 19.5813495386997
195.72894134947 -14.5313147089782 41.5720601174137
180.981173546043 -12.872196123303 24.8300445764977
-130.385575475627 0.371341509658273 -9.69010129053011
-5.50554279965049 -9.93789245146254 -18.4442727024565
-200.726609637064 7.0160815964273 5.31527187792105
182.508795313021 6.79011922437739 17.0616872888079
-188.383326371603 -7.88973482067105 -10.4628931370493
175.932986826787 -28.6422390964676 -3.41499402345392
-229.452405428934 -14.8485792526844 -7.9713948310469
-176.882449594065 20.5330172790195 -9.77887099765839
143.750344149305 -0.611089125977947 -26.0617627137524
184.839845633276 12.7967538744782 25.495566630792
-146.240889247802 -11.4427299501897 23.0974818855561
210.645629141523 31.8245228900098 9.66748291334052
203.287716561849 20.7131970366252 26.4829228656019
42.7165714905823 13.4219207315438 -10.9916847311617
-149.75941493917 26.4810916758097 -1.26819200579006
62.6866011188955 -15.0021622829112 -14.1084709419696
-39.6128966313757 16.6201960359342 -3.48456347005562
202.93367183218 -8.08829228990185 20.329599115591
-165.98041597304 -10.7684290689172 3.18499342785146
-203.287237759318 -39.8403341140985 -20.245466780759
-72.1287110923905 19.6602021383064 -7.66820966840735
-140.130748409912 -7.04783102158082 23.6935813416185
-200.498585712749 -46.4656525321924 -11.2626600561453
-211.490787518179 -15.0692096439416 19.7071663966222
38.560069132686 13.2376917181886 -10.2278717194265
-198.050547914058 24.1049425219189 -9.59941789135674
-183.871406776785 9.28134810319352 15.9206156113548
-78.2990281952185 7.39989722425632 -18.6563904470147
187.392108087743 14.7623974060582 28.3523212488187
-214.809545541743 -44.1548215704017 2.72042996797003
-201.784937338623 -42.3547113717717 14.895055157964
135.215020149196 -4.78901355606583 2.99647217403523
102.584233614227 -15.8250953309843 -19.8385227018108
-190.16256651075 8.67785352280558 -14.1826771703843
-198.301181626133 -20.4982752161998 18.1277287422716
36.5075730538823 -5.51436570573083 -24.0666606935703
33.8004054936271 7.13344199695489 -0.294023252887037
-21.5826666804194 3.943347761459 -23.6038652779966
118.958895607019 15.0453341128029 -9.77121143618053
-205.217613386235 33.3464810606051 13.6830875098909
-25.6650786693518 -11.2026749969133 -12.8228324253861
196.916710102614 -16.0631900237668 42.1458962494243
-137.048274511022 -9.95611352958578 17.1426756309324
-200.156038937138 14.6796414429648 4.85736123973615
211.481001677992 24.7526137335311 4.57017968482693
-220.874896993992 -21.8801195534032 19.2746908642498
96.4589408713886 11.7360496423448 -3.79511010007238
167.146346265633 26.0210642474442 6.97038209363541
15.3384491124966 -2.46953767823673 1.72593895173857
86.2755505804744 -7.14828978539734 -2.14865333817401
154.419249938039 3.57849332863453 5.95420086429096
-102.092216533719 -0.714524816298929 -13.3873174452067
-72.4153778356367 12.9938421044052 5.7782032968793
-106.870134165352 16.8230953709076 -9.53812145084783
77.1998961621119 -14.0571727498955 -9.34211556390405
162.110681337991 -16.4850085458393 -17.0178760033107
-148.046503347192 14.8724760260718 20.2611617188827
-207.67816431784 -5.64695399747941 8.5317916386567
130.798178057182 11.1554013316897 -24.0622777424165
-193.732002205884 32.2900239526522 24.3720357130308
-228.608231214718 -40.2062862529368 -1.18595719910824
-186.291163785705 19.8333362923673 26.4801708869643
211.028632017794 14.9307405575108 -0.272158054151956
169.799122242233 -25.2414943155376 -6.51048381429155
214.577593688529 -31.4611090656656 14.1127431122421
35.2190548236219 9.29684419800483 -23.4789992125844
185.873078910883 30.6310141589123 31.8951591542953
-101.433664385455 23.7270171489855 2.87175152182076
161.011173476357 19.725132973673 -14.6932219628456
48.9377191382705 9.95145258112442 -23.1178731842127
174.378191530206 -7.22761690222272 -19.4149796886871
138.565499708073 -5.51166768402904 -24.600669106367
173.727031999751 29.5464917388367 15.1925341576364
173.726080271735 2.09346914127842 -24.1059171072372
-182.835566845264 -12.7052256530677 11.3395010830202
44.0802421391095 -14.1446866137929 -15.3616725280565
-187.376872430281 -1.64751974379615 -10.6458859424129
168.100596332973 21.7047567445666 -15.0786115542714
-164.103404127539 35.0426921109659 7.15130772731654
-105.28480942087 11.8306269992719 -13.1928224752603
198.405070047443 -7.11610936899774 -17.4446262158092
-16.295612911248 11.2999261869249 -21.0396231874328
-65.1086695593488 -2.40031230890021 3.23084276735034
21.4753372332842 -0.254463334750835 3.06542341037183
-199.103615844262 4.34495461133746 9.30827638175941
-203.135254386259 31.9753654981002 17.5891529136344
-25.0332171806313 8.51211730392708 1.91892095792245
-209.408933020354 23.5978042066372 0.729557421281425
205.943692412317 1.35230356266798 -8.39247624341836
-208.511709886148 -47.7679463362521 -12.7561979143616
180.124149041152 -32.4800285657175 0.023536657459041
91.3362951532471 -9.96579685614679 -23.6508785347461
115.269094068547 -17.1135684704828 -8.89984242287894
195.908861041931 18.3893917052053 29.5989507465846
-227.123748605046 -34.7101660511982 -14.5223748422178
202.621995813391 32.7999106108969 1.11733854840888
-44.6913532897545 1.44965763703521 -21.6808844854892
-168.204649040301 -9.00568667937604 -4.08197309703486
7.42737545207023 -0.720959384237211 3.06743682373304
-197.776632054345 34.7680236264387 17.7571768854302
-183.769593249493 11.8354901200517 17.2278169811879
-107.914682256538 24.5067714399602 1.20228971674791
-219.391347998848 -11.6231239429877 13.7243538738807
-217.486439647234 -48.8828065732112 -2.91484696795612
-177.079718558333 35.154875556503 -6.39345578673139
-117.920633104975 24.6501598576631 -0.815544069771359
-146.946066640467 28.5856175674273 3.32500345394027
185.617074316928 -29.0890510066756 29.6165522153546
60.8011291001465 12.3877794949175 -20.0665629066059
-159.696999701922 -4.33427617780216 17.3432997645604
-215.379406707998 -6.74763139713544 0.130248577463184
-210.294897608171 27.6654245153231 0.731754441718027
94.0953902481681 -12.048259717264 -6.07826944284542
163.813976245382 -9.6412594044416 -19.7929118765831
