127.394770786443 -21.599408683992 -6.32098496426249
199.81953327295 42.7718759097809 13.7006032209828
-139.857156769083 5.33328429749996 -3.79097015815952
85.795406040676 -17.7633959457091 -13.6991972308599
201.458951209226 22.6465705338398 35.2814132229986
-92.826081583262 2.76244661761213 2.79559703645996
188.687610793686 1.1843333448573 17.3327802951194
169.646185584589 -9.9932607554541 -22.8844045533567
-68.1867179152732 -5.37097621179935 6.2375048140404
200.205792222038 10.0617647423561 -19.6948804499104
89.7588201332528 2.65168196231819 4.90694047645946
133.975802396389 3.47699226482924 7.51792490954181
180.686279223477 41.563024558746 20.072261375425
78.6279429154233 -8.27259840751792 5.38425887370596
177.47351940362 44.1550677734106 4.96084527701421
64.3599309210311 -8.29312763055742 -23.1677615912968
199.339071514919 -6.47567458936771 22.7914185772871
112.999276422369 7.83787187550891 -22.3171007838075
145.307396139658 8.27145622389027 -21.4856033768038
-78.0905044091088 -9.50046993668282 7.03666052999199
-15.3087760790316 -4.54674027591403 -24.2739647664092
68.3448042899159 10.4499719430933 -3.38224644977188
-230.840084477065 3.6419363606052 -6.67786009394545
18.8579324546666 -10.9202041046688 0.104516979195214
126.283268647415 -15.5678621829589 -19.1452474712624
-197.19325275957 -27.3237085693299 24.6058247863091
-80.3014650146246 -14.4915307949844 3.94513089690972
-135.749368667756 -15.1817309801094 -12.0549558435766
-129.399825302286 -9.76907193900325 -14.7127120581069
78.516788026857 -6.71252047987668 -23.6684238038559
192.559315368683 44.1334202661139 19.714264951256
-220.534368805181 5.75790733991747 -14.7518957154161
174.540245812235 29.4581219713341 16.1910051029516
-169.222940924976 8.33568312944313 27.0587602107068
84.0478324269946 -1.54742866756345 6.02125295493747
72.5269418960125 -16.0165635180097 -1.37381092420687
-172.854366178963 10.1431207694099 6.61579005906996
-162.471399410961 5.48033780468297 22.7422360416433
4.12557611920186 0.281179466864309 4.55813081041535
189.091076824757 42.1316005027307 28.9918818622467
92.5043611843556 16.8454542118418 -11.1982182221529
33.7402476142115 2.89106195162184 -24.0211412452904
-227.921967225868 -10.1698369363986 15.9782734095654
-125.619863874296 -13.6083257963793 12.7227157632733
195.696271998467 -13.0539740865705 34.9275559868056
95.7707488528665 -10.7085112182194 -22.3228468779149
-253.185891647351 36.611888302684 -0.948913622520808
-197.868791205041 -4.90713996624507 20.9591730461157
-229.667555632481 45.1800967615114 -18.6640456008677
106.749250329938 -11.5983864617125 7.35710379363846
197.446188082059 39.3109167062574 -0.828343742868115
44.2483578346095 -8.27279752244485 -23.1075892542914
197.539526999435 42.9507229977796 20.1282845227856
-213.505314113677 -13.3059506395255 -16.9972273766592
-9.64622256500487 10.5222247542094 -16.3463198707303
-36.858395414728 7.37711477455668 -19.1255396236831
135.375149971721 -19.9334545426736 6.11423254208439
170.85961974691 -22.7448146563269 28.6918192597413
-221.610618899783 15.5030900210435 -20.4869823978218
-54.4168435428557 8.60352883179747 -13.2970149379735
-220.322037271848 42.8531748352739 -17.7391241898947
-210.864744511775 24.5644134560011 -8.7313808273438
-216.434409618003 -26.5185706561892 -10.4028525268311
207.410332812927 -25.6565582717616 5.70227908764416
120.876511109 15.5430226125219 -0.770617858430302
103.317146405652 2.74020116244855 5.50277164496744
-209.30918931068 -2.98627933944244 13.6741261650535
-227.99809332052 46.0255926961906 13.8250703379399
-145.219049610999 -0.240563544795997 13.8445040589102
-82.0897926143396 -16.6139435221613 -12.6141133397431
174.429387494608 19.5862424490245 -20.0096203259702
-250.353441312473 24.7079450490444 12.0853541510393
-196.386687049199 -39.5478452942505 1.8040267249985
203.377648733802 13.4657241548282 13.7359975377667
-177.539194572544 -31.1046900288609 1.7517629786383
151.911365190588 -2.75277090674302 11.721361016607
182.739377533136 43.620526425244 -0.277554616937979
138.048017572389 -22.536794558451 -1.44651174062473
79.5172431999426 13.288723963144 -5.218158253219
-218.392508104527 38.2377643416654 -19.9422613797872
-212.700584424699 -21.7907654288281 -10.0250296332902
-195.144474373332 15.4234731458951 9.99665729592529
79.1690800133626 15.244867791872 -15.6087569371852
151.356316106523 -24.642607575732 -1.74405230988608
26.0984708935914 -4.02632688561139 -24.3528548432431
-175.028238588711 -0.631840152520933 26.3032736217283
112.033403906592 -12.0394348043438 8.00312924141323
-140.011008256116 -20.8640756844603 -5.65709057430003
150.927498102424 24.6891098005415 -6.0640215130955
21.5312729551177 4.31750221228936 0.979638786074884
-210.016087651344 -16.7605692890783 28.1027562628993
0.395247218685818 4.37613105647451 -0.21859643370398
-148.010204435227 -9.86539440455551 16.1217767410494
194.077319232168 8.38417282499052 13.1827115859436
-180.132756993539 12.8131293503244 18.7679853707072
123.001988837627 2.05233604818538 6.80554378323172
153.830439911604 -16.414191937504 15.6770965730984
203.080066479693 6.07941872178152 -13.208798252343
72.1641528461538 8.81698954996851 -21.6912315266819
-246.917812405587 44.9223064834162 -6.0475191928199
139.102772975547 12.8108473519283 5.34830494585701
-224.052260460811 0.311067585148993 -12.5997118333343
-217.364372605369 9.36546801862164 13.6806650041428
-241.134989798374 7.00159822945355 0.685123121805455
-65.1821289247508 -9.97552370106876 -20.5298402085778
-201.660222768421 -39.3091006813283 3.37725991442177
-232.114069170089 -18.1022082764947 14.1514374588289
-192.222002245832 -19.8103483455077 -10.0887152576163
145.316157146032 -23.5052875975584 -3.36757738898049
-187.246750243367 13.9515232093241 3.97815321350526
87.8059056599445 13.1699672993258 -19.0777556471913
-181.433903515509 -24.601813824684 -6.95932676896355
117.108098483786 -20.0425812957143 -0.320402932830368
27.1912362387235 -3.22064181652436 4.90479074892341
58.1657097349233 -10.2419567366739 -22.0798741632812
175.146447324792 22.8069137478835 -18.5653617662634
211.250839029309 35.692123905471 2.5506265828442
211.563064251398 16.5092040717314 17.2839673921753
133.912969553482 3.88379669869325 -22.9137915718931
196.339378308131 42.5653533347927 27.0899461357982
7.05560634106552 -4.45038596423329 4.07118748699786
203.9994125105 -1.18101521189385 -4.38630373903622
166.762616558581 6.12777226641037 12.4642855838349
50.4150609518962 9.87457978648321 -20.6738309885487
153.19388181702 5.64280484593564 -21.7310746665767
-170.334596751377 9.114277582639 5.69784082442236
176.567928187731 -27.1073684828522 -19.0734111988607
67.8534722620932 -17.1994292546908 -12.2096755919941
-145.098564937795 -18.1903524868882 15.6206033966574
-184.539389534864 -28.4836270038494 -6.18165207422966
-251.898190804029 22.0423555245844 -12.2082256539459
178.486775185389 -33.7895202255578 2.82941029736222
172.657247435167 -13.3687405826596 -24.3214224978708
194.412599336158 16.4890738001411 22.7989740436139
127.636540666916 15.4504704396141 1.10891415983482
194.76435135412 -27.0439122389617 -21.9830045464119
204.869344069944 8.80091958160356 -14.2706557736036
108.441132004319 -19.805930812676 -11.5150650582316
-118.280232447714 -15.3948791591859 -12.8836825808433
-55.3231420602938 -15.1170967086199 -1.7490290349109
132.123413520994 20.4187730828247 -4.33984653975805
-159.726835135902 -22.7695206947556 17.8103413576675
75.1801768066677 -17.9324038650736 -7.62646171876737
167.214872791708 -6.78704484962848 17.2801064358907
178.086618803256 -8.82705874525042 30.7903318540095
-158.354239988179 -20.2972647561931 18.9828833459064
198.534030589253 -35.362204559069 15.564044644833
-157.297210072861 6.10310790301623 14.6514235680351
96.8154433240253 -14.560965548637 4.15960619272444
-193.72323171132 11.3971653389378 13.0363284685345
-147.331945011154 -9.1969630122353 -12.946133123194
-162.012557563511 -1.56716137624054 21.8737043779759
-176.910551441657 -27.399578292313 -3.12586943472391
-164.285600679798 -27.8022481787231 2.52138843986342
64.9687718889034 13.3266034646722 -17.8729118647428
59.7947983930029 -9.63717318703986 3.1788142100712
-12.007735139465 -14.5550388828341 -5.35510209493024
-173.743226655901 -10.4952386420928 -10.5640794492013
-170.981195038782 -13.2006393017849 -10.5930381638669
202.151505889496 -35.0572090184277 12.3345915773033
-34.3002480753502 -1.16344446554938 4.51441658585766
29.7391313239179 12.2887880953924 -14.0955030662506
-40.4111749341115 7.00797262205733 -19.2798713023091
202.241922901567 14.8144585485356 -20.813509503385
124.059673862724 10.5003055424444 4.13594700657502
-226.387058116744 -0.0603043113071276 -1.59921972328093
-29.8221930797368 0.725212992255454 -23.7149206863756
-221.177935924179 49.515806811076 4.90633693352913
66.2833317888814 4.15945929245848 3.54878464332522
40.2086633937045 -3.06776696093773 5.0294948544
72.8251770634066 8.47178112946879 -0.364412997757961
17.1153298699442 1.76316457242407 -24.2009067068485
210.232940203987 24.3547663143705 28.8147019804344
144.013954862519 3.17515167228437 -22.4903690254562
-135.746729053042 0.455810086841953 -11.7154867084653
120.835117226712 8.83440457107553 -21.7673326323419
-159.852990171008 -26.4846312884616 10.86304337513
153.374730446339 -25.1153889630784 -2.61889394011518
-11.8032370290815 -11.9104673769585 -20.5539697074994
166.559179158371 14.2429402647012 12.7410568699458
93.2043891320237 -17.7916154829918 -0.784956030534107
167.472252386206 -11.4459977913521 20.5120339266707
-43.1857056004085 5.04015473355377 -20.8495688190451
214.696407990104 35.3132323313289 22.7706226848628
-137.630449957198 -18.071099850221 13.3533995472203
-254.127774347267 29.8733253207117 -8.07501283700049
74.7040050343141 0.109371809908942 4.9561296500959
143.440139009265 -0.833513603936958 -22.8952210104908
212.776487791467 27.7802537201234 25.9705654658335
-206.784513912049 -38.6307815108194 4.55848819066175
142.621348061358 -3.75589808763753 -23.1205044033412
-168.300088590197 -28.0633753955663 1.08793328201438
196.642379422716 -35.8992091779564 14.1322202854679
-127.377479090034 -15.6027541245222 12.0275765875318
-228.677529021481 -17.4432960542477 22.906349050932
-32.8195441006397 2.85621668421088 0.809889095502879
-213.895854003962 -0.0357795014118819 -14.262934125273
-133.388850954944 3.3057414688381 -8.78674148108743
195.018950253961 -36.267226812034 10.7089732975988
-129.766780810747 5.78401363115271 -0.385518949213531
-163.770904661457 -7.9284326285674 20.9581977940175
13.0976714495 -11.670924242702 -20.7738285488106
142.6039117932 -21.0154443720294 -12.8197366869485
-116.08860353258 -12.5504490404906 -15.0919258846828
-238.307137597068 49.5500070072874 -3.85242514871439
123.684026000874 1.20376963176413 -24.079018366503
-225.157479566884 51.7257242698487 0.864834452558618
-190.776690485306 6.34666031192136 16.1578877329919
191.113854125663 -16.4377613625644 38.9761594628458
-223.190776659415 -11.750927065662 25.4182503574109
-164.435205712098 4.98309610748393 -8.13319962741568
173.507122618996 -35.4720296157693 12.0209874799735
-191.25495256428 -4.48098812140647 -12.8361520315007
116.088042441467 2.79360912733967 -23.96941845588
-133.598214626584 -19.5979435685644 -7.52597226267659
-116.042767390537 5.10930073851151 1.20516527209038
202.206091020091 39.0654114447875 2.21008935037561
191.218791716039 40.728631170123 36.1315677698982
-159.573165874298 -4.39689422395824 20.0923156870269
-201.306688023943 -38.390051169539 -2.22160922159067
56.9072645376315 -0.969932215544796 4.90466216059476
-44.2293178027 0.0699220709190349 4.29326676280115
-209.474667214741 35.5673452621236 2.5781193703393
180.706185448104 24.4904220395584 -19.2796339144128
-154.978820096757 6.49666767968691 -0.0028202585053047
-173.880321648658 8.55034224486699 27.7371357400229
-196.724773839949 -20.4401923591273 28.7549579374704
-147.354571810946 -15.6466923985438 17.0474803717332
188.738378589024 -7.46287586967079 31.0320098093017
179.655360827616 -34.9566114563987 23.2002998752139
160.345935365123 -6.82758921777397 -21.4404076614005
106.372077833249 -20.1742741994984 -6.59649677096734
16.1071783744854 -6.02648402102249 -23.8654838057296
126.247255396677 -19.9124008289964 2.71001152581139
-112.184601917031 5.43517211311494 0.223813127060238
143.435924522591 -22.7585879265502 -8.13317120824917
202.862209766681 12.9887603830419 -19.7223812096469
-253.192201000122 33.0304548476692 4.70321160239988
-87.6775876184879 7.4020646854268 -6.21386706133623
58.458825464662 12.2076987675363 -7.64624073700577
-215.155188663004 46.3044354092103 2.2422074736169
-229.215617314775 -20.9319452493193 16.5627273208185
42.574356376087 8.90363740171441 -21.1725280835804
-188.11395802207 -35.0679602803069 8.92775305294453
9.27660497509742 -15.4606164611476 -13.4828124787561
66.9011909834384 -2.81223355953496 5.79092968245558
123.72059799465 3.31119138472091 -23.6029381932361
-203.814645003454 -28.6254069450688 -8.69485969799065
-192.130087070992 12.1544011760717 -5.49180089711081
125.545089410269 -17.0930631799184 6.61134740221434
181.399580301903 38.7492251180758 25.1677240791383
-210.214920042922 29.2357791129947 -7.28318397191514
58.398988058206 -0.00465917198418858 4.45992638467344
156.144814392258 -25.4583869702572 -5.51462388219055
-174.014715410158 -25.5520379855861 18.2363774512216
-154.301406565303 -7.60187000043985 17.9085184381245
171.618430111191 -36.0101555204575 17.7869316098796
-199.388297087352 -14.6824470362106 29.2966533232311
-231.927987814083 4.97390377132427 -9.65668455760952
96.2044733725954 16.3021425540033 -15.4793345758189
182.43525852768 41.2465599245131 -3.38831339405821
177.206125566641 17.7943813274579 -21.1372385298567
179.580962826804 45.6295200611529 8.02812231504935
-100.809249164045 1.52710919115103 4.52173464421748
150.622300973476 -20.6757480298443 -15.0797242186949
-163.943588641788 -5.96692810685581 21.4444138035107
88.0850883533961 15.596397266334 -16.0333604842767
-114.943899018749 6.0637791017836 -1.51806932338199
-98.0038955945284 1.51975418786149 -16.7442857611562
104.935353857311 7.8986451197034 -22.4559828008678
209.921382344673 13.4555494717367 -7.57514636308498
197.373942106242 -23.7505220524087 -21.9402855127938
207.859190748305 -19.0428758921184 11.148365882236
-5.78359167544503 5.47653675621505 -22.4200547907353
-169.294121569787 8.23043036874345 3.49362858889342
85.9095584647302 -12.360989033783 -20.7527399039486
-209.083669671582 29.5054825532781 -2.11225785386845
-165.024829053119 8.47711001552616 24.3821058607064
177.059093676669 37.5874224579363 17.2991284432606
-57.438070545671 -5.60540167424351 5.64562197619334
-213.917860554431 45.5453329031032 -1.40946096157286
152.534398397603 1.64146828939221 10.6706002426592
-223.402269427932 30.2803588860839 21.0199080891332
201.247151945178 31.1634332963056 -10.5075910891165
197.946684928736 -33.1023476519522 3.19811737544842
21.532034950758 -12.7249691389344 -1.38512204848196
-155.809865667697 3.86615340762068 16.5115208143023
-119.034424662165 -5.29996954730345 10.036563127936
22.4709374377428 3.02746679130801 3.20398252430507
-99.8474264972104 6.40718261608748 -2.71140093464439
-114.020679971986 -10.92014235421 -16.1365832237549
-109.865218613751 -15.5630842046429 -13.1893322042953
193.517041989193 -9.54172838779065 -22.0813456431331
-250.912638442936 22.7537334066516 -14.1617239958302
157.491439044618 1.01670721588846 11.5940061001848
-155.360522385754 -5.45684647698321 18.5938782649493
19.2064187245105 11.3530349822459 -12.4115812853026
144.265603485199 18.4208895311555 4.10095992365084
183.994906956289 24.9340832312622 -18.9479795348769
-162.974856482585 -12.3519291759527 -11.0458293304376
172.506928898918 -21.3372962915533 32.2169094677715
170.86733022287 -20.3629688404235 29.456476173345
198.628137935611 -16.3430172558331 -20.5076618577473
-56.0437426014357 6.9401894682125 -4.01613728128152
215.369063498482 30.4635194789397 21.0212710253925
180.31228553104 8.8264403860401 18.2984684933323
109.484829046491 18.5136092749523 -8.96244044048167
177.878556038134 0.573228048471585 -20.0981044011181
183.63511494891 -37.5552032377703 22.0476908240438
-0.869863253356372 0.393967219718542 4.59768825850197
-9.67067175589587 -1.51261135231389 -24.5197484452873
199.174334802202 7.1551411195553 9.84048971667166
-102.59236810614 0.149283126397926 5.89206150948941
-187.519860143529 -35.5271563718798 6.91951088534886
154.859080328147 -8.57925088634057 13.9956267551863
-77.3203006194068 -16.0668233840191 -13.5917757685718
-229.23804827774 22.8486511390452 -25.6942364298183
-179.331865128391 8.3243132239566 -7.42635365337064
-132.485042681997 -23.4806241177439 2.84476157095306
213.894103919421 29.9303670121289 24.3534647156151
-66.5361816500044 -10.3866524342537 5.4317301174424
148.13169342247 -18.7573661082608 12.5205317550133
169.195466390452 33.4228142145384 -3.69179440814536
211.872555172523 18.8191216856718 21.8476565080274
-6.4465291518858 10.2206545284795 -12.0898305128032
146.640691284017 -22.5182932069947 -10.1442403977657
167.728868310409 -32.9666900315851 14.709486473621
74.0567018618864 2.50000299769144 -24.2105930683983
-12.4385804602096 -0.349842244784763 -24.3529933871331
85.7754239669839 -10.8522713974931 5.02861313437222
-212.737752721696 26.9905305382333 11.1116859920079
38.6221169745279 -14.7387750867361 -3.20685307149272
-93.105544790472 -14.2070819085893 6.11313106943146
201.432066397863 29.3019993461144 -12.2514126211386
-77.657755632536 0.275959206816637 3.73805319042273
8.29219948386793 -9.85173677923557 0.548466788293894
-22.5294237712611 -4.3619724668748 4.76147019637461
-124.085934383622 -9.70608284142613 12.0794284466246
65.6737253834065 -16.9430528214961 -12.9258017790725
112.663756946946 -5.11033341834808 8.17348164231231
197.449419324097 -33.494853393672 29.6069199515145
-74.9486437844485 5.26603045208139 -17.0759570185412
6.46960088423233 5.1722088887852 -1.27951208500106
114.238304344831 -17.8337094239516 3.41687365392026
198.149296208393 -35.1842961457265 17.1800564618839
179.760430275019 -37.7845998640545 13.8328016650824
-26.4607264795744 6.08199828387206 -21.1261142861151
-212.167723775667 -30.558539357653 20.3965471869291
-61.8529114343113 6.90709270150956 -16.8538337343408
-206.529784797416 11.2083948880454 -11.875327760905
-163.862486056042 -22.9903068645717 18.2512990005903
-88.6480624291862 5.47089916896367 -14.1980113020931
-221.524152750769 -17.9684022151251 -13.5683394522778
186.972139123946 -31.3687027129759 -12.2900596688264
171.90186181839 10.1032540720543 13.9340144677362
-100.423406454316 0.554465673533906 -17.0791862531237
54.8376438260061 -2.25272351643386 5.00643937763739
75.5965635684225 8.09072360078063 0.503312334008517
-213.276785601819 24.998357598497 -16.0716463802673
-91.4101024366569 7.15691379565795 -5.88123802228391
114.147263169799 -7.88396249486992 8.8086150940443
207.125120611501 -34.2094675513197 15.4951008829168
-194.380270817544 -31.4096401815523 -8.84580408384208
-179.937672835665 3.64097773562885 -10.4755057501247
155.222288880928 -19.5816599636415 15.2979392433689
122.280263194426 -21.2538068583898 -7.44873025638586
198.103283764261 -6.63040353960421 24.877234058143
-227.543792075378 33.3249828987779 -25.3961281419351
-209.066072588611 25.8162512397028 -3.94255276016389
-69.1375735916823 -1.23487360741528 4.91845885383427
-102.526702462998 -19.3965417533639 2.9195036200515
-184.368359060337 11.4844312057453 -2.17288215732568
-197.299976189189 -6.42642007853763 22.0047564968305
-253.272011646129 22.3484623636323 5.54496748802045
159.453915744979 -26.9840175525903 2.66314347799824
186.577193851491 -23.0139429188954 -27.3767503906983
-228.665710253789 5.29136024924627 -12.5556838529108
-50.3549679808653 -8.96125116094047 -21.8871428838318
176.390857957539 44.097556664689 6.84474177558497
163.787358498991 -14.2005595078722 20.0339748612014
-3.5527449062795 -15.5209013582117 -9.91463093966846
164.370821505178 22.8749673717353 -14.0904092825457
206.339276862699 -15.3090313661504 15.2419082348015
-230.683634169263 4.63481793889982 -10.7556037420681
153.852744816388 17.8579051665885 9.02270033130574
132.765934430065 15.8327325899445 2.41091134618302
202.024024954309 18.0992963817005 31.8694448716539
-149.856880855676 -16.9899960609797 17.4941430084295
180.223640541546 -34.4582452950863 2.18614852526995
-207.162431997515 -30.1870780552926 -7.66559967098498
-219.711434919599 9.77492485846816 -16.8023029312907
-173.030504535552 -0.737062609295748 26.0496746686662
196.184294476287 0.524286087298739 10.5075709747417
-212.876268308066 -4.06190327093756 12.40371836298
176.054861197469 36.1521494200601 17.7319126938655
180.162073227816 -32.0760720240658 -6.99264059025257
65.5622719474116 11.1523896439189 -4.82629294425149
163.311982429403 -23.860150728292 18.7949306484006
-214.203222940019 45.7161038478347 -3.0590250241199
144.299355908952 14.7553460438052 -18.4832602689552
-164.238159798226 1.57863554727505 -9.42949660337698
-169.09466696437 13.8578951463443 18.2466841875007
34.5787705786805 -16.1560911208443 -12.0892359628797
-235.737859793389 8.18106836717083 2.72298064973141
-127.454636460983 -5.68076098186897 11.5753672133235
118.899086783957 9.17657346431491 4.28073978820558
204.928032835762 4.45445547210601 3.12408022187437
155.040407941293 -20.2472828155115 -16.6548103270073
22.1115231017686 -14.8323179780875 -16.2718141852739
183.37357368188 18.7281991051164 28.3654780837195
-202.724876019833 9.75716946312891 13.1550689412906
180.954750493469 -26.0370679068347 -23.3966129668913
179.496410096283 -36.0209431252372 20.0663569601852
173.53536555977 5.78849602862904 15.0521230373453
-232.605740713015 31.257830292976 21.8754158156462
-221.385850207145 -21.1788923473057 -12.5319726080607
-206.296663461151 -12.4422952994162 -15.7116994532046
-224.413300902201 4.9342472989154 -14.5786837038467
-97.1097142047322 -11.2086543564021 -17.7237023734795
-206.736002773174 0.660374080838934 14.3920278674453
110.664344690985 14.0309083355011 -1.35068920832039
204.359058017593 26.9064504564796 -13.1339537509131
-181.14766882638 9.04781882224431 -6.63047612501843
175.392492829099 34.3908323311666 -7.18268619726285
-212.867651661187 -7.60312573410709 10.9280689927909
-207.951274040442 -31.0445809258081 20.2214464831517
187.616706032306 -16.5188232443651 39.2667297122756
176.873461880922 25.9409519458321 19.1923800929149
-168.088490012086 -4.04646681214159 23.8382239024432
-234.991220867897 48.5681283186442 7.70688051065691
-201.331123774546 -4.01302036357464 -13.6968547264758
198.226046486682 13.0803846179997 15.8342090302992
156.864775407346 -6.30721792469403 -22.0688697164725
-189.824242226207 -12.8421828149046 27.9692719655123
-190.611513321038 -29.6467514405357 20.848124673591
175.498988451425 5.09221233565807 16.0258651393345
200.156639656116 -31.9623724218937 -5.98292516633302
-223.673715488006 29.3347158962009 -25.1894262814705
-195.915818690931 -33.7168251899645 17.9061953477628
-202.239267701081 -38.5810296156672 6.01039883726465
131.871330813213 -14.0506160738524 -20.6337347570815
193.934309403669 -7.58899350879145 -20.9240392987726
176.097514556201 -31.2025648365515 28.9045068855005
129.150557238101 1.88544977635447 7.35897851838737
-171.15382821743 12.9092726318304 23.4351458960201
84.4034437884973 -15.9959741767039 -16.9178555712435
-203.356284596597 -2.12945005537106 -13.6458322820634
-219.743860952614 -4.16516076246788 -13.962788051409
123.940906934499 -20.0280147676471 1.77830016224728
192.688165812549 -36.3928498250274 17.4504115858945
175.012702098478 -27.344478657406 -17.0849172835604
91.6836536699902 -7.75528139727287 -23.6380986021618
155.885084979483 7.66427847047584 9.72635348656139
23.1675196470209 8.16226948752037 -5.56143033764489
181.873386596236 -12.3051662665188 -25.6627653017465
-226.835634744898 -18.930118278074 -2.4767970921507
124.458791513885 -0.839179906109859 7.4777980688801
-111.134469322033 4.2310809661629 -11.2475426529463
-237.345387678286 8.09280105722423 3.50310403995595
-201.401786008202 -30.9458458597518 21.2582104310799
175.372278401865 6.58252794526222 -20.8807898422664
-211.094215389512 39.1719651214132 6.99810906233978
-233.341954614781 39.6361901139427 -22.6118288879794
-231.760880370604 48.098460832339 11.4293621983063
192.473933122984 11.630806786036 -23.6756073387741
87.5792409459616 -18.4952179520867 -4.23325430476162
-120.689215107056 -11.9326582529854 -14.9799338467321
129.237765330441 -15.6179644637279 -19.2746429637953
177.062826050194 3.70400972708398 17.1754422706093
-244.117116674159 46.7675063390847 -7.85093239996522
-225.183817631138 43.3796364567473 -19.5048884450992
45.1599612916803 1.18133966929893 3.77485603377148
-209.221944282398 -37.7249009739488 3.16133585607744
-209.362754874732 33.4535639322503 -1.94902739791938
187.315285966384 19.6828629092036 -21.5132884867224
-249.582125480411 17.5816445569196 9.8575811821747
192.803761357214 -36.4161552338631 9.54250897699665
-211.82796937868 3.08592436295522 -13.7322799717309
-127.435257481029 -8.08700388371825 -15.2289156232591
-188.816207974271 2.15134051861146 20.2501672264844
-208.879605085572 18.6991088060532 -9.29608678506247
-223.367544079224 -3.90763222385215 0.963908313135959
193.128455691807 -1.10219211013897 15.0246355059655
-208.6621260712 37.9634207120226 -1.33315354821164
74.3336723056391 15.1369358069574 -14.9269704055414
195.646386377307 -22.9034633639695 -23.6629995493971
178.68457569812 -5.05176148323624 24.0833187847726
83.4572449128414 -14.7494136375473 -18.4991043936928
161.223281983855 24.1448227682435 10.9628820482212
119.922645944691 4.92567107805485 5.92921293942498
-190.744300772923 14.8879508552352 1.0314469656194
197.017669216516 27.3243926996544 37.3927914805192
-69.9579237824204 -16.0120902179706 -0.0238563480432062
44.0801312864117 -16.4688643411269 -7.55743154166203
194.545280801981 -35.1864252497614 5.57066895521346
190.516295068341 -7.38260708362223 30.7459946338623
-84.5329999794551 4.44029995822798 -16.3541898914808
217.121029623858 33.7066330010989 7.30103521802068
-214.352076628277 45.1059654558169 -6.31395414991222
179.691806238582 36.5084156022543 -7.2607466829776
58.2220854061489 -15.4555575002311 -16.2708627925498
213.229246410298 37.3650093248817 10.8011980403258
-235.887571881943 8.78903110386849 9.9969970285966
52.6932331604512 8.65587446497773 -2.90252739726802
190.093122260782 -30.904372536984 -12.7678545030407
198.92074808337 -32.1055245533081 -4.91087608401841
196.818797273867 -3.58481627916374 -17.1553547412362
-127.191885856919 -20.7750616826868 8.04191526209492
191.292986734822 14.1883606113897 18.9981067361202
-236.493073659276 8.81962882283018 8.16421444467055
186.667753346562 -20.5534721350031 40.4432090094731
212.109370764601 30.8561676178473 27.5851612767967
152.30688201281 13.9796801451116 8.9120917029275
201.386620835122 41.3774298581094 32.2299120515644
214.885763262556 19.2666167885878 13.8923843495291
-116.332919894183 -4.67653666860351 9.34133568825184
163.082410141416 27.5960966022642 -7.85306053212501
164.565596310972 33.5166487748901 5.53867351350267
-47.2366450758701 -8.15658819607929 -22.4593703588463
-183.315915482488 -31.6936237150785 -1.80473002276859
-142.339904574475 5.77049987675013 1.84352304948565
-189.508673350082 -27.0374712550889 -9.06960577258744
-239.674830787322 5.70716544925107 -6.68122310810812
-223.239331716994 -7.2162484643083 -3.06139271130934
202.193176875921 42.5250519658995 24.4161245398867
-0.0526109106503761 -7.61426213781737 1.90383775927787
170.146711723145 -26.8329416436905 -13.6281424965482
190.554193688935 -18.8219130698691 -26.7300460456774
-72.7734352083837 0.0581941780220882 -20.9449831962595
190.37357311189 44.8693818840135 17.9296410868407
205.548629001388 -9.36894056562926 2.43888624585086
176.965684344581 -17.553406354173 -26.7547728694787
-217.862453421077 -16.8986938054839 27.130433311616
-190.678165593942 -38.3160650755994 1.67258513359878
155.803809482164 -24.1315201474094 -10.0998090573747
-208.836691401245 36.8128207475607 -6.8174129587075
185.94899649548 -36.8631047085412 7.34549724701803
-214.245694227957 27.3004327621801 13.1404703723707
-187.482093143942 10.3064830776789 -6.01730107107881
-177.784076301503 14.5455831708724 16.8632160463395
-193.620156492032 -4.78668123844851 22.5423678599799
143.166270605973 5.68305982214502 -22.2083705776515
-50.3289176232111 -7.83680025086582 3.80242047223537
147.610671979389 -7.85677585456751 12.8664997363823
-10.6812134077836 -15.5924929667455 -10.4605390120221
185.700627264153 -21.5091344439192 -27.9729464272263
206.974268482711 -17.310759440794 -4.51687997913959
162.396795034423 4.9349741810706 11.6049298623583
-228.517413276254 -22.3831594977567 -5.12184179145455
108.852326240157 -18.5211308956696 -14.8942365205852
-229.507964038525 51.5035619562161 -0.297192923423824
-145.277723584339 -14.0511636577918 -11.9535647990194
-243.569566824761 16.0853287610108 -18.8364880302272
-46.0672538439584 -15.140986149405 -3.29957042799941
179.183534851727 32.4740430055032 23.1855907472873
-199.801616607903 -10.9698448069866 -13.8375316876343
117.223888990276 7.07951491049459 -22.5609545984346
-175.066001918438 7.19163941109273 -8.18641051124995
150.064605445133 -11.3032256545602 13.8372985681948
-160.947772540446 -11.0016368027845 19.3733471548084
-101.526289838417 -12.6061567283681 -16.414862673917
191.949369067719 38.0697123734877 -4.75328990693681
-167.836232069902 -2.89470981147212 -10.4399011819204
-79.4669314886333 7.16381036424462 -12.7538786040914
-34.0703010568107 -9.98288393978299 1.16670141872221
9.35759338636501 10.4656693377281 -18.4521460829243
-142.682232516983 5.25999849812645 5.03896946425789
-228.61147161061 6.8391931914526 9.78989157908525
-4.60481105041412 -6.68591775957111 2.51046862737831
128.817342580481 -17.585362234456 7.17168073772503
165.675803521239 -31.0778741041872 14.9695952794552
161.036198731256 29.1815564747154 -3.46877747879648
203.419394840797 -1.18267601341568 4.59072313455318
59.5943510260135 4.96947715983944 -23.3762247489791
157.322581807073 -20.1938850771796 -17.4943862663892
210.364720056601 38.5595139639536 13.0946949415687
-139.099315012393 4.83037768894943 4.93336681134529
152.385316246817 -8.40837652652631 -22.4582376979887
-246.908731239464 13.5706605570176 10.4828983263271
204.804177668208 -6.25939367677072 1.38202622509296
7.20579235851026 6.59910361258823 -4.18459772995388
203.371097830647 1.43059905222774 -8.06912507821628
153.529161732112 -1.11232837350324 11.3968569776307
-214.880802510221 9.32614482248141 13.9913762092936
159.528257446985 11.7525554694715 10.7380125051251
205.085333338751 41.872668174041 21.0175226931855
176.633281264686 11.636076591408 -21.3655704345843
141.814055720336 0.789679907665542 -22.9879807375986
164.445989772505 23.5029198592317 12.4430184319461
180.658074825357 -27.634410196468 38.7371562170205
189.002207839993 21.8297400827179 34.9870296073386
-49.4142489764982 -9.77287321570325 2.57807996105714
175.44554502343 30.9865554115695 -10.8682034695662
189.293664349274 21.1226627664312 -20.7951310087644
-228.450215483257 0.598793307658054 -7.78022741099609
-173.403042948383 13.5095059488979 23.642151052842
-224.068404452786 -28.5180242298136 -3.80892792431074
-197.725178432357 18.6508766411376 3.13478807390776
108.228777139475 8.37445593928 -22.1656858181245
169.918240938531 38.3360695380856 12.6837466213794
190.978785534068 34.0335230695311 37.1188585069233
82.5221803637061 2.41135490106213 -24.1029861705574
-234.612789819607 48.064297416566 11.1787824958449
-104.82051437524 -12.486718186209 -16.1956752811296
169.49242417724 -33.9575388799704 13.2703666415265
-144.918979849987 2.91967071530928 10.529905897405
-211.567209208898 -5.3295210733165 12.6032645387566
173.441472166895 -30.2300647041315 -7.65267008009311
-73.7957981815961 -5.87907236980722 6.31021361323061
94.4096341224256 -16.6875502324689 -16.5996553175282
-212.272336467999 41.4771575674097 -9.56285348532353
-160.45669729306 5.99380976478422 20.7162657452216
141.232377712917 -22.7607394255542 -4.12703194491019
193.131474456725 44.0585221518922 12.6172583444657
-218.545518400408 3.23511135246075 -14.4497337832858
-208.744266316359 34.0940494345272 -8.09284484908877
200.586717197641 41.1042026889549 33.8832622774139
-196.058755324526 -16.0590727081688 29.4481857044071
-155.820047777165 -21.0925478892469 -6.66080966107748
205.805168145396 -32.038822390706 28.6829921837167
189.780672670596 -37.1031194124335 20.0122588208096
-67.0010284613676 4.11179209347918 0.20710352398653
-10.697250921162 -3.93830406294406 4.92435068324295
133.562599546669 -3.49815197089708 9.11603260917006
-228.807105346707 -9.55849788833841 18.7885318979492
126.140565693342 8.95387645390362 -21.6556292022207
194.061525078346 -21.5250025258216 -24.9426789654812
64.4773174987169 -3.59788504834537 5.54910041606516
149.417543289084 -17.729662209712 -18.745701843262
33.9265387182729 7.71961374093796 -3.38085978828774
-71.0643305179793 -9.08529738364001 6.46365572310784
-179.725722841737 12.221910519686 21.1768416629129
-204.977497042151 -36.2047371085617 10.7495181899619
-206.530423535903 -2.1998355688222 14.8159170853352
-160.527328641907 0.725125688675011 21.2227230077956
-188.48051884753 -36.65549724435 2.23075096229089
-163.57436460538 -24.5064882606994 16.9409816281049
-139.969321594504 -22.62576701515 9.29030061363294
-215.144264704194 -17.4678921787536 -13.9290459935486
3.59017852351558 4.51355144351794 -0.187154452031234
140.686699791931 3.48408029279029 8.49301205396193
-213.432051953262 39.6330853425734 -13.9676421420691
151.982865749254 -17.7614029132449 -18.9688334977566
-216.785953054891 32.3481173723921 -21.0176848805212
145.524502975224 -21.0891897604419 8.95391204502962
176.169474934595 -10.6899504285115 31.2367879596199
-206.935180874188 -28.3034315279935 -8.18368607539319
199.685016570355 -30.788913613058 -12.6813287996557
207.05965256234 32.1480232996907 -6.68594954105581
182.798018511851 13.6269925178184 -21.8412921968736
189.871435603408 -28.6440660648862 -22.3808928335025
91.1995609766019 -13.7830599767476 -19.848895084901
198.820444879479 43.0021358877604 22.8980049805927
17.2852384079035 -2.36009083404295 4.93746594472709
82.416893602731 4.27089032795972 -23.7153707536021
-219.284035221576 24.3608992414827 -22.6727905422829
90.5587749750318 5.70961175249029 -23.2370840504064
-235.471577804296 45.7826791199866 -0.225879812576752
209.151123735684 17.4306094638471 23.3177200299929
-206.441232400818 -36.3106365107407 11.5779317532899
148.143518126676 -9.73041553105967 13.2087493338793
44.7350699883136 3.05156636805177 2.96942658940864
-249.943850109509 12.4435819494429 -1.59212255644223
122.626545623812 15.1397174904048 -18.2379886918037
60.6591547991193 0.107522059930274 -24.4420340325751
193.839894025545 2.36283491084551 11.093357539578
-101.934421212429 -13.4209210872657 8.13134027546916
-125.230411888742 -16.5475186989747 10.9109207556989
-92.3164858592864 -19.8569580727872 -2.25549488873692
-29.7902143116695 4.22101067596977 -22.200754683417
6.63226801831879 -14.7174689743119 -5.8215707578263
101.715349784406 -19.371381363956 -11.6708923581401
204.777026047212 -26.4526631349187 -9.33935795295939
206.292939727273 7.31309393238245 -9.01487727553721
196.748483951646 15.9872189091295 -24.10478073786
80.9205002387305 -18.2864184834607 -9.37327441694917
-186.684302816459 2.04413599454202 -11.6179320962994
136.415753869928 -10.4828196246244 11.1466088674701
-191.247246624693 12.0908082435289 12.9612703249059
-201.302847850814 -35.1707666001739 14.1227165094431
158.019950216985 -15.3481137189877 18.0293312723454
-62.472086395902 -6.19166085677523 6.00011825311168
-152.869841513907 -17.8848279142498 -9.85251233399306
-214.696540370922 19.0857100070044 -13.9176355758779
-170.166401867934 -5.37227996303489 -10.4746464805492
118.829043776131 -4.8780952629435 -24.326374750285
185.859518800463 45.6842799118303 19.7230339049951
-142.633623702581 -1.65463734864657 -12.4966047574229
47.7513563499039 -15.3526962935031 -15.6237017757116
-130.429009274139 -7.14407407577925 -15.0115194759059
145.91284898867 -10.7925156845984 12.9967117195619
-127.774722876666 -1.19155696281036 -13.8455756005143
15.212239419951 5.49317381162854 -1.77967946213779
23.2588586348951 2.33608178557084 -24.1473414703388
-158.596652558271 -27.2631186968748 7.56624505548785
-130.630905646725 -10.3488296381042 13.4507742267827
211.155636196179 11.9869638556114 -2.52267194250086
-205.991183513474 -35.3633356046797 14.9672793525463
-58.6500578478927 -0.390640666139732 -22.3922975154171
2.09288670724021 9.43038736314644 -19.5408125980574
215.651450851016 23.8428647193196 -1.77950667585144
-227.669280748609 -23.6290805386926 -6.59431356536029
-71.8757828040603 -7.4090831381241 6.64642072384107
-208.948691697105 21.7758099672841 -7.10882335176833
-241.072304582943 49.5351831498838 -2.5198085574833
-212.539792673899 -2.13871119864445 12.8623638291079
194.470927239343 16.9090305240982 27.2780271536888
217.603313656632 26.4473893717114 8.150220875199
203.25658587361 42.3071141796518 21.2849561107087
-240.464547085207 8.40250633067963 6.23614804798676
159.056275338238 -6.38843006220204 -21.3933797874805
67.3287573791378 -12.2675313902421 2.30957648642995
98.620787168897 -10.1021962877662 -22.7129954611608
-124.964245483893 -6.90802341630092 -15.663544894798
62.2548407962421 -17.0547336324635 -6.39365280629617
-213.139010502005 -14.7727471463689 15.6512522511647
-225.90269481047 46.9778398239794 12.3678139774557
33.2762622903333 -14.4262004741423 -17.175457105401
118.635217111172 -20.5313107863772 -11.0173874114524
67.477057777447 -15.3934399001961 -17.0462544647023
128.5091269371 10.9321802675191 -20.7478602147499
127.832567035014 -9.80995576730764 -22.8646804399945
-206.068569663551 23.1770468614096 2.54327046903307
-210.940664077695 -35.0432100054627 13.5336291734252
177.673257119408 -23.367230909435 37.6661184130482
60.1293920608551 -16.3580332500657 -14.074421197896
-185.319194404494 -31.677700914273 -3.46382016394443
182.880887815774 -24.1813157579406 40.205379354409
175.771474302715 -21.5511685218279 35.8365031002235
176.616841861488 31.2567286870771 18.8707673360512
-108.894411083408 -10.0913097070239 -16.9914759911993
103.632454471702 -19.1832550160889 -1.61389944909647
205.427980079702 -32.8408390216406 7.84846997309541
178.874400233622 25.4517132438954 24.6145240227857
-223.155168305683 25.4913849448724 20.7020617234053
-231.614811275915 -20.393200049187 11.8377780763537
169.100763177015 34.7780152788375 -0.738218649182867
-102.861707559327 -15.1105866559021 6.90892298598976
-99.2347753372452 -4.0562841915279 -18.9905713256531
-177.659289812952 -25.0388812722964 -5.69813469146184
-220.246082514734 -31.1351887881149 -0.963435185010613
144.154059908067 -23.3059566392369 -1.40738719391032
-145.892253527176 -16.3624585908139 16.5658235779059
206.748977325886 6.53541741613039 -4.16792687878755
-203.034717581199 -35.4704013816882 14.3094692209343
168.295643585193 -30.024170871475 20.4853395267123
197.242234249947 41.8826484192749 32.8255645236172
-223.093276830997 -22.9695418299565 24.1289208794822
-172.516639569242 9.50391832360339 -2.73186389008793
179.473455556817 -20.6654379130572 38.5263075108291
-121.08896700601 -4.47132988063874 9.96371731537926
103.279193452074 17.9433565813978 -10.9344710840362
-160.357104282172 -21.1328874524576 -7.17784145922637
148.601103747029 -0.173102919153999 10.6060021634127
-193.694574514507 -35.6186917294485 12.4591499579812
-59.7319375644426 0.135503952815393 3.50724977469794
68.3906542838298 6.50840633054367 1.95265971643797
-90.4290692209438 -2.0727919059471 7.05916882770171
-128.468908081776 -21.6791346246257 7.19976366265501
-109.588363246199 -1.31924389650994 7.80900175646275
-8.52499359260558 1.0682254357463 -24.1067017048239
191.563021158484 -6.62693541952232 -22.0426232716517
-171.996755807759 -17.8833061996868 21.3940344040319
-182.198465813879 -1.87533033084019 25.7014504118686
210.630174592375 18.3108006965754 -12.6971931612702
-133.192151481678 -6.67853940859903 13.0587256644166
-93.1878803250715 -18.8357008237054 -8.81172093195086
32.1518654366436 -13.0252277111343 -19.3420142597213
197.277305493997 37.3373753618382 36.8676279524178
178.632737883584 -31.4748320421571 -7.83361758462287
-197.84011528165 -17.8924126309581 29.4788634245336
-41.8356847002837 -4.59383303368155 4.95067187122724
145.10188357501 20.4088917788262 3.30211313131263
111.935523413704 10.277585257502 2.5069348093924
181.054905141934 -31.6458074036024 -9.76770216867261
-123.528239308334 5.59953278147638 -6.06070924541674
-192.022342462853 -16.7819515270552 -10.5655005191238
-82.3560547702687 -4.26689635134017 6.37119814849874
-246.077299389839 10.1300430598786 6.67298514660509
-210.19656617004 -13.7949830302831 14.7505023504365
173.848868696504 -11.6144851814595 29.7931077345334
130.949737130251 2.93204339446808 -23.329282367002
-111.917720842439 -11.7829648798913 10.7747829705511
176.466312037373 27.0141824891672 -15.6286973587397
112.885387908086 -19.4099458543269 0.308353638178652
-49.3418158794241 -11.7685215861463 1.14949597478983
204.380369637581 41.4918112038463 16.3466581985644
137.757009088835 -16.8114883148932 -18.6164860539059
160.822132153521 -14.4790227494438 -22.0740066208453
16.8603523924991 -14.0884044594753 -3.58169912309033
169.101397077911 31.4560839339958 12.5948722306409
-26.2388724560035 -5.90202495713275 3.40688836196491
154.152162241078 14.7871311629009 9.6177786243035
198.612943073419 39.7293752838685 1.02500729801928
-161.851095304388 -18.0836333974249 -9.86587825317916
-78.7361970824305 -2.40294524679246 6.00695163441218
-226.897271896608 -23.3932845136914 17.9807261381651
46.0809010578153 2.91092324469411 -23.9350306470033
190.228661601488 19.2369809442516 -21.559411463964
-197.722660746634 -37.3754112858294 9.81098207473565
-9.93649819488641 -1.7712953342613 5.00639593300171
182.248810956127 -34.9320766706207 7.79090312154745
54.7022625069474 -16.8695125346937 -8.00791164386429
-165.024824621494 -21.4889501274588 18.9309415026026
95.0367484830644 -17.1032247132515 0.816161867488304
204.926387469592 -31.5610575055759 4.60914843239346
105.628725605197 9.50421970164581 2.41370394957276
59.1901164541881 -2.87208868473299 5.3437914030683
-4.14780431936178 6.02130151375512 -3.41146713822329
-199.333049060068 -38.7923811546458 5.51434715982346
-216.226335859129 45.8426057963108 -9.04186424366415
171.560855770497 -4.58983796507656 17.7339366018988
-225.964414560316 27.9866749356639 21.8300381556374
92.6755417259195 -4.44831850157584 7.14269404735223
-3.96410707408391 -12.1839443144208 -20.3344297896345
201.20146060973 -25.100545067984 35.3388814230134
160.149331227606 -12.4331602070929 -22.0484802453162
14.1556984111935 -6.19364955166164 2.76540323516793
30.0312896465536 -0.972728798096503 -24.6499197899422
-149.548636852961 -19.774743711191 16.7006786321967
181.310882503468 15.0651266326783 19.9866408714031
181.402962150257 19.9061542554548 27.0461066088267
-5.27518977690328 4.70128127839915 -1.00593184458019
-181.210319229548 10.9355670971641 21.0614636136268
-71.314531201277 -12.9436903184526 4.03380278569354
32.4609695791744 -5.80778996822388 3.40599448002994
-194.611257097011 -18.9595476399007 -10.588601616202
-221.720645228984 -13.6469926231542 25.7027085154852
-197.203266948273 -20.4724781253063 -10.9443829308304
204.366119521218 -5.69766931896386 -3.31587060284058
100.523241764027 -17.0154865055401 -16.617359110433
-242.403820324535 7.97972880191576 4.70589732911216
81.7968127706389 -17.2786740195692 -2.22095203834358
-223.269573309622 -12.2271145157603 3.06671857602429
85.7925867728259 -5.77790997373415 -24.0296454940159
165.534965135298 -2.57574478619369 14.6492048741635
167.486792376306 -29.7285948933606 -2.89169406857502
205.83702509498 -14.3330610641484 13.1648160149356
157.875298937583 19.1003249618618 11.1100261232865
-213.439942068558 42.7374095284295 6.91667937000685
175.67465467045 13.4415530790525 -21.1948298926151
-202.302568038812 -7.89762867176143 23.0811565458342
148.210584261189 -19.9685515434669 -15.7743457277414
-241.552059793628 14.0760096500801 15.6704037916558
133.058896967324 11.0942486076201 -20.5896024320409
-226.617828125324 51.9337527123607 -4.45119377888354
186.836634222815 -33.436850432908 -4.29872148744864
128.875593714549 -21.7305326223367 -3.93249708468103
186.425845234223 -10.0205171699514 33.901679589839
-110.810094735287 -18.0142078936748 6.81795943168147
196.168163677766 -33.9861555557975 22.0867379941804
50.2594040518257 7.27886343781046 -22.2414614036914
-112.459641150526 -6.62509874690063 9.32029961844039
-179.038928165306 10.2398536330974 -2.02936358773121
-109.13164697986 -20.9787862515216 -4.03446836285784
186.014920430258 24.3482695633573 -19.59932269402
-183.291683410555 -34.0589571574981 5.32260047719833
-174.391643242348 -3.10566813946079 25.1993832782697
-28.7456502214405 -10.1085395180841 0.811054404128599
-104.6802557026 6.29672433170445 -2.37944710469158
-10.8290718336046 -9.52263798879434 -22.4888395457972
-204.766716685136 -8.03785350263542 19.0633250942571
121.847147870722 -9.83890340404452 -23.1598277179741
-154.011871056266 -14.3942378233281 -11.3132658450573
149.784024333681 5.19354043424242 -21.9190868956788
-191.090432886973 -2.11306846822126 22.9496510648238
-213.935850145883 33.6502560870055 -18.1149471525824
209.416904357196 11.1586865466305 5.53132927506087
159.566301905363 7.90169340591414 -21.1249789903686
121.052747566815 -7.98571474125312 -23.7540819078463
169.623822801215 -1.2301656292801 14.9249424517775
85.2793132620622 -14.1397517643152 -19.1717505163161
-208.693849845827 -37.9544262147033 1.42243116699502
199.147255758378 18.6113654763127 -21.1192670716444
100.533316382869 -18.8070888637869 -13.2399699684644
205.724175157183 13.4801912281854 13.7161159120801
-148.888532721804 5.0867010387076 6.91834695979231
24.0683961221961 0.522629389677235 -24.5665985713084
205.914728691754 14.6328252394541 15.4425036459793
-161.531639404268 -2.27613248274253 -10.9343442699196
163.128681801395 -30.0971942080256 11.1600100251605
200.115967554716 18.891993047214 33.5212110772094
75.7892513818822 11.9913857522169 -19.6983061579317
-216.197330546584 7.1484388648607 13.7645316139255
153.043933257585 -23.6977008846728 -9.6725088436311
-152.922634552107 -25.3265421054533 9.86826255274745
191.34864815346 41.3062146463562 -0.967963655606409
80.2354009240525 -4.3629045242751 6.42149690991786
76.4649150968564 -15.2000434081071 -17.7809592879795
27.7659613394324 -7.11382306601799 2.58790557723243
-106.978702501002 3.6562098104335 2.82446693042044
-205.405596970015 1.59488331125904 -13.0047310099298
-28.0249052499242 9.12904392140145 -10.0908013952066
-27.558248292606 -13.4489279592246 -2.57785877787437
-210.196150955598 -22.5793704477283 -11.4495979559181
1.55490519137008 -13.7311034928231 -3.77957162511786
152.068156581172 3.52626043422304 10.007995666223
58.7655598127794 13.4104137017232 -10.1636135866893
-250.264680602015 32.5435860848831 11.1112573215808
-114.972735020139 1.63528234775447 5.77345855916864
204.611000456207 30.7560561453572 -9.61527589503534
-27.8032533686305 -4.81168283535419 4.42799579341225
136.07306354036 -3.73059672049247 9.737121119185
191.583297722324 -9.27265460483352 32.7465418232912
150.158201861489 -4.78522453312349 12.2739530075891
157.849198093347 -26.3459659718701 -1.59847997781377
-220.486508647474 -31.8914906145613 3.7830321719681
199.595719193083 41.7905405869007 30.1880838591157
-220.320470308557 12.6134320367521 -17.1399758659303
-227.345793084666 -9.17268753007485 21.7236436569962
42.070405511307 3.44093596087243 2.86038325829173
101.491713173027 -2.0173459791541 6.93290047705125
179.63153858395 -18.243931327024 -27.4810222507363
182.589884948806 39.328653315089 -4.94818647909276
163.178009219043 22.9894671615226 11.8179684357188
-244.679026044995 33.3023546184998 -20.9548535228864
-166.41152661069 7.981024649442 3.95765296483067
184.560869211271 44.5610083434749 22.114301946094
