77.7135706180864 -6.74544924654542 -2.48966975076252
-51.920800403563 -1.05787965045255 -11.0465546919896
7.5587359975426 11.3706541942007 17.6506111401392
-231.369479902972 -2.94544073410579 16.3081045791843
173.396276684593 -31.6118758141066 -10.7069073055134
-16.2505512858126 -14.6775399600011 13.0350103418023
-200.471452482766 -15.187679195472 14.0386993113925
-0.281575222871922 10.5389023090586 6.66745168611609
53.1510137946456 -1.81624835304119 27.4001588187004
10.0174841602846 9.54458751406288 3.35978110776899
-88.5149646774319 6.75494114206657 19.8576499223058
56.7988921303066 -3.28099092459503 -6.52480691576474
-8.68825969252396 11.9137470146948 16.0067181100743
135.259639958877 -7.03655991425151 25.698778829507
-217.213768587309 10.0232096033139 1.47031785036971
-84.0399168573058 -3.96019941534611 20.8979450656527
184.838877828945 -39.3921728953371 -7.34271890481446
-205.272188561807 -9.06778190530953 -14.9167584471187
196.615814686177 -32.0226888208357 9.63080022478313
200.738607531066 -30.9506955267495 -35.7043688719206
-101.133231249237 13.8837091099137 -13.0268581010893
166.905672844124 0.226809929595811 26.7825360936662
64.1914731413606 -2.02025340826499 -5.78875813248834
178.613140265131 -17.6364755481953 17.022971807594
-87.4774133327893 9.66452415935102 -14.2052371724293
-167.826274101305 4.34130837928868 12.584081511144
195.799973793992 20.0280293648847 26.83032108569
-157.58225072225 8.20381903924507 -22.0159435409041
189.908843565372 -40.3376761090918 -21.5506145061488
215.741563465847 -7.85849655651804 -9.26453720242858
-222.265201129428 0.704913549126658 -1.86683903476679
65.4474912638192 13.2556850582536 11.4836230364639
-185.362995584717 37.9325200468011 -1.24036972173387
-28.6800246107929 -11.2111496096692 6.97291309557458
-188.318907572222 -10.2608461450552 11.7663260068539
167.578810400573 -24.6321938053574 9.46559290881399
-145.758837442125 -7.36794959595004 10.5700144386973
201.542109320161 -4.90690906642647 -28.7746634079346
201.835309604239 -37.7392733162071 -7.8511966597149
-185.186198572922 25.0793909116828 -24.4943723327582
-14.9267426634638 3.67861206262588 24.7626876593929
-127.65617187784 7.79261683286462 15.3614787884929
-179.307145759363 12.1473289985354 11.4011425412647
169.661456372539 -13.1089943088322 -19.3791491289708
-200.87038516352 2.4118419364308 16.6615108973889
-193.070591063647 16.2595768729048 -28.9486969700623
-197.218824618036 7.22451234678895 -17.2303165401442
177.452759687969 24.2026883068238 -20.1244163816706
-57.8630553265688 -12.1913645244325 11.4130914928224
100.877523738676 15.8173654174937 5.3083976357726
178.082865144757 37.1783197127209 -4.86635425527339
-42.7533930921609 -4.61900100436609 -10.0370849219437
-182.874150629041 -13.5760066939969 -11.3399224227657
203.669882471988 -36.3780320007333 -6.5856878239968
-125.910943848393 17.468529955245 -14.3571790103053
-214.965010862012 -6.07643346181011 -14.2996810109574
211.855934092212 -30.998855348034 -30.2247520518274
-79.960816805425 -5.47100188691735 -7.37306234080548
-193.553283254915 22.5481052957353 11.5613757547489
200.642189889999 35.5623956710524 -25.5834290138289
31.9809937112386 10.0675349309425 3.83468736642165
101.465594708566 -11.8380678317805 -0.456317467243485
-188.327397712946 -15.3308516481989 -8.63093262769885
-12.6905608468935 11.8647743144471 16.8546582243416
-246.242210553653 -26.2572850857836 14.7572671693704
200.54885159567 -29.3262832150343 11.7442542448551
196.931519448423 -34.8591911205071 -30.3877864133223
17.177578249249 -1.98043714441827 -9.03930057836064
-222.045349189613 -7.87519295381886 -16.2187335566033
-186.928374269598 28.0585349409332 -22.87701924296
180.781205849421 -33.9297636022259 1.07300814678692
52.0796219520238 -10.0945020272481 25.0331462441933
-209.695393020375 -31.6387728499996 14.985876600724
-207.859797498379 8.76210075784631 -10.5000835431785
-115.479697009993 -7.31678682608782 -2.28424305274772
55.6012747171052 -2.43154960364488 27.477168808857
-215.1075197253 -36.5175835007859 -13.5749733582184
217.771868135504 -10.3836092707277 -25.8634987233273
156.171842206413 -23.7251129802911 10.2854747493627
-43.5680259392072 -2.66693422149931 -10.9023886531414
-94.6937385526097 16.3772647394793 5.3919218700966
-87.9915654648226 -7.91513265502622 1.45012161436676
-190.003275867996 11.5693793709496 13.9205719734897
215.145331863801 -33.2340171148289 -5.72781166003225
143.015885834618 18.4280676415547 15.1483339057215
-204.619338965552 -25.9467644985867 -3.80371237540363
220.954778367636 -28.8805326431825 -6.2457187728351
173.19623535731 -6.31799975608513 -15.2387974870578
175.984260405038 30.4524915243329 -13.5851963532917
85.943427763948 -9.01164770196175 25.9616120805108
-207.979508522664 26.2113589815293 11.1415680065165
-17.1697268070191 3.58776704788035 -10.3964021921021
-114.132363060215 9.95377517769824 -16.0752274059955
208.042555917366 -21.4361285356699 15.6969996224502
-107.980692989757 -0.970377532786656 18.7637606281769
-62.7506849757102 11.7227707245592 -6.92779430654949
35.6702955915341 6.55796633523734 -5.15210515941486
155.262038678436 -17.4949642395177 -12.4768111887328
183.33706501733 -18.3499965047788 17.1858901336385
17.651756362924 8.39112271272119 22.6021869830273
-219.544916073303 31.7938936668108 -5.34448560022639
87.3292623915905 -5.97120588248443 27.1745976237298
-142.141652330512 16.5661746927316 8.90235772937238
-226.309705905725 15.4496497606892 -16.0216931867496
115.31111047551 -8.8524953315487 25.7678536545471
-216.557873435094 27.0544954263013 -21.4394688419376
108.079689578308 -20.3558789182105 14.8450414167036
116.097192733724 6.08820432717916 -4.61416324105187
53.5899410886902 9.31489153028812 0.428989888073883
-85.7338396654242 -4.25462756753452 -9.92708546004792
-42.8533660700336 12.6224294840069 7.24100012783405
-197.970076324566 0.156370147984942 15.6557856562682
205.395158393175 9.93229504142766 -13.1554866390846
-79.9303555972575 13.7644339371758 13.7023446830787
-109.174121489338 4.21919958591379 18.435076580208
-0.255883853484113 -11.8237937142634 22.8084751668227
198.692403970001 -13.1732645814574 18.2085694474735
180.490808470981 -0.753875557543297 27.0098008496159
-165.686616250995 -11.724376659122 -8.07825601241431
-171.13884324799 -13.0375220994363 5.92087801211599
-31.9885942015718 12.5383746790819 15.4489476600266
-10.3296614648649 7.25177100560646 -2.75063373576959
-237.915938712833 -3.37898968486534 -8.01269867078983
60.4153429220081 2.81778799649839 26.9597431738719
-183.52973796787 30.1547034848448 6.75285470298646
-212.550620324899 -33.580471044354 16.4452258857888
-86.2509005841846 -9.09912713429376 6.20186632146721
-223.6764626601 0.702810727552192 -0.348444533797133
-137.818820240335 11.9910355511345 -19.0057260426525
-55.010205944521 9.85628886797687 -7.2373110109631
81.8616791074211 -10.1183060440801 0.0170077050808604
138.13279392225 21.7877744088475 1.19397279025805
-195.944695969946 18.8052860636152 -28.3465653351634
213.202713606632 10.5572973409197 15.6198801074172
210.086267963006 -33.1289795600584 -26.7168409956758
220.899621774894 -15.8875759555675 -11.2852578596953
101.388394546225 5.76993242161164 26.5258588066691
191.048120814358 33.5669862129918 -26.4924045646791
-233.783057324171 -30.7580217438698 22.2461975677343
-249.568999227889 -14.7118173563462 -1.91824383698284
-181.073801646486 -5.78006438711503 13.9683951746568
182.102975245233 -4.7624781266743 -16.6633777340192
174.085939258538 19.8878700968275 22.3858627055496
137.356509804766 -12.2737386707411 22.6297912740094
-219.576691592188 24.5144727797581 -20.2619650933638
-116.660587936833 -6.92101944651362 -4.77656708585
180.757257118927 12.9938661056634 -14.5437668061565
207.912000521018 21.6180316678337 -22.3755439265258
169.675120650236 -23.3513934241916 -19.0639804931237
65.4299174739889 10.4282363267414 1.19636993395492
189.024271307534 39.8423736068769 -11.0441154367319
-178.294396893743 -14.3333139712684 0.907567755378063
192.100029222571 -4.75133309484567 -20.0072586757812
86.7858012175207 -10.7491759041281 25.0258425424963
-217.835236462468 10.170115674982 -20.8218339096776
195.527746684964 -38.909363671335 -3.94439269391371
24.5884584211667 -7.75318513657973 25.4481434657518
-195.272803353721 6.54327142930468 -23.4609255247319
-55.040951888347 11.8730863927095 -0.798971633670063
-1.72251256713606 5.30118922726975 -6.76824933024228
186.62231202307 30.3815850447284 14.7273382849331
152.41930459469 -12.5667628783798 20.8777111954615
210.377904620777 10.678008492228 -13.819254250624
-195.59881421996 4.96478564053975 16.3948286764986
166.8155861296 -16.5515675725998 17.51204707611
-91.4021368125226 11.5976933080384 -14.1477208241775
-171.744435246606 -17.3188152719102 -22.2808967872698
154.79730905482 19.5812321512759 15.4505847893679
186.438002789048 -5.63470031039561 -20.5118227350199
139.225172533347 -13.3965857000043 -7.62688103782908
10.0536841118119 -13.336344430262 8.76240692030188
148.281903222061 -20.0003230472971 16.0204519686073
160.361246678561 18.5765577877872 -7.15770292673888
-204.873835373548 36.8646441573348 -6.54245012318219
111.608269156284 9.46260019591302 -4.03223548104326
177.306501326137 -35.6070110240318 -22.145585328233
-82.548351796467 12.4409205054002 -12.289610720189
-244.621940322271 -28.0330167749712 16.1546358988343
169.617719725098 -10.4920488310773 18.8057093338616
202.401563380484 -4.18878683101209 -11.5363342159495
199.249446493877 9.02147015560155 -14.8171575450022
104.614234505014 9.71105979401045 23.6740647661812
217.38861286096 -10.6266310211632 -10.0793608353785
205.88782254846 28.6955208350951 13.367601782833
6.82414899450336 9.78646816375688 20.713996653384
-69.7573541821468 -4.35411833336963 -9.88382108420465
167.135530380793 -21.4443319189457 14.040413196681
59.6764746972174 12.8223739590605 10.3804755535845
-78.5753034229208 2.06227915516549 -12.8262494251942
-173.8883931513 22.9082833527928 -22.1686518554474
-91.0261238759755 14.7648800669676 11.3596357233403
173.89193006778 31.3744271871823 -8.84035322716112
185.421966757894 -30.3197262152055 11.6129578543106
-210.763545425695 22.8941846303039 13.3028524591198
-228.567885261359 -25.5655908315989 24.6200136079563
-189.472098087022 -3.77247378112811 14.4384634454735
-204.52469030647 27.508832115722 9.45529000127088
185.019643895991 40.2179200832672 1.83032381694179
166.372111523984 -27.4971764584677 -1.04855498434192
-31.5091731067933 4.96949174712227 23.8919765469309
215.101740151542 -7.5676189770744 -25.3525876666642
197.153968826914 17.7431152813266 -25.4382739640896
220.583618258907 -18.0779958931093 -4.73965715682217
178.799412604201 -23.0268682199716 -26.393495573607
211.278907167935 -7.78346477204277 7.6732759829325
-36.4288245958824 -12.4921171050403 18.6365164119868
-57.5924694213025 6.16654157167768 -11.6135717186096
80.7446795472744 -1.3715210566036 -4.96570709750882
125.116973729241 13.5061799433696 -3.47073817313586
180.574728348503 38.1238612332679 2.23381270349841
39.3379981153791 -13.5402474457059 22.7012323908571
58.3460804579762 -4.15751774305742 -5.64730724519332
-113.637136643696 -6.11784240343031 -8.23027290807936
122.313907719826 -17.639121347181 0.0167785656877222
197.141520226354 29.5315918353988 15.8066149769718
-188.421257467562 -17.1024377404603 -4.34653746927622
87.5315824727133 11.9011410345639 -0.0685354836856518
9.75686489225414 2.79782219972306 -9.50906694424847
195.444325900546 21.1147333796538 25.6601717991745
-155.570718944345 23.4103082333168 -14.4222264559165
-54.2807166232516 -3.06199940576217 -11.0881376062173
-187.986483008927 39.8456449414063 -2.43522682133555
200.77638844257 -6.58710528628686 -17.1396322400954
197.346559353714 21.0778147970741 25.2726349652751
-232.40230975318 -22.1480030884228 -21.6692570865024
-228.357765294174 -46.2825281412766 -0.0350218659979883
157.301018794816 16.955297034073 20.1861821096682
-45.5976762605738 11.5680977292284 18.4403204849369
175.989609663293 34.8432684622164 -7.20566015802605
-180.558672313113 29.4216533489481 -20.2925082843343
-211.546479290104 -13.0816193698328 19.8657734611689
11.7234609987695 2.9856001396476 25.7170228170172
-215.826013994128 -3.67082051114225 20.4818929448849
199.961043453414 -2.67281798297613 -34.9779934333147
-79.7246585140455 8.14172929617471 20.0691104550963
213.031940863748 38.17854581975 -3.11848010827453
148.709339269876 -24.7426035194977 3.08144842821437
-216.007267855801 22.7894146778585 -24.3245816672631
-19.1679962822724 -4.72024433439026 24.9753835916812
-167.774709007555 14.5744692182814 10.3728246963295
-197.194771852676 12.1324172813259 16.2447077398191
30.7557083847661 8.77146018424578 22.1421691865915
-77.3595399708412 2.54777458072897 21.83950488865
118.911077480672 16.1109569147501 0.0758205072589383
-207.949288503205 33.3889974835297 -17.3169641295816
-36.4964319243368 -11.342713834853 7.63580108629465
205.975348208682 9.84378436307563 27.5979293378016
-239.680596742041 -41.2428280532713 0.418895720537969
208.710954067414 1.97124179941173 -4.06047418514644
71.6739472770374 -7.78713478521516 -1.65221972750437
-56.7556012446561 -7.05529628679744 22.0613110010575
188.707339000206 18.9036133329781 -24.4406045925408
-188.725577119879 38.7436806431827 -9.35631459669701
166.604427508187 -10.3516437010653 -14.5585432294927
171.631586113697 -9.43717420974468 17.5918217630133
-91.4141949005295 -2.62714705340127 -12.569917387102
-56.2312395704902 -10.0754583878054 6.28577685093524
179.100956669879 32.2458817781381 -19.7148717939146
169.086783458435 20.7110901695934 18.230368623959
-78.8768143551277 -9.39539403337032 6.77591926223539
-6.69323713310579 -1.52760468941407 25.5650477409261
201.30916878598 13.8172390542394 -18.7580725934828
-84.3663515082354 -9.07291274619353 5.65237226729665
-77.1512043644336 15.1615038534524 4.42316480079545
206.703010132979 12.8397144310677 -18.9054960879222
-56.9871141265975 13.4897137139999 14.8163339461408
166.25936832159 -14.2248953500749 18.2717291994646
203.309149391526 43.4506144082162 -18.8687028865287
1.5966893241339 7.51858404103418 23.1459451857048
197.886811141974 5.55723968084568 31.0644365158686
-183.132823721312 18.8841460021347 10.3043684522271
36.8435352095506 -11.8867742735788 23.810722447749
-213.495908322719 -31.1416648978654 18.7536167212228
-118.158715221602 10.0821563155921 -16.4271626580056
212.641955955391 6.72026165338612 2.65128360262664
164.318910933925 -20.9943658021862 14.413772913785
114.610403905317 7.87444642648855 25.5258400868983
152.956100158487 14.0842205149913 23.4194836189448
-203.794660093218 31.3427995764913 -20.005712586291
164.992750082277 29.2273316371744 -2.21972472876981
185.949121178594 37.9464561631127 6.00145725318095
187.505739261774 -34.9684462575875 4.27099408542137
155.344616028146 9.58641066122014 27.580403679727
-241.699135891762 -36.4368574824299 -8.91052323338411
220.391070567538 -30.3563962849034 -4.6960544731774
-209.522789952488 -31.326424395032 -6.95890473968591
180.314996680528 30.791991496518 10.9933082478989
-136.69934361047 -4.53644591721178 13.6702309443227
-48.8183527674856 -7.84661239471694 -0.761904352339803
-48.230464969448 13.0179182124516 15.6781008130976
184.196193209991 -13.9296643922267 18.2987410950366
176.730440408368 2.95131198183922 -11.6236964394313
-238.890643331229 -41.9799525511655 2.71878898757221
174.124681936439 -25.1481343431553 11.4503108569978
-53.6731052379087 -12.1047602933872 10.545044273385
-222.890751448838 13.7508561118591 -23.0091164092863
182.539951425449 -39.1262471455406 -17.1757343132474
-225.482131446345 1.53697106031627 8.29071275647565
-68.2786108336276 13.1828082182519 -6.55230711068442
173.261281697551 10.7125326093626 30.6783953340659
30.9679539429162 11.6093068501244 11.2009992923256
-43.8914251505427 -10.5824402238132 20.2546192312678
5.65941096193379 -15.1613518421693 12.6778787155026
50.6538470057447 -3.16541266143981 -7.0533280310064
221.967811903564 -20.2880528925578 -20.7863636597274
130.259129669363 -22.1937607173884 3.19634822446758
206.151405842043 17.2913663536152 -21.9736916978558
-139.585882819499 -4.00037762333232 -16.6301209244829
-53.8231911858561 9.59644228908827 20.3330671395523
197.236645686901 40.2707898881616 -8.33354131236528
190.171252516117 -29.9408615139961 13.9828533051974
-18.737048520898 -8.37257929358023 23.9476858296435
182.0555017006 -37.5263692139269 -22.1651979244969
78.0433440311371 -5.47911942203426 27.2915830176045
184.761082432495 35.9385700411154 8.0073290288071
203.322307784318 18.5043302917436 -24.036171403477
-73.2539782566683 3.5941335885664 -12.8580788476082
-80.3690800657411 11.8086760245978 -12.2955190435994
-75.9211485086087 -1.85055859617718 -12.061179061669
148.403069525124 -9.00101074951387 -8.83159530624029
-232.349550736847 -36.0671565619445 19.7384245556737
-230.844022124337 -42.4074251381433 -1.04591412680932
0.976572825949515 7.80116539130325 -0.741800510868411
4.82469476349212 4.88600236688592 -8.1953327832323
-53.529761717291 1.90802474192885 23.4248153859162
-163.987117308489 14.5370880960089 10.3551734431073
-164.96929862343 -11.6176000306044 -1.98870137433182
213.607945751277 -9.37638956982273 5.42080157607823
-152.806558970542 0.605863634980235 13.7322757891704
120.027458569288 15.9668004033046 16.3255734597133
-182.204275109502 21.6358899333267 9.27175110220604
-112.301117347924 4.07409517729314 -15.2659538766381
-139.271192260255 -2.49600128380574 14.4127573835029
-199.059709516538 -9.88452978992544 14.6773875673435
159.066525587325 25.4415666964069 -2.63686830630327
-240.564439169738 -22.5229013443508 20.7210520482435
163.376092776063 16.191423268551 22.3659339689496
37.9389626732393 5.13100754357648 -7.21123171307171
164.382478564739 -7.82807825946552 -14.4838006359238
-70.7343523383288 -8.10581877654626 19.5293174508411
-63.0279896194687 4.90695621832931 -12.3467242447812
173.189245070251 11.0139233897978 -10.7792788222306
-158.941239677305 -11.4657358320985 1.82383831354445
-214.545209886079 10.8516267711691 -20.4160195978691
-225.028276808732 25.7896790238806 -2.13242543856207
174.935763547163 -13.7674710534332 17.944089597696
159.56428373291 -7.05771916088557 -11.684988790744
-153.024147666412 20.975759644011 -17.7980242498265
118.832191501685 5.03523595591463 -4.84576572914944
212.607956931937 17.4204764904548 20.5830149599075
-212.103243408936 15.9242872660587 -12.4463831753875
220.487512699225 -27.817118615231 -29.048634652908
117.511098063678 -6.35627087292994 26.7676375515166
-191.071301436877 39.3352345468188 -5.64250283614734
172.889307220554 -30.6950871645052 -4.60352372703406
157.008349010985 -9.30122237889532 21.5357852485392
90.2500552781722 6.47755232587644 -4.47743666174697
-112.886948817659 14.5176020041561 -15.7932024158264
-241.767263800571 -12.6202995701942 -14.8929540715177
99.8111448611688 1.3360989786553 -4.53983079576777
187.686541114077 37.7541184093864 6.61808590863775
140.993348442061 6.18590957542796 -5.80338033673298
-191.839862633287 24.5617420921717 11.0850015269247
127.519867131807 17.7362130694095 -0.872376820627486
-92.8711195360802 2.49288716757305 -13.8924978579277
116.62160958368 -15.7218314049101 -0.189617564767402
194.756275555316 -29.39394215983 -39.2051301740562
14.3489935076736 -11.8562991082227 23.2418921753421
-59.2460178626154 -0.303623274971822 23.3052682966704
132.057228595364 -7.44510443129603 25.7745260981239
213.263622051477 -7.31180388950681 -22.8772052416117
60.4650051684522 -15.5887354255918 8.53227425235314
64.9467138406805 6.85712562177222 -5.93016343543497
-182.323159804451 35.7648027559409 -9.43711183997092
218.660258411607 -12.0094209962555 -11.4589678192841
-82.8627733054301 -6.1451353111083 -4.94807911726226
-51.0162098398595 -12.8112061881401 12.4907048674433
189.707258405724 40.7804794851058 -19.8330648443209
-160.882479308903 -11.6607468938083 -11.7339815822716
-203.150735939289 14.4302220107934 18.8359856138331
125.255050069885 -12.8339246169993 -3.89743116690137
-13.5887976381182 -5.64123825211231 24.9875016061852
188.718195675994 28.2307949639479 17.2227990799569
191.742495995333 -7.40102519060783 -38.3653285931041
141.893421826602 -0.829443099657259 27.896781645446
222.082828238172 -25.147265767021 -14.1375076200061
37.5078082139817 6.5377359037051 -6.3208820930749
-14.6628519109523 11.3738415671423 18.5738912141738
-186.064422113705 6.60312154319601 14.1451118161142
-57.9562401393982 14.3277918329615 10.3528303487073
-159.51483775724 22.1074584945668 -19.5564621893077
-25.6063054178343 -3.39005195640264 -10.1080676692119
207.388991309552 6.02412158514382 -6.79678748016351
-154.000044385769 24.395865161947 -6.87717773502801
106.402366653396 -13.598714896569 0.074398216018317
175.216201716875 -3.95978542452433 -13.7209846543753
-174.861142448732 -8.80710837294775 -24.0983662746126
-185.659586581311 -7.73960658672563 -17.1689669839423
-33.0748528730938 7.13612339432906 -6.32248558195622
212.558122792186 -34.457936799716 -11.1518230726839
114.614819597869 12.9096720330185 -3.37340720365306
187.932169937958 40.575356726532 -16.0552458467895
-176.019025551652 -16.0865959539646 -19.5828867375702
189.031350588641 -21.4326607818801 19.2079251936632
-94.2953930441203 17.6542692945146 -0.656903018729041
-79.1275243936985 10.8679472947241 18.2961146804284
143.325472591059 15.8984197315178 19.9674953064198
-162.412114527016 24.8788734471573 -16.4137085498378
-177.774382993232 24.8403662717666 7.33684174055267
30.4883885460661 11.0513211789942 7.33858517442895
15.7252771237804 -0.79040773039355 -9.0495323690248
-155.411589756931 -10.8123073695947 -13.4605860268407
199.412654202567 -27.089689012558 16.841291770386
-21.4540903881019 -13.4063423988673 19.4263470435881
-49.9638028395339 -11.502627368093 18.2756484514553
-159.19087487316 11.8871636607792 -21.8855623200667
189.248951423248 39.52077550241 4.42288251335864
-97.8605541447947 1.6449783836966 20.0808787728323
144.980012028741 17.8536702849932 16.6727209622243
-22.0359124820991 -13.6512837863746 11.2174332789926
60.2658534242747 -7.39106842209952 26.3732350522302
-214.481332542544 10.7889924699018 14.2241772921103
205.92205889103 -7.38875002423827 -40.0321260786356
192.622066217138 -26.3311845140307 16.6847313842976
138.056607125353 18.4896033996584 14.1442003147686
-148.667528651772 18.8013314248973 6.74708321164596
170.38572476296 16.2314618606268 24.9532671653699
82.3204559670691 -16.2029870773291 20.7717353591399
178.013940619786 5.17145774181253 31.6548300982351
171.796564558777 -29.0022922969232 -18.6260135186254
-124.45731974034 20.0615200389542 -1.13546432736445
176.323733029506 -29.8620780339531 -22.5718201460464
-223.221305580284 -8.88346041889709 -17.3904373594682
-35.7839086183575 6.76357170590913 -8.24088198203137
52.5248411673567 9.52382181519398 21.4741514089515
147.074060196369 -7.60258615886984 24.0513607814094
153.404838516628 -25.2495392849812 3.08453720432086
106.472586278513 -19.0887174214412 17.4381686285451
-196.316736087669 -2.98687233968062 -15.8825053158794
4.11513530834913 -5.56286400779405 -7.46850481058365
181.752572324152 33.871755851559 -22.0330232399183
211.103679043474 -15.5511264262197 -40.4778094786168
217.951017994174 -20.4545781379023 -33.7613653917662
-45.0384204162143 6.50482801064358 -10.0424144937882
-207.80558321018 18.0964178322649 17.7276839964332
129.418623241332 6.27826944037532 -5.12605999675139
163.407305298249 19.9140771844214 -8.00441082129658
-199.11779001534 37.0192229007467 3.2515260236084
110.836921949732 14.9275745994696 0.378716549313229
-48.5832567081091 12.8839203036261 6.9042010871548
-32.1916003725002 -2.65778931319103 -10.5008076659206
-205.381268842589 9.90731693338954 -19.3775580589085
181.896904334254 3.91068688225054 31.2442163613506
-30.2808464104545 2.65848828454781 24.4947747103026
-208.195198389456 26.251329310303 -23.8863288759482
171.329680099464 -5.83740774690804 -15.2927191085677
-224.209328829011 19.8224794699597 -16.5018851913506
-120.372919093805 20.7809744167029 -7.65311561351911
216.303281265178 -33.4974650821854 -14.0970757936191
-106.12715717241 6.95289954537522 -15.1410159704902
-245.200411463958 -22.9736553175802 16.7223512420327
-65.1646992813637 12.8701681264511 -5.59376543383788
170.62814280503 -9.53994064620929 17.1857076102013
216.544761128606 -9.92344815098568 -4.37369061599009
-32.2843568016368 -9.50320078116113 3.37408162951389
116.705243293364 -13.9323716080261 22.5315961531421
-247.524433637397 -9.46935469439234 1.84590145791216
-88.4339369505575 -6.12201608357623 -4.83740410622255
204.550808068514 19.7844456646703 26.5334695861813
-8.9445845314386 5.42977425180303 -8.16780352206588
-216.217498457782 -5.8689314417343 20.2648308448263
-45.1676945724248 -13.006306179158 11.4915830123527
-167.207835814911 18.2227400572826 -22.352327603814
176.629515897406 -15.946460029474 17.1520973963621
60.3475717479266 -8.38158045966957 -1.7440619728887
98.028184454713 4.20306678627686 -4.53478652556859
-197.303429220016 32.7704989754071 -18.514749367974
94.6832175800913 -9.12711587467309 -1.62706330663011
142.537969312331 -8.27646955727878 -7.65587659439304
161.291559790845 -15.7099428530879 -16.8085250724482
202.256742888172 -36.7372663115019 -23.0094259493771
-71.3365521954895 -7.15960468530902 -2.07548677180449
-148.361080960687 11.8102720763373 -20.3168300170862
214.631628915992 -9.5110005550186 -16.5571403362308
-6.73582479270966 -6.66236146665404 -4.83723935049777
-134.177735717434 21.0521464037813 -10.5339609579597
205.79694426012 33.9216912566825 -23.9494160727435
-186.319939098022 20.269962021177 10.394017226841
-92.899374655194 16.988389992269 1.90045344409305
-188.684881263364 0.40937691026735 -18.9636954812422
-209.12078401528 15.0722039026096 -8.30312719481774
113.53133718637 -21.3650795807219 11.96127976545
-91.7183323457908 6.12468941213315 19.8506829944683
-37.0064349008915 -5.90441571867292 24.0279953269275
-244.464062063659 -10.2732229016806 12.8838139003556
38.813919905732 5.18514743694004 25.5996388774559
19.4591180967573 -1.84412485597284 26.3521064964467
-74.4389482847004 0.856967783018006 -12.5476017156126
-206.244562190154 26.1028229599744 10.9739209914431
211.06960229519 -34.6314193983971 -7.61092224205045
119.137621404099 -10.6470792339405 24.6908791829855
123.129194210066 -2.92687818183388 27.6873804459798
-30.4978273811583 11.048379998343 4.90393171228051
63.1591223865239 -14.2987875002569 6.35089520090118
-143.075115381593 -9.54516744706723 4.82345843441607
144.486218814385 -14.4408081328113 -8.91452996674636
-134.355892583063 21.6171038983021 -7.40019113456857
175.03750804027 -32.5920345677287 -9.02207400443894
112.608857760224 13.3774822306698 -2.40790257154766
22.4891101783237 -15.6949903414479 19.4913941919399
207.424942693672 -5.51529266630957 -10.0841908364786
82.9240856009724 9.68857299499669 22.6716312444256
-173.550203101012 -13.6374183915801 -5.60509651005763
5.56095240451333 10.2891794204377 5.50690331649772
186.499865384253 -31.914511268028 9.51807718830562
204.062820739646 -36.3280520528277 -23.2336474192023
211.837830116848 11.9106663405403 -10.0710198786704
-79.3569535601259 -6.30375230983986 -4.68255014528545
178.408968328467 -27.2126807665564 -24.9086342793916
-172.662803083107 -13.2565842632355 -2.99755155564032
-176.295967820891 20.3076016811877 -23.7343847354647
198.289927089008 41.5815355019886 -21.6876704616836
57.6768830188864 -6.15098557644062 -3.88825075019623
-109.744090284761 19.0333389770587 -1.1324276504376
-90.9623123619164 0.514885405515631 20.8736653735662
32.2024069867238 -2.85164874597876 -7.60779377490561
75.1337078209786 -7.56978601543004 -1.8387249636185
-40.0804265358895 0.42339729998332 24.3041234028542
-229.811970546456 -41.3388647422594 -4.3451835478663
193.711229131666 -3.03720825418642 -17.7127461574409
127.98860104607 -3.01919245284421 -5.96852211777491
-169.035493340832 2.31395712060891 12.7514289500091
-179.984910202952 33.2664531041797 -3.16281818016915
131.126993129911 8.30516288399376 -4.784192966451
-99.420117781603 -7.6156981985987 0.324163989577338
195.1891993395 -3.89606875865412 21.8499058853644
-171.098336565442 23.1439217516746 6.44781847593843
51.3643953691016 -10.0266016869667 1.85132786933873
-33.739580201914 -7.9361374064332 -0.845840774997266
-115.315156576044 18.9422368918722 0.761254714102701
3.34463972861162 -0.913569013045743 -9.52476487660168
197.773294601983 -1.52039124949938 22.8595338674851
-38.8316206912194 6.65387676150318 -9.3724774186685
53.2276441716345 -15.4478982452304 21.0565481605529
211.048709963234 23.1460812970235 19.2389253850783
-204.67366491857 15.8528060524838 -12.5033937638375
-13.3532599061311 4.78844580453774 -9.78103349251803
-206.820431049255 11.7670847172251 -18.0109883030652
142.660035561208 18.451379515923 -3.07352458764454
-242.636850162426 -29.9214232181064 17.2969364852783
-177.118175083401 -14.07881289591 3.96884790251235
177.916980952211 -34.351561114823 -7.02760860340839
-100.73256998532 13.3444917913497 14.2078751541622
-201.153379131158 37.5582377261489 3.32204282712607
-10.538672476485 8.85545939202401 1.15000757284898
-229.989774253489 -33.2553782898693 -19.2101575999965
-210.955142076183 -8.67079787810187 20.182214325553
188.441861160741 -4.83343548041359 -32.8636473904489
-232.58971731105 -39.9723301802927 -6.76631541823962
141.601095920843 -24.0166672577423 6.78811686076693
210.008345222538 -1.84258520840953 -6.03995491211765
-244.378610441863 -5.77835963345445 6.36567967564004
-2.04888770510149 11.9428261006169 15.9738509006342
-175.876943533043 26.9424008608645 4.70687693019569
183.761053017536 -39.9353187560568 -18.458103647616
150.834130283546 -22.1096600222304 -6.99538580393002
207.775697465577 -30.8796928136483 5.9229600134783
-144.58073954442 4.61188251272076 -19.9030375184548
-198.087912047325 -19.218024859679 9.77921168753112
61.2699323421878 2.91587591387748 -5.78199828321939
-108.98914595054 5.42360794943182 -14.9754692358394
202.22904793011 -39.8217069315421 -16.7573753557841
-231.612162910423 -21.3689209766882 24.4697031408372
-242.851224095188 -34.4022012429185 -10.7449510110607
-44.3624784589886 11.9807747966392 4.09405844460588
206.693032275458 2.48349017652764 -5.20118839999659
147.507061006718 -19.2906732868444 -9.1143583178609
28.22328278695 -11.831659080968 5.76636214311766
-88.8282170830188 -4.0653610237853 -10.3235452189113
222.315301886072 -24.1239624753496 -16.4888073866264
214.655537470936 12.3663112811627 5.6496400807898
-209.256142418611 11.1258941067525 18.2123217860891
3.93247437368252 9.45547660676385 3.17637915173172
-186.543594536137 38.4143491151434 -10.9123832190895
73.5020860839352 13.3428804486589 6.65672599777899
-189.083221341705 -5.29756670055316 -17.2074473687055
-176.873225325978 16.4428084821988 -24.7792856173672
221.466654248421 -18.8566669541336 -22.9672669778101
214.603718148199 31.4397974614773 -14.097884170525
-230.952923363953 -43.1008609682791 11.8360549867743
105.515772265951 5.99080991900833 -4.47025920622418
-14.4287756549385 6.08686212937898 -6.30269863609499
186.334254435431 13.9561230949924 -18.9994480084745
-249.377176334921 -13.3700236560702 0.874579970020564
-62.4395418330533 7.87982786897338 21.2444668083506
184.169923416308 17.6904166145249 -23.3451668207288
-234.585128097985 -39.0897947602267 -3.42780464591603
-34.043157460216 -13.6851429046152 11.9831306402434
-168.362752425253 -12.4134219478735 -26.2555329602649
-56.5806302079793 12.5847236469506 1.77059596902584
-66.922002120582 1.42512298708199 -12.2233088454875
-221.558973633532 -38.9814461958758 -14.287352419147
174.141484955641 18.057298036981 24.783439012838
158.330353597427 15.7738396684516 21.8380333985401
188.831826737875 -37.6257610656284 -0.629293617216698
-245.558686337133 -31.8673644959783 12.2899169027288
-177.918289853941 3.56457760892752 13.6097988289534
143.235331636492 -22.7767834652115 11.9801301669097
199.653118176146 -33.6488275403737 6.12602132158398
188.241944780157 15.4938236620015 -20.4486101544596
-241.161216947295 -10.0828359989691 16.6449183112692
112.619645610158 16.1003913261099 15.0729218219526
180.178247430937 -17.8696403595446 -25.1993186204433
103.490982056519 -2.89806604388901 27.9298414596708
156.953176778804 -6.24069954111097 -10.1743917310298
126.430202216129 -8.25944467165123 -5.7970825854186
194.814706238541 -7.87218605918408 -40.7144462729099
220.985255282505 -16.0222625819851 -14.1245564797941
180.419181973384 23.3270899528436 -22.8415791360048
145.096983957233 -11.7004679583637 22.2429014646698
48.4577025211425 4.23566633678664 -6.55456020302046
83.9780572994876 1.81561657214376 -4.5904088374436
109.795379342965 4.40538149543818 -4.63543854828985
59.747645203545 10.5914010022123 2.29304768702937
-209.641475682415 1.50919369524135 18.095741422869
-112.943508276234 12.3538630242971 -16.141506336953
86.1920509250425 7.55105869017654 24.8436904389905
-67.4159921297176 -9.29406219801903 4.51013486773413
125.592719008175 -7.62602243788452 25.967812295688
25.8299906468248 -15.3094186636916 20.3716506827441
100.570909436234 -19.8015460167282 8.87161659422007
216.953482653665 25.5214542605846 -8.88282855239581
-10.3818667692391 -12.4529780939082 8.34718567919385
-204.993568722509 32.1912745350032 6.28807463426052
-222.599976052119 16.3890310023432 -21.8893207403542
-150.595865614648 -9.85994529953462 -14.3415056707984
181.196557004055 15.5347654187076 -19.435235903414
132.634478917952 -9.77294617081981 24.5364997357443
-21.9402816611194 12.0216006789116 10.4233264639986
-71.3317772168166 -9.96983012973051 7.94072448385897
1.05571384001515 1.23719096161712 -9.87676354781955
84.9350986605547 -6.95025929954469 26.8432345145263
0.0303215333463782 -11.0441650374325 5.43114672655533
79.20140705332 5.62408985442775 26.0747170171805
-222.063790017108 -15.5594346183565 23.8907509785651
-160.944969363221 -3.6298679275048 -24.6113432035789
-23.625618192766 -9.39094896904104 3.02130765847197
-193.622206351953 -4.77994222221348 -16.3253916820449
26.7034225256745 -9.70318226198312 2.59330089829885
23.5931918572652 -12.7739042151881 7.30975339881986
221.434776254668 -25.8579243357486 -9.18379885782331
-118.769304037895 11.8736609386655 -16.7405191096039
-109.587678759014 -6.45926563642431 -5.16041624400974
-186.212197168154 -16.3686075494482 -4.0015061336365
-150.058936984518 -8.55108319813499 -11.1819921668593
114.790504884816 -20.1348982862889 5.04587337528447
217.294581814914 -10.4373143997788 -12.4456526070919
209.575627973523 -4.85606435295289 -33.0324417643576
-248.179548228453 -32.460285660303 1.29664233094788
209.280782558981 8.71165877948453 22.9707178983876
-166.792316109877 -6.86611273829002 -26.3378428074519
-193.00445737688 2.76050148845975 -19.1568658512451
-210.140121864358 27.0339720892366 -23.0182560527456
133.408984988746 19.28089803437 -1.54563058110667
195.426195042982 26.8315003430113 19.6032486678055
-114.236356549305 -1.51775412051638 -14.1467082476796
112.129069395651 -8.49467030108432 26.0434142052396
186.750302057408 14.8703433730578 31.7500973863671
-211.494149128171 13.4404738797653 16.9290617124733
159.248348746478 -0.713082300289255 -8.88146601119493
-182.966697594912 23.7195625941036 8.85855452969687
97.5065650659901 -9.1321245394215 25.9597012778385
-138.256284895667 0.636549407076591 -18.890076660752
-151.36129735217 -10.1154092912172 -3.59752122229864
-124.512470986653 -2.67250809407918 16.147369501903
-85.7600376269946 -2.42266561429808 -12.2926379471194
10.4853944943418 5.49690816098214 -6.0863219489447
215.082198183282 -6.27190998043081 -8.46081080556375
206.794899734492 -24.0244205693326 16.5984355949249
103.73885914806 6.29484454804438 26.281485864345
-233.25640486214 -26.7000116492977 -20.8929340910168
161.29848944477 21.8035631526147 12.6567988621403
-15.7146432263667 -7.03558226484671 -3.76391082393206
-225.218347533749 -5.77788073374004 20.1583564238449
-139.444530430433 9.22056234154638 13.6505606716877
-127.501838023405 14.7608096761195 -17.8150446745165
200.833711033875 5.8710634313084 29.6097449310446
192.38490529558 25.5815940820293 21.2552202884802
-35.389689831125 7.55499440505656 -5.56252870943504
-167.448356525431 -12.148472465592 -0.328825930418363
71.569982758405 -10.8268822523054 24.6595838821329
188.391360543427 0.598446865892414 -17.2071627954329
197.74259481829 -2.63287366305671 -14.668822285834
20.1226169550799 4.17733823273371 25.5289215356732
200.807114139861 -2.18903200752825 -11.1014706404515
183.590849287281 36.2395332159271 -22.3566475046276
-167.138656577695 25.8436566485482 -17.8615908015374
-181.921638147901 -11.3452198089429 -16.7733602290051
172.301444711763 -19.3333273389007 16.1807352530273
-217.347571626318 24.6428989467634 -23.1119718241295
192.614188956686 38.9487918127117 -23.98325373344
168.210518952632 -4.31624071398513 -14.182032001214
190.105893471545 -19.0608113162952 19.7654981534614
47.856038269438 6.21901789051598 24.9818000941659
-222.336202263687 21.4828342291221 -18.0346813798397
187.328311104151 -11.5363458985992 19.8017091302155
-72.2007616447259 14.704959291485 4.61410838180327
71.1965291636694 12.8743906943631 15.9958831947384
-158.230439396495 14.8181908265449 10.2830538262519
184.494155663927 -10.9324101712096 19.2979168822936
172.528388580043 -9.19375504676321 19.5009228329467
-119.600187638421 7.91811324403221 -16.5789256287217
-236.469749284707 -36.6126046621748 17.486702223228
-95.8865320600839 4.24613245278231 -14.182903871692
-229.576373469508 -41.5518358308537 -13.2374854975056
-230.003484512415 -39.4129523072353 -14.0636141836863
165.921434116291 22.8554804935315 -8.49899709316603
202.087815402557 -36.5521128850908 -3.88096723705173
157.350996749377 -11.5166417509983 -12.7826163349781
-200.46042178025 -21.6928786188718 8.34386160462438
76.7585822844259 0.389546325170934 27.8456524214742
-31.7592648904771 9.47669075637009 0.281366513732617
121.710992921715 13.1143220295481 20.9652871944282
-113.103293948163 -5.03050375298739 -11.0497661426858
163.799257497774 11.6490356634662 -8.37284819470681
-154.327431725794 23.3333193689546 -0.216595695902098
-139.843454993436 22.2779344476447 -3.57309380883999
-172.459500250417 -9.03597628348393 -25.173493921541
171.134475945105 -30.1755678527129 -6.86508548526583
-40.4792919831791 -13.063769563108 11.2156994400858
189.575285560945 24.6018447773146 22.3568735210744
-170.983035791065 15.5248323766176 10.1998009678648
209.705750071112 2.24961322060377 -2.10768778527403
202.51906185924 6.19010211635116 -9.79414083970212
-150.912852005384 15.888219617492 9.72819946765647
147.357123759473 -24.2678524411153 7.21356685572376
208.321681540965 23.798706922667 19.9759639959278
211.401018359404 -1.71667855142615 -4.2333068529999
-66.9105662993972 -7.1310718835219 -2.10875359743655
78.567180032217 10.1064514984029 -2.10449536778869
163.986571236658 -13.004092291517 19.0121734538784
-191.763062605181 -2.8901441194362 -17.1989186790574
210.256528143212 29.9126050057383 9.20872761357396
-120.517332520793 3.13846685535134 17.2261448576046
87.7625543064616 14.765530108747 13.0144234265688
169.176227972739 30.1944650167236 -4.27956607554491
124.499909413907 16.0822165926827 -1.90478654207081
-79.0283474092011 7.51567319459525 -13.7117212249291
-104.76283439465 15.3129131315236 10.4725057915792
-221.731741281574 18.619701968941 -22.027528332315
-90.4881494117251 8.25197899832759 -14.4902034625106
-67.6314056727769 3.06686087509069 -12.5102811464461
-198.334895649855 36.1743857285226 -12.0990080833268
86.3235112697066 13.7668004452374 4.14045556373315
88.418329094138 -16.7714532866141 20.2699096907087
212.475997157973 28.5234934284117 -18.8483077805301
-183.141058490179 3.47087824106187 14.1002446024383
35.8975697347893 11.3377116694451 17.3457897055435
168.33149386448 12.5912026514222 -9.1374526803266
-201.903392035038 -6.41494839671077 14.7505345242794
-248.633238209969 -22.5032512017393 11.4666661139049
-217.566783011732 -40.4889142170285 13.1183621859126
190.292563343531 40.3716568370218 -15.5150266252755
-171.174847163226 18.849670532089 -22.7427303782665
190.02534752966 -39.9890532860439 -6.10182514289927
-73.2342405525766 14.7659104112559 11.4262454071591
-232.969755187753 -29.6961581220863 -20.2032725972698
213.554677195892 -6.31289463551084 -27.1280052228869
-203.693215092635 25.7208236271732 -24.6442910078831
-25.1939931500777 8.39197847287311 -1.62621995318055
-175.99647758899 -13.7686254076637 1.35651040492798
25.7348228326749 -10.6955244569407 24.2589843070832
152.062570494709 -22.6288339674893 12.4133231063861
-217.506052202054 11.5383390842162 -13.7930346421625
190.625872584796 40.6383356747929 -2.69948898975716
-149.223282950124 -7.98914563921312 -18.3656490009993
-190.492702947608 -1.12849847128395 -18.3835618573946
-184.151896664186 14.2651043788258 11.5921699328368
-215.521036896349 14.4584418585502 -0.056251743930127
-96.4466955571284 -0.597991207762156 20.2885331471797
209.128845372181 -30.2751828081934 7.35640627221106
49.232078527423 -17.4931462175061 15.2735660328852
-198.900603777456 24.8885422162622 -25.5859201930882
101.090587337465 -13.3318282822623 23.3403025026352
-20.3288274624706 -9.11984519134892 2.32158247420184
-247.844579363422 -32.5092660118169 -1.67756895770714
146.683140129531 8.38893418452939 27.5184455079561
173.963371516571 -10.1434081701877 -17.9793988220512
75.8061978121904 11.9440832680568 2.55220602256031
-169.713922057687 27.317102972435 -0.995181331547741
57.423023588369 -8.28745176241976 -1.56850175430422
91.0886288151466 -13.4838295673306 23.2669308499776
61.9077025584755 -5.81818971711916 -3.36045862800232
-218.036490401457 17.7751043095137 10.1539792664656
50.6225304042518 -1.07539346170437 27.3282762941438
215.673785258596 19.6686169035954 -8.13386822884118
-216.732379937923 32.580931188676 -0.336051672489953
106.36106694613 4.44638220529851 -4.60524908299366
176.635087055565 14.1451591521415 -12.9030148802378
20.1836313075718 6.6788720391273 -3.04782673022201
73.4316770945426 13.5450722980323 13.8654008562666
-14.2471098961722 -7.72834995309628 -1.17198863923173
-31.2523577305262 -5.80481047133307 -7.87393027349035
7.79064626447093 -15.2912457969098 19.0467140696158
93.9520334518202 -4.16730512563317 -4.27456950845586
194.235563183966 -27.1731365894357 15.9496756498437
18.3065108903901 -4.77294945011684 25.983128024593
-142.877536672521 -6.16991406644146 -15.7492695255461
69.1259988902388 -18.3617004878011 15.5359025758523
197.952730400205 -36.9799064728231 -0.0574864566303156
208.110401290476 39.0836086922984 -19.6126764544766
166.519356809351 19.9802118605905 18.1156060545942
-50.7573487440147 -9.73467055650852 20.3943880066305
-168.742539236114 6.72614926669255 12.2550599598919
-168.584458174752 -12.9554035220207 2.36196472075834
-117.731388861004 19.4557828158515 -10.1190355174807
-193.466083239994 24.4873112280971 -26.3770708088757
220.298604245739 -23.1368528988802 -28.9122824631272
25.6440383704498 -13.9480747443414 9.07311714097058
98.5833740094436 11.4830615312631 21.3914001737095
178.583678393462 -32.6935446199189 1.01910118566522
146.06527338524 21.4776833041493 -1.23713166264711
183.003290041811 5.53273123123953 32.542304042552
192.179994953308 -6.89943571260358 -24.9708699355449
180.729296279511 37.3352107123677 4.09456403955202
-202.751918739333 11.654462826427 -24.2411744577563
121.265169767959 -12.5849419756774 -3.19367254848534
-137.623010044373 21.5564221978798 -1.62860623021745
60.2027487916196 -13.7184875073893 5.78857708373739
-65.9240574167394 -11.1757844424154 14.7389096469095
8.27625055407072 -14.847939347149 11.735823254471
134.015134620986 -8.69460056099832 -6.60613783635164
208.310226255935 -2.54122659019869 -29.5484598911925
-195.550105835046 -18.9782088435349 7.87626026909442
-228.712704849068 -31.8511677692882 22.761290941119
-176.102176763711 -7.65331249846744 13.2272595299467
17.1303717365252 -0.37346683453467 26.3421192841085
-214.228648663777 12.8882020666975 13.0961380881706
152.28576904811 10.5389648165878 -6.36443761366211
-200.721503865882 34.8422047710887 -13.4182375316307
186.052509388521 38.4741776428194 -6.31977581372526
-72.3501986022198 -6.25943787180653 -5.17354293944001
201.212248894757 -2.82625088679831 19.3908668404349
52.1983099177213 1.22242086716478 -6.34990782882519
-245.314967474794 -6.15210096956036 0.0431811828177532
-249.071514611192 -14.9477114774311 -4.69609123847436
-219.19992192506 -30.8411015050323 -19.3571735919299
-145.66329453408 22.9914165167204 -7.38451725749899
-221.669096978475 30.2601673084007 -7.47938024217546
122.308778657136 -3.30539882395399 -5.62394658730845
-151.439925283886 -1.15256273040587 -21.1801518412092
-166.658889394867 -14.0980131095189 -26.0942451277677
212.534786023268 -9.77462393106796 -15.217936268346
88.0527973673958 14.8654099428769 7.33531065459089
164.079347611669 29.1563790642151 0.464663697194993
-103.451661985189 -8.49766731069262 5.86525283888168
122.942622847198 12.2889390568309 -3.63363684383697
214.633630403255 -8.27991813254297 -31.1910498562555
171.34918998435 -4.56081643669563 -13.609944197315
-60.7745517128089 3.04776001942169 22.7811808798667
-42.3400919368728 -11.7365892404131 8.78198763921003
206.591656823766 -33.0858855163379 3.06170559680797
-178.079071727043 -14.315258630967 -18.8066327222763
-14.9334039805427 -8.46102121772577 24.0537521181823
201.446901008045 37.0425921650673 3.61123078369451
218.492334198307 -33.6428719364348 -10.8477247043207
-235.713991392416 -24.2973322637262 23.1272362094981
130.024850153249 19.9008055010605 5.62372119021848
-3.42910129155706 -14.9793101661648 12.7472156799451
-40.8437868696805 5.38521752094221 -11.202248506682
-159.399072798988 -17.2502299514907 -19.8026321559625
205.547183751844 30.2631369174625 11.1848687673918
156.863875199753 26.2348181238875 -1.08622257222072
123.551261147731 0.930729794203696 -5.4707914530025
201.583453065763 4.1248550246273 -8.94356629187463
-207.263292678012 -28.4551888867574 13.499027655226
193.777093361532 25.206417122786 -27.4481418603219
-247.249260672684 -23.6769820424197 13.8281917695895
-52.1975674770384 -6.08061757633219 -6.95369132031385
183.977092049436 -30.0505949725562 10.932728366683
13.0048824669856 11.2166041998739 9.79375414372253
160.493965753646 12.6345904151467 25.4905904094605
-186.906621563401 -15.9764359356268 -7.09951690171318
-210.201044688175 14.9124823340724 -16.2550841096403
103.765069180471 11.5109438020888 21.7077383269169
-31.037218668697 9.80294457917018 20.9029315200356
-91.4271342897558 -8.03033735538195 16.035796881038
-4.13087639850604 -6.52370999146998 -4.98532260802183
211.49438824012 -4.68626488386537 -27.5574815585365
157.714328918672 -13.5258990251757 19.8299907477331
-200.699042812689 31.1298129494452 6.86887835263245
-221.472857315844 1.72358504904929 10.8017770491675
-106.80100029814 15.7764675848877 -12.1676042539674
-247.895680574017 -21.2188420902533 12.9195827833805
-107.723062872705 17.6093058977217 3.42641518227141
212.346145120597 18.1026081046358 -14.4552704410324
-77.4167187092596 8.69547334484506 19.9641598418871
-191.520124018055 4.99954408504132 -24.6954079915083
-167.974148641914 -12.6951882727476 -8.95881251709448
54.7291225571054 -17.2753593221844 18.0773763440126
-53.977241980996 -7.2073522637332 -2.39789608975245
-239.402187054652 -4.85268144326495 -9.76047735774661
126.164149422382 4.75304505150215 -5.19374193450182
151.730414807259 19.200770938883 15.2037765831556
-99.4703482248718 2.85762005871947 -13.8989863765085
214.426606043467 15.1288797510435 -5.65126392047518
198.955155088921 -39.0768455665733 -19.6433610446886
-187.576906319957 31.3103527938729 -20.7719859556653
211.286723508078 -8.43187011539202 -22.5686528305593
-238.148322482499 -0.889570676503142 1.66959663755248
-246.157177156949 -9.23299011353971 -5.7077142448297
-146.700876698173 19.8006974401701 4.98256140591068
-58.7751914574159 11.9464282409735 -4.25649645275552
217.050401188592 28.8959869403057 -1.04656745658912
-146.508466586669 -9.86796173794941 1.89349999205633
43.7790967456257 6.92688161897058 -4.95119834725027
-176.260354659877 7.63013886847293 12.7610760974906
-177.954322569866 30.0128123854287 1.34349538631045
