-63.8182373558896 12.8067332839801 20.6915340660821
204.117147797294 -13.0327364669996 -20.3335408625152
93.7494819119557 -7.49525393836532 2.08047216409154
9.06931734604683 -6.73327118646886 14.3317977066202
-35.7800855773136 6.07094377145252 24.0877521771275
-140.022306482008 -3.75463055086057 -13.6685262181481
183.264514297526 -34.0926393081207 1.17666310596089
-163.614058235111 -7.56094690228563 -18.9863913580729
-132.359766084144 20.2380294289079 0.0580717491963101
-187.781163259451 -26.2659389355624 16.6871856628306
129.629473282353 15.9993346606181 0.773026087620793
175.542108552858 23.7389135618724 4.20953656275475
103.66275017107 4.53580526192026 24.3512788803679
193.015557555966 3.32227197357557 22.4859688187871
-28.1951692927768 8.81624845736658 24.3420831938996
-76.2138095130994 19.4483329806297 11.6069175217921
181.595233337748 16.61032474971 -27.8121859931715
184.9848316809 -36.8602003459104 -0.941044822818869
-193.993389135553 33.4714810563654 -11.1430349366403
202.110548481798 25.092540235474 16.7640946092661
-184.816631427522 31.5515865866268 -5.75241652050262
199.679069775989 1.15763756981093 18.4472183426746
-79.658709985552 19.9773557072319 9.48402674592231
-32.0495187855979 19.7747850023179 12.1279877825144
-213.297672523156 -6.22529389845429 0.45381988702683
196.646304651048 -41.829910945072 -18.2254966055852
-133.497889773014 7.66518900868758 -16.2759744064439
-196.122909795365 28.1182875262844 -20.3382630300304
129.945629314528 15.9342473125746 13.3854733446918
-186.160257502487 27.8147215104053 -21.6737974996987
181.802424384571 -27.5224915963768 -20.3086464054388
62.879115772415 10.1424574778143 2.04043423845799
38.0326596360572 13.4939117022989 22.1365544228916
212.040039562255 -26.7921652251133 9.26023657629287
144.245855987511 16.3199666492446 -4.70607717899647
175.370534621409 14.4411516237171 23.2196054343562
59.1284919750023 -8.40365310031592 20.9209855757761
186.066833441283 33.8509841754314 -15.2902734050304
-121.151897598507 -7.38048244951323 3.34061725796589
183.08621776123 -6.8224762905954 19.6872951376968
-196.827011735162 -10.8606346033293 22.9511222729193
72.3380547963826 14.3517380069134 17.7154703133232
-211.363457516877 -32.6025820033757 -14.4099279657892
163.890031875496 9.74300539381412 -10.6240254069509
-31.4921914299297 -2.71793478941146 1.94582679073187
-205.802511544435 3.53445969934067 4.11968492021859
-100.318338840552 0.458969428139918 -7.81151237420374
-103.651794594596 -4.34835795827327 10.9519387090568
1.16182613151727 6.9585255110572 -1.92886483937214
175.054832762237 16.6202286758383 21.8450202087608
178.010854283632 9.37551347088186 -15.0911751467592
143.526030577128 7.8815216770845 -7.66239440548008
89.2371443575036 0.142262649498874 -2.40275965024819
190.408559312415 7.62428010765364 -27.169973722754
-75.283567103786 12.3929263819292 -6.7441059995468
21.1394118063063 -0.296211847020222 25.1317839899699
-81.3690026066193 15.5190810258944 17.0446194197692
-56.3675606238414 2.318383652432 -5.6135961402875
216.30511170965 23.8741935942434 -8.09891254796582
-146.565549644149 -9.45226048249138 -14.6488401601544
166.973350665603 8.02097894832131 22.3364521495411
201.556829885334 -0.720270247880716 16.598197275143
-143.437969173816 11.424080506657 8.20442228676729
118.549007223369 -14.7422396156583 13.8995477882444
-131.569507713183 9.09296415023564 -16.4317390975748
-25.0749483388976 17.1314384851503 20.8876773936172
91.3854040718733 -10.9155605411229 7.59960071191931
100.112850122484 -2.61003533876288 -1.74594809345439
145.646616161966 17.355697932905 -3.04790182346265
-23.0899323908534 19.1054911644047 11.95101169685
-92.1118107982573 4.15917156816078 17.321262208659
173.548303458798 22.8365973544191 4.9044662104411
201.556814988325 -1.68990930764468 -12.0253600388672
110.69409427931 -5.16764332822652 -1.33968621290944
-1.57636904942491 -3.62578082844978 21.7076667382456
-125.878306791326 6.86582056686918 12.5729705834903
-191.268469507261 -42.4663562373172 6.96186929544265
16.199493996973 5.30305016590637 -1.94540234820259
165.869297622633 -12.8584658378732 18.2306912678699
159.346824435791 -17.9887827508715 13.032250901435
44.5708119123248 15.8962892356683 12.551650800626
-150.336249305064 -4.66291436521619 13.0000947441351
-71.5648464232624 20.2239492632445 7.66114335682322
109.491526438768 -10.9962337339592 3.4347059283822
-171.700555900336 12.7626709037309 -26.3741454939575
-174.06328416033 -4.58800987235401 -21.9638164312562
-122.257141710413 -2.83640219167293 12.2351619863557
-220.323722664444 -9.51323668346059 -4.38382390544862
95.0836051027443 -11.6205961095629 18.1460656248474
206.328184985911 24.1146249854679 17.4470024620652
-182.793466604707 33.3707159415521 -8.58804866157417
-213.751999679336 -0.39304397608691 8.74631109897556
-128.902898417323 11.7410602490746 10.6215328610671
-136.685466337543 -10.4496425407544 -1.43449687548465
193.942157546112 21.5743001549411 -35.2779181989283
-171.84678964471 32.8544215158112 -9.53648451470028
-113.387357762774 19.34176726389 3.65837187980933
207.958915142022 -6.33214588061061 -9.48258662939437
-209.913403137809 -5.17388192719052 19.6060768592644
-176.701964229263 -2.02325100271547 -25.1703506659859
95.7277432289734 -1.80104811145852 24.3575098302923
218.768758309817 -34.6660097255199 -5.98042650114209
-135.448819633396 -4.86645184470916 9.33707688705415
-85.4023603558867 13.1408687222299 -8.38390650886577
-172.856353238087 -10.1410489283206 12.2811940891551
198.150923107295 -13.9540429838218 -26.0483501163322
188.7368955656 4.27582243699604 23.5585712156273
190.017273995814 23.0627175600083 24.0161347379977
48.3866821244536 -1.4737940043618 -3.67562656330742
163.842525331486 12.2815632066749 21.4244364281249
162.111500486601 8.3796829670558 -10.0132895284701
-185.947919724047 6.28884524795608 -30.5324403982065
210.455245768118 -38.4432628358132 -29.9811929868333
-21.4331740454595 6.9691868336456 -4.8222467447963
-214.438425870044 -7.72511671750404 -2.76574268941746
203.446320713799 -3.46134609304013 15.6871308592229
-177.864584365709 35.1504089143748 -10.4842736477708
-187.553398756056 2.82979311351139 -28.7531889624979
-176.929670240929 34.5217032798692 -12.3400599910867
-26.9993573974035 16.40573988198 21.3824315933073
193.406823717424 23.9206818435273 22.5561284126344
57.8064180849475 -0.877135135440598 -3.20587988037435
89.5813885926599 11.8690735176614 1.19932031954013
97.6162465868346 14.5914736868536 4.46582078342229
77.3775212448593 14.9726034747332 8.52875532945078
-222.539170531537 -9.44428956776772 9.98121055300727
208.737541844799 -29.4038693077772 8.1787873523491
168.069406031885 13.8701673099315 -12.991756239145
98.3893291445145 -0.964218874963122 -2.18766185599616
-163.983111777684 -17.1499798414327 0.646588730206383
167.951780632233 6.63770778865295 -10.6940862893022
89.8415949079034 14.5971531135281 16.1092215370373
47.7671071017192 3.90459148710502 -3.39210560272684
218.809678105084 -34.4724524833023 -24.4099018358592
-30.9903597318693 -0.339990154655142 -3.4511022049238
203.50881952124 -11.1234210832668 -15.5030428254953
-193.352728130604 -25.6787476549318 25.5640141310817
132.39954229252 10.3084786662525 21.2055446695183
-97.160522486531 -3.99586589416373 -3.08367073471701
-6.70668978379444 19.3230859065744 17.1821930546649
-76.8045219161581 -1.1856146482174 -5.31207078712514
179.095574957546 -33.6883149701802 -3.17326802797203
30.3033086250484 12.0563164819529 23.621778534143
65.0527866827078 11.0378599303311 22.884991702062
180.93077305362 -9.78450784646046 -14.4501116657911
-104.537150051198 14.0497982462618 13.7221757676876
-224.592317361767 -15.3948868099025 -2.77101964967929
-173.692256935153 10.8475948658973 -27.8041577059859
-108.187182968147 11.1563335842394 -10.9014219710545
209.746874071405 -34.5432223006075 2.52350514776183
182.343354552673 -22.9589438961983 -21.165297480203
-115.580364557181 12.9478947186537 12.313772811862
-97.1098510278962 15.22625004543 14.324027605317
-84.0232175718651 -5.57167785804408 9.96485029277274
-16.2535587622931 13.4221133595799 4.52618256533533
-126.431993887492 19.910172548392 0.835430057267468
211.191690024473 -36.6817193093781 -2.56533223179941
-15.2871323212761 18.0376563223075 20.6570998959376
-29.7440559704829 5.50410656396927 24.510737631935
-81.6700066739822 15.3281783602363 -5.42812930674068
-223.173806438478 -37.5736510057042 -2.9874268813717
159.152639465804 -3.42495752508257 21.122543668466
129.271631769459 8.52276516391587 22.3131903128693
151.155824363956 8.28211761090312 22.2101650623445
-201.283441506445 2.56611719249771 -24.4821121460741
201.168274948282 -39.2496234511647 -28.9577499435189
192.155764744952 36.6205428248493 -7.43619201196847
-24.5782751597192 -5.11640062181653 9.4413639939545
61.7660707741569 6.39289304740185 25.2462104388974
35.4410330861636 -4.00418135616195 23.6466761578564
194.384364565199 -0.0890320912322946 -18.2244672424951
47.1004462582667 9.8833120097878 2.6060000879706
-111.313229318858 15.5461088869882 -9.68548122673039
-135.819522830985 11.9077123093469 -16.1311736639574
201.349613491502 8.79066991424633 -24.2568110814372
53.0017548963767 9.33899193730548 24.4557343568443
76.6228453004863 8.91160095588259 23.86503992275
162.965185356842 21.3060466018436 -1.73086572182966
215.867061855147 -14.2321767317522 6.26571589991502
-181.066850775648 14.0012823662244 8.11469813879077
-16.8007140979851 18.2707888328135 11.0864846925672
-175.696706779057 -9.63163080036423 13.1093776900115
-164.138706734267 -2.29913483250509 11.9442005467934
180.909284535697 19.9285603640384 -27.6988988174619
-194.475175034325 -34.391253670126 23.7289352335454
216.149378529358 24.2557062205597 -5.6791469465822
-127.408358798921 11.2694783033669 -14.7933450382841
-207.415112869186 -12.7971489251521 25.7306980158159
-158.868285466626 14.7624814859064 5.46106437765311
-65.6916851175765 19.5608405053984 5.72213244864148
-178.52738122367 31.6413354618081 -2.05677411473187
67.8565129114567 -5.6723133558727 3.02947033400377
-187.104905372494 -5.30478765116298 -12.6343321995199
210.988799843996 -12.6929401034043 -18.4337090324869
198.430840996682 12.5181165636361 -31.8965207745835
-150.82295231265 22.3793338190834 -5.24524027872051
208.509842119636 -15.6686878279218 -33.8281343182059
-164.920924022465 -13.4507930268123 -14.7145635167891
-154.888808698616 -14.1204382291062 -16.5255823841778
-51.6539536727048 5.92866161089205 -6.78455868020728
172.661833795219 -23.1792526091386 9.46650299234957
-145.682223078273 -6.86689983950054 10.1573988801149
205.913056942309 -12.9358831910709 18.884095608738
5.48941051219203 11.6330370778016 4.16227592710946
81.623720303186 -8.0394032727046 4.29465055136196
-183.605766055454 0.432128401832739 -26.9661974011889
28.4541476261234 14.4474783015276 8.18555691824598
58.4744451780247 3.90391369805872 25.5889817825064
210.327128864601 -39.0267305246712 -13.2472654479446
-219.86410303236 -26.2959681223426 -11.6166836825059
-199.00591326922 0.361002815148779 14.0762667120436
-152.324061461441 5.63254608723142 -20.1155403835829
217.667601499904 -17.0583663588438 -22.0642499835413
185.158413314769 -12.9068147158117 -17.7191812263456
188.436291020234 -18.3422357190632 18.588016234333
117.802538687981 -8.16926817795311 20.9979679350088
-162.797324405485 5.71632481400307 -23.3831201583377
-190.024036354048 9.94308013620492 10.8669996195947
-138.090891519973 19.0637164248184 -9.89867621071937
57.1196885414109 2.65034040530422 -4.20158669193364
-184.749382516929 -21.116781330213 14.0602051583724
-211.664356471906 14.2343441796741 -14.3514694958803
212.458711430996 7.80881662416847 8.48981379599319
189.549210587013 17.2445627535835 -33.3912239730594
-14.2948948293251 17.8851867397121 10.555763629266
-212.92751664299 -46.3355938071684 0.0100313832602091
-197.993911097777 -12.8451542027325 -11.8043172104449
151.839938743751 19.0674535600347 1.23951637656063
199.955999421705 -7.52983095713157 -14.3948431940184
184.476962698783 2.7705365235337 -16.7005476092473
-195.128508993831 14.3570994099236 10.7017368769001
202.1786517598 -40.8886046823904 -17.6054706639154
184.049886384116 28.8894849650799 1.35912387894137
-150.250008214647 14.829990624954 5.9999644886445
-86.4808380852929 19.8189051295786 8.40470363952432
-167.944670507503 26.2953804461953 -2.11052574457128
200.530199275788 -13.1638364277011 -28.9219037909589
134.64827636364 17.0737825983102 10.0308685411054
-30.6703451825442 -3.27014195503684 3.80225140827858
-196.67532910874 -3.25840825106305 -11.49872325526
-205.871051160971 -21.5885679634932 -16.4763198771854
169.726444039735 -26.0535312459435 -7.3319817987073
215.741999608173 24.6171798396216 -2.65903571213589
-197.443679663826 -2.37009166329721 16.4473239210604
168.047232694674 4.63845119877345 21.7357060216938
157.333560685992 9.95575866200691 21.8087196254285
-191.387740957208 19.2528964119449 8.05544453397896
176.847056638003 14.0172119970439 -16.7734882483186
-214.80575174439 -7.24754525796166 18.7343162154611
32.949793856063 8.97329457464656 2.14124747247286
-27.9639461352773 -1.58322448200872 -1.62505927504044
203.676547817429 3.37487335085199 17.0917977302643
-157.436728282042 15.9674690613105 -21.4165610218376
174.763088823072 -26.8408006184762 4.93909723092739
-60.8668700411748 -0.948158669639273 -4.47035934301725
-195.07068842776 -4.40804421507776 16.7378243450301
81.2288330683676 14.5088817752315 6.66122724795131
19.5582128539061 1.98391990778881 -3.80077682139426
201.572564791546 2.49901459423346 17.9900279324642
-172.338100877308 6.8162540882866 -26.7200822272565
-191.380285363793 -8.75834061628592 17.2069460889085
179.485775193545 26.8617615922676 -18.2564052013726
-90.36472954379 17.5034544015083 -3.83524283160494
-148.189152970206 -3.55221736987212 13.6911624756683
-140.940574503185 21.0485088840653 -2.74139543504204
-192.040658763681 4.87892862328135 -22.0200847467092
80.0902446652761 -6.02650254474937 22.913025436823
187.271778100739 -37.4420155560629 0.130916035237883
222.051951353123 -30.3986773491147 -11.598472926855
174.112047511385 13.2208551293349 -15.1542592975116
-208.65736222911 11.9279123460414 -26.0560185303081
-220.899733841168 -42.8010296532918 2.97333142249957
187.46994872087 23.6703248491288 21.2702796789253
-202.446097025846 24.5910623760469 1.22869432965161
-213.33210773164 -14.797471568239 -13.2911552793612
14.8731696861764 -6.811525390904 17.8048726019831
-98.8345528005624 -3.25925128271488 -4.54323757148962
-201.972423053659 3.29639490015737 -22.8613080727453
68.5828951111471 -7.69799488504198 5.67771498606606
169.616136191645 -1.85753930257625 20.3554931564597
54.9163122016395 11.0961952046776 23.3298774339338
-143.99283986506 14.562194756213 6.90928939314651
208.99702834557 -12.7211720961636 -21.9165157091733
-199.831576142356 6.27946675780155 -20.869188694519
-194.015694587206 -26.0649823256998 -10.1270096849991
-155.875007857629 -22.1321418290652 -3.14188778915749
-217.389373939365 -31.4710264015654 -12.2730619291012
48.0991967057414 15.9674699883782 15.4193117818138
213.219311143013 -35.4602770914355 -1.72128937854547
149.050597914176 -6.23469788742602 -5.62574762788102
195.420011415752 7.60756766806019 23.8410998127445
17.2153880203052 11.5862148892733 4.32584012339348
191.708689003586 34.0747374194741 -2.01204756225917
-21.5952041361989 -2.27268269319517 21.5037050480374
-156.352214317635 4.04570845244282 -20.7721641739006
-224.710306786974 -12.0760135861975 3.54503444190569
-209.611993851581 -7.58562084841068 -4.06987060081763
-224.854351124626 -13.2298830879266 11.6446436546359
214.555758251526 16.4058130403417 8.44237074806627
178.907622527061 16.1797923245759 -20.4637682855069
212.542645274566 -7.74779101250385 -10.2968910370997
-167.582506430619 26.9650575808927 -12.0572986203669
-5.4557426466732 -3.59883200298012 4.17869781616575
-43.9781100927215 9.34630100062414 23.2452910764245
189.686568473217 19.7475791314862 27.9847263394651
186.978866441244 22.8057865376647 22.9502555859609
43.2976004408812 2.55989321861704 25.7580112323261
-168.718237634868 24.3149721069288 -0.300420302977599
-105.910740201483 10.1338007049988 -10.9983855623621
-209.535567313441 6.09370911635227 -20.8156703590607
-199.000493914532 0.763586800433672 -8.65005039739172
212.224353239107 -11.8044924683486 -15.3513767994772
-171.519209895795 28.4089834467189 -16.2864868518973
-94.7087205982739 -3.16567989667201 13.028814418396
-184.739714946866 4.91853588072617 10.1872827112997
116.765709412244 8.80496115692946 22.6289490442119
-205.349397410625 -0.786363161201396 -2.61996397838661
-182.019552846717 24.1400023243943 2.42551622833411
93.9853849442171 -9.75201268179068 20.3642707381635
-170.329851916417 30.071649311015 -6.87902398751119
-185.48059175352 -15.301654845329 -8.24520381409642
215.866076170229 -36.0345172305865 -8.47555601321812
177.352377967443 -1.01884758046479 19.7994329556361
-151.332280150996 22.1555171105888 -7.71415736631752
-103.802182449138 5.23746740145921 -10.3077000845861
167.633057375353 -7.33479471914324 -9.35376135279513
214.679279231035 30.3688808554293 -15.8704738939549
158.632618829574 0.444146653640365 21.6658105611466
-53.2109718040772 5.6455848446211 -6.70459730459316
-196.969231081895 19.4454040326989 9.0740069674738
-217.565729292909 -3.64715727370996 2.12449556303652
116.890397855884 6.49937092707739 -5.17107561306147
-149.371922487987 -16.1102959890307 -14.2809371575103
60.820369067636 13.9165729167924 6.94327689748011
195.758405636516 7.05194900947969 -24.1996452207881
-148.018613833842 -11.2798313608944 0.927738901571893
34.3221913455414 14.9017754613672 9.04552592790717
-219.381047535561 -11.9423363687802 -8.43737428290281
-137.832195885655 -7.66526598071606 -12.0758321587633
-178.049464033169 -3.48007386733643 12.2663585237686
181.756973002879 20.0494781564121 23.0749966383954
4.61343756031902 3.79777132328203 25.7674130490138
-207.083175115895 17.3728077646122 1.60740524592395
103.868665797165 -8.99614465940706 2.07168528116406
194.265245433491 -14.4517043961576 -24.6230345650002
4.07606305689988 17.243849404226 11.6607038051883
179.946163995947 23.0036324976169 14.5016095720571
-209.581400622207 -44.9027354298504 10.1578183525272
18.0380458914781 -0.0458438785281462 -3.31908157060206
-223.182600729516 -19.1683105444808 -7.48697220204086
-213.201618355034 -13.0872492509907 -10.4719744846392
40.2717465831869 14.6033947700524 8.8417816091341
-212.054984558819 13.8012637697479 -17.0110528002061
-26.9679700851487 7.33240478397062 -4.39899399225692
-152.491328148241 -19.0971975802056 -1.54466543927184
-60.2761721656346 1.46673389300652 -5.35363195487827
-169.854574767269 29.9266276852495 -8.23076877545042
-213.45354206162 -11.6269957195031 -7.28176253273683
-125.063637272416 15.2446547332951 -11.8360296384244
-172.159504523424 30.8705561752837 -11.6728865161629
-171.674110855204 11.113903916481 -26.9394706413142
75.560036842799 1.26785369519844 25.3873545159405
52.63225538147 12.3811413575626 22.4149663277937
-216.934973874907 -43.8910909954165 9.48310711074626
-192.842390101642 12.9836066074506 -30.5690098539159
-208.636656400244 22.3363198760967 -6.38201450832522
-2.73505177891352 -5.47767134689038 10.2177238861897
132.939929486764 17.3995899979484 7.60256000527416
-213.861629701293 -3.02929665976089 4.07240194364909
-137.580997132627 -12.179684961857 -6.50702808106267
160.582482604357 -15.3652275687278 -8.15164037660983
-207.576405780761 -37.1067345259824 -12.9022400260837
-196.234104391455 11.5170273633096 -30.7986866454333
177.55972293082 29.8461234293698 -11.3035353872315
-103.017737988949 15.8561603077055 -8.6158286154544
123.369849087371 3.94943786882683 23.8556532613722
182.986399029391 8.62368207525276 -19.1385280373644
-188.296375547606 -39.6686458430783 2.35080728834576
-209.734617645845 -15.717692554765 -11.3096343219414
210.289527369274 -11.0397126798222 -14.2857299099139
182.441624747987 25.5318288547796 8.0191021346067
-205.717170127347 -44.7206604401044 -5.87099333325807
-193.330125090595 2.20356166598949 -12.9165839217062
-206.668500826191 -48.2524631588324 5.61010819807085
-118.143336627941 17.4457836795844 7.73535837864952
198.840403569661 -13.2943735204424 -29.7104325309746
215.702481769344 24.2395067294794 -16.7751869753436
-143.714540998901 -10.7686290550349 -0.166407655828597
-156.813262883685 -17.1215500954246 -15.2874099917813
206.236227557975 12.6695942297021 20.6329867926854
100.157601558803 -10.9232028279247 5.6599368815005
215.306441637512 26.7344001296293 -2.36657028542087
-27.8822884131924 15.0195692093485 22.2879553050574
-159.262013264687 22.9126371748925 -12.5869883086793
131.939790392944 3.47965225810765 23.5977923773005
-169.80414289289 -0.385996819719712 11.2813757171786
-23.4883221955188 -3.78687769649606 5.00752500537649
146.199580484966 -2.66400104298681 22.277026246467
206.390576517621 24.5332889090646 -31.9092375668933
84.8032146055501 12.4226920808934 2.4264016256901
178.836593358577 29.0640295385506 -5.61719069102974
-225.482141608385 -13.024526652616 6.38027548383172
-138.391648117358 -13.0866067592841 -2.39300178675839
20.6048034842336 5.11431774393557 -1.89076158180427
185.733615117563 30.9278081042354 -0.271844925822943
-228.027649740116 -32.6626961129495 5.49798854692828
212.566296552404 -37.8381855948634 -9.49627465276603
-175.543022854594 -13.8244688391937 -8.09580195864313
216.207008534139 19.882939849621 -1.01515956464614
-149.935222003673 -19.6799487811369 -12.8477202566887
-86.7972871358093 19.5571002592785 3.70525817006208
76.9618871825529 -2.9200329197536 -1.08142311223641
187.276487212756 30.435849587225 -27.4549617987182
2.68212349761875 -0.916295482901223 24.3885318770521
196.554287879656 22.7058381174907 25.5953458898717
159.778020656978 16.3180069092811 16.609214206174
190.852467386987 -18.023557951382 -33.7639411727112
27.5134762596439 17.1660546758334 15.7386358453466
160.320920697597 20.5944070996115 -2.59973002412907
-224.795357165505 -38.2503746244311 10.2485480202707
212.018799774506 6.12206217533816 7.69943516177074
-192.969662459316 -7.45122513025167 17.4265439542304
195.0999224434 -41.8260201823467 -3.38410404070522
58.9846093433421 -2.76828153042539 -0.21893528622738
46.5725369281027 -8.65848893257967 11.8584598419108
-127.468888281545 2.41590689373874 -13.1983857901041
11.8042957280745 -3.6972263587857 3.3044291727463
-190.687663509151 17.2252661963569 -29.2108086021389
-228.230944718091 -20.5813090241932 2.81077497819177
212.212772894688 -38.19800317471 -28.4316214583819
-4.42322291398596 4.70081140943687 -4.45486726149167
-138.434610251441 -8.33389497739449 2.50295001188039
-173.761373921447 -16.357729874709 10.0721336975552
195.4199214942 23.7645415763854 23.5972326861014
198.342914023922 13.8601612205387 25.6134164215583
203.795187799759 32.0785953498476 -1.22861829792491
180.555544684701 29.4166348592234 -17.6816824415275
104.499485860823 13.3448536467006 18.1982801086487
166.581788256685 -19.9543820088696 -10.2649266806473
134.644234331276 -16.3584791881518 3.87014768761696
74.3885301838816 5.4668123016495 25.2184435723979
22.295426490886 4.78008527824863 -2.52728385937291
80.2736469954762 -9.42645589246339 6.72199306444755
188.932539864185 -9.04983597046841 21.2061252963419
-62.744248656342 -2.78118344794895 16.024750345824
82.9016286198373 -2.04283606544337 24.5166264470478
-172.461676601629 2.24632469762281 10.4115327055532
-161.806211271355 -18.623570593316 -12.3824542975546
-199.554664219034 27.4903693710081 -0.59932495383959
-175.115001096842 13.8866939830965 6.37303106899755
-19.3256260964635 18.9251831915093 12.1410679013002
146.015581094284 18.3198117097241 3.17951668693987
-212.059362104016 12.2754453152793 -17.8801066880417
201.556405369347 -32.961418033661 -38.2173347398173
-141.15263972414 14.2170371969258 -16.8922075690358
-150.383859385004 -8.54914727579429 8.27064716162056
206.963014391739 -23.3026684393009 14.0866700369509
114.946657457554 7.52078873522759 23.3775234392593
-164.449001327196 -13.2045678174034 7.03668092652141
-160.500018891079 -22.0019523489828 -10.1723138227867
206.454168268936 29.8472590097393 0.535944088364201
-79.2036997109571 -4.96876081049845 2.38418909073389
31.5818090610014 14.235506265575 21.6402958111038
182.428774771972 26.1541401840804 5.91755966426767
188.001681613132 17.6684090223144 27.8731809752812
-208.933472022451 4.06882131502863 -23.031184739917
-123.476591919217 7.53668476828993 -15.4857708560774
179.018386085049 27.5921216232844 -2.26961025440353
-204.156947520859 16.3793335735513 4.37430699956537
-10.8899414947726 -4.81627477917087 8.3157344579147
-207.423117634135 5.57916381284089 -28.0260015926381
186.275729599641 -39.8477892797165 -23.0693092792723
-178.183214340248 25.2890067176573 1.02487379152423
178.353093389061 30.5464917883244 -8.29377427473797
36.9826959925702 14.5808468895022 8.63343183065538
199.004571237611 -13.7732852571181 -24.8104255328121
-176.041254065393 11.7356428810785 -28.5777301141464
175.21441343402 22.5116128186532 9.43477709138304
163.05501227464 19.7209891101552 8.21261267900513
-203.082010099164 10.1208138313037 -30.3559188115458
-199.853499893811 16.7915248337879 8.72235003210093
-15.4754098472967 1.98380602799348 -4.38989878940929
-209.972218109941 -0.36258954961247 13.6583708910597
-138.959388567996 19.8068775848163 1.78873955858185
219.962707847586 -34.5820219665228 -20.1343959802029
-188.254564845975 -33.87397897955 6.20616900210123
-189.178735540816 30.4643637209144 -18.9376318447442
-172.583938304776 32.1156187085196 -5.57813936392086
181.946066154001 -17.0178720796661 -18.0698589178999
214.176769108645 -7.12359786886529 -2.87657577270009
-213.143293110316 -26.0637852447622 27.9760033338981
193.334162911002 25.7096211116379 16.565550524333
209.65393077812 9.24508791505052 -22.0613832493049
-192.444263671632 -28.9118925867693 -5.64687834595603
164.418523488027 15.543226913229 19.0695568771883
-194.94307964528 18.1997872241368 9.7485768906644
-203.801503014785 11.7169614981085 -29.4180100754187
180.099391757979 22.8838513533535 -23.0523019257745
153.2846411836 7.73142130633954 -8.81697733268927
173.404170820361 2.30098273076452 -11.4434150046701
164.779904267706 0.174686049787286 21.0173604583315
-191.095220066748 -37.074273781769 -3.0717388922992
133.142437547978 10.0289027465232 -6.40823406963306
-45.7191865590259 -4.0252969391528 16.2617514877493
-46.9799472264601 14.1968565116975 1.0425584601834
-174.088706854305 -19.7032239360181 4.92485028890416
-20.187499328075 5.07209006563804 -5.94458460440404
-145.241850740561 -17.4602481374725 -9.9845257918395
-184.643200625063 -26.0419378669527 6.42360658423115
34.4406731970951 -6.23863474527505 7.15036178022288
-152.973377446689 19.8923983889296 -13.8593881978074
-166.855633439426 -6.6100265672283 -19.7697956848799
-135.510526636213 18.6768748061786 -10.0044675249554
169.041015407914 20.9950637060148 7.57248637568112
-85.264764431933 1.46865503263729 17.1559442524354
-100.006559651106 12.5562238684098 -9.97490741579232
-115.227895336208 -6.50408292800893 6.2178774098663
42.1010136703346 -7.08428218940729 8.03711493032855
-206.367310445369 -47.55612393207 9.45699646954872
-135.503681492435 -10.6339319452282 -7.35020676829311
-198.569776266327 22.6578156692588 3.46006178338255
218.140133127295 -12.949900325726 -6.567400539823
193.498183892858 4.48782587962526 -21.6553950867452
-201.540182157126 21.1952963268403 4.28887966337091
182.800148589713 -35.882836372119 -21.3717471701354
-139.862048046464 12.2370805877733 8.56510318294764
-106.207984640554 9.08993029784347 15.2308899122126
-153.95699946784 -15.3518027212475 -0.219438816455443
167.799618276608 24.1712785110971 -5.3785213090356
-194.663559952722 -38.7404371872665 20.5559781344812
217.756404649822 -13.0506991149578 -10.1155167970367
-206.105369404533 22.8909468569133 0.129203721967375
-170.019407807392 29.5121271072822 -10.5051850880078
12.7979503453958 15.2906112484756 8.81670277731133
-116.092715670715 19.4431735259654 3.01013803018389
220.582333833989 -31.5872918400132 -20.8914858024643
154.606419307321 13.0444368175338 -9.00460525326489
-202.899775107972 9.59412529546622 -9.80613882412056
-192.595875777775 7.15587382714861 -30.1922095000959
115.731210653288 13.4299589256573 18.0025689599119
74.5706455101736 13.7357388517579 18.849121728186
173.256244937251 24.7900964748976 -11.8516605358834
-81.4173420849405 9.85841979631187 -8.91033291310974
-34.85998414438 -3.73921372294312 17.5750799093905
76.6493545276139 -5.60250800280464 1.88084655339599
-216.829844574587 -43.5435938479676 11.441261270603
-143.813719100885 -7.29124869000311 8.52015913209887
-25.4410885972878 7.82647486954942 24.6217079133453
-202.804526178655 13.4316440165543 4.99397547600588
9.19556239832719 -0.146098475673813 -2.80296839342707
-191.625179371765 3.00746696999744 -13.8938650342549
174.908925484453 -24.4477411618254 -13.2829781174925
-50.9659254396615 20.2440439865298 14.5838040999995
195.878466071229 5.3176949825981 -21.8016509009507
-106.691924055539 17.2409724623045 10.2838028283155
31.3777782109587 16.2427023471342 12.1738126924962
-110.180862989471 5.28050623447336 -11.5104520951629
16.1321186067238 7.94735028854329 0.807605741632383
206.561934790453 -40.7099033467462 -14.3283244219246
-200.329096836926 4.89261402993636 -7.66273592654431
209.584066674251 14.303249460709 -25.9774626140822
-199.910499808696 -13.6515740273575 25.251349139619
19.7034108651512 -3.57934001486498 0.492698740491808
153.625297679967 -10.248372755382 19.3868597215567
185.132413911216 -38.0770767537324 -2.60093186916954
185.9231981908 -27.8176653073589 -31.3372240894472
206.421385689504 -41.5761282686774 -8.07853513851294
154.645454014534 18.7444639652607 -6.61156081567062
210.86822004114 24.4645648269741 -27.7991977796122
-208.928769871469 22.8976518860669 -11.4297374809224
24.3634465476969 7.98361508154926 25.485020990688
-207.672996749297 3.1034387135571 -24.146351585617
-169.197046528797 -6.82542781236621 11.9211590321344
127.592600964811 16.2360288417729 12.1646584132275
-5.92309962986533 19.2556101907339 14.781072025153
187.487529394946 4.06740564827402 -17.6295707449661
-227.711297940619 -17.7853769019788 5.79901432575778
60.292282644129 0.416892209761655 25.3014353277602
162.751132045501 9.84041713212669 22.0049008459866
51.391165409771 0.828308440239314 25.4616902264431
169.006175662555 -5.44508036155598 19.9180749869488
-79.0295350209807 9.66512220774267 -8.53046604430409
186.401054567624 -14.770155276354 -27.4835600500344
199.271067101911 -39.7205616474534 -27.7150103678955
205.583726010402 32.9544108207359 -8.19805107830432
-70.6477614715022 -3.50334426327307 0.58239775166761
-193.480767103242 -42.1886821478128 14.6103967975245
18.6087577186601 17.6906884870873 15.5440243596668
-157.976097772624 23.830161808084 -6.94167492928604
214.627340480483 16.164450285331 -17.2049215633118
-79.4690834516221 16.3549026981253 -3.04110862917389
215.000272959792 -24.9128162239416 9.07351759331718
-202.849950562422 -46.9629268443724 11.2351247540927
-144.288605565928 7.50487616071581 9.35650069965295
181.213455279854 -39.8026575187814 -16.8401217389304
-64.8159227584751 -4.73685610296713 12.793122336516
105.961215633922 -8.21866676533597 21.1652135839924
-20.3601361572159 20.1133283887119 17.007306655902
-150.348066484504 19.5371155642055 -13.0717363786317
46.2482809320648 15.6795750332803 17.6575733800859
188.167874752217 -8.10813992404577 -18.4987564402084
211.249997195087 5.88511949158346 9.55198588667651
4.43647293633299 -2.72537040684873 23.1077301837307
-202.075930789399 -45.9663915097415 14.4850691894842
179.573404021506 23.668878287466 -21.3284374887071
69.1066287948995 11.2834480319878 22.5480298707371
-180.831315087409 6.95568923736283 10.4497825386011
-208.387347569629 -3.17953690628588 18.2664399199699
104.40038704418 7.0011602346912 -3.77911264425582
-128.985706678105 3.63321823716786 12.5031197780923
-36.4416212565874 10.2428251336134 -1.26783257331142
177.529604593828 -12.5748179455659 18.918517868107
-195.43425779092 -13.0099355797746 -11.5723794414669
-114.623855606885 12.2335209961901 -11.6509772977817
-107.156800891972 10.7455361744834 14.7097605980964
-91.8237159998497 3.47908045812348 -7.69727047185568
75.5953100518859 14.1994482240326 6.51899146310728
203.510799703121 8.37453870501268 -22.9827747877884
-43.7979658348001 11.5656636482876 22.8229902014216
-3.9885656951082 7.04067700941455 -2.45594059306193
-186.28059470463 -36.9184516260712 6.3034497992766
-79.9975449282168 13.2818347802695 18.2449510577026
175.390350077197 -4.79779978598344 19.722741678872
105.639758472791 3.06007771115371 24.4424519181939
206.452373719313 -4.92203602457234 13.9940002605912
188.012974832725 6.709736158867 24.6285216732384
-0.212019061183745 -1.88641445119394 23.5403372531542
-127.002590775655 8.29245103049005 -16.1705811152916
219.839908367478 -31.6116895304531 -1.21041473777248
180.623372753007 -15.7791906627401 18.4946548554748
-160.766456804182 5.26822351820235 -22.4398906395015
184.293621628078 -42.401611676895 -14.076047194858
-179.12767312993 19.1353289710087 4.04746640264065
-223.768681313008 -25.6258805140034 -8.04906569610798
-103.133237271878 7.05762311948214 -11.3093267105184
-129.371281582534 12.0399098600186 -15.0881030673588
-190.768575756323 -3.74814906318681 -12.4252435646858
31.2088457014627 12.5393673356672 5.73851539204615
58.1229989281597 -6.50969518003148 22.7781821520659
66.5224515869418 2.85735820899864 -3.53995470771075
181.585199252767 2.00280345658016 -14.1621317461172
-45.0624051905673 17.27544660614 5.14801704216161
-68.2190714805924 15.3939831215856 -1.6711436007494
202.717802572508 33.8770581992808 -23.7421049604379
188.361405353625 -39.8037903126532 -2.23307320726531
218.852997243764 -35.6670459955454 -22.2683537244699
210.519155113086 -5.20929706052658 8.78241345265377
-103.928201525495 10.1187358539582 15.4443670577148
87.3617185368512 -5.50199512158493 0.629071872182498
-153.112297873967 11.2702807296817 6.73633064208621
-192.540223214722 -22.7889702533362 24.3970386663219
-172.886719169587 30.4499740785972 -14.261437245452
133.277266626555 14.6574424387779 16.5178784675803
136.233293755181 -6.0947389661742 -4.03445809550691
135.836751457047 17.4985047643364 7.88171617020949
-147.228541130767 -0.292752765436376 12.015065783982
-135.851631128592 20.7366520014271 -2.67106722822302
-165.2042758714 -17.9558222020024 -6.64718918864884
207.779637844888 -14.9716967305257 18.2546625084964
102.441927313138 0.244905150756737 24.4375641121082
-34.5590164000457 -4.74536480551229 8.12629359349927
-111.224793565988 0.158015166907906 14.1572701107418
-73.5844391555193 -3.47899574531004 0.110130002370657
-163.587116438545 -11.3436100316617 -17.3123687805797
-50.6005947152435 19.7638233965846 8.35880960242387
-164.236978126112 4.75643035307831 9.07932167586722
-168.417150691865 12.9233012251138 5.27375800985153
204.881659669271 28.2805942057874 6.47996087098387
102.595509607351 -7.35232892952333 21.7647856828902
194.74545724816 -42.2395246405364 -18.1515733784592
-214.338160229905 -40.2957812009551 -8.67666710816186
-198.735119427061 -25.1337083989419 28.1512464411118
177.402786772506 -32.4288830877105 -7.937532350349
-99.8903253128375 19.2998116665458 6.29166814809541
-148.276380646009 -13.829659008932 -14.4342922393027
-41.7570079759452 17.9363051657459 19.2807305393542
-202.106927392215 -15.141197053118 -12.55391804472
214.6128018541 -36.718851821337 -12.9847514546541
-18.8879721130135 0.0854977092671434 23.7481548657701
199.99132263249 34.380625824323 -28.8395757758412
178.243182489017 -7.08248953496894 -13.048514375127
184.263186224118 -12.9522401036845 19.1365769421451
66.6867371473993 3.58706746040217 25.4813370131783
-12.4335441524016 14.6731382410523 6.37927224209194
176.956254004156 -15.0249792509476 -13.9952382878166
-214.525978835443 -40.8042017294913 19.0170427936917
-150.460094039336 -22.4563891247788 -7.17515041496915
170.592933109677 2.02900841654397 -10.5287074986608
-12.6118682828833 14.8092374068941 22.8316777666296
-207.785288383338 -2.43924960598283 0.564423813611672
38.2407210220954 -6.94066651875935 8.42678989162553
201.142316351596 -40.0890605334843 -1.67576588895003
23.964041452203 4.89162468428248 -2.30224925388419
115.208359336946 -1.81813617009544 -3.32832315883292
193.360225311545 -43.6255718801911 -10.1798634828506
177.575343338022 3.84865048646583 22.2293169768194
-81.0507351596962 3.0830182423192 -7.05362752322091
-217.282804332843 -43.6768629273898 -2.01833637015905
-96.4871642617787 12.6629371034213 -9.65823590159811
-213.043106487355 -18.8520011495535 26.9768571049135
-129.4996914348 -8.42068155713199 -7.18762548238905
-169.220008876719 -3.72622847840356 -22.1942582782972
-182.59058629632 -14.4307373430451 14.6298564182704
-113.042607364589 4.44047817862144 14.4208713296147
-158.00169784178 7.90221324862045 -21.6575999389057
-180.17395775933 17.6383525235874 -28.2104986932146
203.991110942109 -40.4190195296366 -17.8458331787761
105.606759982488 10.9598591402831 21.1143924836518
180.498678400324 5.19659934977296 -15.010396113637
-187.080173957963 18.1014482680664 -28.4554360598641
173.134980049606 25.9816987222283 -7.14376139808924
-169.305466694441 -13.9786291155514 -8.61529220838664
-187.230850475841 -22.8300817191907 -2.159492522726
-87.4502193801624 14.9884185483049 16.2934181634917
209.20180273967 -18.4428619683399 15.5299142506113
3.34530508760236 7.43749459329467 -0.80938786776554
145.389013982113 15.9381608695881 -6.03177944587657
-109.68113900775 -6.88812296093252 3.25524281095066
-147.932402962889 20.9359723371624 -9.47777366436342
208.387823137531 -2.65126402346058 -8.16985141842
-205.905205826455 2.26219958378258 -26.7290126844593
90.4065672364672 -4.5848383105712 -0.361826732303177
183.727784428671 4.79447132637899 -16.9112189604929
145.837124608621 16.3521837428179 14.3919496984017
-152.894885905182 -23.1514957406525 -11.0696190365985
44.6656260085896 -7.82579317848874 20.1841040584965
-149.171736530619 -7.12118606195375 10.3225727398146
13.1263353644234 17.3220742234931 19.417149736876
162.64586151183 -8.22653846195891 19.8788936761892
159.012372485666 -18.9948158135743 -4.83945942465975
162.874597396022 -7.63899231174248 -7.76570530083829
167.374375376733 8.8304844389678 -10.9365493501214
190.112532216438 30.7143089412924 -26.7491235882067
-85.5079390559626 19.9614647146124 6.29683742195658
-16.8700562639873 18.9106253831124 19.5337755761134
175.921285566557 -29.0857249768831 -10.5949020951504
-178.620903264171 -1.0308235320508 11.1674470152768
-209.932213398111 -22.9582504862017 -16.2681314253942
-200.181049415223 12.0749300096851 -30.5510065927367
26.0695293617091 -0.085775001838955 25.2738183151081
176.625311219736 27.9357506916029 -12.3190548733381
-209.664399420052 -36.1418829383777 -13.2097696388361
-149.924961756432 11.2183102954845 -20.6876339590651
-152.314838627072 -23.5067805391619 -7.78424606541024
-206.887491380588 10.4501674908495 -13.9083072318237
-73.2137636759373 10.3631899546829 -7.18592951918684
174.984857849723 -29.5554532454538 -8.46302481304723
189.690284079482 -41.144324374309 -24.64769764672
207.524728406252 3.52072017923145 -13.7230128817594
184.93196987568 -31.7992820759018 5.02762443569441
13.3358219646344 14.8588931591299 22.294124154269
-226.536194093049 -33.0183248775739 -0.873343445937144
180.787846226305 27.9953217494732 -21.2197104136142
103.889750654535 -1.86238002272573 -2.25527775072192
-25.9414096330533 18.224625253868 19.9413215962035
-107.121964557791 12.5930832381611 14.0447148384576
27.4738568850684 7.70133619144246 25.5082052199814
181.743470042756 -5.87613107658075 -14.3168741050647
-173.157583426766 22.8854111786395 -23.9723574030462
220.090671835013 -33.3852988081745 -7.09352687982676
-191.430715200998 -25.7279312437866 -5.34426331046331
-146.504428384734 -18.1151892304512 -11.0123915770291
-15.3832383641832 19.60812053688 18.2371105357296
-165.84938816449 23.3598048350168 -0.102955158495954
-205.627174696552 5.19939858082855 -20.2103499745895
-167.060254074759 21.3754924553592 1.67165564768953
218.93302753579 -33.4916737921505 -2.5571139532121
207.614949099937 -31.7084400015269 -37.3570230011046
-119.711530342599 11.2757298344704 12.3136556075298
173.090754175368 17.5657180802992 -15.9626290970329
72.5557937754057 13.6625190503009 5.7285961899566
-197.013653856502 -26.8474127547924 -14.5777293248322
-212.141281436404 -3.2182218878004 2.9058146009955
32.8558135544943 15.3213413406804 9.87833058897392
-124.956460996929 -0.204545675400682 -11.782632739501
-210.180431454379 18.4781500742207 -19.9086125998559
93.8152492236189 6.24498865972653 24.2589142294902
184.330027214311 -15.6985184265166 -20.74638791022
-141.339408045303 20.4978186400248 -0.0440785217761174
143.424487922887 17.0397617245765 -2.01496916608858
195.851269803289 28.6947469680288 8.40511987104842
-62.0281882127904 16.3126327315526 19.2466789625959
-93.1680151017182 -5.71777050107485 8.60523601266724
-197.782566723938 3.21029725469929 12.1518434023727
192.915314082734 26.4015691673023 14.4545183717618
-190.637435935958 19.2762018460257 -28.2242325107908
-218.460812845921 -31.3346223219712 24.5022949818266
205.917388181944 -40.1702947178424 -16.3741804356066
-186.852304975025 5.4052473172881 10.1854085654528
38.1719356048942 -8.45925431508286 13.8331713857339
182.28351368603 26.6265187512553 4.49238387062331
-0.895015167178628 7.57529973931276 25.5560514989057
-206.07015880473 -3.52963195988701 -2.54694070396205
79.5311459422239 -3.56128351270684 -0.758668385864519
-142.899040735247 0.708791315217148 11.5905329370897
15.0018398633483 -2.72002361069947 -1.32824440391033
142.588418453107 -3.50841051671663 22.2710733524384
-212.040011689186 8.64025883509569 -21.9951748944021
211.27609429005 -11.0374059106052 13.1925660471521
193.012639339673 -0.919510359078726 -17.7950966904399
15.0341219939253 -2.41804829301111 23.9290265186197
50.8140550749495 -9.48148962239954 14.6890129282242
180.618988046185 -27.0557162465323 -18.4631106722711
-168.932257608799 -6.9323798165083 -17.9935641202286
-9.93732364949784 4.77468316355293 -5.15389461218995
-201.32507178656 -21.0533928203528 -15.2859300471757
-221.128983605624 -37.1061757010109 -6.30313106943865
190.926342165823 -12.432705605816 -21.2179409231461
112.167268271413 4.92283180547735 -4.73146588062721
-203.930476770721 11.7149251872733 4.42968953289652
-155.507277977083 13.1639193079315 5.94950514914257
-54.1334597962098 -4.77964800200601 6.28577154366737
-176.393728974209 -20.6846269721842 5.62711812126768
128.151996885785 -11.0378328344783 19.1044682791312
-201.560446521586 -37.2333256830487 -12.2552207642632
176.506562511963 -19.7901952514136 -14.9429638968633
-123.43940354532 -7.18798483756536 -3.22054246923684
220.419910405438 -24.6888483869857 0.667212690880091
-197.576435895474 5.60703500740588 10.908135045534
180.373423695744 20.5770801741314 -25.2010813698631
200.717678181152 0.285688256388228 -14.4865180535507
-182.464375007393 23.9388888729302 -25.0433763036322
124.65955931671 -10.2246052726881 19.697502586037
204.208625937777 5.42340724354967 18.1543448462648
88.9122964869166 6.54600228302947 24.3326170501177
-158.075030507603 19.8541730547401 -16.8696363256291
82.6003225237943 7.70761145412989 -1.28893656444309
27.6222874209913 8.02186700572549 1.23800036898946
26.2966232245449 -7.5033057992041 12.662601554083
-158.27409997274 23.6315545137309 -8.87503516268794
-171.388558270872 18.3619228584465 -25.6545292304059
25.7556449641505 16.9282412498131 17.8289720640513
125.891884749878 0.29710113379662 23.7340405478361
-16.4004566844332 5.37078307581784 -5.62445015483508
-54.2598868660234 -4.73727983881512 14.0448264455094
-211.94261823134 15.763982662711 -19.3266985979964
-156.629318767918 -13.8731883987583 -16.6020740260786
121.776351506676 3.24273852968693 -5.29916595286692
93.3671846545832 14.0152358351218 3.87976898106971
52.6338766778837 4.59438917628485 -2.53864813490702
192.22664252162 -34.7029657498433 -34.3255731511703
-189.531090184643 -17.7572434842886 18.8192021630892
-104.319844120863 12.1811280198758 -10.3262318556556
19.817159003883 -4.93246099341375 5.89186536155177
-226.884268029866 -15.7252388958177 5.93572469302721
-177.32335639496 17.484617984347 4.89313370240042
-170.510824559706 -2.93140952570239 11.8991723534731
183.684325052821 -18.5769852625567 18.0630801295993
-117.294039879418 7.49068046700907 -13.8033600544961
-146.811875541821 10.8565247023606 -19.9401907743865
14.6393710469793 -0.39769767419019 24.9437029081982
189.478694994858 -14.670333107637 -30.5543003074776
174.217561908556 -1.54624796094948 20.0293973232167
215.875213558792 -30.5562159601587 4.44292573119596
-216.445078258442 -16.6626152877575 -12.9543082631156
-222.972799007957 -38.70544355406 -1.73276483094446
-4.21870702843827 2.19914046533446 25.3459181809987
-212.157348710619 -19.6208008305078 -15.6086746736059
205.741725518673 22.0262096204711 19.6607839140793
183.56371159499 -17.0437299993047 -24.47114517236
199.452274499036 -33.7400355046721 -37.8031613108479
-190.471311593319 33.2030176945015 -10.1835590671267
-205.948439196209 -47.8994624681484 3.6045409070019
-226.974257113558 -35.2027472279768 4.69552554486452
-130.556785091563 -5.85901477377029 8.29669445811628
176.537347827523 5.07743926283817 -12.8942827514577
-34.7297619301597 5.4381096401058 -6.13686891105223
213.80655673084 -30.6341017465178 -33.2578701294356
147.698660452929 15.8187607229398 15.7548075890749
-204.137347346829 2.24945541010275 -27.412707704952
-173.420405053464 25.6503223935594 -0.0289921430973312
-152.691881880195 21.0658314563736 -11.6536432543756
-190.130658190016 3.39221520144843 11.1069695219662
-179.984579581895 23.8571568413119 2.15882201507069
-115.55239279969 -6.50124733406994 -2.04361773929843
204.303084397581 7.00763997372557 -19.2932427818522
188.602523261715 -2.3047021033221 -17.7947419786975
-195.721870008997 -19.2812564634668 -12.1730983469911
190.789173830942 2.20010384674682 -19.6993373997046
-34.1972628037037 12.9461505158843 22.9400791153703
-38.9750677248955 16.2900322797446 21.0202274579984
213.117345577448 -36.1683643501638 -4.43374914395961
172.060967840649 0.543668559485585 -10.7025254086154
-159.659147917115 -5.19503989408167 -19.3841522675998
84.9521587305249 9.07556707210016 23.3470467480639
154.639916414579 -5.62260997804565 20.9956887099133
-122.071582314055 2.57959257679466 -12.1217577829442
-25.0125732271189 13.4275833193918 23.1376113975656
216.474615650981 -21.238341152637 8.59897435600979
-25.918031074475 20.3330976865713 15.8878892014864
-136.967360585813 4.80298478961518 -15.9790857599571
-131.685329543898 0.681950856715681 12.5748227084045
-197.007173965816 -6.66230627563957 -11.1874832813609
191.432081313363 19.5601478852736 -34.4934396994839
-25.1110529383172 5.83019399193906 24.8343973641895
-132.605648683779 -7.52901911852737 3.30414125083366
-140.843249706558 -2.35344492224692 -14.3260161049344
-160.605077177855 -3.53090444541779 -20.1719601669066
-210.15249680937 -11.2411761981368 -6.08455908176078
208.097260264113 -11.1643296451581 -27.9129613057078
208.102704781789 -5.13350777941892 12.3704915759601
-207.411924478642 -8.82849847469477 -5.62347514318639
-173.05402774452 15.2408732810626 -26.8245033924412
194.156814698427 -42.0581327351306 -20.3465334532428
-57.7149670639938 -1.51534934249177 -3.66018466859839
198.682638844269 -13.752296444358 -28.0603308699408
-101.777789797802 19.3823435354184 5.2286534916351
-147.359218715531 -7.43873978882564 9.36599843270813
-52.6309242676871 19.5947939055785 16.2245011017307
-146.466912772389 4.25550398266048 10.2118392205245
162.499084342855 -15.7943917255664 -9.71642038590902
-33.7742852939566 7.99065273731336 24.1493632522805
-21.6488069874159 15.7197010152861 22.0188244671452
67.7845841451863 7.53759727554614 -0.385971879144705
-105.394425057893 -4.27989459637672 -4.50233420631154
-69.1534058210388 7.94387975712155 20.948585228145
214.330502881547 8.14471171050888 -3.49555749498822
216.329786536499 19.708359102838 -7.94842536024358
182.010364707189 35.9397288430299 -10.7705596617706
