116.265353314219 -11.5827378680391 -0.623963687571942
-110.999163452742 10.9575424876295 -14.1635766071329
53.9323243046514 10.4506057889366 -0.696082429899686
-169.265252496318 17.5185613465912 -19.2593166538228
-103.497187949554 17.2599670245758 -6.69787488283634
-51.7226058304348 -6.99251183247172 14.1124606031926
-77.4127002766037 -7.21410752293283 5.26169624669051
-200.992145108877 21.5805889203957 -25.1515548179412
197.967609188374 32.2578696767842 -33.2177527100476
-195.569624685741 6.21400926327654 -25.917463800557
-176.343000355964 6.10994838170649 11.1057930394036
-247.136942519047 -23.4527880052517 -15.5562835077181
-145.722712707936 -5.43078781040328 10.2548450516132
141.989864012399 14.3955156753477 -7.72744407197936
28.9288538358539 0.532447167942246 24.9461047134342
163.060681294631 -18.5629708867423 -6.49735237128999
210.899779685327 20.9016894151131 32.1627946938546
234.680195071811 -21.7437629806705 4.66559808697298
-26.6484954134673 0.00136281536070082 -5.41269119417146
202.591824541522 -33.4607470650554 -28.2737217818502
220.777456033884 -43.2180743095277 -12.9408280712906
-55.6066885838662 1.8653995937169 -6.32236470536366
-207.18307774392 34.3671783574256 -17.098167440183
-235.253759433559 12.6442949557141 -11.5944421375949
-237.807105930409 27.920872736224 -8.15279370226297
-217.722122608896 -38.15432961767 19.0626698667468
-231.7471638707 -52.8414377377682 2.68971139749426
208.401034401577 -16.848753527661 21.609918016139
-204.191251123823 2.45963547654787 14.0175240846709
-120.248458713311 15.2903418918918 12.9511880444397
-235.143552908245 -10.0929743365257 -10.4225012982146
-202.031360919159 -6.03221795048013 13.2170136674274
213.728410894274 -43.2209276053416 -13.1171688677465
-209.550397426062 -1.98168088317556 13.3080474757508
168.190200114423 -2.24281737650301 -8.7231923289607
225.223218878099 28.2714973729455 14.0168901197801
107.117906194832 16.939871272752 -1.44981790342024
-19.8305199410043 -7.58242227852608 20.2180415902176
232.673267419041 -13.1740579293264 4.46054313255463
-177.584764440589 -11.9444633945802 5.8511484169782
-198.682388590713 23.4793677908305 8.7012220886305
164.433536409145 -10.7601718353882 18.4957535218164
223.660436509744 -38.5483140827066 -24.5881419453013
-203.59808017485 -7.85951438118361 13.9487944797441
-103.015187377991 22.4585700178228 2.34320682891375
224.843799539421 -31.8023506367345 6.25145103782691
114.784141003863 10.3012802651215 -6.37025342514257
30.0843709902005 7.68818853516309 -1.63904824474098
-206.774366054683 -9.46990292116677 14.5323386357885
-238.285538479337 25.9572643398794 -3.64345202879512
155.242400349569 -10.7995372736099 -5.74485902622967
-107.466010421422 9.04434505898814 -12.4941959927345
-191.638638378462 -15.9379035468747 -7.53253061345403
58.0052338152675 -2.67789100649791 -2.58301245941046
-107.822910029543 -6.92296862233302 1.68013488153449
198.868034785707 -0.79439785602278 21.9012725241612
101.80287690238 -3.21969471079592 -3.34996821510163
-154.022863100605 -4.25298259392447 11.744676577995
65.1581242316254 13.4511066368445 0.683088286160302
177.992292291537 -4.51589896316352 19.9663710811335
-168.46993116524 -18.2614940283046 -7.3114690918675
202.278340826391 37.2040575446379 -23.5762943861926
-75.9746483120346 20.5465417964948 2.0080095602427
210.264544196748 -39.6942962676086 0.955483795237819
-218.039467018469 -35.4910294647605 19.1123485226985
-241.312484238043 -38.8596561853207 -17.7400333202087
174.657266276061 -28.2672366560137 -1.10186963054447
-35.2051163249864 -2.59466303625666 -2.58257858286256
-45.0631356080855 9.88703526654948 -3.94598230424111
214.662967896555 -10.6891118278711 -26.5559345717411
-194.574068372568 -12.575827571612 11.3441133065305
223.945060862335 -29.627724998748 8.91337338924366
-234.998799569212 -12.2393711982791 -5.20849323440374
-66.6671439453153 6.70082264117068 22.1953547396355
208.603766375125 29.8798875332694 23.7923518719824
123.118552731696 18.9372331654515 12.1371926501348
212.316417343317 -36.2192848899579 6.04522224557124
231.693527611167 -32.615187675715 1.22205642979924
21.113622901399 -10.2538907285263 8.91867113669186
-212.876548748197 4.68135993643994 -12.9071937197288
-231.330106943333 -10.1559671609335 -4.6236739508319
-190.707991230971 -5.96459193042505 -14.6181186007374
-219.197333605604 -29.5327349710707 19.1222886074654
226.30964825784 -21.8265639298554 -35.3422608144277
-146.765597796565 8.54598748355396 12.6434821427169
145.657882724679 -6.25477695775321 21.0139501260396
219.221324079332 -7.33183407787662 18.713371451469
-186.474380156886 29.1224974031563 -3.10760620019914
30.1777437452859 11.1315566082548 0.856839269986496
-204.801029422876 13.2829012439466 12.7877102238503
208.093134249481 -22.8500810975124 18.4330619291461
106.662352544994 12.5502713734978 -5.21969900150255
-8.95103642734033 -0.738063911733575 24.6232120330163
-18.644303367569 -9.27009264513103 14.40142613402
-121.725392769178 22.5075403958086 4.59477510872972
78.9409233844868 13.0283045788659 20.0269411205081
-201.5393748932 38.4550487220538 2.27118519321874
-191.849938652197 -12.7116001179455 10.9352717526174
-210.75875573685 3.32390745319393 -14.0570287863341
227.766478491499 37.2054181440465 -11.3640888313076
50.4276755408961 13.3961484262233 1.77476648345509
-214.55113480819 34.7576826731044 -16.0045695844021
-77.8847400871283 5.28263436568695 21.1183681654479
223.867704831211 3.08782082577975 9.69111659153755
193.172697032043 16.695949248671 30.2760457747868
-131.698345256121 -4.88509818692039 -6.02604328583588
-242.550995594344 -33.690835475097 -18.7849710235345
206.853559910177 35.9253725065271 6.5558676002376
-207.422111026504 -9.15006230167521 -10.7991961407552
155.982699127778 -17.8361416301394 -5.14918437191303
-233.20596552453 -50.6661204799382 -9.91804769976572
-166.851833392873 4.72486215925402 11.4548233761169
-237.639895977487 15.9731944284132 -7.65615134808327
-172.431791266488 18.8090792714622 -18.3376797897734
212.194198128584 -10.8413392464142 -27.2750096392204
105.250832460138 18.9100579553331 6.86657077814609
214.466180501818 32.5027470901064 14.1020013033373
55.6669127622887 -2.06437363271682 -3.31583656256165
-213.547236425004 -43.6052384447611 3.6378005116118
-203.527425069728 10.9663090454093 13.2611134692566
206.628634405447 -41.4045327400455 -27.3505393744881
-242.125700165751 -49.1445321936618 14.173298072085
-152.135002990109 15.5264381816512 9.51928128566568
13.1542140563485 -6.4708265540945 3.46012917712128
-204.098604923188 38.3150584595614 -10.3947459107014
205.720480287921 35.4227989686048 8.70753153872462
219.936664537728 19.3234599341627 -26.744388713165
-169.603822246536 21.0153810417623 -16.5441126493343
-47.8544231697551 18.4491089850948 3.79474735991589
217.077611145192 10.7235921513778 23.1145011106832
228.025144818384 27.0276707783052 1.03229442161587
-246.629090418081 -51.750398816326 1.23683675603195
189.088591033336 32.3906371653494 7.7614870454111
202.853566020463 29.775527743483 23.1014725206669
-40.2554430354213 1.16598435004331 -6.24159321932944
78.612039091025 -0.850204434975141 -3.23809928405537
-79.8169951996818 12.7715392820343 19.023091902051
225.177326852369 22.5738525581943 -20.8279813903331
191.977850826983 37.7321767971023 -1.02861667204349
217.09649685873 -20.1912955855896 19.8982381812825
214.889113637019 40.5660153427515 -17.7830734421214
-187.77397252433 -2.36439896257384 14.2887023174242
56.5038923500235 16.8154874374993 10.1384642209128
84.6529220671932 -17.1231412390072 13.2151410218494
-208.642416560207 34.2223066181537 5.3984085709986
198.659591483241 25.9264018060057 27.6467821646139
174.973800221633 10.6164213170691 -11.9277270191821
-213.88446331775 -27.6778033523501 14.1590886406128
178.360252258267 -12.874850739177 -11.7312508206009
-20.8313757166828 0.190488864032531 -5.81878093114787
193.43217942041 -41.3447877956874 -12.7995178076205
-229.771333121085 -32.2093632508357 -20.9443243115215
-226.942249327463 11.7665427092787 -18.4035664060718
219.143335224032 -7.16172584378414 -9.58713735127566
-223.627365956482 -50.911503324889 10.603514149365
204.301416539432 -10.8695726606592 -19.831214612538
201.012939687467 11.1174527473386 29.6161700469752
195.777557115243 33.8503405442997 9.55143727516788
223.675558065311 34.5730560147973 -24.7289545969399
-42.3385600666175 1.64705172388511 -6.31923743651707
-217.475538843102 -34.5709042824591 -14.6054940381169
-241.288455098638 15.4062051664558 -21.7648579398985
-240.378125531264 -7.36868354849651 -0.72893505271479
204.606701287197 -2.05707582789772 -16.2330615204372
-41.3312446085574 -0.821423333380424 -5.74133318688966
-212.862475231086 -28.7418275617426 11.9987637137437
236.056358865663 -17.2245653666585 -3.77822691590011
112.943395308936 -16.1991289385909 4.03521282221477
-178.730618078594 26.2739853740037 -4.06223013965615
108.306132981476 4.87709703261603 24.0535673470569
-218.884135349494 36.8163072389136 -7.96374016246233
-202.740954793747 35.0791934433412 6.17976438094704
228.020976385862 27.5104755049468 -14.9092324085961
99.3572603006382 9.50590589737561 22.6153787711762
238.119123017499 -27.2842907372535 -16.386686781077
-157.99000961563 -8.46680366646397 -9.97526271477312
173.109987718273 -12.3181800695564 -9.66157719335023
-220.408517214495 7.29071242648525 -6.12815676040436
213.13528518726 -13.8229728092199 -35.2484402431022
197.511649236876 -21.6146116928257 -26.4969814011943
-195.78501932023 27.9066122248962 6.42806757256267
-3.16834121411524 11.6317479488039 22.9707201701188
181.973181962414 -23.6006863923965 -14.7346590409672
206.668580247407 27.7851777988767 -34.875899024851
210.293229954756 -12.1492401463911 -20.4359471142869
-236.535944983262 16.0901720761264 -2.01320541651193
-63.3303206482329 13.15311501861 -3.88678697468155
-137.826325210961 12.5662624444131 -15.5613588910181
-232.482354196693 -44.1772720396457 21.6542417312099
220.458940546029 14.2022159878977 21.5439830446486
-227.744641292965 -34.4617308088452 25.0476133075767
-230.238344760972 -0.204463281612093 1.46572231628161
228.349256650152 -24.0852438840574 -34.5967327714261
-220.417687381388 -50.5251312330501 1.02585350327623
196.981842737197 39.0120791613309 -0.856099124719869
205.899632074565 10.6606913772092 29.2322202797961
-158.984142867607 -1.14975190318286 12.0169571843859
171.917954637757 27.486920157874 -6.34325699305119
141.841690779304 -12.8360386297951 18.7589251012803
-178.163925097991 22.4780563537045 5.65431893794626
155.562561545384 -8.58918703706664 -6.14067620784268
172.754871576073 -27.2814753275782 -0.0517871978083196
-124.37694698557 18.3368374005384 10.0701488346355
-238.496937808735 -12.654384343556 -13.6703482367879
-204.074692458055 37.4393895495343 -12.251574132303
222.138592903405 1.45406176657427 -4.79211063773647
-255.475305505284 -26.9065958806104 -4.85072727827905
-52.2394641189463 7.18982846287275 -7.36042546473833
165.107024368161 17.5501529842299 20.7138733036378
-239.461261393265 -13.8900842829666 18.504561785126
189.256499857987 38.9880612474135 -5.86906353521172
212.061962366876 -15.4240318343416 -36.434076965943
187.236523793962 -38.4576074003265 -12.5429073738228
-211.800080770837 2.06817723170461 -12.9420162249537
64.0412247580388 -4.41900791871155 -0.998865071467768
-218.8220536301 16.5599964682053 -11.6665299005913
-252.580374057138 -35.8111691866084 -9.78844399312814
216.315110122136 -9.26309740162183 -28.5096824539828
-150.511325428055 22.5360458204659 -2.78614156090376
-95.0054121447632 7.66826988447534 -10.4331039668876
-64.2145112971441 9.29005106752197 22.0149199350732
-64.3381733707715 -0.661109617403292 -6.86994059421518
204.904451272143 -20.6552705186087 19.4279933868965
180.19623834984 0.360436979018758 21.6142977961898
-128.621311535898 22.2067167101714 -1.0061987566461
-188.550190324212 -0.605808373930996 -19.5765414642493
90.9470548086335 -10.5713037924485 1.61491591275572
-242.199834650228 -25.9756556199108 -19.0496845728114
21.7715706782731 0.0219123019599262 24.926803056197
-181.104401589131 26.0727951942153 0.614031932646242
1.88373983871175 -10.4256763717098 12.9088549391548
203.308824430251 -11.8528872860359 -21.9377331270383
-212.907654028755 38.1161546484918 -7.55404005511706
8.68124534112142 16.425756218828 8.406460803576
-61.6301246555507 -2.34753393312017 19.945142108167
181.098361230376 -2.82599325131685 20.5799996077974
-193.692789572583 28.7554662765957 -17.2847378150367
-116.015101601303 13.3895267730184 -13.1679586338279
192.641943100842 33.7366837639793 -27.3255471491017
-150.811067852417 4.10330666090317 12.480440723678
-38.1996532670924 -3.71257010238458 -0.278821923762704
197.389222111671 -31.4074684227579 -23.965603160479
-196.175965645274 29.1586312283996 -18.4911505667659
186.668661933121 -13.5552358370984 -15.0821226391317
-224.964345148608 -6.33218292316394 17.7740128072949
-176.447475375981 -10.7170880136579 7.48179994048159
112.579976584114 5.10339560960729 23.9115147258269
-241.231261480092 -49.0504495176363 5.05190895769889
-222.065655303691 -14.8929073475243 -16.6857362554946
207.124089336785 15.3104863138012 31.6214680661718
-55.3380272780482 -0.45556807402635 -5.5029472703146
92.6333506672829 8.79396363178499 22.9934791697357
199.036582132601 -12.7487462645717 -21.5404574996648
188.820531643116 -13.3418202266476 -15.8269926490728
197.487450568394 38.2130203740706 -21.375952529863
32.612238386521 -8.83948407131667 22.6461781689528
179.009841468984 11.7566383765467 25.4408630404391
-229.440206470089 12.2084699020652 -24.5064928622182
192.791385280831 -6.68739997127826 19.5959095132312
174.456854372304 20.800742235799 20.0506144764342
60.3703960664373 14.5792475672576 2.41400870622639
-123.078741623179 -7.6985991380291 4.44527304301311
-196.85971044002 21.368591293133 -24.4752002459596
-223.198225531251 -32.7422981336347 -18.7930599250622
-113.856735789628 10.6101925172389 -13.262645031444
-252.68687001803 -20.2342076781635 -6.78319782108949
-237.020434316819 -7.49040956020366 8.90182242703914
-210.219722723804 5.23844904615431 14.5908363117681
202.458745176043 1.98637894870359 24.0902717245828
-25.697765235963 4.36857131784216 24.5763808385837
118.871884811785 -20.0542820504577 10.7652163431712
175.404343431945 3.97786032882289 -10.4214015885334
-174.668978098168 -12.636082481812 -19.805249368103
80.1987414407494 14.1733635222689 -0.594201773571508
191.45457491645 -26.4511752941507 14.0162181563635
5.38319312767911 10.7833522231237 0.574890711958075
172.959460494114 -27.3158943954308 -1.9521548596506
-241.946427454225 -13.4278558610293 -12.7734238975559
-12.8931171827778 17.5660593619229 8.20928181014273
-182.893037159916 9.17180507990914 10.5283804451089
-218.263572115369 14.7252748683504 -11.2121690045888
219.368499366614 27.0466782392947 -29.7039098690096
-97.9758504168824 1.1903580877144 -8.55967980692591
218.560391221026 -11.1575149482127 -23.5399986915532
-156.286927651832 22.6432993723955 0.238358888515774
1.18481881322306 4.95881772343593 25.2016377279852
154.158519865004 13.4404798299569 -9.10141640556486
-78.8689243386338 -6.71959732431991 10.664443708236
72.1809401262766 -12.4314605477997 5.36548961248697
209.026606452849 -12.6606044621994 -32.3299477212064
-195.331760713982 -15.1934349884953 -7.98920811813101
224.357003138497 42.2127880038503 -11.8666509759035
207.371533061579 15.8598510103552 -30.7554452708262
-189.347688495979 -4.16140223604888 -16.8619056586403
175.364316392008 -21.9284126634798 12.9152570692907
-226.884344556219 32.8307045715679 4.18339546736119
226.964925481122 34.6618612911769 0.727839542959745
-194.125007935762 12.8480093032104 10.3422906022679
-146.848760290832 15.4066158249035 -16.40069927131
-35.243806505631 -8.26702560528358 11.0114413071051
-188.06988140225 17.5218761610511 -23.2587370923338
113.357546055379 4.61011592412817 -5.50301265211426
199.958450663054 40.8122577758597 -3.63259719433324
-235.72711785606 14.9355143350447 -7.09439217246721
-189.362812549505 -2.32706239343283 -18.0073233427601
173.878914580923 -25.935789415538 6.98324659876975
154.100081206208 -18.575778756918 14.6775951477512
-32.9698614547742 -1.86860582608566 -4.42971377184252
-187.66745799691 -18.0291618058087 -4.10609466025855
185.848853135031 31.5227377679796 6.493665115203
215.95234427227 -19.2016821386094 21.4492287184417
-94.3557740077545 -5.05300860136956 11.9171115303535
136.192369392683 -20.9114769446306 10.6623663622171
-229.146137680137 12.9673908689709 7.40498446297463
229.540220216512 -16.7575520033581 12.4435287240505
158.008649255609 22.2942684146117 -6.75300955150329
-168.781691983011 -16.3719046369623 -15.0937774963944
117.209892041838 18.6352790066911 12.3715307581854
-196.592696121779 -2.54445650119645 -14.8210518557405
-198.595517761888 -21.0534714058376 -2.51261907818052
-209.595499992047 8.11235265551984 -26.7996942636794
-191.773941691658 31.7493802062662 -8.61282438548356
-29.2966763513807 2.22620188713331 -5.95828898844733
-210.989270453654 -23.7563302327081 13.7892790695268
88.4871001533033 14.1461954638527 -1.96104168109707
-17.0366993048592 15.1545539022845 20.3826525258365
-164.199428388182 -15.3089512455983 -6.12886139360021
-220.811822531771 -50.6227735982225 5.90990523715176
179.94706952444 -19.2502186496356 15.9168676252346
157.13573148005 -22.8964261628022 4.8021037294301
102.899265442333 8.82818409027739 22.8835331366408
117.642484653783 19.5329574587152 7.28094796553828
226.365020725858 18.1658057377231 -7.62998411443874
-214.159778153579 3.07458364921203 -11.6440221202357
56.2263949856788 -10.7762639229652 5.44567323627474
216.402752707991 28.9391878186789 24.7735497111788
-204.33492273476 9.50972413516806 -28.4028930267958
208.506953460839 8.35773650743594 -20.0897411292153
-212.159805734056 -36.3818148055196 4.19570879949381
-236.188369267119 9.54870924563357 -16.5934407955424
217.585450033864 -10.0854589574442 -25.7723317724812
170.075457192494 -19.6367658284667 14.2478454230412
-186.711217579957 -14.5688423488099 6.71045581241059
-77.8148873041099 -1.95051734640222 -3.21340415172079
-49.9230048964163 11.2869241506846 -3.35089778370021
17.9442371363605 -11.7919931297565 16.9583351789493
-231.948250177059 -11.645130978655 -14.2600756492976
-252.108658018524 -30.1181238843971 -11.5552950466805
-246.593343028962 -26.4099515723994 -16.6487746609684
-195.156732560351 22.406552424038 -23.5181423224733
156.946961470084 -22.3250072782086 -0.0965890769333431
187.135569154926 21.5631109723612 25.9027070632865
225.308134262561 14.1827203844176 -7.90802736522142
-140.207352520052 17.3522281810134 -12.686409131189
-172.792101240913 -9.0010675254142 8.76626933915781
223.922419819314 -33.8655879000389 4.41760144041134
-254.60216538822 -40.285299143768 -1.46414892820161
221.586462954091 -11.1289902145609 -28.7929052654411
216.785398831091 22.3585650720579 -30.6536240950276
221.661090339482 -40.3450980986269 -2.10347518158897
223.936538813195 -28.6697694947943 10.1530741053309
-235.71973445083 -25.9147952556649 -20.6132112914843
116.205756242706 -17.1332543892997 4.74563548782007
228.407917379158 31.0986964614282 -10.6677941930457
-214.592424607483 7.11047893921211 -19.3024172685526
-180.218686120745 -4.49188842311667 13.6390478743986
-10.8128898114625 -8.87041761889682 9.56699358392003
194.664219746577 1.14539539614285 22.6092118067222
230.351684831491 -32.3208725454078 3.19786222117622
45.135355134159 -1.94575389468767 -3.71703150443716
183.379591230565 -22.6189903062208 -15.1938750999975
213.95731247966 41.9978887733533 -21.4857369618881
146.428401180109 -16.9506986230797 16.2179870961142
-92.5226122220453 17.3581218540169 -5.14703988767276
219.034951119534 -11.8447511116099 -14.1946539342059
-234.808640546767 -9.01047395583822 15.4722994403461
-183.465357987439 -9.25222476643282 -16.9161250859279
-40.9158401320214 -3.9846004026287 0.368937784263311
153.202799515204 22.3407359452339 5.27533985144453
-221.334202987167 31.9936449635429 8.90810903876992
112.678674960421 11.9413268178577 -6.20131938245082
95.0211185172668 -17.8021912218605 11.0339626913015
196.311336774229 -24.2001921526047 -24.6409524428807
207.34854573631 32.0416178107941 18.7855751459162
36.1932601753649 -2.51017196556984 -2.07305242772627
-221.037520393292 33.6728025852214 6.84902420764146
-240.689741611006 21.6414535824425 -17.5244372309541
-254.113782054486 -32.9279796704902 13.1677785404303
185.300059818762 33.5000731568199 -14.4819679194557
163.338520645357 20.4904899663799 16.7962327439169
-165.745153793536 -11.8533927652392 -0.986458614540613
213.618586803888 -30.1504909334387 11.9306286862464
17.3833905967699 11.4858218637399 1.32707466010754
197.647709932397 32.2263705644254 15.512375872092
38.0414830240833 -1.56251352493459 -4.09641139376805
-119.461539962617 17.5269837219112 11.2777602747161
194.344521894508 38.9226976668535 -2.74890481943546
28.7218575149801 10.2030639105024 23.0952477442686
228.276203642674 26.5267745130211 -1.70294981716694
85.3763593665163 -3.74547945195335 23.8533212021104
136.031871730271 3.4646947941919 -6.73540584108293
-45.560646563662 2.85879187230919 23.6155081866687
-20.1640742851021 7.71798696951941 -3.82778339671978
-226.479544824162 10.1343673735047 -4.75572969632971
-195.050972127864 33.7481552360842 -7.13483534177092
-206.155220294419 -24.5990268802654 -3.13335468965329
-34.940365177252 7.32816178337718 23.9489565201138
-153.13262916212 18.0807987771382 -14.5897230936925
99.505809665768 18.4789238363902 4.59777290562886
-212.070377442462 -42.071713125955 3.30976966248918
160.612722998436 16.9820898690129 20.4719489098407
187.282618460972 31.8934391303471 -19.5657306785024
138.226049354247 -7.43525097980612 -4.78465154373405
-195.421528537547 7.32874309213385 12.1723473912975
228.020890993201 23.8611042688759 -0.17654165883208
-231.228912981123 28.5334535862749 -19.9921538539126
225.481760180905 -34.2478246380253 3.24027179874889
-40.5112145593097 9.6605426412119 23.3014610744368
178.119031393242 27.3652687393661 10.1063655869905
-61.5158609077265 9.54683130743402 -7.13539280574699
-122.801892144648 13.8357336840669 13.3915297388882
200.204043830617 9.96111047431312 -25.3772471234981
115.972070482852 -7.9784020416491 -2.84002339740368
-162.01492902761 8.64209781043757 -17.419977787429
127.753075608606 -5.30202397643931 22.1425394290153
198.236372233887 -18.5561187363111 19.5924809482422
-198.410284828201 5.63604795087891 -26.099562875539
-216.259286438667 -14.7833207333137 19.5052609047485
-229.728395573832 13.3576338750774 -6.63986606934958
32.330455406043 -3.10229712244376 -1.79349163151608
178.420168703408 25.1935551503179 15.6460885589795
233.11403850292 -35.2742109155532 -14.1324128782583
-225.436974076944 34.0091106552498 -0.33482068996686
149.100540571902 -20.2696799827882 0.640059797754652
106.902925449757 -17.084586355262 6.40057744115107
-239.412763058735 24.092261963466 -17.7495524424799
221.366771095432 -36.8186598895881 1.5369700742144
-87.7287296074006 22.2773338051246 5.66218697025253
-127.06958065874 16.8332121946611 11.0284360083689
-40.9505375022875 1.14901891509846 23.6618716531109
225.8512731295 31.3346210249981 7.35699847095364
211.519252036087 -39.752332898231 -28.117164537789
-170.693984846788 -16.8317481684855 -16.1109545560449
-147.247955737527 -4.40223683658273 11.5181131915103
-226.905302852554 14.7272484527315 12.1199810345036
-208.678945635885 -18.7559789630041 -8.6605745096632
186.484188293807 -33.275623752094 1.31420361155455
213.626936043507 -34.4137497367888 7.11611112366566
203.178994390682 26.1160604115031 29.5912603017145
-38.1008591350153 -7.38416078656372 16.3557663805088
50.4666062315127 16.7522959123296 11.2600643103743
-74.0943727613874 -7.07864934025145 5.08039587707334
153.098536788897 -18.1803792885523 -4.24041420086844
-225.905685366072 -12.5502875070592 -14.7080554294116
-117.386003070561 8.6745652798315 16.1571017517611
-218.32527399462 -28.3483530841267 17.4479279691112
144.681818129769 -2.30466247508725 22.2476181884469
225.312676029716 -16.8779025687863 15.9972979576132
23.2460579901233 4.69242560209027 -3.96106737880277
-204.51609676766 -9.43534912506985 14.2996814969116
226.52472585174 14.9565884949979 -3.27655312330224
223.180057035973 -42.1056349014467 -5.9796908825536
-165.092221080007 7.79682649805569 -17.9623659790978
-171.751799108535 20.2554457842932 -17.990315864045
-222.060162006607 30.7394697114259 -20.9321634419807
-228.820744051224 -17.1177905082612 22.9727163649273
-129.67034089197 -3.84659597622403 -7.11813909021509
149.472196660866 21.9939165471789 3.78249453974918
-219.922231482302 -44.8574965715277 -10.9867107286669
-239.864845341346 -51.4064662587949 7.44132512219031
-194.12093189911 23.8338470543643 -22.1065173274052
-29.3003588445076 -1.60447301876884 -4.01535340608825
-217.298603100368 -44.636570297863 12.8081178341749
206.174435122693 -19.5297002217217 19.9525998820834
-180.321772567281 -2.24906294455117 -20.7876622245923
-70.430455951418 21.7058582399219 9.30325327879806
163.713567656332 12.1028408987701 23.3787394664352
-203.749945130297 -11.6849265691093 -9.94772704400609
130.18452089334 4.15510124853319 -6.31215886330734
36.6553711360182 12.179000953644 21.3124052060219
174.21878320806 13.1275474037048 -12.5849311863429
-231.304487687414 -7.58219981747221 -2.53701610929779
211.557091812884 30.3798994214863 23.2538219903532
-243.124525864771 15.0591852258669 -19.6017888794211
143.990247137226 21.1654643642608 -4.71446234399451
-167.16680621955 -17.8593813065932 -10.99818225926
26.8959267509225 6.35555742557657 24.7258242398644
-123.97726372501 21.1872468272352 -3.3755523995306
27.6271217776986 5.80420760754687 -2.94828909616223
194.06693233436 11.7710585255249 28.8773596201847
-256.478870485114 -26.8273150077794 5.23458704893798
149.886626616749 -13.5402275810253 -4.58833016975545
64.3708328114315 16.2368644588153 4.63921973962104
169.341810990375 12.9327998835935 -11.3277946261828
-209.672625313904 34.7251150400866 -16.4687409417697
-168.157027461326 -18.1318235437925 -4.65385308362507
-0.00263892923597953 -1.29400818839839 -3.03772959890114
-220.338226501349 32.5027266424002 -18.8787190230111
-225.357596448709 8.49360248830106 -4.71070432622071
-223.455435890652 -25.2487680070973 -18.4803052471831
203.189908874065 12.6081552041652 -28.9326192680918
222.283161894742 -17.9228726208407 19.8238319616151
-175.183744552688 23.5386616562164 3.40571484691195
-243.590996442603 17.8699243355252 -16.2757535788816
93.686336652031 -12.1175533457976 2.56781867190318
187.398431246815 -0.574860692234175 20.980208516838
177.856494504186 -19.5192141157831 15.3983027473776
-250.059076536699 -15.9816372320888 11.006763631789
-230.537045262635 20.9253151374175 11.9634410488479
115.259792051511 -1.18721311952558 23.6165019218754
197.029798971718 -5.01142751666063 -16.965307345371
64.8939902807603 11.7005021841546 -0.685963772894838
-173.399420208303 -17.0077200197766 -17.488184515689
-212.04731509826 -41.5214825777727 0.481759597863128
-46.6040987412034 12.2490827174639 -2.1925039660188
213.889861674889 31.3206221915132 20.3204014022233
221.849365938721 20.1662929200725 22.6670813834963
189.254755844095 -11.3404806098306 19.1902324900248
197.237200707746 36.3696218988805 4.47202714356241
-170.366346776346 -9.47906193632697 6.79648210939012
130.755853994557 19.1616760678241 -2.89134902384403
-231.078208022184 12.4854594207791 -14.4722878440807
160.047876345282 22.6222433267656 10.0595230430314
-177.482347285647 -16.0280434463251 -17.8730800583185
-198.214738181896 4.41564210918445 -24.8879577386303
212.233176839201 34.9952118409887 8.69231976464701
206.613389239123 29.8098746127131 23.8721651420099
182.601146299082 -8.54368436668585 19.2380292453155
-68.3334092843441 -3.96227248945527 16.7108674525843
-160.299413887224 -10.166798587383 1.68376168726341
65.6145787830687 -13.6601091780747 7.92412269333678
72.3808797691416 14.3709499067399 18.2917951295948
-3.68126067502832 -2.11602560748967 24.5192735140224
-222.553238976974 -6.0767999539687 -9.11207884668692
-243.054585731842 -43.5560073561093 19.2154406260956
219.23107978261 -10.6536319017415 -29.9163328494015
-103.386800152916 11.2103507267482 -12.4172692064003
190.000268174028 12.2435838216574 -17.7459791577937
86.7992843968529 -12.4364592933627 3.52690904329345
195.186617077251 -24.1830158952784 -23.4402797222464
-185.083624712163 17.7703082676174 8.63605792282087
160.937545085227 -1.41806470339929 21.8769603738934
-184.024008321653 -10.9462371821977 -15.6868503111682
206.954959628889 -9.95979733410233 24.131931482847
-243.151876335011 -15.9917300673902 -14.3167497374526
-230.199686554031 -51.2832591309317 12.9864250324462
126.639615313108 15.8095186904326 -6.66826940428517
133.672805423376 9.06642277879766 -6.99909951038014
35.4761176613438 15.0764787802769 5.10487459872277
-191.961551132053 22.8801657792953 -21.8377828132875
11.2804726765597 -2.5033137337222 24.5549689181561
-37.1277937321133 9.43371128910599 -3.26963349111036
-224.124579162984 30.8861240087166 -20.3024947303166
-227.691720369772 -30.9938488276955 -20.5849483796631
-189.88068682969 21.5540199140697 -22.1117457508658
225.91468375665 -10.8849700370001 15.4273587125293
121.064428815547 10.6735269949927 -6.58784174047911
-183.408047764347 -17.8951119858566 -11.1358217393169
-83.283108887471 14.4034464768096 -6.6467124686263
191.470064420509 16.5057346470032 -25.6446572906128
-53.8251171757294 14.2347932220273 20.2824648218189
132.202147748048 20.3924764341175 6.23732116582706
-57.317268395539 -7.23136004983085 12.0744037960931
217.836929979289 36.8527129806827 0.210743706680886
16.6873323482142 16.6607307145376 11.2095419622743
88.8396920780655 7.61902257342055 23.5227857933015
-185.52744560166 -13.5724216297283 9.75082442031347
198.505708673466 9.02685024841217 -22.6653396273132
-229.365483506084 28.0218132749136 -21.7519125620924
66.972754034881 16.0146838586648 3.88623559627966
-203.240269207271 0.47926132695343 -15.3906680925954
193.642641481356 -9.28346658132763 19.2862723554684
211.169907803218 34.1140482884222 10.5552978315916
-245.501972581326 -10.3816391154126 -4.79879375408037
-241.687821321553 -46.4332304345655 -12.6776102701315
-159.215367622681 17.3740729778686 -16.3333422711247
-145.62204294563 18.046851645866 -13.0247165199901
17.6209803718268 -8.46959319135753 6.17641927094179
-227.927624963417 14.2919238783819 -14.4946303065442
-215.290518056352 -36.9490804411858 -11.6484143491669
212.254360420584 -36.6768565285616 -34.090915557673
-62.579983782535 -1.20647195244887 -6.67110779955195
198.402595234475 8.06581484994238 -20.1359909626701
194.995111377784 22.3236965461636 29.4103593890153
-242.129669891138 14.7706800833241 -8.91091756051916
-237.394490485707 18.0870142116237 -24.7004252764967
125.174374196393 1.50519790855814 -5.57879711505998
225.934975154596 28.6884264624479 11.4896428873839
-205.972138171368 36.3459701576154 -14.1069577092855
-237.68963584532 -6.94434843267445 11.663120709576
-202.124627466532 -17.3151584781788 11.3685244778244
-102.296675750858 20.1000369648526 10.7792940557444
-144.610509616977 0.701383882467836 -12.186429514506
-43.2358466702763 -7.93521397263314 10.2597604294586
195.815083456474 -37.607818819511 -18.7658266410341
110.477565376667 5.23072748211622 -5.43510018877045
-211.232128773279 -37.3929086411711 6.77110160697043
-181.058945193444 5.97656439392488 -22.4797117870757
221.358326515407 -27.6238009157258 12.3663630172342
163.295653541663 -0.555207063954147 22.0491488151777
-240.219314222148 -6.28737085824054 3.61437161445615
-98.1602377588927 3.3651798918228 -9.12397041217773
45.6274027539485 -5.21877250210538 23.8709028263503
161.912294985586 12.1007826244313 23.2956307275619
234.234999139658 -26.4837497493547 -27.9639937719832
-89.3330451836736 15.6423220785912 -6.55606994883744
186.586407334892 -5.41343631381333 -12.8576713162978
119.493893327503 8.70189920289662 -6.17572568360414
-193.454355528365 21.3175740342028 -23.4011949744913
183.920864535117 8.27416148198574 -13.2523572861322
-215.031486538892 -45.3222776369047 4.95791350728867
-140.476540574408 6.09729714165001 -13.4975433934194
-98.0267554958644 14.0374021274986 -9.89319693594598
230.119727672865 -36.3031366982312 -15.4905148449609
-247.157490535465 -14.1781986285339 13.0818558982145
206.578557055541 -43.9835764324805 -18.4756729242325
168.977341568142 -4.9082791826474 -8.5125719068839
-27.4446730208935 19.7581789508147 12.3824083729337
17.2374074212292 -6.74073918663424 3.67143539493889
-222.385413658615 25.6337702368956 11.409062505952
-175.96235511028 25.517828105161 -5.7561675384909
-200.218361207622 33.2979692628725 -17.9925432947917
-100.773432828258 -0.941021381287473 15.2375508557694
196.189694807684 -40.4049389695916 -2.67838897773516
192.204910435824 -11.6625888325912 -16.7241791441722
90.3074645800688 0.33715936352649 -3.64036296346537
-238.708017043668 25.2578010306841 -6.06455872016209
-59.4241154523157 9.7045758121037 -6.37998488320166
226.689104733286 -15.4400168286042 15.8374093071799
-78.4331938299414 6.10508880566 -8.46349036891103
-225.851781959559 -8.89216445067382 -8.79581757473873
201.724804014307 28.5676466250973 24.7230722114874
108.105285025466 0.483718357872941 -4.33890904129665
-73.7048103743416 11.5618626578494 -7.44784624108888
200.497035303587 -43.9668619843047 -16.9609882503086
-254.90098928216 -38.0185326865938 -3.62078570283202
-200.578392170265 -4.42452154530195 13.2048236234606
91.4872338471099 -15.1272328819775 6.26149826239451
187.180167197313 -21.4799117897531 16.3010246279243
-217.14784946626 9.61642087046626 -11.3710635498152
84.697298499907 -15.5436803029034 7.82253470494527
208.793440096273 -28.8295424162601 13.7063026480361
137.002618868509 -11.4312845949672 -3.62086668282747
16.9056663704962 15.9417847889082 7.48968995166704
45.6832734791912 -5.78159839448833 1.4282081851898
121.567584309895 -1.68739818837101 -4.7940006876262
-254.909025522286 -24.5669568552769 10.0963114008251
153.104845154277 16.1511007238292 20.2723325565118
180.745072305971 33.06645673077 -7.14360069579339
190.343114167791 -6.12881688720765 -14.3384482490223
219.581373413424 -35.043436617654 4.04912825007173
-183.689546161252 27.3121361580439 -10.3310395408006
-161.186256297922 -10.6947455600885 -0.074276653355292
196.018536510083 33.3887553997948 -31.4352513298681
226.743310577893 37.111673974025 -18.0729147740909
-153.163861914484 -9.42167218969449 4.862397000685
-135.969446173056 13.0464962056746 -15.6794672945925
197.291004427603 41.1354070194666 -15.6090275398549
191.461522861514 1.95559112740593 -14.1612127392106
138.16087549411 -11.1618177421103 19.5548078562247
183.375319937906 24.6995777113156 -18.311520549511
8.79902785265774 -2.7295975801322 -1.07317476618384
169.452680399826 -16.9957530036574 15.9346305946483
152.460074366831 -13.3591000013417 17.9705493844024
188.360366035275 35.3977686325867 0.32395710641157
-243.570389374122 16.7695230754681 -10.5010743907172
-200.816262561368 39.2359544408325 -0.298341688935338
-212.17000850156 -35.6188740122113 0.335510372617256
-183.002861139144 -13.9508545036709 -15.7730327739459
152.551026713784 7.64947159184708 23.5547501305614
131.439903021103 -12.7125707462394 19.2392969345207
-117.380972012537 22.8271450448426 2.39354451277662
81.5820967568286 -9.80553410152714 2.02072189525452
-135.814337643905 8.64893407836947 13.7536739660375
-68.0712272147588 14.0772877057978 -3.959587127097
-151.810208198355 6.22718509795851 12.3135641690812
180.663195188428 -25.0970329143873 -13.583309207573
228.82394316162 -37.0646966031009 -8.56265109015611
-89.5825761444062 -0.503793964936942 -5.47730760703182
162.20999398263 23.972563409872 3.72033084961341
-16.1288870961187 18.0124554028992 8.60682219525484
-21.6430564854778 -9.00638705747527 15.0044913726629
144.571375500725 -13.0702444386353 -4.03563809676735
186.210158454239 -30.9256468404741 5.9816447084922
180.808410784123 -31.6764319280612 -4.88807770447397
-110.201489523087 13.476339651792 15.2540982801616
222.60556463999 -39.7246992778567 -22.3486288709523
217.820874908367 -41.3544689686305 -2.59825798340749
-173.19976557306 6.44421442559976 10.9372878271341
208.702741598035 41.9613973387232 -5.08166100923885
185.806891697242 26.3387598707873 19.3049339134316
171.972151979107 16.690026091801 22.7364617177632
-252.309681977246 -16.7922688214559 6.3126777981611
105.760179898666 9.98635714437869 22.348808885378
228.676335306921 -11.4492025129236 -16.5426773759715
-148.483096231279 6.44494789946837 12.6182321375558
201.517323733127 34.1412937783844 -33.9077439772901
-207.65180577899 4.49188280465044 -15.9296480703723
-99.0618582418896 8.04863163873015 -11.4274325815939
-211.277039118772 -32.1066746680093 -2.53392010638918
177.005717369207 -13.5228474990128 17.802810700259
-58.1130389824237 -0.330745033441796 -5.89383228382324
-62.3068136003793 4.09690890011615 -7.38549331565847
53.4061329732595 -11.1913993016587 6.32326966590648
-37.1995205630184 19.9982626886039 9.40918790752756
-47.5566923235244 -1.75730278137361 -3.19656919968525
-214.774692418934 19.9181276723934 -27.7244144198202
-230.156035713884 -10.776417554236 -8.18449547560698
149.561239662305 21.036592425319 11.0878082565272
43.6108653276841 1.40442095772134 24.8728222098784
204.46985953941 15.4517545387402 -30.4657492254838
185.971211644055 -2.05625760966137 20.4174153388594
66.572192860768 -12.1706723683132 21.085268590095
-86.0799668469068 14.617679155368 -6.98511860630611
222.236132514713 -21.2834538146926 17.0939045155177
-217.051465620581 37.452188729182 -6.8109290186958
60.3207586652376 -10.4556863883928 22.1216506233245
-237.146378949657 15.828504569713 -27.1623254673842
164.736676452842 24.5595326654601 3.58902939917005
-72.8416610871513 5.81761686115335 -6.74922301084113
-243.158542092353 -53.1001094624553 6.2066891724579
195.431752728304 -6.11034857597189 -16.7318310480829
-230.474914269469 -10.3244466214131 -6.42057970964725
-242.391444902409 11.6469381289546 -18.5783409339565
-129.429314501441 4.15478152679451 -11.7630420791301
-111.522665308586 18.0545038426464 -6.77901063430482
198.145851949781 9.96406550804341 -24.689842636995
-105.423001215826 16.0833793027082 -8.64705813282148
-42.5220378561319 18.360349197871 4.40849021277853
193.521911746593 32.1309889254212 12.5780917849265
-31.3863086372442 1.99109647900541 -5.9623551930398
-9.93493531301583 -0.247222544065203 -4.98075981633915
207.894795589686 -35.8108918495965 6.45167802860152
58.0783428600386 -14.7756731349777 12.4820538619325
-226.82346443297 -1.40290751083555 -3.46401446082977
200.354756384638 -43.2884351206896 -6.16524353908043
-177.007334719308 18.2774668930721 8.11699264091842
-229.824824816867 30.7818469498844 -17.148289325662
53.7083401098275 15.5961849269656 16.1797360390951
-220.824224098293 -5.85699914571821 17.4412674037324
201.974241360864 24.1840043232246 32.3477263430417
-27.9913524228793 9.87612628378944 -2.21043763817638
213.135757900055 34.1549973838342 10.4841390769521
39.7011196381907 16.662307960011 11.575283782734
14.0181966091492 16.8262907014858 11.9673829004277
-222.978487526603 3.73154650265687 -5.31907486854604
211.502488511739 39.8191503868158 -31.1319866254739
-193.076487056403 16.5755686095515 -25.226194838043
-165.019862746927 -12.5427139633004 -3.12554915668133
157.509135221837 -19.9286529386306 -4.70569030942178
205.497788960773 43.1267659161848 -12.4922540318885
-223.776434341764 -47.2704336015056 -11.2805924633349
-231.135292004909 30.3427243921878 3.08421713708056
-58.3510087431334 19.3213506519195 3.3974589389879
-217.680209982488 13.1532370308613 -9.9997314584988
163.614348364913 14.5021264350952 22.6518931426741
213.555155181663 8.08004216758982 -16.6507658088024
151.661988683011 -19.6456885406833 -1.6705695284986
-103.062926725018 21.6882068852598 8.6164482524534
220.240481257347 -1.92643790948444 -7.00478890535518
-101.434558569622 16.9544430980236 13.8858653102197
228.364192685507 28.4442531817925 -1.28744641734142
161.646592774903 24.349093187185 -1.77748835876708
97.173118168291 1.16874069523056 24.4075571417809
29.8828512305294 15.7574612871265 16.4431069339385
-112.757014946315 20.8606947666721 8.78248139578524
-131.641590136142 -1.8123250669663 -9.05676342985829
-169.273171580814 3.18554569602099 11.5173620165103
-112.426137946635 14.7928106657252 14.1777324491713
118.495596699364 13.5613800495061 20.4445352603325
-176.456448051955 9.35171513762929 -21.4568455662686
219.766958078437 -19.2999933274324 20.592376137823
207.475378887919 20.0074222906784 -33.0388614680395
-28.5281129976611 6.55568229284548 24.3738024913916
49.0421084985798 -0.57066502349977 -4.00499807846523
121.507810278943 3.85156731022596 -5.71785235690333
184.112329098774 -30.9979554180007 4.04305250933762
-99.0838350704423 1.15251219278912 17.1210120110695
-7.55363851066693 -8.67565664784155 8.75265047948382
169.897115923823 2.60873689816103 -9.50774810127412
19.6425912910506 9.46440952561271 -0.0978809640908496
230.035883382842 -7.81376446367056 0.814095566969918
213.650988305897 -42.3590218814054 -19.6188751734176
220.839274007531 -39.4299174610241 -25.3301637774929
-1.42966202433118 -7.54165742856289 5.76839557456003
221.503718463199 -15.5763646929183 -35.3189735862103
-136.192685946313 21.8503904020807 3.69819620134799
130.990980919501 9.13687671459348 22.9569257273518
-211.845562638412 18.0611413602055 -28.4018995190689
-3.09427170451557 -1.53384815525652 -2.68697155981391
-231.732562588343 -4.9821416694522 11.5754080176146
-15.3427964972427 -3.11833685688974 -1.00595932338104
-240.216769403831 15.1720671360183 -24.8945856428233
120.034213148696 -19.4149953015885 7.77439345408502
-175.683677217712 -14.655268662459 -19.2292677134849
219.239541959722 -4.35658878854189 -8.0525340346193
195.124225300897 17.6018914695848 31.2484381901478
153.984092328636 -0.0565936638745639 -7.6970907913039
-207.726945458999 -18.6379499171343 13.9379914059292
209.946830627356 31.8608343238544 18.7409087183338
122.478370218796 -19.1601715809871 6.66055377644254
172.321225114183 23.5879280015996 -13.0755555339716
-167.790130668412 -8.87942986986403 6.92193531734773
-163.147288852999 -14.1477625150523 -6.60150798060638
-155.540731201606 -10.0582852757672 0.541560505242327
132.281508186742 6.34530388608492 -6.7548132094747
199.982287112945 42.9664127728458 -13.5540652371895
-230.246081260865 10.5282785551996 -22.3737749436596
-109.496035507727 -5.25067782712842 10.478275340532
170.226563193094 23.9865172454264 12.3513902551154
236.938390204807 -25.1191168582186 -20.6043909525526
-238.865722211468 -10.3995421034666 0.333883360443273
228.117827543347 22.5876123032638 3.64939055393969
-212.414970665693 -8.62902114925945 14.3747530259775
-223.028779402252 16.6591849535688 -12.4928240537126
-209.93304000074 0.853650433933567 -13.2415986504998
65.3465350669333 4.61856151911783 -4.45928338382009
184.439746307439 -28.3811141772806 8.76368840645557
-222.895381242559 0.909800600944022 13.6230393825918
192.884268043947 -39.0596541391072 -4.16834999864004
5.8580509798279 -6.80472942325014 23.1772566525444
54.3276891393658 13.3130941936681 1.50226909592483
-242.679882392461 17.7358187970392 -18.8742869003047
215.376339237905 -12.6540861118249 -34.208561909817
190.075612811551 -28.1349010111743 11.7010746611191
-45.6975437756126 11.516084485415 22.4316307046127
-154.424841151297 -1.59578965520538 12.1667180378017
-189.726539803152 -14.3395020745162 9.11811300528842
62.115077585502 16.2802862094441 14.1667585792148
194.11714264237 -1.21412278617193 21.302727288781
-168.141105122047 -6.57662675260398 -18.4258379449946
205.237720535666 16.981362781779 32.7308977496809
-67.0267140149653 21.7310294124113 8.56937152559167
87.933150890444 -17.1610032890448 14.6737519989078
-254.676398368817 -20.4397287082245 4.79586343671492
-87.1872527349666 -1.21181764136974 -4.41316896802117
-81.1285920948502 -2.52914306446841 -2.63563353538382
206.18669830993 39.8151087257405 -18.4139095664813
205.50773559007 0.331085765769844 23.7124430524592
-134.34367107236 -3.58128926485415 -8.42991731401924
66.8594751643553 -10.6191367548637 4.1756289809612
-129.918372790662 14.2006513350462 -13.8659560829628
-24.8471686238121 -7.05191528680918 20.3040597411316
195.094581387259 -41.5997671477569 -7.89470245753448
63.2784856197711 -11.7917508364834 21.3942240805435
-9.83015775742418 4.42112148864193 24.9646431807981
204.926803460717 -44.5638872277443 -17.0340140849523
188.006615115396 11.040677003953 27.597585164453
-198.937983210762 -2.29146340735128 -14.2670200518316
-203.283685006098 -19.4397239861053 11.3127672629069
-224.07867024586 -45.4972878943414 18.4531732438806
-27.048323032299 17.8726572012757 17.5711822211588
-25.6994935201171 -1.61429958447556 -5.62948065230144
128.409257637304 19.885623320516 9.19325111087833
-82.0192849378133 -0.875009596340446 -4.90588402675488
-100.662145770603 14.466327021949 -9.79593762535385
-208.652927740243 22.3665748089945 -26.6887058236216
-169.56376881402 -19.6324844272509 -8.5726462171884
-232.255637024653 31.5418122897426 -6.06712317598717
15.5658497630455 15.1050454957836 18.8630309303877
-154.579578593529 2.39566996288895 12.1750653369226
208.572992081707 30.8534985036517 20.8664730602468
-219.129197271109 27.8142791944002 11.9794306050566
-216.533372040327 34.9272911243907 -15.861761770602
184.523277876015 13.2123990203752 -15.7589562173101
-90.123171938121 21.3153364609405 1.20349855733747
-125.971597511091 8.76160327760257 -13.1998575659688
231.153104158573 -35.475958487626 -12.813476672197
-228.95959713428 12.4919456176481 9.16319059888503
-232.687184663621 -33.114957036788 -21.0437571978801
214.127325802812 -17.6490462703443 22.1386397517014
-247.675887550838 -49.9662223857332 4.31220183712889
-11.7633557629391 1.82488392950202 24.7819015105058
230.67223249731 -32.1334332021909 -33.1756545867883
-200.178090371771 -5.71143800787639 -11.8896557422966
224.956426577398 2.72282920121669 3.95378151637845
-182.364547465528 -4.30821769153184 14.2103220773194
-206.708930490744 4.62916490260996 -20.797407601452
-156.855277072861 10.4485924973864 -17.0428664467558
-215.981435916487 33.4340853840749 -17.6845595170164
203.037321398081 39.1636506691926 -20.4995136264423
207.599906661033 37.0962017245023 5.51377237589221
-114.589425307707 18.2175682774445 -7.04061035434744
-104.65158652401 -7.14459966587959 7.20212809083415
228.301648797248 -28.5922007223712 8.5828239780091
216.702920984428 -40.0679629239496 -26.9065916529983
-194.410903667996 -19.161967723161 4.35787268350903
-159.184771429144 21.3354392328885 -10.6178342447607
-185.910624365305 1.00076105826949 12.5806388425305
225.027209047605 -1.65815123769267 -0.360804149710781
-170.098649843977 -19.6464391738487 -11.7910827623935
-126.30184296483 -7.4528054318034 0.585261536636437
111.432851329948 -3.04107555769517 -3.83558359455381
158.006934216817 -11.85431726325 -6.06351478678676
-114.967572704186 8.29800094442079 -12.1693526711462
-94.7988137236258 22.5838458455485 5.44141429459469
-234.433706447088 24.7562369224058 7.36514108143755
-67.0767003918101 15.6746762123308 18.1811236978211
-60.6594911240105 -0.592207383305982 -6.64852771937082
227.714711270444 36.0892335717498 -13.8071431968893
-170.497033568573 -19.5498878957896 -6.66669460118145
192.280946028794 -10.6574810050896 19.3731567230339
-172.484386332023 -10.2532011388626 6.28338429146186
195.696362358399 11.0614115320988 -24.296453767903
-213.695326462116 7.97194811452554 15.8838434340634
-194.050636784463 -2.03433551290329 13.6440965531601
22.6893117227178 14.7096751438907 4.88914683515953
-253.61009575081 -18.4494898029092 5.02630751478104
-212.890846856737 23.2972124202992 11.9601325704542
182.623784655331 12.2934246633297 -14.6793020205668
-169.685007460917 -14.8250103387061 -3.17601039565481
-248.150105130399 -46.9064153794045 -6.82129345268285
-94.2161630767265 12.9608738526151 -11.0353780449289
125.147904299537 -4.17997558266013 22.565793321604
-227.394772922365 0.353483222544116 11.6881642514513
-160.206847786882 -8.28828962184894 -11.5867635648969
-201.26363130711 -12.1392453805194 -9.53969559467509
-46.6593560080503 13.780557882265 21.01614667336
