-188.001388413522 -9.14316493374718 12.3851891231228
196.28378178682 -23.9287111999979 -29.3060593165336
-57.0770943443613 -23.5493578227564 11.9419699637821
-212.233199606188 -19.3854567380449 -32.0489844726957
189.746649978564 43.343323302684 -18.175910184495
-233.860863308338 39.9801851459027 27.1411448403878
-11.1973920578319 -13.9351322906206 22.8156426784248
-203.773505565948 -33.2874280501577 -20.9774219979029
-239.646930307228 6.81763294362823 7.53471207427924
189.333432894145 -27.3877991783043 23.2608006189806
-228.17568902537 43.5033658149502 -10.9763072717996
-246.615720451626 40.6936823171247 7.78482216254865
-139.562222136904 9.83020662608491 3.32530933738386
195.245778174049 -37.3633572204059 -22.5720454756434
211.07801112707 42.8338029287886 -14.7252235969362
-65.0589435920977 -5.83899235457709 -8.05273744768277
161.171828637666 8.96344809598107 -10.6721946375852
187.505835323537 -18.4943963899101 -22.2235102112678
-243.82876672158 42.4891863192767 -0.567861394540734
159.012420154299 -0.427416519580557 24.1553054241664
-58.2787812558385 -2.97794134688931 20.9724651292964
174.135695898829 -4.34832653659812 25.9049509679495
180.821258266709 28.4953421482101 13.4758623690287
156.049426792519 24.8176449275855 5.17875541042595
-186.085268384466 -13.1497361913583 -31.099400336969
161.947978248035 15.3401150568712 19.2877469893982
-187.951828080545 -9.91394108144967 -32.0338942850926
219.560445695839 -17.1417985342688 -18.5509524860424
34.4578144192565 -19.1672255363964 18.1064327242726
-215.756662001583 18.6976774475282 28.5310802441489
-178.12377245836 -25.8406867103053 2.19220257226463
82.3370169840784 -16.29098376249 -1.43872878347397
176.064704201256 36.4315938838055 -9.65317859921944
186.020676563624 10.6661197021499 22.5769626428958
-77.9949364108597 -21.5414686681622 -0.833298035033237
52.9227450911923 9.8488695372037 9.51485912851087
-246.131725949009 18.6615147650111 -2.84425855014437
-10.198001996321 -0.23182860993041 -4.34130240918449
115.014894896247 -8.2724035565732 22.9212150662618
-32.0620362267587 2.26366437714433 -0.52593269202161
-202.883602250693 30.3802162058818 8.89195664991246
-139.050710967353 0.287037569990915 -14.6810874095167
-221.777232126069 -12.2827547030637 -11.3161239285942
212.449155425159 39.6627949091934 -31.6369773098086
-111.208602127531 5.3504154255142 -2.52949691666115
-107.312535921501 -16.0222902970094 14.7736692273201
-225.711782788535 -29.6010730663325 -9.81242640137376
224.255266534116 25.3632701059829 -24.459092188774
180.02738913503 -27.8704453562154 -14.1739731750895
-117.147077973455 -13.9607522146422 -15.6372308235121
210.953274869415 -37.6643737193479 -10.4772290424171
-193.173385395861 -35.0044946449749 -20.6732009109096
225.357749553732 17.7188919685365 -3.95938204287456
221.270470854123 18.9899825040541 5.91579112305574
189.785388555075 42.3671612939282 -20.756753587039
170.527448280272 -20.5862426376039 22.6426708322426
210.196096884634 30.592890748137 14.195941781783
-198.801759938939 21.3036079748346 -6.24875288076235
188.414878750665 38.2768534444632 -22.32387196287
46.2090398127609 -9.93677989699997 -4.80701818367027
79.4147266942885 -19.1661326258589 16.1697814783205
212.630326367726 -37.3659072157655 -2.55918738062569
-63.452362958807 -15.3114795610296 -5.49261993516574
-216.325229772344 29.3538512995223 -14.7389454612887
213.717445592731 -6.21683944002833 15.6184577747311
-109.561514645833 -21.6276422370094 -7.76380003883508
-226.141717706513 11.8544760394375 26.7791624234533
169.181883911502 -26.9682029781721 10.3984086596017
-225.387275924043 9.02165482703126 -2.057738031762
-161.572337478905 1.11245391724641 13.6484847477503
211.816044772976 12.3121269785946 -33.0846655299804
-104.347636534538 2.15401676963158 15.1080538875699
-223.54363572333 6.59856205037085 22.2209285418795
200.857671017965 -16.2243332417025 -27.4777195609169
-199.541849532403 -14.1295164362525 12.7860307089161
-178.466390825127 18.0885059457772 1.24237974102867
-61.4833345059454 -12.7404699328833 -6.88922285007333
-12.0043063981301 6.32341624736632 6.34746681798909
-223.669186462682 -10.9016181905524 -29.048622638746
181.321156168873 -23.39657899913 -15.8860961413694
177.504322966592 13.0797493875309 -14.7403351258337
-5.27650501776164 -8.02323714897835 23.9042738048879
177.440828875215 15.6168860888271 21.2128760429597
217.706120301898 5.59373374751555 2.00575281237759
99.9680510413946 -16.6313506110917 18.8119227050951
164.446200352149 -7.38017568632288 -10.5150206280897
-196.801341688489 -38.8226647855868 -13.8328699109697
78.3974119177951 9.23878271221175 18.5411167768044
-228.335961106266 -8.52545994217315 -24.9739909495627
190.438034676709 2.08953933860581 -17.520101052903
122.797395418823 -15.9942379638665 -6.45458006231701
153.375176441042 0.729206230911371 -8.94156886932302
-191.424165492304 -20.0221609312198 6.73666023830353
-232.685813349096 47.6059183644667 20.679740710478
-101.882245653702 -21.5612098501375 -6.74602048393754
186.172775889328 -39.5185190309828 -3.11802160491562
144.384869501295 20.9631817206569 -2.21540418971377
-239.932231011651 7.13574787682882 10.805944307542
50.5279343810065 -1.60029615850497 -5.26675656655623
-150.331393133629 -13.2066222718925 10.3866118060728
215.676803072392 9.67397694683261 -22.3850630476987
-221.47323343047 -4.85966392646946 1.71571063705765
-231.879026818935 14.5044280820145 27.7682057905158
-215.609496346575 24.5518614036684 30.1855187925478
-60.9018036883238 -17.9127564833057 -2.53384321964195
208.058769823347 -37.5396507629636 4.69859365157957
152.751235666193 3.84740378687151 23.0755552606003
-170.158125913556 -15.4626905198499 7.71015016615117
11.6952967060823 4.80776068058699 2.21280775392446
-216.880724107573 45.4917269794758 22.8877914589443
-180.832948230709 6.1972260358854 14.8416142558632
171.827356397972 -23.2035853214783 19.5587415462954
-191.171771909713 -33.4244739739637 -22.6556182894728
-184.940989770209 14.4193553008106 10.1910619371465
124.442398400634 18.8951594270876 5.03879672624634
-7.35918698616401 -10.9154962010171 -3.34990866936421
162.381283834755 20.3428322503527 -12.4677825438383
-218.011074280045 -5.05103164149126 -22.2204067600011
145.739425321465 -25.0841603076198 1.64857804106983
148.840220453821 21.9472555057341 10.0937537413965
-26.9258120038822 -2.43523227650125 -5.71952016746964
219.18879871684 20.7616703477584 -31.0762406141096
-171.95518410544 12.2006334288445 5.77039941883236
-218.582685647995 2.51729365969329 -6.73139846540596
-240.752335642321 7.94519195846523 4.28914731876883
-214.051201303673 33.7706296148455 28.7989514784721
-199.659821170132 2.52671305576332 -26.7867683969954
157.387895939233 -9.42710894461014 24.7119075643093
188.175901541486 34.2056497773814 11.6939031780658
191.371603381738 7.43327788177242 -19.1477977342397
18.4701278341146 -17.0021064484161 2.36992485627888
-168.929478746371 1.12474806593932 14.6709936775662
168.968601963428 -1.05588762797392 -11.4077730529449
165.504367827984 -8.2728039678322 25.7104390953232
199.615328825778 10.751623964625 -27.4176215456101
-245.488116651052 19.8599057925569 20.4215282206203
97.0281875872113 0.762910033487075 23.1305416417443
-108.062777601738 7.95402121222558 4.66017478566251
-137.381193569695 -22.9059643985027 0.530931067438762
-221.917216677039 -14.9678407980564 -30.4958950385213
-47.5326349756901 -11.2328763000064 -5.61362427014211
222.009319386657 -16.7072318542673 0.409569684377744
204.186440200216 39.3040015130314 -30.8443172648945
158.241998923292 26.7404490661313 -4.64202180754196
-217.074542678187 -32.9130388262939 -10.8629941337037
187.013082200256 -14.7546275947337 29.5366747628803
-187.310526010662 19.3316899757344 6.13410628811079
13.744895158739 1.51595796699548 -3.66991934132816
174.292271441033 -31.4254310883983 -8.26853951323252
68.1079231632697 3.72251752074972 -2.4059250662724
-116.159049373599 -22.9260848696443 -4.64280710814593
100.316021594941 -1.0065437949459 -5.15035520420401
202.542724109369 44.164305263834 -1.15929308451725
-72.3447893373774 6.47927356941909 12.6454832221398
-222.10097244367 51.9280081042515 4.13703770832189
-175.273529938215 24.0848458952568 -12.4439537766086
67.4013768129627 -7.52647498260607 23.6821468630631
-13.7287505078539 -11.1093110717215 23.5058980455775
50.2105813349202 9.86089073513223 11.5353276849234
4.35028206400724 1.69752973748211 21.4849275481691
-172.996328354887 -8.62706059407362 -27.231364133717
202.035233840383 14.3263098144206 -36.2873883067745
195.568514010981 -26.9094096000114 23.8150989122949
-92.4855727992199 -19.0105816333204 15.0936394747562
-27.2517475682389 -14.9715202576193 22.2641276207302
158.357838136101 27.0290205135849 -7.59263028997693
163.740433918345 14.3400634955316 -11.5868734574567
-119.145863878349 -21.3399784630607 6.81430942346717
139.077214138806 -5.97994945936963 23.7791961150711
-244.381449202784 35.5844184955079 21.4001185558838
213.01561411185 3.02592908926318 -6.62238944943373
-194.137798617218 -33.4119148744308 -0.00741009938351622
224.793557638222 20.0589390692868 -20.1959185481996
-33.0001510842882 -1.7665857364453 21.7516666158724
29.7635000443013 8.28880624404617 15.0447807567454
110.359019635577 15.8228353208018 13.3041620251505
-61.4948495015161 -1.99412046104047 20.4388648310923
-209.677264595359 31.3594160606363 -9.01826709929987
-219.110559420398 -1.97704882780668 14.4403297837962
-93.3028589920143 -7.61448892180313 19.1128935087544
160.585092623906 -2.23366673966748 24.4948585920277
-141.121921323779 -18.6134525726427 -16.5825339435396
97.0119681274479 -21.5574294164784 4.77103423233675
-186.25443775092 9.57487595092237 -22.0988330006106
48.5871804926712 -16.8646847951421 1.5215774806001
87.0304117484084 -12.1411311926646 -5.9156978090821
-198.335473524217 -28.9480499336528 -25.7312772323615
-71.9951521332323 -6.08008448366592 20.6670644502373
-173.523340684959 16.8002266302265 -24.3431497750013
216.371481343714 24.8074568639716 -34.5478660957375
78.2710834365788 -18.4635339889218 1.02936413965971
-70.2039561560252 -22.3145855407768 3.28776619960489
-151.268260502739 11.4811809766376 -4.98626115163336
-121.543187129248 -13.536474426372 -16.286649908604
-136.584578680921 -22.0836122603882 3.29957904648702
183.526849755031 9.97997451318336 22.5447600441865
-145.641040189248 -0.969537625693614 -17.3818653382218
33.6427967245295 -21.8626499497089 11.5470865790014
172.127651922694 15.5362696565757 20.2559076960428
-223.943154989733 -15.6206907145106 0.327485015726522
196.612450590837 2.64693620348072 -16.906268701873
214.724932793737 3.54910364538425 -5.46417129569426
189.704436117266 8.68151543167582 -18.6083923103781
-2.47343228442429 1.02833192598095 21.863114626924
-29.4208861633453 1.22446701926702 -2.08420429167126
143.778774827983 -18.4216327975603 -7.10424258947381
189.920852522349 -37.3373842498515 5.49288625744277
-215.364326520838 20.8984431777664 -13.0838908609922
37.2680611556204 -12.2068069062219 22.8629415674021
-231.073706223807 2.06410774190971 9.49919425882197
169.556277379913 -20.7473757749075 -12.0385428347959
-170.998567356131 -15.6780184811291 -25.4065555934951
-205.643298578576 30.9006866682147 -0.566631795206297
-78.4888134650809 7.27887067893283 6.39918979567252
207.932870165388 1.9101306291425 18.2327084709424
-170.536660571621 2.34905807899071 15.2751371102675
160.383070952142 -12.0040429541336 -9.73157718603499
153.251093512858 24.6715199235466 0.717707157132231
-208.366945982598 -20.3890673297353 -32.0799807749523
-209.545503481058 39.9453436734764 22.3019131372555
20.6445426563491 2.26061809764773 21.6351191429927
197.426816888409 -1.11656818016971 -15.8822445577006
-77.3171526562455 5.27192363654346 2.27977005847745
210.275876598759 40.4498499117967 0.745074751453787
203.687935314793 -6.74939584857012 25.5253001250583
-204.431232913812 -21.4360574400371 -31.8051995756487
-59.1375192161295 -6.22502728738167 21.6082095698297
201.420786606104 9.98500044563727 -20.188027745472
187.155946515399 -7.81225461708223 -17.1388527522818
91.8301296169794 8.46866729507121 19.5164759781616
193.208734952314 -39.7851207356679 -9.71997429695186
173.66116027196 33.4171216057943 0.532944295038946
-75.5726240787198 7.24387908395845 7.10617608395371
197.453916907332 -23.7872683317738 29.1822836583781
10.8040468318714 7.77828382467211 10.3775319260019
154.599593955076 4.72109712592841 -8.95616031538264
-210.177492033725 47.1203043515571 11.2921695482398
166.835547971278 -25.2102988205111 -9.78701097763778
-186.430928003325 -27.9258815064199 2.72166244508506
-213.395911681359 47.8579737868386 16.6450207469474
58.4592727710148 -16.4781190889872 0.604483279972831
211.609681704579 2.16282561446205 14.6441437167831
-74.5850873943655 -19.0570204604547 17.6591848275141
-59.2565922954473 6.99327572117906 7.23295742986072
-220.787682022163 13.0542569816443 -9.78423318605262
-219.532959578818 30.3626019379036 -16.2330830087107
-219.464983901397 46.7384821880817 22.5709669655637
148.277714227208 -24.5399126549675 6.69723920346303
-154.93418059612 -2.24330698673532 13.6179789545491
-69.6635422825902 -2.64937636743236 -6.90030370710637
176.847861392571 13.2621268128407 21.8351730304131
-223.984980620888 -17.0325498368412 2.29749910027409
158.706847069383 9.31790256834009 21.7354142483651
-36.3797133403926 -21.577824784422 17.2858820595271
-182.200662438616 -20.8971732643161 5.82039277344484
219.660952228865 15.2889144048747 -28.3798479804102
221.893006222339 -28.5183833599115 6.66472106817941
-218.57150267196 -1.13110416891434 -6.57248715081782
175.29909493388 -10.297440263704 -12.6675258099102
-177.189241560979 -8.05132029912127 11.1019330567763
-151.799790309515 -5.54022885101428 -20.3754688660838
-203.104294106033 8.09258506931507 18.5643141175749
-87.1661404793955 -22.8256780831016 7.26113334808898
214.846536789877 -30.0140061032715 12.6436193311972
224.032536617459 -30.5248825476255 -1.5058467175192
-81.9822278964306 -7.8069721034348 -9.75113296995676
-164.20252830197 -25.193839384331 -10.8204462562795
178.015046668361 36.6035731537337 -18.7789799568674
-65.3120428673865 -22.7414907328221 6.60761870497342
-196.183079080929 4.66483147239117 -22.5008647939826
-179.509874283353 1.18695477745708 15.1183526365932
-217.046065485242 -22.4764918100254 -30.0299278339951
175.309262132203 -33.8382425302446 -1.29370628880891
-72.221665889502 -19.118034576959 17.8345884058875
216.728380044534 4.21811014927638 4.85947767866913
-203.410080202301 26.070518160941 17.0238807803432
164.117230694751 2.97451809082955 23.6814974165591
30.3542749242903 -20.7666108232095 7.02837580168344
113.156894748724 -8.84132453253283 -6.60371213240186
-246.368124131696 16.508927152722 -0.07557973575676
-149.460337442094 5.74050964281163 12.2646834663891
38.9519814359317 -9.09797401800051 -5.10828044844492
197.253206169067 9.44037564658834 -28.9606010164658
184.535471523968 23.1758258060415 -21.6266006674944
207.333455410603 41.3687923085775 0.921303340928168
-188.854822481115 -31.7274405294937 -23.7053563105111
-189.111548252504 -32.1276301011822 2.05198508831384
12.9293594809223 -22.1715738125981 10.6943134437436
-201.348380083441 -38.5503768058949 -13.3526548798418
-162.739223895973 -3.95729672240876 -23.4662830089251
212.748209278618 -12.4700925831313 -24.2344945988056
-34.3061255011317 7.22728098958274 12.5089003332529
163.253925059524 13.166142138226 -12.2573857881816
-54.9772601343355 -22.9353012133418 14.3748404108656
135.027252304078 1.68282387494621 -6.71987534554009
-104.543582361031 -18.8352078477126 13.045087063107
-164.995223452211 -3.38922115417576 -24.3568252799861
181.324752688855 37.9426685239525 2.10211032185864
196.070644807909 -42.1650151862668 -4.64180635314852
-223.572021023245 2.75751853116897 5.27742619571461
58.4720534851935 -20.7067686796013 14.149680842502
165.797205811548 -26.5057891727007 9.92136277253257
-222.00638941448 -4.99748560209869 -20.7358437627713
95.7211961293241 10.2078482033268 0.51334393842781
-161.68962579972 -19.4431044575642 6.10945538332646
84.7736843858155 -5.77000680644967 -6.5370674923995
213.330311643566 -33.5664338714644 7.89152583637291
-167.060483150659 -5.49700689258096 11.7976279358153
197.085396157175 8.03323773005147 -19.0582101010277
134.448363672326 3.1766307998357 22.5354319343307
63.5634816318993 4.02860547070911 21.5000980724138
219.880610029665 37.7334451415214 -0.584214012450371
-223.897097251405 -18.7988616951406 0.553205700193669
216.788397709627 4.03044169112572 0.0662607654146091
-243.586817260833 11.662069130011 1.1574769233951
-190.106068191892 -24.4306970876468 -29.2559086854369
173.979617457854 32.2823206372394 4.18845673696778
-204.776167602961 -31.3089907606447 -23.0713922454679
169.791659495434 16.3209040272488 -15.0184837170753
-76.3018447755154 -22.1765753664274 1.32604775276759
29.241580312635 -18.0161355195564 19.3556996978223
-201.068348839617 28.0210413781416 7.24017006266045
196.264011956032 36.3337227716288 9.60358474132072
-242.620830797104 13.6079294489583 -3.87441347303906
207.778494861475 4.62782047248514 18.221122496151
-178.292027647535 13.411009651161 -24.0914451447369
-65.6411162272309 -20.952730643345 16.6960214703658
-74.1936700130192 -0.0283001239536533 -4.3920809885018
30.2807997163726 -18.8303927451325 3.98151737334845
-177.725178946358 -30.3273884648661 -6.33024952868115
-55.5835429693683 -8.28129189179898 -8.15680820806483
188.154621979638 21.1833696450502 21.2596668361192
105.728709150822 4.63875827008912 -3.88152061519147
170.572474131085 -2.13722172779934 25.2765409136025
-155.783858668408 -9.74036736578667 11.1229471308729
172.332069314205 -13.2266268530889 26.8150909676152
216.269250270623 7.50239410258149 -8.11426397107641
147.417612501263 5.58010388310815 -7.86280626745951
-234.948883092219 27.2179746928043 -15.1382780578049
198.836610410198 7.07987004551629 -17.5872475685969
-218.440802302908 39.6122966837212 28.2361152146964
185.75269736575 3.58996698934748 23.0786364470295
160.116658985144 -7.8991063868062 -9.84191095744386
172.845438179429 7.53676802015358 -14.7754767268534
162.540722140121 -14.1154559498405 -9.97964637494977
115.145321192442 16.9881795205981 11.7519516185495
-114.154718391178 -9.78998566381397 16.4756600772872
68.4183474188344 -12.4532021116251 -3.78794552084548
222.325808119707 30.6549914840154 5.48785752813438
182.0069531583 -2.41827079145082 -14.178302401494
-231.805898950731 50.698240587192 0.827583840760143
75.0919610590554 -16.3109142043652 19.7891940663533
-8.05076272868126 -22.6480395541501 13.4945655319141
-207.884104492071 4.4917248423761 17.7751421829777
-192.883819629282 -11.0144334113178 13.2094907820201
-180.45079059714 12.9371312029823 9.54017064004831
-124.972343632419 8.5023936439511 4.38289537223842
-96.7170837500576 -23.2411170540189 0.703016136306642
-119.209820523264 -19.9916238097924 9.31492259052737
85.8574970040773 -13.492356709853 21.4717830194743
97.3165525267399 -21.7448875139445 7.78084209408379
-249.490754361472 21.3299091091304 8.78652763460817
73.4650652830382 0.729924088509324 22.7876765151388
40.6928710991702 -8.07113857309655 -6.4648614656852
-112.70472552799 -3.12365494725674 -11.4505052211407
159.11948427235 -19.3665591889746 19.8752083292821
175.180078708073 -18.3306545724747 -13.226876983879
154.666381880227 -5.1270931298543 -9.20524293473448
217.836157767137 -12.2942061576899 -18.5181422747528
-78.5237995497853 -20.0653839634512 16.1446812898573
-94.192059554341 -21.2095793977261 -6.21986912939514
160.518666520353 27.7307240251558 -5.34941345438062
-175.312050716613 -28.8608149547819 -12.5118380371003
-144.288906130051 -0.00553787504692162 14.7393303687412
158.367251843256 -22.721768948485 14.8881320795207
-199.057016021647 -30.3450277780581 -24.0225586734844
183.411857999685 1.50941605862019 24.2221254795562
-161.791150671966 21.4974307280653 -13.2786131569927
-87.2566624817708 6.61709894114453 3.79474720307997
99.0439159303003 -12.2803786338241 -6.92799319778533
-80.9717381521645 -21.76379897005 -1.04652916822905
218.67715594995 -23.2468108047302 14.2125431896233
-245.630315068916 25.9735963923411 22.2324528141018
223.109423900274 21.9442635087417 3.90889758309023
194.45632062141 35.0334964388478 -31.8593962862894
201.711140535361 -38.1928344301763 -20.1981493254325
117.436026220692 -16.4674618636523 18.9347739611633
201.739099768314 -7.79479721890319 26.9545741868962
-214.769063317474 6.9233479215111 -10.6980886880081
-58.0033025682263 4.72255462081605 2.94811430673263
-60.1640302299489 2.25403754697626 -0.701563809832793
189.666751180565 -26.5700863899472 -26.194885180758
-192.044795430229 3.71352134512035 -23.75380754066
-172.744742722661 -18.0764990674778 -25.7390867589672
181.076609907821 4.92910682207065 -15.3756709146049
211.097082040387 42.5943594510174 -4.42137698442477
193.446317117663 46.1913244035204 -6.28298301435695
135.56209426666 -19.3809511870128 -5.72255872639006
-229.505707695319 24.3926888807791 -16.5352377633037
-223.347368668907 23.231841821411 31.8549825099354
-116.493208800102 -14.3899325243824 14.3414808639244
211.235950474941 -10.6757861341987 -19.3714760939277
188.113036465445 -17.306287400192 29.9942300174277
-2.21958442793082 7.17390845436636 14.0504779782616
-228.92991236664 51.2417016813982 0.651771367551946
-207.525167927426 -5.61022551512037 -16.4157147803689
206.008784617019 -37.9271178956943 5.57241573829309
-249.207456433996 25.0391137737087 1.13603703814498
145.590644188714 -22.0654687576208 13.0172412071021
-242.948400509795 9.89567972417003 5.25099820205137
-229.158886823595 19.3421555008976 30.7458773061064
211.101560813243 -19.6993722949384 23.8260033562645
-136.942744798583 -16.4586497582399 10.052802537962
-116.774435197852 -20.874812151083 8.12114023210613
-5.92740486938832 -21.0514460170833 6.30873721174447
-16.0739674981173 0.29770344286443 21.5609938261369
-199.657690220118 -5.37516211568658 -34.0068891366011
215.550841764811 32.2285273190036 -35.8590909063305
196.615241612769 -7.24996980583153 -16.3718984923362
-128.955292322687 -21.2085446405163 5.74719248398701
139.276981112932 7.83689185670474 -6.53984874515122
-195.924195566131 -12.525812706585 13.2761803079149
-97.2342306254187 -21.6786534516939 -5.90083604319315
208.174773873261 -38.0685904882185 -9.16946542989113
-174.734698997668 6.78882135996059 -26.3894995425184
144.381351536615 -5.32370146733555 -8.11489683450854
23.4042886631897 -7.25654939051453 23.9134617927327
195.480195892715 -14.2442586461905 -22.6028981136966
183.538033901558 -3.05301604830459 -14.8114251586022
-152.95588637052 2.86409278498277 -18.8943785925934
51.073364726351 -6.42875062620725 -6.67556918742587
-206.82217934018 38.6445482578878 19.9829413620065
31.0059030715529 -16.3852584394485 1.71572083605193
-209.238069670322 7.70272106803693 -12.7380451945054
-246.523785738883 32.3368460470623 19.887704537379
216.845484940312 15.4358831847608 12.1318818130031
69.8348170459474 8.24065598611186 19.171729646718
-101.792065318176 -13.6737225134556 -13.4117772321392
14.9774422589283 -18.9931907544335 4.43062685441683
209.323339593848 -2.14533168759403 -6.61801765307874
-249.021033057329 32.6411188420579 13.5635794744034
-110.323431130071 -18.1722475043245 12.693446290388
-193.384003015152 9.75165654993019 -15.8030007624338
-241.943811915937 28.9146479666032 -10.5213512861494
176.984050716711 21.5139135794193 -17.8252126377289
215.626075664344 10.1566827886562 11.1407588275185
129.867975738516 -5.13100953699266 23.5705876043418
-194.197526838559 4.97171873675526 -23.8055447501664
-221.632507469167 41.7502313427742 -12.1496246492393
-29.7922979829883 -23.2114603573397 10.6598980762424
-6.90280333736693 7.2312221236517 8.94420846786191
183.314320863808 25.1718184181997 -21.4915128153882
81.4727196553859 9.99804053176615 3.04952622065092
172.216005147251 24.0004185283391 -16.9567897518563
-117.995243632636 1.90389076207301 -8.81775362672751
221.085888518821 -13.8434603731535 -0.334373584979985
20.2123356381033 -5.94198214154524 23.7767136442631
118.181634817093 -9.77513558808318 22.5996168080629
-73.6930018856167 -9.26972036681021 20.646015223882
-237.103188852076 28.6255124482565 29.7886761665766
187.024780787229 39.42197291824 5.45807799562715
-110.606059516667 -21.7269826316431 7.45473238022159
-51.9777272534149 -1.80793371326108 20.8627064666625
-226.352081849983 -23.987419005399 -20.8648200044982
-191.013081246088 -22.7528959378392 5.3069173101687
204.855591342676 1.16584624011747 -9.4464871760473
-135.498050587579 -4.32597303388129 -15.6750880009478
-192.01075411359 6.21218489837068 -26.2124184854374
-196.045398386515 -33.1151339259423 -1.45021857867497
73.896427264776 5.37462524335266 20.955409210849
203.232172310424 18.190678934304 24.1703526917218
-249.147701586976 28.8690718319897 0.406401823772713
114.704564507425 11.0558632642859 -2.17266797290585
-175.872926770303 0.65930787256346 -28.0734504250563
162.839626310632 -3.76682491873959 24.8663274518486
194.649058486553 44.7940348987512 -16.5622653181997
225.971575775531 32.2271663715169 -21.283516099368
-159.408846355241 12.5691585536867 -20.9535555021228
-187.989647118753 -6.79633654013825 13.1527574136229
-194.260591778913 -24.5131196462019 -29.4666080333356
226.885458138896 30.9168733094401 -7.01339129770122
-175.827296680239 -29.7181273116744 -7.59782393573101
-70.6654542538762 -9.87922324426702 -9.48528124256297
203.560410838648 15.0214225946129 23.3742488785494
-229.252625196953 -10.4803515493488 -23.0427567248128
-206.440028671356 -37.0310938122954 -15.9153914973705
211.419491708558 -7.72613415825406 -9.27320927964926
-228.391985323963 38.2003270977507 -14.374895991622
-201.417464812528 -25.529473840467 -29.0316017796165
3.13642803182403 -4.37106760358474 23.693718671232
80.9909290994373 5.79921959477215 20.6935764077836
-205.706004821034 -25.1240468533083 -29.6581105422281
-240.945077329541 46.9611333672308 2.69207133682875
-193.031208202551 -0.0959173428398465 14.3059104954607
-180.404798905553 16.7842377390629 -17.9817868822848
221.350564862836 17.8124618538019 -27.1290502610686
182.258076693488 -9.78908415228072 28.1490953569626
189.363279126821 21.1306050284484 -30.5291100246525
184.838828140391 2.51966446648029 -15.3680702627758
-146.027701565087 10.8251597940168 0.518133999882808
18.1427355670037 -20.1631491086101 17.4979353667101
-101.227248578229 -8.49831798372447 -11.8076646041313
220.443510058524 10.4098786408795 2.56079380747659
192.926907855379 38.7881251476363 -26.4066817466619
-208.551012530413 26.1833283769308 -8.23320820584022
164.012507656842 -26.2108238152868 9.75058477273541
205.387443638046 27.7228108175864 17.5686524922085
-67.8355826148893 -22.6497206261266 5.24055559938195
-113.028792518801 -21.3037665354335 -8.91813912590048
-24.8966436321406 5.31327375524336 4.4986546298675
-239.100510707854 30.4932314391199 28.3133772538618
177.940319660947 30.7969392285428 9.34780331355913
42.027244607204 2.75548430036975 -1.78623759447672
-194.822736140481 -38.6489486265453 -13.0063004127869
-24.9046913111508 -22.3260525543796 16.0403309097059
-151.718979764475 11.6395004835748 -9.39079111329579
-109.751117507786 -18.9334989568894 -10.9914345277221
-224.169209552253 4.84742796836227 0.588624706970025
-50.6008616994703 -13.7136071143389 -4.77745089319658
5.20031547299378 3.62571566820909 0.131494982895823
-137.694317684984 -16.8204478027603 -17.3533619689795
-114.341259165897 2.55461378418947 -7.1670733615536
194.921139263222 6.88793121057927 -18.7600543571167
158.249839158581 25.3543459980626 5.80183269970342
24.4858835648309 0.169763183839213 -4.98555419011494
162.753461328099 29.008428368398 -7.14278449528766
177.76276361484 -32.346509385883 4.30133783421756
-135.839622683629 -11.5590414074942 13.2564895958668
-188.041548980798 13.712915942047 -13.563247290435
196.4290165578 36.0729281891443 -35.6696687853705
116.821762870151 5.42293964232817 -4.91468819935609
66.6072807277826 11.3806608913665 11.7522397163967
-137.37372846462 8.66440675381874 6.46020007310282
106.612496038075 2.0734461619597 -4.86275304867615
119.35906452981 3.22754283076424 22.1839777562797
-223.300768533592 -9.00202090013598 -29.6130399012072
66.4102301004583 -14.8614635380422 -1.49180176254021
184.135534239405 -24.5863075972004 25.8618483250097
40.3349802603443 9.19551703554688 14.055536578185
92.3182961375856 -10.299814534348 -6.97418838535646
209.752001688553 8.60256808570186 17.9188598049358
64.953045119074 -11.8820163929988 22.6518436870592
-216.082041380196 -3.74254115976955 -29.7080984302892
-75.7547983158704 6.33642371108516 12.6976080848488
-220.654322507248 -0.56717322023772 15.5127812155375
192.478124920586 24.3845800264673 -34.0306551655991
213.373306251321 32.8002203021478 -37.1029295924726
-195.142753664875 -14.6437363238035 11.0763351155571
-200.644503244121 -35.2099141420072 -18.9217933715681
207.580132094314 -0.985091792572615 -7.96325325100354
220.312303514637 21.2358517390299 7.89879088131673
156.082949880923 -27.1713560770115 -0.835346869795766
159.542554026557 -9.94778626959261 24.9211679577058
176.116014702895 -0.806193466972645 -13.0338760403802
214.703614210333 9.35479908798416 -10.8570434673559
-15.1564895174848 -18.9464377535702 3.37470940682074
-223.668431187021 10.0622832545062 25.688484537286
223.232486092629 24.9087357773497 3.8871218142506
-208.451234423834 45.2010347307757 4.37650663914905
-245.007482582562 14.5258299701758 16.3113194565354
-21.6100203246873 4.84907053087066 17.2989050754296
168.37130365474 -29.4941304202165 -7.96633080357969
-21.4823295352445 2.50559094318772 -0.52540928277086
221.554944932135 -37.6612965741503 -15.005871560639
-48.3464983475097 7.38529401109192 9.83286245955473
-208.712156891337 38.7899553055253 -4.13404447022928
-157.356152394542 -5.30014268068875 12.5300792740345
-232.926968868111 46.8208333169799 14.1153764116535
126.696774484769 5.53098537986248 21.589793923954
-225.128269895953 6.27986725113675 0.172738934440164
149.740526145616 -25.3132538201247 4.6531745381052
-146.579209456012 0.0458492271332179 14.7037921625628
-116.387309835259 -0.831492583210296 -10.8670320810198
148.29134137344 13.9252145397539 18.7175300022238
-224.233022172246 34.7616601355034 -15.9440409456698
198.446065985123 -21.4440016719527 30.5580712707437
173.836392261472 -28.7554913538977 9.44538846139833
206.56950660977 -14.772768457333 -27.2872954973723
182.61217774729 42.0843512271928 -14.8164618507605
-218.245973255228 1.83305974287874 18.7966910766157
160.838940308944 13.4145014433579 -11.09047319757
-130.714078825847 4.99555370965777 12.1459747171125
-196.974947694699 -23.7413132994071 5.47100571020416
-208.254146888199 -11.9021271796171 -33.8930187809072
-208.299351646767 35.4787498302045 23.7999804687928
-219.811847738467 41.4636585451409 27.5262379153405
205.122122954909 -39.3733448965811 -16.7634678258365
178.257140801308 -21.8110395126622 25.2827225336276
108.996793596076 3.94396731441846 -4.52181830985219
-127.111250725914 -22.5924807417265 -7.05670812698616
-207.920805035711 44.5209047224303 12.3176993444561
206.314219559648 43.5766345132596 -13.6623262906687
-144.506536086202 -5.61998373741248 13.9748709635401
94.3250391891065 0.637956831776579 23.2238372236955
197.162917708408 -35.1687952087933 11.4499702016791
164.286928547453 9.18648250964948 -11.7367613124615
85.558310399628 12.616000061793 7.08405964192517
-190.013303397572 -29.7603915166865 -25.6697219164961
-171.52320398995 9.30808053791937 11.3833059985904
165.779229983249 -4.29115114859295 -10.8771695903023
-164.853809850898 -23.7032467935247 2.03812978035404
173.066800358399 -2.83030593867162 -12.2154461387865
-215.31898722327 -20.3704693799328 11.4078984404613
117.427727582342 16.6181155724118 2.89305064227635
58.1945047423562 -8.35536885326269 23.6007879272208
184.66708948715 18.2560730679311 -19.6683666327253
186.69364604907 14.7117789548057 22.3435932737022
3.65275671188254 3.71356798420057 20.2017533628764
101.023523409376 0.558933355666848 22.9937590637477
-225.513628369338 37.1069760210388 -15.0887092502799
54.1691574665738 -18.472705752014 18.5388344406147
88.872948968837 2.84624536419403 22.2958611477132
187.410861272363 30.694207726492 -24.5321304810042
-77.4521800682243 6.46943834782554 4.59883617972201
112.84283407074 16.0212456879348 3.70050947118043
-100.154229056329 5.49237751256583 -0.307249476882868
35.9549866979261 -3.11517216030329 23.4522493929964
194.678513666472 -34.9889066501613 -25.8531306644281
9.95060758882581 -21.9518185851906 9.44582504026321
-209.931120181952 -17.7271048503463 -32.8643784478709
-163.290031440214 -7.618746171305 -23.8534312288631
-207.788257991442 11.921561527654 -12.1304067449006
-207.886070766945 -22.1957584534328 10.0370296223352
-58.1582890225149 0.583430411425949 -2.91412084711762
-243.08200106562 31.389132392302 24.654381635454
-212.805877499637 20.4865210021371 -12.1585698505405
180.645085356326 -3.62495073251607 -13.7864194861722
-240.065296202361 8.10218359670514 1.23038863128086
30.4467666608723 -12.5434672432422 -1.46968042625003
-143.251947405415 8.81364656060243 7.24115220341008
37.3278403814989 -0.638814287234541 23.0055503725789
-135.536649395801 7.61975534131332 -6.97201383790857
218.987004896515 22.3356265299079 10.5324186442449
-210.633638310554 -6.66465935798136 -13.9997987024269
16.105818445485 -22.1398463578842 11.1969577189518
-62.9306104254386 -9.14590726493605 -8.50837836777737
-8.22090207138269 -6.70155943527261 -6.65999830976632
-175.964722117673 -4.74771242202161 13.271137594359
172.450572761354 -8.01087305879986 26.6215704744768
-197.524292016919 7.96476265096166 -15.266837864748
160.36082024787 27.0773675493982 -10.9517178173946
94.0412386092238 -3.88797062638804 -5.79801727250806
-81.438365464915 7.08832853747508 5.77428025239054
207.321555361347 10.3269915578766 -18.1502191265569
168.271642455472 31.4807834692511 -13.6444940238934
-155.041999132048 -0.0960592234468393 -20.10865196431
-9.28863688020887 -19.1202904525165 19.7757527795241
148.228175482017 11.6036389444338 19.9933190602861
-133.818089547294 -17.2963825134703 9.68321484140348
-212.044196278972 -6.92808007023367 -22.8583196600165
-164.887058456315 10.6632108074156 -24.1403280480878
-110.078428652244 -23.0979774354005 0.886853477537342
-2.84592288360104 1.13884382589288 -3.11087020821438
198.801720739966 -13.0197917202677 -21.6271069144355
65.7118183290249 7.24781515839976 1.80465747512805
208.37108717742 4.13539160017861 -9.01588675507508
-2.41411566376421 -3.82878628456087 -6.78585205141082
-31.9013715799696 -13.3864829487282 -2.25458321151106
199.639279033858 -39.8016960857396 3.26072022176437
210.871981888662 18.6929338032624 21.1148621420966
-60.1538106057044 2.77239351552016 18.0364421652092
189.868556000536 18.4759062979025 -30.508306902226
-183.498174649355 8.81077786307135 -26.2630631925785
187.10447113662 20.1133985333678 -23.5575731294698
-124.680461641928 4.97880774315867 -7.33081646809297
-143.127298555786 -19.619383707864 -15.967798400606
-196.921801890506 18.4361626649248 -8.2385383822576
213.802273462229 32.6275977397859 10.9625117746368
122.741318343013 -12.4214077310982 -6.71221064998782
197.225640370893 -41.2953395516738 -11.1531506878221
56.754589844643 -7.1198772673305 -6.71668044502947
-204.020178507923 -15.0390960771844 14.9348519968101
225.79616016337 18.1519746522947 -6.70753188890562
174.175955832554 -21.206759296604 23.5550851528083
183.202349898989 -15.9103299710548 -16.0865569962256
5.80974552111566 -22.3746615284388 11.5548675153809
-221.296735276285 -2.77173239016624 9.77568477250195
97.5472421061613 1.21313371378702 -4.45921480344009
140.057885675023 -22.4237519634008 11.1155224020265
-49.9720825221698 1.78733110627075 -1.04886720195542
-223.556722403999 -28.3467143030626 -2.9751804364677
-143.052985010579 1.78826050707056 -15.3185322147444
94.6791494203697 14.2248770358486 13.389289319917
7.19684171630361 -18.8680818633437 19.4497354473019
7.87019237695278 2.71633651223803 -1.37792931188308
-229.85461539201 49.3026124330388 11.3244502563867
207.130795614023 32.8332899540372 -38.8385282777401
-104.720487151289 -20.906723222945 -8.30033542872413
-180.573118555707 13.1273940825452 -23.4887704723089
-203.791637171538 30.1439338170512 1.67447040229859
183.690943415482 43.0165185751705 -11.6912867364969
191.247081734684 38.1128668657146 8.63415297839618
-135.786044526839 -23.1536222939653 -1.7414813040678
183.081063585618 42.1506666404812 -6.90223664511098
127.192055625675 19.5432764842266 6.63884932481326
182.464777977961 41.0030710921241 -16.5813592384544
-73.9403964667379 -1.99884924652098 -6.53053397947591
-39.9556005408297 -18.3950590678914 20.1559564138022
83.0270141358945 -3.37521445282727 23.9820142936348
-180.291929220664 20.901355302097 -6.97249227129238
170.88550440264 23.9155508469324 14.1169220208759
-215.130249242126 25.7551896696848 -13.9973564096298
-160.679302413134 -2.48383374629773 -22.5501095816793
213.76614849203 -8.9176404974094 17.5021924553925
-124.532806196876 -17.7355431652801 -13.743380210428
178.476237624182 38.2872546770741 -8.79858961284925
112.407465176655 -4.3522808080014 -6.26304109186339
172.984125581537 36.1029991307711 -14.3366420697255
124.748268417217 -18.6204447201814 -5.70794317462196
171.914117615953 17.6254551045548 -15.5326612488009
-219.990647231128 51.3047453632453 14.5854120510803
-114.512176309535 5.14646790358438 -3.6618200214989
14.5336662242183 -18.0105748765773 19.9874563936476
-138.390729654956 -23.2126717755398 -5.70227741515742
21.6008083043769 2.8780422649513 -1.2160404182029
-176.429541835603 21.5339006441587 -20.6729542426652
3.74447850472197 0.634873080209662 -4.07062799624621
91.8004260275467 3.19819337779846 -3.33414571911452
95.2454859119114 8.72583518464788 -0.69638732026322
-225.714210477782 17.9684845715722 -12.3178149362897
-5.88637850157594 1.35248388388803 21.4551607461724
199.842157013949 -11.3828150436393 29.0412786436727
212.017185493882 25.968814386917 17.7019000072625
-185.50133222117 20.3917806097714 2.31088191813068
-229.531952453358 11.9284446175372 -4.31759682451216
7.90072082056987 -4.79439863272107 23.8684082466078
-105.002442302307 7.66792541926975 3.87573523884115
-199.813856226435 8.49639596698895 -14.3596475353187
-177.641273908997 -6.5770901136613 -28.9057972669849
224.151405485313 -32.5448583151285 -9.7307612106551
-224.632705290179 -29.2321043546986 -15.9367497380733
-205.540496182382 40.0761368086243 11.5699382429549
176.976288965832 -10.0850161219623 -13.107372094455
6.94295414233603 6.43072968687144 5.87437819145857
46.2872988810081 -15.2191877639462 0.16132434776476
207.441630664118 42.9735015308973 -1.44378065815251
25.9038683222992 1.7179641324932 -3.14552722352312
69.4785755544105 -9.64314489558648 23.3049169955056
-151.184078678353 -8.04697837621375 -20.802621244154
222.790669038692 12.8077405815988 -13.3962007537959
-78.307596049102 3.4355479980478 -0.427362703525257
-115.757145413604 -18.4802481644216 11.6221256028979
-209.434922188917 -26.9307950098676 3.22340824870433
-237.548716099252 7.24125511694332 16.4181443066264
180.218321895983 -30.548073227218 11.5028508375368
0.184097895357152 7.33838281645876 13.7182739615335
-85.7893471195117 -8.98100861458204 -10.5164451965191
-25.2125498449836 -21.0052302895855 5.32692946176746
185.978117635635 -38.5222388442271 -9.83036525902845
179.087690823325 39.3612586000633 -11.4925721560042
-115.508217810562 -16.3532686734548 13.3093838964081
141.603907379201 15.2058279976827 17.1997463371539
-189.710525139546 -14.2034474550065 10.0346056377545
146.740268129774 5.71259253116005 22.2757061680183
64.4296530770572 10.2343601613306 7.31450050533481
-180.826501137445 14.0851244268906 -21.4770940806323
-185.356848344161 9.18930506102186 -25.3797928061472
-194.859793488705 7.79474068751769 15.7553230094451
215.617626073815 -12.4077978252866 -21.8562628202658
27.1030099405288 7.5670700647256 16.8993151787492
-170.520522170185 -1.89944674915297 13.8358323278208
-94.9680344505098 -1.84336922087416 18.4864785815809
-156.636725840091 7.83523562682458 10.9797110841063
-213.832476611565 28.9572420739762 29.6005514822082
199.005592991656 11.4394604005121 -23.5087968879723
200.411997106995 10.7235187935644 22.4699357277068
199.286284132289 -34.1678455569504 12.92445502004
-241.815164395258 19.6384574907893 24.7330796361475
-160.299510099952 13.2940901695009 -0.828168646859643
-169.718445826291 -13.5445642747356 -25.3137614901606
-187.785587107127 15.4840070252345 -11.741937068334
182.793306748685 -0.525703235357208 -14.5416670806037
190.794731089638 -15.2038633750064 -22.1793067159964
-42.2442231908175 6.44138705220882 6.75585965501617
-166.995855971157 -26.5577573659761 -5.35592808411554
-217.353473939197 -0.59901477761318 -8.71353558471383
-217.042778713359 -32.8326663609118 -7.76354786573489
199.525145022237 -32.2104156838272 15.6800389866979
191.78238561299 -38.2139153828844 -10.9041587564806
-135.312627886979 -9.21693374006013 13.9082899503291
126.646029912683 -19.6402275111939 15.7372431384633
-219.568253832102 -21.1622047994757 -30.127296609866
-154.606703970551 1.61766314724896 13.6776743303268
166.984822818547 27.9081927973999 6.6326288653319
-42.8955129297737 -4.93508606904056 22.3379367593846
202.426670619553 -34.2058734899275 -28.8240194785021
-202.004570922643 10.5709999209463 18.530349142926
-155.204206126365 1.58362995297108 -19.887650374141
-148.282404484521 10.7546243273933 -5.84342617973854
-240.292302828886 31.0119574466366 -11.6799788587741
-229.972586437308 51.6922834314613 3.84301784838181
-22.4116913411201 -21.545499173982 6.37086122261164
196.410701648 22.619800175087 21.2274804947454
217.822421578336 -5.91594039750804 3.52365450640775
81.4811048276292 8.62867070300845 19.0358919578342
-226.860206450118 51.720074273675 2.03453636451071
-107.948508008023 -22.5245449796543 5.99619700578593
221.050832674633 -13.8389725973272 -7.59067834768151
-209.669172033078 -35.7782396115962 -13.8899775563835
181.598043702198 -15.9940158864485 -15.3035114713048
-104.314067601051 -0.0959995242859374 -7.87222833684564
210.011073218141 -24.3554364381635 23.9218717521785
95.7015798483421 8.61921243415271 19.5980092811525
131.316225441189 4.146343161069 -6.13174709109462
137.913565615543 16.2274893182742 15.9864222530058
-222.432963128596 -2.27875354893787 -28.0162729629318
-77.2385767813973 0.375301089631624 -4.12073067080873
-226.277590992905 3.83329347307395 3.71992797094868
15.2361399262912 4.56212854058946 19.8142143919264
-6.71778858974579 5.71496789304516 4.82777706623578
-186.283284746577 -33.6081907984163 -17.2819785425556
194.228776241459 25.4440328016526 -35.2069042720183
175.92604890933 13.4553079749308 -14.8675526223471
220.778329819058 -13.8517240890504 -10.5713414686602
-158.622249062486 0.905842640818877 -21.3091769665473
52.5199960921216 -21.4321082345266 9.63990106297583
191.567027152912 26.5160382135499 -33.4159623617431
-194.547253700536 10.4566964878965 15.6996273331387
-73.9523808065969 1.4537336464915 -2.47737340457333
-221.106632323736 48.0945768467289 21.3603388676026
-171.930757754068 25.1630665516 -15.9424564956685
-20.7553948930575 0.630242890571906 -3.08677717877919
178.433764441513 33.7573999885022 -19.4294679677057
183.200943409579 36.5166526250247 -21.5594546073031
-227.959678192579 50.7908754826869 12.0441513786817
-206.326414040303 43.2672842857701 11.1252335199367
-22.7424257863244 -20.4567251752928 18.8513756996458
-211.960049916897 -5.92226315759777 -11.6001691868603
210.669982592095 2.83868761141887 -7.54985489134803
46.0852266891751 -0.335729709102684 -4.70614988836691
-214.382219175835 31.3745954506257 29.6145541760527
-59.4948100105034 -20.9616489606271 2.25477045434876
86.7142111675687 2.37333202212706 -3.5976733365585
-214.685047863324 -15.4970662545125 12.3345720279173
172.753588206545 -18.6926502225853 25.1733120671864
-27.2925583362019 -5.12656008913793 23.1218418364911
139.435652542845 13.4098060235014 -5.87052053279314
199.840858446391 10.5062664722133 -21.3457089306324
-67.7878005866713 -23.1714815612319 8.11823679679019
10.2738031330143 -7.74685820833746 23.8933579527168
224.723416862556 30.3138102380127 -24.410124185291
200.260514986457 34.9904589750443 -37.5516527692355
171.164450690305 -24.2435232059242 17.4258695880457
-181.069962564198 -25.8700399283531 2.71703423827739
-118.747754988311 -5.58570895515828 16.4611073608676
-176.661373898373 -27.4470210777993 0.0830923594385772
184.817926931157 31.0404535536101 -23.6276442831676
148.622970422042 -19.5928116232422 17.5678540702926
-12.2623970552212 4.96746208429671 3.44657379761225
167.354540728672 15.8123662830426 19.83885798596
-204.853518904087 24.4317515481616 19.9617426427589
204.171560152073 -24.2655164376747 -30.6192887477333
211.354898998328 7.56110165679346 16.0804721977216
84.0984811905731 -3.69050285296611 -5.5845341350481
46.6902729908222 4.78680233190927 0.435699037770586
-44.9527621590775 -23.3070944987907 8.84617049536172
42.9560708440222 9.34622609193335 13.6412107738144
-85.1160563285556 -18.9002208861702 -7.32705881411498
-168.508621465355 -14.3906057192754 8.32794633833361
-221.828580556911 -31.7280820040734 -7.66848608044117
-102.70939684454 -23.062083351189 -2.00527998373404
182.981691512138 30.0013771353554 13.0937748042107
207.252762906839 36.1772080005397 -38.1111764475641
-147.54122404207 3.91715182720141 13.3515996263779
178.283265626279 24.1714741452402 16.5084748436784
88.1470871188306 -12.6233096300919 21.9749588794574
94.6750958956114 4.99592457417706 -2.72065121139098
-20.2407619495487 -22.3684889705432 8.47602352900091
-70.0453436274813 6.85165282496697 6.0651695304084
184.278377433771 42.5604971536684 -4.87408853872877
211.676876434163 8.61656398117314 -11.2305147150566
23.5154961109231 -19.836326449159 5.25572575027644
181.637737224589 -36.7729334146643 -1.14827153790533
-209.133488095371 23.3216903724811 -9.8605782252474
-43.7153569216278 0.639367466373981 -2.71153494655396
-165.146651992303 12.3414606662722 3.47032290617746
97.5213182625497 -18.1899100465006 -1.39622031958158
-65.4134019429752 -20.8638109540885 0.855037392848825
-168.250497951384 2.80491021408844 -25.5773512292059
219.516391567237 17.6897775978927 -30.0387146530638
-80.8219045595935 -5.46073459923297 20.0264089277581
140.034464690166 18.1324796136472 -3.66258926878778
-94.8599391022457 -13.8374573667056 17.6765670008433
185.630863217377 -21.1090925532207 -20.5711407632515
-234.348609001516 6.812660133113 1.05765956333043
-117.946991254365 5.51516091749305 -3.91995035982847
187.087303971086 5.40160826676341 21.8518143186967
93.0391853762467 13.1373905985743 5.45584192716553
-182.962072429606 11.8719864743482 -23.2067914578177
-130.79538670524 -8.12469741623148 14.5736333746676
-235.03402297 4.16607943069668 10.7116302939991
-214.55814073639 -2.60407785305774 -27.9093998122447
-192.01809611537 -17.8672825613326 -32.4324246428374
-221.906286336803 28.571487626494 -16.8628528537699
177.429257614733 -31.6176918405832 -9.7020878672898
-77.1228003043708 -11.5010271161964 -10.0074217291147
-153.442589566837 13.2300893166821 -13.5394701767164
196.875819212427 39.642375745728 -27.1088060655079
71.4016839351507 -7.24312259842355 23.8218657002996
-87.0054335016184 -20.9019873490166 -5.13020523738867
111.491291276532 -5.21519364005588 23.3436258789729
-238.262186744647 48.7470353600841 2.61419607716716
-237.982411445915 6.39800980266812 13.7824261165293
-242.171368894496 22.7199327730356 25.4976399874254
-212.315779528029 -7.66119151941921 -13.438471642834
222.218110287104 24.1942166717989 -27.872562360312
-61.3929620728839 -15.4286106464497 20.4925915692175
122.353242258627 -22.3730008401385 7.9710898684737
108.472637006102 10.8345160204944 -1.24795323429866
142.713480713279 1.12763819229642 23.3052043793448
-207.791508876066 28.7128589275418 23.2966081880809
-198.608197397615 -20.4926119032332 7.5913459504339
-95.6237183788234 -21.8982739708775 9.92421577272052
-77.8931184088004 -22.8085932315621 3.44856527256309
169.945207250918 4.57651979468382 23.580480832458
98.744004582988 -6.39049175699699 23.5351597649081
170.407408729498 31.8259954687625 -1.55304011626857
-187.903166765891 -12.9183571973867 10.4016184274105
