-161.21018712584 2.88074984910547 24.4521153733602
-176.840567617733 34.454518321286 6.38284193561262
-175.550223766053 33.1106629349287 14.1668469902798
-26.1969547898347 4.78120887709711 -23.8956878738855
-211.344368974974 -33.2840754798688 14.4562184325311
-187.408349398206 28.8108833911413 -0.233887642550994
-203.502310047341 13.0110747564019 16.5712380992247
110.970450930961 -6.80666117141428 -1.41515634326782
-184.635995926403 12.2645740644055 -8.21413269540337
-172.070886368336 5.09718750855399 -7.38633742846978
-114.798043527672 26.617932750049 3.27927973643563
60.5499443430093 4.27220716999575 0.67013379320205
-180.369538052909 -39.8762638109929 -4.38895604037194
-52.7909476917214 24.9716447405309 -10.5840443872591
-180.868268346103 -27.1027432765785 -2.49210458447698
215.097791482917 -19.1923133326054 -3.75939116474044
-186.864019857638 8.08509991949703 -9.80178749150098
110.530900305675 16.2890504625168 -2.46598301876317
90.1667525113973 15.5680498687861 -3.47050052039988
-120.556113552278 26.7710894706148 1.94714162870649
-187.667543839478 -9.04834193226032 -9.9129279823546
-40.3117389661373 12.9098861881371 -23.1298787153394
-46.6082718278647 6.10360737505194 0.474690886767291
6.798149444336 -0.130197443383154 -5.36403364953844
-119.681661954633 17.4340631742161 13.4484499512201
-169.205639148588 33.2508806714966 13.8789668951932
-66.5094278444068 13.0827330649992 3.86575643260688
50.258350201946 -7.22853842111845 -14.7392303680728
114.053361568905 4.49610871673703 2.23864355098379
194.45969672655 14.357154381722 -24.6651916627264
187.231234217864 -41.2936561059526 10.529610030141
-190.884786855605 -20.421182904585 -17.9226266395984
-185.807875840449 32.0788955647439 11.1299205883742
158.131854204647 -4.64100017221755 3.81046368549827
-214.315964490373 -18.8750526999244 -13.1512027974833
-215.718621777767 -34.9549404681375 10.7668302695568
-37.3640374256498 -1.46256020818231 -8.2502384735075
196.526826642086 23.7040444970482 -13.4433687512261
-118.343962266609 -1.66846940784096 1.22598526444782
-219.80771997976 -38.4272258416143 -8.35187769997328
205.116404505772 14.8524112672246 28.6635016736346
-185.339549882404 -7.74522668216448 13.173644945013
147.130367343266 -19.0676705049718 -11.768267104104
-208.555905602036 -21.1289533185972 13.0402451838044
-204.853485696799 14.0457418805015 18.432589033408
-84.922288594764 21.1424591816749 -13.3199130495472
185.606436736558 20.183770485176 -19.7773479750434
208.361334686378 -3.82251589792538 -8.30711128642578
181.295117780262 27.2118039265774 -1.60750950158425
214.801307749857 -21.0718596957738 -7.09218692496818
-190.567949150509 -27.3788780991969 10.9716334787848
-144.025264324077 16.4678461762355 -7.23314106389577
-185.285183165668 -46.9740950631007 -4.54344270338301
-139.844120510036 -3.84707313751973 16.9003053155521
-212.414327450044 -31.6297421404101 -20.2793505513403
73.4532993841504 9.94695897697469 -22.4900809090905
182.473939903112 20.4941198995973 -18.3353343134948
88.4426032906939 5.53437474109295 0.846409182061055
-124.633329246695 14.0912841360635 -10.7929760583409
-105.657479665378 1.58106568660246 3.72735243921136
51.3929546096799 16.4549600341572 -18.6210388377793
186.759563765372 31.9727702180457 7.89953079250478
178.896471130862 30.0474705913325 8.28581803634831
174.802602249959 21.4836645158916 -11.8807888379285
-117.184385816738 24.3233221283393 -4.87326438644998
168.301125034146 10.393684497226 10.5258124882862
-66.2696140531052 15.2941265623805 4.90403853199194
5.97490052792168 9.86745177031205 0.829080714296656
-200.389912274997 -50.2838364635289 -1.45582169471093
209.507635118301 -7.96312258300036 7.00845681736131
202.590681462566 -38.5417791447332 17.6181451197787
-1.11382285933252 4.86854446511901 -24.7229101634855
207.738043374841 24.1395749869103 -3.3701694282893
-200.140035927405 21.8806532660394 6.94017698411395
-15.7254287894971 -3.06959487620886 -17.1872395326596
208.899114249491 -33.6929773475215 1.14368046092825
102.526660612774 10.5575754268701 -21.2583843346293
-154.324619185529 11.9220044558166 22.9306148725636
118.951539137691 -9.19329660472266 -20.4323253207942
198.967602483704 30.5399115433991 5.53756253446351
-92.4872304043761 -1.46147184440607 -6.64856882762418
-149.02206871007 -3.21297373871825 -5.61925428801899
-189.333685060408 -10.8502888790866 -10.6668976937903
203.077362477075 6.54097791569004 -16.557178853449
189.435435541987 -21.500547320395 32.4663707978566
-217.503496480806 -20.9110462518599 -7.19468070923551
212.058408738846 15.2379148300886 14.9552436647261
-146.097457278817 -4.65529704291881 5.93534721992118
176.848886311392 0.869352650417589 10.2889379879891
205.488560697831 2.19214190671867 7.33964252174742
-198.676958347711 9.5662656465438 11.4824351737091
179.458044011777 0.393182308261814 -20.8232533184263
190.929750802044 7.86707101624204 27.7993135730882
141.933443320457 -2.73002085525337 -22.8321612695699
-137.65454792467 -2.75095387550222 5.06503437129397
211.85363365474 -34.580496844646 8.5916868017663
-25.1335780679618 23.2788423915509 -10.5772315408207
212.066847494086 13.955754462749 -7.6178306006028
171.349747572372 4.0023996313065 -21.8057247758106
87.2096915407333 7.92177259944912 -23.044535587671
207.075204670983 12.235297970186 24.4681518429755
165.137268386078 -27.0672694437269 -1.17527107730854
181.90357479441 30.41054216997 4.7390230004737
165.55715946521 -19.4311702987619 -14.5061136881849
-44.9476251052383 -0.731173083134138 -16.7128986214569
-200.328052112745 8.42217837617276 5.84802814149813
-55.2833319702725 3.07910058949228 -19.9427820621606
-182.032691908882 -23.7926021618706 -7.99460431444891
-202.914448376644 13.9811945273674 24.6893253284863
-22.6368198096443 0.690584069782939 -5.14622221758526
-123.53773377942 0.906879505151647 -9.29949316676342
-198.781965877915 2.22962670853574 -0.959612982693107
192.038785176598 -17.6776560139809 -21.6547869479608
-12.4481568990925 5.50540809155186 -24.6748705627942
97.046313184819 15.8132962253332 -15.2264330998072
-164.888805767852 29.4481891657713 1.56083379628329
187.67063028078 30.0379973604059 2.40960737987949
-188.063115406809 -48.592616078709 2.61127567737356
172.739025562596 2.44519016805672 8.89725216096567
-183.882444811007 -26.6980333057832 5.48567549655341
-108.781803704667 -0.0837363481231866 -9.34605564041801
-113.355284125333 4.07848910330955 7.39437977126759
-181.120942999352 -34.7668300993264 -2.98240142142499
-73.9521715242417 5.79012483236177 -19.2534650629949
24.2673304963068 12.5878881449023 -2.80883767243448
164.714297048334 8.63716259235944 -21.6121917883893
189.966492825427 -18.4740953203851 31.2683395043546
-137.278944964453 20.8960377173995 17.1496600071881
-165.155393830053 14.856432875468 26.2165780583136
-95.598687393561 0.342777601263233 -0.294611094405354
84.0726620969024 16.9084219768339 -13.2318708369833
193.924578703519 -33.4040944573881 -7.47347171883937
-183.185374105265 25.6777586563286 -3.68767806627822
175.925777401453 8.22904703333146 -22.7112365051893
146.979356379981 15.3126467074715 -16.2969308337531
-211.308380399941 -47.8182835627538 -12.1722459942533
-101.548431321684 -1.76527780158426 -4.85296203171519
-37.0474209732977 20.314104529649 -18.9495030540044
-177.531598233844 31.9767541577179 15.1106995765325
-126.459552733371 -0.540346218301644 5.82119342177884
-183.005014562965 -6.33172593564458 13.4746701490465
-193.351486298726 20.6653936510097 -3.73096305014304
-174.287248400783 -4.40333396162278 -5.92363761824375
200.648951458117 -19.0328386189708 -19.2433912562655
109.000274271178 -3.48661021124951 -22.8877869101376
-204.550311046165 20.5733112431386 12.2150573711653
79.3284063978179 0.576122271975802 -1.44309277734541
39.337558016372 -5.07888464218872 -10.26297599143
101.054103081153 -11.403533956399 -16.8587399081773
137.924855238662 -14.3099692811905 -0.714782978591883
191.988093164808 -33.0971195090279 -8.08178606041061
64.6510791696482 -7.24787286509836 -9.40095472442449
196.892354224356 28.975424645818 21.6735140858117
30.1641029928585 -5.4877760719762 -17.9460041082107
193.298530313972 -37.67697273039 24.92913918177
152.260051038542 4.29367759341746 4.17712828148936
191.686230615864 4.98827280187194 -21.0033105352624
-159.418452299711 -3.64427494500009 -6.07908273091028
-189.379533908457 -21.5765878704604 -18.00293478974
179.584328328893 3.02730431636311 12.6665503475887
-180.412206606102 -17.8270733566609 -6.72392862845292
-120.438475856519 19.3774633380662 13.3342592136293
211.951834368003 20.8601807484556 -5.13370719235763
193.007039193474 -18.2647850146108 32.4843575307535
182.451053198678 -32.4296693598059 19.1513483811269
137.509629130978 -8.175461820823 -21.2755097149512
7.03590540033074 18.6125618765537 -20.2023367175555
-191.664333207626 -31.8554171321247 14.0090533082422
-204.989111008043 10.5145071479613 14.9753835918572
-88.6408157988805 15.0399232546615 8.22013874648877
-196.258899365948 -50.8020713080295 6.50758408832771
30.0611085723458 18.1148466084559 -18.757730873096
-106.439224297443 18.5807266086629 -12.0234249711193
-141.241088442366 10.5195970305489 -8.78362925576291
-164.883360002978 0.943851910049606 -7.01987136062124
63.843498684736 17.1007574250591 -8.24436072034815
53.0453817285511 6.40816735646141 -24.3864464192852
-203.68364274149 13.3179680899166 18.2105098290223
-187.447231939836 20.0566073239673 -6.18994827630442
194.991906706988 -28.2637259955434 -13.8129845840229
-38.2491306661885 6.19393458065159 0.514363257516256
-197.346466435067 -30.9556761266799 17.8105866911309
-204.860964135334 15.0854197276236 20.7492803892571
208.861891426003 2.71295347236501 -0.322535043314462
-200.512096782208 -6.37428396120415 -4.20387213375358
143.307001879296 -19.3822052319238 -7.15437819459201
54.7393524320927 14.0423388456882 -3.94074524212553
-134.930830569108 5.28512252947256 16.6420077641502
149.471636777126 -20.1698858127916 -9.76075934440113
213.461620177238 -15.3451020869814 -8.01113869642491
71.0496724217575 5.39455369554876 0.840963295041322
209.258775914407 10.2891390716301 14.8567400371174
185.651162763876 29.4197788573018 1.15430624982775
211.328974033701 -33.7620404381917 4.27397969608145
137.164258068701 -16.7595777093911 -3.91169649241035
196.013583079652 7.44266612508119 -21.6277687894137
-143.488418488048 -6.33257832555256 20.9460383537887
108.625195106766 -1.99699118320851 -0.403097193256095
197.522687803505 27.8904829002305 33.6406528711383
164.290300217666 -20.2103165843721 6.65460796420944
-89.2416191188372 13.3433444286955 7.57064843158552
200.563300698222 31.0587519928826 12.4096662158129
-180.954416893247 -37.8285298298786 -3.61896273869641
189.551592344697 29.7817197132657 23.6755817258329
171.64804973209 -12.9255525713894 9.63419062606282
-29.0483640798052 12.6052758347956 1.84740537231141
189.434266774255 32.9228761152173 10.3395795779484
206.689006377536 -1.95597362711006 -10.5185727121483
-148.38962356813 27.8146309640565 5.43868004615229
-186.661878781028 -27.0073884918027 -19.2214552745529
24.9673070466159 -1.83934320659333 -22.123478837388
188.590806891871 -40.4347449450714 4.9952038172061
186.643189287202 13.6327628977785 31.6752782483886
-197.537603555322 8.30113347460439 26.673016361959
-119.881492272125 18.3238793810547 -9.88359617677265
-216.96806381833 -32.2845695662993 -16.100533045379
207.206827498486 -19.9944931184093 29.8005866626266
-205.551053682257 16.3084642174168 11.952926444436
187.825203703259 -32.8297890457131 -7.99940670654095
-85.4575579496443 18.1576719800969 7.39487469602433
177.614409942196 31.519124201766 13.2771756385165
39.192679092635 -1.63331927104 -22.7444860861287
-93.8418933767668 4.51210896954211 -15.3957402945794
-126.783325243578 26.7251213861679 4.87676970198558
180.459160340747 -3.49556479226273 11.8797912612223
181.891741177995 -1.6806936659015 14.5666581522264
164.495843267247 3.2475045974792 6.1742164414327
191.512646491953 -12.0612871661723 16.8751009542925
30.5815754926781 12.9044007799688 -3.16589232285156
215.916625929589 -26.9908513981761 19.4523208857163
60.149867163807 1.42971858925439 -24.0095414952062
-197.588565820448 -18.2944683231897 -19.9378556697464
176.916675361199 -32.7913817288326 -2.57559026011725
-70.3488346127582 20.2092437880199 -16.3233913082189
193.086694184555 -41.0195400688314 16.0493368745641
104.798461421625 8.02669593075235 -23.2304704136457
-168.585143233142 -9.6134139700408 13.3869871117576
136.299055956927 1.77196809948452 2.26584143696828
-53.2871758343148 25.1026478481705 -7.52898053309463
188.090135470003 0.0876791079607066 15.6997753428303
31.8598250408495 18.5673498931769 -9.82393348486278
169.296102153904 -6.88310294893113 6.71294242368317
205.03779146792 26.8921764710888 1.42777901175392
-181.634265131224 -17.9814159100703 -7.73548699715496
-182.836711945563 -41.3844113841376 -10.9316690267205
182.618246931027 -23.1422649199992 24.7482183914787
-196.367416538193 -52.5476326167202 -3.72721056597928
-198.132146090758 6.19566937401304 4.74186770322133
-113.576515353357 19.1344604531138 -10.4810607134822
-10.8125673338153 -3.43757292752532 -12.4250701463301
35.6065716818336 5.24984809841985 0.267682935017815
-187.443349740034 -40.7081216998692 -17.9760709303809
-193.790281433649 27.7903949530317 3.19643406180403
-161.506781102613 0.105461770874276 23.1556563734183
62.8871016576119 -8.29560168611324 -15.0755727445822
181.596078849755 1.12623809843351 -19.5170555439276
-205.985383995751 -41.2522414875409 14.8128252936307
-108.725048633017 0.11106343728946 1.84122565782626
-121.311048952747 10.4383118202013 12.096100169218
117.281030190614 15.3623886781009 -0.143125044176179
-151.695907728462 -7.56627532055991 23.985871352988
208.691782670053 0.831820484604613 -4.41867958806361
-184.870952658013 -4.45367243017458 13.8121961845319
86.5581852653048 4.42995277758937 0.25871750251657
159.473858731048 -7.6469426178395 4.1204387573123
209.389580830175 24.6339942925451 1.6650538571176
174.937502948884 -18.8929282531231 11.6660830323682
205.799785225493 28.6384297180784 16.1772298727527
192.516877182651 -15.3036447316547 22.4709745139107
204.314208248726 30.6398319508004 28.1594259557577
78.6177712101753 4.20358440634467 0.260372078999904
-143.439608775526 6.32955541920882 -8.57554162203944
29.5993588136054 -3.23335655644067 -21.1634954329412
-32.9002433692959 7.88158540251773 1.77873632311439
139.267352941727 8.86475939193919 4.00488551774799
165.016875077085 13.9606682948851 10.7262254835784
-196.774304874249 8.1642960210503 -4.14954427045039
-158.302184583862 10.2241524407216 24.4606945948096
-55.3315194666391 21.5843641587634 -16.6743309109508
-17.3729636055644 -0.00922111133242366 -21.491679597981
-66.1256401842351 4.35563568433829 0.433919453355755
205.341713796338 -35.7807391492365 2.76376363483704
-51.6681587379535 6.1363416590232 0.690102660729252
104.606603930842 -1.35872907877676 -23.705236036555
-69.1791435737035 12.4892471332238 4.08412374853895
-185.976051137333 18.8520896409071 -6.03437976541857
-182.501927806125 -26.5010193731809 -11.3075166071402
-195.908586083738 -22.8794504516999 14.9915779374833
164.19383976448 -23.9900147186777 5.32545748440965
-192.036066104811 -33.0082925950799 -22.9944289514534
-61.862968551982 3.56287549860224 -19.3983653553817
-110.884816006923 1.52028409324381 -10.8192042008552
205.891845645151 -16.6120840241767 27.4542574412092
-91.2410461498564 22.0595526269526 6.00170125843143
15.2208845752823 10.8721218891683 -24.5128836694918
154.436909498765 4.32700054941338 4.46379826056686
-166.152290030401 0.804340184358557 21.0950419924814
28.1283182912394 12.977090492134 -3.18910613348214
-191.87191636077 -14.4846607417711 -13.1054451968601
-208.365453981228 14.9374216129069 6.3989388751076
-127.644138575428 1.83497067213857 9.29831698837214
-192.492687570788 28.8915529134547 9.68500968384946
-138.887324149377 25.8586639962533 0.489051348775568
-184.502872127611 -21.9660201986511 -11.5074993709756
-190.331588982659 -50.5081296802342 0.176667426866026
-180.999257956689 19.8127895884869 25.7564561763514
67.5105675413417 3.331245466755 -24.2529564673756
-82.6061744217737 3.41709248338089 1.6875181538042
136.486300601782 -17.7049003767847 -6.93794774333351
-189.104812198682 -45.3668794992273 9.47703029461077
-173.76198006713 34.4272208025235 4.28267341477978
-123.853199846318 -0.106864973121631 5.86869577904361
104.818138641991 -1.22290461320616 -0.669411017891479
181.252930179157 -25.7470031405386 17.4969752729945
203.883930101109 25.9939543682634 31.2565388274385
-169.738402341662 -4.63372583615863 -6.12018812294246
99.1117217639572 7.71521474385484 -23.3525582104546
154.010235651547 11.9126857439577 6.8010318292827
-26.7108273446105 -1.76950707701427 -17.7233046931676
44.1217131940461 15.698918502883 -20.098842309952
-54.5264386696179 8.65810455964636 2.69268808400801
166.857032655325 22.4865853367824 6.25947068833639
166.282303929907 -2.2226844973611 -21.470232553404
-200.866421443808 20.1677219508736 21.1205942975545
-201.157486395338 -10.2373488009374 -9.27346264566756
-150.008772357718 -1.76383419628819 26.1125879388783
-216.178696049393 -18.7012491112642 1.24531002114607
17.1719646452291 18.226347797284 -19.9868943030054
199.952222999603 -27.1631800661609 -13.1229148943369
-200.871809196118 22.419250502394 3.68380220680303
-23.9472926746229 -2.55893258552634 -16.4000675018258
182.583157673642 -9.60406076012295 14.7886057683775
-79.9802854055472 8.00734052055485 -19.080234563042
212.287506779386 25.8851599106529 13.743638120242
29.1633761502927 14.5513139073332 -4.5421288340308
-95.257334799612 4.78479228966626 4.98656257424106
173.06439509854 -19.2275762366249 -16.395832329747
-192.22783691149 -44.8957841002579 11.9003317109542
179.570752153032 23.3842187234017 -11.0096155162575
5.22752329735247 13.0473310200101 -2.53669810289184
153.3037953763 9.515961559293 5.86904164325683
181.094061892925 30.4176664610455 5.99476799587361
32.3163454673038 -5.84419745766324 -13.6197826040079
211.313130203056 -23.8427482875424 -10.4459828372558
-183.621314387895 32.2898754637865 3.44085033585164
146.304157904398 -20.0114391633828 -8.06742439472808
22.4828100330486 -4.6363652513447 -18.7449230899001
-102.855646272153 12.1600313365488 9.0417735032761
175.135321663524 -35.4616040416911 3.80009662549464
188.156726730278 -16.8297545933847 28.714166753447
-65.9496443372577 1.44498383912841 -2.14479200282272
-183.103548489487 15.1048514002423 27.808716445553
-195.883734625361 -17.9800996971762 -19.2053660746961
139.286698563379 -2.00398336639441 2.40957018646769
-167.714280609238 32.3553392117735 4.90898887808351
-15.7758990416289 7.95931001652259 1.68693590189909
-78.2796698734105 1.83425033400103 -0.377097848936395
-90.2484464587177 13.5178441928657 -17.0641096103824
190.56765587182 -3.12843917526518 14.9731354754094
114.784671733665 -6.71823078950803 -21.4311219782493
-210.36356350853 -22.0055271545378 12.8071899950017
144.701620308466 -0.674958358902432 -23.156395572777
168.289070981267 -16.1305859368133 9.32808464695295
-48.2093569315776 0.814502169344015 -18.4040713190085
202.316045292591 30.2368103856043 11.9235370093937
-201.384212777721 -51.198655338704 -4.90428803358688
-176.54288274163 27.4930063283908 -4.68019359431885
46.666379094844 1.21242512466977 -1.75844667433881
122.892212787049 5.58872667948306 2.52457116430833
-209.587999675208 -16.62250337481 -15.9784892752631
-85.4807830792806 5.04267988029857 3.31536619848183
-204.105965640261 -16.2988204662042 -18.2072676591533
-204.012163406973 -42.8170859319913 14.5518379754354
-187.898228368229 12.6834069484334 -9.61363250746238
-182.451705322477 10.0999927417235 21.8100532886864
-215.573279491092 -20.1930899173524 -12.2944100328694
-203.062039607089 -45.5896726347589 12.966967664254
-50.7197700795083 -0.543165325923487 -15.5683827943185
174.030040881327 11.5503041188729 13.5770713331547
133.38939578313 15.9770291480932 1.23593314003201
-129.545146626378 12.0741272779339 -10.3512126552585
198.891307406918 -4.20463452009794 9.96337452385066
203.917153882869 -15.6761645480526 26.3043828173224
211.078324794062 -7.73053167934557 -2.44234884644209
-205.987834974756 -51.0243341036457 4.51260963671855
188.57759150519 28.6775864995099 28.2328570800814
-161.678453612896 -9.25621171183917 13.5406502227257
-214.303742727896 -24.3372158529978 -17.3639814991283
-25.4804197613178 20.7041998067911 -6.22961209441897
-157.66684286116 -3.65001461202185 -5.97041910329822
207.879109522161 -14.4880352645618 15.5806366254635
-104.047029393381 26.9155228068818 1.31482457103067
129.627153429839 -11.385101383686 -19.4610068644068
196.458480202341 14.9031044089834 -24.6733551584473
51.4698827353934 16.8519711364568 -7.64525141945754
-150.516201095747 -6.7652550903881 10.805171761904
40.8668512319132 -1.75672906060538 -22.7095574812018
182.443748825468 -20.8360552698032 22.4899745429495
-49.7461377439851 24.7537432560605 -11.2428434989344
-177.803678368422 18.203036382079 27.1928606802899
-170.518579879675 33.5683731322077 4.46655084616315
-193.275546739945 -3.93303764188813 11.5404865451953
-205.069249924227 -15.2975672416163 6.70150211171685
167.926572004888 22.3380862619787 1.69016893952001
-201.107473248001 21.2192309156061 19.4401676299892
-200.0265213791 -13.2242897038679 9.07726887989577
202.747856986035 14.212358472938 30.5348575666371
197.638348130496 -2.94787898558443 10.9040160327667
202.406965548625 -38.0290428454098 21.5390264663092
126.03941257468 -12.2797572038117 -18.5133658337705
166.109436231688 -26.6793166613196 5.43348679255489
31.2856851922778 1.29340813684374 -2.69652622738586
-160.079262848327 -10.2267384193836 6.56035492001996
-188.649605400251 23.8359237146426 22.5852410502325
146.399972600391 -0.94754326116226 -23.0662501119654
-199.75605676969 4.25791793761931 0.495573538408874
164.754172597914 -22.6805474363091 -10.9205408624518
-210.900856878869 -30.9305160147779 14.7438326989984
-186.848928605178 30.9471418381575 14.6892486580658
136.204614866772 17.131880525608 -0.262024606018579
209.049379650612 14.288127027532 23.2064900326367
193.336698589309 32.2118548328581 7.46159398259589
-27.1600632061972 16.3070224648927 -1.84064112615659
-218.915415279802 -41.0225259570866 1.25963842190834
-182.203672011404 -32.4927914586782 -0.427758780368314
-214.280916390718 -38.0250476774417 11.2352354225382
-181.741658106855 -25.5484498415877 -8.3810815308925
-80.5220571641023 7.87844979064938 4.62554481802048
-214.914914462794 -18.6489664526597 -11.5484516095026
6.27329510720224 1.90479795954841 -2.97333050007888
135.973761942821 -12.1324318415087 0.364776840915849
184.6199157254 -32.8868232139817 26.7282984335211
-26.1585041346878 23.5684559707064 -12.8462254036107
-205.885588722754 18.1166164928527 14.2966272884811
-185.981613046922 -38.247457657249 9.53129164801252
178.713925652995 -20.6557338304144 13.6924138541343
173.337511637241 12.1786532800031 -22.3506604177199
-54.4523774444476 5.01019349333844 -21.55077049796
126.254289876493 0.113240229310663 1.36220431678707
179.47933162538 -1.72145666334539 -20.9425309481846
179.545748968564 24.0950727225873 -8.98209207391752
-181.653416561002 27.4619734507893 -4.534263579048
-91.3795924511132 25.038295846615 -7.59871173758737
-190.345884582261 29.2334817477153 9.33248010400556
157.171501847986 -23.6038619223277 -1.2264898544556
-144.331676905611 23.4451687453229 -3.16771720708454
-176.743822535405 16.2926342473482 27.6627334184524
-192.141612690597 30.8000607353413 2.79804319218479
147.518771286249 10.8951052449821 -21.0011485644364
50.6112748283482 -6.59449979809659 -11.9165756948347
166.389054775911 -13.7555780855554 -18.6755612617461
-13.4615962016243 9.35309970094048 -24.7353683655478
149.160119369816 -7.42236665177896 -21.497564023802
-58.8799055579406 22.4760821206309 -15.3303516034944
179.514485724381 32.4305223177123 12.8823798801082
182.880696779322 16.8568173768659 -23.5334066822817
-162.647423921496 29.1351980774446 2.06798655677538
187.308844091927 -16.5703366556774 25.2647983643342
-198.2008776941 -52.4879448583623 4.6134801967931
-12.0197472059883 11.9682473321798 -24.4077642502309
216.925358303437 -31.8125570555409 9.12440545042193
47.9956441106807 -7.11704984965891 -15.952882087761
-177.860195959774 -6.00861706476662 -5.95731010023527
76.7547795959333 -7.6516319611648 -19.1868500934313
-181.434308843279 24.8599697613632 -6.71794466736305
59.0233051916604 -1.07771413995151 -3.17670072215228
151.170671801372 -11.1134873087774 -19.9765614091867
199.368054475404 28.9436804215634 22.4652456899521
197.457788720912 -32.9017473182603 -6.81898493318526
-157.694434170028 13.2062540459116 -6.34981687268937
36.904238929643 1.27397379019449 -24.0295874355429
182.291191343942 -8.43337674509145 14.108231685316
89.3452605389824 -5.26073678856184 -3.16974005971996
-185.134895809335 9.8689214549712 -9.29890096396918
189.053556601104 -17.5595180575606 30.0784708573464
-190.646152459009 0.947338492352276 11.3937241432537
-136.369941753947 11.8621426432738 -9.30905518485131
138.395153695922 3.08603800234311 2.59441905625739
202.152506876814 5.21613046229839 15.1391516458364
202.393066237427 12.1147586352254 29.4183982448308
52.1055730183568 -6.00128123315195 -19.8869131517105
-221.433186946131 -28.9504665137658 -4.37372730024394
158.095270964934 11.3152858893928 7.2293941774957
-153.615425823817 18.5552153104909 21.2639747876047
-181.955848844115 -41.2206445775798 -9.02127450556285
160.028788270456 18.5122113881632 -10.2214118497088
-116.104326987369 7.36065452894166 9.8100781186449
-45.0185636623935 17.3902874951915 -20.9167122311115
-208.050402171216 -25.6277055157212 15.7881606787183
202.417583813113 -19.8518558787754 32.7916760167794
-184.724924956104 27.5704857394696 0.460449985255686
144.481885043512 2.94539671478327 3.09113835340843
218.231489460731 -25.6263295877794 10.0675401099503
141.516070439538 5.88529827954519 -23.3723642264762
-48.161374677971 22.3931431615277 -16.3165416323447
-27.6888709211826 -0.344285525445972 -19.8937285408141
-95.8867385956947 14.7117045541783 -15.7557760546218
-56.6330089727386 4.62784572518348 -21.0814070272956
205.680349018692 27.5885033201674 4.47489444250282
10.8530604425829 14.9028685249475 -4.39040159340393
174.734164340231 -27.7214770711227 11.5543267424464
-181.284563171261 10.9246620535993 26.112160750082
144.371194163197 -16.7981840086207 -15.3787741984358
203.089154949554 -38.3329691407353 23.4997605886906
136.549811349705 6.20954565836165 2.98934401987234
217.65552879087 -20.887078197566 8.94205214647203
194.624132600871 -41.5578792245178 8.25577207021116
99.0555308787071 6.20141371173517 1.64945073600887
-133.627633945608 5.42170362575757 -9.61416306568692
205.487001887863 -16.1173092667466 25.736883528538
121.494962773237 -14.0539294851028 -5.64123459127197
-204.909292855824 11.7711654685348 20.9134720768634
-186.169576475561 11.7877187262829 -9.07784672764877
170.157644815357 -30.9047413675567 4.13376720054193
-68.3353529764167 21.3869511287597 2.69019799961584
174.884765662201 12.9740804178818 -22.5031449145789
209.969992054134 23.9473319529312 24.41813225123
-75.5503091954789 10.0891168313789 -20.0523334260292
190.810959580434 31.6123986573268 20.3852374112995
176.310218630252 -5.06322705831622 -20.7158467974267
-196.269418324769 23.11927959233 -0.108471581080481
-110.991510379703 4.6126359908519 7.22275847076428
17.5807758052704 -5.2957614361365 -15.7001794233677
205.729695405154 -12.2283263729075 11.4243665532674
-186.74469425029 24.8831849599035 -1.71592549698711
-83.3593388264004 1.04561944266818 -13.6070739967689
-182.339350312876 26.127047924147 -2.30758678620083
174.515639311116 -1.42153781152887 8.93253173207551
105.674129027579 -4.86444584947885 -22.3363423164921
199.493813865379 27.0549831791557 -2.98709209594308
183.368605270598 28.1290697870863 -0.972473496796057
210.3012967473 -35.8337947205967 25.996011800655
-16.9575136064519 -2.72046154899025 -10.9464308933769
-21.5683714880048 5.24142532824824 -24.2633455271814
149.309238470621 17.4323912225835 -10.0323847288792
202.369422063653 5.24158920847999 17.9552118685809
172.399496011649 -29.5376879723673 -3.63809952760168
188.933126052661 9.26741108079466 29.0046926060908
-203.765176816513 13.1638663309255 4.13348144557629
-202.92226930627 -36.4055520383597 17.025725834825
-186.25973740603 -23.8204990849784 -16.2179946605196
86.8345557328003 5.05118959137545 -23.9401023021006
27.4058712146006 -2.7634798375425 -7.75982762559784
141.991399646087 -9.92003603654501 -20.6334321781815
-78.8325892038089 9.25282245214619 5.09200620011076
-165.416352424233 -7.40882094513058 15.945028934628
62.283814598144 17.2102183159204 -15.5728520383616
-189.625929147842 21.8988981077317 23.9965179279572
157.592262299946 19.5622218382502 2.43121017285984
58.4273741500668 1.79924228681384 -0.6341493801687
-189.086098429555 -49.8661324393739 -4.61089862503565
-124.814120328214 21.4241596996987 13.0383323561361
-133.428223817649 26.8364508142126 4.33540703293633
-200.936688716442 8.43413705339576 7.43741234736685
-2.02034202156276 -4.18527080584755 -16.0069714769062
-194.618482918488 28.2574570298025 12.4824638722686
189.637719828615 -9.44200930536165 -21.7790327994971
-184.672735563789 13.696405300487 27.7621586821987
171.29334152312 11.2539536263738 12.1859383357749
46.4219330544152 7.86330886627096 0.71979702573467
147.119953531786 -6.4167946008032 -21.9316878045387
-171.801096286008 -15.9801581792657 1.52253425103674
-196.395935588903 26.9668308683041 2.63526288933931
-180.8467694137 -29.8073569349695 -6.71793629719829
-205.61878423732 15.7724736496764 1.90878972276031
201.751575846313 4.68250151172186 -16.310974451023
-206.715916541049 -13.8429092902367 1.27367075220049
-181.527864657497 22.5476593173063 -6.89991924989188
-128.577238160331 22.7706131005085 12.5667904259102
76.8474926988717 -6.02466814450453 -5.23414597564552
-146.480335798948 1.3682246538435 -7.300630616831
84.0848949646779 3.95527413277321 0.199543424040182
53.0090496289652 12.6768577964036 -2.82893974896369
187.315378762612 15.7280220967604 32.6907062831282
206.364234209639 -26.692070973241 -10.1854094334762
205.053988601286 -27.6389313180749 -10.1831271936018
-184.169511566603 -17.8551085683515 9.5713670033407
-194.573694347802 27.7384017036274 6.89312610387394
-122.736819715314 12.2730966294738 12.7452715668542
-131.761209595126 12.9939565804581 -9.85053141299799
-159.896623214512 26.1497962122223 17.7741060060441
94.620352142884 -10.2008498627939 -7.37621820855441
-68.0606373306226 2.7556211197392 -17.802862001552
-204.528584820402 -12.4809511946698 -9.46926126425613
-121.045238764795 7.27470777003705 -12.0563598711089
100.599506578285 2.00306468484322 -0.0187487724980526
-201.084728831879 9.04343774290961 24.5858801210755
102.756320406241 -7.94895319794014 -3.32037639425087
138.785181893886 -1.51311465502965 -23.1283209437489
-198.82345264068 24.0894451985253 10.5311305539356
138.461531756459 -15.8074207532007 -15.701275919423
-42.9139374786965 23.1436109297959 -15.2109523334756
201.433355373997 1.18266284990401 -15.6756377456858
197.598763780332 29.4021370941683 1.47598523390475
-9.86713615053903 7.43945699715156 1.46036069434457
168.63761890694 6.83137273752411 -21.8116357495761
-98.4116955985537 2.74357989635349 -13.4893669428724
-125.548459677277 26.3075497027269 6.72460991448547
-85.137511064819 -0.774890864199091 -3.83746586695273
-180.641630119374 -25.5757751258158 -1.48552097477948
185.878284322484 -31.6638006453947 29.9574371563158
-60.6906255857627 -1.43250312358273 -7.62468250909026
-163.15671537472 16.4469369735656 -5.46917178809027
-196.26922692061 -3.17255657354309 -7.24415414008281
-205.880341277745 13.7599622692463 12.5212440526406
-182.585480334706 -44.0062222647272 -2.4312491490508
-12.1583590967251 19.8631114779358 -19.7100334879061
-215.819061561773 -23.6885094026214 -15.2546481606257
-188.927894767744 13.8023360188997 -9.21424163142261
-197.968920939374 8.14414868279138 6.28819342593047
160.872070722966 -20.260140300389 -13.1122193830566
-142.306113769018 -3.2264983892449 8.17209637759761
165.922061943707 -25.2648102335323 -7.08381093492252
12.5177395947852 -1.57959718100389 -6.988029927355
189.973756867501 -34.3575526237673 32.2282617417197
188.363044839454 14.8418029847092 -24.1246651376921
-178.502220822304 30.7984368440168 16.4367974985646
-180.762762494327 27.8351911022223 -4.742367384454
173.589242613267 -26.0920519138221 10.7075538149666
196.297700604882 -38.3175666107614 1.23212008170388
117.233302368232 -0.739992854630928 -23.7917167282681
108.120097863217 -0.904163106441275 -23.9167934162247
76.0876298624284 -7.27436499572391 -7.12501210551715
-146.950286172118 27.1014592516989 10.9749333931124
185.859946000128 -16.4958681312501 23.3634826754174
206.776444056672 -16.7280092570837 26.100310013709
-108.55972648568 10.2941904803757 9.2830430374777
-102.51806905007 3.03573447558395 4.88822696847397
-190.611690736269 -20.5444428478291 11.2416580794059
-190.154286142532 -29.5957612918755 10.8541529913558
-198.398923437845 -48.743310966692 10.2834675999465
-187.467712920423 23.1127033664294 -3.80117310288912
-196.769267182038 -48.1770440577121 -16.7237078963611
-83.5725755422545 0.458641131538268 -1.6192977450835
55.6632228009976 -3.77355172016302 -5.60832042144123
172.80341055559 18.1634210101667 -17.3698510192134
-108.295277777785 7.16083261271728 8.04266805436608
205.978097544504 19.6561939999372 29.4319409732033
177.535787601287 -37.3125824706411 7.36848630764874
174.424795512683 3.10887606614512 9.63657382875305
160.633912097003 -0.24337007080367 4.70196580467998
-194.479054671055 11.8311034749199 -8.11630902945443
88.5103241032599 9.8712320507647 -22.0052997354203
81.3535615545813 12.7271098955482 -19.8691212748581
120.696818177375 16.0099350553432 -0.634729883269448
-93.2026730420829 9.00925490723175 6.56918115327423
98.3091365432544 16.8161952297805 -6.10850688266797
210.710102441534 27.9913820160745 11.1677961664585
-207.956098812543 -46.1435167899344 10.6038315456337
-30.7033555981129 15.0287294653397 -22.9602772328188
14.063740900419 -3.27114196249844 -20.1503705081235
-188.195285374705 -18.9639197736909 -13.0644171738638
-8.32589787675703 21.7598319389778 -11.3665265953106
-154.980691571028 0.888646757151111 -7.05689615293134
-21.7406778967966 4.98545601311908 -0.425356620843758
177.027480814824 -18.9619787797604 -17.9349532869366
185.415612405981 21.9184713598875 -16.7934896868208
-44.0504228061013 12.4247228376859 2.94827879070971
-205.406205923783 17.8881312726866 5.64997862842332
-121.64426216458 14.8133690534032 13.1641035809545
204.014530283029 -21.0054519019505 32.6104019014365
178.76835031727 -5.69932928558718 -21.1338067595788
-171.838465813433 0.192612215622132 -6.11651276557135
210.389129179228 -33.4768599309478 2.29283397994781
-134.325739885674 -1.95885593872547 -5.9546346369744
-187.386993242682 4.58207177002238 13.6421333915968
175.101111581804 -11.51843793256 -20.3304991965909
-208.146580604292 -50.8467410370585 1.47084570320836
-167.407558244869 19.7086131437678 -4.62796274555116
148.893062848533 17.5981485671303 3.86097422029915
-191.779579388104 22.9726991645374 23.5935975811365
16.4925481968727 1.31213532084873 -23.7616167576777
-40.733520631192 -1.97845616853582 -10.1021679232134
-51.6226273001437 17.2953380318285 1.91632958143111
149.814593166788 15.1710483720246 -16.5469565693085
154.438959283132 -15.7535584591263 -17.1307615855834
87.7349709135115 -0.971560209568872 -1.30207470162207
210.396385924949 -18.4591573283737 -14.9188346949386
155.974523415029 12.4108720496352 7.25261523859351
-103.455488076565 18.1889756610976 9.87797562083633
201.680368338464 -39.9739762777929 9.99917628557262
182.267551986123 -20.3918045863415 21.0536475477729
202.958967315164 -13.140738098728 14.057116350694
-20.5686126302991 -1.00910143448179 -7.67174887793437
176.716930212341 22.735946493662 -10.1979523370813
30.8762005059955 -1.00116147065174 -5.41742466700512
-197.94072495367 25.7598686336034 14.7412808179489
167.918790830824 2.02514299762487 -21.3922665501925
-189.541109474089 -32.2258390413803 11.8146884452794
120.417965503824 17.3566889151318 -5.45782962809371
-189.056110921637 -49.6494907706305 0.842101723422472
28.1136664574685 4.24787244342456 -24.7246070076868
211.794093484266 -25.9846416014219 -7.78953711509528
-206.445466869467 12.3523520354943 4.71574704299793
-10.9375194243838 2.01274761763873 -23.3370328580233
-114.707378992265 -1.56488331799902 -0.292999589442214
213.884051918337 -33.8161958999551 9.59022127444763
-146.843629856598 -7.74955847802067 22.5474835775948
173.386509489106 -8.50297430841909 8.49648163900808
181.442509651182 -23.4905495789705 18.264912972322
77.4672104283533 16.7157344835985 -14.5257933882304
-71.5805202654745 23.024199350141 1.97425179004556
-87.2687466558841 21.2267359662552 -12.9005235249364
-115.868971353276 17.925299140211 -10.8211661332008
112.528753113284 -2.11970049846382 0.0798263062092248
-189.743317179535 -43.3046418808621 11.7140470724403
-130.717338666204 0.487247746986788 -8.04422537090831
-126.29589313919 7.98419502042291 -11.2087815994291
197.351712114402 26.7192446947509 -5.08445954945674
-19.6266931500402 4.99268927087721 -24.2897900408463
174.650254770107 24.3205468924624 -1.4538211077182
-16.984517652624 -1.56582629421129 -19.7169929981629
195.796788652638 4.31406065651076 15.7512695900156
186.70387583209 31.1365815910927 5.63459015241707
212.382353088374 15.9081740744644 12.4833592761833
-188.415570018247 -27.9360446432827 -20.8883222557579
204.04947838126 -38.7555436293101 14.52792495431
182.306479621657 9.54241376958249 25.4507922242142
-204.551381230564 -13.77186842397 -12.563017154846
-40.858024073853 3.60877143026475 -22.2046835231366
182.394545361616 7.70082406581947 23.3786174687881
-180.951128667992 -3.87919687515343 14.2838442276291
169.873840436703 -3.28436220032735 6.71441639063593
-40.2242699336044 12.8402683240578 2.76112908519925
-213.997773277295 -22.4021142168965 -16.4811933795186
-169.595627331215 17.585278880544 -5.06214046219744
91.6089999903384 17.1835231175509 -10.1136868035462
168.156229380929 22.3963795650791 10.2019313669732
158.618881874528 -19.3780681150884 3.60735671636513
-64.087596110891 12.6437291170456 3.90740497904966
-135.40395920555 -2.95412503161397 -3.60225780056293
-217.159008525267 -40.316507195816 -12.9626602068388
-143.095143218391 -6.72303653823198 18.7724732336044
-123.39528902852 18.6828826355087 14.4259088942383
-47.1136987557817 19.3845089953247 -19.3292670670965
151.272372729528 -3.51693738710464 3.15495168465402
147.767527670209 -15.613743753905 1.27279425146825
-23.1892701139728 7.81888620051591 -24.5637878030485
147.110900920355 -11.5915157757229 -19.8166818106013
-110.025810719254 8.50420004180483 8.82159879742595
69.1065481514286 16.9474383991624 -7.78723729196124
-207.141844480565 14.0097283143627 3.25852819080586
45.2410634651096 10.8144641671671 -1.41027010108901
-3.80117852873452 1.50201375248251 -23.3636349570638
-158.673642714448 2.7042482184752 24.7279916744611
191.156102151929 -29.9322487496873 33.8487316550694
-139.443754860627 1.89832724403936 -8.34375240104216
-176.793740743871 3.87788789904126 19.1735646726507
130.124803086112 10.0994625931006 3.82448718780226
-87.4786599246697 12.4606311735517 6.82280100348435
183.569990566437 29.7828852725016 2.43993605577004
37.083776854687 17.1412768705458 -7.72521714408447
-169.676365831706 10.6593961476412 -6.297841414624
211.09924666826 -29.3392982155386 28.0688860506258
-66.5935086085994 17.522415758081 4.20037347179069
-218.094538912199 -40.2752792590878 -11.3269776084301
192.900180904868 32.7365450843869 16.5229512222331
-187.782436241731 -20.686151739362 10.1433963405595
174.263841295532 -20.5263129005935 -16.2293712680344
183.079697307133 -27.9985259063128 21.9682101160303
-196.14064969227 -42.1776130660419 -21.6127688155743
-92.5693793970292 17.3734229783654 8.95416996164973
-128.738493995978 -0.722106373387232 -7.45792351968636
-217.100695034698 -18.8244889233533 -3.89736730025716
-69.1283176653974 9.73883423044583 -20.8852289836651
193.848630456668 28.9638000041877 -0.659148671612016
-186.818774940546 -6.24848164481985 13.3929777694091
201.041145999444 25.8293482099214 -5.0412888237271
-173.102419529498 7.7707584646652 25.0619659272366
1.40038571146167 4.32122030715815 -24.5741155200005
88.1021968277809 2.83011176433967 -24.0862151572449
-105.960585863426 16.5835359328368 -13.1242871044778
-180.93425352281 -28.3031212140954 -5.53401240960245
172.915479900054 -33.7791769377151 4.63077100208243
-182.929519700699 -22.5976559319982 -8.82162170679446
-106.927613180753 11.7995098295842 -14.5228564045143
-180.942933989843 21.5365351357548 24.2077205819754
206.241081571876 5.54679133023305 13.0840323273997
124.834742914032 -3.5847069377178 -22.9418487923555
-123.257157453596 25.7862162395813 7.53767664507822
-198.32515073222 -49.8203575049022 -9.50972049571015
197.165309115827 -14.5668794961858 -21.0775917505187
117.702512006581 -12.1554725887846 -18.0319229941952
192.719320313333 8.18011856435922 28.1761709128418
191.334854316456 20.8563791527149 -19.7291535140636
22.1180661694716 13.9866761444035 -3.90689821791133
-38.7878628386728 3.4622957736263 -22.3360549371266
-152.690777981218 2.10588459387359 -7.21522356819308
74.7285505793619 -5.15763587342381 -4.87273685827969
117.545930622066 -2.58430174756555 0.528017867039673
-175.749495481889 33.677018937627 2.30017518856654
117.003465878081 -6.05632467504954 -0.147499772796515
-124.523837355463 13.9233663135107 13.4124568497367
-53.4280737769428 1.75062260790087 -18.7642671184498
-177.096879680808 29.985822084819 -1.9279974304418
212.603150507734 -35.521798094811 22.0527879989616
-172.679587919172 0.664328512963667 18.462433070923
-104.843130030879 26.2825609453614 3.41068866016876
-190.926149466874 -50.8594859690617 -8.36428273761334
199.507143220147 -14.2922606592397 28.9093557411682
184.216591336742 3.88593781757757 -20.9767397143906
164.355988995328 11.2640448359731 -20.6524647492977
-182.102678053892 -27.9106374761478 -11.2125798496294
-55.592342498842 23.2598888585686 -14.5925329513551
140.479505397484 17.7557998663413 -1.45239868777224
168.0253367324 15.3226919998364 12.368008038929
-96.8710625158685 -1.39394644348448 -7.59053425212357
-56.7765889341747 1.00678856443691 -3.13344984307029
-131.799063037334 7.18556592021876 -10.1649100360103
66.7974336896429 2.92384629731188 -0.131231332375843
182.992720834435 -17.0590333663819 18.8929137927547
-195.945417171855 24.7163697530371 21.3634382251044
-196.157696214186 -48.2214629934534 10.3610198419205
201.655042796052 -38.0873296396739 20.7908837034542
-167.147796216045 -13.5764439403106 2.0810766526363
-131.474732242963 19.6045182322658 15.6728764429871
171.0154539399 17.5799650603647 14.1917786940438
-214.205965387819 -48.1327759564099 -0.699129385871366
191.21795301446 2.33700079867296 -20.4201678623367
212.937304273419 -11.1937063395468 4.6399731810866
123.699012772907 9.5136176943766 3.11790149313095
-130.799079629543 10.8665378684802 -10.3919705692847
136.42749941679 12.5460183596161 -19.2334501506365
-195.24107207781 -51.6412186370036 -10.6076907989536
101.294469663108 1.4231142083175 -24.4541032911205
-217.599649549587 -24.7733138688515 7.26368454468659
-166.812739597815 -9.79994526381022 12.9265831064438
170.51521728504 -16.9638356285534 -17.4906830811536
-34.7593923620621 -1.8303577718793 -9.10075142830887
208.517915793074 -21.6778492821094 29.7207402256045
192.73203180323 -25.6949709558291 34.706698216759
167.270911395441 -23.3374708376137 -10.7731849897259
-126.515472994345 -2.0350816772649 4.17948214924229
-212.209004703792 -43.6780100925629 9.55830422328682
61.1084465933752 -6.61903128875987 -19.8118430104245
186.745241714104 1.17520351389721 16.6809405043049
-186.62991475266 -29.0811093803882 -19.7967985240785
-135.688205816674 7.80500573896171 16.767755852366
-71.2329644264286 2.15035900027867 -16.5346104809183
-172.663493194877 17.6683170001022 -4.97524823671396
-178.823528767327 -12.4451497870872 -6.41661009510202
-171.987260314608 2.42835409971349 19.8890563200107
-67.8193991752383 15.341873855518 -19.9338300020887
195.096520415457 -29.941590795401 -11.8984435080067
-187.539433873448 -2.85600168564925 -8.55761333403811
200.263951262018 -20.6579903049426 33.8406214024329
-68.8640188353666 26.2301001559602 -5.455590724656
-177.724847710222 5.85342063216052 20.592071697014
0.935077745765517 19.1361397261961 -19.9897527028062
-63.7814543540681 -0.264935701426922 -14.1103536398297
-11.030923007989 -0.326681180075592 -6.49919934419883
-164.660689518258 26.8162901954891 19.007207165274
-172.536428718771 3.19262106862678 -7.1221899243769
91.6961663827989 -3.96151968337178 -2.30562471732947
192.241570302682 -41.1720148291816 14.8775176096557
-153.303923621313 -1.15899656279443 -6.63149028533178
205.769971479988 5.57148503137151 14.8285424939603
-218.196746116516 -36.3261521211824 -13.4631693154935
-58.516955228264 13.6628976689608 4.0824218280899
-26.5955902555111 -1.41083649521557 -8.02765464018495
204.646845104862 -13.1416820323071 13.1938381711906
-161.00144936345 11.0237053417361 -6.35216007559695
-188.647932574295 4.40556873235713 12.1103772189427
187.824110145146 -40.4279280285029 21.033634879866
40.9478530873873 1.75105270739856 -1.54062149521672
-135.289888499554 18.2068822823042 -7.83283261829454
-194.113212535202 -38.3042927191279 -22.6464696859798
-183.08143340399 -3.11029428096347 14.2771711058171
-133.032377885469 4.52693628177185 14.7005804106025
-78.2186919355527 15.7052818614436 7.10208280617204
169.303991276429 13.9931432049404 12.2479171060194
-207.733750438937 -51.853566045602 -1.99933830299917
-183.15095553341 34.4487970136678 6.11430048879136
205.674960132407 -31.2220025713076 -5.8273659040534
-103.91838354801 -1.47512289036236 -6.61228519853626
63.8174701051555 17.5485366156431 -10.2212562604107
188.261080326783 10.5840549883965 30.1303419851741
88.7585555285529 -8.41113850700148 -6.16083879516145
172.174158208922 10.4664687941598 11.9704880072189
143.03420109187 -5.52383492615569 -22.1181064920377
-211.85000987305 -16.4635043375228 -13.0860443214944
-215.974116260928 -45.7301535789528 -8.08997890560058
-203.88727200507 14.3802618610753 22.6896265982078
184.609765889886 -7.9905203795886 -21.564185968336
-85.2481521374394 4.7887849966806 -16.8385206426467
206.230752724606 -18.9721630724044 -17.5519270198713
-203.959758948494 -51.0018648003622 -1.84261221841066
-149.881331078172 4.73624718098763 24.1839868514617
182.113477695262 -22.9656558825078 -17.1542112510988
-203.282020283375 19.9029804273438 18.3856703106578
165.360916072013 -18.6774460185256 7.4387672764943
-156.268984574687 14.6292473430154 23.1564023626573
180.992684755661 -0.453249188273711 -20.5529420739898
170.576471832523 -25.8521454173425 9.29708511605221
13.2890257346487 -4.71349095380787 -17.7922674529243
166.540982358738 14.4495186826199 11.4815668861005
-183.008456088266 -29.0871614166652 -15.2005217276764
211.131751994811 20.5357569538537 22.4105397534763
-205.433630242695 -23.5174690317714 -22.0669185218763
180.262700492917 29.6435204861141 4.44592875326406
215.593015729967 -18.1085260757519 -2.02418984040033
144.386085708524 7.15649627213937 -22.8419436848212
198.954572791597 2.37985595525003 12.074493626529
-206.566248255969 -50.300285134585 6.08515130472146
204.214878492802 -15.0016736824856 20.4260875802616
191.319291318295 -17.4868174196662 31.3555911428919
207.952447840702 -4.2849354028873 6.05146463032307
8.91133068083548 16.1444313894072 -22.5226300500692
-179.597827890717 -21.1749131019457 -4.14699549596903
-189.551405406241 32.4406177747866 4.17328294810762
166.307387964865 3.12768979592951 6.7232725606133
195.520139921874 8.00348455793338 24.9384939414085
185.283728829134 -32.4767388421805 24.9480872982727
95.7627700629119 -4.18220412274102 -1.93657396461384
207.326636016778 5.17815261123549 -10.6735702176466
0.615293284652762 3.30061687886048 -1.30910008659685
158.433751800981 -1.00084939805327 4.28648799540659
-177.219183969767 30.0538734373996 17.0921246068214
89.5850711907797 6.31733174659753 1.43364805768557
