-230.345269789768 38.5098983590039 3.70948625348137
138.13711920164 -19.1370510137979 20.0525565279991
242.360788039534 -44.9936533781562 -23.5535592802381
218.982036348686 -17.5203235862483 -25.6309424888555
-218.083670917529 21.7556505776252 12.158025598244
-80.299464701437 6.91980363341599 22.4628606298957
-229.094085823153 38.7997468590927 -15.380381303146
225.186137271277 -41.8236331589927 5.79985098571712
-156.500135002589 9.58824171308327 -20.2663203673589
209.370655168927 -30.5759454001901 -25.6751771866673
-193.604696312512 29.4396436907094 3.53936258548233
-206.643168024493 27.8656809138152 -26.3372892299195
-50.9111944703261 -6.97205993470481 13.540534659551
117.429611044281 6.90385553064408 -5.2028398320792
-245.101275182849 9.23664349323535 -24.9986633780055
61.9074671056252 -0.703908244073819 -3.94173680674089
-204.797823655444 -21.1422602810284 3.89242530097622
-185.833025279431 -21.7524414935289 -28.1337151603461
235.45376399974 32.3822369785805 2.83148401545797
-216.326291753298 -44.7329906305308 0.909613607599409
-244.625165020144 -54.5699135299672 12.3425170350845
-4.86493072129224 22.7877560365061 13.1111038156656
54.1982471491665 17.1169054840498 23.5703259351995
53.2596993967063 -3.82717937963767 0.359664138841146
-10.708338377575 -1.768227979308 -4.3864060463309
-161.553965186102 -8.64371062895689 -7.06031041953855
246.689650208674 -13.0337832169708 8.27553405977835
248.940439656879 -15.141953337804 -1.93671093173181
234.280956405014 -17.6541833655063 -19.3971094511094
208.635779960872 -10.9831370077681 24.1852684473714
-80.9434084340273 12.0037154241469 -8.04368863432949
214.026372866382 -17.2272326292487 -25.2943818113949
-173.938431945968 13.6279985844859 8.19054687356602
-241.345612422744 -2.18790239733601 18.259884751135
227.589080076036 26.431032399677 25.5025694653754
170.299430599795 -19.1419176760245 21.612157601546
212.177841564425 23.175156441156 26.3524955214967
22.3999708482949 -7.12916964864538 7.057782131594
212.779266899644 -15.6120113525162 -20.8000719041676
42.4846528271698 10.9894457917703 27.5990285983602
164.767644923548 -1.81152917273736 -5.99286186735418
230.000528127653 5.82766818864372 15.3404101209374
220.93326796806 37.4198696924516 -21.2874200871474
-224.320080856942 1.81487815749264 16.2320481437698
-201.256862150486 29.2028701906612 5.08356463169241
-163.476596174898 -9.07284744166904 -1.00704036420799
-154.60192357758 -5.61287470618227 -11.1642297157112
-121.598511682404 25.5843410632473 7.59718427437319
136.898971009502 -8.13543727814316 26.7784932774436
-216.395448358727 35.8693763641193 6.6524935303569
-87.779281409268 18.0075546833861 -5.59214682134674
-15.8600843250499 -0.999409216961395 -4.29948941356569
169.763214838287 -23.9057823245371 12.7772470439819
248.326529037812 -42.2098167823328 -19.2332115517752
-194.52756777784 6.01782306518399 -28.1029462026214
153.583187363881 -1.89836118992257 27.3941263879421
120.232965808385 19.7224739579386 6.62961756497214
222.52809720891 33.2315335551317 8.36897670277295
201.738545209107 28.1764629697779 12.1218956104817
-188.247425772935 14.0898846585702 -27.1251443278989
91.297349281009 16.4707900456955 23.2465461781477
-77.3959389319672 -6.18511629260167 11.1759477215414
220.459708370305 29.1699530909875 21.0367826678535
246.663592758548 -22.1738130823228 15.7562258060251
110.589795241813 -16.1529048374875 22.6427713123796
-183.676116720562 -18.3737219488127 -30.4020861878627
214.433370651844 -42.4696672194463 -33.0884969256602
147.658542125631 -13.2091147965986 25.0104561918088
-7.24922110944756 -6.330712389365 6.7858708374106
58.0167111757593 -12.6457671555881 14.3469495024111
-206.327942199656 40.2569870626068 1.14045015698748
219.521359130238 5.23068993306382 -28.5949742124477
228.952420922831 20.8170848705786 23.2647751836119
47.3192332953268 1.96011034747595 28.9076892686318
-216.012206091762 -24.5593548880434 16.5835251569895
245.638760290605 -27.719805547911 13.1941297384266
48.025419114161 6.28499564294092 -4.11172914382139
148.703593736869 2.05618666151026 27.9457268037345
-123.921302621517 -6.74648633710243 5.61238544379853
226.552481024831 -15.3081962597159 -32.0903507437622
-244.235955744772 -52.0538065296131 -9.05181342934964
228.025690236177 12.5287823074922 -37.8890142506758
228.459729818064 -46.0448787669424 -22.4864524151358
159.510427030066 -22.5632754565431 14.2472902304276
0.700377582619767 23.0245946520328 15.4501783490647
-189.625347012195 -9.80806242038471 8.20631156272877
-246.164382395391 16.5341525516516 -11.7622496362389
-69.6420786971519 25.2870300389072 7.46410296141251
-209.082450954824 1.38569511780725 -23.1712355007264
200.430693625128 -28.1203600476869 15.188885886074
88.9455916944794 -6.16795777123644 2.55551665763665
-218.862692855145 -39.1204387369342 19.7868016376956
163.269212853215 -12.7384066446397 -1.78831800177068
237.102087509454 35.5525037990244 -32.7756532058278
-84.5601989959546 12.3795760401415 22.5071262341335
112.790777278818 19.8367555686183 15.0965204157943
96.3751127367223 -13.3536079117288 9.45297926784598
81.2081852281359 16.6705781285181 4.32097641993879
-217.849980111242 -1.76674873769065 -16.4436969103892
-176.042065775613 -10.7746931943262 5.94350479933411
238.029115338278 0.723507855799369 -9.62237620627854
199.037493631525 -26.4721501087996 16.5943122513223
223.635940235306 8.07538856775732 -35.8021068885068
-254.421373235619 -50.8632269173501 -1.11869278727457
-121.539678178212 23.262020145223 -8.23649632744111
227.720430383873 4.40775952771375 -18.4054032133838
160.108018314336 3.96894674861935 27.2439740703004
-43.4720829649072 5.1099303778759 -6.57360948498773
-226.477295186003 -21.9082449113755 -16.853535540538
-239.184047009748 36.4656828742299 -2.64117674975839
216.37255269288 -45.2633711613429 -30.173107569407
233.60168458474 3.28831790119254 -14.4297092758345
-131.528514657724 16.8140987799812 14.5654764368536
124.173492398135 -1.99763587101965 28.1450141832052
-238.877468242046 13.6740952226331 11.202252625161
-129.114350401835 16.3528727182673 15.1490740690807
-249.437156784346 -32.4030388418393 -19.4312572716124
219.530974011759 40.1517499887299 -14.7234249364122
-215.575189821002 2.64148554506927 -25.1189581195564
224.374308034314 34.1136805170999 -37.4422056920657
177.294162499474 -23.4661911155604 2.12849611856257
-220.171766819801 -16.3424200222913 19.6200208154381
209.032366261324 16.5178016449617 -36.6906967498213
248.311506100662 -21.1939078483562 12.1235321201913
-238.27877783666 -6.05870499765742 22.0883439582683
209.544622016369 -44.9019213546318 -14.2948920970066
234.654061691894 9.45905439811341 12.3034615205022
215.107704983288 -23.3927254920065 -34.7126050852359
96.1072263241707 6.00548463787818 28.921605414095
184.307334158489 -23.5051398698579 -5.77731574126811
2.510312990934 0.854719800482383 27.8141703186789
-55.3813768933861 -3.59850460116688 2.41968256204407
-244.661308646826 -53.1156608389327 1.1890689704718
-6.66185641570132 14.1571147933909 26.1943476160675
-190.535371992623 -1.500420183512 11.0865950904354
-221.818733806447 -13.1740598354011 19.4897341883192
37.3427231197111 -7.9991803110695 7.76995778127119
98.8959321475459 12.9725534354767 26.4269967100728
-214.830513599095 -23.192361352539 -9.0359098054918
234.630566652957 12.209013109865 13.7936726426994
-220.701877853013 8.0907257844356 15.3501073587155
105.789470729901 -13.3675501638361 24.9982004510124
61.6962314046481 19.3303969027274 10.4965761304766
111.332409565491 7.08853571742894 -4.44859380403768
-45.3465227817017 9.21369074924108 26.442212268353
-203.814330849974 1.86167158509815 11.4976978498207
128.588818438464 -19.1038648494895 18.9405511129434
218.253079701713 20.1473105274717 26.7155060581695
126.785470683597 19.5995174974709 17.2633470299748
47.1999661437535 -12.5540183521172 17.6170860523249
69.7707912935607 -5.57170227961996 27.9299802442126
-97.2053050215224 10.7769250688954 -11.2151208960977
-242.901043476314 32.7868602459024 -9.56455558942069
233.430677236503 31.8456655032333 14.2579291387728
223.316100149355 -48.0465819415872 -18.8598764815824
237.968642494002 3.09033855970379 4.85825098288551
-105.706025275304 -0.208034753996387 -6.32929570500656
212.2398481952 -47.1218510952089 0.425441054240736
96.7334564844061 0.258431589506259 28.9329487916961
182.484269343851 -26.5833627635307 9.08212201145031
238.563444505948 -3.60510175290699 -7.99028816766982
4.16699737611805 16.0376758211676 4.83762978230921
-259.118388448066 -31.4023525509027 -11.7816978354201
-242.424901456598 -10.4398106684651 -7.14005645839443
-174.902815713329 -1.89934073697855 -25.5757503685452
-173.94410033698 -10.1389375819925 4.54888071778628
-229.922158265548 -25.5357038161451 -20.5103804220843
195.015751019675 -30.7638051509532 7.39041729723352
-123.974259596944 16.3300435103321 16.025831419357
174.776656796121 23.1096214800215 4.0317816841723
161.068924505578 -21.8584710935848 7.49587071223185
206.574508611968 -17.3851740207184 24.3342852729867
-116.791435571322 1.85333155097909 -10.9457824912823
243.294177548509 26.6584011900537 -22.8878324844438
49.3957320039268 -9.38234760264947 9.00692370915053
57.1243270842285 8.30816567429722 28.320175390651
-131.341991448865 6.11538419656057 -14.7811542680023
-210.022260489208 4.20163754338042 12.5928418684874
206.350627140839 34.1949677449246 -4.82679871681277
170.66048146654 9.12571850364731 26.4334239125495
98.3469040123169 18.1696262361305 5.07009234089797
-198.296982320073 -18.0583844623144 -2.29209650647088
-219.750661969568 17.8993069067801 15.5482326605988
-101.142736815921 0.310693014580706 -6.43008850365945
206.781054725113 5.39959290658515 -19.4137355278761
-232.441410885292 -8.11343618727329 22.9672531134484
180.468069583856 23.2189564792437 -2.94889872267744
-205.774855275149 -5.92766301419098 -21.1085622767455
141.878742025149 -12.4652572741935 25.3973063197943
-182.582139604815 -13.0781391715926 -7.84067734337014
-236.935617612656 -37.7630449844736 -20.8563636954271
119.611339395044 -13.8368415803474 6.58951223053184
-71.4550357075172 6.46010180689991 23.6233042060707
139.109356541829 5.95080890868156 -7.54232690630114
96.5457493244562 16.9079669284104 22.6094051059958
242.123529016484 25.1004014872253 7.26250379545158
-234.38907244404 -53.0732002009456 -2.78952471555261
233.872218526839 33.9703363739509 -6.33530074500293
-168.795513998625 10.7029012245796 8.94996873586516
-209.876193823946 -22.6660196271293 8.1205664784349
-178.445196488533 -11.3630464149887 5.69001525856826
-233.976648668505 15.3093016794587 -13.299528749654
-213.644205054556 41.054822232526 -15.9851623729883
-232.827307659742 40.5289950815799 -5.15550886599721
-183.612139730174 27.4988909426526 -19.291840726121
202.166441110924 14.9402796768596 -25.4214280954139
-100.117735032094 14.1438000075085 20.2804291678595
-211.778996439183 4.67751672216517 12.8712217882413
-204.424870304419 -4.10557973017058 12.0081588596445
212.002515213733 -39.0604598159132 -31.2357346697984
-210.116077698705 5.39291131546842 -29.4623992296856
-23.2196853702714 3.39340915926888 27.3322985671306
238.351416249954 10.1433566173479 -21.4864372950767
238.133003989195 -23.1015304909233 -33.2309613128608
250.665348039603 -38.2559896155013 -8.14130216868179
-222.520815934316 -44.0249663360465 -11.8734761882386
-237.430059600164 20.372000745872 12.4383634011983
-193.882675185876 35.2380506945258 -3.85794477013532
-228.710859591636 -48.8061210785878 20.3830672740282
180.859538093196 12.9891693687335 25.6792880771891
10.6245192891873 20.921461902409 20.7067438693377
-41.5321935298909 -0.517542925448011 -3.36988039948418
-252.333536910491 -52.0332428356975 1.24652545525896
222.083966207014 32.3632169271825 -32.2401920104719
-213.562767301606 8.37402302927803 -31.1392410741178
-217.500217366073 -43.9144628087045 13.4090239431667
-3.99117042954003 16.6301315638879 25.0116852258605
-260.783493857213 -17.2735700359767 11.317701026883
-11.8728231130464 0.468240133937546 -4.86484795970591
-247.141238398837 -54.8141696191287 4.63843570376213
-128.335066779399 -6.75885100446844 2.47063820755513
-104.325762030668 8.73926736851962 19.163845046169
225.281550456214 -15.8523192974407 -18.806505434608
241.581421883478 29.9089073094152 4.71174494751127
-111.951248228709 13.2213368469404 18.516212878139
-217.202757244519 -23.5744665445236 18.8889826923365
-221.822585887562 38.1147440235931 1.49873603948663
-227.868193346158 -22.7718863605755 -18.2121099338845
-264.577866415586 -31.0723984262403 1.31057430181214
42.2491524385323 -2.76034480435808 28.1937046687675
109.811295338219 19.7566924139746 8.90953331481582
216.550411189334 29.2400442300729 -34.6588099385157
63.5259524391483 -4.08154868267735 -0.916044154208951
-217.430200988827 39.0801177063557 -18.7389703419983
246.597029290559 -34.6274873859555 4.9011401319875
-193.037687527947 -6.1129876599385 10.6139543650247
-202.831543628037 -0.572900913434306 -27.7499301116936
241.407495471932 -6.30059462666356 -4.80588134725183
213.391315675441 -1.37150098029502 -20.6015176832673
104.17317273886 -7.00852743515793 2.21982468083354
211.810496685368 -2.96252971266446 -19.8278256657756
-239.876903897857 -5.60390086597072 21.2822779950205
54.5517361232473 3.35323896007399 29.0309633361031
242.29028523424 -40.5407750097697 -5.34447991352503
-235.85457097759 3.82003465446962 -6.92687785555193
-27.3222684984813 17.2030465108457 3.68725958335182
225.97963134516 16.6012011560494 -40.5477485269251
-183.537242426634 -15.145224023538 -31.4200195033571
221.021238585678 -49.3677055671071 -2.27052673381556
248.745508942485 -28.1872092559057 -23.653389199748
-214.550777069573 -35.462056341741 8.92800801080266
65.7978899526145 -5.2019421879119 2.78319436517935
236.186154069924 6.73319551958687 -22.3188642766009
-216.772463233774 -26.5232214398429 -7.36269332404653
212.956504540382 -17.2069008340406 -27.0058044926733
-221.507551308992 27.1907386323151 9.82938771795998
240.658540682807 28.9704257423846 8.113180664036
214.969769699156 28.5584878139176 -38.1817518012025
-226.045060268336 7.46969909897141 -25.8768436267197
174.222498119118 -0.0855328222328844 25.8746715353644
-246.482703026212 -54.697938744687 1.14247525278775
-220.311975894326 37.8764349019692 2.68246128596588
219.513504237513 -6.72844167378231 -17.200125560825
-261.286464571962 -42.713901849125 7.92518223655544
161.820765422308 -20.6735555218149 19.4450504323864
212.378486518784 -48.288575521961 -6.59621896133364
182.78148779575 -24.2276829479705 -2.6699204670238
72.3858962294976 19.009286610256 9.51389307089555
141.937078431644 -19.4223808710588 19.7658833399307
19.8616281288586 9.72174326205881 -0.378837525892358
-50.579967867664 18.6176349476294 22.7541072556407
125.402525039932 3.76189079710961 -6.14853656403035
-210.534015023248 -11.7589868132969 -15.4028296753434
-236.073463833052 -13.1244904005227 -15.0770620820301
-215.552034142061 -40.0088048906818 13.4274915841677
230.198853709594 -16.0697848930595 -29.5291311497579
-166.986331127312 -8.20771385034111 4.70307007936151
-94.615295527774 10.5306894820339 -11.0119783508852
-195.564971697501 -3.11093509029902 10.8228407525995
-224.21446990815 6.85467500019447 -16.5207991509815
208.922673987565 -20.3919997930611 -24.5191703157186
235.082520361487 33.4092369335663 -5.40393581296575
-244.795954544036 23.6286049351979 -1.55873596408548
-212.323635565329 -7.63024790293424 -16.9252355885291
-247.186464950154 -53.0296201377244 -1.34392950538178
-128.680794973728 11.3144271474919 -16.8403034425478
99.2766630683732 -3.05765943704314 -2.24357430657583
-181.704324044269 -20.1362468591286 -18.6173137206797
-242.124615105374 -53.81347189224 -5.79493408727529
-165.332501201897 5.53214381934929 9.32547334494942
-254.653028890565 -41.5892288662461 -12.7071131448408
-180.576432383031 -20.3370913526194 -21.336524288195
221.563104197914 38.9411505722187 -18.6797200784634
-212.660467920447 -21.6677222906422 12.9283094216156
225.604826715031 32.5423583009725 -40.6017780430635
198.011939076634 28.9682301037949 -0.374412467764117
102.476554225586 -0.338658602794746 28.8218571240839
246.406242602599 -18.7155726152863 -17.9507950707855
226.489967136122 -48.3829641031217 -5.18357523000949
-173.125883948839 29.5882423812718 -8.85560798772645
172.180406905477 -20.4614734938318 0.36353385712493
-223.705517979798 6.18894917621626 -23.4093681124637
139.37933909945 20.9520463510781 12.8804365164509
-257.455575787143 -14.3435740119262 14.9918921713656
233.678182082445 1.4695875733027 11.638064074587
-218.72052297729 -13.1283967982757 17.174997052193
39.7210681770253 -3.06526900952339 -0.943048424058756
-126.280903203552 0.154610379588922 -11.2281692179756
-218.666639131229 37.7455025833565 2.08068727312234
-228.319035198723 14.3704808028815 -29.5625663601806
-245.655958385507 -53.2035622529718 -0.514265962336145
-247.552810289188 -19.315088690778 26.9260999741417
-194.527322025874 -20.3493125857479 -24.2296120759611
190.521175797425 4.52669654321764 -11.4017017344427
-226.518308982492 -53.5007744542674 0.295006478937135
-172.249703907695 28.8780798557689 -11.8731222018466
-258.3104364941 -12.2530567813515 2.16669703744343
107.957558727488 9.75996401838602 28.0126759788253
-55.5740406747318 0.980159505281208 -5.33471576749951
-176.57084904217 -12.3769251564258 -14.9465158547921
160.264764186638 15.9650976394727 24.5732719541366
15.565646718785 1.07843916938589 -5.12559113914403
-239.853816411321 6.04431583723422 2.92143151671037
140.574264098475 1.82211494837953 28.2712325822266
-192.177531566566 -14.1050764097166 1.18247808398803
-133.459987772882 27.1715718138167 -0.275777502463985
-19.3122673141316 0.774438240712455 -4.81101856786241
87.4805404789161 -10.0815648975785 6.65234114939822
163.127225591058 17.6443514185128 23.2818554475718
-69.9813576106136 4.03966896741301 -7.48593544232105
-101.925040719081 22.3375298398904 15.5708676537958
206.274207783556 6.98414032248083 -22.5025817740428
247.413286839379 -32.8016638223238 6.6822183432772
-104.211221648378 -4.86026785411679 10.9226811434312
-169.99903560426 -9.72141766598658 -11.1427192678167
179.113584118504 -13.2388979578906 -5.13275751666581
-45.3023262650654 2.19983518852416 -5.27570301754176
-226.080225976458 18.3938311097191 18.4777802625088
-200.278171911348 -19.4094964598583 -2.03466120572478
149.769801279336 -1.50819348613947 -5.0945402750274
234.553760300056 5.9190806096842 -23.5152400258905
208.730191749292 -23.0527153851816 -24.9697651129022
239.942320075123 17.0890922769008 7.15546645512235
200.814258703535 -23.7039373892481 -16.3697741295557
-241.708693087123 16.0714285258369 -1.99628763035439
-76.7509772862076 25.6485275209077 6.97943352568123
182.524723224908 -11.353991673277 -5.70249547393454
-176.794992680965 -7.21388871133441 9.08680445257236
-254.768286224873 -15.330680234261 19.6860976021924
-147.454418945525 15.8166478449637 12.1332818338806
-20.6138546501427 21.0989137074737 7.84155352503505
-237.376507805961 -8.08392737938307 23.1115377015599
-211.932806910287 -25.8464744746159 6.63603706174624
232.61787130338 -45.5916887875871 -10.7255650856138
114.799840936882 17.4126444947076 1.46567740807734
-5.80892094545236 10.6108503539601 27.2963236397461
-205.049788621808 21.2231978135388 -28.6628745387222
193.438799074496 -5.42591621756814 24.0952497658434
198.297975672525 -18.1833361132645 22.965177995572
36.2357747595597 19.3080104253074 21.4735590804707
-241.628672313338 -14.0614844490186 -14.0887903502849
32.6089276616376 0.615457102470294 -4.4456290533509
243.560864192853 31.8017822304337 -7.98767977274648
218.626952350437 -21.3144563102964 24.5276012533722
57.3397576940178 16.8005001145999 5.58527534462202
163.971149630707 20.6671306186909 18.7344606400274
-148.359077771772 24.9114852188322 -12.372905470674
-55.5346141379071 21.7624860273346 4.02744001094288
-248.755956052892 13.5148475103886 -16.0112124488729
-232.12995900841 -34.4510070951517 30.0715820575844
-203.895217332174 -18.945291821785 -11.7124457776893
207.864578404385 -0.775663598798471 -18.2289872830525
61.5806882463393 -13.1582338387683 15.1280119676372
230.019148354044 -24.4456370691633 20.8707442094106
221.305045988974 -25.7285391332804 21.6510811387586
160.078892410092 -14.9411432515467 0.304854172039437
-185.012589084068 12.3910302838075 7.31084965751061
47.8509784077516 2.93532927972208 -5.46907616643648
-175.157715756707 -9.7992030719248 -26.6958641982981
-224.824900489996 -38.3735561598563 -16.8317471047283
220.179269641806 31.3577317563404 -37.1149039501159
210.326603763374 -46.7384087224097 -0.881383232862167
-247.739311416395 24.1219363275641 -16.0079875739688
241.940365618943 32.9721555870206 -25.354943087347
195.609563916502 -19.2996436963073 21.9108141773855
-200.204195954746 -0.895203020720789 11.6345238330521
-238.250057400829 2.07038306631956 15.7690834077495
235.128161263049 24.5335929662397 19.033308546647
230.452939277072 2.16860905326784 -14.0018444934402
25.7776322084757 12.4620697198592 2.32290804968778
60.6961845846921 -5.14182161192556 3.12882454700345
60.335139791649 1.79547284012738 29.0768513531904
-243.866958028155 -6.06011124986172 0.234720459131054
-245.239811326341 -30.5551710380641 -20.9727517989333
-249.706590606087 -26.0083071130301 -19.1044334668074
242.735978506215 -17.0366547575137 -20.521169339347
-134.016083621643 15.0070707494796 14.73713538805
232.466116224542 -4.75945790187157 17.162391385419
209.696518110314 25.9100773941321 23.1831000570937
-50.7115969368217 4.69284253449702 -6.70690224762124
251.1171430451 -38.5592342551833 -17.7788996413234
203.092852607456 -18.1436882257557 23.7236108810119
81.7115270083269 15.9413436761865 24.0864225518818
-231.447991553237 17.5705590740572 -29.3881339777347
-227.89629352009 14.1560893346449 -14.1267188985901
-158.281430186841 10.8438472388748 10.6828627469108
-224.26524865691 -33.5412965924112 26.6862478810116
56.2419561302897 -12.7293048434159 21.5186135208648
-227.480871574414 -48.9551136603315 -10.6484428582799
-111.627662663753 9.74947472395917 -13.7982820280908
-157.285473980144 18.9256679663182 9.85001344668042
29.4495501295647 11.9793866964507 1.84003209283558
-113.636026361539 -6.43809272117788 6.40563151431332
32.4516535125891 5.27187724436743 -5.46111643342611
175.364791737855 7.38854849645293 25.9867907451833
-232.544861405365 -52.7683444583331 -8.8592749131214
-165.217366662966 25.3174543734838 -16.6759997567538
-64.8808592290532 25.6129532152686 10.0731378963662
-39.7258617321915 8.63649111721327 -4.3789035025218
-79.196563819804 15.8219890042507 22.377953860618
184.69628116784 17.7480418087536 -16.5801432752784
-241.334818119138 -46.3957762170798 24.8705019657639
-238.902256112476 -16.0683159946009 26.9590808024008
-153.851293760075 2.8414035774758 9.85717934518582
-230.061091989382 39.7050625831319 -12.4135459742131
233.351017485268 -1.88735718668201 -9.39382376571409
105.751117170214 11.9103868744223 27.0196120451503
-243.900243784716 -17.363077812324 -16.5471316929661
240.878689091094 28.7267191226431 5.91644354825198
-202.1667718807 14.5090037858742 9.06778187238747
168.525433657081 9.01159729245868 -10.296500126368
-197.438498712005 -19.6518113533534 -10.407173769217
11.2247825419546 3.96351344501598 28.5531371945141
-228.000442214192 14.1082493377219 -17.2280178892039
-59.0886038486599 20.3475120487195 20.8557561631756
246.959921430191 -12.5046978897415 -1.62691319235949
-186.842989918284 -22.3356290553083 -25.8482282875728
146.450957474673 13.5341360001889 -6.3565129499221
223.828370260739 -2.71568693449097 -14.9165675531086
-182.598220266064 -14.7214601404615 -12.7021522184661
186.031412545284 -13.6182129045471 24.1172062952902
167.146666752642 -5.9951772145655 -4.63648793951294
76.9959603137835 3.14824792645617 29.1140029322592
230.304119778836 -34.7998683584158 11.3459490898431
207.180262689758 28.4210966501273 -32.735575346642
-263.914980505123 -36.3285922238838 1.38109559655363
177.062706060072 19.4162913145344 -10.6043699703688
-149.147369257693 22.7893807270198 -15.6626808104828
-219.997758671204 32.285899637771 11.5659889956715
-16.3622112602159 1.60944270139745 27.1429196660624
-224.217408676436 7.10535596403932 -27.8636539874616
242.970560172752 17.6202379918506 -6.55027506824027
-225.082890519784 -29.7306027456657 -18.8139252148586
88.7521858233721 -14.3425349985432 23.3749624661018
114.370121441753 7.69456348928952 -4.58710591002307
62.0334963344248 -3.86645840833554 28.2280596707817
-16.6396462382144 11.8859608206009 0.180252930454131
-190.405465606882 8.24797690054106 -27.9695934006507
242.969910712077 -43.1852776915818 -17.9986731368745
-11.4530064382148 -2.12038013922164 -0.998786859811609
-222.637796328542 5.5098878483628 -24.7924015218934
-80.6632816901953 22.7695838728005 0.479397799297491
215.936407280172 0.15212139900306 19.1290272423021
166.222560295238 11.7904627124665 -10.5190908766621
32.0465352755717 6.94623119867591 -2.94384819888019
110.591501546349 14.5065990527947 25.1379886774119
-31.0372895922851 -7.63312492064524 11.6917981424972
2.30776418954468 22.1854627664373 12.3303732643277
-221.25011724017 38.9031917463777 1.45167744845763
241.27582617293 -5.18448074653773 2.57159329692702
176.373438362293 -17.1118317162148 -3.81685938887668
206.136994868352 27.548798809324 17.9197814885019
-230.974672627703 20.0987371296027 18.2199471055831
150.355945562677 -15.6512186980111 3.07124204898217
247.554814320782 -36.9107685492721 -0.222668288014125
-124.891441819246 12.1622116194982 -15.5631857865565
248.653355562018 -24.0867549118952 -21.1210305860713
-114.349064358792 20.1703085873755 15.6042592877149
134.132767283021 -15.9221893054984 6.21960578361062
159.968463840518 -9.18342081322595 -2.57874734041614
-248.067210370759 -14.5725554980783 23.9689762712501
-217.631571122119 -17.4385220059503 17.5068024414508
-211.113040214292 10.6103939795178 -30.9266466838476
205.873156316724 6.65443401502507 -20.4924960074371
-214.726380038506 34.2229827548013 7.52526741821702
38.2748235742881 -11.775179415 15.3397224069134
-255.826713273617 -11.3771009835523 13.489281868329
238.889601041602 32.5454209760325 -32.5328487463042
-63.7199938528328 0.21371824316757 21.3009021984912
236.835576283174 33.0604163452942 -34.8793352169011
247.105475244484 -41.0439784446581 -13.5251748841227
119.298911457784 -11.5586286780575 25.8884017111564
-154.293796904802 10.5844359664719 -20.5132583420516
66.5326601856614 7.40929447861322 28.5123294643158
193.8383302659 26.4588713626768 9.15911503908512
-172.305776579779 -4.00156014741731 -24.4052931977514
-224.154255375121 11.4838427621197 18.0009270767305
115.051870174596 -0.469847711675421 28.5713069094065
-226.974235749118 23.416077264691 -28.6742164510689
-142.058650045972 8.38598818091215 -17.519789535803
122.380816095778 -12.4723176262621 25.5081974900781
-244.974363467019 -2.04070858871964 15.160611894093
-77.0704621213143 12.9152606943462 23.4241855669386
-135.919616815136 5.07568262221608 -15.0797700191177
-203.166845473796 12.77036443193 9.92375126101858
208.991626164158 28.6915224845569 17.6485415054869
-227.172298846011 -39.5515938506241 -17.6496771854991
226.705479040514 -34.4602380995824 -39.8210289303737
209.614106994143 33.8380583880312 -0.129618309959206
-138.728144108581 -0.111565428174198 -13.0121273674526
204.7595019382 -17.2655517820127 -16.097872943456
-37.3958600678779 -1.30877209197093 -2.36217539460294
-12.7138318568513 4.73716945612179 -5.17518953812209
84.3065964905861 -10.3506199203821 26.3062688189338
228.199753252173 6.11408840507092 -23.1606817222661
-141.825964191756 -1.45453977589711 8.62719304932024
-229.983392441322 14.0834198672267 16.8625134354123
137.260958233349 -5.088898362893 -2.23850762790793
-207.944044499806 13.9095848355331 -30.0923458542092
204.310185854612 -7.3789528303053 -13.7325744103717
-150.347463707189 12.6087364669702 -20.2777192249077
82.4735186131793 11.8245377413701 -0.171204644776259
-214.908582470179 -40.614746833175 11.0812509046
179.301106350248 -21.2453481506001 -4.28316860517734
-219.552839115104 20.4336731491224 13.2456512274747
-237.364488078982 -21.6080881504374 -20.1881901933473
-156.895162759828 24.6099326452097 6.3521753130452
-115.120558580304 16.0979831653629 -12.7728714287706
-210.460979633749 1.9137952162471 12.7580151862587
-130.786241164529 20.1423942963739 12.9626610073065
184.776200953968 -10.6460331782849 -6.44570280124613
-186.319263795824 20.1301477356673 6.83577071395709
227.58020243128 -37.9536776348989 -39.6443618449173
-212.108227861722 7.14688210449375 13.4972226966763
225.559772526124 28.1359138693001 25.2484954786486
-214.097085208034 -31.5856659179325 5.09104745257953
-87.3981268939275 9.57534797355486 -10.0659011937416
225.715099578947 -16.9808976154773 -20.9021447317119
-34.9155308833719 -5.62917623283274 19.9271877126397
-257.849106088059 -12.6420461697267 11.3172689089332
-87.9871316939129 -5.61450806821805 11.3275555002135
-233.494384924908 31.6925221520776 -22.276942357234
237.137976121836 24.3833197701141 16.7100978754448
245.331219860222 -37.6777357437181 -1.22902932865541
-252.536846168366 -29.4541650056906 -17.9885895019457
187.975110061006 22.8195414936043 -15.088703701305
-241.353207646427 16.686019768618 5.92720804635498
-11.1182164416102 8.49204609823904 27.7138484757975
241.935495229392 15.4038909300097 -11.7057703052396
-178.9032635824 -11.1503652402786 2.33916415903121
-177.533474823625 -0.679317681322602 -26.5809322354116
219.963522928686 4.70432469506813 -26.3347942861132
237.797278608944 2.14136793046232 -9.62108400337924
-26.6009361536864 -4.81192417795929 3.88365091819069
-37.1398850251435 14.1979207482639 0.312192109356442
230.185832197076 -38.4235917129367 -38.8214795116947
-223.501252441449 -13.7153706659784 -14.3115913003293
-96.598760332651 5.73508136064767 19.2263700056909
146.678006404989 -0.450832553256779 27.8997882767049
-47.5896075243802 21.6562355068392 4.86784113587018
51.2361016925556 -2.99877899256265 -2.94139238780756
22.5948662974885 20.4951273317028 10.6618238566871
246.029871480691 -16.9848998563601 -15.3616825786327
-210.364122077661 -24.1708434769873 6.39899685607215
152.210203993326 -13.1934618613816 0.94232348399462
-185.413796368695 -12.3138259460027 -3.27764074538144
-92.5576047852284 17.8087057785684 20.0585018025155
-49.4348270573964 0.802208228025946 -4.78816991713933
217.999233715525 -5.70470699925379 22.6511238874015
-243.715223574113 -12.7417737436149 24.1466586277329
230.760388464823 -10.8856840025595 23.738709722807
-238.404475474855 -13.9286167443098 25.755490466547
-20.527433363458 -2.24857504892785 -1.79171613391196
-243.980283105029 -32.5295954669884 -20.9345898211121
228.548413441874 -12.2552299543195 25.4555410523169
-217.610026170965 -4.57856847737419 15.3479847685563
-35.3265896207244 8.36641795415011 -4.23956820961742
-59.2398479370481 10.4721556601648 -5.34664300397248
224.113676505732 -48.2164848640197 -14.0838206412895
75.9112355367442 7.51782601343527 -2.88295031207189
-215.593739925352 -43.9674836802215 3.137160486646
-162.414576594623 -6.0537483770872 -14.7308641446317
240.850415606158 14.8169724213505 4.25119977190538
-51.1932257980981 9.12597763725974 -5.1117990891175
-221.259868541532 1.76175466550533 -15.8733029950155
109.087110618352 -10.9655962936923 5.21184608214543
-208.726691686899 -16.8270713861382 11.9771648818127
76.3978866020495 -3.96448022207333 -0.190528145135671
83.4354576511382 7.72696815031275 -2.80639401622728
221.023689346993 -48.3797755047307 -19.7425141810865
73.7133231966396 16.7866849460603 4.96061813683561
234.173081223892 -3.54720124986259 14.6508382062439
-232.378680139448 38.9320452991116 -10.5673251575274
97.0759504372054 19.2861198222143 8.82466703200097
-151.485766845816 27.0929276226848 0.566808432094831
-177.694590289397 20.598251781115 -23.9540620506083
226.487027905065 -46.8761652640182 -10.1469378159196
3.14354775837437 -6.92476974908429 22.8934715691687
240.135950122672 31.7652371258199 -30.6343952571361
216.747714157507 -44.8795001710977 -25.8067883622725
-230.231334579487 14.9694286209661 -15.0361973946266
240.357477067251 -23.2303030166781 -31.0480704005744
-217.749428570785 17.2257919842979 14.6585903810362
-249.56133977269 -3.5693912717312 4.31868827996467
-77.6204305457154 -3.94076782327134 15.3791082540418
177.471180841305 -13.8009428005294 24.4210946545162
-156.945651543153 13.1855742437664 -21.9076989113125
150.232616431161 1.8682001752945 -6.65397952361266
219.649379426205 -50.2126619645104 -5.37488297248635
249.330720917755 -35.0326427647598 -22.6050710869239
-31.2855251849328 -6.75882052860965 8.54872985559569
208.287911068022 5.28089193254803 -23.8399157804262
-263.437111460579 -21.8154375622903 6.2428293685631
-124.546421518467 11.597313894587 16.7768065252599
23.0638098342728 -9.95746474777353 21.1871400211179
243.449496395834 -16.3226804190254 -15.2918078561197
-108.22576533563 0.68026191603742 -7.82821617372804
-187.043647698075 -6.80884630133547 10.8514124755151
89.9644910679275 1.08803862321811 29.0015904810014
-253.163239155197 -5.49081523458403 7.15791294278266
243.105116798014 -43.3647318910088 -30.4636000174497
76.3287376356941 -5.02882698018665 28.0431406547598
-261.853690997844 -20.2855518578178 11.7966193467246
182.535914280651 21.1053499611651 21.0245882072143
-126.402305636102 21.0210040241543 13.2204241326153
-201.072682873825 17.7506332871112 -28.9397078365551
16.3312917140955 -2.50213680452002 -0.422671146196
-45.5061533804852 -4.51558197594613 3.68978837730658
-7.76625781646843 18.1476910120519 6.07065275849727
204.687281870131 30.7252019846451 6.07328516963344
-213.933044871797 8.14728450613421 14.3145949941603
-32.5816611391289 22.8594473097492 18.7876014315744
46.3813410935498 20.1340715447737 17.9492009834053
206.654893556438 -5.85798727507773 22.6675910767446
215.640778741228 37.2417897159092 -6.98818405086978
-200.820374259609 -19.5476109780128 0.127528601067354
5.69347367521714 -9.73023832012534 14.3918933870426
218.07408019494 0.32823848553326 -20.1564860712415
220.52624371733 33.5254020390819 5.65917873570665
235.71501276442 0.109073574999439 -10.4098073207525
83.8078477916063 9.63422425150495 -1.60732486585716
238.540351476954 37.6170188998905 -27.2861239075556
-218.86771645081 -43.6446824660549 16.3656261819267
201.07926191912 32.4137160298983 -9.53751676492516
249.36406450485 -38.2471982412006 -22.3433496220012
-228.880058132147 10.844815097337 -10.1079283660667
236.499936899995 -6.62973619783455 -8.01248350069594
234.569993376689 -13.081491449811 -12.2156495048359
178.195249586165 -7.1246331309948 25.7395328928538
-31.218672996425 19.7769027456755 22.4594486292286
197.653191320757 25.3218548089529 -19.6931645211089
233.937737528986 -46.5225653020043 -31.9016199332132
-97.4616876258372 2.5890004379066 -8.9338482954096
-242.451101059414 19.1103554929657 -1.6487602510659
204.358699455501 -11.3153885611403 -12.4766891396849
-204.463322293872 29.651842567909 5.30979937098297
213.3969985816 5.13959718792244 -31.4419657668315
23.6402411096408 -0.7953930806698 28.1912604256845
170.215342180104 18.3335406309535 -8.65146611297872
228.780105722126 -13.6330116546207 -14.9750236751315
1.56777169597038 9.47363856426536 27.7447117551424
-146.976689444206 8.40288351557806 12.3319048760854
56.451205342088 14.4024215355897 3.10905399612987
135.260482916487 -18.2537540046813 21.2500243551662
-18.673824840148 -2.41732317240473 -2.37720072862312
-227.402662186293 -54.1430094443146 3.02660315302469
5.99628440507052 3.81614821925241 28.4451167092762
-208.133034491759 20.6939293493501 8.9324951057782
162.422259184836 19.0425112055562 -3.89953522801139
-189.976004340155 25.4507530426874 -23.1265313149458
211.567729844793 39.2454159756286 -12.6687469325934
-196.057664178624 -19.2108396920833 -22.4001651624377
-187.03678885075 -12.4427673760679 -1.71686369969825
-221.768262651106 40.4575137799645 -0.2919107552822
-69.6601069157766 10.1140455307125 -7.15622445482347
-222.328695385156 -32.8387145786111 -12.1299055419147
227.151921764565 -41.4423601159761 5.61470653943351
251.487814225385 -38.6292993779471 -13.3255525314143
-143.412862461863 14.2858559604588 13.1358665548178
-139.561081253392 9.61432158247657 14.1054912794188
-196.358308976478 -19.7632498159817 -16.5330049140564
-84.9321902860874 19.4689927095586 -3.25642828451561
-108.352377373497 2.00235120806882 -9.53936250628371
-140.994330297796 4.32126577626136 -15.8266736551515
123.862260741094 -18.2085473796662 20.2801456832197
-223.325010005015 9.77237543066848 -30.6118673948225
-245.691330904587 23.8933623612381 -18.473348613911
78.5877000576921 15.5198434452841 3.10951533275152
-181.853441115587 -11.5918194857577 -2.6058697054721
-233.378338796241 -55.7717357689543 9.48327775287264
233.594190259461 3.71069175352612 11.6585459923326
-248.6276347498 25.6436504664864 -8.67780111642044
209.906848777045 -18.4049136934979 -28.4612804733607
-254.90890107798 -19.6270992364062 -13.894774708223
-176.496817349545 -10.8638034101539 0.0930269843798735
-232.861996400503 -14.4402561460904 25.7875277966193
-14.9237200342853 -7.46063094811916 9.74401219581102
147.724029577347 -2.98501389576891 -4.19404689803726
76.3388006315885 16.5858047153528 4.39517627857693
200.557495971418 -17.60521612313 -13.2884538290118
156.843851228305 21.1032162779163 3.91020847067656
-193.804067647491 -13.4071733706135 -29.0014126713839
59.8342708316192 -7.6051818495125 6.06720689978252
-121.007116673481 24.2592049347361 10.4905601098279
-10.4830821878734 -5.87977739929224 22.6693360985638
-131.542674965627 -4.22080193646215 -5.01028331058427
-216.355641764135 -36.6579732382478 17.2353245219055
-212.800918767716 18.0679305341837 -30.8123793233377
211.569154790046 19.0743666811779 -39.234182453299
-200.534708252418 31.6694418589403 4.06184713067969
-236.037721565711 38.9125583276769 -3.96804891716695
203.092525942015 -37.7546163965779 -11.3508198484024
-4.09503862042698 -9.06921231274074 14.723912120912
-241.946711488478 17.5972184300931 -28.0976837221669
-158.936072537914 16.1557767933543 10.252290667966
222.220196131416 -13.976401658811 25.7571391240623
-224.649029707666 26.984336891076 15.0686733202281
-250.075807638093 -29.889262355994 -19.3138337731823
224.291897628562 -4.31340014753646 -13.4678493328633
228.644525941451 32.3720837657009 9.66037958219816
154.545378291048 8.2081984647724 27.4721003707171
22.2287532306076 19.0214481579849 8.23876145435151
220.032903902918 -49.8391593719111 -12.0484832766141
-239.860817250198 -50.6690775432617 2.45882668185273
212.946948594154 28.9533838581918 -35.594628361706
-117.004258712555 10.705483396997 -14.1263529095673
-211.646545785797 30.3910435528087 6.16587583396438
-103.080869444826 -0.0378718475478706 14.6157631483838
232.643832865304 -8.41359880003668 -9.21268982298843
205.493597932977 -26.5797671430154 -20.0076437439877
218.766617792189 -3.28184261076552 21.4723344381914
-183.65531673189 -21.6766501624517 -27.2803933431511
-170.390053956636 -10.0095185596289 -3.64343784632472
242.326633922169 14.1014834388457 -6.43062637602838
-232.27375492181 -17.1642929296223 -17.5071355479884
198.958932349127 -31.7608875958876 -10.7335963732195
252.288851071188 -22.147480471335 -0.418675477097497
195.378713650795 -15.0090715836162 23.8774038044405
-109.133756247266 14.093377562275 -12.3929124774163
-113.89829269603 0.375570022932981 -8.72490237946784
-212.978768096754 44.0904508271082 -5.056976764677
-223.37209289119 29.2772490011931 -25.9982778465193
106.789914731959 19.3701540666393 7.59628231557001
-213.658469410033 -28.6512451807044 9.49424922757186
80.8784173259842 -8.94166132632749 26.8635544074736
185.470584537172 -7.03065195971995 25.0491822365101
-97.3667696934152 26.2582089731608 3.62808966235475
12.9983417251479 7.48790416732476 28.438498014009
-174.696384288962 29.9903055275934 -5.87556203659665
163.264030225414 -7.13938055478088 26.3354659081266
234.019303515858 4.42451313438863 -16.2565964356796
-202.470340959871 -17.3394228354603 6.9759974470312
227.809328505965 -6.46189804977459 -11.3078708229962
-202.149592947644 35.780346992757 3.27967487004586
-239.600219907035 5.64285132754288 0.684356824687721
-240.839702881506 14.7564412138327 -28.0371393575516
-66.2932521281582 -1.14593770587654 19.8221816229587
-243.738468772481 23.0516256822942 8.07664848624737
-251.840697475007 -9.65297468790871 16.5305067641837
-257.861989162178 -36.224828107557 -12.130782692049
233.077460508864 -11.503162417584 -11.5311489910699
-240.749918179864 34.0801402350546 6.27006944266522
176.603363994697 22.3491521125711 -2.73632420627138
237.571667391543 -25.6421679629394 18.7539191213249
-93.6593678111613 6.25605183863418 -10.1010934037373
-244.239560043442 21.1096073888512 -4.07727332770591
-196.416089815314 10.5998214728131 -28.9599024273916
-202.552210641353 -11.9642456392251 10.763010224631
-235.557383651322 14.962277125743 -15.4437797018492
-168.095519992262 21.4966327906413 -21.7707390872114
118.435198338377 1.45761377903633 28.6955225918695
92.3737657872954 -0.792145209251024 -3.07372466813539
118.854985233148 20.188465424578 11.9479124701194
-228.579102470538 -20.2016450025354 -17.4460023998493
206.099449083157 32.3232227995657 1.18782151853701
-223.595056270453 4.50404075446401 -15.5138698827627
114.220614482043 11.8100416990497 -3.1600097698237
-227.967868665722 8.65809294067964 -13.3489874180603
9.66426925405974 9.6796644881569 27.9048041071497
-73.8857626345022 -6.18354198621953 11.8003951100997
228.801586626135 33.2879930496989 3.56788994617095
-76.6616737823723 5.58731374230109 22.4633147156682
14.831740139705 20.8269414628321 10.7416801176064
239.1593765255 -19.1337021929464 21.9602027387126
-202.008618618072 -18.8979441492243 -12.2052337984237
-237.26159544589 34.9681602842858 4.95459484955103
-154.184319771003 27.4945765435993 -6.22644206270012
-219.256546164545 -34.5419525422137 -4.02493553400479
142.103156810116 -15.6863331564992 4.57991492956543
-34.4102613906536 24.1056173728941 15.9779826499039
202.25667275452 -0.664022014188202 -13.4825555777626
129.610724269204 20.1571009353607 6.26423116172743
155.272080367883 -21.7886093154387 9.55275882569199
-218.739648174702 -40.5987893576989 -6.72860702376084
92.471839541435 3.35232599844812 -5.41896666124753
238.947284947908 -17.0620057766985 -24.1674419391839
167.180180847837 21.7855285329696 16.0680701812108
-187.006600503218 -18.9492403483009 -30.805906190744
241.846442880959 -31.2310818276629 11.6760310744023
109.173233831304 -6.09531844723366 1.08524474580317
-255.434344454033 -50.3646561773833 5.29648576197288
234.637297851318 -22.7907116763612 21.5145699564183
50.2696960380972 -11.4071079597316 12.4529249117928
203.863241519084 9.95122249039462 -23.9599484960351
-234.71029222097 -24.9334800883179 -21.3919536859713
-145.717582534274 15.5968207722155 -19.4015235962249
-221.491533312886 -37.7352348633327 -13.6923425066456
160.957706154626 19.7944412674173 -1.61972660134288
-164.228145626682 -8.42851984596614 3.50306950758812
95.8964481147384 18.4679483419379 6.06490370375769
-220.766204407581 -16.2669933581536 -13.4461321283326
14.3529982633141 9.14982888512522 -0.945083263746955
227.395216006972 7.92388102247929 -28.7627702886382
-231.117978239229 14.6969774990541 -28.9040799549159
-234.788138404907 35.5304921755034 6.12635835738449
38.0247175718355 6.34198899023367 -4.1384339585935
206.28690106804 -36.531532797114 8.05806523356156
-198.47351912995 -13.374403029359 -22.5657904324929
223.882936934402 1.70782239224419 19.554491613355
-172.823799934061 -10.5670371927446 -8.97663031994052
-239.265521295841 -53.3687943940334 -5.56168364693572
216.690569006287 -48.1009869112442 -1.08982208180213
196.737227063784 28.4957768796953 -1.73875999688598
-247.952186671643 11.0518153023885 -15.6200963158466
141.916033632024 15.9792971262832 -3.87673352191819
-140.205980665351 -4.69410438516254 -6.20918699371058
-169.165281706663 23.9487880323003 -19.3972847056892
41.6780983923611 -10.78619590869 22.6684337272269
234.534385718978 -34.0517621324551 10.243208880355
228.799652015095 30.3530872062964 20.8569359015191
204.405058939828 -35.7231003826743 7.84623731713313
-217.290434843909 43.7254204544941 -10.012750689751
164.477987778128 3.21244098932652 -8.02266771796514
-226.077560235973 15.5870782637552 19.1212475954291
-215.769327132077 19.9377118082347 12.5212061493409
51.5353610756518 -1.25901222796262 -3.98418693007153
-15.4327388907579 16.3387220091647 25.1184134483271
-132.983449671823 18.8653052512023 13.3121756597069
-182.946670840401 14.8575473354955 7.27596606164502
251.203184896247 -31.7325594266791 -17.7191171296329
73.2625433328915 12.5490752213415 0.963592010825497
-254.327252672032 -39.1205250990448 -14.395646277615
159.704598982025 -22.6520594027503 10.5859003428968
117.962733692122 -5.77557071374731 27.5413814049646
-183.340016055635 30.4515185372839 -0.531507253382656
31.3919686174247 19.8297734888516 9.85735515588094
-122.765568858178 14.0768952058179 16.8504283379289
214.755406541273 30.5776512970089 15.9593961617836
-78.6985609649933 -2.00965373363851 17.1785093097998
219.85336525681 -43.3144234413583 -36.4782767762747
155.369793825959 -0.453973567597227 -5.89481887124327
214.947569908474 38.1864333444243 -20.3001840270579
231.044170321147 8.13229247800815 -31.6838309775816
-172.60337074184 3.07429803703406 9.13464027627106
-89.5680979225847 5.67120426170591 -9.53047608586574
243.414603734303 21.0289477730008 -11.4104586916505
-250.399685826254 -37.8021129383176 26.6244065480568
-198.251363290785 37.156866853378 -6.81274005749599
242.976065409107 17.4808710266525 -0.361238416876416
-153.068883780246 4.88065955131752 11.0119010027798
-207.097473470892 -24.0309600115074 -3.43306078227076
-175.722697000213 -15.07394783202 -21.9581532698699
-24.6844124604502 -2.60417991374089 -2.4932337178604
201.212067096566 1.52596497387294 -13.8777654406552
-141.495657360228 23.8420221101817 -12.3652306351749
-154.332472833555 -2.97393082374756 -15.2078396993801
-22.6985798854176 -3.66520574855077 1.89681839173863
169.399581055005 19.9762798723531 -5.17517469962799
233.681499620045 -19.3865886093789 -32.7729486068771
252.662852403642 -31.4475542923474 2.2817854271163
41.6687604489817 20.6354095644633 15.7565880221854
235.105846279298 35.9937236205875 -16.0340053115855
204.119668487948 -39.7312198530007 -2.59190301050716
207.538385771126 -46.0797654450757 -9.59257975010704
235.832502400682 -43.4713281951152 -4.07963541194587
-236.486878817206 -44.006408306983 -18.0611639966273
-234.640582354705 0.47656622171486 -8.56028858964202
-1.54686111017672 11.3141656979253 0.628144801076928
-212.115929001051 37.0245728616619 -18.8569051605313
197.323369771408 23.4777787985147 21.3615776097531
233.121662746564 -16.4089353190844 -28.0503261357363
238.630318753772 37.6276707310313 -21.9405451793901
-241.269610942421 14.3196396240496 -0.373701000054751
233.315938205625 -46.0490157909316 -4.86956633779169
92.0815399533039 -13.0364644303935 24.8345716736161
232.285994165157 32.4497651276688 6.47743701535881
-101.532413466426 26.4653153439819 2.85827978108387
-124.687333125844 10.1372531170747 -15.8436472927297
197.466565092538 -13.7289992843167 24.0946019812617
201.28200491828 9.90495138946153 -19.5676955727398
179.425956960031 -6.93616606304431 -6.02212327081571
194.312476248331 22.3271068052315 22.0215948919803
-225.489663594617 -53.283616935488 1.9374493729952
222.767247971087 10.4047444389932 -37.5869545274537
199.709205111928 4.27186914887792 -14.483733881224
210.346338404864 -47.7074373079356 -3.03871154054926
56.0675491399752 14.8784175701288 25.5048206261182
155.130859874438 13.3341887050646 26.1185337974662
37.6842681279472 4.06184845988653 -5.60745481146002
-236.924196535864 35.2585420823089 -15.3840231271773
50.087028845565 -4.27620666302008 2.00435619564118
165.867606471809 -22.2487297606892 16.9111754554866
-136.669560095387 11.1567991151073 -18.2093093059859
-247.77373190032 -34.7737882009382 -19.7153087535227
210.68017986078 -43.0562002430807 3.85052625367583
43.6846573624991 0.481663575170118 28.8091380783363
-189.276635988958 -22.5290499572125 -23.0439005367174
20.2020595956453 2.38570741174793 -5.33993773465232
