-170.97824149314 20.7125115749582 -6.20520739459346
52.3709193845822 16.6717812013334 3.26801357954566
164.964561336167 -19.5845682267545 -13.4075661157158
184.281531888216 -31.7989288528672 -8.06415940532052
196.290452814266 31.9464943990729 -11.0860654013117
-201.031555663837 27.8405561251046 6.81820268734872
-137.911078920842 16.3455736549989 13.7349702904862
-176.4333624661 -4.11129337675475 12.5823549228261
37.3343886250097 -10.3253427433858 -9.82772363497882
217.025398795956 -24.7624245784764 -22.2788261424736
-167.78869824254 -4.98147736792584 7.74822511837105
-136.903313320598 -4.81103669190372 -3.88593854143781
177.158351529915 -7.51514932051118 11.237826932322
-21.5712894602482 19.6967387404105 -5.13698041585067
-53.9767279350714 14.8829335560289 5.12850245563091
224.049403536953 36.785080968539 15.3914181904805
161.466059386052 3.65039132419275 10.5053407010977
217.788111190546 -30.6377138235139 31.8048173032124
-174.379230313309 -8.1013554193614 -3.88120427646274
225.080582826618 -16.4046708076308 -10.1518242997352
185.109455786858 -18.7975603543126 13.5884113869244
-124.205603396 -5.51616633712766 -1.36875841362992
227.857360438787 -19.5104745007287 -5.34490274847523
-260.415347131689 -17.0442996651426 4.7562047966491
222.136571563259 33.8202680488545 6.36871021715197
-174.897624436136 24.5413559496047 6.81277918816072
-249.21326456326 -53.9497823800026 -8.70105600331551
216.224994087859 26.4984948994304 31.3629791480047
186.268525364689 -36.8641204090387 12.7881248902052
-145.642981299488 2.69701296011089 -14.0878263494736
-203.082658371476 -9.1309853683989 19.9464891701683
-236.446203164575 -26.0862445846575 14.7958123414109
-238.989623778025 13.3870425250162 23.3876500367424
-49.1588541231022 14.5921744203302 -18.4832724606779
212.184811368637 27.6735832597197 32.857575351708
-18.3086408045102 12.8580913879874 -19.6416899617814
-108.819265740101 6.92677656432801 11.7575404406406
201.590658598511 24.8833406564139 -26.976190468772
-255.837542089873 -25.0211094832308 16.8254677358012
-259.915674199969 -44.5454667528311 12.1663450113257
-9.79672395000472 -3.86529442031409 2.7087970686295
221.794270650414 11.0967132156123 16.2444673143376
-241.881706033277 10.2119553419979 -12.7535772510403
183.892198554049 -2.67060384123046 12.5539982803963
-89.6209767018735 5.91280949853561 -19.4185921853467
-80.9247259145515 4.42547143829115 -19.7949750622959
90.6778167577723 12.5842459660199 9.42033085910873
166.001120842244 6.47250826573925 11.3830650702807
181.381894383811 11.1599294450013 -23.7317421979112
155.756363859491 7.08251182637028 -21.1329847066151
-245.20040697234 22.1184917520111 23.5998574445072
17.9923688682972 -1.75725367102966 7.42095473897936
-224.23566919608 -1.5284924044566 -12.0351810933284
220.083217163892 -30.0731707325714 30.3421433980509
211.871023767048 -0.171451338804183 3.37462877685628
-228.484086662306 -15.9248593112997 -11.1576405120868
210.813635098213 -40.3505845447827 6.91958685276858
-157.060055914156 -5.76315448050454 -4.99722552130103
210.770210617581 -38.9395697750746 28.2477501101009
153.404513666784 2.91632493998297 -20.8784578634857
191.887204163805 -6.0582928112332 -21.1009520149035
175.01760649163 4.4529459529788 12.0776911114649
-207.004759007977 -10.3195083981561 14.7612276048488
160.513932549524 -16.6736941464475 -15.1997750681469
71.7668598431445 18.2794776493629 -12.503226726852
185.744757946036 30.5009226546166 10.4759834956208
226.350279063378 34.5799940842949 9.2940527173854
-238.952131745062 8.06684910178801 8.57453542665394
-232.81008505704 6.62661485362718 11.7529788334411
129.552572735467 -18.9639072693591 -3.79890230777653
-100.531197641024 21.4289168071837 2.2730512552024
172.607358146745 -11.5323786371648 10.2124728976951
-239.248710462086 28.3743788863605 15.4144234005788
-230.673536152556 1.14921049893857 12.34401892993
158.165593963212 -1.71277275663736 9.78231721622076
-195.642543566855 -16.1221007863481 17.3826165580828
219.882001354356 6.37451723419068 14.7994197133028
170.740769215068 24.2648526915467 -7.02224246781337
140.039464073616 19.8893206731176 -12.7071305278082
222.674365416865 -35.9385128856638 -0.488103479444928
-257.716951718972 -39.8332148035151 16.0780406474146
102.206700721758 -4.26791326253822 7.50452023368105
217.932157297455 33.724209088361 5.50674505700732
114.028439544856 20.3575504832816 3.36089758758889
231.753430267054 -35.5233277605026 9.43588443869699
107.103209915558 19.9104242537732 -9.11503813407721
191.187303923884 -29.4153268255743 -15.7321910972713
199.073812080835 -8.85872190700592 17.0619496013831
-20.0772080550876 20.0279919711757 -6.87538068731898
-267.74079948245 -38.2187933998036 -6.91951482775587
-206.574620633338 -15.5513615876664 8.04099990286384
223.108166097273 23.0766111683189 -12.969093399809
97.8722393221685 -7.69915085947572 5.1323481213181
-264.474449018373 -26.7289043510971 10.4825575162781
-140.811181301398 1.57330895336641 -14.004624816441
-201.301453471404 1.32634615022878 21.4776744846245
29.6272289388438 5.70897245154208 10.8740152212278
-216.764099504032 -16.3878614051358 9.20771537919401
-77.7827515028901 19.8533322547866 -11.0264597130293
138.236108306469 3.33976583362433 9.77040186831343
209.466762345009 -6.63797438074295 9.28118849837333
-97.3171383793484 7.5736060857334 11.6867051186538
-234.014292785902 11.9663629904893 11.236314155613
223.067209821007 33.7524594468251 23.1112814719461
-48.3550131024522 -4.96057826608838 -14.6827371467646
175.156388712052 -24.3148720804649 10.3584206514591
206.563766653243 35.6348075340908 5.12728920278847
-250.87527195636 -16.7299931240216 -15.4383100912923
30.5886890094024 -9.27891931707673 -12.9370013755152
-245.005691122079 -49.0817296772504 -16.450216697711
193.283972283364 14.3065022867183 -27.9564334915219
201.90541997021 8.72528226592364 26.1718981069272
222.006306935612 -29.1638882570051 -14.1955901169614
-166.849091779992 9.91426762283943 -12.2951896556949
-26.0181536768472 7.94003395181967 -20.8044076503339
226.970364109385 27.095534399736 18.3140512895658
15.046044470854 15.5812747391316 -17.831923221608
-195.082296565799 -3.34543521647861 -9.57156494588096
59.8865108175973 -2.86381204975472 6.86253617515063
-205.290063162419 -9.66670381769474 -8.62366605841071
215.484993405592 -20.6809746596886 30.798090423802
224.68615876724 32.8608000407314 21.4035433724906
225.017070602289 -36.1041255244986 0.674456096282818
-242.211523196052 -6.78501425436198 -9.81898727749111
133.13286118782 2.21347795001671 9.50960109340305
188.133793097991 -7.23906512621411 13.6593162493776
7.18625569860888 4.14617239214955 -20.3188266473907
-257.415887821029 -27.5281138868887 -19.8506185173631
223.466867620766 10.2293038999798 4.65302246564717
205.384995981425 -8.76914885442725 14.1814616084085
-251.34776130658 -15.9599798707127 -3.68415706711685
216.983623355396 -33.7406719572621 -8.99552824470199
201.494796751063 -6.49343160679523 16.00208715163
103.461192575168 13.0015172702179 9.55875758086231
227.784327556877 -22.6600007072995 -9.15441654475869
-212.12642518652 27.8616460988942 -2.95880072510978
156.95688980072 6.02459827982901 10.501519895562
110.52770659499 7.07774268549954 9.55823748668383
-215.108078333679 -7.14198972522547 13.4846462044306
-246.13959930062 -20.5626005078972 -19.4557022884196
65.3798399430352 4.28207755914997 9.61262190452775
-242.947618353186 29.5343321286058 6.53080830001216
194.020370965294 -35.5824998200813 -9.5039252981971
0.382796321463234 19.3348918602953 -4.41850841356926
-231.789584848477 10.3389957802049 14.1159199138647
143.71244251646 -20.7024948808424 -4.17500041823674
96.93585413844 -1.568436810221 8.43815593303616
62.1356142418611 10.5333062620477 -19.333328009368
-49.5157721164735 -5.46296441809501 -12.3660447313099
216.38560753837 11.8039261242869 -20.7687936580433
45.9414425953444 19.1617597702676 -1.43216397836545
-108.913075250273 -2.16306752298874 9.2258413777467
184.811480738587 -33.3974224276571 14.4371680298876
-56.9929344100543 -5.09126803554799 -4.97070089444541
-232.881028783423 -46.9812183640185 8.48270027848305
208.840110823514 -11.0292249455724 12.0691521258862
-192.319975429994 9.01295777159083 -10.11035940089
-153.277844649386 18.2859831469559 -9.47764654241294
-251.506390665351 23.8672130136935 7.88845774820423
-35.1271289293454 -5.24248173853217 -16.041730811663
189.511746891483 30.4885823759134 17.8701366975369
119.582929448426 2.41193689403611 9.28611115117832
-204.106471169781 -11.2542365405538 17.973921583555
202.09065660624 -19.7100860271134 -25.5059434376582
206.604100917771 -29.8535365963887 -16.4558297592722
13.8421180470117 -5.86930750110657 -1.33540190363343
-106.440243675511 -0.360001011581112 10.0373665483943
205.677032436915 0.328874479199231 -21.1443349843845
-241.296731045692 5.55794254348738 -11.1540318729908
-75.2493447420638 12.9299095654429 -18.2795205251924
-261.642067867494 -50.2449130395594 2.47180376534048
-49.5540632406964 16.7616545327019 -16.9421124382739
-51.3896443715511 -3.32431555790046 -17.7082641207632
29.4631228228591 0.643443677306667 -19.4133636967736
94.3692997433267 -12.0102692194727 -13.9383331331913
114.24665036189 -3.19642382083397 -19.5249895620378
-259.885860474564 -52.3710596217405 -2.34347629908373
32.2486141620882 -1.58214781709599 -18.7798788568204
150.821817363682 -20.3819596928468 4.19377598352736
-223.068476685509 31.7929326539087 16.5034472745996
226.351655400861 19.2632519589093 16.3132954363329
180.555306805665 -32.647569511942 1.42769872302984
-33.4875686093152 3.99149466513398 10.4669640954435
11.3371360473451 -8.69747857151442 -11.022403187709
222.021095591793 -34.1076399021365 -5.44449532012655
224.434302838366 -27.4361071998521 -15.329654817135
174.606743164374 -14.9065883179799 -17.7833374989634
4.72051091033484 -8.10867446721166 -13.4355653680914
185.12097821813 -16.9781707510367 13.1455750955427
220.564094391239 27.062264205936 -13.2638973070973
-196.101793020288 -9.24841002363555 -8.33896932975466
109.915907854955 0.0996707845389801 -20.2009337869899
-250.724960694793 24.6050380065697 11.78203510323
190.444101757268 -15.1750648164138 16.0567020971853
-227.000640364431 -6.13917825549294 12.0121055478874
206.353734714342 -11.3279706221668 14.851470307879
-186.335306546219 24.9611465390079 2.09186088846737
190.71209476063 21.0527054021555 27.588820491266
-236.940248497351 -0.399405415294978 10.071250809611
-237.968969245211 -17.9065338643986 12.6939495322213
-96.2767258713033 18.1331199095347 7.86976841317131
169.669551912187 23.2069389689786 -12.2324159832466
219.717029340791 -9.26750082576372 17.3301324612254
158.520649965522 15.6464607394162 -19.3959036003723
-264.49230399899 -21.3530595225418 4.44046592637279
218.085833117335 -9.21375068180275 8.31266892151289
86.7477668571557 -9.31712665374006 -15.8202512875532
127.805533493643 -16.3857310509447 1.63711520222191
-227.26896937059 13.3810884459801 25.0392552292721
201.478476505111 -10.3008096747325 16.7121976351415
-108.664346461924 22.0285965191287 -3.0420161274356
-41.8965474326404 6.92753489323104 10.0110755393875
-256.958439279519 -42.5803844574701 -18.5461668972094
-67.1695409208273 9.8416805785065 10.9147444273231
223.64225671041 30.111780999918 -2.07264948131173
104.589334602682 -1.39966307432867 -19.8621448678686
-244.134269295285 -53.6642081367473 -9.37845386659384
-20.839883892582 19.6845610025298 -13.0761217323818
-88.6463622568642 -3.54867746626135 7.26593786880028
61.1251217864223 14.9964271296461 5.64034300787042
-145.236786607825 -6.87343868634414 -2.07617061309088
89.8242408679444 15.1597490041152 8.11756907799723
168.984029263856 10.4900808569118 -21.5083755799934
-108.146286204967 2.16494073927151 10.7049932007144
208.225702418904 -23.6034666903544 -23.9432588995575
195.344922424966 -24.247564827639 -19.8291423454689
38.4469665693998 3.86312702837517 10.2523018053579
-241.299061553032 2.41299082499596 5.64862608820063
-123.492585051889 22.688012781063 2.73722095249478
2.83541466583548 15.5650103291088 -18.0843484620185
84.5620673180076 -7.35761204160988 4.24459239321615
-246.123868578708 -11.2411852854419 -8.33126125136271
185.48752922776 -35.8105197892542 10.2101836080876
-227.98719692357 33.4319201160142 12.2334966777604
77.753047270503 -7.70138565092294 3.30146357554924
169.466481850484 8.09527938308083 -21.4048158862414
-210.624731742791 -10.9823177231293 -8.30805730133045
202.041318260196 -41.1322757847238 11.0626812612993
142.473055041129 -14.9293369809414 -15.0348051933438
165.399828054456 -5.35173876109889 -19.3095232528198
-251.914687483163 13.5276594503981 -2.80075154777196
221.032844017276 15.270350881296 23.0789645593879
-56.033797490441 -3.99458890314397 3.60641840179536
-197.304110961906 18.4958796578211 17.5432579819228
-158.717922222943 8.8725225465858 -13.2648800515449
227.965011812994 -37.5579986437306 4.54130406522547
176.256362379788 -16.2476898606551 -17.6036388243358
20.2145507369181 -4.81148814333705 -17.7984218381853
180.164131232238 -2.86595946192242 11.6262279762459
205.133637218865 35.1197738247338 -2.72052232187804
181.87373417463 -8.7949375485107 11.7564610795215
186.277548268829 12.3309910421839 16.0815670401917
151.266383362367 22.1563102935193 1.03778959642844
1.31020126412633 20.0632607740727 -9.31675144072572
213.641553689897 -10.4969022549617 22.9920455886385
-152.886727822798 -4.59395429597064 6.61890186066519
-158.019755050538 19.3487488493116 13.8100106102272
217.49547460129 -33.3661636085287 31.8890296730798
-266.773844694284 -23.7864279187656 1.05126011934174
-230.141954031127 -44.8456413858223 6.58568825879741
222.602877427008 -5.73661482467419 -3.3018993566148
-167.919941201132 14.4018855990114 15.38253256321
54.1388188968902 -1.73348719740003 -18.7000723284416
-66.0398843567902 -2.62104770621805 -17.5068990663656
35.6474653066883 -2.76351542922004 6.21112097365084
-186.789856551176 -9.99681983179285 2.31745243163838
193.848785838346 -7.25803818993149 -22.3822688102638
189.898560048216 -34.5991111635037 -9.1432622805589
-47.5196915626953 5.8950847056307 -20.8144263271284
204.940559385918 37.4515285638173 9.1606432912113
40.1352371422601 14.3283959745948 4.78218579750939
226.911392772353 -20.5844582963581 -9.87806840889705
33.676150232519 19.6587673576117 -10.5126882569261
73.3435487335126 18.9212692445332 -10.9314347826134
119.600586455688 3.51523854164027 -20.6643119675016
-244.707101556598 -32.1763394277883 -23.386016030407
-166.854951724239 -6.97113501746911 -5.042815512571
190.185033245918 25.1843342826275 23.9310887279827
-229.606993792424 4.63054497427043 -14.5481653490514
-254.255255368971 -55.400820124767 0.431348847758746
-248.177759762691 8.23493289659507 1.20562500260195
205.66730642034 -38.2537162375042 28.375859830223
-79.9015930449518 -4.19151235866272 4.7457742869072
188.239279989262 17.4136966808773 -25.5430733020795
191.131641691602 25.3493176483794 26.6227543328013
26.8701129221758 10.7044356937777 -20.0214598640939
200.699981745947 -5.43883853313027 15.8686217741534
-249.083005439091 -19.0723233557822 14.2778496617067
176.360365656331 -21.3024661753344 11.7457948849216
218.004935157953 27.7334988271476 -14.3025482561017
185.0031191056 29.3159065626551 12.3725416241102
-234.58562184091 12.6235886161715 23.0074954583525
-209.178421517889 -13.1972972923967 11.1161236545891
20.7006701949063 18.8181035233042 -2.07651866462874
177.319139460257 26.6453466229934 -3.78745411164474
25.375044479735 20.4142308200219 -7.2365904251996
-39.8919288040168 -4.66940248785046 -0.99006045653087
-75.7505670349588 6.22601683615351 11.0948712387847
69.1986370035064 19.8006885797756 -1.33861364289708
-207.536258195677 15.7061663880954 21.3857662424551
62.0230833941314 1.24192775544307 9.4353175357856
-35.5384068340392 16.703409101607 -17.1894956453095
222.858226332019 -12.1467592245067 -10.2776858848959
-84.5674434736154 13.1933924733037 10.1826825207788
-26.0382771168286 4.79325627964013 -20.8859476759734
196.021404795099 4.73156627939668 18.2846224213579
220.898339485023 35.7812725791906 19.5881038578924
192.988478150359 35.6555049631 4.14363479716545
-119.538540846488 -1.79607114700671 -11.7822498539876
196.89576625991 36.5119355332025 1.15477923362142
-228.012411536776 30.2683945886383 17.7374720095026
211.175698493011 -39.2201136518586 11.4955960992794
218.280776190666 31.7231047506014 1.45066130678329
192.907943604828 20.9887793379384 29.016075451368
-243.694311343142 7.70778229573795 -9.813476665804
54.5707990461954 12.204482660635 -18.8265063948521
200.203078312198 10.6742767895024 27.28202885881
-256.663057324274 -34.7460490380748 18.0444203890735
175.903631453428 26.4691142921118 0.600032175079288
214.050920080436 7.03959835827814 13.7202025998748
30.0230565576609 15.5899556637331 -17.6285995562699
221.752228599251 17.4201501666796 24.391119354864
178.658399127454 18.8978450328457 14.3020506482793
201.745724012085 -7.26838906680458 -23.0172777293263
159.171819246352 4.36048017390504 -20.9585199496023
173.892272256089 -1.73237150132742 11.0468376494028
-9.36408239546193 -2.16086931129541 8.81863191244448
209.163933201398 33.23011777581 29.6731997266944
-218.148411198518 11.1831638899546 -10.5415724224535
-267.469564246411 -25.1607608310091 -2.66136156059177
-238.70473643941 -12.3481359888071 -12.084229341097
187.606428596689 19.2302100244399 -24.6918890656746
224.023788784545 27.2646195187324 24.8275100292281
122.832095740463 -17.8747541683347 -2.47894105334399
-160.064668504138 18.6906514021362 14.3939028458904
20.3267139567988 -8.25870065721719 -14.4786859796816
-246.566683723078 11.4203277253526 11.6053149931027
-236.188155666272 32.497906534863 8.2409017348608
186.187954547014 -10.3625761554553 12.6035919150065
178.900627431485 -31.0685513194148 4.92735947353773
-11.7949472341031 13.7967000182804 3.87266477197841
179.542645949275 24.5205194157897 12.0509193822832
180.721568485055 -4.31184942291754 11.7580733210946
-198.537402749218 26.3672118158703 11.2603810928054
-153.270694312812 23.2385956428691 -1.06191106795599
-8.12308889045829 17.6261607329237 -0.832100468853672
208.380628631167 32.9251528016908 27.5820428348981
203.529011154301 3.05051591167525 -23.2045924042098
-201.332569089064 -13.9931616650113 8.04303659226434
185.185783846284 -15.2974380029415 12.8250441389793
212.103476888292 -36.1687602376877 33.1185010951897
-57.7769828557937 17.0541721417658 -16.0026180132982
150.786604685358 1.74134583146182 9.87359938736858
208.507274301679 9.04346681008615 26.3084380984826
-56.084061468178 11.296172817851 8.67832214330233
-201.764531945046 27.311795662159 2.42532836737401
94.015113018981 -10.275282595518 -15.4668916706506
118.789711380125 17.2315733014068 8.92577033139976
-59.7150378005402 5.46075167537365 -20.5764575262407
159.956780131657 -7.80507950362074 -18.9700097892832
-203.501120881713 -13.77541776163 -3.12911021281494
227.119044489829 -21.0886119805666 18.9918124460991
-116.883107897575 21.3305369686614 6.35014349211991
-208.278176599446 -17.17980160785 4.2298885773413
-194.052259851875 -0.932314821987633 21.9354990246313
-238.466756674998 -3.87896419484831 9.79911053216048
21.9113923037845 0.418059428662826 10.0727135571847
223.812168139373 -32.820654232472 -8.55826249066928
-153.487266991381 -7.4167278401823 -2.50184064603253
219.165244793337 16.2066383891975 -19.3779197770224
200.475756615164 -10.1126199431718 16.9229210240767
188.178000803801 -3.5915101241726 13.7509604764586
-139.094000114734 5.41699316471591 12.1007359042665
193.845849512262 -22.1765721308258 -20.1061574653642
221.445347254401 -25.603132440565 28.2761411375288
-243.66027689993 -10.9270096156524 7.62581873907233
229.002995067923 -20.2297109773887 9.09826780227479
-224.271045597301 35.0383673342824 9.43671762976582
198.937394301931 8.17813315113799 25.6369513570977
-209.889909379918 14.5090648284335 22.3581063963891
-236.177436623137 -9.57923745577474 -12.0986238178786
215.496630066386 -38.9354175004254 22.2954711216834
-188.632161656466 -11.7482219750266 11.5905559003107
-73.0207930738252 20.8913985668211 -2.20933402144774
213.818552244383 -37.8954094255708 -0.297016214907535
-195.332808638099 2.92212980481025 20.7349053474313
216.435234288084 -16.3744825758411 -21.5050218276071
187.228502031605 4.88012059832708 -22.5767154703509
219.892686649975 -32.8694111928594 30.635668968434
139.865505483581 -13.4476272850667 6.25753971950591
-106.966073954025 21.8307868656282 2.69474090510581
-202.411077603363 9.75321575838323 20.6378165608052
-268.656650952457 -31.2190991938809 1.25019448826556
-10.5194296874715 15.6480906555554 -17.9464978081645
170.620139964771 -19.1835062873959 -14.9643136578133
-194.787018026268 -11.1902301193208 -5.77020504427796
191.408571424671 34.5119850455678 2.77558704777854
-32.1791054329478 17.3611038975743 0.16306042001649
222.768142587209 -37.5077140969751 5.6790320803103
-191.890385938182 -7.80981721696584 -7.99857846962159
10.5988488102677 19.3023721801128 -4.09365812506503
40.6314527627215 13.7497530425382 -18.3956326065584
189.920189461226 -26.5419577671011 17.6806411967193
-216.054025763636 14.4650641454713 24.3420409327874
72.1192915904502 19.9978329196154 -2.16810976559889
136.277684925586 -14.7400492255354 -14.7083563473286
191.677009235233 -1.55031554141233 -21.1678685310178
215.233634521687 30.6979485356343 -6.98629700181563
-1.29227084838153 18.2686916124373 -1.90674117445662
-217.8622927262 31.6019463531436 16.4692467744337
-238.281978142062 17.1404368815206 -10.3076359213933
-228.888556427199 -34.4493619320174 5.12270725303832
186.357655558524 -30.2070483119993 14.7689346085722
208.520323907248 -22.1004876269973 32.6483437132135
180.146341563797 -22.7071738509241 12.6602261298167
40.0281292396867 8.85749004860611 9.39865703344208
198.071310659337 -1.71580236004795 -23.194716444197
-228.171746578926 -44.516534992149 -1.43293434199538
-250.371931009901 -46.1137340341942 -18.7404661535249
226.955563908722 -23.0504980493012 19.7469753976008
-266.45842693581 -40.8254982268815 4.84243648591412
229.093538794367 -33.4175399955347 20.1867135724386
219.360269579169 13.2267901848748 22.9876208509562
-205.239829681497 -10.9857996276554 16.1232532409583
163.10360584434 23.4048628970139 -1.60548483889098
187.876336848063 10.5941403871326 16.3678638069471
165.84784325561 -8.64771079883832 10.0815650869636
140.241912543446 -18.9093131127798 1.99347043529176
-113.977085901903 -4.18252383577654 7.17322210415291
210.754930253312 8.20270662983529 25.256268176247
206.298204893282 -33.3824546986251 -12.2782011270848
-53.5264225586106 12.8137767744515 -19.3248923345986
-168.413097415013 -5.61599266373049 -6.8769084034711
1.83198319983634 4.04655444023843 11.4835293525776
-127.041109651235 -6.24760902319465 0.477510266120056
-139.471150255663 -0.744507431410204 9.55410580547176
221.426080125189 -2.59230269436891 0.961767478379261
-217.85463508434 32.928480131589 13.8880120436833
210.145341031905 -39.674025396912 1.58268087384554
92.7234767827893 10.8675951890044 -19.5544282639082
180.25451686155 23.1892901255463 -18.6515899291301
-240.606097217512 30.7934995792896 3.50010813354372
-249.55613348913 -14.6614598283472 2.68568828818163
-125.177307474692 -0.354271737530118 9.70227324861271
229.587620874261 -24.5779324463955 13.546195144035
181.419961211203 -21.1966843455809 12.7042912562133
118.755980702688 20.9815269039253 -3.37108970929646
-252.325497140191 14.6187547119755 22.6547986856528
-94.1845804794226 18.5981879089918 -12.1765472955476
224.278726340949 12.1783533379327 3.60482057691388
-201.056265067772 -10.4581917388058 21.4311266382419
-263.260792468696 -22.3626320461948 -11.0583088947678
-187.874629797071 14.2373436512405 -9.95544131824034
-231.708604024764 34.3013268151698 6.97269571425028
-154.349208806092 4.24767213936953 -13.7810925675552
135.274439273088 -10.8607542330719 6.65803927755091
198.921380984299 19.1073268283064 31.7736688828266
-21.2920788935707 18.6490446800174 -2.67717405012351
182.836233189954 -18.2428772629625 12.4948560553756
-176.176727947484 -7.43020086733725 -5.4684021924604
-232.851728375045 -23.8268008398601 11.4538325198177
-60.9199110046991 19.6341406545065 -11.7267031297913
-76.7165605240667 8.34264907598993 11.5498172838999
-192.498019930027 -11.3459963971645 -0.14876174201873
185.364536568972 8.19015082061117 14.3165127653537
-145.036349144555 20.3154121894259 12.0326389325024
221.349471718255 -40.5446043274822 24.7533770961582
-189.38508875847 2.41958324530879 -10.3311580595316
-229.18637706684 7.2385994272111 18.5428150427849
192.026568303357 9.23886939552092 19.4824469485914
225.967093535353 -14.2534419749691 -5.16410906808885
-185.420054352599 -5.92678778502081 -8.1080674494867
45.8114603211133 17.8298128714707 1.29903196053737
194.024211638298 36.3064139261176 13.4924961932401
135.951408513285 -16.5412576743741 3.71840347428765
-240.238769747281 -13.1074250026044 -12.1874988997254
208.955347821153 -0.290037447939646 10.2931499755321
133.112834795424 -12.4580200683415 6.10853334987846
55.7368786029621 19.1221312896258 -10.7438749248136
227.19509372004 -36.6029823805877 23.3087420233294
191.260405556968 28.5495616123758 21.6463413934488
177.77927212784 26.3786872138127 -8.15449194462357
177.980215806669 -31.0293528318146 0.552087685319011
-227.720260452703 -36.5445680786274 -7.07468551444048
-60.7187889656345 -3.8404375706281 -15.8179575643803
-112.550316369034 21.3241212348942 -5.67082098109214
-228.595053480251 2.58327506036817 -14.1040595670465
-21.0011934343472 16.8543668444972 -17.0987191665466
202.202346789882 37.5128980796638 10.4469767584361
57.3649152201686 0.299063657137398 -19.4226210972408
-155.867265734785 23.2552126394453 -1.16405066569428
-131.334202077042 -1.68411402369662 9.0919588162686
85.7221097886244 11.3608292766165 9.51619185226275
16.8448816030061 3.47838271850917 -20.0527312902832
-71.8964296036561 18.9559325303054 -12.7868831701084
149.395930443344 -12.1876617711483 7.07412667068125
-224.644378277918 1.78200328894465 15.8923259030516
27.8363882722036 19.5564817942982 -11.7631169577953
-197.474073148527 25.3541009436592 13.0786215943777
167.574482222719 -7.81059550513697 10.0708135923078
-148.934889380856 0.194049103609409 -12.0510297654089
-139.816908658648 23.3509874630944 1.9566853225202
186.604651678285 -3.34803965392435 -18.9538852267092
32.3296758075889 -1.56180965121325 8.20611663717018
16.2132949546852 19.5538038345636 -4.67931248819161
210.043422384404 -12.1964630276004 -22.4894194094464
190.023418518534 -21.3707601678915 16.7255959954005
-146.864110008625 -2.89382028435432 7.85715315852364
-66.0146708411119 20.5105845870151 -2.08102861922041
-122.370207806952 -0.144109219340277 9.8390042000569
-249.036945237502 -14.1000444228128 -5.84890494986573
-246.775518286652 -51.8679470293252 4.9631550690623
188.973578102406 -34.3573045050203 15.7217098980527
195.573569299185 10.7648305090122 26.258106963511
196.258345549641 17.8559996999501 -30.1423198369481
-86.1764291536107 6.49309879073669 -19.5383565008224
104.572981692113 14.7612516713776 -17.0351910232632
193.986982981069 1.02141552228301 -23.909161570717
203.102095494256 -30.4002398726515 32.4605809751634
-230.469954123703 1.76937368916011 -13.9359990345413
-199.786697849472 -1.96037780128541 22.250282582895
-7.68732151058596 -5.55100448912494 -2.37177123126143
91.5919696814695 -2.12385518708518 -19.3812933572122
-248.356427645129 -17.6212213906305 -13.6745027787673
-74.0226310590357 10.5096950512763 10.8151892719883
194.740173325082 27.2479575147408 29.2306745805473
207.687306762327 30.8674170263636 -11.4641602828585
-264.0743414552 -34.9129269525421 -14.9303716190773
-247.214142524315 -15.7943783666477 9.21256388480782
212.15179212381 5.76729630474529 11.192030010293
-204.386261490639 7.28375101233294 21.2864689531129
160.935894867623 -24.297608729439 -2.90756847212245
-226.856099010683 12.990410856067 -11.5101180620529
82.9001266450324 -2.24739688522019 -19.0862915468575
-123.572638145792 21.1253812280077 7.90792616643786
-186.011686048067 -7.35922226610364 -6.89740778978669
-225.726742379082 31.2310512259308 16.9798661311705
-2.93687827784368 19.3134967633521 -4.50840649468671
-245.713034423014 25.0970992744547 -5.28187007956722
152.376425099066 -4.17351057610224 -19.7502141226226
-196.197444768095 -11.7836186996377 -5.08575590424439
160.054005202532 2.92786354189419 10.3726069802251
225.074307602244 -22.1388439725696 -14.8186090630071
58.6882920522058 1.78879488620019 -19.7786415126072
-121.759178530781 12.4730285513409 -15.8457309935251
213.75802776474 14.8166097636639 29.0953370317553
192.696197430691 28.1848456160406 -18.3312743486241
-259.248060690115 -53.0197301890113 0.12074018018806
211.994585979076 -38.2369622478591 23.3743471407238
41.139966371701 19.9131545376034 -5.85159333564112
164.788225930705 -23.2257382745681 -8.98214427264037
154.025347655084 9.91230628381224 -20.8971412305005
-68.7531343480704 -3.00892626085114 -16.5833559317377
-141.540300479148 -2.00541664257529 -8.93847936437153
-160.354216844168 6.39993642787472 -13.2497820192222
-242.764387895733 -20.1582044474012 -17.8372044016027
-157.15071207959 -1.76239930097478 -9.7909477444422
206.644358025589 -35.2654382770872 33.2075590146561
21.9796375303599 20.0799157491426 -10.8617961553105
-212.259962789942 9.09902674615334 -10.1009912785737
-231.435553122088 -47.9993245264808 2.57076614442974
-224.777132742057 -17.9165546418804 9.48820030349062
192.786015127445 32.3149411513644 -7.93340649308
-112.971385641697 -2.80159444770943 -9.92947825565289
-131.520933104374 -5.27530883228035 -2.82356389822832
67.9497173972426 -12.6898444413867 -7.84287303358334
42.5427005577509 8.13647500788484 10.1575600797676
162.052588079136 -22.9578581065332 -8.32682882502878
-252.662059642817 -16.6933729016769 -15.0736602820533
-71.6065289422524 3.93683159903633 -20.1259484624068
-9.95819681251271 -7.18012093253257 -8.92875010214945
113.782285423259 -12.8847852930255 2.8307470740832
228.221652573914 -18.0204739545507 10.7953678164766
-226.231400663727 -0.811452484675135 -12.4192919209839
-152.703285965312 -2.60483732338714 -8.48303044966629
41.8569086501309 -4.9431124449298 2.94249227380702
-173.21914206422 -7.24444475877483 4.84278090157065
-56.8316883026752 -5.28319389102096 -9.58595712555122
-50.6333330968704 -4.91091305756624 -14.549197973573
-70.3250139210994 10.6490372899702 10.5831768643462
-104.173144074297 16.1523966435801 -14.5836020524661
-156.177766934867 12.7953575467271 -12.6599854346169
-245.412994719951 20.9243735643002 -7.28614251340217
46.6749541450621 -0.406333611944648 8.6692347716353
-156.714041225484 18.2925966576471 -9.3339412214067
76.2129421171707 1.04006778742134 -19.7542210850683
-158.702214132239 8.61413586477371 14.2658419666628
-235.4683177802 -28.1072752711101 15.1288695684872
-229.797373513836 0.010047567201866 -13.2928003611764
129.241298181502 20.9367972015557 4.96469263265825
37.838622931051 -3.03145954259926 -18.2124735574682
197.859404080898 -0.203196887943314 16.5278757977041
-180.376545951091 18.5259164930854 -8.47865384576555
-221.996489241854 28.7458113457884 -8.91008667984912
176.687628470996 4.05770531999381 -20.9480123424706
37.5799177113037 16.5664880720317 -16.3873290327698
-143.880935122618 21.6337346633822 -5.54906354751722
153.837684798358 -17.6070991776223 6.42577906113026
-78.6220393313288 16.8230042007962 -15.271525603184
219.983047995997 -32.2219121989621 -10.7595233752385
-249.873655132568 -22.7159194444323 -20.2960268960286
-237.603361591596 30.7740512589247 11.2905869416527
181.405027251643 -0.87495551117441 -19.9057156685486
22.697250892866 20.4174031587931 -8.39727956633565
164.528649261518 -6.93216679407597 9.25741189445662
175.917341542743 -28.3950541868653 -6.20895502990761
-237.361889464649 -16.4049437851887 -13.6966567942817
-244.302717123275 11.2638371043508 -10.6452567999097
222.421000197974 11.1845585421469 -7.02045763245982
151.331143814418 -18.6187930596042 5.52878871522865
-185.904173276651 -10.9837902574078 13.5595382661862
-75.8821011469992 18.1648955677705 4.17947943454984
-223.958211142159 29.5120768241862 -9.38641480543882
180.654532257646 -15.35360224202 11.5342596324528
149.719282531951 -10.4070013708782 -17.8851569730852
-109.113231358266 -4.68202958403849 -3.68147209581626
-33.3138379890924 7.46219365190999 9.20767033138686
27.7854899211512 -5.617797681804 -17.1772905495962
-28.5863708621664 6.09840305921557 -20.9252073359669
-77.8015612965755 -3.64033177674043 6.95184073288519
55.6332139830688 -11.7537135758114 -7.9284677978636
147.535696496674 -0.391426053872981 9.44367872706653
186.854579266207 -23.2345116491695 14.7103026850191
-88.1935538905713 8.67213359943893 11.8056961191337
-242.568817012041 28.8722114290594 1.47680049769595
34.6029510409172 3.03678429719692 -19.8503004237572
-248.536973703876 24.6323957295791 17.9251058308039
-255.991539247263 -18.0274661258534 7.44047232363262
-224.12324744668 16.1395295612964 -10.7386546623914
-109.832852821965 19.8126027059397 8.03337490717555
134.476762421434 21.5064023561231 -0.077545059377914
-137.90898972082 23.175961302474 -0.168022828131351
-229.393257842188 30.8876627809365 16.1033450449665
-147.146942102218 -0.177812056837819 9.79865355916214
67.561870202926 0.946267371392747 -19.7561768807878
231.418289798394 -31.1199392345852 0.0820779672879745
222.443962371665 -9.4762010234088 -8.85081994130141
-185.159009936412 20.4962997097859 -6.7196283404626
-244.696998406222 5.62051339509815 2.37416694797527
175.197547772816 26.1361947927542 -2.19853499926264
-227.706036573089 -30.9354519933399 5.18088307568578
-188.776248109946 24.0557917510307 12.3464621809275
-116.689990162339 22.5888627332478 1.05262549813658
203.207361819815 -26.9743945013417 -19.0660811183959
213.618427283996 -6.18418772570093 4.66703457378774
211.023395224637 9.63129260782675 -24.1395604576414
-203.108976236717 27.7860243603271 10.4316628023256
178.331114534486 -11.3227733167276 -18.5057637140916
-216.397363178899 15.1926806400277 -10.0708447931478
-170.815332807613 -0.244167352687285 -10.7398923821152
116.259710745242 -6.66684768015069 7.08842394734235
-26.4562540668124 13.0080149504546 4.66015950574031
-190.23489870237 7.72909602230368 -10.2717674236788
212.990984680224 -33.1287461625739 -11.3581871825506
231.195153233693 -26.5399199316778 3.45685691308971
185.9078419678 -35.9069241501937 -2.65464489942828
189.338477984371 -10.2583946841365 -19.8630731033282
225.345983015001 15.9459118328686 13.4530181028715
-235.268716584746 20.5379613334715 24.4532813941433
146.520764707527 0.915491679245685 -20.6518444935306
218.123159014042 -21.3527000489005 29.7432845762761
181.202038360138 23.0231130442579 14.0492281969505
97.123493580027 -14.9543853605924 -3.95299102817091
-32.2211109633313 11.2467855491352 -20.0780620507084
208.962102469205 -3.28096709251261 8.5675647410809
-69.216025640749 19.0965440704936 -12.6838428007111
206.52481482433 11.2536401198954 28.057573632171
207.355867947462 34.7350800376442 12.5739255991935
-252.471753250502 -28.2705216319542 19.1031321623678
-86.066244365451 15.2862435869198 -16.2867939600943
214.869567542342 -39.5809823632464 26.7907681752071
-174.520859754812 23.3043059788455 -1.07909429255194
-151.005443837843 23.1130499000603 -1.7010270071278
-55.7155326828396 -3.60939322936395 7.00222404701809
-228.411642115408 5.79029865050752 17.0766526818963
-240.550117301044 -33.5380277434212 19.5670533401591
-231.283462609553 6.68114774059515 -14.8696329660161
-92.9601049443636 19.610956757246 -10.3753526280977
195.376212672171 25.3933390386325 30.4520966387972
-239.845702366463 -15.1552753830274 -13.3888369476759
-246.375022297412 -9.14385827628536 -0.440830314867916
201.63983267749 14.0362444759611 -29.1264520242243
-70.7631065446364 -1.29803705174391 9.26454101552904
187.192138761296 -37.5549616711571 2.08562404227072
222.301703597696 -4.50070854007257 0.827837234216003
-267.127464478183 -37.4471665881409 5.72260673640667
-92.8934702276128 10.3726080632852 -18.4876579452135
166.916976000729 20.9968137585979 -16.1752074094559
97.9069728879774 -15.4446178030002 -6.92059091703754
203.041388012674 -37.9000965534069 30.8322495761253
-214.593086255623 22.9485578648937 -8.24583580050215
191.768478591624 1.04613836578599 -21.541935467141
98.8349691603903 14.9456096052186 9.1952002876963
-38.3053970906253 10.9310819699738 6.86508385033301
224.123607903546 13.2513278547762 8.86522417777697
163.295794404069 8.21160708674086 11.3151554232542
-139.323210387835 11.6420712442379 14.3100778613147
18.5671084386959 9.42651159868677 -20.1256894911287
181.951738735325 12.7340802010384 14.6463417031513
-246.428288431315 11.7708695205011 22.3568040939412
202.285589884844 21.0518935667758 33.1726460709773
-187.428707473786 3.7506486089868 18.2494777114965
159.928573404166 -21.980436093529 -9.36941252240344
206.803620075084 21.6859094513189 -30.2447150169522
-35.9816363307965 19.5734483288855 -13.244409506419
189.430981080376 9.39248128557356 16.7937216537046
-129.224801363287 18.8359009069772 -10.0521805534925
-199.213740868295 2.82938837167095 21.1766538311013
156.846987210073 -0.962734324130394 -20.2407293398027
-243.065160991137 2.98576406250607 -7.63937782437268
-206.903009727868 4.23119925552434 -9.7803929394754
-98.522999790317 19.9902548841591 -9.38207010745518
199.840933359703 35.9311025005757 -1.8765705887701
-214.02266020767 10.8826154387939 23.1533143817589
210.974680260393 -15.6409349692537 29.9415855615385
-242.621066419057 0.466270141734764 -9.13626249726155
-237.704791086899 -44.229403146147 -17.8006304892604
121.985714297217 6.49886982096599 -20.4766553346049
-246.061148758085 26.5459159088917 -0.573105728497634
-234.588122067082 15.1858290622167 12.9662937710524
-213.140763180071 18.4080007429645 22.7798787689686
147.497349350508 18.1335639800725 -16.3473818754942
-215.191450771111 17.2254869236595 23.9341246032881
213.11923334646 -39.4813626614286 15.2129483461951
206.707661166476 37.644735273085 7.04737686629666
-33.1340948918926 18.4099295341571 -15.4639474758429
-241.260713293351 26.6679725925697 18.425686315806
43.6157829104737 19.5198635021879 -2.78387784949267
-251.316550220716 10.3218031978937 4.99110833840841
-150.224502467705 11.0823217442379 -13.738557422467
-220.247889142606 24.735530223444 22.2029799718862
0.863943931309863 1.01936123360214 -20.2165254821217
-7.46743257007362 -3.45104453576668 -18.9749626386416
-224.852040620041 19.7579993200845 -10.6285212551246
179.886148294169 13.5380271183613 -23.745917952401
66.6463229645677 -7.61553760884464 -16.2360493593949
-188.571471748578 22.6809779660282 14.255010173766
-121.642305793567 -4.95295041605644 -2.71289514501383
177.91532082539 5.3714003388705 12.6437619124504
162.985462961614 -2.27108664540503 10.0058680447992
230.230828709003 -23.7702127805912 2.070535381819
-143.371683321126 15.5654136994285 14.4442971412799
-19.0599408391964 14.9689125939922 -18.5362756497249
225.584298224482 35.79964933921 14.1590964528012
-227.270951318029 -36.1501287913103 -3.68614569023217
-169.714348716725 18.7562259237931 14.9219416326298
150.654563026137 -12.7326477675817 -16.9174536435995
-99.7597136368493 -4.77536300667966 -2.39958400893048
-248.540002450494 -51.5778530418782 0.504682879681587
221.776406375155 18.6519998937074 25.2883022042225
191.578058154285 27.1347523701115 24.9605070027558
196.613643957293 15.7395725444373 -29.4247883963897
-138.081102938563 20.8415629185106 10.6115663544756
-243.638794144588 11.4116904705382 10.7021879451408
212.48933243933 33.5064438060509 30.4052243916329
209.469765339876 -15.3355980140408 -23.9924465138645
-253.933582370016 -17.9608528905768 11.9038244506845
-201.187540808339 24.8885236298146 -2.51490553550503
175.409805040576 -28.1733586019898 8.46123921876448
202.109211030172 -17.7352970269143 -25.7836731588004
148.499766783074 -20.858011104683 2.52236601999988
84.2740525241844 20.2012754900765 -3.43304706125789
-220.153791835469 18.0035631439646 -10.150143332195
204.216086807456 -16.9226993589409 -25.3768756425408
44.614341776934 18.818577298761 -12.1492405710778
201.608128250751 -8.44926039333857 16.2944131964754
117.191821025092 -3.80115987957829 8.07256202169765
192.183919089995 -34.5850247045037 -10.0444324162051
172.604863035637 4.64738043309494 -20.777436402151
-233.046936366497 34.6628667801407 -2.64731954965369
-230.530431152512 -21.4368566691816 -11.7771474738818
-222.968562804869 -28.0551483535027 -2.85218120607767
-249.83467276805 -18.7146442894107 -17.5360442988654
124.321677999306 -12.4069499265441 4.84467469765181
3.35272544055838 -6.29436591813731 -16.7851836117028
110.440625498092 -15.6459482893024 -1.3506772200258
-112.703446304886 20.5555664268458 7.17848686933295
183.257520494027 16.2940404546953 -24.6358969615551
206.614532379092 37.4043405998087 8.98465190381969
204.524555774433 -39.389360356286 18.8108739779204
171.29401886127 18.0932336396639 -20.2072713685296
126.409013631436 -14.2548538160632 3.65420414322534
-111.630386886742 13.9454128117965 12.3228364288131
-148.407340650868 23.3777193150153 3.68692529349613
30.3112169657656 19.0271553267981 -12.7004321925198
203.810999222577 -13.3493656545274 21.4338455715295
-12.0397367962401 2.70225677492405 -20.6149820852649
41.0801394510814 10.8689549904246 -19.6219525823094
207.796256410541 -7.00982211619771 11.468597120414
57.556427829201 15.2798830291778 -16.6414777400981
-255.056610431907 12.0546836843311 14.9268404544453
223.637818736664 24.9399243287341 25.3236396488495
207.425477149551 36.6282302071631 2.71961906367199
-217.25662727372 -19.4802212429845 7.45210022114192
-27.8800120826691 -4.88802231644266 -1.29360870329741
-172.984588204861 19.9909833749792 14.5131176730716
5.0813846926905 -5.18978884609797 -17.8060443970899
-253.942154504942 -21.5927794194747 15.7353018912844
-79.3961125480789 8.4565971808291 11.5799062052266
212.902762493985 -39.2032734219691 27.0065518436273
-246.558503968614 26.5271512216813 17.1731947544739
39.0251949686206 -1.55295159860668 7.61084857451469
211.672783476281 -39.1254853682796 2.00666940035595
-128.550972773049 4.07956644128343 11.2881082097229
62.192676582137 -3.9293460682987 6.01888566108437
53.117582267918 -0.359504877376912 8.77039183020017
207.818448288516 20.6601551741554 33.3285657096018
-236.234308974868 -41.1266131506401 -18.6532674586546
92.9795368439177 20.2834523501045 -5.45066466759387
-225.431400564223 22.7279059989642 -11.4434197941631
189.667503588527 12.9381622887023 22.1343746556904
72.9253015494235 14.7507188079971 -16.927037792181
-228.178851477117 -11.293255560143 11.3082844464998
-169.236837091853 8.64226321052423 -12.1992284274533
192.70251659002 -7.88125186139728 -19.3733690254941
-123.392388806274 22.8458635223529 -0.419776426962864
-212.817936420266 -5.98415770953462 -10.2448456803775
164.160061766116 -24.2428805294964 -6.54500723561281
-63.4046778839222 -4.98785754053462 -5.36585829872743
128.685618119336 20.782386557582 -7.89692439622123
218.858133598025 35.4325065191072 25.8656039699026
190.460972332729 -7.73312212207558 -19.8988058564578
217.810886926023 6.461800064745 19.8801906339829
152.000621530431 -3.33823715258617 9.16245076645134
45.0262771532032 -1.68536476885454 7.56664054902179
-242.861366746865 -6.33500301062796 6.44638731016053
217.661598224208 6.57307646992296 9.26382025939288
-158.68207515538 22.635117440231 -3.15711792621902
-234.657885984975 10.8628313743958 10.1985216756029
-244.710041824918 24.2972207191016 21.6288523608628
37.6722559687617 14.0050432285689 -18.3723715505231
-145.853296643268 9.0580306108132 -14.5888183881399
218.654656417563 35.3961117182972 18.8424760048167
113.43435893961 5.07636481028622 9.4870629455246
-210.756152606618 7.49608777333565 21.8916110258811
218.705089016348 -11.1881515988706 -16.3445412396335
-130.033065899591 6.93921522104063 -16.494075468819
-225.973451466735 -10.0581412454602 -11.1433585695245
183.462433121178 7.68748348111694 13.8726715109845
-212.401689581621 31.2081352656514 10.5296671262414
-64.0600649470854 -4.15243287643035 3.6533909497076
28.1854467817764 -2.50064920139305 5.70641726376273
210.435178806724 22.8068517799749 -28.2054073441447
-18.9669091441243 -5.86893324769989 -4.81072633591607
-37.4573128557583 4.56098356560225 10.4861376498649
208.857016920602 17.8392183608713 32.2753357074649
178.442421709807 11.5442292251069 -23.1560726845865
-167.220001363784 1.50472972207564 13.1103937590048
-114.26789614075 -3.46750440452448 -7.53069607326961
-207.077835310303 11.5600973484691 -9.56249086709434
-247.362522501206 -18.6006338472872 -17.3890018699675
183.429534177894 -18.5740939506095 -18.0662236386539
-206.636892392203 14.6656709119132 -9.35380854830527
-202.705610981119 25.1185991418589 15.331162086729
176.629827988612 12.3245430541228 13.6625588121501
-227.863548613437 -39.9307743864865 1.92711224651803
-202.405905642027 -1.87116803595469 21.0437744261061
-24.2292329669251 -0.473572839525178 -20.1057892960727
-227.401030030723 19.4203591269618 26.1992102966602
-259.60855849295 -28.4722411352724 15.8387774010607
-202.281784046189 -14.6953616523023 2.3693287479199
204.990250813094 21.8221099428775 -30.688284207142
-18.4551458856885 9.01960806167244 -20.5777049052743
177.450418481342 24.66997733606 10.2525063788829
194.487922088954 -40.992530877487 5.2076777938247
-208.798617112889 29.9973536997437 5.6399143405937
223.014174372283 35.0465873480111 20.7226745911281
206.339107374298 14.4444435335252 -28.4604435231689
229.143300944781 -36.9264339832158 1.29131689117545
15.6055828840773 2.25642785662585 11.0966852267723
-226.413559045734 5.76258320864266 18.2854774581509
-47.4445799349261 20.3208423837092 -9.11341351878388
-56.6877416478938 17.5163800912454 2.22960720336734
-215.364913784935 23.4192774725828 21.0281970917211
-58.4722469081253 20.6154258929363 -3.82887808062061
-158.96798763713 16.4437543690904 -10.642438800547
-253.838836336203 -46.6840419100392 -17.3117651182793
46.2441555717079 -7.54125935109391 -0.285549585931316
-224.504612203352 -28.9057910703165 3.18646862785821
205.901908210054 -13.0209057571385 27.3884431558766
154.311329542281 -2.34823987475672 -20.0651241893151
-240.256568229835 27.6810749785145 16.8029728682574
186.864947450534 -11.3964413546204 -19.5524000382673
200.057009943732 -13.2593478731943 -24.804873589092
211.170844995431 -37.2918879504708 -3.92687969476491
218.307668653182 -14.7069161696792 26.2077445729741
87.0214837195687 15.0457123422547 7.86193091474684
-185.237318549505 8.39387210134143 -10.6524947081691
224.700450782816 18.2966940151294 19.7795605360121
-225.772205254169 35.3828613708389 7.38476499781591
-231.989393818139 -41.7665846607139 12.754310762421
-97.0144837311506 10.1297347566864 12.4391523263414
206.30409903646 -21.1062835874694 -25.8997439279865
51.7175298552838 19.4895371716891 -1.51280187490797
148.138553850074 19.8646681434088 -14.1191249349729
-104.603114133091 6.37585854732468 11.4772154312372
185.284465891179 -36.2714560930488 2.5932161156399
192.935937068667 -40.4187123411288 10.2637848616166
-225.44073079702 34.2824789920277 -3.78251768966355
-105.658360650871 16.4655733658283 10.1458705012222
22.8391791326241 15.7121796070396 -17.5396795021082
-252.376866434653 15.8130131376003 -2.07156002806469
53.4445518103832 1.92649733827689 9.53023668111577
227.058045016109 22.1167641421533 3.42719149507455
173.129327241806 -8.22135137644511 10.9283001669554
-226.562245625661 31.9020922940219 -7.3138820151674
11.6912044601565 5.08738327779491 -20.309383870694
-231.86911601411 -0.293669752729676 -12.8029764481744
-233.922402291196 30.5653749249693 14.1682602743423
228.754341735238 -25.9723168790964 -7.97158547363583
41.5905223935344 -10.0971457782602 -12.2986192116272
-268.344788724577 -28.3748256298256 -3.43929866602309
-62.3616393399808 11.8843193686353 9.00608043801047
21.0404394679685 9.78892685214771 -20.0889171766204
188.788867070878 -21.2450756813698 -18.5140125544724
109.299820944949 20.3795682903653 2.31584261740645
-20.6474062396056 14.5733047336129 3.27161619719583
164.845081738493 -10.4947337949215 10.0712670239945
-266.591173550412 -42.7733951497286 -5.24278727156375
33.4260820283715 2.64648386600543 10.1871121543381
