199.694710662416 27.0056759050846 19.9585229552236
63.8724309598931 19.2268044411014 10.1740821391735
-150.706065016108 19.470948413354 -17.9208083920049
90.317804026021 19.0053019773172 4.82069639953867
167.246728164154 13.8416027900099 -9.66282960901025
233.684805733769 -33.2904253684279 -18.2951321344965
225.685853058769 -39.6017167865514 -6.47201966179473
140.467599905604 12.2049982576998 21.0803544397872
223.19584717083 34.1184635574639 -15.8415562279962
-163.146269752488 19.0771734717071 -20.3404559431466
99.0429101280789 -3.77054193566036 -3.68790165334498
-199.736267934669 -20.4268814443971 14.9348166078148
181.066568340873 22.5921481848279 4.88224605998398
-11.5979386347528 19.7389160389442 18.8241451146032
229.579388506694 24.5546488873101 -14.5091668063062
197.049269598897 26.3746358225388 19.0438781930287
-137.10506768506 2.38807898206468 -17.5602394895537
196.226069549989 -6.62752254323419 -17.7649075178768
128.730649022636 16.878118037671 -2.57407306435398
38.3467343821797 0.696324274546471 -7.16661581490456
-157.181268766285 23.3719317634037 -15.2859868723307
-5.39905075723777 19.5189525594879 9.78834521103009
227.914931020219 33.3241679858553 -6.87218387573724
-219.329087766523 -9.11389537046707 22.8575932655471
-216.897003960237 5.56149040907623 3.75517230517879
-226.860910676593 -28.9135965848874 -15.2998328251504
191.226093653694 24.8721193227283 11.4722576522191
206.973213538721 -47.8272056497468 -10.6417153240565
-10.0971474836655 17.0738643110822 3.53752224284767
-212.3418510363 -1.92609622693765 15.9074277935741
-229.591061514348 -44.1378221664864 17.4758342791825
177.792700655851 -29.6926403955784 -6.33067897619792
219.165883475317 27.3448339627786 18.1310579116717
-99.5541520544027 -5.46549395799898 2.50909803405666
-179.995784999828 25.9149276393099 3.62936710561127
-210.234737753171 -0.120744088387872 -7.9326838213213
208.694626085227 8.53092329648139 -25.7912199948618
-132.204235851499 15.0570724125299 -17.4753614662376
67.8089892906705 5.60118327804602 25.8384279648348
-155.58091130886 -9.97010257213459 -3.14250946846336
-140.677290952985 5.71613030403657 -18.0065928143349
231.290269367545 -29.8784390630828 4.40648158260128
-242.403648208688 -21.0913163157964 -0.0100814703010138
45.7169829908188 5.6619956585075 -5.29870142740303
-42.3742421971162 4.93725139357838 24.7476289015722
-227.993281107951 -10.2613274654113 -3.60763641974244
193.374578054212 -17.9836089049027 -20.8594794206525
207.535759245047 -1.60856405617609 22.6119908282626
-172.449002669717 -18.5749117508548 -15.4088288697466
168.123767395221 20.1534965246645 6.34649123999884
17.7533548043958 -1.60981888719228 -1.62951977873913
204.025980435929 27.6489154345701 19.9450548029618
-90.4232703361817 23.010599022469 -1.1339994511765
-168.198968797648 2.41917091597135 -23.0060886296608
149.314444019747 9.33197113649466 -7.21302172579758
166.530409025317 -17.5569510408484 -9.2194958445303
-13.4587047556419 18.7975819553588 20.8227224222361
230.730403133379 -40.9903111266139 -16.0289449790943
174.727270512734 -5.23330586632997 -9.99937577237141
-170.173257690263 27.0454606554377 -14.7729657395527
-177.631856480444 -14.2118299006832 4.85410803757091
-24.0382739969046 -4.85012745347632 19.6824358488104
-0.576350240716785 19.9552453376001 12.6456956916105
201.974404342494 -0.894685702454851 -17.8008325909249
-144.674866791497 -2.24300913959167 -17.9077651024547
-3.53724709611767 -2.53921992571691 -0.161668759981744
-59.5245837520789 0.447623427070304 20.9671218351991
-140.067019473105 9.11941501233645 -18.4530190660222
-210.308212273651 -13.6679451052369 23.6781761302725
202.599035610462 -38.1592088243008 -33.2140345423483
-12.5769882029247 -6.31321333957299 18.6087103600654
121.866460185153 7.33649997895171 24.1818341713115
-202.76873957596 -38.3273756227355 15.0051141718981
-230.820259781364 -14.040948411899 -10.8894347002757
-233.411649661348 -44.9636691031839 6.98129106103175
74.0278321234324 -2.82082523445876 -3.5548585204646
-149.119372911551 17.980033672717 7.63778044993258
-51.7814068162222 2.75670194085744 23.3655253415215
-166.459826153074 0.465202823843101 -22.6973269371736
-77.5122038421023 -5.82476314005351 4.80843032905803
105.216191470163 12.8650688088495 -3.25311783811453
-193.845682264909 2.9614130807673 -20.7229979936293
-193.174022202853 30.0831774590206 5.94611098959292
214.565883387518 -31.0309206835156 14.2161156565404
-73.3377154183285 8.36541184957886 -11.8208009941233
-200.220883057304 -8.87831438139425 15.6715693384328
62.9364506308372 2.40487123040359 -6.70105093772672
191.608639123625 31.5824472614561 -12.6101399860667
215.433307711247 -15.1356596923367 -18.7405147709824
-215.655466499646 12.5947663240635 8.4582628329735
196.075126708809 33.931465007533 -5.23008938485826
102.498960591377 -5.00708063632204 -3.46519368697664
-211.33711317916 24.0681384060252 9.80421773000921
166.026192917283 7.85597969843517 -9.28308096394372
195.050700116621 27.7877685515283 -26.733325215649
201.674813476553 -16.4676657041621 -30.181649048324
-93.4689323977918 7.05386137404959 -12.5681839901687
-182.15479859136 25.9991424604263 3.92344141204787
150.688277183763 -1.90121097681771 23.1356199570636
-154.929842778832 25.7721292505032 -8.7404800041004
-194.201217282285 -15.1643405478382 13.0978099085343
-209.670499201206 -32.4251944244975 -12.0063470119779
167.822686816714 -24.711650801188 -0.248844317877026
-196.217651865876 4.78847317044541 16.1860749720506
-68.1521226346625 13.8475610436237 21.1043099571498
-185.984154671888 -18.8735414474682 3.64167111274554
-156.845437046866 24.8837640489047 -12.9276514260833
81.9324000469571 -10.8565959694871 18.7769656428598
155.820716904586 20.0563617359394 1.55228759780154
11.503429253966 3.20323131688087 -7.39836705461594
-126.537433537972 7.7530790756837 14.1973508716628
188.618660138524 25.395220771702 -15.1317187351192
197.176847824778 18.3740515250232 -29.7652566853627
229.026312341015 -26.4774587672662 -28.3151902263267
30.4373304593829 -9.19498997930401 17.9346987861838
165.3776854986 5.64166598467687 -8.87348538619432
-27.8082630407518 -0.0460325563804485 -3.2676619522231
-126.18156487196 -5.8457378435437 -5.54466859312175
196.734218202983 -40.9391085802077 1.37590709630359
-160.891287107439 26.655721915692 -5.60595875737939
78.8533742381439 17.390065243413 17.5038947031528
153.312967018515 18.7227134393094 10.8191468473688
198.700755072114 -42.4430696175152 0.973573727621762
24.9055755850346 -3.73145487762829 24.208948243727
-89.9537399475271 -2.48475223904827 -3.78311081949994
62.7313617964169 -10.516872104164 7.29147874669382
-208.730600080583 28.80444122977 5.40391411154311
-157.632307188755 -10.2296070245145 -2.40898067541048
-211.960559858118 11.9517397580001 12.8781531957549
-216.139202901007 -35.7097538040135 26.7101216491776
-204.719172010949 -12.5080337295985 -10.8003497259148
-206.318363637308 23.4336565904079 9.51314290837798
161.789893101466 20.5731901810307 -1.44284867303939
-0.270477631662037 15.6657223012436 1.95963800859137
194.362691655714 -10.3656249414848 -17.4647645150397
204.504746262569 -16.2327792517667 -30.0838187206237
196.668267833107 -10.3195959973198 -18.8949640234316
-196.873669601717 -8.31594974693235 14.7303070014755
72.5071721481409 -12.8137791511999 12.1119651951447
-73.4876043345659 20.5702037432637 -2.97328297165783
206.233865865229 37.7252422946625 -3.73164492327718
171.322942943661 -25.548607909791 1.37345077232519
88.0852968580176 -0.860043154118263 -4.45884776971704
227.1658720465 -21.9062719948809 -28.3115314136293
193.476182452185 -4.24672816350484 22.6930681169975
215.115650476197 -21.6481208512441 21.6178854374987
-10.2483106461765 8.83954084182499 -5.85571199244534
225.19514623996 2.43601652652021 -3.03914061195363
155.191939007863 -7.89719362062714 -6.97667696760733
-204.309626627691 32.7924864954644 -0.419252897336045
175.185614158006 -2.06341665352226 -10.1050056114357
15.6765050186268 10.3943708564921 -2.48344200948367
184.778435603579 -33.6557392125923 -5.77780046112194
-93.6712888079474 -5.53806951132879 3.40790217318251
-174.261950280966 30.4100003033884 -8.03537246937112
160.325303908092 20.6107202033584 -3.40030658790344
-203.188245655976 24.9065451795305 -26.0828462220749
19.7637095173848 4.75517613466918 -7.15188342082097
232.931124990917 -23.7182150147111 -12.5790212098343
-216.026970735776 22.3371429603755 7.76126307331522
-203.929990368922 -34.4599898254232 0.988451473540199
210.166137131449 32.1940170289872 8.28660195662797
224.211848014947 26.5178194105698 -26.4302691976691
180.354529361524 -31.401481359483 -8.14489398922496
185.500482357355 24.2641266080616 4.04813770304256
-204.626322288106 27.789981470499 -24.1135549052702
-115.20390091326 23.8504594313535 -8.87982782669292
-35.2028409302548 9.17950779553981 25.2453966548696
-211.876196762587 8.85644693929753 -26.9770562789347
185.493459191744 22.9396395260714 9.18862821855401
189.653625962872 26.9179713120291 0.799502098449851
-151.763120783547 -8.05232603486893 6.42588104233968
201.912410395663 -16.1084855559957 -23.8463751824593
-217.347834600486 9.55688806562033 1.20975088150067
154.438849557918 -3.96821620866609 -7.22703218915809
-218.598200674682 -26.9645205644292 -16.4002156909599
-138.788331241749 14.7354703641671 -18.7555325154365
190.974160072893 -8.28321391721732 21.6587137832501
209.790432053384 33.9024006344364 -22.3267120935459
-199.697045761489 13.5805379226769 15.9369973456129
45.5280450209129 13.9559242717635 0.701629723400806
193.1502334064 30.0022793989992 -16.9122912266802
-175.194863354117 10.5294755415043 9.22943391829532
209.332237316937 35.5698649050296 -20.0481383593906
-219.008971397972 15.4952185457647 -8.49282135386917
82.526218598214 2.56701453120926 25.512849991981
-218.909481818823 -48.0032133243705 12.8285789250937
229.812766334894 17.8867643308856 -10.8629173467341
168.042298466099 -2.41956628242243 -8.93238976771747
228.770899669909 20.6740167726513 -17.97377530702
132.673521517879 -14.0316361609027 -1.91611383812357
209.767206544552 32.0052866488452 6.76521009001551
230.545908332847 24.8424496207452 -6.6115786518036
182.122248769218 -5.27580616873084 21.1941107394455
-179.978993619318 -3.61934172606479 -20.1175827961441
-215.2017568508 -24.2153456036135 -16.1634856105492
-43.9368448984762 5.64320233594605 -9.17984731028073
66.1523586854005 -7.42836257710217 21.7901463535849
190.748183977985 29.8143144176906 -13.2695905748982
-77.5001830550488 5.33337451934322 -10.5417684362295
110.872081048931 -9.13709426314899 -1.91352832749775
180.96268791822 -4.01782416668597 -11.5469802033733
148.976911474997 -17.278764039698 -3.85478110168254
201.687369473377 6.91760611600585 -23.7502294784344
-187.311046661535 -10.0232888320155 -13.0438635027222
-207.860940717718 14.1307705438954 -16.180965889829
-181.157506462633 -0.56888288165639 -21.0898594579984
147.007718847422 -9.17721552117401 -6.19686052855606
-184.449933653656 -18.5499184312486 0.748344513729086
209.16012349899 32.1200573180408 -25.3246828776993
193.957897526419 0.494332264809744 -15.4236140108635
-7.89445921960789 19.9296270427345 11.3407596938313
-201.646097158766 12.631015624876 -11.1002223056708
-217.438621690375 -15.4138283241411 26.884343978281
-52.8125170290367 12.4437023551658 23.3675612065282
-161.515526324157 10.0447496066201 9.37672255187423
74.528575341382 5.86168440928072 25.6433163019137
-221.704992914113 -47.5838229353051 14.0113030505141
-190.168615878418 -20.8640236154497 5.62626623789585
-231.158758215035 -10.5875641832245 -1.74089342064381
-144.135191283011 15.1581938089485 -19.3170639945825
-210.539112072026 11.9850748563478 -17.2506504931246
190.960903496993 -40.5997682050282 -17.2681415228924
29.7876548695732 -1.72882188230851 -1.99167272183398
124.286054250287 -15.371299930358 13.9903488406111
-209.188135130633 -45.4611752198907 10.9857889355622
-80.2099940275634 21.6448445517613 8.4930577781349
-76.3215950915171 19.7321105630644 13.8921530134494
-227.190106719585 -46.9573038792368 12.6290512172876
-21.2937174282724 18.3939272421597 21.2225369735726
-93.1793758310741 -4.00442051764613 11.0224224497501
86.7850726597132 -3.8744112294334 23.5297903475975
-155.888120641946 25.9049487888697 -5.46223427518027
8.23581465940746 3.07243987429436 -7.42652532988971
43.509559426916 -8.9919427766481 7.18878654769524
-112.034449737848 4.47082100510536 15.5621349724781
-165.089767068653 -7.08272506648718 11.5133029266101
85.6511990919755 3.69697327900671 -5.40086678606967
-146.269796815305 15.7308096135112 -19.2581530750442
215.927851672887 -36.6399024047893 -38.2738611620101
-163.470823755021 23.0128341503609 -17.2119270154212
39.8259367157068 4.40432757915518 -7.11239422305623
-202.98531396108 -22.7566513850891 19.2629285832909
134.391843107105 18.7737484477625 -0.725640353813783
-224.064668910912 -46.2748772760221 16.4144283359882
-207.678694742167 28.9196472209653 -22.9285606879134
19.1387438942698 -6.57139396632956 5.14905172412687
-193.626472895731 -7.94655710594525 -12.4157380133796
226.14818829088 5.00199594740032 -6.20001733559883
-164.304928054446 -20.575300143935 -18.9390906462484
-97.930203630481 5.39497876881752 -12.5733452481755
228.972709695492 16.5294959210564 4.88496748992617
131.43023623653 -0.14759768921279 -5.85577082431158
159.406742706339 -3.77432081859973 22.3426643821569
-193.771359681692 -4.19526828560603 13.844136213999
168.206168617548 20.2676617121178 -7.21937671044697
-71.1156760402583 6.758947382367 -10.2960144587511
-107.181503198525 -0.756825407687086 -9.39025393626593
-78.9819313918995 9.9497665380923 -12.7181465090112
-22.3550180864598 -7.14532570789862 10.2519865220883
-216.88555610707 18.492441237406 -25.1482922084583
-220.244186601477 -48.5787240553394 8.29283470616409
35.2814938238229 4.54975700080331 -7.23874588573513
176.993074125001 -9.37742725065689 19.7808364966955
-170.222108138018 18.5236698601225 6.55419477577472
204.446813719311 -40.7319100887714 3.99709935419506
-178.515251994108 32.1593017473667 -6.41629111553534
185.280380155907 0.663776233848491 -12.5504687594463
-37.3243640813442 18.5247720673402 2.40140629052677
171.744856313188 -2.82400307821455 22.0816970331837
204.383971743161 -45.3433025521827 -3.19166376338386
-45.6538633798519 10.4078310159381 24.4439617156293
-145.268257633616 -4.72230878583445 -17.6860231602884
-193.43103262431 7.18964757195682 -28.5448378035495
-215.845494190287 13.6096616463331 -8.31921605410353
-143.500442592614 -7.20140022983566 -14.0763390839327
157.527806108676 19.5586703668573 6.44387920097792
-5.62677627985796 -0.292229433772003 -2.95159322308668
201.345464686159 -11.6810207302944 22.994218222625
150.552980995385 -19.9708582333008 0.560079705138425
-6.11058104032605 4.07181745485998 26.1049563929045
-38.7665026436941 4.61084138305384 -8.36342003121335
-196.090037841788 30.665157381879 5.53843278764269
185.02048325017 20.8811958068914 -15.3065734719344
84.1042125256377 19.4556768658049 8.41094648516868
-200.762091549589 -31.8994155898118 8.31569610194956
-187.60612984982 17.9631913355904 7.79119207306085
232.756265476896 -22.5937776949061 -9.59017647335108
134.474622436305 -0.889199436646633 23.9358574674795
-154.287118248469 -7.90440901719197 7.84353186074762
-216.092999571508 4.99932297645112 6.44929252212465
-5.13564511618884 -7.70622047504074 15.1425457015533
219.873313046819 7.41624518104252 -21.3355829956733
-102.620515647931 -5.47233332277271 1.91006284224875
219.88332559796 0.212195837039637 -7.34707528399659
125.760362757632 2.89125424208253 24.8253328197929
-200.289166444531 18.367240867595 10.0114764334626
-198.638722392743 4.79603526492088 -15.7408209495486
68.5191801448795 19.2550212766712 9.82938859376036
190.514749392953 -23.0377202920851 16.6660671849316
231.222609743633 -24.2123056485142 4.03520830043395
131.068908405664 -9.95021115616743 -4.29307377779688
186.698697375629 -35.0436575435948 -14.203908762343
-186.913159487361 10.6697791841647 -28.3870038006146
-92.9754779506265 22.5835659255207 4.29855558859932
-54.5691371765506 -5.26497343625025 14.2149458576204
-196.858131384487 -23.1102616661962 -1.87437787857506
-167.710915648166 15.7608845318883 7.56666844790575
135.145585029762 -14.1451841697272 15.6897806610809
232.540559353964 -40.1764421200012 -14.3215222263017
146.071412154102 -15.1811427514486 14.6558522933862
195.379764958124 27.6826529875994 9.14387804585053
230.688113040562 -34.421459669197 3.84365234852638
-205.631838486648 34.6300117373732 -2.15796003463237
30.6319584652678 6.13004184951513 -5.35082975758643
188.996461600434 24.7813215938755 7.72633680753099
-170.551785163948 0.974637880480152 11.3935709500352
166.182794079248 20.2937171507534 4.54746691587844
27.629783843688 18.7573419490229 8.84299089417814
202.63921785883 -41.3384137634538 -27.6393536888512
182.679494539786 20.5277467574785 -14.3594331957046
-168.720261907922 28.4246966870045 -10.1839621570122
228.256795106266 -20.5066603071894 -24.4648092583045
123.531844764951 -7.50682270339971 -4.33042346384207
213.620941009506 -34.3975325752304 -38.4414029258824
-140.003645958157 -2.70467988173635 -16.2317266510402
24.0119352063762 18.6494458613261 8.41671190005034
144.755473757742 18.4431986582794 -2.9059734454248
160.449299341263 1.07344237590841 -8.08062375742063
184.274633346054 25.5668904895701 -1.72758942411182
-219.667527582408 -2.08675618970542 2.8219780412586
-75.3541052640268 20.8821584226833 11.4981373062082
167.525587997405 2.09025967375703 -8.98563425784466
185.610520629005 26.8791362054745 -10.2083610916217
-218.367083436297 11.1401344666605 -0.335868786142749
-82.0285873112094 -3.55005311386258 -1.45024691036685
186.824903445009 -33.1542965017835 0.129142595345646
-221.675507231299 -13.3862868808145 -12.4550110825399
16.3189654366002 -2.77097192324366 0.122125222051615
-114.353700056822 -2.21984491747054 -9.25361534985263
-181.680633272943 1.9758361880082 -24.5744644097315
-197.14458103345 -5.41036783087526 14.5022840380746
-58.0094616563608 -5.90878960288107 11.3150854440533
-40.9452093883248 20.0366105531823 5.09940073678007
187.295372792983 28.8747352621707 -8.00630512576197
-19.1920446138143 6.65465858235938 25.9060155362135
110.685845418736 19.8281021831319 7.48705162901547
-177.972427239804 12.5936218017894 8.66414386310896
75.6686859044374 -9.47560696950059 20.1353919814734
12.759246833315 7.61294863614804 -4.69946653231675
24.2818705105549 5.39525482137287 -6.495901576237
203.269900762875 -48.2846828358696 -7.75060841944511
210.948228763022 37.2931026872579 -14.4717746504827
179.919920835897 23.7380294160052 -0.494601628949606
228.985487303022 26.8793312775893 -15.7532333444826
138.81072366006 17.0786991638686 -3.71648117504518
209.654238212173 28.1765233940859 18.8037761185581
146.15242547376 18.0734336074343 13.3193743849913
-27.6908972759177 1.95924819644909 24.8981856452144
158.280053117529 2.53070242228628 -7.93973003360451
132.12706680876 -2.65730215246424 23.2897491172645
-185.364641552467 9.00765794871629 12.8549670927491
218.841064787468 -43.0114585293547 -18.8931270544729
-3.04222473151155 17.3541162358316 22.714778902463
-49.2690382054867 -5.52917649352314 14.761263510462
123.775448339139 -16.9598584831172 10.7199779606471
201.831001510019 -14.3259071843996 22.3416095644063
196.741140980234 -46.7937758972849 -12.5993154491526
-105.151486869869 -5.46208200919713 1.75698819089304
121.332017429722 -12.0877567720224 17.6424961480052
211.455108290561 34.3769203758987 -25.3202724506617
32.7524636391054 -9.79429162986197 12.6908494558011
-121.352303015106 11.2140394074479 14.461339808161
223.612889236275 -37.385714075501 2.9854289579755
-1.70163616154621 12.9082643333463 25.518381607314
32.8401678889613 12.9734768095697 25.0414365618459
96.1880035350047 -6.06274112912431 -2.4630142172068
-107.984952940617 24.8120156598445 -3.31388402860923
-73.3188860435323 -5.81217469952612 4.89728843125244
218.347148935023 -27.8471629972173 -37.2814262331663
27.8579973680255 -0.93315406920628 -3.99854553073655
214.992861232617 -35.1682522759443 9.4641523415834
12.7113657251205 -3.68512615279937 1.28824017309763
64.1865054493566 -0.812993118397878 -4.58620352245082
-189.456448425588 -9.17515061411955 13.40406802258
-133.839946583432 12.0771660383294 -18.6544678435534
-63.315773007123 1.05044569276765 -5.76770014778162
-94.7027520040071 -4.73328817834368 9.58450498005905
-226.794633467223 -45.4899389201656 16.7957575405173
221.800128414196 14.1271402310017 -25.8410435416416
198.6360398765 10.9123392855772 -26.257990195083
-69.0522532581575 19.3545346212058 -4.02140540328511
-45.7410184633127 6.40202565839015 -9.85883784297017
211.817412433925 16.8198761361854 -32.1455101423892
87.4457116254533 -14.0969614916236 11.6665522864219
-211.126796800168 17.001019568777 -29.295195210437
-134.491817149765 16.359171750185 10.0456174463713
158.565966075736 -12.7012048408644 -7.36626343118755
199.238078493686 34.9867104369624 -17.3573007494779
-220.00242017862 -48.0244600075574 -0.968632376348901
172.735876439966 -26.0445397882367 -8.29527426407038
202.746689332908 31.9239392486932 7.55123609003912
209.398812854954 -11.3762563580111 -17.3028960910054
130.808033551146 10.0465145658539 22.6569850138683
-150.931915290941 1.47800093139756 -20.2222266473531
-162.523668529648 25.5576447363318 -13.8243909735823
192.157188704704 26.0309349223039 8.70449016138185
-168.602799089426 -4.76904590330247 13.5582988766837
-182.544930702076 -18.0948227158212 -5.04434337711745
226.112053479345 -8.62945168118575 -2.22796536909881
147.121439862581 19.0011293644912 10.1861801050051
-102.625711903998 1.81624730591883 15.3788651522907
-61.5635301265812 -0.310952322145063 -4.05227605031679
146.917098492406 -4.458556111825 -6.5100242379128
12.4042416194739 19.4509629157275 18.2889734529387
77.3198314467044 -5.53968824104877 -1.50466949325138
-74.6048037982671 9.99689373457028 -12.3736559529233
-217.823119358784 13.8484093735248 -10.4378908512793
-232.574746854323 -10.349361032 0.691061789391278
-47.0916176821719 7.18216949269479 -10.4843894631545
-209.008272147212 23.4871117740913 10.055551876859
-140.661037127892 21.1361951180846 5.1078868228872
-193.174127110734 0.754337263417065 -17.783374066584
-99.0620887280706 -1.01068883671561 -7.26224821992704
-211.230740384837 -38.2157547786376 23.4507794246986
136.191362728954 -15.9090308504855 13.5429370886239
30.0861452372856 10.9830731354652 -1.47202522213178
-195.384336555234 28.4079855094876 6.44505020398134
195.144651119381 -33.2912959961236 -23.8118568375084
87.2109834768506 7.51516219268615 -3.94629000789749
161.525095177143 -17.4513935348807 12.818071878044
219.46628035582 -40.4412827244709 -0.00379636405053786
171.070972360834 -8.31205770651823 -9.40634443531798
-121.917131516053 0.535664192808031 13.1368314650321
-221.191985341914 -30.7299442903752 28.9834114576494
163.839172412755 -18.5887399299196 -8.04513811597088
-205.31478775835 -22.0900297914976 23.2396274952071
-233.142355240662 -45.2671543740219 11.7596957148122
10.1070845772654 9.58892959637223 26.3316405725206
-201.528165376346 32.4389966874416 -18.3511209205646
-242.731611046275 -30.8262395923163 3.03755963021555
206.916809276437 26.8934644069717 21.9988472177779
-210.11308919301 7.2782572858342 -25.1240767324872
148.245992391851 -11.2434546732158 -6.07472245292632
116.786387151884 17.2276226525753 -1.11239188109415
42.3671151539584 -9.22069837947096 19.4369511204312
-65.8112571188835 -5.83823572344996 9.90800560238454
-239.489822253584 -13.8263002828085 -0.364122229831554
136.426214443105 -3.93397251999288 -5.82990793176998
92.9284317920416 -4.56950057322819 23.0834747828677
-188.712613580664 6.769909588335 14.3460301701977
-214.117633683723 24.7593501280267 -24.5194956872507
-95.0584395592977 13.6721511499887 -14.1608794795193
-51.6665697627621 15.6454023231371 21.7667360254934
181.648432842378 3.83477979777381 23.4994792326771
-95.3841662908565 -5.36274734711215 7.75956465994567
149.347136979171 18.9536555713885 -2.99329680650882
192.315162041842 -38.5833595645345 -1.1608906583124
-145.893689432647 6.13117898577997 -18.6498103612952
-189.542747460437 -19.7258360861194 -4.22876181015272
216.192516463337 -45.8565605225695 -11.9133604248985
-4.86524177926073 1.76745476736986 25.81738744183
195.440151685589 27.0909658316684 11.731581164268
192.57700626627 25.7054726137245 -18.7494568043556
-221.62854720902 -5.79859208080582 0.755327643890901
-181.631314914323 33.8812834319997 -5.32050914608737
197.331778102403 -29.18228315055 -31.3027614890428
149.121002613418 11.9220318524802 21.103452918941
127.24719947194 19.2615611347621 10.6842737963051
-32.206439618457 17.5683298279089 1.5556503893965
-147.380353290094 2.14114597512411 -19.0239706327171
-212.469600567623 8.93398423038573 9.27305986928956
83.9820047007954 -0.207900102870128 -4.57007108393333
-176.321299579615 -16.6697116833814 -12.7755531045401
36.213459994868 7.02731236664838 -4.18631859815476
186.009437604056 -12.2120099428777 19.9204585590537
170.600628904967 -20.3259095419491 10.6602864065661
-40.0218457739979 7.98720555890461 25.0355491570108
119.593888087393 13.436106067708 20.5326152787088
137.809141047926 -8.71931889202717 -5.64750675217957
194.636192687514 16.2105546625228 29.8218222282881
-205.164254090304 29.3163752475988 -22.6277878033212
228.234879995589 22.0626114418141 -19.7561737651614
79.7771128268591 -10.2502202001795 19.3671288045367
177.253468687585 23.3793678218627 -7.8854062315554
22.717521990604 19.697083314183 15.0099899621237
190.168670419245 -3.99234779495456 -14.4587871480869
-176.384213163309 -3.77412592991668 -22.6213904943939
138.885015180368 -7.59274322895511 20.8172388506668
-145.286678634575 -8.30428488359059 2.9055323687811
-34.6150957219207 -0.0465269709812872 23.3750251520122
208.065685634206 -42.872420604319 0.0729366315008557
-197.050632823836 -12.2488019323616 14.8075467506305
-209.579830568625 13.1363336589949 -15.0635026942573
-148.676741689383 5.81993485273427 11.5139124865368
-91.9974487432877 0.700113269468434 -8.10251057672885
228.416092381346 14.4803111103542 -15.0236086803148
191.788425179247 -37.0812485759545 -18.8763191105306
177.115891439396 23.5516881159173 -2.51323348884829
-207.949862615882 -1.00062509975668 15.4904271983024
-218.365227411164 -15.0854649018887 -13.3145034012876
-127.853817699652 -4.97989163987169 9.13720528122456
-220.782797663866 -48.5989239848542 3.52819234370617
40.1113237888911 16.5916411240537 3.48195107730505
-228.292904124301 -43.0428540726598 7.00291427547352
-1.42564581312554 18.5501155688822 7.36334846160231
153.738724439801 -9.42307100040675 19.7370242084806
-130.336426241986 19.9232376240235 7.46192793224372
-16.5172494225584 18.9531725250573 20.5535545254721
49.1290765639758 -8.41688215557579 5.51819789632346
225.328800090684 32.98046782394 -21.3497166171504
-161.591752868969 -8.05854793385752 10.0772740295706
-188.410768147586 -13.3336866262299 11.7669407103865
117.967417097937 9.37721284982051 23.4023521216561
-174.270733067267 -17.8445372770043 -11.1537727418723
-200.735995106998 36.1031515870578 -13.9635325604518
-204.072092997917 12.666250185639 -28.468832548968
-188.722871205845 -16.4116865583992 -8.0183578669518
-69.6234896151928 11.8296468278395 21.7937772223023
-50.3388348396621 -4.39640763951335 1.82816526693196
-82.6686482879928 6.11325825388646 -11.1075949553354
195.052166307287 -14.268958119352 -19.3291613633682
-199.550972737138 33.0857900521021 -17.1198580926
67.887461742614 12.2310119347051 -1.30695072134001
204.099948054701 35.9512358179702 -17.7850683618211
-223.234415589147 -7.13810416651726 1.03085418772445
224.970966436563 34.9778577921566 -16.6501021702079
-231.294698334109 -7.03514477070504 15.290054272149
49.7809132505648 19.1815607243017 10.4797945103557
197.791987029365 36.7148192962296 -13.7476592046751
21.6154801755628 19.2067907674641 18.3129961854442
100.729797884875 -1.4260249644519 -4.76871043052566
195.002320796461 -42.4695438143909 -4.229061234814
219.658581444868 -44.6108416983321 -6.11620969395596
37.5674954892447 -2.17046026883614 24.9591584750741
143.756535503109 17.5133856087092 14.7290540607949
-172.22770734691 -15.1073217119515 -2.44639828962782
22.9938942123743 -0.794600882434121 -3.86722943064875
-189.932703277212 -3.34875463254182 -16.1098393856503
212.198636401782 -40.5402767734213 2.22251237610279
199.056456637205 -35.2903012646651 -29.9994814677175
226.899803274557 -36.8961613256368 -32.5559095399754
186.959566946063 -3.18830524124104 21.6191832609586
224.129964577177 -41.756564622587 -13.3233980052269
-240.266723071621 -37.6954441148233 9.74272758916871
-102.958576860045 -0.430385435852337 13.7959665422973
-49.3203193381977 -5.8098765873494 5.31550323269938
169.954528926958 21.6188368176329 -2.26731835596977
128.823695091566 18.4438788790629 13.07010659622
-178.290425664966 27.7174772069932 -19.0419271807845
-185.549181193835 -17.8025968225114 -6.50849895037943
-200.895379989026 -8.46358570456652 -11.4431399794572
198.558975910745 -14.333997191749 -20.8073871606213
-5.18507313083623 18.6144750865356 7.29822461669206
-133.840612774788 24.3734081674334 -9.53862693785365
-221.290827808966 -43.0865007666975 21.6345711114681
200.036857023472 6.83220417408837 26.3838365385447
200.955315998238 -22.7248381437899 -32.4437047958373
-35.6020681847763 11.8693249593786 -6.37575470960122
-203.235959351066 -27.8676076534972 -1.44936060759476
42.0355396274373 18.8448391340933 16.9957661192028
45.7955419245754 18.5800405841464 17.2820828454971
110.209670615915 -13.5732483638407 2.36570014045772
222.096207403248 -42.4424730305826 -6.48978650082819
93.1157254086475 15.1260474624401 -1.04045794335316
126.512660047456 -4.3778923083501 22.6359005944505
-238.304012191155 -38.5036825933771 14.9426566381884
114.660618426094 11.3884825532731 22.3145379063009
25.6054314149952 6.6526927976064 -4.68612705259549
-213.837289988381 6.30283942866934 -20.4234031886937
36.7559553532584 19.0571628792392 16.6991314931079
3.53309981458016 -3.92937012071064 1.60163278607624
229.504053853602 -22.3084876694299 7.47422891597693
-209.392588557267 12.3129585902312 16.562557329207
229.063546801929 -19.6394613873536 5.75017681259665
-149.908942933643 3.03842467151503 -19.7178512051614
-205.322391608932 -16.6960348881627 20.3201043842412
-96.1638197282967 0.457104192951119 15.1431163898421
137.590601282756 -4.27805161052132 22.5310850390309
178.999680754357 -13.3114716004198 18.5063618653402
-37.3150740971849 16.9786253643612 21.8432179669886
176.212959988454 -5.0200108984305 21.309942285509
210.286738662591 -0.833996547743023 -15.2689902582999
-235.463506697264 -40.6132550821289 -2.94880394327788
109.197609631295 -7.37030485590621 -2.82546554815333
173.650718466944 -8.62391943291061 -10.1591666373013
-157.529048689333 -9.79006496763239 3.89274505332424
-125.816077746706 14.3414027775916 -17.9896874927377
127.903648304644 19.8990342351585 7.01296143117113
180.244927246649 -22.6519402741788 -16.5538549182897
12.8079136971189 -7.73525240492057 8.56147270899337
-178.059424789987 -1.94089333475786 -22.8620208483403
-91.3914486877369 -3.75090681011538 11.5642789907407
51.0012525277629 16.6476931039638 20.9265263497374
219.634582653079 -12.4815312208275 16.9555511446574
213.476983602501 34.5901615557584 -30.7133879366414
202.661460177283 -36.4536783424167 -35.7657504901005
-200.636785727225 10.8577846988866 -28.1467423516096
-218.781515735275 -1.00662583936583 1.8210730447846
217.53029992217 10.0038183533633 -25.5669378190647
-211.890902185492 -0.692561519865318 -6.77854521700772
49.2939816439471 -3.40037082484513 -0.670188279747738
200.199460089121 8.40307443817065 -25.1408376396803
112.306051175976 19.6725359773013 5.25029445998384
-217.157066608628 10.3358675938954 2.86938742687921
56.1732465658842 -7.42688496441672 21.8685195308099
-185.519231487359 36.7177053312025 -4.56661188553718
-212.50997069162 -8.23995277814885 20.2057088556026
227.145931483839 -26.9107087365253 11.1704778217429
123.459175473595 19.9091522207988 7.07921894542521
-131.878988499426 17.7069141884105 -16.3844649917363
-158.894216399291 -10.266468546081 -0.818916048094037
163.175655461779 -23.4276466336171 -2.28200289228133
-181.941448518831 -9.3941892702439 -15.7490320638081
-207.933114220781 -43.3135032796761 -1.80807790622567
197.289231423197 31.7337069982186 -25.9513020014855
-213.802526384433 12.0882152364504 -9.54097424934351
-217.446424309303 6.40335956276751 -27.6780846412641
-63.855917553315 6.52247932826614 -10.1738210891791
165.754525678363 18.371303215634 12.1722147742169
-218.688966411345 -45.5022040730615 -5.33626542899782
183.216883427068 5.31034280484936 -12.2122312279103
214.550764655171 36.7803033888074 -25.6382706380076
208.67016558879 -15.8715064690783 23.3845986646591
59.5775464635051 14.6288416006949 0.760177979440749
-169.727587972094 -2.66804425453392 -23.2585712480399
-215.049257455396 19.6603940194677 11.9532835735736
223.037694099522 20.2506959509935 19.1415736516913
-217.640420117451 1.05446200548705 5.52524214771142
-236.384856921935 -14.5099413347466 -5.16978393617211
-120.209637069001 -5.76172580572863 3.30066766410489
89.6503481585712 19.541993394037 9.29343453312779
-225.903073475814 -38.6366890151433 -11.6953321720768
-10.731642619997 -4.7023665240888 21.3196528234221
-144.914463172585 -8.67589138865493 -5.90996027956844
-222.622009438335 -5.13429589501855 6.50124791541433
206.104970310948 25.9231038419244 24.2303247313113
-232.427364925755 -18.9183659728542 25.2135485485643
-206.738842677328 -21.5726173678392 -9.06370108003921
116.591640318756 7.15925491008607 24.2974786314452
-25.7790945369455 14.5136396116466 -2.03554436087476
-141.274187897942 8.23340611220963 12.1911130986277
-189.983136340869 -11.0409252994512 13.1342758332545
223.350184133997 -23.8856288369161 -33.6186741983311
-112.362648140884 23.2796024213908 -9.64156877349183
-197.724372176484 21.8772064700943 7.59010898320163
72.5819008922818 18.4537026071991 15.2653252408139
-198.600344598067 -8.99261936840634 -11.1748688333336
-90.4492761699022 -4.6747017686858 0.27599702824534
-90.9007907625982 -3.79541519337791 -1.69475717554953
-81.4365897778676 -1.69033551431219 -4.05818464498968
223.709019297235 28.5684093153223 6.17372143508848
-206.360709197163 -42.052297593774 14.6519540175994
206.398178289177 -46.5633761981326 -17.9492941793357
227.106141179744 -25.7306846435587 -30.6049729071211
14.9780224261845 14.8455421732139 1.25428425248315
229.119379758853 -34.9969367727462 4.74143344219344
-187.965405251813 30.7438014119457 -20.9318645671231
-162.156506396805 -11.3028806572171 0.504749279251676
-212.18871404426 10.7461675676632 -9.08646180938324
227.672551102012 34.4937272716384 -13.3063964160458
217.242233761451 -39.2847349354685 2.74023170706833
-239.952598462493 -38.5213268822761 6.02655397395394
-191.299690852153 -21.7619576557993 0.895036017571889
-17.5034157708983 12.0295720356287 -3.81034937759092
204.938022862564 39.9463721008117 -11.0150002952632
220.505730580176 31.729117635171 2.2766795085516
-231.582649807777 -8.45370853695519 5.76322178075936
59.4568427790357 -4.97930343712504 23.3294969746359
-151.734052255268 -0.918539021759716 11.0313936218921
216.472057403774 -33.4065755152682 -38.2141603746542
186.57650448427 -34.5011104180038 -3.17338400756334
-200.4995252951 9.38943251933515 17.3034716513804
-223.271442439856 -7.36130194565149 -0.899814958445689
194.949426693974 33.9991212626462 -6.81293389485267
-220.817074353882 -4.45874488506818 2.17503409477943
-213.653927243689 -30.0023120055967 -15.4222733111509
-185.194436047726 -10.7032000486697 12.3404022402906
147.925124109795 19.8432693015944 0.753400855417505
100.300152661345 8.3562385115858 -4.32214130057203
-206.012999108984 -4.70253916004723 16.1941921179701
6.17667072330738 6.30952569192394 -6.08170487704296
195.126352689012 25.1435179329821 19.4878879935338
181.701954659007 18.3449519505965 -14.3716130326126
-217.3488187731 -41.967596813987 -9.54465701586527
146.933532287762 15.6765737862524 17.5614463243433
-212.556470736841 -27.2042934492527 28.3941212331952
-183.100826297138 0.908830537331095 -21.4727797157694
139.632931862115 18.7383259742758 11.8994001198527
207.087685306477 -1.86240442107637 -16.9348428988209
214.866484260071 10.4065071973129 24.1649338660033
-208.604980748306 -45.6906345622074 5.57146114676175
210.636454630701 -25.3135915748864 -37.7816643607172
-196.535971112037 -24.1304577424489 -0.0413460033038527
-43.8642430162948 -4.53569676586672 2.35102080417659
203.903079657173 -19.0427499419488 21.4934216368622
213.26084985897 23.010718712668 27.4463453284169
-47.6840647734395 15.3142618498498 -4.21245207569553
-31.1324916968926 8.98894756181799 25.4832323967954
-187.962489752647 -11.8286711653834 12.1940132292627
-113.92900315606 -0.47429903156997 12.8913801337308
179.219805923305 11.7904493640179 23.2050748875919
197.542970421449 -25.7443215147386 -30.909434705802
-164.768126922368 9.71350289786892 9.25188982288679
-173.296846344691 18.2056760389083 -22.5203796590323
-24.1926141657905 -2.96842115799097 0.299681902035025
149.650554569538 14.7717394669317 18.6209757511581
-155.017839425865 -14.2426802654825 -10.6819126440826
195.781317423646 -45.7996777576061 -10.2137599064385
-214.347294679641 8.6944126504621 -27.8505005198539
186.561546956102 16.5680464057089 -16.4479891146098
225.238115695533 3.35052135506813 2.42051249988987
-116.756950695496 -4.99834190819821 -4.34378162994
215.17141597828 31.1279503186784 8.12148265372797
-199.51360143688 6.81168101187057 -16.9178425856586
14.4841112483391 -4.42451332660473 2.19926293991687
209.972738501006 20.9167812518467 29.5996833672433
187.055395051005 -21.4293369673923 15.9147568463788
129.425597235666 0.891268004323033 24.5333193858186
233.71043997216 -30.8816939560026 -18.3202832995403
210.450592103971 38.2549989076491 -4.18655805778032
-201.165748367066 -33.8659929585699 12.4341455767225
2.33820602446067 16.7733778606999 23.2596471615354
-162.37255754388 -19.3979933440375 -21.3976861903614
15.1574752859571 4.52681154919226 -7.30582230953146
200.717165775114 -35.7006835970948 -34.9190339751574
-239.047764802958 -18.7327297588461 18.4418934614634
173.929103234416 2.18273803313812 -10.1658118361591
-211.764524459877 22.3702083995913 11.0405772676029
20.9194294441359 1.34586163776765 -6.85319496704429
-228.312508125267 -5.45874650835249 10.8783462132218
-206.45312926676 7.23691489653605 -8.04360806407655
17.8570700143336 18.741468508741 8.58288937288147
-1.34608280308155 -7.11751865803445 18.0175788973091
195.32745861205 2.49912397971584 -17.239420949751
159.884680414634 -22.5193419752462 -0.618880292237835
5.39527115813359 18.8626995857482 20.3318466089293
-211.576669322763 20.3705382733593 13.8517047870938
-22.690105927018 17.4556015562302 2.7956151171872
-83.2778435249389 13.0412608471884 -13.0784481920432
171.075346514544 -22.0052167784615 8.4300927344231
91.8386881475402 -7.55937222336384 21.3819348498524
-170.707306699779 16.7572413338569 -22.5701908389539
-131.781504257762 -7.07379104681225 -3.94587235578041
208.456519664498 7.38130806532742 -23.7609915890945
214.655189060353 8.0949397807693 -24.2553101632781
227.821995439021 -33.7259317472483 6.98475753102507
8.24663741499776 2.22587757949035 26.0927603140578
212.648435955271 -1.27657435870449 -13.6703885456111
46.3694828432226 11.3442618461255 25.3045600086931
-174.087329675318 29.9018606152075 -4.47813344144814
-166.823467580244 -6.85058924811242 -24.0340663022065
128.176492288216 18.831385382168 0.0968021404174314
190.624976392701 26.6742068141315 -15.925188025269
-196.187845462003 -16.0803404615393 13.7480173689072
64.525797457375 -12.2725321279211 13.9165039649909
160.716879181062 4.96858265201022 -8.21597144422623
225.909415328654 -16.4311767469724 11.4384035280796
221.075608258686 -13.1198751365934 -13.268736130006
132.450433409424 7.37747910037143 23.6874187137301
100.179829482058 -14.7676206835369 13.5035303590359
-118.081416382852 -4.3085472046683 -6.80611789151578
-217.436827830284 3.62181685867304 2.44635807557998
-234.746650052053 -14.1892462751841 -6.52997275142048
-242.22210693998 -31.4961615811317 13.1426154648864
-31.6814343930288 -5.92579203721927 16.4620116468567
-181.676846833339 22.2452458206626 -23.3119459049758
-141.534180948749 22.3407455065198 -13.963355173409
-198.430105274551 -15.8307898172806 14.8973717558189
-229.07670557879 -35.5280265220463 -12.3202457716076
50.9438200674924 5.82624722116387 -5.31698947086426
219.913496684086 -25.9140965540024 -36.1885668920046
220.095175512279 35.9587080059997 -6.92750978798012
81.4469536302685 -11.9299351288142 6.35670328789757
-220.651368701546 -3.37909860065631 10.2713846159051
-45.5519084820925 -5.49263023889947 4.40896318842778
-158.251954039542 21.9666529480904 4.13638047963931
10.3367437900475 18.2397491939618 7.09067859799326
208.606398037058 27.3155162929685 20.8652705747546
177.47240274969 -26.0192199575865 -12.7881728593542
-231.280189955368 -9.42827459477543 2.42615107679908
-215.198516285905 5.69606920187315 -26.4730474694185
-55.4334280563151 20.5872257878837 3.02374525076792
-225.23653132514 -14.0636697381519 -12.5440605920379
-217.024490144434 -8.29362944310162 22.0217456727443
-188.030530025385 22.9462170811364 6.004382680159
-60.3571038686501 20.1690737698916 0.394337203159106
40.7177970197954 -5.36535138589786 2.21871222538468
210.894061264274 -14.3233348336515 -19.499750289756
136.172291465073 18.7869357899805 -0.9267082198033
82.104053415433 13.4702965662268 22.2822220390461
160.85760052151 -6.90882066947491 21.0780860159381
79.0632082064481 -7.40935455770973 0.595539252562698
-242.77736676239 -19.9863693986132 2.29712547459939
228.673802049236 32.0330631754029 -5.44746315495124
138.215605761203 -14.2815651161971 -3.07646000459508
96.2758459501412 19.2195531333929 4.89632291091022
206.604263082415 34.9486566800308 2.55696975518991
55.8997806104325 16.7251418295253 20.3371799439184
-187.437244601288 -1.78505223154887 -17.984699565792
-170.239419223444 -1.27679169731983 12.3095647709667
135.509470594768 -7.73125910767569 20.7268281294805
-139.843553021002 -7.37634581084561 -9.8541839604793
15.7098398660454 17.9084646859978 6.47074036091793
95.9454161270231 2.54265759873688 -4.88042743462713
58.2832231125296 19.0755074729366 9.08447507510871
-195.764389621361 3.95949371865039 -22.1242351632764
223.19086395051 -21.3235450707577 16.3427529880845
-201.57169934381 -33.3342405103391 6.72037942673594
-239.736944352251 -32.1762476767201 -4.15404138636619
169.776661188245 19.1228684440604 -8.5792059381631
157.294683739246 -20.9521538147417 -3.10408659382621
10.8103048509068 -8.61379359562504 14.5815203285947
65.6488356555924 15.6624982288526 1.35443598155877
152.221661472009 -18.4090692505684 -3.95265271142847
-120.970891306035 13.0412084830481 -17.4431484961649
-198.732347690176 -22.9561712655362 -2.9264781101635
199.4122534533 38.5907411082703 -12.1661072838474
-178.852450762751 -3.3542364309446 14.1877653063579
161.970897696156 -19.16220762185 -6.99741564032957
-3.78092901177459 0.247890600060832 -3.61615942787878
118.032492463687 17.6125393848114 15.1783817275069
-243.225035783591 -21.5390155616928 9.65966673653893
-116.4970041464 -3.35463911079488 10.4758332672864
-211.936003417944 14.5060959518955 15.3063368091629
219.330984952736 25.7733929110781 20.0562354710125
-137.634203004096 9.26975195564483 12.4375047189214
-153.742481433791 10.7985952761492 -20.1251874198627
-8.69430652622083 -2.96473123962308 0.370475537577781
192.326080667633 29.6005098947195 -2.18268696557906
191.455846763774 19.3526206050926 -21.7750495298262
223.607170593403 -16.5049786797769 -24.8925530438837
-210.023173762552 -34.02223419469 25.6492691314581
-59.9122658957427 -6.13206021651253 8.80438624438422
-145.476052915651 9.03110252188454 -18.9834264085028
-70.0048859861875 7.57361404162946 -11.2399327190872
-243.639357303493 -22.8828219390177 5.20083049689071
110.085348499054 19.6205134039491 9.88798401804192
-169.635552949531 25.1141742979504 -17.1764508111351
108.611180716114 1.7093113896739 24.9980612105166
201.388690647142 32.010957686219 5.49164670082809
203.227442677186 -25.9136063001233 -35.1814867325693
161.417666045019 8.66126918626111 -8.5476329666821
-232.51598246836 -7.98180710474494 7.52486798719749
-16.0786218978484 7.11971370176931 25.9976327869201
57.2851445912745 8.49167191035936 25.7016422577679
195.819357455149 -20.4848530634242 -25.5800138184082
-166.146295746214 -17.1654462165244 -24.1039752408351
59.1654729024843 0.251780822932765 25.4916899194072
-180.803764227392 24.7163105489928 -22.1552114387341
6.06149328092837 -4.09840870823396 1.78127388881649
200.931925964587 -40.7115405441542 3.81121081501725
206.197665835009 38.7675542407667 -5.84283227541558
-202.079138071516 9.81181663727648 -27.3368744420428
214.313257897379 18.493639860865 27.4517347503634
-179.569586927975 -7.25881717054445 13.4897840109508
207.817840113902 32.7278495421392 6.8188770138251
121.759093990405 11.2408000842081 -5.16146051012027
-240.865140120474 -26.4424596521253 -4.39861691502097
207.547748012136 -35.8123666467624 10.5282546099056
211.149249212427 -39.7933056540413 4.13643297365285
124.475062690905 12.5294306422938 -4.9511631051579
172.079483502406 22.3405362571822 -4.68018403702166
-18.5516031192941 19.4912270981737 7.92295302735649
-207.662251962124 18.8126771906482 13.6519479478443
-122.527523230197 -3.52865403376567 10.4250666333868
-179.406305997553 -0.855024840534597 -23.0829400957527
-218.95678206677 -43.5433032752539 20.9148422171235
89.8961492440495 19.4715092455861 6.87034351246071
228.448892193564 -19.4682200451639 -20.9915847212056
218.806510846951 36.4775526394586 -26.7904956881822
-226.882864909723 -44.6157830144866 9.10234513074298
-233.854071328129 -12.6238299998664 -4.35369137523159
220.59910947128 -36.7702273056224 5.11926851985398
138.287981615229 15.4596604392365 -5.1507953314642
204.551429178951 30.7922487858466 11.9189224314978
100.149874571255 -9.99416179576443 19.4961469020209
127.075922106111 -14.4877651463289 15.2010041813294
-185.7158808219 28.4356529133421 -22.7159660442379
153.717707542652 16.6529552257469 -7.18827709482061
-225.826188374713 -31.3500536317047 -15.1712414450429
219.196306710887 32.759275129474 -15.4607779775762
165.162414454577 -1.77923733309218 -8.4475686865125
207.437110959409 -13.4561730265704 -19.3603050397133
142.313194460261 -4.18722447509301 22.4462544607385
-73.7924184036253 6.68199470963767 -10.5767882881626
228.003579373587 -16.8689265479353 5.1821446353195
-163.470026943357 -15.5557534790904 -24.8925929870856
1.53283461731586 -5.03455621546232 22.105172258221
178.929324968757 5.06087971893097 -11.3220290622309
191.79103045803 -43.2170846780328 -15.3275028180288
-148.88523295247 -12.1070208320147 -13.224994363665
-45.0191138478259 18.7661664899479 19.4427151119011
-189.20285356416 -17.7386514021745 -6.79331188241301
214.436444698912 -9.01664183399687 -12.9424607679926
192.938949052008 -2.02625862689304 -13.9806612957606
174.392936146676 -13.7323185513631 17.6357082761645
-208.570032698376 32.0963631029945 -15.7472642367336
88.690509596506 -6.73703164313648 21.9316978599112
-194.80350485174 -8.81730677339723 -11.7829218783206
-104.061616738535 -5.67978999703419 4.1413954432991
-239.287283036272 -12.7433112979253 10.8639093079572
-219.737416564104 -3.11213519032715 0.751912879984953
-131.114532946788 9.13162282387742 13.3961413960054
37.1070104609358 14.2625548033355 1.0332452134748
-206.125820392492 4.23007778039023 15.1009489826047
-15.3023644803665 8.96907664812675 -6.27240050419171
34.8896658063331 8.70229647857526 26.305220123135
227.220240681996 11.6323392193974 -14.5087079506029
-81.0162809180809 0.210178065273816 -6.32474696599989
-193.308397490012 -0.534982008887341 13.6088206061833
-28.2925760345504 -1.40284326299819 -1.57696578177604
-55.1760073075583 5.07283288968059 -9.46946012998953
211.615692872858 -44.7773683398114 -18.3054127448682
-178.74603663 31.588265184969 -12.3416665586454
103.794423755368 4.52131323000818 -4.92241745737061
-217.870061241324 -28.6357527220607 29.3116698753777
216.545095552803 -5.17877762139795 -7.94530501640992
