-39.2044806326509 -6.66102407342776 8.42887000138385
154.807385533225 -11.1596851400411 -7.35802840354644
-167.182244326287 28.0711063760894 -1.35755556908903
-165.488754012037 -8.40549113120215 -14.0531434867257
-20.7645965814961 9.3065403340611 19.5188957549748
-30.893668300774 7.950812244467 -1.20873559905179
-58.2982650742803 15.4657105251945 7.88563126893908
182.089194094927 11.8816654325547 -26.4346013761733
-199.228104735221 2.41968799483855 -3.00793852652858
165.505358190108 -29.5642512467787 -2.57189068876785
170.983496299772 -10.0528176960771 16.4037636226057
-223.867118467406 -31.2377473684485 6.26774571971222
160.500973954346 10.2232728079319 21.3645671069603
75.4575424139146 2.11616662423804 25.5205156266779
-191.389889802352 -38.3405371010283 -3.5208874698973
-179.711190639867 12.2701806092867 7.89414075278747
20.9731073962092 6.72242375307571 2.23065047786609
22.5782148438768 0.76357765948502 23.6386185828833
-119.126915161935 -0.562127227370335 -13.290061274838
93.6173100724556 3.4638511787439 0.290487630966179
114.365574323659 -5.3348626441341 21.9272607195055
134.41453925352 -17.2244134384268 3.47996177330242
165.485481774862 7.42874021178605 -13.5343734222291
173.342887444145 20.5056812167079 19.3034278887949
-39.0148934684197 15.2998991128338 7.4423578331153
188.58566349064 -32.4510460977107 -18.4266370888276
-183.052426757848 2.13245553021263 8.98374376688746
-97.2583921641539 -5.95161025760436 -2.32970182553367
-52.991471045794 5.46922626253249 17.402134030739
-51.0275289297523 7.25010567901776 -5.03971283921658
197.563337486124 -10.0133913131169 -19.1762766009133
-152.075436118337 -12.4774648616137 -6.12115255538222
-146.279494674878 -15.5893745563043 -10.3405689928688
-195.81250343553 22.9731564481431 -24.0665398375312
-125.797606360477 -6.61595558752765 -8.87934439267049
184.719119032829 27.2926603029685 -29.7038721178122
101.003400970551 -5.68249649963369 2.49900379334816
175.097924596104 -24.3639230401662 8.20017971729058
173.834081189412 -14.1051706194335 16.9448346543515
-126.586787501466 0.0763418319628671 5.24494075822457
156.978302050162 18.9671525731069 -13.1251363430537
-202.632099526106 -27.4522922117643 23.7727435598196
170.35060499154 33.6408266679907 -16.2710181943702
-181.082768191082 -3.56387716473772 -12.7536304694675
75.6089745486866 12.7360225374035 8.56475534787277
-183.918874093778 -23.8210229353046 1.7128008084898
173.652261570682 -3.87387733980635 -16.1819199634288
-55.3631667392678 -3.82455288272234 -1.70868504695242
148.338666128469 17.5250114963689 -7.79590219864659
-199.937863796808 14.0779778767298 2.83501141196312
155.041788440242 13.7768447316736 -10.8201710364855
22.7355838928302 5.8080693680391 23.4660347347802
191.753032770603 -0.947215896906594 3.66200548605679
-160.986704333007 -6.71979464898884 -17.1729795790402
166.403351366567 -18.7465831574491 -16.7543254799167
-193.245578978757 -41.7533965762038 3.46953226550959
193.091294514146 -13.0183123797156 -33.1761830705687
189.034576266863 -31.8633418449212 -20.5199946681086
-147.843147190403 -16.2771957664157 -9.68953413366089
158.644468167991 -0.0560150481754071 -7.96679940776306
-209.982415972835 -6.59419137309675 1.46442004667521
-169.899877480785 -13.4404656043111 3.17633282416694
-204.823395737393 -14.3879182062162 20.4314057663583
165.552003718695 -3.69664728912376 -11.5640725733267
-214.091426676024 -41.4882613413734 9.44637667136654
188.026894235777 -8.83465979015937 -17.5078770582943
154.448758614369 -4.72764678151803 -6.09474646615509
146.598712223416 19.2438921601484 0.201161081161314
98.9871564305727 -1.44476213529864 24.6454748497759
183.968759105453 2.79475256899178 15.8320249684853
-186.163479756969 -21.1272068561787 12.8117177138892
177.73394575559 30.1685341981906 0.445863991819558
33.691173522968 -8.19781598505778 16.0954149363683
-154.440840593636 -16.2547792358806 -17.3316179295064
141.232347841488 18.0967476254575 1.90261427667552
3.99114296506955 7.37358649170823 1.78529752634525
18.4695833514169 13.0342826841083 10.0184594521133
97.0834961670515 -12.3813974186543 12.8319164595341
-99.082962640841 6.56271894985388 -12.8174450874404
-187.957392854472 -9.98533211515198 11.5359966152589
149.366744670854 -7.75108754524873 17.6865123611981
161.008297924618 -22.0395037072118 -10.6235354793485
-189.212905347955 31.957987877422 -12.902738494825
179.856346585888 -12.8715298360125 -37.5803239482078
-183.494102170959 -16.1771138612665 9.30188124381436
-52.2205583070146 2.17626783894268 17.5483387469601
-95.7329992182275 15.9051894245023 3.06822344267893
183.638315335872 31.3697507853847 -11.0604161376795
32.0167911980002 -5.17682862080745 5.52603220297921
-181.448694886296 7.31412526605698 -22.764683746922
-200.640006961391 16.2159188447871 0.949528508500396
139.964895566699 -3.27047843918334 20.933600882168
171.118745433333 31.7690643659777 -20.8965579334832
87.9359770614786 9.04279549980965 23.0928569962884
93.1888636702551 10.5114422650162 21.3189442186286
-190.335204568159 -11.5099782810333 13.2356194237775
186.301836126286 15.5991677226619 -26.2990913031227
-184.241758407441 33.5551047905213 -8.87745164795144
163.812030966426 -17.7266914303516 -13.6780963011637
-142.967279379428 -6.92344471763146 1.62290963448225
-223.412411209824 -23.3855178283017 11.1289404246112
144.337224856154 -1.77600477782054 20.6954914059416
136.974251077398 1.74067780910245 22.8756252802841
156.756069104242 -7.73759472264983 -7.86918169547298
169.299023993274 -14.7705686837074 -31.2595343168932
102.148804558543 -1.9626819864907 1.08768255183926
181.317182765683 19.4019794520097 19.7299774019982
-214.139438449326 -28.8601079145312 21.1880824990287
-192.725081593997 25.7394990710593 6.55183494372373
-183.26792274634 -18.0151475058849 8.98350353576711
192.005633842705 -24.075432710992 4.32296963531309
196.284130132823 -28.6403047891665 -26.5371739313385
-84.1015965583154 11.405100832474 10.2843814468593
187.531942083863 -6.18425784850656 -12.038522697417
-88.7886143449638 -5.70533806277104 3.78631393573452
52.1805066904149 6.3630249128922 24.438821578241
181.664174735504 11.2898040853351 -22.8666934988948
-110.304324852283 17.0358083491522 -0.401357281699815
-188.492929482182 11.0414035946549 -19.4887148744484
-63.685901500466 -5.20082898743105 0.206216439724701
-171.222742180598 -3.46859128997161 5.64730504692204
-120.774621105406 18.5026688516258 -7.64808583348221
-188.757763939373 30.0180913535597 -16.6480280184938
83.4995820471027 2.3567246505538 25.5401377673673
-145.465518830164 -9.08615261375433 -2.58850556756196
-69.4161850789757 5.72289325247906 -8.39341855419788
-53.4094233283852 14.103494801406 0.44043153687491
167.214145226914 -3.91002979199089 -13.5633131189659
-138.269075489088 19.8184196669818 -4.17132411597819
186.894455999364 -30.8090879476777 -25.9670696271683
-34.027265828825 15.1508589074565 8.239043717977
-98.4344347860675 -6.13302657233146 0.162818358165901
101.336752675176 3.58208292087216 25.2231173145757
153.104971925119 8.60782987869702 -7.63453605983091
-77.2805623117533 -5.37581436571295 6.75687553989857
183.738501632966 -12.0357436074732 -37.2801913866897
122.287074644715 -12.4538622007785 2.28363242973438
-189.006216982144 -14.8298314438523 14.3667349161067
-42.215690937544 7.53419621040735 -3.18349292574732
153.647015226728 20.2952129232736 -9.84642159150289
-120.098223213781 12.7667852072521 -14.7808316437618
-113.082450029408 13.9383717028852 4.45748884998705
161.829261799068 9.23492400670948 21.4873280715895
180.095250090368 -4.11335739840921 15.9581587186322
-130.989247828088 6.63399427401892 4.96608449827275
147.511598845043 -5.39858419476653 19.0653677507909
-124.911987842714 3.18094797414248 6.19048784178577
121.800456164064 14.9987463954599 12.4345737915888
-142.656250889642 15.5252409861555 -18.1287077695451
105.473441028261 -4.61054909127529 22.8433637091142
-166.632606008112 -7.69721864977068 4.66695382012249
137.754832037934 17.7221301954328 0.98696304279623
-190.908153464163 14.6104710193891 -10.5336376924077
182.805048723647 25.7904783047259 -30.7153043118884
-32.5404619109768 12.3252572318209 16.3541479981731
-28.7822635096972 12.2128506675526 16.7901335662192
-91.3717052313303 12.3044147510284 8.45145949793104
-218.764841981026 -26.5036396413261 18.0629151431531
-200.862191209502 -16.0028104019203 -13.4090580218977
10.6118067507396 1.03742483837959 22.9923849671316
151.143217824923 -9.80312800996041 16.5366817070244
-189.608276605351 -26.5511526794728 15.8799810340792
180.602433087503 22.2866128493606 16.1057750656432
188.128262256713 -17.2627996172582 13.1549215011043
-168.351248595091 -13.0541031502316 2.69242703334482
169.536467073045 -17.2247424659292 -32.2666801496216
-200.006740882081 -14.8124700712625 19.79395606585
-139.607706587185 18.9210280380203 -1.50746059698736
175.13986954944 17.8784006649628 22.2804818054528
120.808874639095 15.5014476952386 6.81199233928696
-97.4609934601798 3.32319949876293 -11.672107775748
-188.834757134327 -20.3211783553817 15.8152170774593
179.079756703488 26.901366164034 7.27190397128365
-201.102916202554 28.1016929012176 -13.2696237088618
-158.377150483925 -12.1787863412689 -2.0505589862954
-159.874984376651 -14.2720836283622 -6.71296813925898
5.96907341198691 -1.21163365828354 22.0732707582358
-164.346747036678 26.4489917633584 -4.42266428807898
-198.123254921938 -8.40633815218123 14.6529238949964
178.141814536057 30.7628360551402 -1.29063736032761
-150.944762142954 20.0191351531858 0.0005441968968347
-147.024316272441 10.9899537905443 3.10765470961791
142.001422278127 11.3614768256404 20.6898519714787
-222.459439228884 -21.6010202292847 12.4160960644355
-220.303338842891 -17.3807703180904 13.6317853945032
-167.287476474625 -13.4332067974715 -8.41182150924305
165.05299837848 -19.6515277548521 -15.0490419334118
151.660560241248 10.2161372722529 20.9193932634754
-199.315873263607 6.13250088106245 2.28237591914634
-172.793063059666 2.48796595795726 6.49660965096259
15.8379430375043 -1.53320901122555 -0.126836061006274
-32.9652338593176 -6.79917707713085 11.1934969715086
142.998626451228 -19.6042699669097 1.91852641404977
184.778923095602 4.91348894275012 -9.23538977655528
-168.362782831733 24.54068883281 -17.516129746812
81.2435373633316 -8.45753108158864 6.82269770500117
-104.263199281123 16.0438475356 2.19949080758586
-150.907893700849 -18.8848117062629 -13.3601641388692
172.207540026685 34.7112342208567 -9.62587588032494
-34.7780388103281 -6.73603553299595 9.71417882754062
119.083371999755 -2.00400873671835 -0.0167081408098927
-196.236214522683 -22.9496025356533 -14.0805246114996
-201.946876738612 14.9753384158124 -17.4438752419405
177.716383205531 34.1938835571567 -8.88924660555968
-180.163964151024 -5.27708070697086 -12.2953236427484
175.814975655492 14.6633691927095 24.7957240231716
-193.714447361791 -41.1451563865843 9.98015729675713
-105.684824879025 8.93702295486815 8.33044541145962
-79.4048416164128 -5.5471735727332 5.97401187710734
-202.107608263787 -37.0722118509909 -12.1567157235109
-210.209919293983 -36.2742325684641 -11.7048049235682
-196.30844931079 30.8987739419618 -5.86843417380135
-88.8162675945942 -0.0478097620097822 -9.17749953698581
-138.882773045841 4.28711660774205 -17.9556829977518
186.489274156489 -30.1436959011713 -3.44752966700951
21.0840212683108 -8.04293312941214 13.5409122599635
197.271323969327 -27.9186202393443 -13.4956119779474
-199.66994912404 -43.3426401361659 11.4762836311866
-165.399169841518 20.5601667673045 3.37742711260891
-62.769224591484 13.1240085890228 11.8163202010933
-223.958453920249 -19.347093885408 5.77174924062165
147.286619558012 -20.6532386693166 1.98150751788064
171.79985172655 -26.5110481514162 -33.7851193063206
108.036528079781 -10.328162643386 17.9894820045191
169.535119755215 -35.2784529757039 -12.0393040889753
-11.4199069462338 -2.98246412916045 19.7292410188871
-202.044967554935 27.8624485550563 -0.743615520745599
-196.524760582567 -34.186166572981 20.2312000211195
83.6105408339604 12.7344330681441 7.07828490936435
-191.194577252237 -10.7013478598488 14.319786821728
-200.722830609413 -12.3032894675283 -12.0405459769693
8.81945455537439 13.9411118259983 15.2564566395755
-177.051246499882 24.2260387936334 -21.8014021243078
180.939111438801 -9.95409002762432 16.6211129200543
90.147637994697 -10.4418948574836 8.25475873721652
-169.609821899361 7.64878000984594 -24.090617657752
-199.604833102033 16.2111057574134 -6.22240601493989
-173.146660053237 11.8741316619916 -25.3003167130355
29.5042267250842 13.4554088591102 13.8016277053467
164.463022661589 -12.5113782751077 15.856581604582
167.857569721798 -5.38044497548144 -14.2090713513938
-44.2030696221698 -3.97186511895163 14.4787492971872
159.05450829489 -21.2152318363062 7.65171655281975
-200.621927502573 16.7382537709953 6.52460204506346
4.77676867670193 9.05126638764956 3.39219569056424
-141.889484462955 -11.7251968838662 -9.77831312693889
-2.03082674728083 5.37184136198021 -0.820594533594574
5.85003576860911 12.5296517645765 7.87293770304198
120.863674499813 -10.6071997297703 1.59700663910863
-120.948202256071 -4.04000220717529 -11.5628792856165
-171.080252680246 4.03549026922327 5.21044187726354
168.508113893815 -12.0099314966501 -18.7573110870322
-119.80784134803 8.03236333297465 -15.7650301356642
177.359101501736 21.6752429824805 17.9450688651306
-205.541936708308 23.1058495155289 -13.4838213529235
12.1402187225792 -7.31980517856914 16.3296341479588
157.655978446295 -17.5208112890979 11.363980473964
-180.628827639714 22.7120063529033 -23.2157234068245
29.011209825262 -8.12677803740871 15.5061516398311
155.561039861221 21.750306074422 -0.37578353537823
201.749930789974 -18.9405183712122 -1.30654675775873
-196.895484037644 19.161454249866 -25.6640419095601
-186.986508562811 11.2322249002013 -23.7272378770174
166.988238226841 -8.1661890191417 -13.4121101598551
198.70889014804 -27.5684095653516 -13.6294890550173
47.9689065939361 6.37035075588093 24.3546699388926
172.291751135564 35.0986664725487 -12.0911515929099
-195.660584624658 -40.5253389541949 13.7095548429654
56.6964317236968 6.99567814840638 24.3140452869662
-148.064528053441 -13.6552213970691 -19.4357139391392
-185.35506314601 25.1058909485919 -21.8299285046097
-23.0076217020093 -7.02873704752915 10.2953205847064
189.120534851269 8.77018118050425 -12.6779799293228
-86.7111948257675 9.93643868226513 10.8681076150128
-116.006705586173 -4.43453797836573 3.0735769023242
125.886071687201 -9.58710709225831 0.670891318897599
-172.459370890366 31.2691061283535 -5.47018474905609
195.421440246337 -5.10462614110107 -0.475642218649249
-203.385225824153 -2.54168657272901 1.08868199326378
128.942588748997 9.03914587968996 -2.64064823297798
-161.57216108758 0.304858860455683 -20.7364096983567
125.61492271328 7.74527158895018 -2.08730060477477
-0.363034502322992 -7.29081351188768 13.8188016677431
-108.76697174594 -5.26485077627621 -7.58008939089272
-195.102464477079 -37.0530985497784 -9.31197257811005
172.036808368622 30.17684221384 0.325622203079441
90.4356659066613 -6.74998731301305 21.7775194915042
153.161214877084 20.1083843953593 4.24584565795013
-125.106895526991 3.33738619681383 -15.8582525203278
-135.880734719027 18.9024423923569 -2.35106219342449
182.462997632698 -7.64655361323334 -16.0219713141484
24.0355075507295 11.8415561446388 7.75098623545231
-188.526453429201 11.4408943296456 -23.171118579703
-111.816536126132 -2.08064936046927 6.12122851472477
-185.655090491657 17.8963033774757 9.47122503481156
23.2223301266553 -6.90368049237852 8.88191425037042
-56.779611211556 1.99918649582247 16.9610750652499
189.542948374461 -8.72366891506909 -15.2719745695365
155.816848736408 -14.207028130152 -8.79949726553233
191.433340248715 22.5707189013784 6.91398221038827
-145.868652222454 -16.6740473242649 -12.2480370350962
146.388204232191 -7.55487001922745 -3.50528280835837
198.345965979201 -7.6889171523648 -7.77103501012394
81.7754830866776 12.0207084505657 5.58558292707568
30.5976236305841 -7.48152752608644 9.52545676021318
-109.06955320211 -5.42222228164408 2.29389208822733
150.949269788164 12.8261909606132 -8.81614445853255
-194.603101634789 -10.3293944219088 -11.425930343019
-190.630525374314 -27.5885939524921 -6.5529793639641
-114.762171305081 17.7637316090269 -3.10633642192024
195.069875230499 -21.5886315853356 6.14427715827921
58.6580537096685 -9.41287543337554 13.5058595741222
192.789522091702 12.4021784418409 -3.73956019102303
107.572269720712 13.9387201895952 14.5966962948607
189.964280920196 18.3383531373079 -23.0906350894212
102.430029735088 9.74352759692689 22.1299154626092
57.9507292297094 4.75982012647095 0.357659991283846
-71.8946982418262 0.970351961036454 14.592727084585
181.883856581966 -35.4289956074323 -11.1702186219563
-164.386031451463 -14.6151525490614 -3.88103009854786
174.990797807661 -33.2882022258898 -25.9183601432243
-159.846401355004 -7.12884567583235 -17.6230712744876
115.116759289467 6.00936849664715 24.1226769803594
-190.48698016626 2.86739092343775 9.86610881302829
106.50578533171 9.70575592483409 22.1037676178288
0.652158894684662 -2.41819356686242 0.2615638524458
-128.601340992392 5.23589891004644 5.43607690644543
-115.417433937467 17.1510207650836 -10.4212689344075
12.5468203533122 3.05049573383637 -1.71711792884626
-88.7555697272907 -6.04175519821333 1.59635098613343
-196.573989925274 -25.9857368484318 -14.4509453910762
-180.086926745883 -13.264718001902 7.76052320138841
102.580693799872 2.07759320603888 0.385482359644068
-131.007936037142 11.3927359786803 -17.9153687361402
-20.4147484023872 10.0988837862281 1.72280479739032
151.074582814373 14.2207465352647 18.496738610932
202.851329782682 -23.8628964933385 -6.71117845387276
180.337513635563 14.8052567190711 -28.9212151870209
-14.5320525450732 3.58160846639864 21.503326020929
29.494564792584 -1.76310957080086 23.3051478878372
-105.824023800717 1.26739310416434 -11.9414172937791
170.468880385252 21.2987248861924 -30.2234385641338
106.73940844163 -11.7519122063028 16.1881300246116
-38.8988174247973 3.85657757437642 -5.00409178840634
131.09626117258 16.5341946980583 5.91034374601697
158.07943406878 -3.82460574315338 -7.76819803419851
-195.052018207814 -9.15135045991114 14.7128387162383
141.563771559257 2.18484082944543 -3.09928752524191
166.715391492363 -13.8572980099925 -24.9064831598219
-175.533313593551 -1.3884698304707 -15.6173007335617
-38.0259781317429 -3.09218618119374 16.4660863260106
-158.350447915889 -7.17692020386013 4.33903380938841
-56.9613646768726 -5.79626224835657 3.64496496239809
160.052641536551 -2.85634008304901 17.5944816905995
-9.7577826763321 -1.31016410200352 20.9264048620591
-157.888895014097 -8.07490794943394 3.36384857960801
188.136236846897 -31.0465346610705 -7.47481839609251
-168.952018827445 28.7295614286827 -7.68236320420094
201.469328013682 -25.9854943912027 -10.1445043354513
165.56405808401 5.3606483780354 -13.3791289925503
167.839312816895 34.3056862174482 -10.1996598923442
162.231410710843 26.1419742317967 -19.7138813122426
-147.304889674613 4.57237898644603 -19.4824630536859
-206.946050279814 -42.3480396106843 -5.84871263607319
132.927539379439 -16.9512701077475 5.18150500384922
169.172370813728 20.3225746262957 18.3506147987178
154.495907511867 -21.3899336538229 5.48848574223407
5.61079231027476 12.5843638071041 18.490680627038
-223.204800702679 -21.6992504918467 10.9059968047344
91.0350913423689 12.0409943901707 18.8060901752205
179.223746014956 -2.2327364400719 -11.9643417254345
87.198906567518 5.5110957935104 -0.00357236172088814
-202.630620639591 18.0209449581028 -25.5358764567058
185.048930574447 -18.1345116519584 13.4829298464784
-214.117643933794 -24.0940140324386 21.4253928034817
-179.699803119895 1.00693642367898 8.32161840550901
-38.4500130228009 8.99812153864318 17.9739214416202
-170.16258690225 -15.2287324923693 -5.63258720330362
180.989744254096 -19.4385576237085 -39.2016285387981
183.771629887188 -8.77654908274282 -19.6111944938384
-126.641074635754 15.6351725402353 2.01031628177115
21.3335391373411 -5.0310354279189 20.5462350649696
128.814460204914 8.69326671419742 22.6281203637657
-53.1628212919412 -5.18617230015113 1.75009896495439
170.244015016291 -27.9977036861482 2.71802619539883
-187.920395713068 -32.6368404314314 0.0820807265257989
-174.35748652513 9.9086715761652 -25.4183636157906
130.447744114454 -7.24903995569995 19.469707106587
-193.290091561148 -27.6600924420864 20.1200616246227
-151.44131461999 18.1952164539396 -17.066975874079
-30.7871380338449 -3.61834944863824 16.8325235904672
-152.472314637648 16.1588179893803 -19.6078296525067
165.609913668192 -0.659620087178253 17.5247019909617
-109.540972535924 2.66082906628093 -13.142296881111
132.941858831638 15.7299794095115 12.3389040424708
-175.518516475375 -7.59211730232529 -12.2260660541771
-159.538198365322 -11.4958567071448 0.165605305190373
-129.161891966686 0.393695945088475 -15.7225425179452
-216.417820430381 -33.9950869926559 -9.50927557971345
-214.889104982909 -41.8157541636766 3.88026520490177
193.12886177417 25.460657909907 -4.37765943958336
151.900867434364 21.0133597420443 -4.71395675734794
157.590654115775 15.3288840050621 18.9018500616507
150.524916825116 -4.55315749638992 -4.54266271496866
145.508082979374 -16.0025413017642 11.3259284094592
181.669423399859 19.0447415964032 -30.6476317328568
189.529195789302 5.99028575052078 -8.2879979392091
180.010373839549 8.11119977347059 -16.6364956051187
-165.705814981348 27.0482977462197 -7.24470252815755
187.264578707004 -33.9066172102838 -15.6928499957678
-181.250966097126 5.93705089454595 9.71844098846692
-220.051566275875 -38.2514163485191 1.69029049882207
55.5775586476726 -3.02528359633067 2.57032862442863
191.401762371034 -6.185504228324 -10.5088079320039
-214.909486459485 -9.43274384027344 -2.03111350170703
-180.042291426223 -19.7580281540728 3.81777761413105
179.908309820298 31.4137760284199 -3.07389752003358
180.50110200064 32.4727318716396 -21.6596721111596
-17.5097803601722 -7.06485032925076 11.9753222491779
-171.201836014416 12.5740421195133 4.76590791837308
-164.247661341013 -12.3284220910637 1.60636989017244
183.761699942251 31.5664749153297 -7.78788708579461
138.701268576994 17.1909049864111 6.64428169213578
-141.602377119264 -10.1993896280813 -7.92648271143457
171.13612383603 29.5646772717604 0.708683187817955
-193.275984047519 -8.82676399403493 14.6558665137779
57.5222045763247 0.543514386201598 0.441847667603921
-40.4706371854837 -6.36575805342415 6.34934471103782
149.031710121815 13.3003454597472 19.1802767576813
-86.5665000356788 -5.96772589045145 -0.114478054709254
-181.055811696807 30.0976797303098 -14.6861761888824
171.360864970152 21.0834718609195 18.0512017305802
-173.612668178912 27.676651607141 4.10172698141453
-142.17297018944 -14.1387501697812 -13.3785015032355
132.657218428504 -6.77446916447197 19.6719746362658
-2.65301383233203 -5.89682897473521 6.47507421130551
173.755565790637 -15.4297480388172 -36.1003583004042
-176.48295655891 29.8865746580162 -15.1507874196288
-164.621181480547 3.66454273002804 3.73834686127878
166.790215336777 -28.7285212225202 0.0577154447544582
-110.903702763565 17.8487748184153 -5.5854740951166
182.562957269881 -8.75523643582394 -35.0199407058791
-187.222976572243 19.5018609469656 8.98665127590531
195.063087721267 -20.6361212744737 7.17532571311036
16.0297927024548 10.6572023210194 20.7756711813897
163.523315510064 0.655605441334229 17.8501420387957
175.042505087991 4.41943052525328 -15.8941924769334
168.433466087945 6.46663425941609 -16.7578616377406
-86.5331990372593 -5.71794654352321 3.96358635576881
-144.484226156898 17.1518193181021 -16.3168988854273
183.326193675371 11.3845312722809 -24.6017589476899
33.2214386086806 9.02991793580905 4.61763606210419
60.8469736879185 2.05868790438357 25.3609564030905
-84.7285389579806 -5.33954385897884 5.26969981763092
30.0096815209854 -3.88557188217591 22.1894035836236
-202.629679709041 -45.4784212974956 6.30226727284777
192.234634865969 -5.27311303843662 -9.30839164655864
158.430492896315 18.3699131513473 14.678346735308
156.422683266681 23.0228166365763 -4.10331555170936
131.175792454633 -11.1326911887033 0.0405870384875431
183.468148224162 -33.1953860957639 -7.13374127398611
59.9447001335633 10.3996652816467 21.6771233653928
70.2931117167122 -3.10733875127994 2.60553705612895
-216.439517307913 -33.0764925717965 18.0728186247622
181.619886498152 17.1608868105033 21.7776700049302
-2.26141924779759 -4.33017441165782 19.1373323027548
-196.545801341461 -9.90927324998132 -11.071594257931
137.646292121927 17.2913047934599 4.6675745929378
-7.61426203941562 -6.59251123084752 7.73311872225091
135.612263668409 -5.08777741217696 20.5220134071001
143.492764452801 16.8993480581267 11.1169132473385
104.128128504383 14.2275407964625 7.83069798197043
2.57886991604193 -3.87311516388481 2.29928684967861
140.24012225771 -15.6626507977604 11.4767878152475
-52.8541798270606 -1.61972137367455 -3.86346008917584
164.203263339636 27.0714377476994 -0.944912552433652
81.6417258680912 13.3845265095953 11.8310567290287
167.15024523444 -13.2824347771164 16.2154731697416
178.063476230064 18.3026068477159 21.6202892102261
-126.970427483885 18.1011273785487 -2.20647627816705
-75.410811521984 1.18730272072184 14.1222955608933
-192.354576513025 -15.6162902712495 -11.3484028987145
-200.528865234685 16.9922539536959 -3.91423802737688
-183.311912286878 31.394033240876 -12.9047728070193
181.579406371903 31.3584641141054 -4.01165200918529
-163.336874307117 19.1486844773211 2.99021891451524
154.244143205009 -22.0897402631261 4.016343181604
-206.256330004168 -29.7836420433063 23.4764897954787
-157.487569531267 10.8458867718637 2.80942571198908
-191.504205599498 26.1650864763354 -21.5166846118741
142.758677501618 17.9717738829405 4.64375518672827
190.525273238042 -2.06980366660861 -6.27701234729001
-101.505487647621 12.9703034743471 6.51493718878351
189.467373957755 6.79953337575589 -9.51321240127309
127.360182787089 15.5733861190705 -0.698171543263349
152.508201118242 -21.3841109932689 4.30984221402815
-218.459115964026 -23.2047839197667 18.1693547168899
193.123612642762 22.1527810053162 -17.88450606278
-206.735324833769 18.2789772776165 -15.6010001906899
-167.19603186246 0.570717299850836 5.29508616419469
-207.532839972464 -22.0295141655856 23.4005908301095
163.835281912647 -19.5617820463442 11.2362556493415
48.6259907644623 -7.15777341037463 19.8804909897238
-150.25738597183 -1.08361395734473 3.68691396003394
171.179948006809 24.4076326518269 11.3820501937826
196.64226502794 -27.3182602905971 -29.8361967029639
-183.66577223511 5.47638910105287 -17.6518835006922
-167.059710032749 -9.39957677244318 4.4730208860879
-198.555161287902 -31.2636768616232 -14.3168293619396
-205.387547437417 -43.2574775092086 6.10738723388893
-43.4449438358699 -6.45544549784312 7.2153404925026
-198.12457848014 -43.8719468727449 8.61001899794489
-64.9639229273858 6.16645458025592 -7.87897606122169
-187.383526330596 -29.5832565929054 1.19781603369104
-196.714872319716 24.7828455969973 7.4894043980553
70.0337467648887 3.74727620483447 0.153687356685763
21.808589516731 13.5632239605119 14.785508455667
79.796053043894 4.60913461697844 0.169201344486428
-25.8475462319028 -4.0662204010399 16.8768641051377
162.503621150555 -0.80452863248319 16.6266426505156
33.3989980923366 -1.497887567172 0.233585046191667
-189.32870217481 -12.2249268131173 13.7884535031066
-136.851704374447 19.3371898035107 -10.6625548178186
-148.330127414466 4.89061919637593 3.16214268633217
7.82535669664304 -6.99073033764832 16.3395664126022
152.23633681588 -22.4450516988612 -0.0638491048617825
172.425080393956 -27.3769366924538 4.10698122693035
-52.643666250249 11.1701790642372 15.0101023116002
19.9546715550731 -2.67151282652905 1.51324352722966
17.0694584214628 12.1255448833822 19.2223969289463
153.042575064783 -22.4941944634759 -3.04618164183672
195.969914743822 -28.2273028700097 -12.6846821153995
160.445475808418 14.0640420612481 21.3328432205559
-63.4673210270032 5.80283605323621 15.9414876778327
188.639034557477 -10.9472643577378 -34.9432075630875
-205.004156349933 -5.4078608662478 11.6820996316965
-200.488256495618 -4.94984989471359 12.7438007287939
-199.825450123042 15.7085225520738 -4.54358000813165
176.323461661489 -9.15340214176589 15.8515435573219
176.967443716875 -36.6181377615987 -11.8643739883137
-201.77679807461 18.6850619598733 -0.69393557403936
-33.9670644167628 -3.83573547560543 0.941662196960408
33.9382101400441 12.8253697241882 10.2912238835439
94.4497137440374 1.44322251861072 25.3944926906439
-182.400740856252 -20.4211203902312 -3.84369215475566
-83.8258613501621 8.3686374837002 -10.6905820525917
-188.687159491513 -26.4753797503351 -3.67076031444441
184.084805925547 9.20290289212718 -18.4102359146784
51.3884816488054 -6.62388745009171 20.788105355052
-79.1333225295146 -6.1067440654666 1.38257915994395
113.252580561236 -1.95482485049166 0.445426245634716
-205.95657523716 15.8464505977468 -18.3488326886546
168.76112273267 24.7535263099003 9.12293238045773
13.6085793734947 13.9156368859276 13.0932729094263
136.293865960214 -12.4158082352901 -0.761691856946718
-10.1497702569347 10.159531325746 19.8633379296092
163.296328341382 16.6531099014253 20.3685483291335
102.460429951605 -7.13008986801628 2.93489470879577
161.869513642334 -26.0399271409471 1.59601388670976
191.667197028496 29.7498259173391 -7.76093051502508
-173.319437675174 21.6112110952805 -22.5038854709567
-185.005286241175 25.5334828411077 4.8618283499432
126.067968594367 -13.3389417053636 1.77005097768438
176.411052652133 -36.5950657205958 -15.7755879381369
175.316438420859 6.32513008945948 22.9140878887743
48.8291860352914 13.1860758183895 14.6594095887915
175.441358077695 25.8467967782312 8.85529294981982
-146.575837779849 -11.3345881506489 -6.91339349418472
-193.917016363422 -0.162871659611557 -9.17921026856051
79.8357975524216 11.5748424441035 5.07399930367865
-174.55523356844 24.3341397736711 -21.3006656089733
151.908878926088 16.5673573270659 14.9376489415054
-175.824786478691 19.6366207217572 -24.1139529364567
125.198940565408 15.7485363310647 2.12891160524126
140.178133368148 12.9298166766603 -5.28674072736754
-190.578258206651 -13.7172035378675 15.2906547978057
172.109955237675 11.8961612080798 -25.6892383940988
-221.810386198282 -30.8820020179993 -4.75468760011209
135.561428824152 -10.395914231184 -0.796212676908382
50.1621003599562 5.40472033537728 1.32244760121673
-124.857459807171 -7.39566161911483 -6.22393108875804
-69.119471282395 7.41680893701575 -8.37766732197731
-209.932779720526 -32.4041894591587 -13.9399492300716
154.651564467676 4.00169561103398 -6.21032025713457
161.017796033278 15.4276242091042 -16.2722506835523
-169.699862815388 8.66584707806251 4.43067586227099
-52.3230577037556 3.22492685474053 -6.04281556209725
-22.2899280016611 -2.63052031230849 0.312852268159925
158.770203529379 14.6474710651307 -13.479774896619
-194.522971414515 8.80960672472309 -6.11981728526321
-77.2424682966398 -5.10784503549369 -1.34682933563331
-220.036976919321 -14.8027930539522 11.2629048915118
188.20603778143 -2.9052741359848 11.5958369594485
141.438939501518 4.72960658685105 -3.58225586234678
-60.1722528102422 4.31169834986943 -7.06265606772759
154.178993793331 -2.088485117355 -5.73515693847955
100.354950597778 3.15098832373202 0.207707592138378
80.6807659222548 -2.87567197178976 2.32346620792663
180.435111602653 -34.0119408666866 -7.20382707603169
-174.383741346943 0.521670479691846 -17.4229934153552
161.010597306447 23.8719423693273 -18.718542409751
-17.7258586863252 -4.85499265262026 16.807066765636
-187.984105286539 -24.9588674465219 -3.65917517624755
-77.1163669333643 16.3358251632 -1.0850116041068
174.303317797032 -12.3216138473886 16.9621843938049
-202.874154240234 19.6947246329035 -6.69151874244077
41.4828879282634 7.25263677078854 2.99529475871122
-196.546349211795 -5.72063408904945 -9.62519807281873
183.072570411013 -32.4681680023261 -5.61116646612755
-179.232394430749 -19.8701773512644 -1.53275769309622
157.000030551438 5.1924946639941 -8.23129586074391
58.3384760814946 10.2165858957086 5.32893362878231
181.241524111994 10.5391034756994 -20.6440619751451
49.7484882458106 -3.81862721805343 3.49062273612362
163.914808158855 -28.6863521133695 -2.87058899796027
184.622390863729 10.0040935293589 -20.8119175532608
95.6073174361586 12.1028189879293 18.6150224167441
166.575727847663 -16.1530498383182 -24.5476941668381
-153.451600553663 -9.82612888354936 -19.2152927622812
-117.689267139528 9.10401781127229 6.38650004471968
197.924732107978 -8.12505354245882 0.362951038619274
-185.375152535536 29.4591452104343 -15.8603681912002
134.237941901593 16.2452885478141 10.0809830228949
-202.391410939709 16.3240430396771 -25.8241613829559
125.458333524317 15.1497793897729 12.6712859708278
187.946857391924 -7.59786579603335 -14.1230754022605
-35.7602821341331 2.78597886152571 19.5263118608938
-184.473200178164 6.65840758017243 11.0870744028813
-169.864113156015 26.4682300436832 4.17618058920637
178.603311473575 14.700947480628 -28.9258497295061
-127.25903264213 -4.01142618039279 2.64477155377336
-189.585903786452 12.7384237389625 -18.7472745882616
139.25073543638 2.39430478193184 -2.77331681721593
-138.460434872108 17.0107104458776 0.970179588303163
180.664026632929 -7.17008854142431 -16.3984407499499
174.10158019612 30.4986046213333 0.264277591988204
110.610484831941 -8.74100438116405 19.4315390945614
-174.013250779934 9.82150911978353 6.19647462132797
132.754906923399 -16.1309840805452 2.16994272473918
11.1767343186096 -2.78777425736418 0.851761195550879
158.716708752208 -25.6382891794409 -2.64827100698825
189.255201916326 19.1303635317932 14.87582426923
-96.4058256139128 9.30660173399334 -12.1504546454255
-41.2752473422765 15.4138256178686 7.51318335921716
106.110487335687 7.87611085359523 23.600778310377
171.94326653098 23.5467044646595 13.8526983441338
-58.1880566875034 -5.186871941545 1.03768636590759
162.636689266979 -9.5023072449779 16.1931994782363
-134.642422811481 18.6230617925009 -11.75459007661
24.9104429158427 12.7262208003378 9.62291875980477
196.108201650921 -10.0617113151405 -22.9404100601363
72.6003016894885 2.19563187335776 0.557891447034087
13.9512912915256 12.1844809375759 7.87075495101171
-205.340715865222 -6.50177299371308 -0.296860012406717
200.519382071184 -11.5394675485472 -16.5506194021727
-40.8018832480751 -3.79020634677071 0.243389436743352
176.035227507022 -37.0331524844017 -13.2970712431305
-213.395461515532 -42.1003121786408 3.10758912304591
-207.322293517297 -34.0714058037478 -13.803915840159
137.239154040818 -14.6130222216841 -0.492145503686529
35.0581364665325 -1.44376430659334 0.260337731958276
-48.4381882864086 15.147117514209 9.88157120233921
174.98543506169 -32.0114272580471 -2.40294160266847
-38.0886349204751 5.36609704321155 19.0696669526585
179.659590410013 -8.53142626973967 -19.510271298372
187.768320555518 -26.8288346753976 -36.9389745285779
187.681354811959 4.38305316590841 12.1144740533674
-179.798627509392 -12.4977650399425 -9.56983049350468
-212.49017043886 -34.5541871848987 19.8399079097164
-221.338551856482 -27.0427434027887 15.0407170730138
116.090925762257 -0.472899327574045 24.1956074868163
-156.460524670422 23.5008983892743 -4.4585459067629
-150.13306428971 21.7350230455662 -9.72632036218153
-115.195497676618 18.0675031291157 -7.69053638284254
118.021184407835 -3.70389116463981 0.449609783745629
127.018580581852 16.11859905721 3.34455911000356
173.390774787023 9.98037338959997 -21.6898318101176
131.114091676065 14.6767181570574 15.1839810654422
182.55997496906 -9.33847639245828 -24.6660058002609
-119.24369003794 10.73159501739 5.73770504524434
187.861738238241 21.381228545436 14.8560756463376
138.856099954749 5.32576035139966 22.9121447454493
-203.670758163384 22.5740940164469 -3.02083364970949
-9.21743749026817 -6.77711693105663 14.2888197611625
12.2732539769659 0.145252834154637 22.9496789486503
-187.325683224756 -35.1477451811966 5.45037188186947
-203.339710316627 -11.8409103522686 17.9784909446566
-215.957426881386 -12.3231375622257 -6.36084529786577
167.327499461453 -30.0401775877471 -2.0348176477172
-221.947018639762 -15.8994759777725 -0.57723479983657
-43.8019829277707 7.27597593152249 -3.62835527144443
-158.304166706947 -5.97780578654856 -18.9394637680772
-202.321414963424 -11.3324116238832 -11.2054281703093
-123.594133458134 4.89275859696959 6.25346185034527
-172.700771595376 13.1516601929621 5.18181571601973
5.01707873527157 -5.20044833503679 4.73888191009581
-153.830062592822 22.7363080946234 -8.84164928895247
-167.654975986241 16.3964421557133 -22.7091356659118
-130.311214525123 9.27844267339468 -17.9044315409307
-79.6782825596269 10.031162805382 -8.90265905191535
-64.3617411121413 -2.65870053382719 -3.92353567597437
190.607304949849 -27.4161167584358 -35.0232054887017
114.12643995259 -7.10993682300473 20.6528182015164
169.500439809009 30.8636521243712 -22.5391024342089
-15.7544300037531 2.75998236631589 -3.12582211542897
-190.37957913886 -16.3681951346168 -10.7921762793061
161.677655342518 -28.171106205597 -9.18354240062941
-206.865483431836 -8.48084930033901 -6.08575529807226
-223.81459184802 -31.6148247174131 2.28612087720763
-214.131688207041 -33.9885596377028 -11.1525243220166
-206.833299046226 16.4382835634845 -21.3364202358484
-199.616771373842 -29.2447889845844 -15.0536135744119
-111.831486715866 -1.4900614888252 -11.5706568052154
-144.706432066425 -8.55888165585766 -0.744439919727036
66.1913000469241 -5.46365012277165 4.80510874006658
70.3050634043837 9.59736535944103 22.6110503843404
94.7826891050325 4.54324219825543 25.1505760200117
-98.3989946160477 -5.61341471886404 2.827592757737
-146.594126812221 -9.14148457072205 -19.3612250250987
-173.310363354322 23.8788249032888 5.21229783839271
-113.192377737046 9.97270099722645 6.7958157889742
-158.907789387566 -14.7012300267533 -9.83032906867706
-189.699650775978 -21.4745905576672 -8.81175294906446
-125.555362188072 -2.54726731208848 -13.5999175184934
-208.548791347881 -24.6207677180726 -15.6877044144783
53.8132520764403 -3.04310854098152 23.745182215584
56.2113985068929 -9.32326976346944 13.6963242112644
-212.429548437382 -31.380518004612 21.3778575561694
189.674245352413 22.6104608715545 11.5592584214322
-219.914401096054 -16.5223025275235 -5.87035142409623
176.979935905808 27.8553973086165 5.51767544869573
-23.4013405975608 14.5931740039129 8.57939424321699
-164.571272435734 -4.39856922146613 5.07137907712336
-37.3498770494185 -5.34139311183687 13.7469326693668
-190.481020609937 -39.0581108135194 6.67305719217553
-55.54442162442 15.2345221410833 2.33591557027504
-154.801765592128 -2.99991926893302 4.85787861221215
37.6028875275492 13.2204505583798 15.6475757054051
173.578771116128 -5.5768924585262 -16.8922442263796
161.464341845562 6.95275974747693 -10.565740169801
44.6203364131499 1.64087897124949 24.7662289994446
-162.487259109785 -5.15477642865428 -17.576538873919
-182.253062323557 -8.9531738207582 -10.9989537470926
185.378991616573 2.55963051797981 14.078264860816
-139.828652689669 13.1139587691582 -18.9505140880837
202.494927013702 -18.6643166093649 -19.2035393290934
-211.014476700877 -20.801314523983 22.3459405198258
101.639392761777 -9.2692676506697 4.40226310768406
40.3448149126698 8.74043098923954 23.04101464821
138.904814505641 8.30459794067964 22.3680691816058
-117.941431292604 -1.67546206994198 5.53915358586832
-107.116412940414 14.2784079499636 -11.9376943349394
25.6019476103677 4.9052463789924 0.584861565053209
141.293499661342 1.91195296873044 22.2728060055035
202.812091901025 -25.1396260627817 -11.9930776773108
158.690527685716 25.9699558572933 -10.3845160532496
-149.765333606909 -17.6270356877024 -9.96251876914783
-188.59180491466 -30.822087445409 14.6704575742185
-76.544227430549 -0.305624113223489 13.3414467737888
-166.628979620094 27.1018334720531 1.45147895432068
-179.834749942263 -15.6330263593325 -7.86289326797078
-151.937531444149 3.58323395223415 -20.1574273818027
-159.819311784682 20.39354427902 -17.5932699350031
96.9917056765696 7.84280406196122 23.7866874404962
124.12263171975 14.4051940792633 -1.28438048024425
-185.315255038455 7.10967053138037 -13.8572550141404
-220.224239162815 -13.6896769738569 8.81853947304065
180.224781716467 21.0540646776586 17.80130146657
164.722393118732 11.101195307647 -17.7789377083973
97.6296299810612 13.8002750576158 7.67925182351419
-178.204309189594 -10.6990673478744 7.25368463976502
-196.705856952316 4.60960891386623 6.9430849574477
-18.911114696706 -4.20342804885253 2.85748234140757
179.500340466242 -25.354247358813 6.41810120161131
44.8059452588884 -5.18328708270871 5.0130360733818
-71.2184502616229 11.5386563335665 -6.60340077791127
-200.329110306616 15.4962577546478 -2.64153249305078
-114.491205411559 0.384839849218389 7.19760739773271
86.5580058683725 9.60219912814623 1.76981411848106
-30.0203064868118 5.70534338564228 19.8350482673178
130.483938509459 16.0270341209999 9.69786189672966
-203.665810490921 -6.17956800878559 12.8904914227559
147.072234442521 -12.1957172224897 14.9913231211564
118.138104589311 -11.5340416651551 2.74008230946602
-104.947017865532 14.5313225151658 4.44665783721749
-188.491742416085 -11.5637022729612 12.671455482616
-149.162962216018 -16.8777768046338 -18.0019311198825
-50.9612143452179 -2.40407354960167 -2.89867687584596
-118.742975752587 6.08963941027722 -15.3798880674614
153.083282208025 -22.7785899399273 -1.39654662941669
-173.322457460957 6.40302322042745 6.81399799768794
0.0594312717127723 14.1070194085648 12.9432754433861
111.875902469358 12.053915557357 -0.737973859812117
6.46500211502948 13.4583679676045 10.0018919150423
-55.5060724852619 11.0995366208833 14.6774464577201
168.150035947411 -3.98479475682561 -14.9916522915914
-11.5490049339185 12.8993080998335 6.6302334371773
180.024788949559 -14.3568590144777 16.882452260846
170.635915691195 -27.9959137478279 -25.1104115064982
-188.330767337762 -16.1608345048259 -10.2167174418018
-202.041766528348 13.7813623354914 -24.1408838669419
-45.5881176392726 12.7870545333053 14.4968861153641
154.397642858542 -7.75817337039818 17.2825111605282
-134.961767143433 -1.31434491117509 3.79000329349308
-188.241306524775 -6.53705779265506 -11.6242498239649
-207.620118493493 -27.2803471099725 -15.7271741407061
-167.389057532751 28.1649634215712 -5.74040225485421
187.100855900373 -31.9324266633692 -23.2579705614456
78.346096318175 4.77595468932493 25.2601375217506
162.789591524103 19.8384105292457 14.7302634058901
-144.106740748035 -12.9339767444419 -18.3008878930633
-188.825029785522 13.4264467061908 12.2814221113975
61.9009325595991 -7.64167013934416 20.1913262703177
-23.0376059822162 -0.828030165685849 -2.0720637467255
177.146195358799 -30.0336193759723 -30.6621928529988
168.64101099267 17.5256606850722 21.9233945791834
47.1861591120031 10.2030912977124 5.85705304035449
87.1646198402911 7.01091884764734 24.4965572838909
-198.340606841415 -24.2991259785626 -15.0923268281701
167.443319487374 -1.01642231336457 -14.5837599548062
172.833326541921 15.1650810281468 24.5787980105258
162.39008564615 14.6755393571661 -18.2994700399898
187.393167326315 -28.4637054326772 -0.482390090842841
188.483533543377 -25.4083384894453 2.64184727875517
199.372757649452 -10.0544585783756 -14.5691537296397
102.936112654333 2.41340013380353 25.2674153585218
-62.3496864133133 -6.05766712986546 6.28303628193706
33.0422721488023 9.85623552804677 22.0054302462246
34.0934331423101 0.703872046209221 24.1696905110553
-127.355468701063 7.11637328757894 -17.2571916606579
-185.980353271109 21.7711699658216 6.89309001472413
-186.970862433482 32.6822815207427 -5.51482952526995
-73.7164280062939 6.13334976817943 -9.132177472572
192.860675844876 26.0394436976491 -19.2354682363077
-36.88203842253 7.03772843264912 18.863834622104
196.244448041971 -7.09068202629836 3.8675835938991
-200.469681914897 -43.6047544927589 -3.16393475152567
70.223637176519 -5.4247298122206 4.38739443124393
-96.0408534491277 -1.83540395529698 8.94327156284327
191.090109548187 -24.7347666586853 3.08330030709188
-61.9529740126537 8.95234393309802 15.0479537852671
-117.010581643281 -5.20602787793631 -9.42128342971081
-189.38086175625 -31.3448263473379 -2.1103357872812
-191.507212210387 -30.6840482472986 -7.7834213734002
-63.2319541533904 3.00616598348631 -6.81858398992704
134.82606451486 -14.2025911453094 -0.0812100220679699
131.90287606684 -13.1488642030077 0.279352381265353
116.866484397926 -8.18572651124911 1.5090091072436
-161.16285660118 25.2252545753922 -6.48975150583464
166.512483924338 -5.76574669072303 -12.7627274371729
33.7414094558505 7.29220544464714 2.94856332326476
138.893868863822 15.9381173250321 12.8611035412794
158.932755728715 2.65868505267221 -8.28465330143034
-49.6173136949758 -3.51744686473839 -1.32053362573226
192.879131605401 -29.6544233439457 -21.3836666298231
175.322849167356 -23.357025753124 9.43576344275791
108.463587470095 -13.5341262076436 10.6181240237262
174.173231757109 -8.33572570981339 -28.5887140112841
169.020108071369 -22.9372824968119 9.13683913594863
-191.797434281705 30.1330808711531 2.40715628205012
152.417038933904 -2.45548342322841 18.85153182882
-154.025999969726 -9.64171924356133 0.0584944834651299
103.015879755982 11.0896516581892 20.4769185043204
180.949875092417 -9.3258808692597 -23.1532209501294
-193.288707944971 -24.6144675353082 -12.0212307080338
197.346790793792 -6.66670632422265 -5.77811384223608
187.899283661653 -24.8402913863865 -37.9157936243039
-61.2808860829362 9.80630699790798 -5.46311468838867
131.672221277381 9.91812623555876 21.7888930300035
-39.8005826865554 -2.99140041282818 -0.902190625318713
-92.4890833021619 -2.8011495215862 -7.35959046403301
9.01638636943993 13.46858378077 10.4102865049759
153.807899466902 6.38400737520582 -7.12240774728079
54.5387246757866 2.44186080920255 -0.133107532325672
178.685349726116 -2.78885370364333 16.7124076293849
-70.033869690786 -0.177385156925717 -6.49285998399423
-183.660591103843 33.4066956143898 -7.14738937315017
-207.764618494871 -4.89363123403751 7.4225534334005
174.779037846087 21.9735601361077 17.3627175445316
-206.157190257606 -4.66612632693875 4.20664532251933
27.9930142736892 10.9351742813949 20.8971969169235
-4.45836998453928 -5.29913176144378 17.6034041970808
188.219787948107 -3.9329664593457 -9.12623223874078
145.104410981471 -17.0397682115968 9.88217044758794
183.542810915828 -4.13357846544264 14.1329478993248
-25.9040444814208 -1.24055790257107 -1.77022476217668
174.120550313879 -10.7317651667967 -33.7088872165126
-76.355025390226 0.420951078815121 -7.86010002218579
-39.1445790079054 5.65892753276863 -4.33315452957516
-221.310804650035 -25.6650224416116 -7.15930672368374
190.671176651291 27.6820206608654 -1.32306620736899
89.3109290273521 4.21254628881043 0.159250535799181
-191.964688352775 -6.97391584497325 -11.2852529218267
23.8049280139951 13.3899843481769 16.4215088677054
-208.828423554504 -38.7239354725545 -10.4183260114552
-68.652987775358 12.264646741072 11.8936459434525
163.803202830027 7.38735214622998 -12.5582143029291
162.311526493699 23.8533640818294 4.06361813278048
27.062082917509 3.59845933150425 -0.781858029075933
-190.300802450562 -11.7841183179407 -11.5255179776084
-210.328930906035 -40.2620670056936 -8.34057831001727
189.875035183371 -16.7118890911802 13.0153091652621
180.327512312499 31.0304698154442 -29.6619784967095
140.167553187056 0.17268945852357 22.0251164477528
167.599305566409 -32.8024971064511 -17.7057243070942
-204.667804632937 15.3395365288106 -23.8642400721804
56.1619205841349 -1.88665979915869 24.3762158341119
-168.173796290654 -11.570362374484 3.8289032524371
14.8262357754716 2.46758812896176 23.3706781197104
194.523278459238 -8.9102632686572 -15.7645937367818
176.879102898517 5.41584368366449 22.1188664822057
128.477010475884 -1.80690068382699 22.7608457753904
-208.406568333702 -9.26752127832189 -6.33614767093543
-117.393928113841 7.84719451607265 -15.6075578808114
174.879894646672 -7.30712406572288 15.1008266380269
-200.895046176274 -21.5561258853623 23.2159627607334
4.58607987697457 -7.59827679191182 13.4324257204109
-209.899239795255 -14.3159222160625 -11.9604056261961
