-185.939733412646 -37.1557127442657 -4.39428148671414
-184.856305575056 -16.7627270322302 9.15800402287263
152.83792557388 -11.8913957583121 -10.9999589819592
161.092498780034 -11.266525552805 -12.1781050414735
-135.435209008064 -22.3544933186397 -7.42663685112359
-197.767573833567 -6.45960419717155 -16.9550995378911
163.65333403972 30.7433688372115 -10.8198259375289
-83.4350634346113 -13.7632195379577 -6.25422986372224
-61.766322669877 -2.14660403556799 20.5142063889304
80.9483275892823 -11.5308528909013 22.0070389477562
-196.501520100588 -36.9756684689728 -12.4470163135025
-184.138326884559 -5.67563442598758 -23.0503155640252
-203.530555068828 11.9538277785427 11.0637026293123
-121.926864089201 -9.94185466545176 -11.9838492701299
-142.180482417433 4.19940682897276 6.81738239597193
-188.846471329753 -9.92314356378699 10.9264512936011
-184.923660520689 -14.3446063801795 9.17033469632483
181.346013143765 -10.8200097287644 -28.45407169354
-191.567497673145 14.1380516033304 -6.55213598426249
-194.915351598326 16.5754206157465 1.88673234688678
-116.974122511164 -10.210275355127 -11.4215334521185
-214.839759532937 -32.349135232691 -4.55529406906647
6.9406697274668 -15.7356034278277 6.53954583184457
162.45981047351 9.40149809078844 20.9019013272322
-253.849484334955 22.4148333330499 7.23924194075608
-73.3755325766088 -18.1600935117627 8.91648620052382
138.877858637709 21.6195817588408 4.73824491402787
149.394996271857 -4.93847718331389 25.7567636325155
-215.170633555464 30.7212886614548 13.0514072629919
190.371237792454 -30.5227859221193 -32.0631504881226
-75.9887610879491 -6.72579301920291 -7.85412594244022
-35.7317548733594 -15.2536311629739 5.28974005681224
188.838411738486 -34.6691070277365 -13.0248684713524
-223.448627597354 -0.403816403438134 10.6303698613432
155.63136555811 -17.485123155601 23.5036594486179
-71.2673873302243 -7.45480360153696 19.8760218709247
-198.93168815612 -38.2920727089125 -8.65403751698683
-22.2035707155307 -12.3225397037073 20.1267756139885
-202.443860568657 17.053009108281 8.3378395455807
15.1561014689217 -14.5546915250761 17.5411847286795
168.450241193149 -14.8506050908139 -22.6152459574864
-204.164078088989 -36.7126896775427 -11.3974275805096
-66.2552209397982 -3.47196980476103 20.3717105081415
-221.937999971986 20.4934275205836 -18.5887185335594
195.717166468027 14.3342588794183 -20.6143215358341
-68.0633384331493 -14.9665677531108 15.5305863301006
-120.045691149542 2.57197426389853 11.5728856940336
140.334673502128 16.6784108819217 16.8025203373464
196.758189565459 -30.7709341192342 -0.957052466903317
0.829272271356977 8.51290535167263 9.62236891649471
195.165837847283 -33.9460293603503 -20.3865712060414
-191.667113184592 -29.0804519995214 -21.3826462471889
178.004338271007 24.0936517067875 19.2528268624102
174.663525972883 17.344885828003 21.2638876579487
-221.461481984321 -18.3918265986124 2.27205075298527
-125.891360549316 5.26093715928556 2.74694013017428
183.126572190887 -32.8207645778387 1.64123484113212
-212.378873444713 14.1632114981688 -13.301914103351
160.203274601296 16.6116048668196 -13.0402208646101
0.450403550770368 -15.7635483093026 14.3772101324194
-239.824074441442 20.1871576057718 22.0959290472377
-201.455652755995 13.0446513919454 -10.076796236192
136.477543708505 11.3863277010831 -5.56314034315055
200.690552769301 -33.6308290909185 -7.72227550490995
142.85885975629 5.95349184615387 22.6468437548861
57.6298380231963 -13.8302397233734 -2.0409115898773
-81.1178035111973 -5.12901312120102 -7.91604043927068
-218.483641537728 -0.311491649047434 12.9327916970561
78.0405297838614 10.3734401256095 3.05478568670858
-183.287036371116 -15.7284772945333 9.00907496733471
-81.7612462794955 -0.893864430765943 18.7717638021809
-174.957886931553 8.73599863855405 5.71546604140483
-211.643758868327 -23.0918337709659 -25.4164155540413
151.861375075306 21.7971457815336 -6.22735009403313
77.3654316304543 -16.7236717741306 -1.71185255213568
-169.126863228127 -27.6064668193017 -12.1369574954025
180.65207439305 -0.328061618039706 -14.2421147049147
202.125712004713 2.51564072171296 1.43894164831241
-189.436888582242 -23.9695632982787 9.22377663482729
135.585016597128 3.03022764693497 23.390315124869
171.871351874849 26.9455117354934 14.6309437666568
193.786327407817 -31.4533902673245 0.525887967387499
85.4013881365579 6.61376646256446 -1.10115915646595
148.682433154672 -0.914822108503148 -7.67569102003104
-211.859702139107 -35.1108282872687 -3.82754335082295
76.6582179418354 12.2370883613747 5.60422872997597
-222.46638738992 43.0310608822789 -1.98113467229866
74.7408318754123 5.68221972199367 -0.340077356993825
164.814311529392 -29.0466235671487 -1.82174519829064
165.111796145593 20.0583514974984 17.7669526848616
170.967986059338 4.03347021131542 -12.8649396954955
46.8516863273856 10.3226770152481 8.09673993676964
-242.187432434725 39.2609702328932 10.4242530314792
144.450138834475 -10.1218828231019 -9.3029889786362
-65.2558204893249 0.555240553849784 -3.12011995825772
-221.772515844502 43.2077931585963 0.0981021837705942
85.6836962686619 -2.09123900076337 -4.78285638105372
136.066728861291 4.41352340887079 -6.39879238547345
-192.503874750291 -31.5753218789657 9.10472682164797
-138.173483994838 -18.606722766041 8.25631827850972
-193.264940766485 -7.20125638849266 -20.9549734138102
190.252395736401 14.8057594638562 26.3644616552423
205.480351773249 20.0270114169646 14.3587251423196
-27.5559712159772 8.20328217462712 15.2255398307815
59.7501125793989 11.5120993248824 7.77242214652078
-104.18411658484 2.60516885107095 14.2162034972204
-221.236649493092 12.4866758799892 19.0265939616134
-191.36858929843 -1.60721143851884 11.8725659095827
-146.46589012692 4.10806228655895 6.89076244148193
-203.844791863752 9.44764586605478 -11.8708388094345
189.208757216046 -27.5506685177604 17.7380891002532
-141.779933268537 0.527882249724343 -10.752417935868
-204.459735669915 -28.7126467066226 8.16310135275056
106.744661786626 -1.29419063853647 -5.27062397543705
-227.152112350328 27.5500113546286 -20.8956759715809
177.066878050973 -9.90520028091165 -26.7655230219842
127.924049371362 -21.4857367723242 -3.0469309069788
-88.7483323693937 -7.87936443042013 18.1430552124095
-202.181513330964 -14.9698647442294 12.5892147734112
132.550948359425 -22.0107744784586 -3.24447214041688
-46.6025588997249 -7.51164571639576 21.3074303063836
-32.9626617186268 -6.65705725271529 22.1304497930319
-223.233422041769 42.8751486849228 -4.29025910434825
207.550264903355 12.2297980978281 5.26220902734249
-213.556164391987 33.2028297193802 -5.19107565369392
-72.7592579411972 -0.0757085332011825 -4.2321358531178
187.903287954311 -8.90547823240912 -22.3522681139643
-209.330658402893 -12.2448407624126 -8.61778952328528
192.281156042283 -28.2969834251413 13.8195342584896
139.424661571089 8.75463195504197 21.1590413529292
194.576365095593 -13.9257991126405 -25.923590807745
180.187956650429 -11.6585238836671 -28.3728315515218
-0.0467446458889662 -8.16058387830325 -4.94782605960534
66.8292236661438 4.01099488198487 22.2975386201382
192.685967943223 -9.857381575522 -24.8116010527353
-211.827784654863 17.4484245156782 11.535574735581
177.376265530677 1.51182998571788 22.9292669523663
107.595385876459 -19.5681969428701 -1.74180104367897
-216.604006046753 -19.3268150401133 11.6113815388258
-213.365587839624 -12.8238281644046 -22.9111811634607
-169.947956146847 7.45163359481083 -22.1729466173179
11.1315347962524 -5.97802012647182 23.4548331848892
203.403464048763 -15.5394656159115 -6.91264597494976
-221.87834762499 -4.09629122084789 -2.76701049486722
168.343275640627 4.39983782096764 -11.9063933973682
-171.066897132163 9.85403659853957 -16.3778607893412
203.642263846849 10.9143187698422 -17.3670922112923
204.361244086894 33.2406785701773 -10.7015810438891
202.021754401414 7.67442849389944 -8.65200946314598
161.195970932465 -27.12073245328 1.43923307698814
151.484496488871 19.3600358898909 -7.88980527578318
-240.774127611188 27.9700840536114 20.6538250532386
-248.013844913306 6.00997400069539 -3.37637739487148
181.163703166957 -33.0762392733107 -22.0615837580313
209.675624166484 17.6491554547363 3.65723925932873
-27.4013126104992 -1.82180155616904 22.0872975907737
178.39242733918 38.0262527326815 -21.2670548403343
-61.228133595936 -15.2921776880065 15.4890075081
-237.553717447057 40.7886932591419 -4.24989170667146
179.291325391633 -6.9148824631539 26.5955725056889
188.840069714866 13.0901015880237 -32.6023324968414
193.165925561151 34.770333378032 -2.25992436592727
160.963492943317 -25.5308467192228 -13.1420945353225
194.122735141622 -6.44926505380582 -10.4059269727191
-60.5794473086122 5.75243124018096 5.69373613116428
-149.481225346956 2.6054168156334 -10.8376012274127
32.849109478181 -13.8483975634014 18.8837429237139
179.687472136006 -8.20887848288389 -20.5792877763504
75.9003797798075 5.74344996961231 21.5745426467315
-173.316861046202 -19.6973600295086 8.35285933873089
155.948914908036 -15.8133055081881 24.7997590773406
68.7232053336179 8.39527493883674 2.54884039187059
-204.422419463336 18.2087330537168 6.28330560629745
-180.909354211879 -19.2374224205604 -23.4858167716712
194.021896606087 -5.49262823035188 -8.34882795334962
-167.500029226989 -13.6406934682492 9.11917989596434
-142.102107535318 -5.95115973403444 11.7558059416407
-194.817422147877 -16.0023374409379 -27.2197736428164
-231.19927244125 44.4969136561015 6.34381938176034
-190.87853612304 0.770553494378166 11.8692455143848
-171.042805184945 -1.0914859214707 8.73690032271131
143.360896310038 -21.0681209430743 -7.33128912032733
-154.202777119811 -24.8692669855713 2.5428526901098
73.1385600543805 13.566064149042 8.70986328093875
-192.599300021611 -18.3177674189282 9.82952358835172
77.386706001585 4.99591118703835 -1.47768408546196
-80.0657254863357 -18.272125112356 9.60864773243902
-129.369868581991 -16.5738179914022 9.98386096811789
-15.1360854918544 -8.97658409677023 22.2861957830433
-189.604971376436 11.0707600055024 5.68050276122162
17.0474432744414 5.98701993916361 5.14547904194812
-58.8153307047583 -14.0110524658251 17.2641428959945
54.0073838105254 12.1973125544013 11.7489087592431
118.264940271562 16.5974838130741 3.34295780327595
52.9861580509896 5.19767274115515 21.379799432261
166.939402318496 25.4424110741854 14.7405170097382
194.326639120672 -32.6418922594987 -4.89809036772614
153.812808705831 -25.9629236346941 -1.69512426821947
-111.253403765786 -17.4269486399205 -7.7969924462825
-252.851220285139 14.0804994686991 -1.97636953872587
16.871554804937 3.62613910070727 21.283124304835
154.209943185731 1.13381853206389 23.9884856588962
-94.9808630784771 -3.32415373869224 -7.83209647449617
-187.634695776594 -32.8166533167438 6.71692275528791
-205.423183736528 -40.2305539615604 -3.61330370317182
107.241815079668 0.326833511485762 -4.93925134102951
-10.2157004588873 1.26149703481332 21.6717716102172
-236.527824417822 10.1846234368156 19.9206552886683
-150.025433305657 -17.1346947799952 8.82382584215934
134.879675480846 -2.20038143028498 -6.36617394401475
-208.425080394323 19.7854635166748 6.80960906760095
-92.5126096830602 2.29167838988058 16.2209337893101
-226.627950956662 22.94254668269 -21.3477732306754
201.746527029595 12.2521624011059 -19.6514259099794
200.887328427168 14.8385745391008 20.6906470405673
-158.911985013657 -6.9904917599137 -18.9137629193169
208.279586297344 12.1697723821753 3.36220350747635
153.883495073374 23.3682201217949 12.5743261409894
185.25458902336 11.0972510569543 -30.5837340950011
-212.277025744877 -9.0912976221855 -7.80403011553226
150.597122502608 11.0264336644571 20.6094866662282
134.053202339356 8.68034353410578 21.1334455941671
-198.717668018806 -3.81421977469455 -15.384186311271
-169.143043745217 0.78485280405915 8.82823989082735
51.8935352063457 -9.49495878202367 22.9034189132578
208.265508799061 25.7753311944923 -25.5451898590686
-26.1967742247233 -12.7368829547216 0.830181157569171
150.317980534705 19.4289479730858 -6.96690540992445
-78.1424381150032 -8.62828555045676 -8.24245316238896
188.504628908397 -9.01966495513975 -26.7259477069574
-27.9729051436742 -12.2610711921149 19.9935198993046
197.10278123437 35.3091641316653 -28.5436717856376
156.448383851602 26.4603653481061 8.32573088305546
163.113508432357 -27.4665230673677 2.63206059855852
162.831661298123 -6.35345439190736 -11.6455984572684
-165.112970888594 8.63736073528042 -22.1776759933102
-140.590304996688 -10.3775719316223 -14.3292242689474
-171.613623105301 -25.9161962912866 -16.2377375459744
99.3761578942022 11.0135847715871 0.797887910874503
-73.5467068339386 -17.2713984571994 2.84834286487334
152.1382452921 -5.92666113907851 -9.0118185501003
202.781849495557 4.12091923162768 -2.97068210589472
182.86289210012 -10.1219173780504 -26.9434609565926
-235.858851423405 21.25308001308 -21.3939571348134
-156.62578581479 -5.36442135877481 9.99431366592702
119.537974535396 18.6375980892914 7.26526798868731
-248.407402519122 14.2477888921348 14.1622412243891
124.849740393843 -4.09235435243667 -6.33884881340976
-172.742289720785 9.180039085078 -16.8019896075041
166.066637935401 33.5342237714396 -7.07069994118623
-80.9423851308558 -12.7641001855452 -6.93329134680014
-214.537777830562 -9.25355107349807 11.6830402761104
178.208845679382 -32.8049366990826 0.771460521084959
-56.6445133504942 5.28514415514921 4.98529981722581
205.649716799546 33.0876589846633 -12.4217445378481
-212.579651407839 22.2120197854585 -11.4972846111871
-95.2799434111574 -19.72837464011 1.00249491540957
-218.063200089524 -3.89106744242153 -7.38793605806659
181.280098789335 -9.72470625957373 28.1571617884212
124.136145273322 -21.7503047718955 8.47685081483624
117.256271336562 5.35816327876101 22.4582989736144
-152.797978460851 -25.8572849909717 -0.69693132548544
-57.5392942269828 -17.2383696994841 8.19651560785617
-184.224092497318 -3.54439564676488 -19.8574054004643
65.5703169936208 -15.0950546951994 -1.85678313840641
98.4102139030206 -6.50305485515228 24.830844539327
189.303354820337 -7.99163697562638 -18.4384151397075
-237.302727347326 20.155631923753 -21.0041406211568
-208.54065260425 -32.24794131949 5.0893465904558
-91.0052349361124 -1.95497160821663 -6.37359848425383
-150.359435144763 -1.33845601621824 -16.7729466074678
-55.6191841159441 -14.9015053436162 16.3540497366897
165.064374980105 27.287118081409 11.907445217416
200.519666520359 -2.961971846034 -2.13410287777659
-97.8570691349271 -13.6941714155955 -9.20457761201834
169.955253102712 -9.8771057896134 26.8431107384665
60.7237792776482 12.7102491770175 13.6063002422763
-247.612257680267 9.71177780770548 -10.2852123520935
184.736496937604 17.1949994338668 22.8052792825128
-209.128423353247 -37.5932165764082 -6.29690248568414
-231.300250546183 30.3790094429266 21.8738981606829
182.05651724941 5.68469820867062 23.7377461990278
206.718757048388 33.195946879193 -16.363356146887
158.356669277302 19.3252166863795 16.5694789000678
203.491254976197 34.2445396115776 -19.8169049250999
72.8269197733368 -16.1593788150721 16.2232669949734
-176.222322257119 -30.7811735556578 -11.1567211259184
-183.27302511475 8.48068609293246 -10.6914189292849
-134.902018942346 -17.7174044149546 -12.1378987784893
-147.070029993309 -5.73647234214182 -15.6725169006553
142.851801110478 22.8979862019823 5.08849886218488
-130.639662160468 -1.08674971747222 -10.0345431104572
181.037598145293 -6.50332464809379 26.7243163888821
-107.470554331379 -0.0977398402965544 -5.79405940628194
186.294845178859 36.4451722411118 -0.969092279417776
179.749110210861 -29.7189350500721 9.67451252278743
166.588092219017 32.7127169362441 1.4056621177641
146.461842929224 6.8970432153618 22.1757313555817
169.337861288415 33.4441337239172 -15.4389215484822
-100.782520898691 -2.96247377549921 -8.04381115830087
-143.697256335442 -15.7655999081473 -14.9867193518724
-73.5462289802509 -12.1177032396195 -6.68759430418331
156.694208725913 1.16832466655561 -8.82584960118906
-103.232725112865 4.23517381120097 12.5168404277153
91.4023834488253 4.74241465474689 22.3237040905638
176.176264368078 -36.5132158118721 -9.64296054856607
81.9181976381158 12.6669470839889 5.20128280963285
78.8924812947095 -13.0300098237117 20.6651817602363
-40.5428405355007 5.20632325691091 18.6339256044627
-180.210281715794 10.7867665470515 2.34449918034161
171.112814550014 -11.3219208654016 -22.9562537941436
-117.696049261863 -5.8434409646545 14.9542038928632
188.373094040192 35.7582589368022 -28.29176981904
128.989014013257 4.91775508514171 22.8861701910757
204.628212902869 29.7887369727043 0.450774022040248
161.719069074351 29.3856570045318 -7.30559212953921
-191.477377381785 -20.9718956265979 9.67460492401662
160.898631839205 -28.2463214195537 -3.43605245838914
11.3433350635631 -16.1764020265667 12.4426682736638
180.286819106479 -32.5251902905884 2.02331883974704
192.883029146406 -24.9875833126937 24.3241211321513
-218.3665272956 3.5443643121318 -13.1282872311457
-216.378629230024 6.49151007913285 15.8728862246098
-190.381278895456 7.65785201964313 8.32072994060336
183.974921195074 -9.94804530246605 28.2961354160929
200.527880999317 -22.5740895920898 -24.3479533415177
-167.530191353565 -17.0227946029789 8.78480975302344
-13.0690195623028 8.64535543164795 11.3121336817329
-204.50746876391 -19.7383729828893 -25.8102047974415
183.86856858855 11.7953935770105 -29.5391272403153
-223.873295372461 -20.2791620111819 -9.31355726308231
195.801793366632 36.4782321301108 -19.7060478425033
-236.517770090108 43.9589613161896 3.85540278340723
146.853144647443 12.8574031410092 -9.24388703792095
-150.473367272681 -20.8666680939404 -14.4565490209432
48.9054981233479 -0.508459693386038 -3.48880332859796
192.120339882445 11.0901616979505 -30.0435622183491
89.1368144751832 -6.28983377937225 -5.93242228378796
-174.539929570186 -26.428751942708 -17.2514665582476
38.47276950232 2.29753324395881 -0.588816366690963
-184.349363594792 -33.7913091697045 -12.4494261090306
-217.547731129059 20.4600061516491 16.7669814791339
160.324761142918 18.619038908168 -12.6835205893539
-224.294825668234 1.96707807174408 12.6637703987596
27.1935915824557 -16.2725940427002 12.8016225819567
142.049905924022 3.31233749790502 23.6773445914416
158.180987259568 6.18225764716947 -9.69530283267483
121.824412175498 18.3241796714185 13.2180855275469
-223.35642019528 -22.266729488145 3.71419964349599
-182.123430816015 10.1584394484 -9.3351583032567
-232.129779698987 2.6607912870158 -4.27787617015708
79.1682552261065 -14.8140740946988 18.6371920275822
158.301400413091 10.8564903025717 -12.6234089344879
-230.37947399984 1.14709727631433 5.32343326138896
20.546781696908 7.89228797147712 7.25686081055408
-175.875374864677 -21.9167924294275 -20.7983501838351
-250.613046652555 27.4867545145712 -10.2605821172552
137.432697367718 20.4777925660617 11.8749152395126
130.635323606639 12.2419175716069 19.4410680301359
-251.850718929685 17.127350764287 10.4974515179943
70.0491006738407 1.9579995557165 -2.93781775620195
-99.5041422411329 -19.0103964085424 -3.23666859084221
-133.260187227271 0.220059579222998 -9.32512289207651
-219.576201736614 32.948849708927 16.3816268882981
168.010703236876 29.7513245964492 8.98518008627015
150.898727846223 -24.8171924294226 2.44501877724157
-84.6343622409333 -2.14315317186888 -6.40097855046075
-210.918338055193 -6.26916308237797 12.7768709101347
161.706217685396 3.05067218537923 22.3379984318883
-82.4068050606881 -2.05912506201643 -6.24143163337519
-198.968296600282 19.5298876372835 0.922537340699116
-223.720963763464 19.0682483578491 -20.0466879084266
142.58266753412 -23.5301821039059 -2.75049281846661
54.4314729929169 -14.9340927440282 -0.543193738265797
185.419346320806 -34.6516989355841 -20.6924184676241
-146.916351181391 5.5084629889049 -3.55929196263231
182.060719229471 -37.2692570083199 -14.2889727691983
194.675052981497 24.8996908140184 -36.9447439969858
-111.876149855074 -13.8206239066979 13.339871558566
-108.20159752155 5.66329475068851 5.95726679327629
94.9090393616735 -19.483472439519 10.6066770678599
160.146106598405 29.2590146391485 3.46041037999352
199.019156976134 34.4768613047113 -29.7899979299008
165.091775885013 5.1206530045995 -11.1472073183963
101.317125619271 -2.75279064271894 -5.28414465224324
159.398870986545 5.05603179695831 -10.0526301636613
173.23819193783 19.8487019059335 -26.7730344312874
172.233248252243 32.0902704067639 6.4829808795222
195.359741430689 3.25500205697019 -6.33815012959596
203.779552699248 15.9937347885149 -27.2050423460119
185.335294210129 -10.0279504731461 -24.6013286555819
-235.798657402528 44.7159881035909 0.695917521216523
-0.0708769280154318 -15.367745030038 5.84312949109161
145.415384425085 -23.673372657472 -5.37233183330116
17.8856537771834 7.48742167004501 6.90598072596402
174.190270970821 -7.62185386536173 -23.7815523597193
124.156641683104 -15.546231416604 21.2095311805816
193.967134127411 -34.3219366776085 -28.9238812093423
7.63593182450636 -4.55058763626252 23.3892951939337
103.605855401364 5.00792981907785 22.3105669249922
25.0124203022911 -14.7365110009263 17.3292189829412
10.9429410049054 -3.79623580515213 -5.26930739699314
-82.2610861640558 -8.24926358634398 18.6398210619941
82.2948432289695 14.552041056124 8.41796333427783
37.0296953295067 4.27516654895706 21.4368171113205
-188.149410508082 -11.6295505214752 -26.3978911284424
-17.6307696995152 8.72242015488133 14.3785357046329
195.743638766885 35.7629114659235 -5.045894946861
172.837483397914 -33.2794772644906 -2.77009773786769
154.09763939531 -15.4333643453592 -12.6583958991908
-210.020607449657 9.07458196761251 14.5871273624207
-237.31689187456 17.7932949429752 -20.817446699541
185.923284941198 35.1323646180288 -32.6765343618042
-97.400032528307 -15.7977984209867 -7.0494487727472
107.816292457208 17.4068728211146 11.3412640135116
204.544234445164 -14.5683364455651 6.0503249457546
-39.9057504984207 7.0825630988958 16.547399265316
204.368455781262 -14.0876577354896 1.49418447315513
201.409443346104 34.5251324645172 -10.2095663922241
106.825129032576 -18.0287149369568 16.4245223712561
-145.449386896611 1.26074439260109 -10.99151699317
-208.310847265611 -35.2800605712078 -13.4814147642191
193.767456962828 37.6092266155055 -6.9554424984656
188.984608380194 9.65363608452585 24.6432739219241
-237.783910683897 41.9231373206656 8.99585614369348
108.637974039575 -6.43715364140539 -6.19458975835165
39.1344428764844 4.67369418467258 2.10737102828076
186.298673940547 -35.0030154477409 -18.0655523719328
144.357116680441 20.0215905781015 -1.72255608600469
-226.750452967571 39.0147288935076 -14.1839238699299
188.333060618476 -2.10729411149793 22.901914405944
-170.502036731001 1.16660952756588 -23.0812773206557
-97.1326969246456 -7.25979247728659 17.4208836121387
-207.692028595749 20.9174339975735 5.11012823088691
-219.972495988324 -20.9293048781993 -18.1573402080733
120.840803517043 4.91495765092573 22.7435743339232
-188.939165189164 5.31563173192693 -13.0136214664069
135.53692458227 6.8993758045995 21.7876406595953
89.0040039706205 -15.7728713169933 17.9680811771456
33.7602942483585 -3.78388893050342 -4.98145813777155
178.770050797291 -26.2147564012484 -31.7420153456694
-155.652042716316 4.80198191757259 -8.74651585278925
172.723787413157 29.8780202762752 -27.7613050511063
6.66098578952026 -2.35567664660831 -4.56189452376478
200.609511929276 32.9658892714389 -30.2105785300624
171.564041885264 -5.65799183731971 -15.1327207679742
-188.622184837599 -23.8472710095553 -23.9307077075921
195.089046954914 9.3688136204606 -11.7247444156426
-135.641636869509 -23.9228164895718 -2.95465446128036
-217.960403678673 -14.1798909622632 -22.6348518609706
26.9624119145842 3.08211195392081 1.24156444636338
204.085334407732 9.62140400886378 -13.4008441591818
98.3143478842219 -13.524320112248 -6.49562394452596
-169.445756289094 -28.5801321736122 -0.166550630257963
-201.306194093875 -21.1358005470603 11.2522783477583
-221.801336187278 -13.7484382752564 -18.185181838567
173.396858895342 -31.601873553176 1.4021367308363
193.6511936071 -26.3891894721125 21.6591920086776
-29.6150995020534 7.22458330447461 8.58880105530109
1.33265562544793 -15.8622467856622 7.614644967439
195.710648795765 10.028857024802 22.1054716545008
-172.538722608095 -26.5233548415433 4.55493075392023
-217.350670254018 12.5074084674391 -15.6989787878514
-22.4123776230422 -2.19361602585867 -4.90523050460358
-231.763659240262 1.28595722714247 0.813945073180562
-242.477553600368 20.4591885954362 20.7294724416092
-137.783482599142 5.03511674210122 4.90702775040315
-249.330768962324 35.1748332747777 3.76903809448186
169.592125271779 31.0208053260634 -16.9037278620589
181.641282928321 -10.4536036831907 -25.8063072600772
66.9653158092671 -16.5827129421573 14.9230486640817
147.494301875433 8.74895060355293 21.6281260286477
154.755548182818 7.78556531930386 -10.5159341025284
175.358391809445 -4.24960527711905 24.8178455906845
69.2116818767268 3.66985376308425 -1.62064529410241
-119.393705305742 -22.7176579613317 -0.496465569141433
81.8250423213711 -8.679997169746 -6.22844356564608
46.461889342948 11.2860371381662 10.2685145763834
-246.095410543487 15.7702452551009 17.2993507128048
185.713616070327 1.76623040181277 -12.7781025402426
-193.168745849556 -10.6127713431014 12.3999806762335
114.134141006895 2.22826960787647 -4.91683286038278
153.758837273464 26.6612707223669 2.41295858525189
129.862468005661 1.319439900098 -5.94128129064151
-240.539296089306 36.8410272855981 -13.5823588375536
114.87242587845 -18.6869824602206 16.2372480821913
6.09700380012452 -13.038644443567 1.08544932528949
101.836710293687 -11.1154170826853 -6.81733757999544
197.481814365299 8.08317724548228 -8.96769381091434
174.93548350637 -2.56696951841428 -15.1720022027721
186.198480481785 -1.51638282996729 23.7499255058597
-26.3382578669119 0.74477076524897 -1.04795027235335
60.970273766288 -7.7810752640951 -5.44640720388811
-97.0435310926453 -4.61540325174995 17.6234160416852
-120.138973552848 5.12039295196159 1.8513167120807
-193.24614690899 -37.1804902987997 4.67026349289903
169.021273914017 -28.8138069798465 -20.0620912240354
63.6823907415152 -17.8255297922117 4.21099208574023
-26.6706137616455 -15.5363394977796 15.6742406367182
-210.973516306529 -15.7477983215288 13.7049193475351
-16.2039677619334 -4.11642079085844 22.8409174046017
-214.144903264478 32.9195633699405 -9.55303688598533
136.847312517946 5.0864195549548 22.6405180220243
161.190835378614 -17.0644540356188 -14.2955550784612
192.100895189039 11.755360250326 -15.199536905444
-236.749723946752 37.8220569352289 -14.3922114703811
120.213065002008 14.6644729909215 17.5214381012946
160.536498554386 -23.6525104110999 -14.0153975574407
71.6776134554211 9.66788164648936 3.33300792164756
112.08082266391 -19.1689397965915 -3.17784833579432
-227.257147076794 9.14508298133437 -17.5016752826056
162.620548073416 -11.1287720654045 -12.7933323278615
-51.9626901722385 -16.8056634911084 12.684084127383
158.691151350326 9.20955494949978 -12.3364625837437
-229.783566282354 2.43193705629155 -7.19319609956578
-250.700957385242 12.0017655966897 -7.38535339897149
-18.1251863329975 -6.41436548544028 -6.29509185852584
-237.981828791642 40.9354577308117 11.5817153895738
165.088224486692 -24.7869007780379 16.0571950728611
93.1328660049619 -10.7591089062772 -6.59218945490043
207.277303760037 21.4658924316131 -25.8976518417479
-229.223837071158 29.7964711241327 21.9989740878819
177.948514266935 11.5636590771094 21.4961470932397
-183.577211230945 -27.6430904914731 -20.1346417228222
58.4128556296263 7.18389992779143 2.7794381593883
-230.703487376531 7.47825701076322 18.3559894733364
-186.16794731278 -12.7044055053625 9.72443887633913
-191.038567513847 -36.8225044994401 4.75565169541868
-137.092455317782 5.36196685289591 1.65181986036269
-8.83203419582586 -15.65038968686 14.884101098506
-240.695865105986 25.246359894731 21.3104179940209
-54.4968266487779 -4.60005108817062 -6.30071085996289
157.84719961826 -18.5192841774871 22.9028927787702
-198.902212215471 -22.9611021992016 -24.9546571946151
-209.112194585063 6.83603754265203 -13.5558387783588
169.878525063358 -5.6775823437598 -14.4673490771716
-211.534768170482 27.2678315328034 -8.23903966369618
193.700811489068 14.6661208545466 -32.5297876615068
-19.5963253004241 8.69533260265766 12.3086224593056
-175.291573159275 -4.69922834941486 -23.0666115414512
150.4418314209 6.33953992900354 22.4400005051095
-242.599575702012 9.96767314910867 16.9655828870384
-233.012349838811 25.9747700280019 23.2899331396926
-42.4509929481634 -10.1264069976038 -3.68663613198733
199.70319239401 -31.0036681080262 -2.37973982437914
-170.289829303054 -24.6514073736239 5.62881401725041
-199.871419186884 -37.8895768452611 2.04120942641652
110.069531501225 -2.7593908050822 -5.75226497064816
-186.605850440426 -2.0661968830399 -18.0024515038104
176.896338560573 32.3736783530784 7.19903942273777
-233.765914193553 36.9672147502807 17.4785577014687
31.3441571569444 8.12151799249143 18.7636398915468
-82.4515366010734 -7.21097048256866 -8.43217891712036
-242.926000863067 3.99934429998628 -7.61967886072537
195.069427439988 -24.5848687399361 23.3079914507602
207.833502194003 22.6927319125114 9.77242592892054
63.9296484465295 11.7940361554007 16.4172279221485
-9.14069692469889 -6.80705729171403 -6.05379413003852
139.501422946328 20.9926946271467 2.46032788826406
-24.5715867390832 -15.7243237197648 6.95214044309599
-229.631014514525 16.1688083155216 22.6035783314398
163.005287870798 -23.9606979885924 16.6380953064579
2.6401621434829 -14.758184536782 17.2469549291107
-216.682433395605 -31.8640961733643 0.729583212330244
186.455815090804 -5.0806671179173 25.4333100692544
86.5425473947574 -17.1822057001595 15.5133809583897
-115.963595607404 -5.27123027671414 -10.2031839333049
-122.008214156492 -16.475049368402 -10.8552262941853
-155.54064537714 -22.2542815076943 -15.2599012134295
-218.984701620753 17.3114444509834 17.6363789281763
-211.478945515675 6.6360424432175 -13.9591221313638
181.071469040642 -20.8690318653224 30.0219875294815
212.325582337572 24.7470678537044 -5.19018182017297
41.0033612894301 3.83506674476163 1.02309447925042
195.614098485693 -13.015134076096 -24.1084381092757
118.624483337639 -14.3414694318523 -7.29159295719449
149.813313315702 18.4322396382921 15.8531151846329
67.9421132547257 8.78563278524866 19.5134240634017
37.928547568998 -16.8842440520693 9.2296963411909
-120.73267465099 -19.581114710559 -7.83266135507947
113.137473145445 6.44790124052383 -3.98488007903057
175.008535926558 -11.4660920857557 27.2731770163782
205.505738755435 16.593344065711 15.4601335687331
-71.2432592682287 -12.4907484586316 -5.63163773266944
181.170360607298 34.0876492792878 3.75069094384312
173.492164845302 6.87420373354095 20.9269187312739
-188.629936825339 -38.0890816205033 -9.62217661422275
-235.066667517799 2.87300942717455 11.1880283623322
189.623651382447 36.1796055723637 -18.6141467871632
-85.8423958149839 -13.6250581576039 15.6543343809915
144.901682634697 5.54230075219917 -7.47502538230733
-179.597863038359 -15.9553709042797 8.94327330475359
25.8369958009666 -1.7392863185219 -3.97217152711545
166.081661470163 4.16852938917483 20.3388119667051
-90.6796491177971 -9.20638998251874 -9.06101010350294
140.795012784696 -19.3878767366951 18.5919390196089
-10.9371710310883 -8.09042284026328 -5.18200230594054
188.238335308888 -37.2234905753274 -8.69532746402188
177.548900955638 29.7388555898016 12.1195585327911
88.8473814529608 6.06034671851294 21.7680783591351
-166.805832727857 -24.6315761426646 -16.1436262696809
-214.896591898955 31.7726210604382 9.63674756898273
-223.014003754756 -5.32808474665262 2.59545748815045
-59.4737372167662 1.17575707667656 -1.71702174276808
-230.612882250532 41.7080920017521 12.0146121043809
172.358341433112 -8.83488911604208 -22.1897843258243
179.190215960718 25.5018042944647 -35.2694890436557
97.5044518749812 -19.9432714404186 1.7303427046773
177.651318296989 18.1566703169116 -32.5144662199732
-161.67461258011 9.38806284041016 -16.3902436412938
-220.643191735618 9.19587193826029 -15.7113641614638
21.9187530571785 4.09101870295043 21.0999103276565
185.794917028264 13.7674004349835 -24.1876996619958
202.93776645068 27.7818738432565 5.72666011484612
2.49068152185365 -10.8806165825122 -1.47020574911176
134.421467110995 -21.3897589965031 -5.69966100333472
165.094415196266 0.577228393992506 -10.4927526366913
178.845670261933 39.7496350674502 -8.97203170476365
161.795990755069 -7.29434634608435 -11.4722235648808
196.82885316395 36.642591553906 -14.8181398622866
184.246536851563 5.35557594953342 23.7557698901959
146.908188120526 21.0767661542885 12.9427683973104
-197.296147028253 18.8557671867957 0.293412313891195
187.549222217128 35.1557487465512 -35.0196006212864
-193.995569632429 -19.8558259312741 9.9449735731188
-179.323449142297 -20.9443908665843 -22.4927657396307
70.496875736723 -18.0051254971331 10.7905755221615
174.619047110943 -35.8081210769482 -13.669570487372
186.617649522531 -17.5316770440915 -32.4455792600027
16.6671035484032 -15.0917794195034 4.05375867276516
170.699587283099 33.3298588086208 3.34042239839102
-194.745814737379 -35.6648319144278 -14.736210821398
-92.3682743948581 -11.0014763599317 -9.58427280136553
0.731495612113648 9.30556359399494 12.5868415966606
-222.193720064114 -17.7615834381794 -16.5486630876893
153.012434116236 -25.0664722767814 4.01753080254907
-61.3104005407919 0.574596432561944 19.8714808915361
179.451588920966 39.86145801901 -10.9315451922767
-203.727589499215 -2.77724715906826 -13.500780955939
-223.418606133314 -18.0177238713347 -8.47673831351471
82.1850029437102 6.50544476818793 21.3121447708075
153.372036213205 -23.9270563622646 11.8062061970537
-209.307862815087 -22.1075936428552 10.9268702017307
3.83281895483198 1.59205231792845 -0.0596329030272826
-199.760158326488 17.806532252441 6.10674396860548
-117.266367898508 -1.97334502380863 -9.26163073938534
197.012186896413 34.7322526755688 -4.09359240209561
94.4763621574272 14.9574674113785 14.7941219417851
163.173742876272 30.8014550713943 2.70310668915982
-18.038491143324 5.35041453573694 19.4153808637353
168.46677305208 -18.0067500469217 -23.8003719933228
-228.483376886628 44.9775393501327 -0.601469792291453
83.6797782984361 -10.74168735615 -6.17683349351431
120.402089838228 8.54123056177538 21.0880805101615
-166.823118461519 8.02650504669595 5.0295972650537
-109.908285872012 2.74960274407874 -2.68117111356507
-139.256231692974 5.32536685202365 2.35340183606898
-174.844668555768 0.88455070009066 -22.1794193209156
-35.5320346385556 1.09490031017881 -0.560416737654827
-214.882900321113 35.4107123082421 7.85572020736472
122.473441831141 -0.723494700650915 24.7353416661731
204.878097116035 12.3907069283371 -18.3662566102375
66.6681003541828 10.0545444636224 18.5219715162426
99.2306444495744 -10.1404632463284 -6.68616317291842
-175.1201234066 -29.6104435566367 2.03089727778161
-53.2675513847294 -0.958519691485389 -4.77733858909203
-82.6191040944025 -18.7536496660657 8.25040324469837
212.411077138696 22.7349128635518 -6.80216992808057
-4.73753039800541 -5.10684951435826 -5.81502380350912
-112.47500047107 -8.92639712824128 15.3202484572739
-247.398852848261 36.931619423585 5.27902691821658
-207.887899278185 -13.7285152622544 -23.1587027403609
5.89534286565327 6.15290052614783 5.78583904763843
-151.026417218177 -21.9124251732066 -12.9524566607614
-218.763302649171 22.1616397998774 -16.8417931225816
-243.468448846317 2.85852273481796 -3.31630629232352
-218.688148113592 10.8989003581396 16.4008772062607
198.994294049881 24.7740869224995 12.953038991865
-28.1225876754468 8.1477633542328 10.7556640392834
-155.139292401304 -16.4430297986579 9.02186736867054
149.389921003922 -12.8537288003699 25.2188774055261
-215.897832173646 9.15786236566364 -14.7224198609324
-236.022796999485 2.1822954411887 8.66832272592488
-187.179020867716 13.5217368288072 0.388572869250358
207.530750593532 21.4307275021097 11.0712183206425
73.7704763458033 -18.3985325422578 9.60679015166309
77.3007042699295 -17.9077415216032 0.505093658782476
200.628452254294 -5.33687492917903 -3.40901058048984
62.786558131228 12.624587362731 14.4304123553822
192.039246264665 36.0234323724642 -24.192516789952
-202.988172631028 14.4130318229699 10.3829379349091
131.493470830121 5.92353710833785 -5.63834330220515
-214.687613956349 -14.1347280910898 -23.8083576948273
44.9543429216216 -15.9525635819714 2.31023673150135
184.194785853684 -33.2065373501557 -29.8861109248765
-232.209530518356 3.39701300899151 -9.89462592619347
182.35666321726 -23.7529180707932 26.5499332811722
-97.9029404644839 -10.9239350803378 16.1894423740023
-50.6320037789761 -6.14087882742902 -6.65244869726071
208.782387306617 21.345357099153 9.93379648798512
-86.1161670075974 -18.8602572765879 8.45294797762583
139.038706291508 -23.3779743233046 0.0417362045000684
94.0660663962223 15.6276391460965 7.72927065267871
129.09306368071 -6.38401781507192 -7.13003123568079
55.1864666497241 -13.1660661959084 20.0348337166183
-237.935837780714 27.2905183565538 21.9216513230314
-49.3589574496034 -1.43809275618477 21.0684764029095
-167.373845646082 10.1388835223207 -16.6841791908152
168.851634539284 -9.14031706083471 -15.5529544619603
-223.280601407184 43.8449493172955 4.0311233026514
137.424402245007 13.1103084514071 19.0738332790987
-55.1518971885273 -9.20530324148932 -6.95793939574918
177.448487004969 13.8087663314323 -28.8945184210191
-81.6709575086494 -18.6661553996829 3.9822844400905
-215.352419469675 -27.0854989526668 -19.8555986201571
119.727394274933 -20.3706096630241 13.0970954926377
-191.48445286937 -37.1688163248798 -12.3935956179393
171.767644895755 16.7727961424475 -21.5218792619381
173.094335198972 8.38865364993067 -15.5611493416252
198.853529229393 12.6950860587755 -26.3703806450207
115.006182899035 -11.8862439409995 23.2720713656488
-164.486027041804 7.24251198037378 -3.01655784873713
-14.2743355299821 1.15338263543791 -0.494246096622667
211.28936991934 29.1526627338265 -15.5778471353467
73.1793723913716 -9.95206817843856 22.9359804972147
-237.958074045495 1.98150053570896 -2.42526138133514
8.81081441457911 -12.3413743686954 0.0613195319742173
148.432527030381 -22.5094213598417 14.0604238102909
121.453118103029 -6.92299168499898 -6.8970984556018
-179.111789469028 4.65591785734491 9.59917083905178
54.2054432541982 10.2357499332308 17.7695601053999
202.59392403615 33.8168847108119 -9.61144502247293
200.599270586081 -18.9387578733057 -21.8730087144999
-105.891913937997 -4.15910099116376 -8.89368246303248
165.025230717131 -28.6175361505203 -0.128994910067916
183.084138841782 -9.75333835654302 -22.5771981925455
197.478227664974 19.968208821203 20.3135669246689
-106.477574173697 -16.4754419148558 -7.82274990253431
-15.7728682987348 -10.7718059219229 -1.36539688631096
104.139312805995 12.370287638588 1.22115087803063
-77.0061751824767 -5.74877471296998 19.619315216989
-167.016455723792 9.89149665311499 -18.5743603461844
-29.4058800222471 -16.1901599082467 8.20199991240654
191.100527626538 16.3030253534905 27.1342957540903
-251.640044432235 11.5834305527185 4.3318380814305
39.2712983961795 -15.305279921214 1.80532119914195
-153.775495874393 3.45676603427942 7.59980458593249
-212.625952478009 31.5842304878389 -5.50646031881965
-188.819872539784 -12.2842107917755 10.0640712987236
68.2510624483349 -3.33066454742978 -4.64877720480382
90.8482414437133 -9.75519410151455 -6.51449153151323
-169.121495916922 -13.5316093160209 -21.2751585423565
-107.057489019787 -6.42977956822584 -9.45740787565489
-201.079448872564 -9.4984342048593 -16.7721646623845
-114.630701427873 -8.34450121629342 15.1526210719231
127.463498052398 -6.92323801634131 25.2829392604409
137.02060311806 2.46819059084859 -6.44082706973693
-173.412309317613 -17.3793182848451 8.94214762329366
-209.192776538986 -29.5392680304282 6.72108211583578
-212.391735895966 -20.5360585309384 -25.7683025457238
205.524983621392 27.3157603237548 -29.731843943581
163.7671331729 -8.6522802262825 26.5462389876748
194.017532664882 1.15424665962188 -6.26990698087614
78.9484282095166 8.28593490309584 1.15032341709032
-224.831966475636 -2.47840704067609 5.98148266881467
169.386274207438 -33.0833549266785 -5.41266898638337
192.379397130671 -4.31565782698305 -9.00876704698425
-243.349670188153 3.4733086371837 8.87755744548511
35.1970828485523 2.20533460443437 -0.459901193222746
-35.0645374525427 6.86911032108231 17.1763555630323
-161.063620408169 -17.5660274681203 -17.462203413171
45.0430849707989 -17.0556409072749 10.6238384316632
-19.7645172776802 -4.62992809068338 22.7135538293058
-180.258479571922 -7.00180036826947 8.80281995149637
52.95092123731 -16.7526235563915 2.98810835124874
-212.230844493405 29.8045416436219 0.874635394777157
-58.4981464174896 -1.38321091433681 -5.16547109955154
-28.9036935633461 -16.374180778079 13.4041986726956
60.6610793059476 7.17155824879345 20.4014664367134
210.720082349357 30.9303012354147 -9.13169546952185
-222.989590016264 5.55653489573562 17.003635825991
54.0184391103368 -7.01409611180466 23.9502063310578
59.2201742689438 11.5857564121154 16.2376623909485
196.435510230897 12.3132634853088 -14.8092437398972
174.154019292911 -2.61454627311731 23.5504294249054
-214.28301649914 23.4303762293701 -12.8607977552981
-14.1918661547406 -1.31571836854015 22.3916591605316
-215.341004666641 -20.0598602658922 -23.0021379574788
121.43051195339 6.63591058158378 -4.47604497385852
111.846816091256 3.00925527136236 -4.66262774763281
-211.60083160527 18.4754442835008 10.4558142551935
-185.919016738898 3.77024329327806 10.4849738621532
-238.854697720265 12.0831134440291 20.11080727672
-128.656889987419 -21.6055103325901 -6.98006111211416
203.597202336864 8.10389158589037 -10.1060850224162
-224.106597741942 44.2113755194866 1.2379220956549
171.793512910153 2.92560526680457 21.5244998633479
174.725567457976 -24.583365845216 -29.9570645652685
145.638205480032 -24.1844529264264 -3.02438596867676
25.4035631741153 -12.8446970380001 20.071016477467
131.782282629365 -19.8068494474105 16.6540029736256
-228.705406130071 0.14610025756797 -1.62872765885371
-213.764828887863 8.40976083184545 -14.2526977721115
-216.478508100593 -13.1846633977103 -4.23879212962073
7.97193512389906 -14.293978500248 2.94458910070564
155.228340074987 26.8700733351404 5.23974429949156
93.8546782418788 -7.43421426781372 -6.21049766821253
-235.192685626054 43.4224991209266 7.68264894110582
-226.10898250258 42.9370134218812 -7.44157765536018
-237.768575963071 40.8120049085611 -11.074990815765
-92.7430985684278 6.45658746094348 7.48141420280949
154.532466251211 23.2735960958425 -7.69704395355348
-253.413405867235 20.8546427948055 -5.94081428313865
-198.269065009225 -23.4053124988246 10.8030650892989
-254.601511395474 21.5862793151627 -1.2698405325188
159.193866388712 7.15497976279197 -10.6217213834742
40.7675169703563 -16.8288934747358 6.51494954133726
-249.328783869908 10.3640125369725 9.5242788349176
-14.4144184684748 6.01130657866049 6.04651033069055
18.3051102885225 1.50792934005875 -0.425426445883033
202.976584046411 32.4334440552893 -5.91716875596028
-137.106809060981 -3.96465362437786 12.4839337684867
168.735615958327 11.8112039313855 -14.237037414056
-224.570459242085 16.2914607258423 21.7327910465522
-107.001915120761 -20.0550224919758 7.07071851251369
135.599032519755 -8.78385023458527 25.2756633643964
96.0090412960799 -14.6949892695847 19.8660121964399
-246.149995116239 4.75396572139431 -4.38436014981279
48.724220422363 -15.8883535646929 15.5192436868204
10.35699489214 2.35275697435342 21.7549245356466
115.291749137327 -8.17378734209545 -6.73007877691246
-208.035008209166 -37.9168781467739 1.72952532523844
-244.010952048697 37.5921435079795 -9.484981069811
96.5671019926869 -0.213457629167717 -4.49756735600017
-174.349312421619 7.49024828697436 -18.0865586800263
168.075759056962 -19.9301904575991 -21.0921688292886
32.9608728649524 9.38986927603407 8.40897341614375
103.383148931893 10.4446400439279 -0.147369922349607
163.66009381839 26.6216882274414 -12.2704916240631
193.171532457604 32.7218160990992 2.8322885252735
-234.851870339718 42.0855695939439 -9.78543091346285
4.15035888737786 -1.00122824813867 -3.8823179166714
-203.666588623503 18.5447202259681 -7.71161682761378
-118.390034067408 3.60303449591501 10.5763347693277
-168.801233306973 -22.4690519314367 6.70963829827542
-160.308293012669 5.59066615694484 5.71933216492905
-157.397721507732 6.35606492482438 -15.3780949363582
-3.20395198866136 2.06852303007505 0.876632611955695
16.2826063862184 -2.40624905433178 -4.43071201072104
-167.634411843767 1.28680509441764 -23.2542819755968
-22.8379288690907 -16.4778892426107 11.6309052934048
-191.322444891315 -9.40459410860189 -24.876754613898
180.406806983209 -36.0470065692734 -5.86543634743384
-206.409452942444 21.4750235970057 3.68448527344579
206.521660965427 29.7243286960741 -1.22451524697299
147.076492815467 10.5873295083784 20.6455155700043
81.6482735099048 -16.0881156470006 16.9433033275794
-219.641711621279 40.3297635849363 8.91912391703869
30.3736947112151 -0.561427359886087 -3.22709357224301
-18.8730812708013 7.75131800280309 9.12803879807457
172.470848264646 -34.504659164088 -5.59664524327957
-221.021810362023 -9.7414690298491 3.86996035827688
25.2686562394304 -10.1412935716519 -2.69341810981868
175.897993996947 -31.2910271645478 -24.4486197997993
83.4394145792482 -17.6875950531482 -1.22965851072392
180.118048997035 10.7682013799783 22.5298461765749
-229.582760245899 3.9282594124662 14.0509632233054
-221.953995653686 28.3804149295525 19.6409259310031
114.881922415019 -19.8498641549138 -2.50625721175868
-21.2609428854902 8.05737829984648 10.0896475927703
-237.600061813093 42.8015557111878 6.25126350322455
-93.0082926318543 -16.4020252146956 -5.48273142528972
-212.249141221931 -14.6303830539579 13.523915451211
-227.923864262793 1.13331648170239 -6.02846540975506
-200.888672581026 -4.66907363264098 -14.846795458915
-108.793011582612 -13.0556476837699 -11.2772902326906
130.810107373701 -13.4087331515632 -8.20288540121864
-192.04755495484 -10.8282916717684 -25.8776602211495
-128.3827297478 -4.80520495331806 -11.6743360773373
-92.484584362702 -3.28128706948403 -7.49945604396992
-182.776931517843 -9.16279395826866 9.21919704921963
137.005798838158 20.3063750133039 2.63782622828861
-31.9854292081587 -5.56622526015127 -6.60956513458398
-62.8582869338157 -3.1980735063954 -6.60550098715061
-194.309654432182 -8.59999088740918 12.7355334074454
10.4746107982246 -16.2252506970853 9.09858247066089
-193.36788276078 -8.43362624465053 -23.036953254153
179.019020051075 35.6528035536068 -31.8732035020904
46.9853794878762 -17.2066678369037 7.55503145834846
208.979343928232 12.4441224478202 -5.55958727073597
-126.972898694395 3.66209545875605 9.19075993066076
64.1635769651598 -0.220098919684314 -3.57468827727184
-173.161340924484 -0.220223180443028 9.08089713963564
57.7518280780441 -11.5125681246308 -3.76370158099516
158.277701593663 -9.55108080769863 -11.2427583156292
90.7650673120374 3.21843626312438 23.3439235875684
-77.3385734603081 -14.6025164698055 15.3585632831116
72.0512042274272 -17.7972151668775 11.9080495345042
-173.070823320444 8.44833487422014 -18.4123676925856
207.826209569213 30.5920425488874 -5.02581646712039
-176.06050224938 -17.803867203559 9.0039331822358
57.4779244659276 1.4194387919781 -2.74358081094817
-138.286662424829 -4.18968164176685 -13.4686995437161
-43.9247554092457 7.99023664556852 11.5883874301241
-157.068891249313 -26.4967454934152 -4.9564781026401
-142.718744966756 -18.3575329298138 -14.0566478899415
-222.777557190888 -19.8676311182793 -14.8793659130826
-25.4602554276039 -6.42060580676951 22.4421163742073
-93.1992725638986 -5.04634522443842 -8.54958807655933
152.423605951526 -19.4392050878801 20.2965711445629
-175.530071147214 -24.4571141236509 -19.0888623731476
109.925480517623 1.84871883137092 23.7841186830784
176.705843971938 25.3787060351947 17.6332858579195
197.346816006396 33.8740762953663 -2.35929305034145
-224.489681361405 -3.59229068841012 3.28736463889972
-54.3632439857169 -16.8541100687804 7.02295971942168
169.833058623591 36.8409154573863 -5.80971142608204
-198.394229880194 -12.4165341778371 12.6024560529148
