236.523417650824 28.939608064847 7.6011324699458
27.3870053748082 1.6816134608594 -25.9580556314298
230.47490660155 43.3764978816216 14.1255422672304
192.614496357094 25.2049584546671 -21.6386806057486
236.299474584164 31.643258719452 9.23947173028965
-229.455167594095 29.7637641019184 -6.30911942514614
-71.8011696571392 16.3362832586576 5.29261523960308
137.284819484382 6.6597451159855 6.53990195375882
220.713826851291 -19.9488857928893 -23.792940536192
-92.42805206882 12.2469278041449 -21.2194434321863
-201.916219229674 29.6112892554018 -4.87232805070142
235.247032341494 22.3458390808368 -4.20433598997094
-43.0165407559847 -7.44444929243729 -10.7662848567235
35.7483746847946 20.0733433537133 -19.7214859610758
5.83228606351883 10.0326600679249 -26.955528343038
-242.205726482128 -6.7316594415529 2.87014343815829
242.757378366909 -33.1758234448034 25.9168193834802
210.03862181157 -8.69647179891424 38.6021122769095
-160.003531246576 28.6316319358166 -3.91933549716225
152.775921235131 8.19636320650364 -23.5586235661596
-221.960171262581 -38.6261894309595 -0.798470335193882
-32.4605643632592 1.68202015682804 3.68125300298559
198.302296809986 -19.7390213249815 -18.6661096049534
-83.5048331360318 25.2936801155248 -14.2673303466859
-228.365705431967 -3.71715754368202 -15.7473191886838
-266.801334140141 -40.7338153945805 3.90687285457534
-110.04669925936 1.76759501280589 -15.4599408849478
162.236291977056 9.22822454000826 -23.7552061043773
112.458857260751 20.603790328427 -4.56985226717162
238.564241152734 -36.5919165278346 14.8888641721485
-88.9522990736274 26.29298776797 -12.121816362924
-268.150914006875 -39.6594890977157 -11.9582832173168
204.121223421007 -34.1965479236452 -11.5289953380322
205.37095978989 44.6527192724386 10.5973961333126
-148.969023412072 18.2996441230962 18.0095345768469
-125.333444793226 28.0688546154574 1.31043420005254
48.1067257244519 -1.55759047045972 2.31277377163252
-31.2651762916844 6.81067325538656 5.61652794386546
153.030162147607 -8.99400670905508 -19.3567589535074
-39.7419741745735 -5.11526303823473 -4.34493187817825
-234.803093623167 -56.8196480394942 -1.37247221217562
-82.8340189942701 -2.17462881897344 0.802653510290586
-226.255157431788 34.3827832316181 26.3400767421445
-153.648569642605 -3.97857237682828 -4.68701190231516
74.0909024843742 17.7671163959961 -1.28331462762321
215.91019278867 3.41307654004832 12.3560630939433
99.0947898591996 -5.0135596370287 -22.562558464568
-214.269625542693 -10.8912911309175 15.0122488721695
194.926022741662 2.01066955639055 15.7761003885438
-234.625038998028 3.94027641860462 9.11869867256402
-65.5206953262612 11.7999712307717 8.10223287075825
-225.998235282185 0.394366666434998 -14.8436383656552
226.676837652504 27.1509011162349 -24.2066502441297
-101.158441263739 2.17194172350673 -17.273285250604
199.483327246094 -42.4932850969504 23.5532975723977
-249.015051303708 14.383827312789 25.8542024629908
100.78337676631 10.2444211317354 4.67645838348412
187.058458019865 -20.9284552426794 21.3957982007175
-235.527180360567 35.2006244952992 18.9726061217619
113.170691905099 -3.93899342149674 3.80037232141066
191.347791067425 -22.4271162752188 -16.2434373172064
-32.3162658529502 9.64885674873907 4.62646287459315
179.67864016395 -30.8391199187918 3.89380765053362
-167.831589182245 17.1571246979375 -9.24824341619559
-240.389912009395 6.01340781848866 -2.11315396561768
-205.541997251698 -18.5198023553773 1.51329118379107
196.497685485556 -42.9433520109896 12.5799368376388
192.55281152217 -7.08460185987072 18.1493759682508
-45.5495838393293 19.041003705399 -23.0060989919767
210.795408899751 -24.3886068429489 46.6836654212146
202.383719007329 -35.1982379403022 33.3255097957024
223.469259460979 -44.6654512656467 13.4354512647748
-149.546589378128 28.856363095712 -2.54441436951955
236.278911254502 -7.96386004197565 4.461997428361
126.890500342305 -5.85730331491216 4.83517849371466
-243.840784458443 12.9565092494551 31.9545707968819
-181.909397460645 1.81451379091888 28.8776131785101
-183.43720250238 21.0741198592905 25.158293161797
-224.465689628215 41.4744515407015 16.6598908894475
197.197424051544 -44.2188287074804 15.3733847305178
-119.604297174301 15.5603856515739 14.8386947563316
-254.186064573582 -45.7095141946907 14.8158972152614
178.000276847903 -26.1836530715263 13.8223211751885
205.724691438659 -10.5284193755476 38.473058497256
243.954540626891 -28.0685096444218 23.9391530302577
169.702904129845 3.00522638155692 -23.5983595371432
-197.246153700312 29.9237776876706 24.7363309550194
199.542468479868 2.79743022976458 -28.2065308975543
33.2982566961654 14.4111961111599 -0.159931826212693
108.574505357737 -5.42760030210582 2.80313841316252
230.253552686327 14.0061959565475 -18.0983486824878
151.751653249314 -21.78206549838 -8.47072230776547
127.366351273343 20.4841284645226 -1.44035884913091
-208.556930592634 -1.02814370838165 23.709102899926
213.452378843312 -3.325138309969 -22.114985687763
-208.0803444556 -2.563786642163 -13.0447553200056
158.898551274135 -3.62047969980079 7.94142915056568
-63.4752307906914 15.608202974929 -23.7769864496427
234.567188862066 35.6192174969486 18.0750424104007
-130.087397728761 8.64043763081387 13.0536704524543
124.234263359257 18.2314657328208 2.24948240865202
98.685933802777 17.8037737162887 0.620198001946331
-122.791132755712 4.0845882666741 9.80666317344327
-218.674252403407 22.7332346485208 35.3953654461526
-130.322426677126 0.305414927679129 -11.8309582985259
-234.520875547679 10.5181127928105 10.4742871095369
224.280726095605 41.2853193149137 16.9397926393045
-117.372407193147 16.0594189587313 14.4780338534236
163.139133985874 -1.75041551565577 8.23124392283337
-263.244958035427 -48.820703154894 -0.629434767090916
-196.392490410937 33.5812762993296 17.6040293545331
-72.7902612382218 -0.330211567608705 -19.2568431450512
165.370002588341 -18.6770478532161 9.26577791135773
-167.651418679225 4.18916325650732 -10.6411867450405
-190.26154169109 -12.0678646738932 0.533978222184878
72.5338016472679 10.1693938359721 3.10422965392201
235.328913918256 -8.71804872830412 14.9952118175408
-223.738813468842 -48.2056273575189 2.07128419706871
137.971228656893 17.0363568006485 4.49629534720067
-179.537633011124 -5.77381408727757 -8.53510133911763
-41.2437306319132 21.3366608932299 -3.56774834296102
215.916571878508 -6.62573129596444 -20.5551064380483
-146.664150889811 7.43145973545976 15.4124700101168
-115.4649612719 15.6748830348336 14.2452461943159
-219.398616061852 -24.8390856585167 -11.288128452157
223.212504810677 11.2587748682874 -27.9740309797066
38.177836437253 -10.4441104725012 -17.1072924717452
-191.711716354285 -16.7227611438653 21.603249462317
-240.313197026507 -3.4898008064338 4.10973001860121
-200.87338753886 -17.444237435833 9.52950018708729
235.767026459716 32.3271364038238 1.74961156246939
232.497982324007 -37.910763064492 12.4209380586841
149.451871096141 21.4356173724656 -0.110817872716553
220.20079104242 -33.6003912115384 45.8883490456841
-235.78478750126 -28.5313520547701 20.4664352799435
-221.376426150629 -37.5462079183882 -3.30363986578062
-227.560697085767 -8.45929275361412 -16.4772177427427
-253.593966168436 -9.87440513645703 -16.2970564048423
196.151974613822 -16.6168315817514 24.3057291595303
-121.244423950458 -3.75205677307042 0.926158962883245
31.8431371721369 0.173071686789627 3.80747065038758
-53.8479675943958 3.9464042512865 -24.1672798254914
-28.9630347331113 14.7346256146081 1.20900229073783
-172.368092625352 21.1699741304854 22.8374511180305
-14.3064105666055 16.4529717661227 -0.986784780032911
-115.322826999838 1.4786712694143 -14.4795937067078
159.975562250267 22.3268406183966 -6.35952292761354
-233.540678277175 12.9576954286975 34.5014815196739
118.585797299404 20.4365672117024 -9.55562975164936
-239.553297387316 16.4779632098488 -10.6780854021203
-207.602898887584 41.0391432595665 1.90904323315959
-142.143657985235 0.82912174449914 10.2837877211466
111.175694429978 4.92635381857805 5.27012340255505
217.684092432983 24.815635176127 35.1930729152741
-259.199597379129 -38.0946330226155 15.2787396117862
159.737499728271 8.86291153247385 -23.7347711244413
-163.204982070811 27.6762477902591 -5.35163419890275
-149.097107301814 -4.29998769661838 -0.308615043513969
30.5065940276295 -5.92719132531905 -3.65355881182374
233.018680394818 -40.3143954503368 22.8557004842539
-145.026942987895 -0.208066488573502 9.78193621481189
-189.07899071692 32.4065868098027 -0.915387462567744
221.488102150189 -9.57214824433748 26.3612291766403
55.0190320526391 -0.954406140776127 2.8502180743561
228.84765147622 7.59822865106325 -10.8408993060946
-255.011865767103 -13.8336833642882 -21.0508401947006
-236.596850546202 35.7561494888697 12.6863116264865
-117.301782423022 1.44162517949493 6.76975649459938
226.073269353583 32.5785873504817 -10.8286895018042
-216.213265782921 -0.707744083506084 -13.4177385075026
-236.961688799066 32.8440681505439 -3.00537560135237
-201.015795600711 35.8522652509906 -1.33916505681338
232.765121729384 40.8265249113666 9.9831403633638
-232.219440631282 -15.7287935989506 -22.9742748070397
-204.701373135783 16.7246911963579 34.8248791982051
46.6493641044192 -11.4375097297034 -15.838383884088
-27.6697414090424 -7.62487974287408 -13.8810388656662
-190.392229765701 -0.199882706757712 -10.929069393652
-223.164665277123 5.74804423864698 18.1382199934771
-263.617263840406 -42.7277885163397 -18.9991574753324
-177.799963893125 26.1584462825536 19.5141524500731
201.495754026547 29.3980599480579 -19.9475297546285
184.921906655094 29.5656397282686 -0.666990746800759
-265.663566583249 -18.0670832428486 -10.7233650018331
194.670514772107 17.950393522773 -31.4551642730921
226.437255243952 -13.073069166259 42.3963012062333
-222.286811916311 4.53741832399577 26.7214144854009
164.465804802835 -16.8193050916602 9.28169879278874
-224.582349836365 27.9260085230781 -7.78967448978129
198.285944466065 -6.73253158764529 19.3700858056454
-24.9175551372318 -3.02602547856709 -22.3780958722356
-200.189336406061 24.3182620100075 30.1188578286688
-249.408883328713 -13.1299755143502 -22.5320057200194
-150.220169425838 -3.33906299550428 -6.33601766501118
-230.736159932738 13.3322327780337 34.9126691155108
-165.743930448171 0.726114464013243 19.0849222244258
100.347671585662 11.8319389986772 -23.0071011772107
-100.268225540458 18.3469070147498 -18.935544331547
239.515445723723 -32.8355250372412 -2.262938202863
-198.138282427583 -1.1297342319696 -13.0590048928352
-111.832968569786 27.7912912949599 -4.69474077690634
-43.318376670987 1.127427469786 -23.5780654036574
114.097407001504 -17.8982547552268 -8.97685964835882
-120.444307990466 28.0403707403697 -1.59953777588797
-220.73301314143 40.3939490058146 2.02636977517621
17.781276808745 -2.13090940418201 0.601979520719282
-259.882097307269 -48.0653610725367 7.70196129763512
-237.193555171751 -51.3284361598915 11.8799137116711
-15.7564037489219 -7.29098654564589 -7.75853535105345
209.063236305411 -12.1615929255933 41.8478852122306
197.29998951123 8.48061474218455 -31.8361943743735
-100.388680798679 0.389384631634778 -15.9743159722932
-19.0489821114095 6.32858815277862 5.36372375683179
-222.306260451318 28.3128207191849 32.698851053523
-257.507104016212 -42.9702053184688 14.3538488366575
-160.013078480807 29.7428947627379 -1.14289903978271
-162.227460544593 12.3913543683234 -11.0739331040232
117.525451352696 -12.5109219351545 -17.7079282116126
218.797582033093 28.4091849783463 -23.2298114997292
-231.006815916391 -53.4137637232969 4.34588858206524
-243.510574435501 27.3594947393218 -3.30990009993869
227.741124233197 2.84556799489241 1.79513113526946
205.548538982907 -8.43446186958203 -23.8161575234521
-161.280389308411 30.3265853172121 6.35656749416931
103.707897023862 -11.0373476578305 -0.214509548682707
176.49398006022 26.7993527056021 4.59023303641537
-105.839692260456 13.9176810270064 13.0582585197284
226.467683216931 -13.7421405420326 -17.6285453470812
183.465611426216 25.6426418214834 13.0825969803696
174.376980606524 10.1843698128642 -24.9896416477869
214.02859548055 41.4270180008001 15.9754697582679
-214.489223462186 8.96044348887374 -13.2999428004212
-103.348652011062 5.14664011253249 -18.4780848442017
-148.377199504161 27.7692286134084 -5.18772127484955
-182.358919845503 -10.5047344775235 13.3347094420577
103.819166441449 5.40111493987278 5.13558789643362
195.260621734402 22.128737395263 -27.4425171144577
-39.4904821858991 7.0699252147059 5.90257963786657
125.410602832836 2.62655736170446 5.59134659087029
174.635343438211 -6.13343785985617 11.2304367618717
-121.403725581725 28.0570385076097 -4.18642497169095
243.930734351426 -21.7459511954833 13.5658425418798
-241.376905079896 33.5450225765465 6.13752944164236
-246.078658929337 -28.3032213747255 21.3521115509843
-225.427716344526 40.9162039688396 18.3458461938497
-103.138327224181 18.525856127588 -18.4487013500118
52.5486827301795 15.1775042944659 -0.0197313905002816
-251.444873975579 -34.5881838225423 20.2709706477215
34.016411487781 -8.43273160202181 -20.1490669678686
198.828087562754 17.6689972431675 28.027410688315
69.0162788730219 -12.7775741729766 -15.6483718519882
-151.708346338652 -0.894362452651712 10.5152033910303
-141.71013185968 4.85907487301093 -13.0841391516435
100.883257981692 12.6768576436348 4.15436452414731
197.183543189482 6.31266961557498 -30.6177268378897
-93.4383316949402 22.1310366506839 3.70914490517287
-241.716700598348 13.4442778672684 3.04959880594381
181.326765226684 -26.076281572282 -9.51383614282356
234.648809991434 -28.9337145298913 40.5140885310692
-155.630139686673 -0.595533243602756 -9.25220725082966
-237.592719539969 -26.9800853947186 -31.4421795828917
-197.173282457729 -13.3280709317473 -5.14634494478132
136.727616987357 20.9016190750237 -1.65583954631111
-55.8127552826586 13.4957300496719 5.03958460051998
79.558262758201 18.8350444652449 -16.7733604073161
202.704398682074 -10.6880289313381 32.7859313551078
234.22460172394 -9.12644239882574 27.3321672888837
-65.6567795270604 25.3074510185952 -7.01120256103923
186.988428104908 -5.4313372086529 -19.9873046921998
-225.017881009293 -43.4085116000513 -20.3282972428647
-184.219691824408 32.9693403859191 4.59390572586809
-104.244449221375 22.98947672159 5.51907283132004
-71.7843498142789 5.22563580404141 -22.761605729944
231.658765737006 -39.4181139825819 15.8445852532422
211.787749589219 -39.944679841768 34.443487728037
23.4243910321856 21.4338254832227 -17.3817278833349
-226.313587574179 14.8204112721418 20.3886786785622
-113.948023493116 -3.06863313721807 -10.3646466384381
43.8133748486039 19.5444775846959 -19.7336080549678
15.8986210325827 -8.17216637134277 -7.41464331686219
227.201737405989 9.3539904069217 8.07626982955606
234.147621063449 37.0889065434497 2.56967100103959
206.742896482878 -45.6114302766128 4.52834037131602
180.709964713752 -29.2678116789991 -4.31282961782792
227.501007979889 3.58339801457032 -7.87519710423838
-253.074746222285 -32.1119771196559 19.7123783810807
-130.078151373656 1.77577663414825 8.7218348449236
202.907388502456 -8.32846540753594 22.4929649809378
-226.252446175422 15.7071507487391 18.8730266227634
212.891204077494 1.55513258496166 15.7697129457886
136.165402868912 -0.952452295039606 6.04592337859108
121.689242182686 -14.8310033649083 0.0834336560766579
181.581985674853 -1.39286174663336 -21.6481823379231
-199.8450919552 13.0873391603336 -8.61485374099626
-132.557727721756 28.5119556737179 1.37502441762434
-215.934655360856 20.4994253584786 36.4985156012027
-239.663156787347 -13.4366462697639 -24.739453860819
-263.551022066794 -42.301014601132 8.44582372880485
228.843253126615 41.616197116005 9.02230656228902
-222.443725041662 5.17917831679561 21.0692992515328
5.82176366887224 -0.46234190719561 -25.256137892504
214.072427187774 12.4451753126141 24.6999636406289
180.980025908115 14.913312260887 12.3693868079364
-65.6502633413472 -5.07481521157043 -4.1757914717179
-234.503476481506 38.3796159768818 7.55360981742469
-202.527820427532 35.4359886473886 21.5305758774037
204.760761465912 -17.1215549675808 41.672582799964
-141.964094856916 0.974667491220463 -10.9635835953391
-107.794576205153 0.353474171862049 -14.7167942114856
-194.738405065411 3.63056138631173 31.4299347867976
191.606769781744 -9.68778687399672 19.2443600014124
-237.943665230725 -34.6633527722499 21.1441904819215
-130.722229200614 19.3887845221844 -13.8554735777143
-76.1306117674432 -3.69988688787704 -14.7656575917164
125.548896268503 10.7039860137674 -22.7359226817604
158.720241486305 5.73067695008982 -23.7884352676166
-243.088477736463 -3.46430118864063 -2.28437502661572
-7.4127187673553 4.30149616648334 4.92896185850597
21.9554829867931 21.9933354539681 -13.4804528997809
-233.499052813233 38.8279720420819 9.65659985378277
149.00562893742 -22.0363646904717 -7.05669368343651
232.230087902432 17.4727527583919 14.7933094620759
-128.91642299994 28.2094247184171 -3.76825798170046
-144.391893815441 -1.7009475477964 -9.05889124186512
190.292161362927 -6.97477702652259 -19.3321819813665
-151.96526670748 9.29057956051779 -12.8001604480715
-0.316522286571256 -1.21838898882014 1.34973351636028
223.949634086898 17.7825089692095 -30.3847543894727
-161.487922084721 24.1109661537163 17.0242749336221
179.065529692762 25.9012482138088 -5.75360131616732
-123.302327418815 1.41821876462632 7.48365059528094
226.525707358071 25.07298583921 -26.5389682959694
-140.449516664816 11.2070400377798 15.415042268352
77.7159159484384 -11.1292699552827 -3.93896097042153
224.624368823772 4.84109656929894 5.47409539667669
-146.046715351307 26.9076836089437 11.1772102568889
10.0667499938944 15.9644806169014 -25.0828675976253
124.606818958489 -7.28454358573523 -20.8683779443781
196.375951265326 -33.1662757827189 -9.24689756472423
-234.068556652799 -0.598705046018795 11.4524844928461
-196.615544413783 0.477481400971768 -12.1456853303767
200.521115864182 13.4127994586949 25.2420125241114
-186.63231914005 -12.28825390656 28.9995240651673
169.609066223082 24.6612749970227 -0.923540604508779
-188.901449636501 21.5144416100869 -6.67480221979494
180.69389436839 23.1062824510934 -15.8334930617172
-223.607737237317 -30.2487257540348 7.52422887692196
-227.173792530357 -17.918077171815 13.5863929343734
-238.565195854857 -40.1158913081566 20.3889146832048
-190.027863068846 -12.0553716519623 -5.92529679157775
220.38432205802 -8.02046626975877 19.9334834466145
169.184821064966 -15.0261247193639 -16.47889209199
242.478390980123 -17.1148425891808 8.45488109095086
38.6524371968685 4.66441252980897 5.2236985659822
-45.4828547698556 -5.98142563950276 -15.5257371476265
241.346819730349 -35.409443042899 24.6642041120645
-75.1111295099284 5.22211751079514 -22.4048872126454
-256.718611376257 -38.6298613602127 16.8298990618483
-31.6493783774966 23.5313849023734 -9.03735340959556
173.013892662567 18.6059148000048 -19.2261013912541
-231.530129000809 -34.7660357734959 18.9782883059071
222.234911731295 -4.44721527000505 13.7902432694144
171.317913681346 24.1406435455196 -5.42567493237003
208.382922727624 -10.2807100470215 -23.9570852688894
-249.008379992662 13.3707150234165 16.6608703139068
-15.8371267467312 6.35000896461435 -26.7277974800811
80.0271751740238 12.8811080681576 -23.5524116654854
45.3914426843936 15.6109293156837 -0.62182978425887
-119.006725104837 26.5205402817672 3.51530328221921
234.024255275727 -37.0992453232087 16.8052327505655
-185.053915699981 7.6420286042419 -9.15041877475388
123.924483810418 -14.152195790034 1.02347784577587
-113.690099727799 5.68404592552201 10.2836808352148
-247.608082484571 -7.68377229947782 -12.5209466006521
228.270860822827 4.0170729215917 -5.28120196493302
-222.492802826886 42.0860968673082 14.7890039260483
-91.7713353926955 8.72143392067065 9.1579652141816
201.933632925399 -12.5369266094719 -19.3719868731573
53.9806915144296 -4.84947738472778 -1.38024599832845
-204.396433074365 34.3759838492178 -3.5434520013717
195.123936815007 15.7780301978405 21.7333354348498
206.454621685492 32.2492254801081 -16.4139429140418
-248.339388044417 21.2731614651716 3.15631632907933
218.684924432177 -17.9180105190627 46.4812721017665
220.616766338489 29.5432514373936 -20.0377544954966
192.623727669417 23.7966164640443 -23.5365882471826
-215.695956348094 -25.7842317531508 1.25280832499128
212.478992906085 23.3395580893674 -32.9833122880521
199.697103817449 -31.0619623383173 36.0696721991148
174.854456338912 24.4213905778751 -7.27182483665365
187.510081793951 3.85791123033381 -26.1200712840777
5.39210882275897 4.24183055334152 -26.6577410648641
-267.622747556404 -41.0785043068256 0.970810722146092
196.046793726374 12.4770590396891 -32.9642279883114
-117.732992308752 25.5590645058485 5.25018400558296
220.495990844412 -35.8058402861617 -5.32438643593154
163.992747891251 -20.1757079535261 8.31225410933055
211.611480865122 44.2759366148975 10.3847164320246
61.4102179132325 -7.07718245249373 -2.73529028119525
214.884509649444 43.6002470509212 4.51751606123363
151.669654218375 15.2532534226627 7.20707354998315
144.627650585859 21.1002134901939 -7.53810081197362
-212.685692682118 8.33285635017343 -12.7878117480441
-225.7097517954 0.318296219903692 15.5581172810365
-144.181201688755 -1.79958666177638 8.23351638806269
-264.811089217242 -24.9989984433591 8.97412176070851
-1.14385213754048 -8.9113464709944 -13.7462513272777
95.931419575923 16.138852847835 2.04160217936162
186.122271200926 1.4771827476997 -21.924373183084
145.098995194937 10.6807601391651 -22.8337611520875
222.47255369287 32.0978363515516 -13.580504308272
9.98008158672015 22.3959011082682 -11.7137153229202
-40.6276204061675 23.235272767537 -18.2518260071823
176.18422395161 -14.4745675954439 15.8737418155766
164.282581118421 -14.3849189061631 9.63136076451609
-240.428384875462 -6.53430776445088 7.00375450443696
106.120748171282 6.12859982086846 -24.4257838669259
-119.62081366943 3.12470373867382 8.37501204460782
-176.692443044631 20.0409660446936 23.7651945510527
-225.118447834694 36.5980522240861 1.66658468227633
167.942206638876 15.2746180112547 -21.4835534353429
231.701731514417 13.318067241144 -12.6589446945172
-4.67527523953412 23.2662085967208 -12.8698834054793
-238.424137307091 2.05209692289589 -11.6795604658723
-200.394808512195 7.85735156593183 33.06590693937
-13.9190908850644 19.3210302608776 -3.90282465351075
242.177098349018 -19.7785370351786 25.4947946574439
237.224772209782 -24.4769920145788 -9.08366066009506
-242.896232063508 8.2144309105538 18.153764060868
228.347058182237 -35.1251007483606 -2.14483324459058
70.5276094823459 17.8230454436072 -1.52433595535728
197.876485379004 -44.8484987806952 18.7572093818942
139.892703625846 -15.710859572915 3.32216822594082
191.174561350096 36.3055352006064 11.3383579606187
194.603808600183 -7.03078875551479 -19.0859210106224
6.65586964601092 18.9881277715097 -22.6772312360637
-266.001040841954 -24.1319218021799 -16.9879573488465
-186.57736963512 -2.69596579698012 -11.2020634757687
164.702273972338 1.46383077768449 8.3333403705027
-211.693729746671 6.26055230399573 -13.5640325125953
-165.189198619017 -3.76636858210745 13.615916716482
-225.273904460633 12.0817202084053 16.7151395250056
-202.679097145814 38.4052597828496 4.70045214246053
72.7406841031095 2.06266390803659 -25.4332416695396
221.660140052792 13.3653041748748 24.3431369760582
-69.5275526927222 20.183139840538 1.51793887342005
31.0368988806359 18.0053385493158 -3.39280229882196
-111.04358371221 9.24373887275486 11.2270175631028
-229.90193801553 -49.1353221860545 -20.9181253021277
139.379559852425 -19.1802935309849 -11.3781569656732
238.403892794414 -30.7149047700848 36.0613154740408
154.629003735125 0.635364748815986 7.46817859037014
-231.235036514008 6.08505928835578 11.3197689384803
66.901146085919 18.9771927345344 -3.62318894542212
-193.19311561614 -14.8079276775167 11.0175781787367
-244.486595682718 17.1142410107453 -4.44152470489445
196.354877842585 16.2860203130774 24.7603459831362
-237.259230416618 -48.9813726170889 -25.2092951590304
-226.830805816671 41.6554085453738 11.7074879221092
-129.242446401156 -3.94171485901326 0.710273177782225
195.929516106474 37.0245023794923 1.87053467193399
-231.370035557724 18.3717913485141 36.3383082013453
-215.743067148532 4.18202574141062 27.3033154867936
-241.377189623237 -2.87899594068019 1.47390074271989
-238.348344886752 -18.513705864667 16.3440648013273
-204.445755753857 5.54847132293641 32.7117321083942
-17.2123430208802 14.5385437290782 0.591647167865313
-36.4135834807658 15.6728806282372 -25.117382001407
207.541670151629 5.62848077000021 18.6725929719628
222.619186031921 33.519910467884 -10.4243506998875
192.109027130015 -8.73081014055577 -19.0058428376064
206.946939806435 26.6858137278866 -27.157975440428
110.596212004949 -0.422287420658944 -23.7239240965895
-198.183444112904 -13.1184587070556 -7.73272759720459
76.7218693371941 -5.60977938916098 -0.391444036008829
202.086293440302 12.5616337295647 -34.284301008257
90.5341514515038 8.10886399642522 -24.6976633706455
234.404965442284 17.1853766799916 2.0451271448916
-39.2894789974805 24.1610127739448 -9.33728833221422
120.57443361254 10.3354482494691 -22.9508874667729
202.863677167091 -19.7141564315204 41.0566568184937
-202.016725764215 17.2985744403894 33.4617223440139
-191.610933293389 0.698633484921772 -10.5309782145665
-214.344432784715 29.9706400870347 31.6242881956456
226.753548821346 24.2401663624428 30.0910197806522
214.466682966966 5.46248716407915 16.5340726582254
-85.6790553900651 -0.599375490467774 2.62062267266916
-119.563809451497 13.5270860324961 -17.1737419245116
-77.9682796753166 13.4054955150638 8.95314323375059
106.503444650729 19.9279386579564 -2.37305502467197
210.000146893248 -35.5993908171938 -9.96261351953253
-191.89182349042 4.82878087125478 31.1359873547376
-36.5730996208626 17.4704308470556 -0.246571009383454
-224.40061168302 -45.7245280118683 -18.1646109721411
103.697235976925 7.75768855835586 5.38940985021728
232.213807523012 23.9532850019871 -17.2300708043648
-248.040736674162 19.9967276913476 23.1482644093058
-258.029339849731 -10.1843088314682 -3.96881697587846
183.230148343601 3.16355903235407 -24.5050397401412
-236.521220025375 10.6586125827259 -11.7796713584942
-197.585361887469 2.99858796876496 -10.5436463918246
195.618645756493 -23.3506935192957 26.7668476189072
-39.2247198721167 -4.04007292746148 -19.5776394559364
201.581222814478 27.5451892068405 31.8999424012208
139.736163295487 6.11770783826991 -23.6432223990687
-39.0339710581529 13.707961876855 -25.6773888068712
-49.8692347571641 24.5038447824218 -8.58307087717377
-202.806602908667 32.625995980683 26.2091335476794
183.066423428742 -32.3170097517707 2.09355804768052
-225.568855463223 -5.39947738554553 15.1890349831997
-208.381304291055 13.7758837315277 36.1078991478452
-238.870900457061 -15.1603129337963 14.2806833210327
-259.244209825699 -30.7449955293599 -26.8075728355404
-191.687938811827 30.5495766441619 19.6169418958771
-240.675022051693 33.6826897513501 8.03782602219934
201.64774164403 25.0698861143903 -27.6730551110248
150.654684576385 12.6661834153201 7.43900847541346
216.581383981206 2.44801263261195 8.36043442942037
-218.285473956018 31.4637391827601 29.5011274160548
-94.764796628384 -4.47480199790679 -10.7766979038607
192.206440936084 10.5545828910092 15.5725105003007
-114.2771436922 8.30908466703681 11.0459041586118
-192.149072100653 -12.0542935022475 -4.58983930706651
241.945922861 -16.7337454310451 5.09784862288438
196.638962622725 -26.3685880453306 -16.0253929744303
181.033109043412 28.9618082422057 2.18100417463692
-230.743515226658 -53.4119468702805 -14.8706128355728
72.2851480075548 -7.61928427651036 -21.5167818579341
49.4149528885344 19.8963235532193 -18.4717830313702
142.294795485184 -10.6881013703196 -18.7893914681068
231.829570885536 -7.63317029835759 29.0706047056428
115.067774192317 -11.9805740692348 1.04021501665367
-17.1354675465833 -2.45029611440527 -1.06590462976292
-19.9789539848612 -2.9662082413656 -22.6898344732436
226.401918532474 32.1772680668548 31.1538378256662
230.742036552589 -37.8972139349481 7.61419683139853
-221.280685836439 9.20911166057159 -16.0923783147518
200.336573089295 -39.5253930536704 28.8320779328355
-118.049836199685 -3.82494001760132 0.625953948765407
-65.6215556309872 -4.11122334114988 -16.0835819544683
38.4717474467987 13.2001064237805 0.702569473444918
124.489949687087 -7.17611978201518 4.13455532531253
-227.702202712547 13.9120571325084 23.6057217822316
-234.409669337586 22.1968412939404 34.9388798947624
-239.797363577929 3.17657212041918 -9.856540636463
-186.782985592962 27.727212309945 21.1813692643745
-198.185774968033 35.6593589365891 13.9869198035273
-194.720512852183 17.2446721896473 30.8967875829576
-251.528094047896 -56.2945131159011 -0.753270806262325
-103.194878123018 -4.11698564637443 -10.0476166500313
-183.598882154865 -10.2924692365782 0.959576376413128
-132.152174975764 -1.08603855875932 5.97064624941295
212.207211105111 -23.4824772311061 -19.5363114793943
223.949772841215 -16.0497369049851 -20.8616927010555
-128.513581749535 16.8482317152756 -15.0899826453819
-152.400745075073 28.6138960316031 9.32753642271574
-240.146690479981 9.24392038752417 0.656809556169706
185.446791761484 -34.169147578724 10.5209323710562
-22.4326385902646 -7.71424632637272 -9.61294719396616
222.27552055721 27.1128557339205 -26.6594810997126
140.782300219583 9.79439186909895 -23.0414271936541
78.7548001174344 1.90793729069473 -25.2755873859985
-56.7445134160496 23.833858407338 -5.36673171296817
-74.8402882443363 26.2917737451556 -8.4131536339722
-76.3238115167734 23.7946447579835 -1.55353200157441
160.865202452916 16.8098653102449 7.77673397420916
233.289303445247 -9.5823183481992 -6.32135532182679
-207.309346006712 8.59281104006798 34.5703703030189
224.311449721283 -23.0086582959829 -21.0475906381949
-81.3461269533354 -5.8880281943123 -6.99229958836629
198.371046923767 -25.8069492894626 37.0944389886197
227.056653907573 -1.88953242910764 7.90443896578004
209.598721783032 -17.5862140771019 -21.1328790329847
21.7761356085603 8.39364680012545 3.88922295948728
85.4057715798301 5.21032281089758 -25.2955022874867
-145.613848029322 0.760954522888314 -10.5071486740459
227.197648413406 2.30302666188054 3.41382834232264
-106.84892941679 1.62192396310052 5.79135133598717
184.399021296948 8.80023799781209 12.2393050588818
-218.339821679427 44.3973550228662 8.5806291426149
198.061437201129 -14.4923184777346 30.8365392154398
230.583732668404 -36.5866005641314 37.1940676824492
-240.356382197503 -36.1703487474132 21.3708447972739
-253.792161678495 -17.7205745325796 -25.5123087551778
-240.534325518908 -4.96867858110852 -16.393157399336
78.0970181170608 20.025736595498 -5.96740614087132
-229.403743120653 -51.5602915403254 5.98778123967655
-212.525575382528 4.10521789941659 27.809313255514
-213.509827736238 43.1229718941505 14.8442741319334
-36.996200826025 24.3276544252829 -10.9490533013991
-114.871574178976 27.0317729045582 0.439737347476422
70.734068344936 10.4362108039877 -25.0239077175564
231.598942112614 -30.6270988097536 -10.0174039282561
200.098772142119 12.0603883220462 -33.8110087035469
232.698724765994 13.0355175272023 -3.89104831146689
-81.0477858988412 -5.45067037694386 -10.6821604648793
-108.449136313405 19.308290157082 10.5977117155569
-232.977227438715 -38.6002501595189 -29.4890086802132
-230.119907142665 -35.766352588305 16.3182142400866
-240.326870412817 -1.57102834889498 2.68577357357071
-243.252861870115 -10.8378344654923 8.12904209938089
235.325064093936 31.7733872077472 17.1235841045128
216.977336641098 26.878857754256 -27.408697330638
225.65135878158 22.7991818766051 -28.6499477606836
230.477004881831 11.772905680937 7.01080722420925
102.837681705899 -6.57566525622903 -21.6937144772969
-161.770006725492 7.34478890780857 18.8478154604389
-222.166149987262 -2.66277820374108 -13.5526673937371
-10.7042992126018 23.2743651125195 -15.5785723304474
200.409013234222 -10.6177022399657 -19.3992825651054
120.461321827237 19.3933312548774 -12.8689207219665
201.426788925222 -42.8311871537819 26.7767404893048
-192.385499469627 -3.8454909580594 30.0734746200278
-246.421920595618 -54.3134229631891 -17.3665190995234
-207.193008854517 23.6617364974622 33.7212482981961
-206.090134513431 -18.1627547523902 -2.0873057512655
-234.784412066148 33.4972927748996 24.2414003274885
-227.479826043311 -50.4796851598778 -16.2054232143417
-230.797087591241 -22.491116373915 -26.1915082787333
214.803550546223 30.0390574150016 -21.2003047910871
198.855896112131 35.3332884158598 -3.81558202170987
208.06650694189 -26.6538208444806 -18.0680629859023
167.293027552236 -3.37729874501756 -21.0354182058353
72.6590831089573 8.48525595858834 -25.4599173305035
129.853078417495 -4.85002365301811 -21.7588687405514
209.39594192457 -22.4525310966122 -19.681422240041
188.754183898109 -36.4109461574521 8.65858334752862
22.6765555581862 -4.64088828428745 -23.4010690949761
-238.466177224852 -37.4368720672836 20.9791186754185
36.1327884281153 3.51508819028301 5.13582667150145
-238.157800717359 -3.59593850252647 -16.302900328831
126.823125018038 19.8841878541644 -11.5945058439061
-243.572203413499 -36.0702592727114 -31.904705151862
-236.536837766787 26.3504352637689 31.3842220064398
211.678193037097 -7.09702361816521 20.8677234157664
-154.673248456083 28.2520446983325 -4.29380983285993
160.256243031823 -17.9916356220022 -14.1864535400948
-226.936174300349 21.3356828830983 35.516012576371
-238.818831966969 34.8372860596847 11.9009809946357
198.103336716877 -35.5767249599928 27.1224442703046
112.610228171986 -11.7171868329911 0.856516462687624
183.545016473137 5.76385896794522 -26.226358359375
218.203951595376 -40.1788777602495 1.80976345077437
13.5685560287125 0.504939986739628 3.68442251444605
-257.863519360524 -16.1386050731485 9.71151826782685
-238.658166657193 12.8099920095287 10.2445948142829
82.9438164467695 -14.9754574200841 -11.0720992336272
-229.737197224719 -46.1140741418923 13.1021776410061
-227.706551538134 -36.1369031164288 11.8870557790638
225.029330237932 -11.1525862707044 -16.7990884767894
167.317161109446 9.75650387582833 -24.0397865870087
-241.580034411572 -15.3606079645385 -25.9793702063208
-141.459254032378 -3.57272288916136 3.13049501997226
-155.556243288501 8.78678358108386 17.5585294757099
173.818257907625 -13.5130528107765 14.3898460450181
199.130958184669 -11.2954565674855 22.9359609170956
-47.052079777799 -3.95003219717773 -2.6383872326115
-199.653883999934 19.2383538330307 -7.19989478689284
220.27122527063 13.9743545327134 25.9780075100308
135.419670727535 -3.10646915075243 -22.1353609096218
18.2339646593876 -6.71609293619825 -21.241156619537
-222.500405923346 24.7729286913926 34.476660280392
-145.817599605663 2.55675042834895 12.262527712003
-248.651464573084 -8.85915587085472 -4.20326120199504
-61.7783860120319 -6.4524166842738 -8.2435692522713
186.622489760179 13.9750384144498 12.709319556422
237.572950795781 -17.1169087173097 34.2996340760152
239.29298573771 -12.2099001083038 21.2074751920241
-88.5643968604951 -2.82578525876242 -14.1970632059971
-53.6964357277102 24.5379271868978 -16.1528981373283
-217.681811100703 -21.4788311471819 -11.4222962626605
174.102844600828 2.61701056367176 -23.5182514432562
-142.795598946393 29.0436811795757 5.11108752129092
-47.3538961931628 -7.17088292085061 -9.63890471198964
-236.908096553478 -55.6753072057853 -15.3788336360801
224.557874630127 -5.78154166667736 15.763075976458
-183.688696324808 32.713453852183 8.55207460178799
222.755300557011 -42.3960254371569 10.5845579519402
-104.106781322855 -0.355090413739429 3.90687974140726
185.053142872432 27.3409498816031 -7.36792559071848
-209.64728214418 -6.09275429692284 18.8581154172789
-143.829377982496 11.824618958918 16.2038561285003
-78.6858427027159 23.1580074470808 -0.480541852375467
138.553795208612 0.516087022214979 -23.0882689406203
200.127198969047 23.1456767052405 -29.4081639814435
-30.6125590376222 4.63079354165591 4.84089739933513
-240.258263867415 -45.2146163468365 18.4260457627313
-216.10002637144 1.8304599830208 21.3525484744822
226.75036539604 -7.61454344040008 17.7568550982947
223.765472345009 35.2136082235112 32.2388910440348
14.1185494696867 8.94076520627002 -26.9745056778599
-230.294119518405 -13.0012981680328 14.2002920106058
-220.182521824906 9.72121391864891 33.8565981542635
162.603472113659 -23.3867377417771 -7.64271965542439
-27.3335886109461 4.23489599655252 4.51932055143504
-74.9675243900458 7.83718085820467 7.61926534250854
229.909645024852 43.2724119784598 17.1735371239284
220.139075946942 40.8277127974993 20.1068392315938
-168.641568222994 11.9958314617926 21.2794634991047
85.723759982851 -7.77716252653173 -21.3996659928091
-130.471985359628 27.592358682772 -6.0446656328608
-138.909195921442 -0.20749455746916 8.48295424730849
236.0385864523 29.5201518033889 1.77371621754462
-178.607858260736 23.3467437872175 -7.07951026214646
-212.082830564053 0.662579527633874 23.3958362674592
-219.971290709056 -9.89395938621682 14.951750848463
175.642266417519 2.45161492052365 9.86964195550479
-212.757254339081 22.6313672740984 35.8969700426625
26.2950325663873 1.92828809080354 4.44513038127713
237.220864385901 -12.0195772699169 -2.07061573376436
186.97681742951 -33.3585675099299 -1.29144311149819
-50.609103413312 17.2198962908094 1.64969670054564
94.1984438238804 19.9678577004862 -3.72975884545505
-178.53109827106 -10.7161580119302 15.9879664816321
-241.259684669909 -14.2132997292607 12.9478411001854
143.500226511568 5.45856318004628 -23.670862181614
219.886994414343 8.62158902056689 -29.2840663744128
-133.927485542359 -3.19942477509928 2.81356216416632
160.778910374523 -0.242390596126968 7.95989012173175
209.435858354675 -16.8347470786036 -24.3056988078831
231.972687048374 17.3361645426731 -17.2515206913363
-151.867316090398 29.8233429828589 4.51713966679858
-29.8917327849202 -7.15396461259214 -15.0693685227975
184.093413619722 -31.5440061705068 15.4463413211577
-10.0622579090576 4.47128958577794 4.85707301745134
-193.821645312629 -15.0978195244236 12.8598582332305
135.396330811863 17.3130586009181 4.04207595741457
20.8284789519557 -5.87978018007357 -22.1882905499667
-144.630904655976 -3.67855078600608 3.85878815425414
230.570865728252 16.9693410812954 19.1060288881418
183.740193175798 11.3003010306053 12.5158550152687
-235.464364809268 26.5399349445387 -10.2192651852889
-239.627781162036 5.4413947937056 29.1473170779703
-239.147832314139 -51.9799294958755 -22.6561489916739
178.624318470501 -25.4751820252206 -9.14068858756073
7.39607378445641 8.26809415299842 4.61332222004787
-231.070154139102 6.82097583631378 -15.6927363906206
205.679464041111 7.01416218031101 20.0807748466345
-208.891892193058 2.23466303285809 27.1521459980198
-232.729186214589 -45.7491311116277 -25.9671741348554
-96.6760206674263 1.74658206817736 -17.6356343973226
210.703160164989 -10.4646164680463 30.981457450327
-228.535599884274 -20.905875639655 -22.7461322424329
-241.190402154507 31.8756069600269 17.6574230969122
30.4982078841935 19.4018545228032 -21.2573600868372
172.470769746691 -24.7127660576616 -7.98257896648213
-217.071923894825 30.4218176534731 31.2584801671066
150.100131361681 21.3109776179438 -7.65104527542323
-124.289739408202 26.6082267987484 5.28467690401717
-116.861702320751 26.8094178257732 1.84862976772635
-222.123397680981 -42.2507114457571 -14.3213039359486
-230.702268426129 13.9518663179881 17.2154953705351
209.773064150547 20.7299562529791 -36.0774816062249
196.180919691742 -12.9331188373605 21.6198655923993
-210.172572669871 42.9234962971302 11.1911883576197
-266.382532781595 -32.7549740613961 -19.1983746915608
205.837429720048 37.2172536904375 31.4188726906003
176.573953293214 -10.0190156286624 -18.488917272596
225.427140296849 -44.5141622814031 16.1332503073699
-160.643939561603 6.62262766145001 -11.544717286344
63.5382156304411 -12.662085331098 -14.9983625913221
213.170739998249 41.6936326401752 26.733477913228
80.9878409231021 -14.445970049308 -8.57403671949707
-221.696633179062 43.2868334977659 12.3636156311509
216.896984907973 4.10463560563382 -26.7778169718951
208.23296279826 -33.1725838328313 -13.2321805067026
170.096437912086 1.02898063753583 -22.6882332190183
195.019954813771 -6.87049042468425 18.6315237748246
169.700063657169 -26.981475946368 6.67399219462894
-260.90731012657 -12.7337948454425 0.501336602248917
-219.982023066305 41.3936302483884 17.8741415692285
111.006877793126 -16.3159633282482 -13.2230138697914
203.159253821343 -4.6783769533688 20.4386517826277
140.744803313112 13.0256953676584 6.88241991150723
212.990459580782 6.63501079766002 17.6331077390433
-239.063387552742 -43.6320647635213 -29.2021990791844
228.505661624283 -7.74359487852513 -10.9664894754533
-192.314707033191 34.8478206707611 5.5022972317151
-205.990855187673 37.2002724434579 -2.53816182633343
237.141762548177 -10.5067114951866 23.2505330438376
151.805228389904 14.948047109898 -20.333742543692
-53.2693166119041 14.9171547700737 3.56797570763733
42.1246685175995 0.537391927287872 3.90274515636947
-238.708444747916 31.3711563781278 22.7816445485397
-232.011391771159 15.7873391067688 -15.937846018336
191.39571929496 -36.3493628246839 20.5552379198787
-207.819397992005 4.02836433964385 30.9959904628546
82.8805738617035 -3.79031362541371 -23.5726359930193
89.4913095260173 20.1172539151472 -11.4981117299029
201.733978183017 -3.83362521630461 -22.4774244336696
214.178170592661 -10.2892168835846 32.3497588733439
-74.1811520562247 14.6804243288876 -23.0292000715979
-157.673317049544 7.38945596738919 -11.9248187061528
196.085275573602 -28.1547455365783 -14.4387071846859
218.835956462454 -18.6121380187403 -23.8778609644496
127.407521605131 -7.77764148982866 -20.5540152947984
11.5222329530271 3.92744797365614 4.74051905793128
-253.070936321345 -48.177631585976 13.5368922479151
-233.878360421834 25.432206991485 -7.67829175588921
169.310578992531 -17.5772970729937 -14.902226567605
204.051133080883 -6.12138504269781 -21.1564513484386
218.09098953551 -37.084632444307 36.2671541031387
200.407160860649 36.934865337971 27.5797220456458
220.10155032654 40.4207539494987 14.8273847311028
-207.777999329191 37.4996931524533 23.3509463622938
95.3472222618712 20.5368166827407 -7.38138540777862
225.275373054669 -8.46483769282372 20.4008705569073
-81.2843981483178 26.0276512030939 -5.29776504580755
-252.112657521178 -50.0779262845897 -20.7933267609966
86.911927518006 10.3539630120194 -24.2884009204417
-238.711427062697 -56.7933223493059 -13.1833447618837
28.4175513113504 4.01844349684253 -26.4753765999901
-84.7516134928832 26.7682066406925 -7.99161676499321
178.379744252393 -12.5891758012637 15.57435110352
-219.164900133605 25.2774024835094 34.2417738077811
-207.877677090242 23.928235105739 -6.58593743991751
178.125429281317 22.5630101933754 -15.1174528148535
7.11918216928665 -5.06288298819929 -22.3772865233783
195.234137274429 -18.2027887308381 24.4645334895592
-223.238078777565 10.8243541680552 34.2721137812644
98.6377462387927 -0.715995710137865 3.92853005898877
-128.197357901587 6.68275329149152 11.8545109375004
-208.771108542989 -16.2192571966533 -8.37926076493004
-248.933848194985 14.7529061463262 14.5085803066413
-247.986610300116 17.9854646865214 6.05794795743948
-16.0632645345695 23.6902482070544 -14.32010150997
186.895102030929 5.31264349061257 12.8999088991281
-199.468445103731 3.34214788976432 31.0904666049213
68.7800849276857 0.362410929308417 3.79331257741775
207.984657122465 9.28422019787016 -33.9475472354926
-148.914404391665 -3.97796711528508 -4.35964226201826
209.200085602871 40.775152846019 22.3070608340735
-193.144631909428 -13.9232280194792 25.7954543033125
224.282076670061 -44.0530922160561 21.2086532653557
162.037293010621 -21.8658396463336 -9.93821239613388
199.101528918892 39.6216908780055 16.5017581183523
188.421884821131 24.2807855463381 15.9361107689797
-134.764797464331 8.00978773707997 -15.0368864892003
-195.903662517827 -15.9934554736398 10.3624349791344
-110.273801823466 -2.90217525841768 -10.9994020248962
196.33025654501 -19.3090108116847 31.7239995963215
78.2926235745975 -8.39982722068214 -1.88424332643239
-58.7416028560457 13.4524242800933 -24.6492751014634
133.450505012011 17.6241827343042 3.58058175407211
-5.06047629548734 4.95493808466284 5.27112153096405
214.675615014663 23.6366192434222 35.403325369121
139.118750464618 -20.5298697760254 -2.38392528225386
-199.280749197997 30.509518807314 25.9849584896262
224.33363755474 -4.96730637462896 -13.7233071952118
-207.686243077097 11.8432188864687 35.5810716271812
-239.825425910138 -55.4779055140377 7.30990988271438
-238.06592575475 14.6592744854227 -12.2542640846509
197.559193953861 37.3672925724802 17.5694519122465
227.242840840233 34.3876532204686 -4.63353300422433
-233.772764516451 2.01719419041742 10.8552093786326
194.879117059007 -37.8390331984138 22.9023611184542
130.685107223357 13.8291381611506 5.62939483402787
-125.79609846974 16.1443864305164 15.477048138907
197.596911870847 36.2488088612369 22.6259700149236
26.5915827357575 21.4732641846832 -10.605345438449
5.05466692889416 -5.66668422332616 -4.31854120984805
216.824544425196 -42.8738934822729 28.5460456755636
201.629233764431 -5.21712353540458 -19.8697778812354
126.823977843134 -4.6205538825287 -21.9852666354405
-231.402030373269 -18.1955254499307 -24.1253006806334
8.65670597818121 -7.56027141223835 -19.3499830543149
-99.1699070373395 -5.34474985935456 -6.95375817744175
-83.4912575663836 -5.36417784489949 -4.3709545374715
-198.936431167748 22.8071026154996 -6.38564782283673
99.8365040287369 -7.01511339255286 -21.6178851025618
233.249396074622 -6.23151865376268 10.5168740716387
-166.340676897758 24.6622388341775 17.6073462619655
-189.575338714855 -3.87136221905661 30.817606206532
-114.243944170083 25.3677876406168 -12.2388987274924
-162.285864977574 15.602052203791 -10.5722054285809
179.198659766618 -29.6834422763382 -1.66254207499305
-251.731638385173 -56.562143811191 -6.69573889416843
-237.020035512724 -54.6485227161068 6.95300516675616
99.4148115818642 19.6041138838126 -2.20987580139225
-237.238052116264 -30.4290749934211 -31.7698435072594
227.754152380841 29.2737107138395 -19.5550960634084
-252.847028931825 -8.76459980717799 -13.6211174665821
26.3725557912701 20.4328001850429 -7.15106872104172
-192.631779979807 18.5557199028265 -6.99898219852399
87.096207983907 3.46930272459147 4.60230853062291
51.8552660612294 -3.39034615012461 0.334431269142016
244.805299447929 -27.9182116415372 17.3948632317421
-192.885628578683 13.2265997732532 30.6495171593166
176.523439879156 6.57797727920527 -25.2968865303464
87.48876532168 10.9894237874664 3.7336795763694
171.221356926646 -21.0226993217413 11.8210015362663
183.492736577076 -32.7679719861568 10.1222508902261
-203.969561054856 -4.62642259439064 22.5838130974542
-245.795656195994 -6.3254232476865 -12.9412216141849
-167.381930912362 -5.32695785007908 5.78213169436702
111.145916475656 -6.57380822009438 2.7278904624138
-128.294959486694 8.54230972473414 -15.9540617647391
184.434911907865 -23.4022216276198 -13.4453831664607
149.983890139039 -22.6227752085841 -4.62709788283691
-50.574197184171 21.3704199591643 -2.50455406182407
204.505729904163 -21.5142992603792 42.8592759406531
-243.740585271583 28.9419334654336 -1.70698670272586
163.968780389579 12.8699579602235 -22.5756821658399
-133.742269500658 0.423480770447059 8.07367806586297
-187.629032950255 10.3120102045101 -8.61039052585552
216.670664785845 10.5054360277686 18.9095182753385
-18.5952418068454 -6.47221181846528 -18.1576812822482
-63.5228377091807 5.90154215571549 6.47172162159656
221.103429622148 -42.7852602555696 25.782204692253
-235.068449690157 6.29477493491098 28.4538995901698
58.89048007741 20.6037579965507 -11.226984447358
120.188687669525 3.09641514126195 -23.9857560537021
133.341941357318 -16.3595510863208 1.29096177074632
100.737302286611 -16.3157154025481 -7.36874770932725
230.022679537412 -2.54497327106404 4.90253429660079
-222.088042419223 8.16778332506344 32.0957984031461
175.855057367671 -14.0747253161472 -16.9949433034453
208.667810157873 44.6829931828857 8.37728130266382
-67.259956553808 3.49352471625954 5.83980422849438
