202.155176418974 33.1720121595756 -25.8461746504464
198.591911395787 24.3215471592056 -27.0168309208577
65.3849007054822 7.65123134526618 0.811117744610764
-107.547392337233 3.19254244980991 -9.55277339651097
-218.147207211037 -10.4602200815919 -14.5998501104462
88.3749857989272 -17.4367357217284 9.62357817185507
8.04739741458386 9.00969517525706 9.65137474063594
-107.709015954141 9.0289678886424 12.2373667548213
175.462028056415 26.9572441508213 5.63932448069324
90.7894507518601 7.31786304387132 18.9187277251805
177.446191962184 7.19426515954674 25.0849327753423
-192.42933039871 -28.7187313643071 9.52416100028274
71.7518755210914 -4.77453524619677 23.0330742969645
74.5192163103473 -15.5217148813921 6.25264530120663
-184.088970694933 29.7081486977152 8.67010070207899
-153.184264889478 14.3849701344047 7.98939128015129
-31.6909282528046 11.5937052758506 10.0445110106016
182.26445266836 -5.63658877646391 17.4078682625319
188.223141843357 -11.2890103438764 16.980195271902
156.094792080253 14.3378036442137 17.0105621894335
-96.6255389288818 -7.32490694649489 6.62191953897314
-105.191392752145 4.37069561541531 -9.5003497668827
-203.64547802183 -41.2078236621829 12.7290602068617
42.173491513384 7.09301618199105 17.4120814627413
199.917933681253 12.184738349041 26.704099741376
-220.42704740856 -40.3157946971883 1.17483007648791
-207.953845036278 4.54031813001953 6.68512334155394
-114.225469547375 -1.87385213961696 11.7245926173302
209.634931582246 5.48377982092962 -4.76351244563416
151.124611948653 20.4674711379504 -1.75469240000886
-211.455127926802 -42.6763670157943 13.2136164839092
150.015268659019 12.7101516420971 18.2248059291037
211.128981340555 26.2848559909843 8.03596063683728
-158.633888330157 -8.40237145349325 -1.68659641791095
0.750573989196512 -13.2556908867913 10.8842481319667
78.969231891511 -2.00714484433816 -3.10444378391273
-190.894938746388 9.24163129112076 -21.1873561507158
197.150498568389 12.9134638904692 -16.1328242301598
193.090365383205 -4.67546192684852 -19.9143858331645
196.517601005468 2.90330137859318 21.8984365441419
201.636549856212 -1.8748729060251 -33.7557579658355
-226.036175984931 -18.8457898081187 -14.2553832151791
-212.53541228489 -4.08086114020935 -2.19129163495262
68.8670698310817 -2.67581511642154 23.30290595581
208.795290711234 25.4995324700925 10.5930963811957
189.160986711353 23.6681454187203 17.5851039125025
-171.061626730751 -0.664553760366647 11.2781187711127
-220.560434132206 -10.8693485530269 -14.6210933155125
187.817263106117 14.6162518937661 -17.9398058756633
209.893739946389 11.0718089754981 14.8942787943285
-133.990491970788 20.6641927065775 -2.87533363005432
-144.246357485771 7.89096675328806 -17.8644708630135
-179.258137849944 15.0647379167579 10.1264680799374
209.009239552264 40.1282896407627 -12.5756710019273
-194.42144502683 -32.643188865012 12.319441694837
153.449400495869 -21.5472873662881 5.59138325798839
160.434927718455 -13.8152598510865 15.4693731376022
-200.800369509396 -30.5778602536727 -14.6994941470655
208.447288363936 18.4085379028782 -18.648976313847
186.308937352925 -2.90979133104566 -17.8238056681148
-60.9638399471395 12.9651581836711 12.1666084573249
209.284966025284 12.3517062438667 17.2237455471019
128.388315317104 10.2158740258081 18.5993094804998
191.079378849924 -1.94223087463134 -18.0290332387898
177.571719774577 -17.4625466828501 -18.7552123410621
200.806734884095 -27.6350894831262 4.15545895998347
-179.879325926124 17.0853561256343 9.83048379875934
-138.327602002693 18.7492502739649 4.9458213424551
144.068630938442 18.7727298257491 -2.30207927840855
-87.9588882081535 16.4677634678751 2.43643280330361
170.225624099401 -11.2722543569546 -14.1229373345446
210.67901586659 -19.978966303764 9.70417543495187
219.419528461491 -25.2376239699672 -19.1546583809606
-91.7997061634602 -7.88728991826156 4.801557665265
-166.602270856159 26.9902351845138 -10.6367398391019
108.708175182432 11.9004376368869 14.2346141206496
166.529295525371 -22.0416832889075 -12.0101832412866
-36.3618202178377 -0.314510919803368 -3.93272693308106
20.9292789848988 8.92614020331171 12.6241408331523
-210.367983246845 -45.4158120092262 5.34394011056197
208.768099554066 -1.5349196902998 -27.600680506451
-83.3981937726722 5.70210723543393 -7.28451728413813
98.0386189614837 7.62774350480923 -3.05655647375688
202.207074911796 -29.4916156576025 -27.9360161500764
102.527601170828 8.88957789588645 17.9098868957171
-61.1024637109999 11.975849662447 0.938716641203906
-199.535754518055 33.2990860310627 -6.96362114502536
-229.876016920705 -21.6407600917308 15.5726725700498
200.539644932393 33.0482959734487 4.91713498341228
108.898659526095 -17.7833554282381 11.9750790641412
-217.603236111404 -42.5518953159032 -4.70722871442117
-90.2095501058319 11.8065871511845 12.0822566665953
218.49895912073 -13.4300369332765 -0.767156102123563
195.673139181529 -19.0930111816025 15.9218326386021
192.630700014535 -5.45898539813633 -21.2412338287503
124.941011159566 -9.12199245998253 20.7429986237057
-216.451788931589 -34.3515147351572 -16.8347946555294
-52.3115453931378 10.5924927186146 1.0695777115409
205.874467806144 32.539462671465 1.18694792866786
-191.013536880906 9.02224581720417 -15.1598015607186
-209.599023259621 -26.9111998139029 -19.979436051046
211.154709200107 11.9294640154518 12.5420485348435
118.34861573893 15.30205036289 6.18935757282403
206.230601509626 11.3618144363978 -15.4259114821039
137.983766402189 18.1116231087261 4.33714019784976
136.331002589019 3.25770007063769 23.0136631966858
183.388304503304 -25.4265890028379 -25.3304355691713
44.6795265063361 -12.3212893177936 5.36130038596266
-25.378564317808 -9.03639295018373 0.210696068734702
168.613259448615 -4.56510301509927 -10.1867697455293
-133.750612537271 -6.93974858602589 2.5214996255361
-209.642893537361 -39.2154573768994 -13.8343624136443
-202.603378340757 -42.9052041721659 -3.5694629774538
-194.455797436619 -37.2582155964731 1.63960878161161
-165.397007583083 7.0133404109982 9.04800628810673
149.415912309286 7.63543570456877 21.9357379276028
-79.731925721261 -7.70748960050049 9.96410395271869
198.304742655849 -26.1450319366925 -34.102870834824
208.596868657488 -1.43475739437742 -12.0487037919409
-163.416005188854 -3.0639369444933 -24.5489554505528
79.4413001516449 -9.00393383721199 21.318669426436
147.881152688702 6.72954841227791 22.2686149545222
-196.156803932624 -38.13911497024 -4.15299489464297
158.13142220741 -16.3034603910003 -9.88896906346822
-205.528125522047 31.5818543523789 -1.92209067964754
65.776854939753 6.24784714787224 19.0717764894095
170.077662178965 1.60794487184405 22.2685730629931
-211.925077396945 -16.3579319115764 -19.4702112651031
-197.112274097462 9.20672736961967 -11.7008056952053
-193.826796070287 -34.8932902211398 2.36878836602476
-79.6854727366613 -4.57511046837573 14.4794953816778
-107.285146379165 7.60012993907308 -10.1488595038529
31.9555704854289 -7.56305481035985 21.4677869717476
-192.246916629068 0.50887385362468 -13.1915139106166
53.4667224184195 6.50174213954448 -0.166695091689003
-195.333597285305 23.2746470213739 -23.279887038452
-186.020586189336 12.9573472813177 12.2628263093404
-154.092116367598 12.7756995608613 8.43603003107081
202.967545746964 -0.952234345572114 14.2470955945252
83.0845233863864 -9.26993533354617 0.19248373819022
-202.467387265578 33.4177336280277 -0.597462555512706
-123.371138300829 6.16966941617744 11.2786494689416
175.90858780226 -11.1025947330912 -15.7593631764861
125.200045399143 -0.0500105978864597 23.4831945535227
2.67775289026546 0.0035361329851054 22.1683301682459
191.739687875012 -23.9622075827036 -34.4826739143337
73.5698659383833 0.296143638388221 23.092380216685
-214.573032717856 25.8224484817786 -10.1414085947813
213.642904505353 28.5124928557189 3.20559485473959
-74.3451095546157 6.07477461771437 -6.58888019482762
-60.6323708231589 -6.50637474799773 -0.975044356960888
-145.756688455428 6.81728891535854 9.49331233590961
178.988950606925 -19.7845383460251 11.9529556774858
138.113671046038 17.9488227359177 -1.59779866628727
-178.152894350281 -14.8590064473391 -5.97359249912519
-51.6880975134443 -3.16853535091508 -3.23809943669575
203.630875656934 -16.810002276579 16.71748064899
107.947315729979 5.88679158923809 20.9525698120235
142.244773388722 17.3811905118602 -2.89395848312749
-186.850562471732 21.2989944992505 10.2327490920166
175.857923536049 -6.89610722862208 17.842784020475
210.541754893201 32.3538518059404 -0.235405767245446
155.870258018934 -0.0831495364102462 -6.7114531295502
195.157989624144 -28.1682702422877 -31.8216654540915
-199.97392155859 7.95862932559074 -7.55173218755367
-230.279451620055 -10.4732219109686 0.367839087809724
86.8014242127649 -1.4064163866366 -3.20050225755785
-177.897868429857 2.32991730877343 -19.2309227319147
197.946066283531 -1.63300524502418 -31.4476090970714
189.60459679228 11.4608876169754 28.7459427024564
216.2153928611 -26.3158840587556 -21.5868174466093
167.340475614997 10.3146811351383 21.9911874437438
-83.2435765539808 -2.07272011269007 15.5422527841679
-189.549942425367 37.1287058667674 -2.46026080687989
28.4085477610365 -2.46214892651012 -3.23518146718194
184.23629671976 37.2523030997792 -1.43052232968321
167.673012417621 1.16297665166398 -8.79382401550922
-135.234607123643 19.7529813878491 -8.12125241474405
-193.371202418583 6.16661012656063 15.0843335621143
80.6828823434234 -13.9041644685602 17.2022164200317
163.712450844749 11.9180623887509 20.3199843615511
203.116314326192 -26.5170941888176 -33.7232988975973
206.505624041355 -0.575684938058066 -10.9739529959339
157.959020661949 21.8280545983958 -2.22961573303251
-111.143383954165 14.0596077569709 -8.53062357765147
-196.517209272275 13.6952409820006 -13.0521252470711
-23.3061048721565 2.74614656298952 -4.32924612717786
-147.21748846419 11.6980187922708 -18.6277586357124
-208.239934368548 30.6740641141503 0.554032186981684
-163.892574046977 -12.3119714076923 -12.8301005730682
179.527962923459 3.90545203651832 -12.3246384548377
-222.219279109189 -39.9021228425648 9.01890869234407
-3.36928126278712 -5.00813028081165 -1.64554959858232
167.67058303867 -2.43766938997534 -9.46205494727984
-20.9237601063876 -12.1972688435 9.81391869913833
144.769074011924 20.1079741632572 -1.07500049847158
-179.18461303666 26.5482524551414 -20.3614679117195
-202.823102341268 31.9964620708614 4.415516329379
214.733522455853 19.3069653527368 5.84133908110387
-19.8510376611167 0.342789152056219 -3.44892779907477
-160.031204254946 -9.30840116717731 -6.98434407254146
191.354331070075 -13.6490402978369 -37.8030626564877
-194.114443892754 -24.73955231214 -6.17465472661154
-131.482355555728 11.1731386357991 -15.039784984165
-199.853220986413 -31.2827213739986 19.7966309498191
180.368930170502 17.1756966458687 21.9926163801728
-188.008863697125 -0.949354432345576 13.4595153209892
53.1477701366709 -8.27922063343992 1.56822771780355
-200.99877203337 -40.251021605924 11.9238533904116
-154.133846827381 -8.01180170967977 -3.14688077043317
-205.714772397679 24.6289018716143 -23.598690757482
213.2661643664 14.9509355219837 -3.44447882583534
-190.81180700956 27.5436826275932 -20.3846612736094
-75.4328509624251 14.5662285705304 1.56698152921511
151.077373064765 -12.1469583542071 -7.88444101594694
165.201452156922 20.2060697844905 10.9191201426979
50.9498414060127 3.60907779206414 -3.97813207213992
33.722371192073 2.58168278551164 -4.49831737963761
162.337345527544 20.8333252203087 9.16859761838597
-188.318582493041 9.92542898298001 13.9100211008322
-165.354768568221 -8.43752086196491 7.08223145474538
-180.453679716865 32.3829917476725 -13.7961221751537
209.447766640166 18.1600434325164 18.0546840989747
-126.581297424894 18.3840047397634 -7.18942425303188
-164.467697152933 2.89371622135843 9.46659473056382
-124.12130101787 17.7670047053035 -7.52027608664758
-204.784222772901 27.5243237867114 -21.0825919216398
18.5435588790691 6.74620574108802 2.14494909676548
168.608184613375 2.56423130128889 -8.76917845334709
188.730807808059 6.44482833931172 26.7763780302834
211.868407042087 -0.190863491565888 -9.10831420926694
197.575482825837 16.7775318568836 -20.1816797619965
-30.2706111723834 2.04503666250099 -4.5484424219082
-59.094203374921 -9.39964193629386 10.4515951477102
145.166714778907 -0.263310430062508 -5.54884645910597
130.717801543457 5.72308064160219 21.928158843719
-19.0530009699482 8.85520062912869 16.8453647433256
148.484220615774 1.89417686419328 -5.56605658016603
-192.75797396498 -31.1223917613263 4.47286326441818
205.253341200417 -25.7032709788275 -34.4389160108811
77.690800248163 10.8505794755786 11.1474684278792
-137.21926449325 20.9009364292558 0.322991095049158
-136.615621362608 20.2930236275494 2.25689958684111
-137.643075502671 10.5019905796618 9.4126821245061
-191.594367611312 4.99685422228274 14.7818095324532
198.44330770533 -34.1300039520865 -19.1934768229198
175.676945101935 -23.9729850414716 5.82299427803544
-27.7944029456813 0.180197979146567 21.2311198958004
172.038030185066 18.1164165470697 16.7324121719252
-194.590271796647 -20.6742880348599 -9.40763260678955
98.5102714780826 5.38912005328695 21.0415922502033
87.6666236973931 7.07199615539248 19.0165227745222
217.27937759526 -23.9039578458556 -29.1446867367689
-202.833270129422 -22.8926916178074 -18.2954876837256
-226.376306965754 -28.534894172025 -13.7344571443654
205.183875220295 -32.0678936227862 -20.9387691243595
164.767430577876 13.8480305016794 18.9076100187484
39.6396941160427 -14.0705012670959 15.5753110186083
-192.212369534738 -29.2423617721956 4.76036381077873
-178.006150387707 18.7605525405738 9.21238745188854
-136.57693150355 17.0541092108451 6.3348014188966
198.158462694484 33.3729474632587 4.54940943361684
210.112744831921 -27.9459200023357 -4.36143990724216
-174.507502273232 19.2316749101404 -23.0264785795625
-85.4697397113337 13.2995470642667 -3.96823365072956
214.389238959491 16.3251632041332 3.56264367227771
-101.219751779983 12.2647499175963 10.9345302047631
-199.442505373905 -37.5643775930381 14.4769023567424
-156.90501682917 -2.92604412270259 9.55388449142868
24.2544798189362 8.17191297440382 7.11235108074588
-178.954337504202 1.73645797749395 -16.1710614095935
213.108808301951 16.7491816746016 10.8407446179458
-218.445440716375 -10.0478491551048 20.4722081428182
-1.31756620162333 -6.40649362009127 -0.769069990841012
-183.058229536284 3.19187368361812 -16.7360896109302
180.685028044437 -3.33837870264359 18.5795429966254
-224.415535426987 -12.4972040097756 -13.3990267655302
-216.168754868297 -33.2174997757172 21.77313444089
178.560774419849 -1.9081800885899 -13.1211177511965
-13.1707517313419 -1.50525683198893 -3.28388454107505
-203.844769413972 19.5049738651947 11.7777595822953
-171.039413196535 -12.058978308093 -8.34213645877444
-11.7584154077759 1.66675293408099 -4.17976973839017
179.613968639469 1.38161058983925 21.9591621842804
-138.912859898258 6.26205843373492 -16.2358043346885
186.942527755694 -34.3127391085264 -14.2379911494536
-184.998710244901 35.5575937840554 2.83709386352148
188.552784280507 -7.79607709838435 -31.92968244446
93.0751126897361 -5.9129727546696 -2.04343821356782
-87.4732394037373 -3.39148311764442 14.2586912058901
173.943035932624 -2.59583878329205 19.45456933817
221.434620655574 -14.0625948448396 -18.4647759359487
5.07459677850411 6.2175922011094 0.864151382552803
170.452509985362 25.4660581958603 -6.09744539519105
-175.753497507457 -1.84726472101576 -16.806490840289
-16.3208422643382 4.64613070281034 20.1021677233621
-85.2003161203039 -1.79182189795927 -5.53268988577286
167.65922915257 7.94627058896577 -8.07081658391603
-203.880469502162 32.4664182662194 -1.95400603796334
-229.057216267426 -9.866989337107 8.68562327733403
-142.155490245795 -6.65670624490351 -4.73721710444336
190.977322172967 26.026954552287 14.6735852156626
-113.691530554911 15.2776400372997 7.76989890285378
-181.746772436649 36.5392100459987 -2.2284670714043
182.03058857939 0.395115514897304 21.4041344288737
201.920518248734 8.80830400352728 -11.898588114254
-216.363296971389 -40.0400816684225 15.2749046275333
-132.479631887125 2.65608747607981 -13.9176474034734
206.21505726121 -30.0901380978401 -25.6780272463527
13.4240525481712 8.53557487935588 15.454749132237
21.840898485519 8.64919258078544 14.6682413506793
-154.440940294194 -6.63198458415769 -23.6991618744632
-195.57856832525 -35.8987538436132 -4.40546822342632
179.320230919227 11.2607616523127 -11.6805503345373
140.622755807554 -17.8965028939963 12.7719679665796
21.2159264508913 7.94124624155439 5.73556117974004
-188.126747406128 7.04825243916879 -14.2575221103677
-190.143218175594 2.63096160368238 -13.7665982129307
-222.457528788699 -40.0463097402367 -5.09031130978044
44.9376116365862 5.32577309204877 19.8012275938904
-4.60296987020651 -12.6913379568895 7.99471868327643
214.611756339971 -5.85120227115014 -30.1013595059314
-192.615264298246 -11.4394014669893 -12.4976482715123
-35.5183104146855 -10.8036746191559 11.9498822316835
-126.39509506896 15.5529467040585 -13.2988142996323
-62.7199679862027 -7.56233161542346 0.113353007683479
203.362171681645 4.89066018249537 18.3867218821034
181.910705923437 -30.4668267906514 -6.77635871371011
29.3696423318743 1.60461160264617 22.2892381314354
205.387251946171 -26.9902928942693 2.61312246408626
-169.383056867852 27.3033153423153 -12.7138368219156
164.688991581257 -12.8129889223149 -12.5921656868218
-48.7916478477038 -10.2487894196265 4.41520100020964
134.309114484129 -5.97855624873938 -5.22032302760761
203.947970944668 -25.5563967031822 5.57794359087539
113.864583231897 -18.965328841924 4.92886447310992
60.3905531555143 -12.3489146641211 18.5869200878798
-226.748421232696 -37.3766582887089 2.2336798573367
213.047232818566 -2.12797410011663 -14.0052983759986
-208.894107805922 -20.1268820663448 -20.1410312503376
163.082397879935 13.6857027068773 -7.02356276877304
47.4106395652529 -7.19025494931656 1.00469244302376
129.061903912312 7.68149850133406 -3.50255446598805
210.777393620321 5.96924228029946 -2.2746296655628
-205.381071442573 29.9499697287985 5.58356473806055
-210.676844638045 28.6475804542387 -1.55344750340958
-22.0603615055276 -0.500861512804431 -3.37602858073195
-171.178603328374 30.3814424746495 -5.59351236651617
197.383915573835 27.9882233644077 11.6690795733239
182.71213986841 5.43760915713165 -14.0573440192135
209.677690622287 14.0373977278089 -13.0608610246728
203.097097495872 8.41955278535637 21.923062090542
214.166363857226 -25.772777463589 -1.16643638114251
-7.13014273436762 9.88376827511016 12.1034517019615
-104.194142539913 17.814134932302 -0.997427231455518
79.4422813324685 9.63896333566016 2.06682892941432
206.025821180555 41.2405631062096 -18.3111684371159
-35.1642330794992 -4.3911053986954 -2.61365341235494
211.61039328657 8.03752286843272 1.86682404747912
139.202665830269 1.9600765625557 23.2685096558344
95.7700666735341 -2.02359439693228 -3.23023981140131
-103.150142078005 3.14546401119049 -9.24469559180264
23.9976899585495 1.89198036812574 22.0975830583482
10.5581945470901 -9.49784142186554 19.8014251529757
189.3736664987 -26.6727145221349 7.04631380065695
70.9772306806722 -7.97429660781992 0.355327160129196
169.475302971142 -24.8739429357868 -8.24927473588899
-214.222364210109 26.2635269894433 -8.21805604596336
179.850132371107 -4.87995288417022 17.6379663166028
-75.2823432333027 -5.94659883188127 -1.59643756581415
-52.5208078077696 8.64814027540025 -2.85684394706806
182.504678610512 35.7172212104656 -13.3917474595493
-203.284260838323 33.0608397708053 3.17844738155277
-32.0308807987687 -10.9003807124047 12.9699437848751
178.853522569814 29.304858416593 4.45492874517636
5.65837496125914 -13.3297432733055 9.12321430197317
156.002356001479 -22.098089614013 3.92385347846822
201.509710919842 29.6593860811062 6.3508719625552
-182.102327177834 -1.9909625011439 -15.3134842032046
15.6059738760383 2.08912021185755 -4.92729666975344
101.383310467318 -0.0968478889218269 23.5269363255419
-216.747411655522 -16.7104424164247 -18.7920410293796
185.075741739534 -32.341882778808 -9.40684371734226
175.192142851479 2.8543416000972 -10.7394522707745
-215.564792877802 -22.3197550778512 -19.821562315031
194.886918653859 -9.16641708074426 -38.6514919370549
-145.988444968616 14.1818055828473 8.00670053278655
212.554218585789 24.3889613057131 9.2717623463664
194.806165099313 30.9321920021289 8.59250703462874
-157.601038433973 15.3168898837395 7.76959138717271
179.734113377093 13.3137240838945 -12.3407230270639
-32.6758983687225 -7.54670672662443 -0.818080153521456
-67.5904717617944 13.8401515194075 10.8887203393675
175.139794073681 -10.7328403040346 16.4303555557565
-150.845431307017 -5.72688700567273 8.36638603095971
-101.083781367499 8.05563447314018 13.2874459078279
205.555062714512 -29.3063703787152 -27.3659246868821
-188.715445701554 5.22210778631661 -13.7054387122321
-141.58380585417 21.1751080226326 -7.58871965797891
2.84249229315664 -13.2787487667994 9.56707481616624
-162.071052732738 15.7066643563134 8.06442460585951
190.780438893721 -30.6729312005239 -0.678705340143179
194.84908956763 -21.0626363053647 13.8162784186685
-202.535937721875 27.8015103276371 -20.3988309500702
-192.997401124871 -4.31486689330414 -13.4113375996886
-213.718514113376 -9.81395443546218 -13.1653024923729
34.4894741587856 -13.2086392543443 6.74274722606241
194.515526605988 -32.1445958711096 -4.54360508882974
-161.944966687148 7.31370104784109 9.00512047258194
-161.365310310556 26.5720979886706 -3.77595403010484
-180.222255795121 -3.00930343340231 -15.2412602700667
177.784665772393 20.0327960367904 17.6939741912492
117.984191468044 11.4957880971786 -2.21997584080875
-58.0111234262965 13.9015846295053 8.42343323987783
-191.082829042371 22.7948342644122 -23.4049306611461
-136.323625566576 -7.06053033777048 5.16057153285125
200.571065034195 -19.3650519440481 15.5080669505706
-17.4507457121207 -10.3892270854639 17.0916588014794
-187.564141588865 7.51121432519593 -15.5516100850861
-112.6399482907 12.5518685635431 -10.1140705747798
-24.0292430481492 -7.82358317826189 -0.672959780928425
120.973322794783 1.84047597807854 23.138208550088
-108.329930767157 9.37549740141395 -10.3974888227894
205.013075046335 16.5579274128684 23.2210718289914
-206.94006122671 17.1924668063269 -25.6843667916747
184.279024190165 -8.57307129329608 17.0346606854362
210.376149916405 -22.1703470239538 -37.7545708513422
-96.9713161364224 2.99023538582439 -8.89316455446485
-202.319624308524 24.4160367192455 11.3040703441262
181.089864618561 -11.9772593787128 -18.0705298453644
-222.155230255117 -21.9532820612167 22.3327885038811
-164.240883954576 -10.9776769543923 -20.6117348936741
146.581018361161 -6.09601439111434 -6.37015042887626
-132.915819930897 14.6841179361616 7.80576609193445
-178.139805969435 30.1200111613139 6.7475167245133
204.083618710201 7.04108609263157 19.7835497451702
-211.999342248049 15.4036187696789 -18.4000375030799
217.548911722041 -5.06045326109407 -15.6197043397059
187.454468888559 -29.9966156706894 -0.12012124475282
112.939016280509 -19.183347491025 7.3075025721424
170.813036303105 -9.38302058223403 -13.3301178581415
215.030464675169 -3.89500523815089 -22.8346422720491
69.3118238780695 9.08911785912146 14.6471363088816
164.551931454042 23.5424417616152 -3.07035085879741
-93.4965066924934 -3.7019889596788 -4.33211432934536
-165.602509622902 9.93000955482567 9.01352100727568
117.439520588178 -5.35467885896056 -3.95058040010125
-162.138713694646 -10.5200499308137 -9.0014764656994
192.168355478443 -25.2246067157712 9.77697310006497
213.601675640302 14.0894942041986 4.78800492996976
175.281622580346 22.4895534313091 12.7166052491275
29.6936033568156 -8.5142669515583 2.59777268825246
75.9466080370824 -15.4739684478487 14.4375422916744
147.133214741223 -0.509360587895179 -5.76867814072567
194.533309121824 -6.05315481112362 -24.4461927341089
-46.4910383330259 4.89255371641038 -5.02244415890898
71.3973565555249 -2.80048415256116 -2.80212960014701
-223.680118338237 -4.22901332195291 9.02294872145666
133.89490800199 0.475547852278114 -4.60552319163935
148.15048482105 -19.7541485836776 -3.46414674086653
-67.034929489905 8.32495113678336 16.0729014407122
-204.207178670784 -36.5218803674942 18.5584748802854
-231.243375568442 -13.5317432120512 -3.19356553803517
-230.216510687301 -32.4735069865427 -5.49061814366088
-28.435597302091 -11.6208725571293 4.58871549853656
197.110315727662 20.5427257018754 -25.6906936005082
-155.913690849069 -0.266440808512882 -23.1776164787299
-179.478706246518 11.3224179815824 11.0620774958252
-191.63528989702 32.2829540380098 3.12687235518024
-23.7114704481713 5.82202874517353 -2.8119982078191
-135.719142318445 -1.55127398424869 -13.4619696677929
196.38257440616 -1.06096187951576 -15.4716954345945
114.430100452807 13.3568317689019 12.2478029680688
-111.794501081375 5.24607675415392 -10.2587416520233
95.2750107300869 -11.6738850854448 0.314933754553783
168.888649572191 -11.4640878928985 16.106235009965
77.5302432726654 -10.2364761341134 1.28090807450462
174.089477819399 -12.5695422986362 -16.1412118777188
212.733221448404 -25.0801675759381 -31.926820191406
94.036205259865 -0.433864459037001 -3.24734764895451
-230.174911398598 -25.1211585382447 -10.2302677396421
179.170622461095 -27.9460560288853 -0.970401788638674
-215.803921412232 -6.59081586254018 -3.70253836639933
-171.615872751473 -5.80130109905467 -15.9061922592806
-141.591237181661 17.5636589616324 6.22875005913921
-47.5478164832956 -0.322946863560326 -4.24079087996925
-10.3447138658548 5.09276575596792 -2.84564065303742
-222.515189267837 -39.6680069094814 -3.14924333226359
-42.8881681129266 10.7748184239795 3.9229686384135
-184.762792087991 -0.193678252650047 -15.1092074282083
136.713789283822 -5.2449010494414 -5.33128156613457
219.305851522634 -21.9439283422108 -1.27163000209626
-62.8802500143606 2.43844769480519 -5.74764162339795
157.389548448801 2.62010519014676 -6.54662929001243
-160.103227796626 -12.57410930898 -22.3760419561132
-13.9470603411816 4.47066090740202 -4.02356246618268
-229.226747518406 -35.7681225341472 1.48645999996245
128.956841738336 16.2630227833298 1.26654390124633
64.6963743490906 -10.925920835467 19.8317346467531
-3.1452669316654 7.59096683562965 17.6960932121488
182.890670921531 -28.5756838348226 0.246070242342936
180.036208418899 9.15394370570985 -12.3871596475096
-65.9724734101391 -6.91479130768718 14.4355843688941
-163.840852297594 19.8477633430308 6.91619148316588
201.82747133914 6.50942789676993 -9.97427063270622
-210.561603412115 17.1704738764562 -4.238868564445
-146.581628967932 21.6273965551182 2.01890408139014
-173.282514932875 -12.955843013943 1.69133806971381
179.392659428602 24.752945368807 11.8062830218295
93.9594001562369 -17.2948481878645 11.5380076233563
-175.621315901302 -3.68760224253699 -15.7136987415966
-145.422134136092 -8.00217715404554 4.80655833367983
-12.4446030459722 0.211229923885644 21.7456666763176
-208.1209440079 13.9091926339643 -19.619616909938
-163.046368255256 -9.22378663387212 -2.32312750789707
173.797777800564 28.6028198504031 -5.35999073127347
113.535137217301 14.6177493020189 4.53201556834388
-126.456489679006 1.54395096690142 11.1074878847817
-120.003307601936 -6.72662714982593 4.61683522078772
-40.7362180743786 4.01773356152045 -5.00115332788191
-223.11850104629 -10.4629840353134 -12.7671757983431
-171.033945062912 19.4383811714665 7.91706884306689
-121.392930402194 -6.31706398929342 6.85830245018744
-161.604192771918 -9.27427467367351 -0.369849443201753
-212.149116290335 -4.79119794493466 -3.65204160833506
-147.307737268284 16.2353091403957 -18.5632041076676
178.993973086285 23.3041639369366 13.7824169014417
-126.361794279621 7.39128071955014 -12.9171813222839
191.037317353282 6.93168668712895 26.965831914012
165.977817143092 -23.1570727201369 3.27672296275621
185.158335524362 1.01506071253016 22.5927967876454
-195.353481245988 4.07455150558294 -12.6796373404947
-192.284631393691 -16.979650664109 13.9839754266287
2.98098442182211 9.03276077418945 8.43842726233775
16.4823467222512 6.9231153877524 2.60605699491416
185.746318257556 33.1797913391247 4.60996934800795
-179.019761597895 31.3687430466515 -15.0664707706338
-154.713225127818 -8.50936639019481 -23.5451565731696
130.277290975058 -20.2799357440662 5.06685809821639
183.469903153852 -33.0454585987383 -19.6922999361848
-63.5180298250772 12.555496601875 12.7679793943377
17.7066268495606 7.33144210365192 17.9289308983246
-197.315650010878 -10.487881925287 17.6531143759951
-155.981673237637 5.07904695565054 -22.0829612863801
200.861903248406 29.2819710277796 -27.0457883026275
-196.268481724089 13.7205107716054 -23.1628861853019
119.736832022086 -17.4427389648754 13.2024123257163
175.776942315701 28.2670894357977 3.51312961454614
20.0992521881924 -3.67554641873845 -1.61149503730725
213.825868173419 22.4548792368491 8.39533207334961
-159.234128772268 20.3722340092905 6.05657701855975
-201.617560708719 29.1830929247829 7.12091630047948
81.8462959027805 -4.89080993828131 -1.80482869056275
5.07232562536683 -4.82173983049134 -1.37142053317151
155.713941510223 -16.4533171458616 -9.10049484710202
42.9818072038855 -7.70144800087855 1.59871422807582
210.616113401056 25.1076357500699 9.95690485212129
-215.321551484915 -6.78989261139226 -6.81958806350794
180.892134687651 -23.9530586455078 8.01729742216909
-197.876920392241 -40.5727501705003 5.89149230588548
-108.550108316564 -6.9593998746355 2.18693101328525
-126.731075508771 -2.68111642829822 -9.01493057282534
193.79857937682 -5.67736235997044 -22.232500097439
221.780138649469 -20.7738688409569 -17.7287083197569
80.8570938189726 -1.38665472751618 -3.19702881871982
205.704391183866 3.93271676863526 -7.50390586774536
108.289735773833 -1.6853962140925 23.7015773032274
-224.833974701939 -36.8593862880779 10.3342371969239
184.32856205948 2.90092400075983 -15.5469531669985
144.470339383614 -7.49924949693081 -6.29898304441627
-20.0189164730156 7.47714688450922 1.99796119945289
123.216373041674 4.62100602953397 22.1380700996018
-194.216820979196 5.34402449773325 -12.8796857003993
106.407629380702 -13.3650225682115 -0.228658035542239
180.827715178224 15.0016140323219 -13.4244860063043
201.068769568818 40.2278656273832 -22.7745786126924
129.045477454719 -17.8288039490514 12.7537310367158
205.617700296403 -4.37590360258294 -18.6507707217098
-192.061055416718 10.2271831963674 15.6875397696318
-189.84421924426 2.81964201729343 14.251533378167
210.776927932306 -25.1873060243864 -33.4068196533242
205.845947371338 -32.0114068901793 -14.1044612364129
-189.362697599919 13.455730866523 -24.9119851725609
25.3207422967751 8.76844906853387 12.2988046613843
108.137796024326 -12.6623031062327 18.5839405528626
198.67344373533 13.4207293422576 -16.2252702090133
88.8379697156505 -16.1168985132647 4.71083706381535
-196.860023877345 33.0010914834141 -12.7066944912524
184.93639543672 9.79563359601196 27.2577064667716
-151.093677981114 15.570280710599 7.57864066415363
220.539847101773 -9.77508691032769 -15.3367394562037
168.556299852514 15.9089747309125 17.7227295549092
-231.99071792969 -26.0166750463336 11.2314015139324
-213.222983517492 -43.1628313439567 11.9921561388328
131.696699844151 1.32698863645341 -4.36535685440711
-43.5749910365738 -5.05535667968227 -2.09721953394237
99.1130692980144 -1.53677621376036 23.6321331745907
-158.393251073632 25.6296078381923 -5.05099401208575
190.311329229622 -6.61124737456918 -23.9662639546449
147.240040848523 -17.5214361055922 -5.39545446540797
-123.02588806772 -6.06376090359266 -2.8502792945895
200.27048732673 -1.94764688770775 -13.7013822744107
197.372053149808 36.4681229876451 -10.4744342253731
-197.774512642549 5.23149931649453 14.9251665462638
-27.1545292559614 -5.81035453852077 20.0983443531493
-126.254460586391 6.29004682472471 10.9670982536282
-105.90853036997 14.0335754325159 -7.32750901987936
194.597204172486 -22.225655577213 12.8123478433404
80.0434627904144 -12.3771109126066 2.4564131854809
136.693499628152 -19.1815283526838 10.61134100588
-52.8122607547249 -7.77955191918831 0.325733486475937
34.4089479556431 4.27454717753337 -3.84427172807333
-56.0274573776322 12.4026223999056 3.44415918830255
-178.504639781894 2.43741954469149 12.0273940039699
189.206113649125 -21.3963557175525 13.8173626132916
-131.072980070284 10.6915320486314 9.80567324811061
-210.830822548721 16.4755140634672 -12.5405499865887
-199.531143471801 20.6580148288101 12.0713455795079
-68.0064975996205 6.19716223181138 -6.01341920864909
202.355696883364 -31.1114479082655 -25.4500260769084
-177.082876716007 34.061976088033 -6.40084885333979
143.859509763218 19.1915475028716 4.27794471711614
-49.0529477944933 -6.25624659404779 -1.11343594815388
-201.271196419081 13.945036437788 -10.4759384793562
214.249805831573 29.0259040491871 1.33860466463524
170.350647018099 -5.65527506702609 18.8490193679642
-233.779715707103 -25.8447116466227 0.281504737730882
-178.185917601006 -10.7047876520783 -10.8799814588772
209.656234478129 -14.4320409495236 12.6284870936057
37.0653915779817 -5.39043066676507 -0.23515127880464
-53.6477945740373 12.4163751527103 12.8647158000139
-161.519871426634 2.34188907370202 -23.7148149857523
57.0887500294144 -12.6901767910025 18.1831522689047
185.348078113963 13.8558395179029 26.5985260793643
205.442572066734 22.4552114109555 16.9270324161558
111.173070868675 14.4804673249657 7.28810739964272
-196.334633140048 -36.5874366843282 -6.12681295871589
-23.1064397832088 -9.51775545797417 17.600281792058
-136.000699008156 9.97612149041783 9.65740393582055
-181.330874577598 27.5093589287365 9.32684747159001
218.105078509161 -20.1092607066965 -30.86320509902
-195.125555098483 -21.635067489619 17.4133958498501
203.422357008362 -31.8295581186622 -10.6178660403299
172.306310075878 21.491575911727 -9.92624133358816
49.3074734163602 -14.7700115603419 14.5449578648414
-175.727392265794 21.0729441632212 -22.5351785383631
168.943312767859 19.2166994524154 13.937018391798
170.988569689158 7.48856289823807 -9.04717565585861
169.777046993268 17.8852703780944 -9.22909215141593
180.041333262246 -14.9014320297685 15.047956829189
212.990569292954 37.0837005596691 -11.7921261601616
210.362110447025 -0.573326162026429 3.45452576477004
-195.331157664596 -36.9016796219949 8.33526256187956
-219.191144056196 -38.9353838393132 -12.0220286199799
220.516662317838 -12.2351783661303 -9.31926190588455
68.7054591544951 8.21856893907335 1.35356294011538
-202.560148069431 -20.5556470875114 -17.2739242563436
-196.784593171407 -30.6515021566677 -7.52884750740151
-214.098635014217 23.2467604600181 -13.5496789833898
-200.023924313453 34.223182238593 -1.52979238784115
-226.884085518222 -19.3536892292851 18.785822722399
179.823358786562 -23.3067998558369 -20.8401687547574
-216.607291082212 -24.8282777895344 24.2105657177886
69.3161585695329 -5.65297935031485 -0.968117956044636
75.121156366027 6.78306145272205 18.7013035626261
127.215610606914 -14.6489290867214 16.3970640949064
146.306040645788 1.97637973911928 -5.33944998897794
-21.8276472775708 -11.8749239071689 12.2780778477049
114.166174831603 5.39317606613618 21.4636491594969
-200.872601689043 -28.6310109156112 -15.2471055815073
-98.7465621016383 0.068766788534927 14.1680348029033
-132.866787695673 16.3549566096113 -15.0217393670674
-201.42755132168 14.7768024690245 -18.1310820150996
213.860994500459 25.7454497026588 -12.4544440618442
184.329832308931 -0.354643833249642 21.1067592707604
-179.623233870464 -16.1590621276389 -2.11098998804801
202.196190069478 32.7803197744063 3.95910633084519
112.901735210333 13.8095743334114 2.16301907011375
164.805959257422 8.46572323391667 22.480978902236
-172.064781595366 -7.5265430797434 9.29665916013238
171.438215249726 -25.4506400679875 -9.62303617000617
161.047460935866 4.80430860066769 22.944820786677
-154.737235582129 -2.51493846663374 -23.5072347493656
183.901840401082 0.105553057194979 -15.6916765541368
-138.170373663657 5.74492467770558 9.95370677561753
170.1319529231 -22.4237078368232 -14.2877868852249
-163.412095970774 -11.8161366717075 -17.5740019373763
135.910360626738 17.5656573037703 5.85298112085114
-150.806727370918 -8.54983076401885 -13.6365691049778
-75.3965204422697 0.140061811562401 -5.79427917835213
174.099925299544 10.6755222013529 23.8630052775564
-213.458967433792 -4.55864299112731 -1.37558272764068
218.727832150966 -24.1827195771828 -2.09260174546494
176.614191555522 -7.65465271410945 -13.5927574167733
130.969961244856 14.0525102579369 13.8040715804134
-109.682055049619 -4.36872708055911 10.8674067375356
-60.0064404599378 5.20613015316052 -5.64396644012052
-181.973349469822 7.77416230481309 -23.339588306759
179.472182535989 8.11321555429923 25.7364259714122
-195.25665465936 -12.8151912663801 16.5262686206495
171.796531539199 -15.9045965063601 -16.6168771976557
195.993010807462 10.2375064236143 -15.0724835795676
214.809665097782 30.7755694971084 -10.3546577909351
-176.661887141844 10.2995119869511 10.5941595166792
71.8257198416248 -14.2677677328684 16.5368433328535
-206.540198114659 -42.5848661322169 -8.24563049784796
-95.6632007992219 17.2788164717636 2.65568163217818
152.830797554672 -10.0314149543401 -7.95174192910313
-94.8781744765754 15.5711402407275 -3.25844170091142
17.0058623704895 8.52895275268131 15.4366011027635
12.4322192993982 -7.92491820621403 20.8009957381654
199.983995455342 0.587029121629713 17.6104856670685
-125.285596008233 17.5351247869632 5.54799929782238
-45.2981936386715 -3.54366970801451 -2.97533047448819
26.3462160560411 -14.0923953010026 9.29969814077102
-181.69876390695 23.4826316376722 9.00629360704614
167.406202644542 -21.9236739752244 6.37693035295973
-193.050026864317 -32.5734196584752 5.61331963460961
-82.3358799079622 12.8005484139436 11.7439244319144
158.024189707729 -22.6246904239878 -2.27002649967252
132.63255090529 -15.8502338469902 15.1846665898639
-155.020575563688 -10.2487489312641 -12.1536400232187
-175.758463951267 -14.2305389394822 1.52370098712667
-22.9509428243801 5.28869270018284 19.6117264502129
-53.9454822931068 13.3708426451288 7.2417215048691
-125.662264608359 -5.72059290146273 -5.02067179481972
-186.79844049642 25.0077961965834 -21.8716689095119
-117.861629469248 14.7579023849304 -10.0365684905197
103.730573149299 12.5446886552146 12.0412577395101
-213.96171412252 -4.13788575040642 -0.382411305715126
212.16309429036 -24.1954156117483 -34.4996657110646
-175.747802144291 3.88742326941439 -19.4135002704949
-73.4864314420821 1.1680915801821 -5.92357737118872
154.637744189307 -1.89773792873235 -6.80824899230099
-212.75839287193 -43.2203516872223 -7.47410313792637
218.044778595288 -10.2000416552632 -2.27932499499176
-43.6713668612203 2.56111904298027 -4.6002236076017
207.472616501468 19.0675536167678 19.7307537014529
116.616158613809 -14.4968966336182 -1.05307195642925
-193.515432918985 36.6408194842215 -2.72825186122525
217.219994094979 -24.8920287398548 -26.7393861092182
133.427056882635 -1.3141202878536 -4.87494249945901
-172.696553966657 23.0984595003475 -20.023514771021
7.21153228304098 -0.0856338212528222 -4.09037923507191
-206.180596549146 -20.3009528513487 -19.9288774593123
-153.335908999858 -2.91388347576624 9.25539468599964
185.401341871579 8.3410842601436 -15.7386904197875
-181.09380667511 34.8584300299451 4.20008762876582
214.976475351227 -15.7090729361142 -35.4123727349981
6.10732143747767 8.78844348666397 8.09818612070464
-200.298991117891 -19.3273460610872 -14.8313780076372
-77.6029984279527 -6.3306790748948 -1.14990087204549
-125.370514627106 11.4485321793533 9.88133305140292
157.901239941021 5.5170166892441 22.8656217579483
-172.914875662314 10.9041526646919 9.5896877043034
192.445684236379 -35.5650735675524 -18.9017788376852
209.405473733327 -1.82853543670062 -29.5667107156057
74.806962909484 -12.2018802522131 18.8539276355874
-215.330232788564 -4.79608131352557 -2.08470796757702
176.903755620702 -23.5276307082438 -17.8571383665517
-165.74323427502 -11.3226983388717 -9.77847689544889
-152.462325581964 16.3091254979395 7.35116081005061
4.86530745142416 -8.04494110272309 0.873738025788197
202.769029718327 30.7569306503011 -26.2973101206608
-20.8421036279203 -11.5275627686214 14.2094779454387
-202.817495331303 4.2113251833563 -7.65224833018281
178.606399515634 12.9104171399756 -11.6572812717438
182.086430036934 -32.2519876478846 -21.6840947209473
39.8289092333697 -13.22869645793 6.56303651550691
-144.416781985992 9.81910538053621 -17.8906849642658
188.845742092849 16.5202373667061 25.6077788738391
210.794897883918 13.4901537378821 -10.192293858415
-170.072855040949 -11.4762136324612 -1.6368403315083
34.5435294401704 8.40670588587185 13.7515710609539
199.572168634575 -13.9411254323832 17.8969533535184
-163.278329020019 8.28653306011705 -23.0835897914726
185.425432085057 -31.8057415778451 -6.79880384265528
-163.863085288624 -10.4013613078563 -22.9612749646757
-201.26063289155 15.2522573603913 -23.4605531061922
51.6747461764202 -1.76811691714724 -3.9277510015166
192.571421533738 4.39180985487526 25.1200953827713
9.85980659509796 -5.10035517570908 -0.899842160938368
191.187559292564 32.9121522404023 -25.8377760878616
180.313756502203 -4.60626104709434 -14.7448740739772
52.8096177136579 -0.294167268130116 -4.12479151574753
-64.0504194666751 13.8357080515359 10.6214124876866
-54.7741323186332 -7.24026243338711 -0.222490635697211
-151.651000965285 20.6108915390574 -16.9078303951171
-206.741011065541 -42.8154312949061 11.6796805925481
198.554956242717 34.1523460396422 4.07519581498021
174.465746463427 -4.84228251691144 18.5816354180268
77.132828441045 -12.6487695313439 2.96437940315526
-203.349279468422 -43.8153858740306 -0.894892555361624
-202.831540139151 11.8973427310835 12.1774593105598
-127.462608121838 -6.08298990665168 -4.14226676052138
7.2888744996864 -11.3933319802472 17.5084068829324
194.440223148781 31.519605982881 -26.9567110243542
166.288414618306 -4.91093513831244 -9.62401057971987
60.1116944508417 5.26142797247904 20.040648704816
-192.997599990727 -28.691815041826 12.0723105240155
-165.221259129508 22.096646451194 -18.0956530184261
168.726641632638 -12.6743302140248 -14.8232870671954
-198.304854664631 28.1609710322183 8.35941241225064
-198.391687505951 -18.8922000127961 20.8316910857258
-129.715962906525 -6.02332248394937 -4.83706925120527
-221.34985804697 -19.0933209862396 22.4950524871204
190.512642469443 -34.1872557254751 -11.3416551160938
22.5765114073574 -14.0241881655238 9.98104336230222
177.152010522801 -28.4733514424145 -5.99598667256664
141.156172349293 13.7238129418913 15.8684689439021
36.6406103961506 8.73019117833704 8.59340624508315
67.4284918209878 7.19285236596851 17.8746783174565
208.380444090536 -22.768109298925 7.99256474500456
157.133679311087 -9.63078208560332 18.244879942661
-3.46263483437621 5.12977582890504 -2.13617914079406
24.2966073849037 -2.4847976958698 22.7232897328497
-21.1904986525559 3.13410002223058 -4.34926776348972
-188.609431450067 19.0653021115729 11.1005622010013
140.636938446475 3.68046517861314 22.9832289537653
-157.30848723083 17.1735210377593 7.32686935925891
-171.129851040205 -2.34164455344734 11.1202548425014
-205.167595506229 -39.7988555323494 15.6352165449266
109.908128591171 1.40034056267171 -3.30393262218716
-137.875228708614 -5.14801787228931 -7.76711870542733
-204.000359584139 30.7007926105845 -16.1531101665383
-112.467737189605 3.51961707968732 -10.1120564437843
171.388736093409 -24.8612822532771 -13.2518246487694
100.371210925794 -17.4817867553821 11.8431014671585
-206.970855722161 18.3054534177145 9.55853806350868
-155.864221552953 -12.8161143474012 -14.8008327634184
-129.958028740117 -4.82022248416558 -6.74502311851968
-75.4077744977997 -2.42604996504807 -4.51628651597775
184.795501884867 29.698133759748 8.38031335529189
157.695800190446 13.8960399586904 -5.87038231471537
-43.5726894507685 6.17455946550993 -4.49545634995745
-143.799402533193 17.529682984539 -17.7283034712913
132.088537164629 -20.144879741142 2.93739013055062
193.207836190881 21.0021657146231 20.8596412712408
150.367285989835 -10.1091197543439 18.6224306597372
-37.7091549885899 -7.36591597963405 -0.768444435031776
-7.51039159670269 -5.56844562248579 -1.52127211492718
119.681341417225 -3.23348965905605 -4.16123181299307
-196.354736044188 24.6830872912711 11.1214450974501
-207.127460262322 3.54021799715988 -3.63869359945178
198.421666663347 -35.0830077641522 -15.276634532574
95.9124298418862 -9.25688880155788 21.2117646338578
169.436008452069 20.5089139785963 12.4612933722691
-211.589230034434 -14.413511564932 -18.6552009475958
-195.27571725879 -28.5347739608488 16.3611218948181
-195.409299809677 -3.38533594020768 15.5858106685456
139.716349667274 -3.3970277227291 22.6018870680164
-4.32341704628518 9.31104469697124 8.43958335637247
150.332993114322 -7.70035026433203 19.9274360769473
-154.780779088963 -11.3526004104631 -21.4341893841298
190.551363073328 -34.7277812277652 -23.2629414270829
-168.358422309136 -9.98067187738117 6.1936351384251
192.905611487838 29.7221873429223 -27.1237102118964
-152.460465224828 4.10947970489432 -21.1421686656383
121.555993753641 8.60536713550843 19.4791544770726
-189.3796772191 -4.93062413050263 13.4969972926535
24.4458436390273 6.5127926413083 1.46290546308198
80.8100486567527 10.4482857012516 13.0196686118934
142.967688479411 -18.25829878706 12.2575213837629
-190.104167171453 -23.4271238573793 7.7807954196226
186.065348826066 -15.5530714853373 15.7891280901501
187.600030342304 20.5941404644943 -23.505041408511
-221.011127690393 -11.8056060370514 20.272036011316
36.6680423695439 -7.19041004662722 21.7396402344464
-182.570942822119 32.4644403740328 -14.1443205566456
139.776909101873 -12.4297894281696 17.7440516283966
-67.4040328631572 11.1710520655612 14.018828347401
-189.943026546599 -24.8120062441582 1.33548525036339
-191.840836964549 -13.2981762066012 -11.7399697118797
19.4304020417336 -8.07538542921466 1.93691227239649
203.950123577982 39.6817006071595 -14.2826887923371
-86.9941150920668 -8.08228621064039 6.03948878532345
164.808854124111 12.5422752237767 -7.37524990486114
190.346447185782 -30.6541856646281 -29.65561650666
-192.1329346691 29.2187177809505 6.76817978615835
-167.961906188209 -6.46091345469422 -19.3936046163408
17.2623740393201 4.97223699156091 -3.35525866450684
-73.7623153179529 10.6222289349161 14.0691674410531
146.878171832636 17.6538113953612 9.84861071932744
-103.992139692456 -1.50087778574947 -7.30442873542624
-128.630514907755 -6.448888807973 6.55674247326406
-195.463624673857 -27.9658499348861 -6.63452255140492
204.545820940376 6.01364312424649 -8.57028250571199
-205.514007992339 -32.6164666166571 -17.5684298392515
-156.791703222162 -8.32227834860731 -3.08687754873416
-36.9423376819673 1.93119696679066 -4.7317201281097
-217.80931817358 -13.6868020513211 -17.5668829503583
190.244028993917 -31.6460853387206 -2.97126614451836
-133.619764157858 -6.63097651277619 6.28866069672375
-198.56066612162 -40.4136284548315 -3.89372094255142
-204.823954817454 27.1144380060639 8.30684421095419
28.0180992408012 7.73039990782587 4.3849860361175
160.332045936733 20.5378450914412 8.90330317785538
206.07729209906 -27.8495906098135 0.745726035054666
140.832733052527 19.1826088010696 0.663824720434012
-85.8279072278639 4.69885853748039 15.8431295654322
-168.684531869954 27.7775901079673 1.5929128432018
196.890100859983 23.9860802934727 16.8213359537418
-84.5239505837802 16.0779292912157 2.89252552151665
-218.451383515397 -3.51140639505096 12.6420519017918
-89.5959916074731 11.5665210598513 -6.418928692698
194.392960968771 35.7454250916237 3.49309933950522
-183.226429745623 13.3736875877001 -25.9205109254814
202.61146284652 5.06929203861052 -8.11764008834498
-57.4521829553646 8.9360873071535 16.2111216158843
-98.8337633470355 9.95984265205319 -9.20004009108668
174.645689899546 29.1329863258467 0.428540706281671
205.13203372086 31.7452270801737 3.60563746809527
144.170467887856 9.87387362688334 -4.40661996518034
-198.927480279909 6.43048605066539 -9.94063935653904
169.130779538787 14.6852226932677 19.2979808653893
-150.766672883966 15.8164686159778 -18.6909333892591
13.1802083223055 -12.3702413867994 6.35966305224655
-152.987130790488 16.7930346932557 -18.690738790868
