180.301424954147 15.365155904915 -16.8831883555224
-215.056461794214 8.29503038404435 -9.22536208458087
-11.82563657259 7.727406335485 16.5797351671019
-165.293225245175 -9.55411477801012 7.85899626345655
175.48391604664 -27.1364085324271 4.87282233269514
-195.408051796515 -2.26555602864001 -21.2346195410661
184.944578907546 -29.925974595043 10.0003405863804
-188.503899636795 -21.5805113094854 -26.19514660957
75.3212615761349 3.79720442008679 -3.8062059976266
39.3281772949237 -15.9424686368089 14.5228184061211
178.85478210703 -21.6154555719218 -17.1313577077673
208.994146896236 -9.18408183964502 -9.48411293822259
-126.445003413542 -1.07487766988265 -10.3455482604056
162.10382104964 -20.3848984178693 10.7207326254769
-101.727914224918 -21.4998697686493 8.93665920597832
-38.7201066067213 -19.07459492414 6.00945673118934
68.5297557567669 -10.6611399466288 20.125425635739
186.538431423826 18.2486201409673 18.7723894981898
10.360137055045 -17.3002128669733 15.6301424703201
204.459625442475 40.5413519937931 -10.2532936814876
-226.834911504376 6.56961162182762 13.8162755961977
216.716932660768 32.1116798751478 4.04452133957343
-215.24011802335 11.0800429512202 -9.97648588474826
190.200142664124 35.0105383453055 3.01903879801624
214.811077679615 36.1323563460572 -22.823968577493
-101.209523405648 -13.0800204111132 -9.6655884955965
-201.01323552443 -22.4065908149508 -28.3202480747257
-225.77005860243 -17.522130823081 -7.24766945376169
210.284651020568 -30.0033610595171 9.60547398150166
54.7127343854941 -10.3874407068356 0.571364188774054
-207.889989064222 -34.6033034892697 -9.44123454316004
212.922686871547 35.6864351513406 -6.77306264829105
219.55618347611 33.7652911970833 -10.8244430907021
205.259630224906 34.6305134812353 3.53540506822757
192.34470621975 -37.4459639981531 -21.7242105434492
-28.3653944282357 -1.23824760891163 -3.73858129935715
174.005791778782 -18.9314856991681 -13.5800777661444
193.159026162204 36.0288468631923 -30.9896370210668
-96.9970362262931 -21.2908932438963 10.1120466012168
213.488211762165 36.6853824702988 -13.5782871499061
8.28876568122227 -15.7861534297134 6.10989640834515
-199.373200746682 -37.8875833350647 -10.3855544738899
170.644458598194 -25.9745354751852 -3.70890070100681
200.45830613195 -3.65300815564144 25.2438768914479
-208.565353300876 -3.22308007015866 14.1838385921816
216.57324142295 -21.2337214222263 -3.20695118394567
182.230868161075 12.4703016175645 18.8233450694903
-201.094534510656 8.06759029927346 -11.2303129510152
-189.952585269988 -4.67250208420444 -27.0312848208939
210.18859699771 -35.4188034725832 1.38500296897158
165.451106466172 -22.7082966592982 5.21623531753996
-203.074918897024 -22.8954911050992 9.81183091426453
-245.33043232917 20.6530019486615 8.61741705686648
-105.731552395704 -14.9904876012202 14.850928219332
184.785734272401 -40.5391583367311 -7.79785446262117
-22.8656906209368 -8.20218125868612 -0.982095087079805
217.107204568762 -31.4022613691272 -6.35042661010944
182.69360779202 -28.839124590446 10.6652797620173
220.616610529181 33.3252399409447 -7.4596801680088
-230.720663642424 23.3249190649252 27.7232835413666
-203.201118850695 -29.2885803514684 -22.4526106890487
-213.616929158267 9.67495134065046 -10.1748122761149
-228.780652671282 49.3023024342392 -1.21619756231554
57.0494300162822 13.0024739825413 12.2747825747838
123.219331282642 17.8686120164358 10.6715545666354
-45.566993973808 -21.2729301662086 11.9730102735221
172.41447994429 -27.3706370628998 1.20524731968257
186.423680737526 -8.39096361185645 32.6420088718473
-155.780923804703 -15.3616276697074 -20.2071047248611
182.39795904146 38.6248255141265 -18.7850017236181
-78.2173950163863 -20.9696801846337 13.1976990831607
13.9181110293943 9.85704216355715 14.9578203045075
-228.99210087716 47.9124058380336 14.1553867766657
16.8656941923203 -10.1399933091057 1.19613516215577
183.791542689743 -4.18675190215672 -15.2510394026994
62.1276159715096 -15.2245160467842 12.9275447681386
223.629776081259 17.8073636362502 -7.9191078502619
-155.106916174513 13.8816287449233 -11.912558272902
215.399159059698 -34.487667168351 0.158073628714124
-186.406782009419 0.471017967123398 12.7980808117046
48.1950787180912 3.10140313739768 -3.73490347098987
179.129332813049 35.9499290297632 -14.5257632351243
198.159071631191 -0.226825288730382 -9.31429034119867
172.173751538537 -20.89997831045 -11.5636475775564
209.335722547872 -3.08601452889333 12.9807508149634
-16.8114016107704 4.24189470286925 20.2170546126341
195.378334917546 12.9703659611199 -29.5247326574738
169.262280955011 -20.0205971423955 17.0686589001
-102.687577678015 -15.0254607094822 -9.64588344903667
1.34480659331569 -17.4406646971281 16.5541658318818
172.377387974021 1.13005047329743 22.1505116689661
174.067376566003 -8.98374053454788 27.8526212156152
-160.385192863955 16.2951377222039 -17.3892580677779
-64.1363728187508 -15.728904840991 19.6066606626099
-161.635650899388 7.88153389409277 -21.0612925975473
199.997064072328 -18.658860101346 34.3103367621314
200.485984558058 11.8394346393861 -31.5940969966817
-109.989863935071 -18.4542675258831 -9.20598959661849
-242.999105909435 28.298348966414 -5.76912246535227
198.018356832306 40.577941701623 -18.0250497571384
83.9701388912969 -12.8613046799274 17.5399510432256
-193.402484161501 14.2926653554479 11.4030169670107
-110.978402384987 -22.6406165630039 -2.83346308506932
-16.9318639245057 -1.28572952458447 23.6190902946102
-81.6793084965573 -18.6973451089816 15.8484549647923
-195.650939676388 14.8539383919014 -7.82327979483657
-245.621419780775 28.302302338037 -0.782430939080357
94.0181567979844 8.153296722549 -2.1539348329678
-84.4738568640305 6.10515774090464 6.38549258892316
211.944517120173 -23.6866652812896 -23.438817203233
188.450481525582 9.52691713952817 21.33961469978
-242.981697275605 36.2289193466783 16.6875607185596
-228.331383810736 15.572880341306 -10.2470542185755
204.864495497751 -9.99122765487181 -12.8880509238742
163.210969018959 21.7209118437848 -6.4901726165967
91.326763349103 -4.02166749605837 -5.09735323780202
-208.000306486643 34.1256404423907 -4.093310278472
213.057519020258 -19.4484989343856 20.6893046760147
-138.54527133495 5.98679747908427 -5.03083499188248
-74.2226872559392 -5.18121373121701 -6.87599050086409
-218.569497159424 -14.4546517454924 -0.810955329825989
-169.759264241048 -16.6826662720083 5.49265576708703
9.96458495943581 -7.47512794093385 23.2477005915272
-231.095142677692 42.3049366319174 23.3098459291114
214.222184032912 28.0866184581871 10.4885461819089
165.956679402237 -10.661165114269 24.2307504486751
186.938589832193 -41.0391285026436 -7.36032133837212
99.3435380179369 2.96132444444943 -5.38651183847255
184.319042454632 -35.3887710326944 -16.9968044660749
-83.1110542580183 -9.15522047636344 -8.45326774877869
-203.491306645099 30.7696444243009 9.21387392430327
-193.522696447175 -17.0521894207603 9.69628098184791
-225.75844465848 -16.9502300224163 -13.5071703652614
-243.296756949751 31.7589035063599 -4.93386714382468
17.6607859791948 6.79489466952276 2.2943776024152
-12.0820994221984 -6.62797459566373 23.9722077816615
216.816112376225 35.144367220674 -27.0317856245656
90.7148085526249 -9.58194990533313 -2.2355932348831
-211.188193449007 44.384125831689 16.4107492830347
100.776905845714 0.728820064678048 -6.04325704765641
140.743800960787 -12.4764004390291 -6.84905281065857
23.6888111217525 -4.31939488868097 23.6374074348186
217.379486844903 34.4204885281425 -10.0671040301235
153.714157519783 -8.99333440048758 22.5977868471003
175.638648972918 25.335274371942 8.63293863028595
203.910601124726 -28.7039640161412 13.9392971766024
157.556965242677 -2.66294997854343 -8.54794533760464
20.4565294596244 -5.85649380124215 -1.13164936358291
-33.7575809906879 -20.0373207167429 15.3379074272077
-216.618830032514 1.81218268500677 5.04782043459998
-214.08455983144 -7.62705322628456 -24.523998091052
204.072109610514 -38.4255853134598 -13.3873235172146
-182.95912762814 0.86885114028843 12.237120798295
118.974971130355 -13.7513360430508 16.1518779638299
170.626967378694 25.739334045633 -8.5345356553644
176.234149465184 -30.6413780428798 -7.90323491219287
-113.160242172765 2.36482304538892 11.6249451603658
178.533393361878 7.56611225565519 19.2623733281585
210.088542536695 -34.2786210741783 3.01167081894138
181.104965888275 -21.6923180801442 27.9965599855817
-200.622477632949 23.975214116154 -0.884241070811792
124.818274881368 -13.6509591171679 -1.80617788443617
-9.04485741646509 -13.0128513009244 21.5920405572757
187.916576768969 -31.1200223758112 -29.8333292778169
171.089643604625 -10.7306271007747 26.2918321026701
-200.953464113946 25.9957635243372 10.3056119647117
-50.7245093078619 1.62535575301013 18.5163780550586
8.97189799333831 -5.55051094158231 -1.3783408768726
-139.777874880051 3.30001800383385 8.44934582268123
-187.038235126415 -10.7707713367009 10.9036439658949
-164.105065724484 -13.9538630891928 6.5473430680359
-137.10820663642 0.5121321836076 10.9227016414627
178.139276042014 9.92976389834598 18.8629754360052
207.766717964772 33.9943683966422 -38.6220231543967
192.324740502622 -41.7294642136878 -7.73657140222527
160.707371770193 -3.55357969509115 23.1426802203614
221.165817592931 14.3275573232756 0.584322776055031
88.0173345932222 -6.26669846244862 -3.93744474630385
197.003575344083 42.4980578106642 -24.2840345303347
-90.5954568825752 -22.4612385462969 6.90293968121435
198.502119447775 -35.0943181117746 -30.4100367475908
-94.7246927234069 3.6915236884315 12.1970646979844
-225.110057908441 11.5026308122931 21.7378597833474
208.108146665623 -4.75086528251542 18.0815278009893
189.018066992936 -10.7395916581426 -25.2211861924068
209.551657985808 15.3429249040678 17.7483311891854
-246.41385152249 24.3784135322453 4.36142769388273
43.6662889688864 12.1514392735253 12.6642860569083
36.6648805375787 -10.4816115628277 1.23755262599346
-101.450011865961 -20.2944299570344 11.0784844833362
-128.585698024175 4.88693348995535 5.91370745151694
64.2361272051002 0.288136495220921 23.0102162776512
-196.406615668413 -3.36739029984706 -22.8822356383891
-229.387430147881 48.5656963698576 15.8119225155861
163.734571781562 8.30719179630249 -9.10454963436368
-110.167090960544 -16.7736759949103 12.9950524591864
203.721013638006 39.9585851932555 -22.1826715801624
-199.366874531078 24.8084593200159 7.45264440577514
-99.4977337773901 -11.9060531393859 -9.76292759574408
-223.920944074791 10.6932977285884 -3.29140005738424
-176.0408186352 7.63316168201341 8.64093738926908
160.401216696528 -21.0611985483424 6.30077929695407
198.560234994682 -8.69292724376216 -16.129663438195
-198.437907928045 -27.8114395819346 -24.3052570914855
-80.0546350525136 -17.2367855422566 -3.89864531222628
-39.8878134981003 1.81983300176978 20.0278488658676
-114.393710990525 -22.6634241574948 3.78003744301739
-102.489996320028 4.80142307591561 9.82531986642259
-132.226368695629 5.82128463085388 0.344896090882351
-198.011516281049 18.9306978441005 12.2774379430468
-201.452339261673 -11.5542702118201 -30.6231288579717
-103.842821142158 -6.15574173404693 -9.94504325415045
-125.752053506685 -18.5812441301401 -11.5578330067293
89.6622643908392 10.6063489439124 0.364704037200205
214.059536696897 5.60253149996806 5.28248769871332
-165.690919744831 6.74465484509918 5.77135115880219
170.782331693058 -19.1839794979194 -11.5854549792865
87.716351548418 12.8555552307689 17.2051080795741
207.476638921916 -11.1022487579041 -19.159450680713
-192.953641845535 -38.937934848543 -9.18542011774654
-211.090500593814 42.9762184036079 -4.39434130168076
170.424281854357 3.27883455026922 20.3622481194392
-47.3093645620229 6.02679178685982 4.6937980114741
135.071133098367 -11.7802579271987 -6.26056308396414
188.603966341557 8.2206599828696 22.8178216456193
172.428736597392 -27.0294483208175 -5.1581765467542
184.09229485534 -7.61138242477419 31.584482270793
-137.898325216817 -16.1686158298083 -15.6302660814644
189.842896009372 32.0427674537274 -30.2154557501988
128.545253973879 7.88594256747476 19.9958294568342
186.87665930947 36.9041874043102 -25.4125292427395
204.875661216669 8.77818842523539 17.1751127257363
152.128141958359 10.4167299457191 -7.33352433025156
-100.370999906287 -15.1583110368155 -9.37129551854856
2.95480344805236 6.61499560080285 19.5732984199527
177.929881411416 21.1044742938657 -16.6596470609917
187.721971797822 -37.7992762597951 -15.0161708838036
-227.314505628026 48.9082528023472 16.2811317011671
-68.4527399398976 6.18319744941103 10.9641266552591
4.68680472714821 -18.127635244055 11.365472244068
-222.898941113498 49.6993711658553 -2.01101177209617
68.578157306807 9.14504762052297 1.43960295487592
105.005486561223 -14.4843880417089 3.15174272882553
51.0201324741139 3.36730689959455 22.7210794496154
-214.436037193302 25.5088788080117 -13.2579555177134
105.62805213245 8.32556549753307 -3.32508877238453
-204.330074348609 -12.9488625734051 16.2620276226417
-200.503917760026 12.2768941037856 -9.51881211424451
-210.527135402766 16.5937536671441 21.1023833175384
-216.35157756773 -14.5822409965519 -30.5497584773041
-202.158202199708 -29.3629495849058 2.63957375145836
77.3684910586737 -14.4312769532174 14.8166910043714
-60.811460759339 6.75591239759953 8.07852091764604
-156.106375559954 -0.839516087312334 10.3357084723847
181.481582369504 39.4125307855792 -17.2574091399279
187.292297360104 -35.2720447362605 -26.4304106749975
189.861001419935 10.9066784002345 -22.1289462131354
-162.247715655682 19.2642891563065 -13.19051977382
133.685555280309 11.6595694290073 -5.52915887551187
-207.390240555945 -1.5141803890282 -12.9985369732716
181.433412162631 -1.71881984426708 26.334901285044
33.1659979616028 -2.21472303618279 -3.26792133841998
-147.750239420336 -20.1225017004081 4.92036297740238
107.034697601188 14.5017526610387 15.7747041292778
-215.602239214764 3.15905807219032 16.0464636668426
-207.992768236002 43.4792319680672 9.53990008801739
-230.518266185848 8.57879470012124 15.3947176542975
132.969888029142 15.7564275386699 -0.988855784997739
-182.808171295794 -13.7059969262145 7.84763145430748
202.906314300282 -4.7232078147022 24.2463198807356
-246.529227481589 29.7053540513797 10.7958259239546
-227.977471795978 49.5082011544723 15.0587675291215
10.7273037750053 -11.7544677410671 2.29331444837949
180.210725576801 -2.63096549876978 -14.0292373926021
198.826306097185 -21.4281701136226 -30.6539316927658
190.553196347997 2.94759559197607 -17.9939390013056
-231.719279164644 10.6651199821717 18.5729148174299
134.960573952525 15.6104285720326 14.6961461467107
183.981661995117 -24.3090803745411 24.8008199224381
190.141254881454 15.0497448850053 21.1199735660162
-107.585619999697 -20.3740203353342 -6.84477272328038
-165.211212300859 12.4505316792551 -20.9963714681791
-12.7805445679084 7.55571204459297 6.21565312739644
-56.8062919063417 -21.0209210090747 13.7582015706782
69.9002716098093 -1.27834706726812 -4.50190656398116
-202.828319831046 -37.5566557844317 -6.72661621463223
-21.2172312150549 -11.8159078060725 22.7431581507007
191.110917631026 7.16775920902938 -19.9628452740185
201.029923784859 38.832104592669 -30.0973787050726
154.326456960938 -19.8582262005719 2.6244440571677
211.768227109251 -24.0804393720788 19.5589771592954
-22.0437689961056 -5.972464002382 24.0389265433385
-106.743437286754 -12.0380068857828 15.8641037469184
204.773589114362 -4.68453394418579 22.4045829324816
-136.280399667977 -6.06273869721253 -14.4331755789075
-215.962375155687 -5.46209744398504 -1.41564878361582
-187.110982329849 -6.02416095476597 11.969559372297
-90.6881182910358 -21.7397447547665 9.99935624639151
-231.071510314136 17.795512353642 25.4672878334369
-191.485835247889 0.0871143546107814 13.0668154945023
-202.365584025122 28.5843960161177 9.24114184752554
171.375947251485 -25.7901928355778 -5.93691375314732
182.051803826176 32.0777506664305 -18.9057898496592
-207.1961398267 42.9816281214764 8.36218692861762
-144.361790458592 -19.7447435550425 5.45239986466317
188.625443648666 42.2061745345835 -17.6708355616318
-220.966560954931 -9.86936407309701 -16.1199812220078
-187.147676369865 -2.87175146546129 -24.9660248371769
85.0724273195083 7.06785749350699 21.209849156959
197.216449645407 30.3669997013661 -39.8727503751129
167.101170008089 24.9644347026111 4.64577626582674
-200.435311532333 -8.31631045746651 15.7443323434349
-29.1550376447215 2.62584660506532 20.3679968253828
-239.418205512843 19.7783189301563 20.8324646805959
-28.6695678213322 7.60567228763718 8.09159265849872
-224.002906280524 30.5865099211209 29.380311798039
206.710398832274 23.2960289027437 20.0475637464669
187.073412481676 41.3356891858704 -18.8980499724712
218.793959000866 27.2658644435743 -33.5241987391019
195.735890810021 14.2296902768559 -35.8851800758408
-80.1897576707187 3.31894510522495 -0.271958522026763
-208.507934329508 35.5671755617345 -5.10361505432756
188.28171686724 13.3383883509101 -24.4630196951916
-219.421690130546 35.8989161037634 -14.1724200068066
195.411122050991 -41.1795006454914 -6.95297779480599
197.641354817861 -0.477615566632768 -11.4967658351057
-226.60194274883 -13.5090902974317 -19.0128648754069
162.255597549291 -5.88685480308703 23.7625322793503
42.0861463130227 -16.0015157216101 9.58429651681596
-88.6041690435534 -18.6418916594566 -4.74048876780135
211.943447928106 -7.57322054752034 -2.21306044381019
-206.069125289229 40.1903496592894 6.24117654513354
121.795116273666 17.0725860977478 12.4809938131988
-131.629322538636 -0.303004703605661 11.7216088108409
187.560760175605 -9.94961739571688 -23.9001796072848
-210.717137605228 31.8819040256704 23.434133420824
-220.449947765688 47.2191567223154 19.1176298562546
-20.4485020109405 5.6307509065581 18.4070438567592
170.253576835867 -26.4119259413654 0.255828189838977
220.420262074776 26.1877563844061 -31.0437677702577
-145.425003728679 -15.8819061156641 7.61300078919699
-216.19871930226 46.009096720766 18.9842840519375
-193.368041449504 1.3446169210705 12.9586745505207
186.118838078482 -25.7271935006066 22.1420013905933
-28.8299594131414 -6.60701186171787 -1.9764962345396
-235.181275790231 9.75475323229181 13.1420397010072
193.601345663848 -37.7337189524566 -23.8695655214314
-220.711818681946 45.210761664718 -8.29277761731958
54.3853822581852 12.7172109102695 11.0886700671704
-137.522564566162 -21.8107970289198 -10.7742166789206
187.553757097425 -0.168175236577625 -17.0701441435202
161.37528355436 -8.46965856517747 23.6080605861466
131.483442196916 -14.0251993135374 16.6044478089982
196.877556244944 27.7923211135155 -39.9507612684533
-139.519229885745 -11.8410003754759 10.6615061191216
-217.464467009645 -24.7833846346139 5.0633369889398
-201.133592373083 -36.9348941389803 -5.66828746806146
113.137912925989 -15.1793732964523 3.8107911149522
-87.5503780852053 -8.01392604654031 19.042230028668
-162.2340651438 8.78326388460106 0.338099102314994
184.622252314618 34.2454314066981 -23.0079907590227
-193.154934699376 -20.4537093982601 6.91238701224497
180.18026000328 -29.4955796619981 5.45881877138852
-182.474784175662 12.3928945643441 6.71605849199736
-207.984331169227 30.5673909507171 21.0307763825478
32.4908219080323 -16.3390930064709 9.43542212614507
-175.961390949944 9.19693108535043 -18.7947661647073
-95.1984995065844 -22.6051287562865 2.66422118521572
104.095363062942 -3.52761598357156 -6.20465771558933
-179.862647658229 -20.2998456424209 -23.8706707172707
16.055977930213 10.353969475846 13.07588805051
-186.234245715633 10.5841542400555 -11.6087078034664
62.7681340735479 8.08454392822626 0.89908711179381
215.312572074795 -28.1689663664161 -18.5894082033265
96.5586669025473 -14.1058061255443 14.9691596488364
32.6003773776348 -10.0811094474281 21.608179779533
-210.20986123398 42.1186680029403 18.2891081038003
174.053301398225 -24.9470676344461 8.88794718196753
-219.5297516269 17.904705826146 -11.869703759002
190.03051157273 39.8793661109324 -4.36092633102873
48.5032623294239 -1.98601270021602 23.2476676516313
-128.203963373027 -22.7165130791226 -6.82031990311743
-186.355397841266 2.03449953922934 12.7630963586769
-244.611880568308 22.3301762223388 -0.622198679297744
173.746604326718 -28.0094125557013 -6.02739205610543
-192.789646482622 -22.2642371845117 5.86066987316137
-112.89687706352 -17.793558293846 11.7816493566351
-91.3774879827859 -18.4083683671966 14.8787259185603
121.677032404149 -16.1522434935234 7.48888747001144
-185.052754983678 -19.2078425644393 -26.0212319940383
193.42735906251 -24.048447795118 28.6710532109675
-241.263020276928 16.5768838439345 -1.83488463761979
-124.780879109097 -22.5792890223622 -6.52101586132823
203.879632251566 -15.2594018066977 31.0070438107894
69.2056869683237 -14.3804752927684 5.5227239416238
113.22185294209 2.87313967060942 -5.79813119168709
207.746760923367 9.44677101189752 15.7551166411106
93.8474406685409 -3.01661067799061 22.7013361993943
-214.86366187422 28.5602900656981 -13.5477868755274
178.925067505511 -32.5372690039686 -12.1922852190103
186.925036648367 -26.7226212881593 20.0770867757833
-51.1825927867448 -21.4734394757824 11.3265441186684
-232.999630417661 10.8811302949877 2.75912096718687
-224.862524594215 -11.8913938481146 -18.6591515567351
4.01931755892486 -16.4789871907458 18.0447958397214
212.477723190274 -8.80096409417236 13.4141676417944
172.639384963002 28.9635906101188 -5.07606136514444
-107.883397135512 5.61291572544127 6.47575803673013
-222.316532442166 16.7268337142349 -11.283605530289
180.289209123485 37.7430847501252 -14.7097113750895
-153.598014339809 2.92486461577197 -17.4706479078837
-114.540205697565 -0.0889652526042884 12.9804090888594
65.4533416811853 -11.4130167925235 19.6421558435778
-214.213116824401 -5.41834586994832 5.97881890606851
124.5180113104 -7.42174821326694 -7.11511749519927
192.708255196642 16.0545708319201 -35.522689769429
-124.314168669927 4.19856503056393 -5.04695490779203
-205.041371563137 -12.5985508076374 -30.3247690550831
-170.39723959895 10.1622411441625 -21.1829216520189
-163.229117558746 -25.2636109194541 -0.995686197461057
-140.867351520606 3.97845944876881 -10.6458041951568
-157.219232625794 -25.1774051232865 -11.4183969326917
198.376533946307 1.18326511673515 -10.0219951825531
-48.4544895449338 -2.4788315277542 -4.30831265131983
186.158636781363 38.1271793549639 -22.7915628369562
-17.4726326925955 5.99207452070115 18.3478997229959
-145.860390343894 -23.358427211895 -10.6190324594143
199.610708462447 -38.5456647978013 -19.5828197306444
-235.890025211431 47.928772366629 5.53991586600059
-115.975856863169 -18.145063586186 -10.3956027149186
-25.8466749081481 -0.394638095172239 -3.57907753877966
-217.691868572462 -12.147688718752 -30.3490954229215
-214.429313209087 -10.803656871314 -11.9251216130554
189.210009609259 0.762924419234118 -17.5242844420753
90.4372656904269 15.3613282731522 7.72883596527305
-112.003304339992 -6.60751167503847 -11.0745969485272
-20.0895482205712 -3.51746897571933 -3.09555054604286
207.073969193675 20.8502316433851 20.39268960499
198.672138831122 42.7000708468811 -12.0345626347151
216.751546212272 22.753041624673 -35.5708646347757
-201.237696886067 -23.1288320291022 8.74876865342957
23.5246431145956 5.5521805244062 22.1442668832592
-214.821419351849 -7.37774288198625 -3.26464622471641
-224.541802293708 5.08862474983954 11.9554654322359
210.509753893187 -19.2007461863732 -23.3360200154259
196.001556753856 42.9802049688942 -12.5154308701022
-153.269529514051 0.749879958387678 10.1851154745346
-213.24233195889 47.5691462138097 1.1101005698858
-220.587786672447 -19.3030354023926 3.17347282540056
-133.701537118046 -9.15247181640701 -15.0739126768283
-212.593841613953 -12.8639235292905 9.00273703287644
-159.483838270918 -19.9877717031708 -19.442378640907
-49.8243140331408 -5.59001521547809 -4.28725621564184
-31.7857883521051 -11.1909027270653 23.0286372196367
-182.717473394337 -5.02813847277006 -25.9809847664365
-206.005397789175 -17.8427053449089 14.8159559165873
-223.378096222872 -17.3779037823742 -23.2873424232731
208.642052817916 -31.6875178340832 -27.0369308163705
83.1945359021215 10.518176413261 1.14613747199077
198.035594695116 -37.7085439368974 2.29627603762421
-66.3382668164364 -19.9799872846305 15.430483905351
183.703600197567 -22.7689186687947 27.8645370509719
211.899037339231 -29.6536680673397 -24.0242305016333
-128.839370011165 -12.9902949411525 11.8238497396049
-209.600061405205 -26.7179690485756 -23.8716491146399
196.89777616196 25.0188342949572 17.7887978581033
-201.912718509545 -26.3198747802984 -25.6181951004132
-113.256149760573 -9.45006752965319 -12.5977962369357
209.251388665757 -25.9673406064137 19.1874630006158
-51.232116264339 -21.088495486621 8.34058817259647
-135.476733478884 -12.6562078993885 -15.8863486175967
-130.277664910046 5.26841905744023 -3.87060763083779
178.384008621952 7.72847941313046 -13.8540199831949
-244.064678468216 39.3979989369294 5.02065476591407
170.806252383229 -1.82985073654237 23.7385260540495
193.881176533008 -10.9257590464243 -23.5735103573606
156.613131338086 18.340483661658 12.6716150284814
-154.303099306876 -7.96315658552347 9.74348629000153
-164.615469414224 18.2793804858045 -10.6303661117391
12.4630039384211 -17.6828338805476 13.2178344426894
215.045673919531 -21.3806679611573 16.119931752593
11.213638483744 -4.91512119960484 23.8162319954859
156.138736254728 -17.1992997217358 15.3380534580465
28.5026168254961 3.90328042132359 -1.48022803784791
198.48208937088 3.15808479304564 -12.7215258372116
181.388665609396 -28.6002927063622 -21.0080144378257
29.7935297009677 0.379829140662921 -5.2395973434549
-138.917791062661 -5.19510890754455 -14.7400826774982
7.78483365025552 -1.4033953472514 24.1487302601879
-207.561078558617 -30.8112200271037 1.86843793101512
-188.192457432491 7.12463662053669 12.6275814178293
-195.660252683079 -4.41605376776557 -25.8025619680769
-137.729276084136 -23.1263271605535 -8.38053621282444
-234.658595292318 17.0827851899199 -9.56166662852747
219.639152616962 11.6571557413436 -5.31832091891463
-147.812494604559 8.62046786756577 -9.38545881452703
-157.086515352545 6.89707054196797 1.69249838170138
210.198767221069 8.70225827403867 -14.6072614246456
203.087850105957 -10.912742557204 -17.8380713511267
-162.777879827687 9.28340240625022 -0.84199616356572
62.1747475240169 10.5151607381478 3.98389888958039
110.051735026112 8.25498178843327 -3.90751198347196
216.916236448517 -23.6238441922019 -1.44217714734043
-49.7471808709081 4.78462889179868 15.7102932723331
-240.694759679423 43.4764792946721 1.82724081189494
146.221560215977 -16.207645033522 -3.30223945533037
-122.253461810606 -21.447951826207 -8.07913416249433
194.957825492517 3.69664942162735 22.7203300839715
-208.082178480185 -6.80252665022426 -16.6035766023953
-157.698534129916 15.9278480468284 -8.98178444223516
-80.1148019329005 -13.5251036120092 19.1834542151379
-130.215496088431 -10.8744404979895 12.4577952259041
-236.732412545996 39.2413999212177 -8.56735374454635
215.684204274841 -19.5202367952383 13.9292446466965
171.508594445997 -12.6149934074759 26.5073046492147
-225.253089970851 -16.3857982284436 -8.34911715330281
177.613570784149 -8.51250088740631 -13.7456764301412
-73.0017481063462 1.2331620331891 -2.48360373586091
67.3912549684659 -1.95883028023436 23.04268185648
101.823938605166 -2.59328182107016 22.7593158963889
160.424586046139 -6.47380824332094 -8.97681390574387
-223.533627101566 -10.6570478578866 -18.9524082242365
4.24537097765908 7.84583613054704 5.08076123108898
212.351127196003 8.5791020309107 -20.9350958758534
206.400924184742 -24.7520886318351 23.8433598133941
-220.087720693504 -16.4021501853601 5.62225724824722
201.278482976433 1.52734906001224 -7.85007808768715
97.7607522388732 -4.53477074374892 -5.52461754620726
-235.593199864829 9.37225330797629 7.71546302023129
-81.6493637909751 -10.6533643782814 19.7215722334045
80.8878743115997 -11.5879089901494 19.0964021936811
-213.37604027536 -13.9070268644145 -30.0775608755065
-34.4051857426215 -4.39389385870997 -3.34753270859472
155.948765889 -7.38377498271935 -8.39723083838689
199.676334376254 -24.7935058277411 26.9149024572131
202.70914317516 38.1768458064369 -30.3029486424446
-118.780421577218 -23.3657994157725 -1.05905607828025
-208.10538022714 6.98605852322651 -11.8307969381318
177.86246208143 -31.141766051618 -11.06956642452
-204.015027611777 -28.7913131560276 3.35439486316408
30.9863582978711 6.66394677246989 1.44394575888407
159.977587975939 -4.42062588789866 -8.93223889165647
185.13183863376 13.1766130143045 -19.7965856470349
-37.5821422993906 -20.9153754306188 12.2050701072697
186.562918174197 -38.1589482708999 -1.32077656016286
-188.711417680718 -9.68483082501469 11.6263519490616
176.400443016696 29.9054322115317 -11.8148529737714
-139.542180945843 -20.7449117311132 4.88018896007118
181.133951916297 -16.7145804786231 -20.0212117714849
209.965872091013 38.0423689721754 -19.6275347030914
-6.40755426787703 0.705090785357486 23.3953218338296
-244.525202786291 38.2524472292033 8.22129553163434
129.626585862081 18.0065334623673 3.56983088484753
-172.833319085004 14.4262298487979 -4.66427169392684
142.9469791999 17.7974561641948 12.4220416668298
141.375656066603 -11.1033463868254 -7.69829622103756
99.4754654964221 -1.3605170814352 22.8491541260128
164.492287598378 23.7674813700223 5.73243328606496
196.980945739767 -8.27699646287731 -16.9145903594054
-226.609495559759 15.1510242192774 -7.38756461853349
150.582850159079 -9.55603074560271 22.1090801401286
23.4454656898606 -13.4574875056229 4.08117431725896
-201.785287702379 -5.88282054237892 15.05351277483
57.4740202092087 -15.2031314959231 13.9346017182696
-151.140226446785 -7.42762555074224 10.2837390132966
190.009538426287 -23.3185918853165 28.5867846508572
206.453687837546 -26.9947801684552 18.2512962341782
-58.3644121723469 -20.1205459872667 15.5503382221579
194.647883245764 -30.3962903791086 14.3085392710113
171.565646919529 6.30081358686885 -11.0530614968027
-208.188123844396 16.6505368409136 20.084872240162
53.6645579278901 5.60804890006443 21.9778964024184
-168.23582962251 18.6486531455114 -9.96605443430625
-162.022522142851 -19.6680034964132 4.47923544692288
165.169162842106 -19.4111045781221 15.1050865996368
211.659399555212 10.311806672829 13.0413324627643
-209.084518912297 26.1722441559659 22.3431976045206
65.1457477298528 12.53156438908 7.177657409345
-202.466551338673 -14.3397555884924 16.4691787498626
-227.151039153551 8.90002774657817 1.7029557064321
-210.03680894611 -10.4368703846958 -19.5825886936413
-209.95818679582 -21.2872881344358 10.3597987736306
-202.903580667055 28.8774242888737 4.23750366346265
-87.0961015212054 2.99058553121979 13.5791828497573
207.381144693565 -27.4387569226296 15.4584815363231
-5.45098459689257 3.87776912724123 21.466900945169
202.305868942507 41.0257412352124 -17.3987561998041
212.27449614924 -5.47624392448645 3.89597531697673
184.132695027792 20.7562733577093 -24.4107686951912
199.296315564393 -10.0968738293888 -18.1619029068618
-106.938594776012 -1.49785373419383 14.2267121522152
52.3360704712681 -15.4853778649376 8.74405195689035
216.626648211843 -35.586892180344 -8.07723117689736
-201.201903433786 26.9297009246956 3.91922742103421
-166.326227126872 -3.21833289395575 9.73618331949546
183.434905672813 0.651625200194321 24.3613161451745
-58.6269788345434 -13.7638584196885 21.0338043105367
-5.04722295469567 -12.3420608455597 21.8103666621368
-146.7162229041 -14.0083597810743 8.43155330475702
136.211882541849 -13.5449915455547 -4.49791080558612
158.552737125711 -1.28388151940098 22.4374022483248
-222.13211179651 -13.4261557469068 -27.6182078060753
185.316327553162 -10.3099900687868 33.2948179766404
-180.71309630041 -34.788886248815 -12.3445334052676
190.295023194093 16.0785799911793 -33.2576140963567
-67.5417843210993 -7.645238421467 -5.68188840316916
-215.225229335711 -10.7196102820859 -4.00474418198173
-209.295465216865 43.834498786273 13.9750202213663
170.410770199822 -24.276978464961 6.52287564777127
-180.514413634296 -2.46971096162594 10.7024196121944
-220.819428389852 -15.0892445855091 -6.31868587393804
188.99146499345 -29.2144285289552 15.477300446673
-215.042774720584 -5.94771828158761 -2.71504519598896
-132.343816214592 -12.3784172410849 11.5520277616787
-224.067214010915 -22.3834970710536 -2.88115020789304
70.4101897501042 -12.0262769207054 18.9469567147153
-199.970690572684 -35.0892135485043 -15.2765087953204
-104.411514045626 -19.9335778854311 -6.77348835404824
163.614781860886 -0.373461607571011 -9.31093859433791
-1.20491516226207 0.00471613239263469 -3.84348943818423
52.3943677400784 -13.4608992095053 4.14123908173219
176.69271017726 1.67553348146356 -12.599835886682
-243.40970582457 31.8973964167596 18.1645037898441
-22.1455404895145 5.15526255475099 1.80579611836602
-210.291287190801 -28.814925456336 -11.0105866450845
144.515853245777 4.31976957269765 -7.05018899136068
28.1750897132169 -16.6018221803928 13.8887966878612
-213.091779888788 -9.57203035027875 -28.2509112189349
-188.965361013008 -0.500121836181019 12.4794778524691
-220.25193538003 7.22505690364886 -2.98779642311373
189.743528199734 -8.86725468447795 -22.9281511569463
110.16065045783 12.7307899372794 -0.549981535115528
181.374122537868 9.9002639279108 18.9394364062504
155.884929743169 22.1809001949996 1.28507559946499
-49.7394814502039 -16.9707431656101 19.3834909644971
46.567009255476 5.52577273871162 -0.671940561749515
-134.893550547476 4.53577037287399 6.398202754297
215.652188887544 9.49269890308524 -17.685057445592
-132.870619243835 -4.04555148109723 -13.4571837634729
-37.0829684112845 -19.51658422223 16.5338839610034
135.986911333553 -5.94887608750777 -7.61355004849106
210.863049485875 -26.2664670710372 17.0711723903363
214.139289625346 -22.8307287851448 17.6735057349281
194.705430735034 13.2401784478451 -27.5533295778572
-152.202200859987 -25.1541623650912 -7.44126762878318
-158.98634449773 -1.39783140572734 -19.9826733180586
125.771838503951 13.7833210365589 -1.94177060968646
-243.310398969284 38.1261149807499 -0.781108004302521
132.552163767984 18.8901396317479 8.7161362130835
176.974608412072 -20.7459203796535 -15.2742620856812
-232.601936356999 9.29432714625145 15.1852622707277
-29.4321308152992 -19.2905503343143 7.59459314898051
114.350126106603 -14.8692646050156 13.2774439412102
-206.625521084491 42.094254056795 10.0126275292111
-200.727230972788 -3.22282068728895 -16.868762152597
-182.495371106919 -9.31135445450421 9.5652160703167
-4.59121079616312 -15.6813542564192 19.4404605227314
-195.496259589096 -20.4984566977826 7.57372179521817
-210.602250454345 8.76223128987098 -10.8842061671267
-210.735647753549 -14.3274945396059 13.8760617279085
-147.366816998256 -2.82587364635968 11.088668450147
-109.374504063038 -11.2581022285831 15.6474650247881
-236.77271705673 40.5442666184479 20.6649696566149
-140.382591443069 -20.4187591463606 -12.9873597232837
-124.128052907788 4.71445064211789 -2.92896179907402
206.375644696921 36.5862959337564 -3.17707135321305
220.22915819499 14.5946121584503 -24.0718062370763
-222.623971038651 43.8404015039718 23.4246202931767
28.1907294217111 -5.32640822721493 -1.52834903802096
98.4775281189387 15.9743534996225 12.4993153657757
-46.710420516513 -13.1060753178841 -0.521631071732495
-63.0281006283207 -3.6869207879981 -5.57440339758962
161.506946108717 23.6498642848966 2.21635119813904
-220.735823883527 12.754587818281 -8.56248051493094
-44.7341140681994 -16.9919895983453 19.4512171735577
-185.33135121079 2.60569141385154 -19.9450395537835
-21.890077452254 -18.58684811467 16.9016837847297
-25.6372636258142 -7.16469348559299 23.9087356341871
-226.890461695863 28.4985113527766 29.3151233446795
85.548878369159 8.51159625644737 -1.03618842671062
111.045149326301 17.1697522644606 8.40403411640749
-167.918885347016 2.89745217996454 -22.198278469384
-213.230648644827 -31.2661019483184 -5.8171430550423
-187.061410158395 4.77385882766343 -16.7170028557038
114.852368753696 12.5904531581291 17.6695864512101
203.516070849153 -27.947815116952 15.9133784782499
-1.15386563609825 -17.3752128546916 7.85541001854392
180.181177309998 -19.0388106091641 -18.8392115336552
-207.585325603069 -25.8226381641568 5.85519294194169
198.47136152412 14.045783052126 -37.0912571806384
189.729724819857 -34.7469500119396 -28.8548244439402
16.6827928573396 -6.23645663296751 23.4173635083504
205.162989846958 10.4773379421586 -34.0410060125556
-200.53624913334 -27.5761144497128 -24.5779130024701
-241.067435423289 27.4261451063788 -8.16772211766062
33.0250212845003 -15.2811655015467 6.89978655469904
34.9932606885974 -7.78359427677984 22.4028928228308
-153.340714159012 -6.37066337649321 -18.5504876091279
-177.163418202947 3.5978704805901 11.2056169277575
-120.299169163867 -17.3819703912202 10.6518859500672
-169.106154749741 18.8518273344537 -15.161435528571
201.071662687637 15.4500473972882 21.2320774040524
-24.9875964641544 1.57049949697855 -1.79718809447705
-212.33521272491 -7.81512438485887 -25.1292887428577
-123.734471254076 -23.3829179407746 -0.776523237776451
-210.317097802673 23.8777588486159 -9.68085020629209
201.858246316497 37.0395274549885 -32.2303091022261
-162.589169094701 10.1699392995793 -2.80841890969124
-220.802995330956 -22.0715733858901 1.6912584711699
-210.240266644984 29.0296349286338 -9.16924109980927
216.184844151702 17.8025939961971 -34.3318406151352
200.38393643885 -6.92288319888953 28.2273035804103
-103.15604358738 -0.538782209759268 -7.81817331325858
-213.475712292938 22.2416295467831 -11.6778781005457
-181.090801122776 0.700447397966265 11.7053240547779
-10.6080739025057 -16.9046362065381 18.4988706229729
-202.861545782146 -6.22393484346851 -23.915642872709
171.963017850728 26.3048170613079 -9.74876558886039
199.484093965446 -32.850855452554 9.75782667991649
64.0917947441837 -6.24117184463045 -2.63218590475949
-31.082907407198 -15.9313684952501 3.20973432646442
-196.611145824645 -38.3854388190776 -9.98454420558595
-212.919863597482 24.2079317483374 -11.8269260480908
-140.54701749398 -23.9717983676265 -2.55574882536738
-191.502194451634 0.262162863461189 -19.1517671538629
-201.780758704376 -2.51117993135817 -16.9380565000694
-104.505887812 0.339396175953541 -6.41465034862467
192.404052120386 42.015521507841 -25.8135399767654
190.470817084461 -35.6823914044616 5.36463046624578
-230.492320143212 47.9335857081444 4.06869125636512
-181.933020403239 -15.6531533190644 6.68287414332571
188.850084395763 -39.0738438289944 -12.8790632684101
162.104052053068 19.3332361989659 12.1930703540665
-150.408131038405 4.64931155573477 5.48626034836323
122.837853738795 -15.7463924910214 10.9983931361112
206.734029040971 -41.038184575292 -22.9961763619613
72.5956324992811 14.1540509223718 12.3433535147791
-66.5284176555298 2.87397926655101 15.6994088350386
101.8042755271 8.2697899790125 -2.9375404760874
-227.355383310901 38.8522196263328 26.7605275028106
-188.749770594806 -38.3417969383474 -10.7752435662108
211.900898371311 -12.7175299582159 19.5168074782079
-175.23470019821 0.214785169970731 10.4163637095213
-208.025106262447 -11.8932577409737 -22.2309968408348
214.55075167524 33.182653349579 2.36754082846484
215.062739096439 -12.7476610504982 7.34287866466772
-224.268561081484 39.072838920202 26.8394019291545
-38.9912701874899 0.717365698836578 -1.71697085738021
164.222526330735 -22.7328380668561 3.11958275782132
205.038933780242 37.0957881728536 -31.0869332003859
199.124592988424 24.6617920215683 17.7024885311034
-238.57372044481 44.9615708882925 0.0459708229644928
-216.1178976544 -11.8013978458873 -9.06747438762576
185.471153662915 30.3549835383694 -25.9102270538092
183.50202386524 38.7616765384187 -19.3030016973915
205.342700181044 38.3280441391567 -27.0656847980777
-205.417399362957 -10.8521117447528 -29.6710282062187
94.358992991083 11.3627675387587 18.6394954565419
174.029123592754 16.2380580611272 -13.8196497179832
48.742160066774 12.3569361894715 14.5553910709312
-204.793931761884 35.8920224391818 13.8527949292763
-221.713217917283 -7.05628279673554 -23.9448659664902
202.755607286531 41.2287687411389 -9.35235606481106
-130.628733816941 0.277087195378812 -10.3715458047656
191.238091289003 13.2497891055767 -25.9177462424324
129.845673648083 -16.5231942835666 8.94815654875758
-19.9439506935499 -18.4272555468267 7.41575186064987
-105.585348925256 -11.7489996220837 -11.1624743027549
209.313901973478 20.8643274883521 -39.6560310978336
206.231826488504 8.97841416452126 -19.4265806489374
210.991812273085 37.5622115187625 -21.6827142404127
-225.710488444292 5.93602572858895 7.25016647932047
-176.635854110549 15.0979270233184 -4.73703525551358
5.28511221365489 7.30793758519105 18.9665940806113
-213.75109973704 45.870501456801 17.0876324694303
199.056570320993 39.9072120978392 -29.4050073375747
88.497029741854 -4.44188032410006 22.4398098607444
112.23489728499 -8.11412223851724 21.2216448501906
-244.809710721731 22.3762793944942 13.9189487692348
2.18496658855295 -8.69533664294993 0.116366883190961
218.575409130188 34.1537505361192 -7.41391665341861
186.4214010683 7.03138077253093 21.5222563656074
-132.167382803785 -22.6989008088102 2.00271285222855
-241.672988416296 18.5906692387804 16.9628412376448
219.594748392354 15.8271258306314 5.07846845803314
218.791264386186 32.8816240604607 -0.425145049139167
208.833862128562 -32.9735480988252 5.22987125567451
-67.9852374218167 -17.5383440720268 -0.855661480169689
-165.202118960477 8.88682657813745 2.5856061139882
209.796213265166 -38.6704062830003 -7.08130601301066
201.956785952235 -20.1586038161934 -29.5168760662953
-198.105552688309 21.4139108863999 10.7123598956494
189.119146889579 -13.3805235134195 35.4441417718455
-52.9556435456936 6.9028953246294 10.1783743598276
-138.15562276041 -23.8237850841001 -2.05620803405695
-219.94412325123 49.1452266694883 -1.78372890657469
-206.047432894974 38.1002608090452 5.87596655850807
44.7840658678342 -7.8225031126377 -0.839900576882626
-182.421080649953 -1.33422188448733 11.0623665084385
-11.6896033568203 4.61561964584924 20.2729833072192
206.349887806211 36.0144724172783 0.092278187409073
122.04111760162 10.3212137974082 18.9613666609218
196.723459744492 -40.4075112456121 -13.2999489564845
212.849368992742 -15.3144881087676 -14.6084274810724
212.204324831242 -9.3249701965423 -5.28493995483191
-168.039468861913 -7.79719508520631 8.40106164272681
-154.184255287416 -12.918221955568 7.91499673481664
-218.756630625867 44.1540640694005 22.485600080761
181.45848444918 21.3703468159192 15.6189473362402
169.220491191174 -10.5042769431452 -10.8196837471757
224.331062129269 19.9972455340875 -7.68485677115702
-108.145394662307 3.5468558363104 -2.20179220478752
-72.3512649254689 -5.36963998960241 -6.66582740609347
-190.835817917244 -16.9738620636722 8.61663803955539
-188.789317055054 5.1262142222203 13.2878639725091
-184.132329601831 -1.97047100304316 -24.436810146113
-84.4777762598501 -22.064089206281 3.68042308195128
-45.2546829534526 -6.25854210684582 -3.39601616280752
-213.039751340279 -31.2209331236196 -7.59925581337246
133.266790451998 7.73497683009795 -6.0796120078133
-206.197398092597 41.6531508261948 8.30623407874759
-133.822013140164 -5.59366568161041 12.8131184665844
157.743464241678 -5.68907925071106 -8.66902656901601
-197.127805596785 -27.0715336966472 5.55493384744728
-194.383982225487 10.7466484161398 -10.4115031317293
-161.386323806495 8.98229989418405 -1.32931250419338
-215.519310409006 -1.08924483972933 -3.77887063218955
204.527420577111 -32.1164832330399 8.00053999813467
119.223485722895 -13.8801451696431 -0.533377109716464
116.575332317528 8.17567347124052 20.2342785451826
214.507430342239 36.2351439698147 -14.2559624829707
-159.851352598353 -8.89166733771204 -20.8789028464108
187.432848245063 -11.6003166524439 -26.0356322763633
-198.557416094038 -35.672274982984 -4.11860445880275
197.400407492194 -21.4194861224476 33.5909323344497
202.775023065622 -38.8095496876793 -8.49659623324277
-173.664288339086 -19.7135387833312 4.48734615175197
155.868071165877 -19.9677026753921 0.0707690260096541
-227.461917919651 7.03101371506667 8.12318211838358
-157.388513755731 16.3095054765339 -10.9906499085465
200.124408486071 -40.903351538135 -4.07080827634289
147.546408824763 17.0348045498389 -4.59781979937272
-117.786195209159 -11.0226444809646 -13.0001036019423
42.4619879775127 10.8024138176903 17.7383089188201
-23.3164828371096 0.885711273632775 -2.94974913276736
-117.804045662522 4.96125883081828 7.55005290484582
-206.141371040866 -29.2050847054209 -22.2083198199618
5.0329096846182 0.987999078519086 23.6917897820078
213.652777645287 25.0827814117719 13.5953482822578
-150.060519111031 -12.266875272875 -18.7380224932527
-217.734067344859 -13.1867912302891 -2.47022407536712
-119.848978270089 -9.49318056101793 14.4228517886163
-213.715292181748 -4.32829792949418 -4.79732284900446
200.922533014533 20.9673640492411 22.641097036863
-181.029023597204 -37.0666429592467 -7.34521923282627
-165.567878310495 -9.18030563078481 -21.9867698377435
202.994878191968 -35.1287914932143 4.13793354889171
216.688722686659 34.4779078587085 -5.476888985802
191.725937051768 31.2253613828358 -35.5817511576514
208.821675756315 39.0699960149263 -11.3839166456935
-207.479549449863 -9.51081722752024 -21.0986235805184
152.133221863068 11.4879596120627 17.5277290621022
182.190697693895 -23.647147945586 23.965809948737
201.595398735322 37.2862496049172 -2.21396915584685
-134.136301309806 -17.8854675746529 -13.4678328894157
-109.993084038983 1.92364006487602 -4.97614029034589
-137.772501302405 -19.5265290571731 6.26093667498426
195.389881508307 -19.0787923684934 35.907109076393
26.5510820992659 2.60158024254444 -3.75767213757741
73.0330247525732 -14.4765215315292 14.8883859556376
96.4709075589435 11.9663912779181 0.732151195438369
84.1557374733588 -3.36475880284494 -4.6748816857454
172.37241162116 -27.5567981077462 -3.07373548230028
182.471809430707 -18.7990229004722 34.7313841624798
133.632681421501 18.0448674475716 11.6152765138037
-209.534828307784 -24.1117480841041 -26.3728765733211
-222.199523481615 10.2269125497845 -4.54161290962536
-105.88815774137 -22.1116131846655 -3.00725110933732
-216.477899408778 1.85162784504409 -3.85227465111117
-232.694952367105 24.1807947741944 27.1759304765457
-225.05427997758 49.7390589083824 10.6002997092963
-12.7222573035647 8.24078137404183 8.7630345398095
-76.1047697909381 0.407459133684393 -3.43166340276579
-88.0662346603774 4.70071928308368 1.76243439866583
-206.843373326178 42.6341667640771 6.38621786720481
168.774915442566 17.8496655591919 14.4897751595538
135.294329873836 -2.89389303996938 22.5878652383849
-194.584578788425 -30.8483948252989 2.06734326014304
59.1129306929342 -15.5076731694221 11.3340951912341
169.577721381069 8.62512964430811 -10.4841074522711
-228.146639174502 9.84120675146876 1.12479959625406
203.833227705447 -36.7982671011021 -28.3557219657456
-218.399936621794 -12.8196079368537 -6.46350660617853
-189.244597352463 3.32424464983076 -17.2441480933449
27.3431446937235 -16.0085476196248 7.95963772551406
-26.9258236168529 -19.7159874533964 9.24606199545516
44.0929312862394 -15.0571419176301 7.0330775089991
-212.757282286244 23.3633672651176 25.312230664634
-227.83276196803 7.60286040671056 15.3981609308707
177.551553765736 19.5803116768047 15.3076616632739
26.5589420253824 4.13046369312619 22.9059625648611
202.321072385106 39.8695754716777 -5.19285985315549
-99.8774279769271 0.608318930197453 -5.24540604384863
-239.285863503474 12.420200862561 11.7423252487297
224.72373271477 22.5387390827524 -7.37188282805721
60.6291012077563 -0.320434906239863 -5.09776593361002
-160.877889407133 -1.15992267204281 -20.599840569756
204.513486918264 -5.18488566963453 -4.61450377918514
-82.3956375872051 5.56954384213342 4.12284954175758
-168.153558072372 -19.5452071951115 4.37271537379022
55.266625294489 -12.9800359551925 3.31424243130265
-164.997260440596 4.59442814098326 -21.8513191683136
7.38375086577326 -15.2127716097438 19.3451783184443
-90.5432480442839 -8.61146468630354 -9.82966539852476
220.115281431297 29.0179676690231 -31.6805859523543
-225.726012669611 38.7123361853848 -13.5450817632978
183.592226557319 -30.1072412663685 8.8253240928449
156.168936615492 13.6000480605189 -7.46386909845036
