219.181407751213 -20.8725780448435 -17.2950626917794
-162.592335865771 -4.4536034243652 -10.5147913652201
-190.462940128036 -34.8310479125454 20.3989842251325
-240.599922935872 12.5063987675646 -0.97477286512202
-45.2889603861547 -19.3371546088006 -10.5916961231572
227.160770149483 21.0627156721698 30.8893109292011
37.9138123477363 -16.0308042101771 -12.7236921015577
171.401219414633 18.095627333183 -16.6239474207005
-211.395549623576 12.7908333680778 -15.010297624097
-226.187348427644 35.9575902393219 -26.6580098565537
25.7430030503821 -16.683293466637 -17.5258332265873
-207.519983281851 -9.28308173996992 12.5030571181932
161.418211152195 21.9658834631217 3.21231282868318
-189.593128792511 17.7524121296908 7.84184043035758
-97.631977672499 -22.3704629380925 -1.5543443390713
-205.749943833265 -37.9872900195475 14.8614354093792
-158.070079321474 -12.041101497678 -11.2567277173363
-72.8422010185002 5.08571522165039 -1.62332910872069
198.050384927709 14.4377118359576 -18.6084603871509
-222.4980799934 -18.818426851151 9.98682113501819
-21.7170571971628 8.73151249992621 -19.404320978715
81.2451592701779 9.9946922628053 -3.6923846765721
-89.544290668784 -7.1155543345062 -20.6407042573582
181.632527283128 -35.8086225298697 10.2267169602885
-233.314134794312 20.8008640569757 19.8825677032542
-42.6580207886253 0.473733846888192 0.324652017814735
185.312790188301 -14.1423972818652 -25.5805801529887
-88.0577081621104 -19.854739636103 -0.0790632120090309
-76.6178181087588 -1.21919115841648 3.50084289328067
-204.681779829613 3.51967706615529 13.8792964068653
-70.8064628793465 6.17612262746022 -17.4026861638004
-96.5047281321756 -11.4336968280471 -19.0016252245632
-225.702855611283 45.5220281744837 -23.5590299681344
-6.9844025784878 -4.10064857545276 3.08234278298467
100.449118597271 14.2448881410591 -6.95731771556883
170.215455543764 -11.0589401881944 9.67935782271735
-118.232189919727 6.80280991428429 -5.3606356751112
-189.639090406661 -11.8964349901651 23.4712100270392
-46.1031930025802 7.23839017268277 -19.1718295749031
8.30186576354861 0.542649339679237 0.820466704442857
-201.193702160955 -20.7120263004477 25.6353061608315
222.651059184049 16.013649709503 32.5492624321912
-238.24237108233 16.1675221063118 10.1656339715044
187.386280456705 10.3518283542507 -17.5450314202714
-209.876508279814 -39.5891651562227 12.6784519477873
-206.323928911706 47.1168128103188 -2.25740563702943
-218.512256921309 56.8119133047164 0.361809229581759
215.752633294053 -39.1415549449657 8.13389875421477
175.004553770702 30.8770784826345 4.48600337638281
-204.794423015496 -20.8832462954589 -14.7935307288552
-171.868376701189 -6.03080600595547 26.3341742103818
201.856578724718 6.96550248505903 17.7809005331259
180.114732867168 1.40891729937294 10.6108695512758
198.417874078227 43.8022456291094 3.59902784243768
97.2604283718891 16.3511295301153 -17.5487061558377
209.547977891519 -3.78923470726123 13.8160184939562
180.841086182227 27.0080437764693 -10.4696220762739
-123.091720585684 -14.9746942162017 12.5550686268601
-172.74104047982 11.973457385577 21.2482912722112
116.347802686893 -16.310326388245 -5.77733027134677
-152.771967019501 -3.34908978437531 -11.2564682322413
-72.5760619080673 -19.7758322274129 -4.36635535140013
177.352005885118 31.563382570604 7.30736074944218
-65.9693089921681 -17.0556015493593 -1.93770182895297
99.6514595969363 17.0953706071997 -12.174354613087
161.664248180756 -22.2710088659792 -4.93950159145199
-231.572071564464 55.8028031032791 -2.11928369940511
-44.2670520764989 -8.36112357760319 4.14717555796479
-68.3529408887537 -16.3248655095552 -19.2246456358151
191.494165922869 -38.7729129758398 4.93126609841833
-203.372198733972 23.490098336039 9.79555094533968
-34.8973407013696 7.21452551606811 -5.26187282721266
188.335669505782 -3.37587644500559 -19.4543946219782
215.616725256694 -29.8171602476874 32.7269073776412
135.869789193314 -2.98360903984193 -24.1706649260863
204.712075776686 23.5451416153824 -17.9406315584183
-84.1015531090761 -12.1057260122146 7.6405360325229
-218.423549832595 -19.1444140358085 12.6592257209609
225.492057712782 27.9833718668258 -11.2892082114388
-169.935453553998 10.3064519459449 6.9091348583387
97.814265223102 5.85548534844865 0.69012850032032
146.361362258879 0.134422035995614 -22.8298912826517
188.022744684388 0.559210380384278 14.1752921185868
189.597649670152 -21.0352285015425 -25.5969725207837
-219.560250345927 44.2094328240474 19.6673174812023
-214.648430187722 20.5060035662121 -18.9257958199479
-213.850298196795 20.7267567976881 15.4744465531781
207.163269315019 44.7064946774745 18.9559791285348
-210.28562625112 6.86193169710719 14.1736349223402
192.560287995092 8.88628137191237 -17.8752401200055
200.031981830839 2.20022770175313 -19.8818329552545
233.577820771917 33.2972680463892 4.16870025953474
53.5812185073588 -13.74420492043 -21.3344625357063
209.830333435209 -34.8899518391233 34.202150226995
49.5522730849102 -15.086615923701 -9.72210536356996
214.73388264342 -2.72683567532111 7.97744007115721
-229.121419999788 48.1894397759738 18.5831760079968
190.343102573756 19.7896297968877 17.7619855361022
-205.468679846922 -18.8248468103351 11.3586152766981
231.495080317892 33.2254890309854 27.3266464203464
-193.874892158137 19.3669964812584 8.47083671040498
193.595522926851 7.13876615445149 18.151563378373
-242.56423041813 44.6438665653297 -17.8450179088707
139.095235724183 -12.4272577316346 -21.6325240714427
-30.927657015215 5.58316498424427 -22.7001839025506
-122.150772323554 -25.0791010211536 -0.345082650372001
152.539310048434 23.3788159647621 -6.48119645889447
185.717768098883 -32.9528085918227 20.968586286252
-231.047359145911 -18.135196394071 4.81848746437634
-11.5175567102176 -12.6863598791926 -24.5006213204274
29.2183901015023 10.9863513364752 -9.30898001023722
142.240253985446 19.6630534577325 -4.04642028583258
-72.4966221443579 0.995081138977996 -21.3834530655156
187.39943607881 29.5777737825346 -9.895922719285
198.839649642777 -39.9371910035107 3.66764358341326
20.8959277449179 -5.23180781734848 -26.7621769576062
194.435155994311 11.5269521879837 18.8477238089429
-168.724848177742 -25.760654503353 -7.53668748981446
159.488195620838 -21.0249629633179 6.44009349193353
176.525605395895 -23.3519680182988 -14.3430440438255
-212.534584187629 -19.061111206677 9.75754891819324
41.5147478915269 12.0353665466653 -10.066621686611
152.508970555954 -16.8346538908119 -18.1874503792038
-163.818943322339 -27.2341822776375 15.9674529740264
47.4058161851267 -0.241014429259991 1.41259508317327
188.010781747434 29.8278281010264 17.7960048528613
-191.98969688968 -42.2334297121102 1.96517422372531
181.831367067845 -8.75781549369043 -22.6268190921666
-206.091006534658 44.5794715532057 -7.75829639598778
191.820887586461 -4.47094980991985 -20.9894218400514
-118.789538160779 -9.05064738409084 10.9217904216409
-215.389581411477 -8.69217869616628 -11.0395982300475
207.17529052153 40.311729105673 35.5765121516355
-82.5046567429273 7.97540030687939 -10.7007198014693
204.436774876467 -9.27957377138766 25.3442827747067
-233.639259264659 15.030721948135 10.8145441517029
-7.29251974861419 -1.26807360065071 1.95888238501844
92.286814934346 -14.8393624439417 -17.5628246639575
-68.0951630712722 6.59618971284089 -17.249131823584
-236.258139174262 12.1459102017967 -1.21952594940639
-116.949798304791 -19.5634747744518 -12.3251688378312
108.174988924642 -0.488047156249067 2.18196664660715
201.59485210282 15.0209943196887 -20.0254203151417
208.636802391163 43.5978078560355 17.1515139982364
151.395358731639 9.88662801833842 4.51080001631429
221.88048266536 -14.6115851884098 13.1188716271192
-233.553955895084 28.019316751731 -25.7381002786135
21.6298942816334 -15.4299845478627 -21.3674040852993
211.569201550017 -19.4002595730471 31.8025394253616
-34.0354207392507 9.20097934447531 -16.5205555834764
171.997398895048 -26.6377175049523 6.27430920242261
197.1402314266 -32.0816151770496 -9.39654888601367
-38.3257402549536 9.254089437777 -8.3967896182922
146.815894767384 8.05321669401053 4.15169744723777
44.0057224125333 -8.23461219566074 -1.32859167912219
219.892668580529 28.1345671861446 -11.5370220454835
-63.1529075313135 1.11473483991511 0.942301971541179
-226.83459849415 18.6731270330401 18.5643963468678
167.891902785049 20.1888682835875 8.35908456677709
-190.631335441875 -37.1241348692913 -9.69403109004222
-51.3609824367819 0.725041504920813 0.51243440031185
-155.080272466657 7.47159491419923 22.1347533855985
233.817636986885 30.3905251698973 5.38307050452181
224.367701012953 -38.6706660972684 14.117370362433
141.709301888901 16.9960217120227 -17.9682947573024
-216.31438959614 -10.63342802104 -10.4509350945773
-168.13158585323 10.7103370188613 2.08160780568679
184.049065498075 -34.952070750738 5.92821397239832
-11.9411817710253 -2.64832934518723 -26.3324729385286
-7.95517044136638 2.78503776609955 -25.3083849098471
196.429136982331 0.351679284835033 -16.9609832937683
71.2061772731869 -3.21513295051908 1.54466969908187
-198.035065036532 -25.9046668562314 26.2751203700481
-176.781030568567 12.2936154813139 8.70931052418669
-211.656466394379 8.13718291199011 -14.7920039727801
-142.332470186728 -10.041955570688 16.384136390698
183.077824679643 -5.41395684092051 -20.6197529532767
153.768277031558 -20.6553732340503 -8.54115481061931
219.865632834504 30.588278563659 -9.20163875473269
10.0666958789083 -1.08253668795765 -26.5617415074724
168.859147325247 2.27200237182012 7.60711519696047
186.596090338195 33.8473972123495 -3.8589636988468
3.33727916867304 -17.1136052404206 -12.5165211517991
17.0209432003085 12.0984508381352 -15.2065168609467
-217.522097194298 -1.72614943233478 -10.3364322451986
185.281106608252 -28.1694766884274 23.08547198036
68.7729576979022 -14.0142041898162 -6.6879902967787
69.5331535286483 -4.6275512942638 -26.2494595629139
71.3595905993338 -12.2187174425158 -3.70635490867904
-139.823216310841 -3.44736969805263 15.4143881295975
4.94627540815729 -0.09802475691648 1.40100722549208
112.650314607261 -16.1380095252688 -15.063672369598
-76.5277673484423 -13.4196087016163 -20.4892010886671
-208.341047738288 -16.8074479675733 20.0135292262617
-150.879296158009 -9.79798022308033 19.0577715364529
-208.130543227489 13.9869686490829 -14.4377147414625
231.953760293754 36.185013734445 7.46893124326593
161.044536591716 7.7577612265232 -20.0773684805892
104.062071213506 16.5312365455108 -17.6801382117687
-226.834989020112 -31.0729720426173 8.39337894721593
193.170166463428 27.4910554399045 22.7493077398885
-100.188256502827 -22.1257457969433 -10.4818859517035
-123.014153998754 -0.324825207828381 -14.1022898587886
-173.744990394445 11.9162939923084 -5.55922812508343
-215.768802394409 -18.9391793748557 -14.355652410696
-27.8965718969318 9.79599317356622 -9.75809245839151
184.843296668625 32.1997935631527 14.469380766877
176.065386448171 30.1092638186674 -2.00455971521642
0.302443847503454 10.8407654185698 -17.539500080076
13.9520044588772 9.89876277556555 -21.0618601358227
10.3413234451221 -7.09430847459149 0.906963224997207
171.604584948145 -2.45254367272653 -20.1021103492984
196.687386645237 -34.6202393575582 30.9434138193108
228.422840205559 37.5359854783279 9.23534202264727
3.33752212185949 10.7926138662248 -18.2150153229311
-184.812537739339 -0.87315532365428 20.0776406928405
-217.729091242899 23.9472252163943 -23.0513202611444
-245.516736131667 46.36213477396 -13.0427556986761
223.55238939311 -39.5217672660613 16.175217431274
21.3150511931228 10.2728582472476 -20.9652453056298
188.584316796383 -32.7451101454316 24.3051630048877
32.2911208306057 -12.1054019093056 -24.2380611937084
104.072027362152 13.5221229887663 -5.5625936321212
-215.498636976054 3.4915308161162 11.8261040866089
152.955180532477 14.5504621271927 3.82090786077809
-217.378314836129 -17.5922660868064 17.8894923146549
-73.3306963466087 -8.42269955100953 5.9022123520281
-138.636341035138 -24.4340069086657 -6.91210062372059
229.07103242075 32.9058104351104 -4.74664799700986
200.3678728143 14.8145438481977 -19.4469889041604
-222.280746677842 -19.1410756009101 -10.2441159182045
-211.175529685118 39.2893952747518 13.037382088339
154.661149621857 0.291308161893631 -21.9802474497696
211.745940225012 44.7117984093169 4.79000107168794
218.510795857415 32.6206816053807 -7.56541216948348
9.61520334117038 -17.2325690080257 -14.2162937300603
152.943395094376 -0.626479622672101 -22.3558080879247
-207.716266067383 -10.9193073696002 9.94133273868517
-232.861130597803 56.9436175122103 -4.68935689494692
-135.208458063274 -5.27740889940239 14.1801352566107
212.653762441787 40.1007160402788 -0.285246450940901
-18.5970349201643 -7.72600946396773 -26.0809119995618
224.589765530451 8.90269100827738 -4.16929010926533
-204.400469601293 -13.6241603208341 17.4970873839673
-218.69811522088 -3.78511693854857 -7.56367851491045
-81.2616979941457 -6.18221488001078 5.93930242726571
78.0922596373633 3.02010214735674 -25.5905740097276
219.263445565357 -18.0687310940445 -16.7465079185355
-115.645000096028 -17.2199212172192 -13.9828564229588
-215.181160960555 -6.94967876144392 5.58300661282284
194.754446896211 13.8130420645943 19.3213171348931
-144.09005614793 -5.20579653148799 -12.5594004109193
48.4139855176457 10.2202651132606 -6.78013320916434
222.576843049321 39.3450362133023 31.3904964736125
210.042036034291 45.6005474478521 5.91486032141588
205.376458056418 36.6348838105196 38.1475771441794
220.024352089348 -40.1587852465897 18.0496821998912
-11.0380989934889 -14.9213501534936 -22.740263816771
24.9526084851653 -9.17531567876784 -25.9651693502938
-71.1410058921214 -4.68644992575173 4.87405380710538
201.744410918661 27.1185913657953 -16.7372107758813
-47.9977893964777 -9.75349738556778 2.9358605679086
-159.22797334266 -15.3569021838228 -10.7847829783163
102.02236404779 -15.5093647583191 -6.4717364717385
-217.084878312327 51.4667388347943 -15.7596051287271
212.37059684427 -30.7098859322038 34.3803739111258
183.995816954713 -29.0386554647581 20.7861627641274
-131.814650293205 -6.62104376545546 -14.4531451827102
-199.826967801077 -12.8552480747368 -15.216414036705
-185.471016458042 -32.9802948163971 -8.6258725543813
-91.0772415983188 -15.9430610930422 -17.5017578535336
-133.707561508498 -18.7086882245504 -11.491819231053
115.751458220489 -16.3638692521415 -14.5587715716825
209.28400030315 4.89018078051505 -17.69534393935
-233.485376936172 12.8008807689235 6.11792920631643
163.679876208833 -20.6931259760045 -13.5742889337875
-207.225772550086 -28.2139911507692 24.1770101934063
208.805567057974 37.6771919264424 -5.48088579964203
-15.0453850964099 -0.308669282131663 -25.9473512837879
-122.150397784394 -4.19731074068759 10.4982618779962
53.1144565117581 3.90377501217198 -25.5332883597719
-211.468088753642 1.08544979474907 -14.0736303845291
-214.314065677985 -16.8829354378257 21.0261510461218
-210.080911985068 -32.9392211567302 -8.09453355511048
3.55499903310585 9.52558998720308 -8.37709965265427
206.541683034045 -35.0209376085878 -4.80185153704713
-7.73042197418049 -6.82521052140341 -26.4208439212687
-168.814776176183 -15.7446570600002 -10.4668321236316
-224.543569128279 39.564464786433 -25.9020043678268
220.899464571255 19.2541405626916 -16.8727084271907
222.180290205498 -16.0942830501018 -8.65833360516075
-202.941836042867 -42.1998796127295 4.17844337407413
-237.293137707913 55.3585637112331 -4.83552235152344
220.917218993903 39.4602789625655 3.06480373986201
-200.450094983957 16.6200992813607 12.1471788241143
178.936085274254 -10.0116525012919 12.4725655338089
-166.676752984503 13.7291911823138 22.4782574095166
-161.65002014413 -15.5991543112478 21.0227877204771
-162.181484035046 -30.0976547226691 8.11179452494356
215.141803100387 44.141095384956 14.1105488810079
204.429204673853 17.1106943876229 -20.5582035114247
-178.900639183837 1.32594770025733 23.544356320903
-12.7516291584306 9.01294847841991 -19.9935146724862
221.208139986134 -35.1660482141453 3.84614849539988
104.371452067841 -6.9706448470349 2.61267654406002
151.856422896945 -18.0440332428275 -16.2105275062509
5.05118155843327 5.70315882723776 -24.3265929317301
21.6812210987364 10.3790073664902 -8.86212086518789
227.126271470258 14.5505991533401 13.5994368062055
151.771804309931 22.9393465898464 -9.78830575929852
-179.724517963516 -26.3077749750636 -9.00970647377438
174.584574593046 28.1080167964695 -6.51737005681038
195.939832377048 -34.8254202538282 -4.30500554529206
-245.459563157715 21.3501862399286 -15.5714326182392
147.085157554145 -17.3530532943227 5.3451978997012
202.260341951386 -36.637380220077 30.0363147951049
209.325001359309 -7.47403043555679 -20.4757172318061
206.65987728497 40.9939632269242 30.3811614020649
-140.377675579968 -21.7931133261004 12.9887676083378
-75.3981591786156 -15.2571323228144 2.4111901308164
-111.625631227864 5.80500959909528 -9.01879189007111
-59.729840490043 -12.1618595945051 2.30760890273436
191.107926659532 -42.7288324261415 11.4171357085949
189.61284851336 16.3065600608403 16.2522527610068
193.884214999145 -27.0996364217836 -18.7799466170314
216.176320603479 30.4702454060671 -10.4764251337606
-218.348453244618 -36.5958057111528 11.6299657615964
-208.794866593157 -40.6825109025961 1.27686262133741
-224.953210921824 -28.7155018856543 15.955902537102
-154.766031568527 6.63583230862453 25.0827471052013
-205.065050748841 40.6396742093345 -5.07006691665932
187.426606263306 7.30617917859974 13.5044213673225
-193.159945497378 -8.60422926382295 20.1187886386758
-5.56246273934065 10.3241530593678 -9.79820785879455
198.340071043464 46.2543501266736 8.42651165774736
-21.9309978943898 -18.5841517220425 -16.4372367270455
-157.872965098765 8.42456246444111 -6.15944429917041
-132.505547146375 -15.3746553082468 14.4480740258691
-186.065990559975 -6.12063216566388 -12.1426249255079
-38.6923834315547 -18.8624659492852 -10.9855874333975
193.077790583374 16.9510076516844 -19.7807889582543
213.618968091365 -30.3141915597456 -13.2381060893123
217.651134387273 -17.1260062338198 -19.0198127573587
196.792644927877 -42.0836492242591 8.3644112876898
-158.184255507862 8.81456978524004 19.9743872849277
227.244737917182 21.4718387057147 -11.0028021064544
-212.575227975466 -17.8972536529913 19.275174344033
-220.504453510252 -18.979802605588 11.2747760180901
-221.041696065139 -30.8063415733546 18.4136997097784
197.347694142376 -41.7093811252748 18.6053767595322
217.537252850406 -37.7787530499602 5.29276680480813
-22.7598187538936 -16.2039303202795 -21.621996985521
0.668558386115906 -4.90077689051211 2.90144053988238
-243.605559041331 49.8048837430603 8.57284405939442
-216.954445612722 -19.2594211733469 19.6525741658875
-213.691616882948 38.7150253585508 -22.2324575850013
-185.410045749263 -1.17266458119647 -11.7725061564001
53.6108717754186 6.81411356522649 -24.3906105598557
-245.879265372978 24.3410096768626 -17.0052958637672
-200.158761776892 21.9664809855718 9.32453895979893
196.853081529973 -39.3050994320061 2.63890189866228
-247.243282281132 32.3110294702062 -17.2896694688369
153.645436496129 19.1387048982629 1.73151661064572
198.454701830827 -31.8170701891218 -11.3011332060628
222.027346326127 40.6213512100646 22.6922203935573
-188.117468118049 -38.8267134936211 -1.20735141702549
189.341033005816 -23.1338774818452 -23.6092740846186
66.4960190472539 6.16714327614292 -1.84572920267061
-147.062897608274 0.972658174346491 -10.0931262116049
-66.4073782592288 -14.7428213217458 -20.6024099183427
126.221599867743 18.9286172373865 -8.36664186071386
-232.898237706995 16.8595404367697 14.5324435735382
196.815363177891 -31.278151598391 -10.5622463547185
187.35389882436 17.475831831126 15.3134525935303
186.145496153263 40.6349964870305 15.3364011924485
-115.433803048778 -17.7136835298739 9.14203589313834
88.0172607599048 -6.7110701618453 -25.5121909553985
198.475995129642 -20.4747483146578 -29.1782958867436
195.78633452289 45.7935778627784 9.88962014221334
-2.43257342545168 10.303443071187 -18.5245988918988
-146.649082428488 -17.9919652680548 -10.8895578978245
180.457460132486 -7.34098451359244 -21.8097838642668
-232.228994950162 53.1172754348808 12.4924314589954
-235.207014189492 20.3599754677704 19.0286556309611
117.479447297109 17.6002166037101 -8.45348119023695
75.8936870375184 15.6769897902262 -13.9054124473617
-187.495373459773 -35.8502110270777 -8.46402591319819
44.6944808270274 0.833335688372445 -26.2513268588513
-222.512191777838 4.14684260147501 4.02423032699515
-98.8649899477178 -11.2130419047012 -18.7540737579156
205.163238908261 14.7466578594744 27.3133528990179
218.152400222412 17.2394961127097 -18.8380971993438
138.253646469794 -11.0413759188917 5.07528947076979
-214.858548895518 -38.2699382516798 -0.524284252101911
-82.1650072485904 -22.0040879886632 -9.1645976963835
191.724528025092 37.8890784047474 21.7917839401285
220.299321583424 -39.1128004755178 10.5387073674926
-0.462773907885575 0.853278097798565 -0.144296331647791
207.263212221591 41.876118434915 28.706588941546
199.24335507561 -24.820998892613 -24.7899815372837
65.777719533167 -11.5409209369171 -23.1634580337896
-10.0845026613989 -4.5282716385405 3.0716866740179
195.225854783047 46.1627484772728 14.1765392548623
167.641196339111 9.1434908772774 -19.3029588906719
-170.110735724441 12.0626489809391 18.7516375404594
56.898939865902 -12.9638901669631 -5.42777172253916
165.49587680708 -9.65268082102947 8.27828345310762
-221.250147324212 -2.19678272179811 -2.3795983396737
-223.016906265267 -23.8644312651706 19.5806784881904
186.682413210935 -20.8820296998409 -24.1126314185669
173.140527640947 -14.5050037040664 11.4834961608689
6.71250462210145 -8.28842594903303 -0.342762720808273
-118.275881463264 -24.7279395745005 -2.93372062472566
105.207283409284 -12.8637232663846 -1.2876631058308
-156.758989459081 8.60139002833879 21.3934785237578
221.026370918573 7.81468364319614 7.94127202515126
188.635982234315 38.6541511670516 18.2384778800933
-206.718181560433 -16.3331701970733 21.6233850532927
180.452974721419 -33.2221215433944 7.92889169286166
-226.808245573917 10.260915052578 -13.8535804951782
80.4614028173864 3.12526981579777 0.557059372005087
195.787043358381 -20.6855708067155 -27.4189204904164
36.4854881475855 -13.3035698809458 -6.42398781173019
-196.498066568086 -41.995372125317 8.85860998359056
97.0734687950426 -2.55100210716011 -25.8036586290384
187.768521681258 36.4402613049889 0.776479098532885
190.959887235695 40.1394434993391 20.0852907349283
196.843627627875 39.2109914636895 -2.69161683084823
125.036095964523 -0.0223355475971636 -24.5001797461478
-104.96790859759 -23.0709858561393 -0.282245240850478
190.854227432992 -23.9798700594116 -23.0323168370373
-197.85582057559 -14.3476701086019 -14.4640123572765
-92.6308684873288 -14.4498226222165 7.37595456905699
115.730126256975 -10.1459887194877 2.39342214200081
226.985366336157 14.6834823025287 20.8586983396648
-230.414804437924 15.9552809446937 11.6285892461184
92.1036331641806 10.698196518615 -3.07747545289238
-217.273177698511 45.9012488776234 17.7434908501628
198.207745555966 15.8899766386322 -19.9637942954022
-196.40955730457 10.4067645904137 13.3650735347534
-38.989698331123 -17.6024769962321 -19.5267856471396
-227.881617434025 51.4310158105595 15.643102074226
-194.57994552902 -5.21146594357623 -13.529769163383
212.910063731919 37.1598809799996 39.1953313221499
216.107195368658 37.5480105978192 -3.29331230950172
10.7147391959789 10.6401601726995 -10.0810129266958
-161.119083019705 5.60454390860174 -9.1791748071175
-185.752950589406 -36.2724451590399 16.999888790682
104.733653106444 6.31756046938919 0.950473510230605
192.087890466801 -19.7994009559136 -26.7480588064263
189.135793055727 10.4610172203956 14.6624207937457
202.137298027284 -16.4351505676444 -29.2309974391738
-194.005531902092 23.6419894974697 0.980696611748326
-218.658678358795 21.0805794667945 17.4926601495873
-211.95142235608 17.3530428622779 -16.3005914743744
173.558481985718 -27.3272116811964 5.52699358324908
190.898244478898 -30.0391595183522 -10.9209219103349
-55.6486729731199 2.74649884083822 -0.628346497880882
-170.536846343746 -31.9643131538593 1.98003764744221
87.1164682169142 -15.7825565599548 -13.0074123210774
-169.110076643582 -7.1580575396275 -10.4145747719308
42.3249107829009 9.1226435190448 -22.8799177724154
-217.834004994915 -9.85927251911766 3.24556357669873
170.473311439434 -12.7295047854317 10.1879448221627
93.9190831472892 16.9754644045693 -14.9717865836991
171.643239398047 4.82451086024598 -18.8421299077257
-224.902569279088 56.2513864888032 1.94879612807706
219.20972318017 -40.3706720409361 19.7771842141572
-206.957720622341 -41.4452443626187 8.38081449763705
-204.156248833729 19.8618996556592 -12.0278198429472
180.539634617557 9.71963460302785 -18.029671448855
169.307014881314 -13.7994312108608 -22.5046370414436
158.444079829365 -12.4673721126539 -22.1727227326751
-121.840841062658 -6.69023369035635 11.145267882843
211.268065615619 -39.9811763748911 28.7592254704286
229.689938790647 19.6958263775598 -4.3624032190624
77.1516710094104 10.2671994078408 -4.28795257006799
210.208263211575 -15.4221116418649 28.6499471368412
156.137368879442 1.88657047779057 -21.4338347577569
-6.283177324297 -6.73501674038203 2.34912835378045
200.542252906916 33.6190059231553 -9.81194322341958
190.746688640354 12.5170697565817 -18.0586295921081
135.4826604111 -10.9462344705099 -22.4725455849403
-194.944079062736 -40.3115150517441 -7.27884712558146
-206.701435068259 46.3217454010797 1.19159929499791
201.827123428953 14.0097837954381 23.0314141320524
-174.016779869426 11.4601699022572 19.3058496258599
-69.0393768728057 7.97570003238091 -5.01768930515048
218.409161645108 13.0229209655743 18.4367528395401
-183.75821459375 -8.84469855598019 21.8362887511051
33.6897410249808 7.06836655895268 -24.0598249961134
135.960231645663 6.16048264474504 3.31873471214323
155.410230369784 -11.9980740752209 -22.2736629322073
209.445297815349 43.4332622479848 25.1086430404992
223.88795323651 -18.2018579523512 12.3044378772633
-208.529596490026 -30.7902679067476 -9.39277261906093
-172.931859918996 -18.3076721136493 -10.2354034259237
81.4336550343233 -3.77165332774944 1.82485423361506
201.147421905831 -25.6982717975991 35.7026335868925
-184.088964687178 -36.4228937639266 -1.90810821112072
83.1999954330989 -10.3012664747295 -1.03599741711697
146.680995487626 -4.81892752577771 5.18027112845467
-117.095619849907 -23.3544527255076 -7.99018341599753
67.6972697168689 7.96751628175119 -2.92278210458385
-169.935448580099 7.1310454952677 -9.19496917450899
162.075914678608 -17.9524521006364 -18.0968779979081
-217.735605539704 7.6619894608422 -14.584045937873
-209.261599978116 -14.4577273463646 -17.8971931040702
-225.380739021857 11.2698263930229 -15.600876349128
199.24046013681 46.6858320263586 11.5764607628724
193.738754426835 42.247638393624 5.33024975032945
-151.836313642932 2.08219884311367 22.1072770525282
-247.907149090971 20.5917264161211 6.82392087044224
-248.223183406009 29.729431385164 12.1275012365205
-212.080027911668 37.6850135699951 15.1258718171703
26.6098480236907 2.90896651102252 -1.54386282432376
72.7794653696136 1.28750714887778 0.877437624676353
-211.390167957017 5.31272073767436 -14.2859888792225
189.980050971361 -17.2841518993179 -27.3566284805566
16.6028224402001 -5.14296678742675 1.8786487328241
-8.5429919132033 -2.73187683972655 -26.4207815781467
-182.772955580684 -25.9442825515409 -9.57547448767076
212.266021675003 -6.17208451830252 13.3775245460519
56.0505292718039 9.83245423859091 -5.59547000995293
215.799994983477 21.344936008762 39.0502709213488
-81.7625174599243 -8.34793231514649 6.66791895194375
-198.762385926767 -31.4490202437701 -10.8403266709346
185.73268933617 19.0346940955722 14.6785038559555
-199.159479151339 -15.539108887404 24.2857401710544
-208.45271414298 27.7510334428983 -15.8817957663544
137.348033512477 -5.24087261232621 -24.1300046535569
-71.3181655877791 7.75354784660389 -4.55498653359392
-221.443634404125 57.3125127218157 1.93422532772277
-232.037303100087 19.229822137236 18.194880522414
-75.4597152668744 -13.5241877083797 4.11015950096559
206.821966997397 -40.2757873461745 25.3185500397921
-22.6517148828779 10.4558440342785 -13.4272917177844
-221.839250717459 41.2980348782659 -24.9665873567015
227.325375808879 33.2920310263514 -5.63948562023132
187.733216763901 39.4652760139548 9.54749097011525
187.566778752525 22.6056024745154 16.320987471357
110.954690428509 -2.61102482266464 2.65324302160216
-207.042841892115 23.1851674095189 -13.6056308503437
-140.418572741217 5.88487360832313 4.11700905486463
207.313619486357 8.30766190897043 15.7938708710221
213.696402360991 44.1491916640783 4.89428663851663
-175.989654584462 -32.077227705547 14.8458032763817
76.7893754733905 14.3405529900752 -9.89009670748126
225.459990802989 -36.156091500462 16.8977615762212
159.277975956019 -22.6799748752436 2.52604767012466
152.167309542866 8.32357778222899 -20.7398053430699
194.46661591684 -41.0687746835311 6.46907397306709
55.8158599704589 11.1413761551654 -21.500434731013
-42.2477328616847 -19.4788007608618 -15.1363618812253
209.98088146119 16.559586570806 37.2382835291394
-32.344313403613 -1.48100405149404 1.78439414493736
-244.73398821183 15.2207708117885 -8.09636429755379
-54.7438142686441 -17.1368234926608 -19.6058592988563
-238.671085706709 41.1939137892845 -22.5040431056191
145.264934643855 -18.8297444099472 -12.9059447121214
-243.352942950562 22.5259785930356 14.9021795389631
-61.6167007897611 -12.6267128160776 -22.2826359384102
-212.779892507404 -27.2130619580334 -10.6865280459513
184.468183171803 -20.5700121386157 19.9402298340633
-156.517495176206 8.30036052416165 1.60633350864404
216.459435978379 36.1606079277073 -4.91994624835597
210.644717744267 44.2416478682625 20.0901370332959
58.7913338026715 -15.6825710233867 -14.9175254559747
-228.687875504884 -20.0362280790199 0.341873124936017
-217.28379234491 -15.7645357583534 4.47931270594352
219.830224751242 34.026582692012 -5.27674352321061
195.43739530474 36.1652747522173 -5.31502065167519
-223.54213202479 -25.8168961304209 20.9596083768977
227.199816774088 35.951944241491 -0.691434167537347
-78.3390858088989 -20.956668535991 -4.83761042346822
214.278404376871 -39.2934327648666 17.1195256386614
-185.211861046313 -38.2940806857349 6.70947563241884
-227.060081579327 -23.0505140435536 14.7260320408807
203.053578234425 40.7363023324619 29.9646401516966
15.7712087632917 -12.9840785792342 -24.1469798228558
87.6316265689437 9.01207045605855 -1.61240103368914
203.680617442165 -38.8491107757568 27.9875778228146
-236.379495519176 15.556247695169 9.79806803285494
184.724535377803 -13.0176107978938 17.0827680693325
-251.472790928191 37.9370835940161 4.31723891960574
-132.557476190158 6.8955608162552 -1.94045967916544
211.30005192443 43.5044916996436 24.9735547563589
182.597520269763 -9.10299913611139 13.8053558169553
200.391556446378 18.5198013635056 -18.4927019179283
-80.6699045637794 -3.71879282086979 5.52779448544002
179.632077192726 -31.7224627103032 6.02734327249105
142.183745954255 -19.1286307024591 -5.07150884922944
184.765109154092 30.6862237905027 -7.44065677927776
-226.292480141035 -19.1098153993457 1.07858607325706
192.72305049075 -38.0781445478851 2.33510584052979
-70.7858110763605 -1.51904320934197 -22.5432138653934
-208.022835832569 -4.40203409677564 13.1474739883577
-205.879153121722 -10.7488938639999 13.3086141374941
204.816527900249 42.8007618101771 0.673430997385133
33.3078897030477 -13.4345259643779 -6.64682607132763
189.797513727352 -13.0321397043921 26.2221469778532
-221.729806559377 -24.0212847001503 19.7069504136797
232.519911223937 34.9597970542211 2.42375379841732
92.4240393254129 9.25553067737356 -1.15350596580007
-244.565338412806 38.7917396579867 -18.9081878250006
232.558462720533 33.3215782327426 1.05569247843155
149.426345475263 1.11532734975132 -22.3321807650886
182.57339148572 -29.7073634597294 -1.55783224139094
-184.671826197306 -37.5291287374122 12.7200058430727
-207.550504985002 34.5131994742151 -14.7144630704049
5.06197070394025 -13.4916909265904 -23.9740521709542
202.034552705867 17.5512120492952 -19.7126057132862
87.2690770534048 -14.2664802029173 -18.8131883441841
191.136538005288 44.2599826808305 16.0922674216852
180.456981803713 -5.5306350149876 -20.7733558347954
57.3194876556709 -12.2934844784206 -22.7998896655023
170.554222621542 20.7350532425343 -14.9075334792048
157.591244357016 -17.744015656466 -17.6441893437633
213.663413754854 33.113544512836 -8.21005272599687
51.8127229790109 -9.73362367048804 -2.16636565061714
224.495778924761 36.9504022375276 2.67308822184501
164.268859715465 -22.9348747004001 6.91291862982441
192.169273893092 40.574269341759 4.04954372752771
229.396582843611 38.9350349240594 26.0830993695505
91.325936126099 -12.9230454525738 -2.94436869352957
176.293064458454 12.6151099657325 -18.5072610404057
-153.883479881965 7.01018770615386 -6.30081109029021
-20.9233466669834 -9.90356432978013 -25.4580510212839
31.9362556658086 -14.5391799576144 -21.9718335057356
-183.971397737968 -10.7151228872729 24.2648852794449
185.41972492462 -15.7057126492737 19.9026799538249
-220.215819163848 47.6336542887147 17.7413824378569
209.597895052042 -34.3852941100464 -4.93617496731973
-231.630233878421 11.2585733239034 -3.13119857244622
228.110647832342 20.1488504881571 28.5448965074593
-72.7125898976186 7.36725657769631 -14.2051652337035
18.4073157507957 -15.6117204213132 -21.3006197893826
-38.4473107045168 5.14688691687456 -22.5069971403572
-209.641888361306 46.866883911574 9.35414242333196
-229.792837754209 14.4803731444684 12.4150842253046
182.55499175065 18.9479380429425 -17.4512706408574
194.10898242378 -3.888118959872 -21.1979621640699
11.0778090438207 10.9495820267756 -19.0313474111525
200.250600859238 -22.3560232299549 34.857581584933
143.03630627684 -19.3236899349686 -8.35482954534274
96.271846812188 2.99571694172518 -25.1856799498644
-248.533135479527 45.7460927272697 4.67147807813877
-21.0356355159249 -3.92207204497179 2.90142217582547
-223.634966272178 -20.2371641635081 -9.01055668582772
167.563441776472 13.868328077561 8.05785069644346
-248.985642012418 43.5399874984739 -9.28645947367525
-39.2923247226722 9.40498878566493 -14.8329483811634
-148.584551409575 -2.49735965458116 -11.4715913206062
230.042655778238 26.9297711071843 28.6000943059895
-227.666768490133 54.0344101373953 11.0800984286167
-119.447387538214 -21.1998243476698 7.51201465667644
-49.8423294148308 -19.7326419791685 -14.5336001470421
-113.187314153745 -8.65566794278829 9.93504862118561
-133.702780606571 -13.6638631874225 14.5761768425972
215.708987890234 -33.4586933492507 -2.71195670363783
-214.771529926184 -34.8960353018889 -6.10173425869958
-10.2860819118621 -8.18005087713088 -26.1926238192011
-30.6378652365211 -5.8054514931434 -25.7591832974056
-252.638888730938 30.561904464096 0.506054268564658
94.7138680678361 14.0650226330463 -7.38744284246282
138.307196359501 -3.25302153126578 4.40099698200715
187.970581490201 34.9878225225699 17.4192477698052
196.135665043877 -43.5777358511642 11.572955659964
-208.972582673631 -20.2251514281931 12.4040394277446
10.6949363565434 8.92241598065221 -21.9954158601863
193.770487293764 -36.279940309898 26.7627950234416
180.941435841424 -12.7268968086855 -24.1792686449939
-240.915745753155 26.2064566921101 18.3819999524592
181.164050249708 -29.7609316142301 15.1033816750505
200.374101779477 17.7550256211329 -19.5711197510033
74.1349001959987 -13.3454013133176 -5.12230113728166
-99.8654920159415 -20.3493534523579 2.82583853520867
-142.166193362944 -26.6108462770503 -1.48574744197711
-229.959150905403 55.9061794285732 -2.23826987561449
141.086247821667 -18.9385375479192 -10.2727201685441
-64.9319534696916 -16.5744377992287 -19.2886966798839
-52.1532270216951 -12.5130897100202 0.670453856341521
73.3042515612608 -10.8825829118504 -23.4148226084333
-175.035573347014 -25.8165999153213 -8.44889441363698
218.689465928842 -40.7199343489784 16.6743295658733
204.228619375469 12.9308755055777 31.3436670177414
15.0647317193418 3.46533412892808 -2.15624496064882
-183.816733068744 -11.9583109540126 -11.3926777675563
141.859677706335 21.6647949614559 -10.0768762041383
-82.1752789726301 -17.2818259825698 -17.4322488329292
137.745183916849 -10.7308921507346 -22.6147452944333
-248.730777553452 23.5472343379511 -12.0044533554593
-173.076397244971 -30.4816609107789 15.6315324637826
177.979259685412 -19.6141661068981 -20.7646840153139
-76.8584989828814 -15.8838865046193 -18.9129892117135
-61.2707546731256 4.57877458636983 -1.80829538934032
91.9846776322653 -4.25427914723589 -25.8877335134873
-226.582352082976 6.93375816389341 -5.82905165723415
229.559882447497 31.8206538112339 30.8374053431724
220.328823803986 -12.5797513542596 16.1745189117651
-188.515512470334 -22.6390839663736 -10.5240004599163
-125.549798392431 -9.45544325573524 -15.236936912284
-194.467694236554 23.0867136105276 3.20360188018059
-239.868499300504 52.0191607924917 -12.97931019484
-208.448146846881 17.1553585412533 -14.3150381768681
208.588377444279 42.4128307317067 27.7020185246853
147.61172630096 -9.07828057944109 5.56358222904677
-212.906400205401 38.4633905135224 17.1457301596855
206.791046404576 -7.2327454046645 -21.7687550078384
-204.617614033415 -41.7414929954897 2.90912387202042
20.3089700797933 11.8287915429395 -18.24202258602
-214.866477826487 -39.0955955423389 2.24704870751938
-161.640095358771 10.0512001430562 -4.13072049661172
218.914238626151 31.7478881366326 39.7515047515318
-99.5518866398469 2.60998964833609 2.66443055321499
135.671785832127 16.2823229338618 -2.25724168341657
-231.232018930939 -22.6481273404497 7.40700377920154
210.73498992246 -41.3049184903794 24.3188998734338
-203.870310260993 -20.9012949112413 24.7636333414464
-226.404755009996 38.3177740668461 22.9641683199626
170.82875751385 15.4798867766027 9.40080168808524
-164.750596336663 10.308769970441 0.85368381291968
-155.306670120705 -13.7574873049321 -11.310408484541
207.663425003897 30.7724155801528 -12.5330867807036
194.923710267472 -43.4908977332035 12.4086269232756
-156.111342749712 -27.6669911901981 11.1270780583927
-160.772193869844 8.93953608278251 2.87034777107653
-43.726777321031 -16.3734958436996 -20.9399481384675
6.59447410896376 11.3085512538576 -17.1790563086275
119.894432922112 -15.2656769547782 -17.6790025245715
228.230821988372 39.3302268378877 23.8441648589537
-57.4743904448835 7.31193851686224 -17.5944561011598
-13.4952630720736 10.0409957763508 -17.7319123894675
-248.868236740114 32.0548443243269 -15.095714629764
-196.87562823429 -18.6450108242256 -12.6232374119654
-225.543153016245 56.1788001454516 -10.3314913567499
190.750708389676 39.0149404790735 2.78578039666387
190.425451523913 -0.53627723632314 16.0689331222204
-233.301726288571 17.1484603374534 13.1072723944009
222.691942496098 11.6613921110733 19.5618554895543
-172.054626576648 -0.404478425087978 -9.87997054335161
-93.771880584579 -6.33700610686312 7.03676076983467
188.401217073033 27.9278932287382 18.1495653777341
229.513141130497 29.0423339987767 30.3691358144248
187.05374986436 30.5403802322813 -8.7979651763342
186.154711098846 2.27222917778913 12.6928808708946
-168.158538433617 5.65490275114401 -9.93254040011945
171.290554013608 24.7105979344034 -10.9832304840964
207.168839674413 13.9711754517748 23.1874704470175
-147.893769208704 -19.8078235808715 17.3573850689254
159.674450321379 24.9452868230245 -3.48472312535338
-236.399190455325 39.118258915502 20.9949004615432
105.98577250517 17.9041277012398 -13.6891897694689
-211.132389910166 -27.7622471753476 -10.3956603661301
-187.96896907397 3.67549389457834 16.6123978749319
202.725557481641 -21.7034117619466 35.0039407994506
200.682522531313 46.4920779465051 8.60340177994099
-208.862005600979 -17.1755332616828 8.99975491782675
-73.4813890136623 8.54387443610174 -10.5595239226472
-61.016403913751 -6.59292690590696 -23.7049341007562
202.55275361073 1.49655159977056 16.7356667039902
186.496338403865 -23.5069219812487 24.8058874439993
226.208956632994 36.2305171556547 0.811084270267748
195.953269576049 20.4814504836328 -20.1119664345683
219.146963032626 -23.8563806866109 -16.6615467017999
-198.265021168949 -34.0985984966644 -9.61215884143857
184.906161806715 33.66416001752 -2.80590575918933
-156.036950020451 5.92840664873785 10.5861480271126
-8.61931340147621 -18.1025877591022 -17.08559039714
125.396980144947 -8.72756425037555 3.97099677909792
-206.65022514205 -20.2765443370105 24.1758810097046
213.896837064303 10.9467745622302 29.8200422376103
-208.986263900856 36.2322246725928 -17.0663471025676
161.194739067124 -20.3987069314353 -13.3256866556992
-206.545612855058 19.0821400769031 12.775386897868
152.644264539789 6.17685616763373 -21.1500373973553
42.5948313913184 -2.94891876730172 -26.7420952379448
20.204741258801 4.58216864892033 -25.1001422131181
-217.734734481706 -3.50847348319113 3.6730889089695
222.073690320057 -30.5049509709905 26.5898415353564
114.86207713302 6.96936553671876 1.38479200539099
172.659649805863 -18.0514138743742 11.822461516547
198.52200285343 -16.2928948587707 32.3135148177287
-197.38687828126 -21.5399459457107 -11.9874782474077
44.6559822768311 -4.09513637463987 1.59355008760761
-206.12967047603 36.7553702001038 -12.4672989500592
203.186032532464 -40.1696706177132 21.0609531571972
215.67448919796 44.4126606791832 9.52759722893879
138.92312767325 3.9597197440825 3.89146695351898
-50.0644687848428 -1.35091065502691 2.15524479708964
188.852242479288 -26.9235181716296 -16.0678639376884
216.228551573413 13.3376513414959 23.5299741771298
-47.4125296927978 5.61234517761825 -21.2356201813026
229.993784640376 22.2044029127868 -5.87207041419272
102.275639287862 -16.1680021581382 -13.5651800749819
186.923657946869 40.4202979055093 11.3510849692363
-96.7753591425183 7.47472636888587 -4.90916845736478
-91.6187976196877 -5.47360141675385 6.92425107867109
193.571640187257 -0.544133842633292 -18.48182106434
-78.9635918597393 0.156690396177281 -20.9023937318335
-198.011552960363 -35.7424351087819 18.5636174858315
-202.955432086865 -9.16665083346295 -16.0098985225338
191.400666760979 -9.91853916782911 21.8340743473413
217.883045792124 -3.90823054757369 -10.2579188913692
-72.0959811222706 -2.3529349072597 4.35982259370453
118.215168641815 0.842492287957543 -24.7351912293483
187.630785889962 -13.9545827125775 -25.9412616069051
5.69755605659693 -6.00218163828365 2.39377328406042
191.674392559031 -7.1987092892883 -22.3259730366681
-20.5192805942826 -11.7857947257522 -2.11624736029828
208.670464991303 -36.4472968405207 31.6735432106944
-179.36968522098 -17.8187703419188 -10.6285754826372
49.0235374557122 -7.54201280283602 -26.1005596583981
-206.207959231166 38.1016500754782 4.13005993234573
192.430564396431 -1.83997516109129 -19.2689665478446
-99.2767695311357 -21.0616386493796 -12.3182174444719
176.740343826722 25.271381801321 -11.4072906157259
205.380959214707 40.0625464780564 34.7102087650771
177.95703733288 18.4447672435479 -17.0101271161442
-239.675152959384 13.9530688392904 5.88339311801616
-26.0353704077299 -15.8227678922162 -6.78693647883481
-223.821069857312 -22.9060920590136 -8.08355073742986
-162.866500013275 10.5509763793636 -1.54717898740866
109.530397361428 3.11398262495878 -24.7845839905377
210.70380417912 19.1313769217398 -21.4770563033568
-202.14871737242 -24.2702936917772 -12.8520152072506
213.362693254472 13.2095338786423 -19.2191908480271
190.758215441832 22.6356235677527 18.7043662311335
-160.192264160546 9.6125575131751 -4.42481053727231
159.859504389079 -17.3348728798705 7.08223797158118
179.853509081873 3.82353163063998 10.3932314728591
222.431375032342 -21.8528985750473 22.9460997436112
189.004861355504 -0.42601341244838 15.0584420973404
-194.141645597023 17.1559082040717 -8.30276609146992
199.605799948164 13.7201194728911 22.6281036575265
182.35631413982 -25.4977678658518 18.304966087224
180.71669641021 4.90502557306943 -17.4580024408293
-212.830865718393 7.48266847117939 14.2096446315962
-252.630746528267 32.9987664058752 -5.61167817410496
198.024865741359 -0.112412784896581 -19.4394762224442
-241.781203665771 39.3985055673176 17.9866951064539
-215.287568357286 -37.5938116139921 -2.26038469295824
194.764760214623 -38.5100453117161 23.5349451113807
194.833090672328 29.9313394504586 -12.2325370688902
-235.021039305693 11.0016135210073 -8.96788562850691
179.663102350238 -9.45430121934566 -22.9864142105023
79.4190463790085 -15.6779351461052 -12.5305275410883
-131.723705044421 -24.2567714986908 -6.71130357676062
-235.063479541478 18.5076712429319 16.7417013108456
-162.639634845288 6.25874093484906 -9.10398587042221
-226.275683071574 -22.0652857871367 -6.23520157747886
199.858391514195 -26.6903087270584 -20.8410263012322
117.701331626303 8.17464019318703 0.925164955323115
160.076363348573 5.42879762838129 -20.4522490882524
-198.383019472083 12.3521134414713 13.0436780806635
25.0185460071135 0.669232448958319 0.325746309302475
-206.158752984057 45.3830183047317 -1.04585781313146
-70.0113907656023 -19.390072602913 -4.50749095803513
-158.540656679945 7.08023495586385 6.05993632017692
-44.6153832238401 -19.1828568233135 -16.299447256223
122.574904609072 -8.52554785583612 3.75216491704773
120.419252449072 -15.7852033440145 -3.09562827014745
201.024260214985 11.2749851800694 -20.5797842076859
-206.081592625615 -17.6156346058235 16.6251908025818
232.630627274669 36.0406723266276 14.546736067245
-168.654638829815 -9.45241253447299 -10.5237260911392
-229.976812430578 10.9185779715478 -13.5264204409677
-74.8701837428326 -7.8813265120254 -22.3162891194304
24.1558539084569 11.1052967931998 -20.0221703080539
-172.314157838063 -22.170946029112 -9.4795245435911
-142.590477530051 -8.01794443579032 -12.967725206959
182.422119486701 -36.7772875736388 13.9619045916764
158.341987212753 -14.8899846235577 -20.8607931114045
212.722240258558 -37.5963194948025 31.1887642003445
-214.780497661259 -0.334226330025215 10.2599095448863
44.5243792930095 -16.0217521234014 -15.7964080134096
-202.586711067165 -11.5276002286416 18.0431790756512
191.966560399002 15.2544666687201 16.7520593703747
-86.7495212394288 8.18061818965136 -8.24415143149403
-228.207867368247 13.379942543245 8.99577742440613
29.8734694309569 3.4377374620732 -1.88052792470179
169.377126324636 -22.2473809830769 -12.678749075075
209.028082597647 -23.7172612919411 34.888465426134
228.167084233457 38.3947830188113 28.8864603270917
-203.59933961277 -33.9646115782058 -8.06493019367795
-76.9283318949221 -21.4568127223799 -7.12467454342309
191.157487299474 -42.4308601356931 9.72621588602133
-78.542091028423 -19.7136531432 -15.1024971693809
-202.608599258179 -21.3669025119849 -13.4379540865426
204.517855200064 -36.3130446092634 31.2789585122417
158.992660449995 23.1286277371416 0.685519616302658
187.376582332922 13.5234225362713 -18.5188134045413
-216.50768118971 -5.06924027363697 -8.45151776201277
174.096668378497 -17.3257346603145 -21.5456391436953
-216.653838333402 -10.399373573471 4.25889897051613
190.747755827877 -31.1128492850618 -8.48353894378376
78.1847666334385 15.6707998540296 -16.4269646634992
99.7459810933234 -14.1870033236522 -19.0020650980519
-190.616350801905 1.02689795469185 -11.9543713423699
-233.971186155244 14.9636022321996 -18.511302199886
159.20409814686 -2.10692374298706 6.46784004450578
-218.635977211206 3.3238995036898 -12.8404294541903
-206.728969849991 -32.3084000889124 22.0227262600223
-179.943752404783 -0.170500911059552 -10.8786024209595
-153.342242276267 -8.53687736090706 20.2659596552143
-205.837249398233 -32.4207980017097 -8.57296166216407
225.946818116595 38.4684583295473 9.87939388057661
206.641051715298 21.1167996548155 -18.7028233731588
-138.057016186444 2.95273198754386 -9.25891540429174
159.443170517031 -11.1375802492519 7.19747774709314
144.004619465792 -14.3285357628903 -20.2588019425659
215.1416045386 -38.5036107512839 5.20558197078055
-242.162636108318 12.5896763661064 -4.34810172968965
-51.0055031686055 -11.8449732697352 -23.3656337634046
-143.82940895068 -12.5811256639827 16.8092277604988
-234.98902280602 11.4923135488125 -4.80547022606637
-114.977704395437 -2.36338865550191 -16.5157960300711
190.157437420943 1.61474019842468 -17.4484312147459
