-193.338497202498 -35.4003983104509 -0.972339844138331
184.358401910296 31.7277783577196 2.94990991404126
179.647284735316 -9.58936264059163 15.9653679148877
174.972857512302 -30.7771886366067 14.6145964120769
54.7429101546779 1.28118499863575 0.330603275662262
21.6322747746051 -9.7004355895856 -13.3944821169575
-149.201561720153 -12.139216062936 -6.35267566307103
104.158630876154 5.84914244680868 0.3107821861794
131.005562650711 12.3054077251824 -16.3373079852948
45.3493069523343 0.575600917286428 -23.254728741588
-182.684524656876 14.5394455409778 7.40119494882251
-203.266115385254 -13.1848496718088 -11.0528510775246
188.566819675545 23.9264688864431 36.3052436776501
-14.3709283979039 -9.69731549402171 -17.9329288091986
134.314883540789 13.689009605018 1.96229324301707
171.474781728828 -21.0659601765561 -15.333790312507
-201.435057498694 -24.0142387659719 -8.3891425336462
-206.02578926064 -14.2984170891862 -9.90011123780991
142.34319681695 -16.2483005663566 -6.33769408988642
165.769859455558 -22.6830165957789 6.07267024879893
166.307090593083 -17.7552178976054 8.69624156728523
63.6577165166199 14.2713636112733 -9.57601862376515
-199.106190622114 -21.3007745114804 22.8677174505395
-183.987462232114 13.5275486354636 8.64783943861422
133.143640661327 5.98707285252405 -20.4668387248903
184.167463476973 -5.05285957464684 14.0089471856561
-186.455067377747 6.30595963080028 12.3906723034047
161.700875643438 9.85296360259199 12.9921290021569
173.336856537507 -21.9807888718574 18.0159523980861
-37.8975984494718 -12.973181207921 -12.0327789764899
116.155323239921 -9.71494106415373 -17.3575495178303
171.112312888099 -28.1188608784362 7.46970498820412
113.768000114871 6.38314317824915 -21.4218923585953
183.152328720789 33.8954000605727 8.77785864538458
169.176430352507 -25.9405647740758 -4.72528439734308
24.1321867991986 -9.26525403876934 -16.0075038392387
1.37808192607695 -4.16076525184164 0.389839730726365
-187.949843620326 -21.5287970297324 23.6346687557866
-98.0915711945626 -5.51683358718079 8.52025569709497
-201.034290176442 -3.97208923219178 -10.4213250141003
-184.637781067095 -6.79827093138841 22.6746651531188
-69.4043218487023 7.6281003927441 -10.086258573853
180.401120027924 -32.6580127440013 -4.81149247654235
166.767723781758 -14.3256452949995 8.77369672035555
-217.026754994636 44.6769244318231 -5.09321819691489
-148.437226543416 -18.6065503112896 17.2584584345915
188.236620183648 23.2098049964265 -11.4105031830883
-21.1286045976813 -5.14238569288718 -0.723113510079394
176.248940250461 22.9208082116965 25.2776621198616
-208.908086358563 -14.9127402974939 15.4344931276012
151.773427967281 5.16022948655986 6.94845756996439
198.867618784047 -15.1713590476774 18.4354017267043
-156.798388210748 6.55164833337462 8.27884380119848
193.749400641949 -20.7315191498887 -18.9838921640984
197.796947894975 28.1578148373648 28.9523252475742
122.13435824109 17.8230030945744 -6.70502543611589
159.829968491739 1.04762520610088 -20.069241123867
-167.434738271433 -20.4969113501521 -3.33081158243344
-48.4517864142791 -11.8654951009183 -5.03231503794792
150.879609857103 -4.57284147292836 -22.7455985471137
197.616711200299 -30.6562551933721 23.1003448329126
133.761610261369 -11.3901607975167 2.24882885478422
11.6284639340744 -2.4158584107588 1.84379642320745
-214.558562782505 -18.4905592677075 7.25785439792881
-11.0306322930962 -2.37508240239899 -21.8924944332013
-204.426526549565 -21.8616229988075 -8.82999053516422
-197.997751505154 -11.5963939267819 -13.3892431472933
-208.037662609935 11.3667305493689 -14.5111736577809
43.5411998224828 0.630140135076392 0.995092441054448
122.392800819974 14.6351714380018 -14.5820493655198
-82.2778210420437 -4.83086997430017 -16.3569150940379
-3.96921743189387 4.29626979149281 -21.2969100640572
177.211676384872 -33.8380439373686 7.29203279680459
-192.557836650322 -27.4274756388215 -5.56397513713062
139.210368394238 10.0349614754059 4.37575246037979
-208.972831904541 45.7375967913692 -7.20364628094059
62.9501050371622 -4.80858739285867 -21.0363991902408
-206.600195779833 -18.4099388665297 -9.65555273030621
210.683247888415 9.4433515700136 10.5937258784845
-223.8473800534 16.9850831395566 9.06628931401237
174.063326189509 -22.893297562989 19.497920595372
-103.237291578043 -0.520923452192403 7.52246217609685
158.902505126942 17.5609772755146 9.24786578847742
96.6991624595087 -10.9157828751332 -1.63471790287511
27.8443024641033 12.7734696356686 -11.5797167533664
118.791392898011 6.85087408644021 -20.8638335066685
5.54336594589448 8.88169062268839 -19.7081014639453
160.873954094221 -1.717413626525 7.12139407818047
-189.844781830813 23.9138012780383 -1.09935216237419
198.911984387235 24.384103461121 33.8815915338795
-1.28996993625976 -5.10933887980455 -1.61537973117237
-134.636853771143 -12.1058054462581 -7.32898934270667
176.11067519513 -33.077245838127 5.48373610559751
-122.393177631381 3.85957242947649 -2.31260159102283
92.7655113152747 -9.85254481273523 -15.6029535520871
117.458114762256 17.3767017390626 -9.53457612375657
-184.803754950226 -28.847897350414 17.7565644688289
-215.019131031746 45.6090879820982 -4.8537086129727
136.337689524691 -4.53887398325125 -22.2517305609414
39.9911349651012 -4.49783734791905 -0.170494736598366
-150.275728982177 -20.8600549147915 0.402902068333184
-126.634132800826 -8.72368629129359 -9.97595217582125
-149.811654212567 5.40816840110084 12.8840341775796
209.615166700262 23.5740416814402 2.1569649901903
151.394070884716 18.9070903035619 3.70182478798774
183.257180714893 32.9208112924674 5.16128271285098
194.186080079574 20.815543826117 -13.8163525947801
185.765474366599 21.4994177721184 -13.0759648714919
-159.164431017792 -6.15520019930504 21.1303052861105
146.64300007963 -8.5013672548204 -21.0517937730591
180.027848302246 4.7213571201289 18.6723300488423
139.415757383313 16.055606892856 1.48669460729721
191.952445143231 -12.463994217076 14.3711051121932
-209.03321803156 2.74628304095989 1.45132286499484
-192.718201429662 6.84339481614977 12.8052295132703
-77.784004991125 -13.7463012801257 -11.3128127518802
55.8913208664526 -9.92279010788819 -9.73914606308948
120.266859089447 17.6355778366737 -6.20083638196706
138.495747681345 -15.6265288987047 0.297938046703214
120.15353541998 16.2952407419589 -12.4689290578223
201.261051580643 16.3442990915428 -13.6386926069343
34.544481568828 12.4369656361945 -9.82861637091292
-87.615540267016 0.0829205863144903 -16.066391227159
163.510898955192 -7.60912836044748 -24.2534945026855
195.74813291789 25.6187711528425 -6.11401619193618
-205.09953707406 7.72476861312085 -12.2676665770195
55.3030208519312 -0.221575386910562 0.729068989930022
166.057723266396 -19.2586741375346 -13.6427414145959
106.08350799227 13.738799751974 -2.38432656035566
136.314699590702 1.44454107805663 3.57755241051006
164.964593822319 -3.51403969724015 8.39908792922161
-196.87338240256 11.2201220347927 12.6634263621713
205.600313399816 -33.9089357322642 10.6325137552767
93.3062902671988 -5.14378046286081 0.752916468401506
-92.3958061434752 3.68441706653378 1.25425488930615
36.9348765975569 6.16626740074826 -22.063845886953
166.992760522136 21.5713014431346 12.7855364062598
195.217776139328 14.9344346064137 -16.904138763263
70.5024886463701 -7.69517982653489 -18.050509989102
-24.9421431747382 9.58732019350363 -9.51926473024011
194.452441270571 -1.96624431220887 8.11219135049782
-24.3038090610182 3.54431659996449 -1.24480889638075
-202.022977022129 41.4635133462281 10.6717725376338
-133.411992067199 -6.01265338967424 14.668400172062
-213.968552937009 -27.3219600795796 7.5255572176117
70.40676892196 10.1060841345943 -4.10584938506389
101.671792959868 10.5947676066892 -1.2059671436754
-207.856198723231 -20.8101185029507 -8.43461607821133
20.5429383064261 -8.61319292631393 -7.63281629475162
-104.856821109138 -12.9513923781856 9.23477648944359
-197.884449742578 -13.0811881228653 21.8171756228551
-30.8691541558232 -4.7417217756002 0.952325178106153
47.1738177412071 -2.96155780077428 0.585725531945191
142.319527424808 9.87214458956947 5.08236475223662
139.104767505525 11.8419324641329 3.99984047238072
-214.929811844265 12.8793525157475 10.5845099186761
20.1308795114914 -5.25120865856486 -21.1064935649904
-196.450376853587 -11.6916902238762 18.0770182799236
-75.7694225980542 3.71923820631969 0.102908619633422
-113.336222677554 -8.99625330851508 11.387031480948
-221.53004713331 38.5935290020419 -12.125061706746
158.363312513152 1.95316607778809 -21.0465638609701
-12.1442814666979 1.47428852442395 1.40523838555798
-66.308710223208 -13.373566272066 -2.38845303262714
-117.257119196731 -12.2784563039462 -8.78170305822464
-108.214255932168 -0.957499625784429 8.66388325088221
174.174837894834 -3.30199586125792 -25.5829454684019
-68.1744494334825 3.75522837306832 -17.1846275020156
162.949988897286 12.6787578455921 13.7537229010668
197.537347924853 24.5414988636006 34.6190361061343
168.911735419953 26.3444299030934 0.965763789443467
13.088646895094 9.74398537180513 -19.4253577966293
-206.342652409098 40.4396896803107 -15.5123192530516
-225.562554083538 15.0773632886704 -5.00331632418103
190.713777511182 31.1122024322852 2.11269555413324
143.088497856964 -2.85204619952712 3.75416497408507
80.5469782152514 -5.43506660509603 -20.7427664418085
193.46259155604 20.0303906465303 -15.5697288062786
171.289770848802 -15.0942677508304 -23.4585631003001
122.488576153642 -9.6851553489146 -17.8728449791998
160.59929719131 21.4076818528567 6.51346381994088
-204.268086457982 -17.0925947809972 15.0667906228577
-156.660576552735 -2.67653678456687 20.461650624933
-211.806273043576 -24.062345157625 20.0037589613974
-214.298543526612 11.772724780191 6.25005499011635
-33.3681464585515 -2.53632437147791 3.25129401918893
165.312021894137 -12.4335727560922 8.37929606401598
20.6207985706946 -3.9652814720843 0.560154354307828
-159.462965039297 0.212823842936491 22.201863641874
89.3448217629429 -0.406998957725017 0.784102550483214
95.9069586524773 10.7219513305492 -19.5292396827633
69.4276888338892 -9.62423457203165 -14.2669928204225
-211.887136439532 24.2255240267761 18.1594664353058
-44.1550174541626 3.66648633052997 -19.4362435600309
-206.34738638451 -8.55889770541031 -5.82128507303201
192.572618059352 32.8538654642333 10.9724144167685
-201.748347342828 1.84631704164913 10.2614379902876
-196.196103065502 32.2405297405494 6.0855262090344
-157.624654940476 -5.00571246317973 20.7066505482954
37.3375771295098 -5.83755417984945 -20.5803991034612
181.836930168907 -29.8412851840296 -8.54531424270829
172.072117383054 27.9137810030743 17.2767030527058
-185.727838744963 16.8029381322987 6.79752271884123
171.133233952982 -22.4764571738157 -12.8724770314434
-176.233299142451 -12.1968991481953 24.1932400741149
123.045532768989 -12.9830427100782 -11.404601409179
-112.8999495156 -14.1562132310115 10.1601365281918
132.963391118093 7.86681966080663 3.51068686500877
-172.746552018767 9.21865224678418 10.3239683805135
197.56990801484 -32.4979618385108 0.708776727022587
-204.17233523712 -29.7527820052096 -4.69352402415793
-200.804884444001 5.7604520961649 -12.0918885925608
-160.592995795425 7.33559593529256 8.33301858077273
175.917605238962 11.8510017028694 24.2759998382403
174.570444781623 -21.5641291744909 -17.0599573125224
-169.54681024442 -3.72316978390586 22.9363972036855
-175.671855236174 -7.45026471361962 23.6475110501134
-124.049066167978 -7.36736839472509 -10.6875970968803
173.78829497467 23.4303795099445 -8.64579789227941
174.802103284768 -20.289491661827 -18.4523446831
-220.998122628751 18.7678047681616 -15.781799899563
-94.0804008065821 -10.6503663417391 -12.3145612800601
189.637430063595 22.9857543816416 37.2388254402014
120.289277007592 -2.61534887238859 -22.5332062216151
166.788180005153 -17.1219137158246 -17.3286344857077
117.364729372361 -13.4690967171487 -8.95259956289834
189.041616549262 34.0939929524651 14.1589563043116
190.16034400231 -8.80599218136404 -30.7494244264307
168.81745006879 5.01659299823575 -19.5205211568279
193.178834134746 -26.8709551248592 25.4752834370243
-205.237116778602 0.447266226470848 -8.20034181667569
-142.080463166443 -4.15495104827563 16.3455775046199
-213.189655469664 -14.7922987547098 19.3043323228594
169.616670298504 -16.8638938275086 10.6509429436517
-189.04447361371 -24.9473559224072 -7.45011074852188
162.840275598449 -13.2389900836317 -20.5384742384583
166.029397810858 17.9189864696871 -12.3396512438072
-186.713158674447 -4.65692353807166 17.9043996759224
54.6643027640411 11.3479039043445 -19.3428412566992
19.3762924403446 -9.77539844208973 -13.0212084925003
-176.114938841473 -27.8662812808753 -2.97117531673086
-142.372665907955 4.59764015214831 3.25189091387655
-57.169952935644 -10.6938772178698 -1.45359518547956
-113.895552018281 -4.4825385169888 10.3524448430566
-139.690587516564 -21.5439711644177 6.03568712726297
-197.024426899498 -16.9526384111046 -11.6953298518796
196.649621686165 -37.4865123724292 21.0005186230036
-210.950576480735 5.4672814970532 -1.33692477410839
181.667383460411 14.9804862589792 -16.5483213821613
194.634605990046 -7.82934546837821 8.59081472320866
177.059681159427 4.84682237843063 17.0958074205751
-183.347686512091 -10.2734174734013 -9.28280833574015
-212.136946356079 -27.5633166137259 3.76305212616572
-217.350795448655 44.5141391774942 5.47450134354991
203.629895919502 6.13825499438111 -4.47753303493226
14.7330461666934 0.87768312689585 2.05669081704323
156.094469267692 -15.8452381950012 -13.6353025732572
15.0513267897111 9.46656150113043 -7.03839673053122
172.558090490538 -5.78499217651851 11.7107387910969
200.279184145941 -6.65142449079671 3.62196638962655
199.81599773493 22.3676905354548 -9.65537177458573
-198.601848534179 2.30788969498018 -11.2908269213356
-209.890410335875 -15.8559636493455 -1.4195985749866
-158.990035479779 6.80726348329018 7.15424450553457
193.159093731468 -7.19298495961601 -28.2854849308237
201.537576432593 2.94089670275447 -5.49467372909037
-159.955770432871 -3.26921278826681 21.4575090479208
30.6712190511984 -9.36601718454558 -11.3563618635593
-223.106932028246 35.2582922017015 -13.2275146864542
-182.923836932751 -0.196803928815356 -10.5225542085479
-204.482094473034 -16.0544561527771 11.2130500106199
14.6015829595965 12.0672148921961 -11.2558076114469
204.003761916207 28.278878730718 19.1404603014145
180.30294107877 33.4291026326187 9.04037628869225
-44.8642541588316 -0.489124723191241 3.52082161485552
24.758283279123 4.52484201415104 -2.47281308310899
103.060332332922 -0.224835064409013 1.19877362235523
84.0064362237373 -10.8551473837941 -12.4625221367231
-163.27576801246 -24.4358370692201 2.62437843088106
-209.844993852603 -30.1441745701988 7.22166332877015
206.952144096654 20.8335493193577 32.2328396852342
195.133773439877 30.8125748449617 5.05257750311122
-122.401902062048 -15.1389774623492 -5.81157317259111
20.9530070026081 -6.88608310301103 -19.8386394682429
-80.2795121835678 -6.3492735578415 6.42829553936739
197.244998877357 5.45684630331485 -12.3559095567187
-226.522339705547 22.3894356274596 8.42578385107187
-24.3291466557355 7.67176847418318 -18.9993182358002
-185.114802898454 -21.8711226122752 -7.98050078394091
196.622527301799 -13.7102911187824 17.373875750012
203.078066281563 21.7846322857685 34.8585379391988
69.8055672490303 -6.27071086292366 -19.8095144557856
-206.437589347542 36.7808136365435 -18.3047151564442
165.708882532692 -16.1474502041053 8.48123254247099
-176.77518752354 1.94604188122302 19.4425947362128
172.321629734552 -30.9948454315174 5.78113652952236
-28.2092336015805 7.69923601094081 -6.66493761708334
138.572340817268 13.727576397367 -14.7112994048336
176.088855984775 -3.87471664207083 14.5585140786393
-205.495841079436 -30.3224008318006 -1.80029570743002
198.544526407358 30.2934782501035 18.9146468106489
-206.929342057442 -2.72581588649956 -4.49330884267807
-196.453089248987 -8.8350625282829 -12.2042531667334
174.279962322264 -2.40283561342227 13.4472633003618
107.289065511315 -10.9566075309592 0.386232004427615
-204.464854893048 -15.2798090685279 20.2013188273671
-105.54802658759 -4.29682757447393 9.16722284250064
211.943848306325 26.0140315972351 15.4545192906919
187.793771163031 33.6173566993278 18.7071852561931
-222.3381884046 27.7379718004432 -16.4913674649383
129.892055964204 -4.0207419735272 2.49865567434087
168.127589111419 -10.7408136278075 8.96426160528106
168.358292884461 24.1203454736172 -4.50384667923051
157.810007028854 -5.35332883559445 6.07823286222459
-216.432140136942 44.5469239999397 6.49800406545487
-36.8893393629979 6.01730030608053 -19.055870719643
-3.29664604164746 -3.71786172266541 1.19196996133545
-188.880509624677 -0.710531764210658 -10.5497089444381
203.714503646213 24.5284389472954 -4.79508035793957
177.970157646119 -34.5096165300138 11.0059235929542
-195.431981006718 33.3254848569769 -13.1458447686082
-159.047905174261 10.2741308475412 16.5811250434377
-150.683185489256 -6.72526285716589 -7.55485063386635
129.223631804275 10.6077948356066 -17.7690797495086
-116.42505102893 -8.95651332423567 11.8949856790892
144.720347632461 9.90039729746579 5.64811604015443
103.522277289364 13.8927020236991 -2.81249961874334
-207.059178311295 -1.39770998626076 2.99060891129683
205.918780748723 -12.2108032385332 -3.06809474344644
-103.753627306735 4.20022247994212 -9.18498316255996
-186.10752535631 -6.06142427182324 21.1895425373586
163.006813309976 -1.09767504498856 -22.4933046454756
-215.614578964823 -19.8368310916453 5.89296074871699
174.296341513194 -8.97660574692212 12.5265857347036
136.147849304711 -9.04594775599877 2.72549039188831
-205.964494214481 -3.11127832004307 -5.8315330555228
56.6833251141617 6.48286673564728 -22.287033635968
143.533434886242 11.4396032330628 -16.3231464222007
81.2400424561057 12.2052365453417 -4.42098433278535
-75.9923256440628 -15.0810779262281 -1.44519907080881
-213.051008095972 26.8996539804953 18.132357986829
-74.7158561876892 -13.6413605298736 0.575911007727661
-207.942803017856 -15.1049013538834 8.954098978264
41.4483473648148 7.61160555594378 -21.5779885066475
-214.382334030824 10.5969175182558 -10.6905052363735
178.162241328037 -12.2947074704759 17.4548058414217
-75.7821154120672 -1.30663047868607 -17.5310846208593
165.029548264104 16.0899116179844 -13.5462739187801
162.623459867587 -22.3534892969617 2.01796035513174
176.371490265955 9.37436705984041 21.1625501423275
-133.649091335467 -9.07530207164104 -8.93489462374945
156.852535915695 -18.9744286049978 -6.79913201816171
-39.1488595630388 1.45095793640451 -20.2155290143561
170.807727680245 -26.624584818353 8.58515036910981
202.635005460513 8.4029943270369 32.7410931880582
129.293857136777 -12.4209076555999 -13.8313165936076
-198.808555153676 23.0243080174887 11.7473383252322
191.289310982572 3.4564258576134 14.293512870426
-189.558085757343 -2.80578410055354 15.5157685834187
-205.657525441852 -13.3236519440144 -8.74475608478484
188.104433901948 -16.287252842962 -25.7704878467629
200.083434784299 -3.14770949607558 -13.4435640100504
-69.9892950425813 -3.84023303117835 5.45068346931458
-184.655087544191 0.0837836174762359 -10.2708131963346
12.4431799930483 -5.7813205672042 -20.8645912310433
167.810699765819 -22.2196566785296 -9.81558065953878
-29.0909809280659 -10.4781705406067 -17.1023981099424
-30.3940017081097 10.1253360205213 -11.1675198341777
93.104592231398 1.05902628398255 0.758344777499513
101.619129660213 16.7239213900108 -8.11103174886347
-6.34856633580094 -10.9369068721092 -13.1156419259984
-65.2634242698398 -14.4454616894908 -5.24919872697843
169.045023458976 -22.3547722873951 -10.9855743908012
-172.787965486123 8.57192184915419 11.7730243292683
199.147190067989 29.4969025436656 20.9268341949581
124.236956585805 -13.4574396008796 -10.1808978508069
60.1234120592068 -10.0105451861145 -8.27432622315516
-224.454794761484 16.3404906119811 7.32652230115569
-65.7401699870229 6.07562273828627 -15.7362732964523
-35.8248060231598 8.02248693227117 -17.8234701814198
-21.3584062832871 3.10189734213282 -20.9049317287111
168.490424863547 -26.578841820503 4.04434431789443
137.856069027487 -13.340183350911 -13.3794454187498
-172.289206382968 8.40267690713385 -5.84616916958531
180.52138735154 33.6687168675435 12.9942134521596
-19.6739467251595 0.941590530474435 2.00469736466933
-191.934574834357 24.0288379914903 -7.27989590282592
-145.390557907639 -9.29109824477732 16.9963187650949
148.89467891304 -10.3315391917241 -19.7982566869379
81.4366876766941 -11.3292605984213 -8.50434999902029
-15.1564548267346 10.5057943091612 -10.458235197577
-194.49827005751 -30.3193755651934 -5.03197405908221
-166.046489552487 8.55596682996276 -1.7266969472804
197.632752439416 22.2657647694585 -10.4963349412545
-108.254292080117 -18.1691443795488 -2.06604258331339
205.971499219644 5.16020825323814 2.85726036395434
-214.989861298297 -14.7600043233224 19.1098843736711
190.354767919343 -3.18901139469912 9.60655619326632
68.7856902639561 13.4805058011502 -17.0854914232288
-117.495055862016 -14.9484397466452 -6.30834391431923
201.027196509265 23.3123531095378 -8.01825077208228
-188.571020622586 17.3984435290656 7.6172784301081
-197.467513387907 38.082246526685 -12.7559666611184
11.6497724162936 -8.96564189516195 -8.38490599579838
-24.2272928298903 0.628059958481423 2.04315592021005
128.047572881485 16.6803286297273 -11.7342311739242
-201.567721241341 14.7283274501432 13.4902055569161
-163.808741508063 -10.941439044137 22.1040380263104
-149.227192083285 -8.3616127532852 -7.3718078188474
21.3599853526036 2.49178837429333 -22.6253349417367
175.512385107878 -2.3456341600358 14.5081632077716
192.669236956771 -11.1737045540802 -30.0281147670543
-54.2578864480567 6.79411485299526 -16.8742125488455
192.303040989426 -18.5593135588378 -22.712025872512
168.600080516408 16.6525352304459 -13.7208006212355
-174.518649908466 -9.07972355103879 23.7985063975215
-193.604560992963 -30.4296992158384 16.9797972269122
-74.1975942247629 -1.6496585123804 5.46675597336804
-124.428196872612 3.39938483633773 -4.62694774117289
5.68505837211151 11.8745211802164 -11.7119582203828
197.544324783169 18.1167079095433 39.1675257755208
-119.703426685108 -4.04207031088688 11.6723242863778
139.525349248944 -12.3934227085261 -15.582341721182
-188.234125434766 -27.293813637384 -5.97635021784596
189.336279860123 26.7409933412647 -6.44694539543704
193.564324315715 -6.62031369430985 8.19680774947122
-191.789837797072 -23.4354929453069 22.5905892643342
-58.4746223288638 4.72293504567159 -2.35125520509212
190.996348405716 24.0601106636361 35.8674595669495
-42.1613294727429 6.86263648698708 -5.6672863403593
203.422130706976 1.71952718800561 6.0895064323233
-184.828859562142 -33.5007271892736 8.69287148794625
-197.440318839374 -9.6721918092268 11.2423253302901
123.551980078048 4.79655483593941 -21.7018929820326
201.24172309334 -4.52803931994203 -0.25222175095573
109.342519894761 -6.58196007484347 1.25466817553144
-78.722216674188 -10.8759550499862 4.45014012667077
-210.77507111777 10.1032953092797 -12.2949274605
-218.780862157289 10.5929590378149 -9.17802396324534
159.764040128184 -19.0628408656905 -8.73483427909299
-204.213144850657 23.2135966311137 17.5983053312298
175.177160537494 -30.203004680121 -4.88468387682291
-118.008419054584 -16.4686755560251 9.65662916422373
-225.449789689206 16.6263420187263 5.81658939918788
-15.1489454446591 11.3824326196476 -12.7859462991286
9.53008792069007 3.09472900335857 -0.754355671568888
-98.1171136603695 -7.70295600707606 -13.6146706143454
-67.0565242899664 5.64998836617973 -3.50406633951095
-24.5988224646084 -8.03451456139321 -3.83933740997988
-189.640769218492 -9.76825807343943 -11.6027320608022
16.4173066610698 11.5168145430126 -9.82808252744518
205.954273261217 -32.8949958695222 3.53137979547025
176.202546905112 24.2960517277552 -8.69776288790657
22.7136925592332 2.85977228843332 -1.16032532003288
-189.805187422973 -9.71172974769759 23.6690580633228
205.712170139441 18.8377542671705 34.1769855397843
205.358971474132 26.9869274276603 2.49883714533619
162.794759967131 5.70198572185004 -19.1161714808521
171.367497975823 -12.5510757192615 -25.7626102170201
-28.5913871997306 4.05037139746101 -20.3068970659842
-156.261656687743 6.93271264653344 10.3613984687596
77.857671073955 11.271729804196 -19.5580700101104
165.449603884666 -5.39025349053977 8.2483716327829
-115.946387252063 -13.655923777847 -7.80690455663705
122.409795476661 2.09875801053547 -22.6513111548337
130.187039097656 -11.2521504842273 -16.2930148955946
-94.036899327747 4.99565651243652 -10.4847541926704
-198.327858932232 -33.7164572813983 -1.38034216351138
203.636346591298 -32.7626015388529 16.5845216102357
152.24823240199 17.9061437310946 4.94081079780784
183.43191206518 -34.2631529351064 21.8154462934882
37.3911131321163 0.62064611337788 -23.1635331075328
-70.0800708667685 -1.62494856398599 4.74510270445484
112.701968572503 6.87157580184546 0.921613686565915
-204.911765293112 -4.03644199510984 -7.54411221444896
-155.232578103378 7.12879885858776 13.8163225348768
-47.5427455574509 8.48859829591065 -9.08634094088802
-217.281675496746 10.9246872594517 -6.83008615356575
211.216818953753 10.7609365387048 18.0009264945274
-60.0661324805684 6.86479087543472 -5.96901152392933
-223.726080661851 14.9415356801349 -9.79160117579565
7.23416382964192 -5.63539033751614 -20.9875843522012
-16.8244135987801 -6.92411522384222 -20.0355433812907
-221.720143731132 33.2745209604457 12.8173706434629
173.113794490955 3.16822454011973 13.227110112457
190.161115020953 -37.8992917553766 16.3830614827109
33.5206557023415 -9.39632794094833 -12.0589167739854
196.47773662639 -32.7145264054259 23.2728019211165
-172.152455108012 -26.5259807464743 -1.10495752312074
-175.063427948694 4.3190974938583 18.7145910190247
-68.3605731854392 -10.2823367424961 1.92815281944329
191.231966518739 3.9843082440116 30.5387131172707
-206.974453139811 -4.32249768957784 1.32073506152959
195.790730582117 20.6953822024827 38.9855818902169
183.909964207553 5.935784952006 20.9819425310147
-17.6921042304099 5.218685790354 -20.4982540397502
-31.9491685763981 -3.44241068078597 2.52421926645369
-28.3311888007671 -12.2674996795515 -11.6098323640752
-205.171474850805 -13.9242603822104 6.94813476274243
-108.763198722625 -16.8706683518467 7.37457987708558
-42.7155283087908 -10.7156165355974 -4.7226137355774
-200.183564963026 26.9547614308888 13.8311525345839
-204.684979840122 1.80194482581361 7.80982593662924
184.675177889055 -31.8651589779008 24.3633756692031
173.772217589573 16.2231481981111 21.2589505412975
121.039355330391 -12.9937645882126 -11.0470246939468
-217.149488351968 25.9752492911835 17.0033538184132
177.587109620146 10.9963420127908 -17.0415959118518
-24.7069957908305 -12.0006374987164 -13.7070342125068
22.7831307741087 7.13759721931214 -4.44903089581516
201.930203816043 -4.26559167289075 -1.93237424161708
43.4078308192416 -6.75223442314788 -19.5649310993554
-2.89890275388818 3.1431176065643 -0.729733728207832
-174.645783503477 -28.943566830925 0.612455500079388
-87.3029367153011 -10.1021988867707 -13.4687928879095
-157.411565263784 8.50595958432744 19.8593174483849
24.8349258971393 -0.811684677737959 -22.7661018143634
-76.8116573261695 3.72211403949343 -16.0235887354073
-116.839340739561 -1.9834730974986 -12.2306970226831
203.048170784291 -35.5968040066821 9.39995549644319
199.797992957356 -38.4361730714871 15.4051028868097
166.457622591678 19.3218214766887 -11.0264342459186
175.31157979302 -8.21810545358697 13.6204083774974
-224.852889563742 18.9481579195243 -11.6902280850559
49.3939211671129 -2.34112275702859 -22.4562578127037
-87.499782936287 -16.6747277323699 -3.14241852784087
2.50381051314018 -10.465091701776 -13.5765411312337
175.082315389408 -24.5159964886876 -13.1754784770522
-134.134920514343 -19.9143295647991 10.0023603697787
-191.495596976976 26.5308722455135 -0.756681355795446
-168.47856808592 0.566511839849096 -9.12330275101133
-169.086481439249 -26.7336161483156 8.12431536472621
-203.802016855778 -7.80387027562252 4.99290702688917
-228.24744680729 21.3831266761499 3.87369358925404
111.874491012647 -5.78123454779047 1.4154493018219
-210.110228803603 -23.2580005162176 -5.5709763234721
-132.221528219142 -18.9897527522885 -1.31314112434637
122.8508350313 -14.2704783433763 -6.93247765969387
-229.462855674987 26.6715590260709 1.06613534586749
194.821389425669 -13.2804289859387 15.5658718455812
-213.270541119925 31.0670835025179 -20.3192878316698
195.931259941763 6.69001972608392 -13.7701293895555
173.338193262081 15.7775673981953 -14.8518142835175
-3.85354917710067 -5.86500753347859 -2.60405666383167
194.997070147926 6.53721755841547 35.1383533221429
32.5257678877008 -5.62057133963509 -2.26372034416183
-202.409699965763 35.4274307777731 15.2469906838209
8.47355887169906 -10.0289883242104 -13.3077961707824
1.47763614406899 -7.71415022715452 -19.47295528382
-222.438684881414 42.2772458203934 1.13849479792432
163.917172984585 18.8365914735882 -11.0137499083279
-80.0441904244588 5.99497270873287 -12.6521346971257
172.075635099399 -11.120045716877 10.9703602365649
182.923155448313 -0.350602624708762 -25.4681964022991
-212.146619165538 43.4095365521868 10.1782761179526
-186.331136098431 -26.2177156852039 -6.53920101436409
-188.148330744703 13.0754345210547 10.1058045609708
-132.51462713191 -5.95009335636177 -9.88387768722976
52.0390500826847 -2.92330323590127 -22.1870670203541
-87.868734147416 -14.0923694816753 -9.878826019846
164.366733598602 23.875134263903 7.12221449462296
-208.54312489661 7.91653374711502 -10.3196360261974
-124.228443987311 -20.6439513374908 2.85147931951295
-194.070833701126 36.0305980690122 1.83577127556636
38.7954094854645 7.00834138371407 -21.7886914852992
-74.6256200829273 -15.3902013255342 -7.55810056557608
110.805132730707 14.9053126419447 -2.65209848638763
-180.01321412297 -13.2225297446847 25.0047076195015
192.029677301748 21.5203149254758 -12.9084153848427
194.57327289325 -18.5084045636774 23.184447721056
108.510187447091 9.57995720845539 -0.118575012129775
-177.382353616842 -1.41733479600947 21.2559570135931
163.719701837188 -22.5963206654214 3.22905629369402
155.808644066236 10.3686980886696 -16.700387861796
-212.074198460295 -16.74300864375 6.1655593406904
174.19371379613 28.0806743589001 -0.280847374146506
198.634272129728 -9.93215020300079 -24.8496632792441
-214.900284355845 39.8204877377153 12.984022530725
-198.807739655331 11.1836706190915 12.9325137849195
202.672283391604 -11.8211554797768 9.01227472172289
193.078512856963 33.0736438834423 15.4549144317756
194.993935326559 -33.9754149278658 6.37578929539978
174.898159890299 16.2932882337656 24.3042026599159
42.3641025984647 12.1426889886103 -18.1458589007191
-82.2762152664517 -14.0685016496236 -10.4036068163653
20.0916529539685 1.43156970191527 0.514084188634699
119.211052304219 11.3019553155066 -17.8133327616404
149.684782039081 12.7430891798243 -15.2579628547756
-208.311904921651 40.2684040836633 -15.9530619307105
185.380618056239 -37.1632059967048 5.37319662191134
-14.6228115715997 -11.1984366923917 -11.476062340461
54.379470989086 2.77215002898437 -0.658684640540966
-80.4467996586999 -15.8407428848149 -6.06204882517079
171.194392708962 3.66806502530643 -20.1899359836756
-188.273754817253 -7.14107783153935 21.4721994743695
166.352671669771 -24.7797361201206 -2.82820886916548
-7.72158954459257 -7.37339353493767 -19.7979896960557
201.315847910525 11.0474345985962 35.5281955729837
8.40250102049568 -9.02670030303027 -8.41535956982372
212.064291262296 14.1747234165478 6.39425580386543
169.053535624133 -26.9173505888098 -2.04648098858868
83.8907616782997 14.9564098775819 -7.07183546201101
188.644252187262 -6.67667906746718 11.6008980128758
190.745278530748 -38.007185090158 20.7303034218189
153.247988405182 -10.4594964228227 -20.3667185211165
-54.9784830971109 -3.38801916938654 4.24207643551211
115.806159746887 10.2579221509564 -18.8173187080525
-100.135695239515 -17.4770732684314 -3.03539193683948
-212.745087668971 -18.0909964675116 3.5266950827846
-76.3178830232761 -14.3843604229199 -10.4926065912871
209.915666464444 9.26005340741188 19.0912913038554
-77.613204145718 -10.9994577397925 -13.9840970467158
-174.798788135407 -21.252468662999 -5.10830258874858
-211.272674000099 7.98797278285067 3.82223802086179
-84.3038320377107 -16.4478148158551 -0.834283358204257
-196.359363965235 20.7738614710932 -14.2362562624524
-110.374033665839 0.174091191977251 -12.5949706320636
-212.114996287429 30.5695236111207 17.8201140882763
162.296878614897 -19.6886778270378 -9.690579462192
195.287778192078 5.81086663211846 23.7281928750592
-161.008176555242 -24.4380905267852 5.07465651246139
-127.077179024103 -20.1373543957391 7.26110893458922
184.683029958161 -35.3647147949662 16.0195327909819
-192.141408923911 24.3281894104828 4.0009265025854
-4.2187799505111 0.99551086022964 -22.0511776933836
188.777985728599 0.00524776667352179 -23.8072850306875
201.243972315275 0.454803133398687 -4.60267360407852
-186.654426195429 -28.1459006140259 -5.64791281281935
-216.05159746754 -23.5790922522222 3.82747196113504
-215.439374818734 42.2171429128231 -11.8903281785956
-14.4362103916524 1.91472423828642 0.804444770545837
50.4774438193711 -0.227116031862432 0.878972940951968
184.58656342044 -12.0286428868152 -30.6656423429885
-25.5939907254943 -11.7035948926061 -15.1134496490391
122.942996181145 13.0590067319428 -16.1158882763107
-200.758831981646 11.2720953608395 13.1827825327428
110.138049294557 -11.6742173460657 -0.0086620966176314
39.4694552183871 12.5724084391067 -9.49705869238227
118.236740994547 17.4972952400384 -6.34242260218146
32.0135483830494 11.6035971618254 -8.68348022528167
-28.3165165650504 -3.9896671933556 1.76553543324415
-152.814985642722 -3.64884692120669 18.9983843351663
22.5770948546111 -4.60757538495297 -0.501879226318524
207.798177535063 24.8163649706237 28.101811539637
-98.5844548691873 -14.3574129745812 -8.71047218708582
190.631501969575 -13.4922421456446 -29.3503358155747
28.9498646554786 6.9887512952462 -21.4427398688227
37.9692978474273 12.5130129917379 -17.507819310599
-224.802643891346 36.861158372611 -9.57213768440361
189.439527387986 -17.0596527985135 -24.9659921986472
101.518802316477 12.761302729218 -2.35372933241361
-150.648492042655 5.35423094114608 1.32829933171818
197.411263315737 -24.354442430246 23.5385261040701
-19.3300288512285 -2.06500543427496 -21.606969993835
-188.679485360293 -29.3961898174765 18.0692999229524
206.436288856252 -14.7981726517064 -10.110793796243
-195.555731948262 29.6828010064537 -14.0479695368332
190.193783843585 7.01595484066402 35.6598435796644
203.373084130109 -15.0431584865989 11.325700911604
71.3315865593731 1.87041529945849 0.0923953387507761
-193.77612703497 19.4237665540344 9.28040833121532
-222.036709514038 19.0652133531711 12.432315920123
173.249850987069 -9.32730744489135 -28.3114238435737
-189.654759187671 10.4484944662568 -10.2307359570281
99.5843232332004 -11.9019621213743 -11.07363369108
-75.939063396284 6.17778071324979 -4.41173200061037
-54.1397945706434 -7.45170494853058 -17.9468190210537
-41.1391865029589 3.31489577003076 -0.76399845668444
-210.755591478199 -25.4696254327678 19.1860051311089
59.2208092060342 7.9727685500215 -3.5038285219837
-17.8463866241242 10.315214274398 -17.0070447485952
10.7243995499 -9.8484279517484 -15.4624091684536
186.176031930032 -4.97980049266404 12.8827608644991
156.288298850838 -1.19521600443635 6.14613016073148
-0.693153702765741 12.056558890732 -13.5245037534099
192.982486029265 -39.3926587943023 17.0352999302077
21.7907302248255 8.88833979235891 -20.2784299564368
171.7444729064 1.86958828016276 12.3436274332809
84.78853867544 9.68254630367637 -2.59003876781788
21.4047552820877 0.0954649590763956 -22.7958121930985
198.381299548279 -33.1277351226465 3.67549296705003
-192.531745724661 14.4147377064482 10.751264429196
95.0761029690993 -12.3127688057598 -7.96941649216295
169.65848494495 23.5860188398036 14.099260316794
175.492461202106 -7.35662711929016 -28.4070859707597
114.409290511721 8.26988522183146 -20.2243972541548
-177.113334372859 -25.4259682767611 -5.31715158246173
173.847774694056 -10.3630711828188 12.0495424354578
-151.922220141433 5.08869972353708 3.40870908706838
-207.373539989608 37.2363581095707 15.4962096774456
-180.139506112517 -5.29790557197373 -9.4343225134576
193.299874548075 -38.9367954518575 15.5732851798919
-67.6578066483057 -1.20802427128624 -18.2970325129101
198.338053402668 -38.4256240514462 12.9221429885183
-210.007076058375 -15.9618003663215 8.61221648600321
172.90981657684 -18.5620329221245 14.9891277480241
201.121319395103 -3.46042992133529 -10.1772352558117
205.712939114416 -14.8280853587275 1.01981011182917
-206.864359214415 -7.2868252363905 -4.04369180488709
9.65595076553138 -6.507295289442 -20.493604943351
8.20758895821068 11.8427376381711 -11.3546333127498
-217.191515883113 10.2223240572433 -8.60537129782067
-228.898637213279 25.4505216121474 3.84239220253493
-33.547829808596 0.319206275420223 2.40098323725874
189.139123681922 -17.3955977753486 21.7903860993707
202.81433521548 17.8452774865517 -12.4146374368588
183.720522473891 4.70325779095407 18.6065753174794
44.7570558442977 13.2127491042418 -10.184831666825
165.493903621091 9.68223439578069 -16.9948624962056
183.849793561037 -33.2170699184844 -4.69384424119977
192.532806645865 -37.1966626893455 22.2196542609648
-53.3675558572614 8.81206625223259 -13.2999919601765
-222.384243327175 29.4997225761803 13.588184410609
180.775271641971 24.7231283797933 31.0364685149826
-177.117921580053 -25.4692066229709 18.7077929992848
-70.404862663354 4.47794044244897 -16.4398671833682
181.66614944262 33.9908780067953 10.9013664409502
192.777722641537 -1.20476445000967 9.22696094121232
-209.467583143885 -14.8836135125137 13.9379527776568
-182.770179509522 -3.51758619749335 20.088736817054
206.952313196464 23.3016321749386 -4.10369559313786
-207.420717554125 29.9222632991279 18.0788196641346
-129.108524515211 -7.71706030587396 -9.98503457764013
14.1526547914869 2.57794620015599 -0.296711122815366
-95.3965757739588 5.50820428925299 -7.53176568699463
-213.418851991902 8.30402770297365 -0.0741626547828115
180.717418714276 14.1345858222203 34.0992799794145
-72.6869871065375 -1.24075925372964 4.8781777647075
-205.915647218086 4.4411892443914 -9.35104439588951
-6.55267987870707 -3.27206337087429 1.76974886344268
111.154683933536 -8.32857426380682 -18.812016350847
125.885661225197 -13.7655552801264 -9.61209493293979
-227.966115536054 21.1553256593663 -6.79537552777516
-210.422991736486 8.11054137531689 -9.43057685896102
-212.823102452051 -24.4330225630328 -0.768191713985954
-215.372399507957 31.9807451966674 -19.4715456359289
206.509860988854 5.45180718663948 17.236427134612
203.1723649877 -13.6410007927776 10.1111938505035
-103.838307526852 -14.162141057224 -8.39952366093021
40.3637559408424 -1.98381468656315 0.936301793602417
-199.094270560137 0.521569622157093 11.6278466316746
180.989235207805 -36.6993419130511 3.09152574194745
172.341129296734 10.3397083963533 16.4188886176594
180.906690430105 32.4980024284034 25.5668428026658
111.155583491645 1.19016997721841 -23.0353789198711
-205.888786306358 0.846288804544762 5.96965191186479
192.28972573562 24.4271258356227 35.3949764011236
169.772860025736 -7.59073635578304 -25.9556449835176
100.689213151444 1.13256162292875 -23.1814998342839
-189.003706186242 -32.6905057122355 12.2132078120239
10.6070802314588 10.2396762351021 -18.9281351021106
176.921896985889 32.0325033233669 8.09310678979337
116.717494320814 -14.030980273018 -4.83494676774334
-183.568789159347 -4.56771012184908 -11.2440622066849
-89.3827477255146 -9.924657754966 -13.3262725991282
203.867524410112 -31.7665607005395 0.0366925240602464
8.37688803346042 -6.14982091278929 -3.2207055701813
-204.706856294763 0.0936572355062087 6.93650747269312
184.800914110714 -6.20633489013751 -30.4300502758569
154.672659660129 20.9593548506761 -4.31144363730599
-19.8836458384087 -8.66340893259968 -18.830869708553
191.852225454455 5.56360888299022 34.5552487766061
183.986841213337 12.5441669476196 -16.8870027965531
-212.786801408179 21.7759788853919 17.5653760710585
106.325302363948 -2.27109067134302 -22.6076715540799
10.3329209111618 1.73616585027961 -22.4933487763914
198.231841058729 -9.71296930054891 9.82748953772893
91.1702629148859 -11.7970444189208 -5.63336131254167
-193.787598970771 -15.380792463446 24.6375829142067
-185.508432700708 -4.31926613424878 18.049943040291
-115.397865354662 -18.8954045056413 6.62969807383236
204.046125221129 -27.7920868320159 -4.34866442746408
-196.595297548171 14.7744954829745 12.0244047960932
23.7528238933523 4.07971577428521 -22.311059911004
-120.127895418452 -13.478006723919 -7.57408183629041
178.985120324326 30.6348900841664 25.4280906691462
-198.580038006534 41.4303333577724 7.27524055592662
48.3155452107132 14.0395788901259 -12.8505729036473
149.870456381082 5.95598520253381 6.786764846945
152.827574605108 10.0918351687888 8.42350421026403
-202.472466428638 10.8451752929469 12.9964047236347
191.08187644115 18.4514983097506 -17.0492748159425
-197.395694786914 33.4380806665475 11.2919739078117
158.921194099207 -8.37729318496976 -22.9290691826776
-135.602472869103 -12.2811361296456 15.7367285777989
-193.638879318568 -9.15747451372825 20.1929122698644
-212.340163280453 15.5283156304603 14.5997988954989
-153.104232190086 -6.85290815110258 -7.36156052168278
-175.038514540808 -23.1443791322714 19.743768268924
-140.833732921946 4.28211955574927 8.61123399047332
-208.08999229573 15.9927286175115 14.2730697931826
188.298416614391 8.67170325474326 -17.9033963454642
-197.962107895158 40.6328569324131 -10.0186472174112
134.26057158897 5.47316832282962 3.73588108269065
167.311374568058 9.0887808721362 14.17455034317
-159.575507067033 -4.43332371339161 -7.45159116548647
185.483022700821 34.239997122245 16.5512081802596
199.395865452438 2.173920713757 12.2617186153673
43.4930112979407 -7.55860029800161 -4.65597511833999
-93.1253724108371 2.5818015219971 2.95961702158826
200.468801638878 -26.8909860877799 -6.22107424603227
-187.909946445468 -8.04870010214612 22.8262954090767
-168.153957897732 -24.7500242353682 -0.368211058848517
-180.069064569441 -0.0468810193471288 18.6785450906587
-198.339538094666 41.7403592399304 -8.64727937929147
69.9237458345169 5.12056742613665 -22.8268672858448
119.227192751771 -13.2258189593579 -10.0976402030392
-199.943926560258 44.3277338728204 -4.7475938788739
15.0044110037427 -7.43786552359971 -5.17195553325446
192.342364535925 31.7430216340014 21.7160880053853
61.6624667133284 14.6931627841669 -12.2042955407735
172.782009689452 -31.8248139717627 2.13305904759874
-36.1996819015915 -4.94694740884437 -20.0966189386647
212.09801305002 25.6612504023306 17.6144214074271
177.552519244094 18.4688258762451 31.4272232026797
-199.923962323507 -3.68031681611526 9.5289158633115
177.377537758577 10.0673342178254 26.7923750424269
-226.975652598317 17.2570252614014 1.76769292288928
213.394321904957 18.2895994207246 16.3352626880707
135.140278352812 7.92129310497139 -19.1854756743503
195.636619542294 20.8310399391079 -13.5552037247731
28.5020584320939 -9.39493941896572 -13.5712323041828
-62.5502044396787 6.97485567614376 -6.18684391058624
-206.657886474925 -26.9311019796446 19.8741377621087
176.136222975086 16.0126000007151 28.1555539767247
-110.423406716011 -18.993910788907 -0.272694316634926
156.770597258282 20.2594899111106 5.04393705406302
-168.893760918349 -27.0092120286987 5.50686634874166
105.620718466191 8.9818004013136 -20.2530038236272
-13.905147700518 -11.4072079757114 -13.2824668779786
-184.129178954252 -25.2450969241365 -6.75862972487222
140.086835366751 -1.20476032633207 -22.6235148452103
-70.1209842191037 2.54959634541271 1.10934875210392
135.166891109091 -6.31153822095429 2.78153827277806
-49.1981992176798 8.97963821653335 -11.2527482114315
-193.774349600387 28.4281307850935 -10.4473823619685
196.802139182401 -20.6269328855568 23.2598688686951
-218.142308845045 20.398404957784 15.5276461250002
-188.276405292594 7.59164422027949 12.1042405854689
-174.307007246863 -27.657273597268 12.4226104978874
-42.9588704754649 -8.48849652432333 -1.93142485303501
-185.980432945152 -19.2517657345983 24.5548523996821
-64.0669565548803 -5.59174940126415 4.44750259760929
106.310575876292 11.352748733518 -18.501285342693
82.7230283467724 9.25692887326028 -2.54525963349513
197.855457415986 8.03109782371487 35.5205960129845
178.363744973595 21.6473198735044 32.2476396380323
209.65821514425 8.28483145379914 8.09539443505989
-174.202932726242 6.98731780905479 -7.42752088483834
-207.562480957887 8.39158249879364 9.53304824843924
-200.100089449804 -14.8730044048247 -13.2902249196953
-38.7393939146926 -9.40720853423301 -3.77004931970163
200.49401073204 4.83302192287073 19.9697832379819
193.03448866103 -22.3553606233083 -16.9582849796328
23.3362597251789 12.948312638429 -13.544266287419
-192.213861382588 -35.5680985829013 1.11510118661808
26.7352426766909 13.0667650419198 -14.950136855332
107.37375335284 7.03378876523691 0.34113902888975
-168.033040668987 6.18716272710354 -7.75647573568248
-2.49782254813571 -7.46095978450935 -4.88232909587557
187.875557968723 -13.2623994645594 16.394120682087
-201.071697751195 9.41033429850835 12.89156065726
69.155186405403 -2.49892506271007 -22.4490279110952
124.831275663077 15.5748789513011 -1.15375494772031
188.343615505648 -17.8037221158502 -23.8173265895958
169.187763944339 1.49639310869559 10.6008489606465
-28.9192030143618 10.5729740749076 -12.2883825617109
-192.186771007173 26.4682482574188 -6.03997142405321
42.8180952116937 -0.920315114808462 -22.9914035252642
-188.419223818512 -14.9003347776586 -9.13626776576647
-204.279273150732 -10.2594215785548 -9.90302979122247
-180.512527141882 13.6636062063083 -4.53611375796875
-200.475776330231 20.5522436993193 13.6891952041454
-123.790595310853 3.41428193667739 6.59730222584062
181.817686769824 34.5396933799387 17.6563711457154
1.76388902953206 10.0921473490489 -8.53838780072248
-204.070031385376 23.1480763213716 -20.1298555137289
-81.0764510128383 1.81639063279668 2.80514600784491
12.8020702542081 0.429956952781458 2.40011307432456
108.051122284947 0.232926414888039 -23.058637994806
155.266980827314 0.713922199231244 6.30483545772511
-217.646100649213 10.2008697625591 -1.70467958639008
187.81453614672 34.1341760084276 16.2782459391077
191.130385348536 -34.8185203294647 5.79171040550211
154.126800724047 -0.498663723632244 -22.2583723950867
18.7071011835282 -9.58351650740489 -15.8103436837646
169.821831130049 27.6334307745031 6.27496746529895
199.129958420001 -2.40469025358886 -14.5998945945468
183.946009485817 34.3911909358708 11.0024902125702
-217.64693669319 -16.9482049293484 17.6422511814719
-202.68545142869 1.00931912326536 9.0440327029332
210.049913604453 10.5271182558755 22.6641498782477
39.2838846247923 -5.79164259627811 -20.6088137354249
168.805167761654 -9.1882910702769 9.33260572348568
194.162510849665 6.70717925658672 -15.1767563526518
168.471395956907 15.4659363624921 16.2149068792122
151.387770296228 2.77184393720938 -21.0077198148913
-217.938939836905 -20.3161979998372 13.2758873716564
197.087114816932 -8.20774465120565 -25.483746464992
-222.826558618867 12.0258349016183 -5.27130224612544
122.328553079102 -10.9553920025959 -15.8811866631687
188.779497338435 5.79368951110997 27.342010635552
183.91232095927 -16.7663222281643 -25.5101808877392
-145.6304112078 4.71682316117255 3.60406551235486
203.031497848344 -36.7592146167385 13.926803342232
197.938965911131 -34.3687383320209 22.0441729508189
-8.91875485241031 -10.8806267784738 -11.9175888576055
205.255015579973 -31.5625748779701 0.404165339992383
-8.51162935740192 -3.49828045411957 -21.7420763681208
-161.335778233543 10.4646818309868 13.6929299191342
-159.741041469267 7.52330831115438 0.265038696291878
192.986846454494 9.84779882600296 37.4857146612119
-193.690401989885 38.1316533686365 -2.28793406716839
-179.617712010575 -0.681724819514779 -10.5920667985937
82.2662421225966 2.10491540483768 -23.3078849365162
168.168902982661 11.6087528631946 15.2946161910391
-112.19483438157 -6.30564691760566 -12.4184221469105
-199.611245371091 40.4206183916817 9.9074053150003
