-176.797272253014 -3.04787084108133 21.7634551717346
-243.595438284781 -27.5801944860037 -10.4474948377666
-241.026329445534 -32.5590497814964 -14.2318670662969
29.2312338806837 18.1528502774977 -11.9937715672868
194.903410338813 1.71306890782235 -26.002203219933
229.452143014724 -26.6856630570361 21.5738951468849
147.782750954895 -17.1511063659973 -6.61528367115028
-72.3583751132505 7.32784454742601 7.09729127912848
-201.045511219343 -24.362125084816 -6.01607746760089
169.518042469825 -12.8552388395921 7.30160206440916
222.142312415246 -33.465730972079 -0.873388288258099
76.437024579511 15.9793301032592 -15.3400647262818
-97.7984374355801 12.4341897255817 -18.3819860004776
-179.10664968138 22.633588871409 -3.63126228739052
-223.862377924877 -24.2804342483257 18.7377379734098
197.961261466554 15.5183619656706 31.6145602473884
-234.166505949584 -9.35974137677653 7.49658142443596
22.0198157790654 17.9959619572186 -14.8008629700564
-171.645874565628 -16.7468629066818 11.2465424164097
92.009829509648 1.18612049426623 -22.3907285559731
-185.092374417457 5.10650173876023 22.5758056327049
-228.695704376111 -42.4185309573722 8.17665586713121
222.682062169233 -11.4950636101689 6.33337512040973
213.095408784343 14.7023744362495 30.1207094782975
-210.887226891214 -21.9385672178967 -23.2092447185849
205.5515322418 -40.9318159816383 9.21883657657713
191.414094652428 -5.90657533522504 12.3186319222523
166.214369790031 -20.3405493144724 -6.02072276688688
-188.53818167123 17.7476520599534 26.9867243493004
224.528576889289 -22.8835477694351 -12.9920228503474
-184.08818907273 13.878813942505 -8.11493659554891
150.195189447079 7.66448376443224 8.18559038652323
120.572253905355 17.892312359018 -9.05042155144199
-234.141491352641 -35.3701036088498 -20.0602284751687
-155.248065246412 24.1173568430419 4.2482271918082
-10.4492867789557 19.304445229697 -13.2525673487179
-170.29151410343 -14.7497558720284 21.4011720615617
186.824941030178 -26.8179246765632 -4.61084158001593
225.674868811289 -35.0490765612419 27.788501069037
2.30987438004842 -1.01176953776004 5.02713947513253
170.743451237387 12.104002490622 -22.0309040776819
211.195984530116 -38.9365101053968 18.4320333020001
-213.066423605335 8.4389626192194 -11.8352469260753
60.190250792717 16.9294819127579 -14.1278912023386
-177.700011447429 -3.45744353226146 -12.0225866344393
-154.9763359248 -5.45298897030626 17.175585480414
85.3593019035711 -10.5474734436312 -15.2676519034267
-216.425841249982 1.80599756646852 5.2009728852463
-221.143228762279 -1.72130241698689 1.70869841105756
-199.963167530558 35.4462878418275 7.49971424618262
-77.1894464282703 5.74649332619385 7.56704286210218
-211.906402426999 -19.4754970187957 -23.2814189715869
-78.9898458951687 -5.43109834714487 -4.57880596084661
178.262431994415 -20.8165643536322 -9.35482345636071
-42.5808567613352 -5.68452466501182 -5.90936499786082
-174.13527646102 -7.02974072414319 21.8447498788312
-156.187187290238 -9.36141170277662 15.4719028266013
215.476566703394 -29.1637802702717 -7.93351865984291
-233.999886603146 -43.7395594311626 -5.26322421588549
220.710977733256 -40.0748260414381 26.9229199994231
-175.848428627567 24.1748906516445 -1.86601684745726
67.1669262012803 -9.51672013160554 -11.9000804584769
107.170158136848 -1.17115928777317 5.72099299548125
154.074448006993 -18.1533979094405 -5.0068682569889
-225.330432148301 -4.67916632844304 3.06396943268673
107.589600184184 1.56042041756466 -22.3792294955817
-193.314277264743 31.4656672064907 16.6839424224756
182.821729270732 24.7172457754521 8.30261630144808
200.005593503331 -16.1384341632579 22.6228664228979
-104.925135178985 10.9922448826099 -18.0233723648404
-215.115013765834 -13.9476565287032 -22.3886732763494
-224.267480139597 -3.28659174966355 -0.634358584234115
141.538256350361 17.9621810085466 -13.7847088073249
210.619146555926 -35.379365818757 -2.33592624313085
156.990501677303 -1.81560234238976 6.95582883410121
189.032914930371 23.6487999198531 -21.4969352845638
196.195638557134 -26.9020202571092 25.9257751652477
225.134434349833 18.2960491874092 -3.79826777899556
49.8258629922733 -4.27867969533951 -0.431102293632596
142.952591416831 18.7200213032953 -11.5464703285284
-207.566347867356 -22.2823613640012 -20.7140249328043
223.346956857867 -16.4574687350308 15.6753438689612
222.386006224106 23.0628574593407 25.1925812545365
215.271300609192 -39.3617187467679 31.8071704601048
-196.271314336719 -2.51583156553432 -12.0385798002238
-193.974783992412 2.8304180644009 17.3829634948361
-94.9576590557157 17.6077299335879 5.74588549128828
188.605485273317 28.7096324779719 2.62498513099175
110.67669638603 1.92626621271217 -22.4163499503513
-156.977423323784 -6.62769009310806 18.9872293302134
-216.797646693813 8.63501227749863 -7.01214563273872
232.451035560509 -23.9382862056618 -2.0045135100471
-29.9444027846388 15.454234010932 -20.1334669541605
204.992639907689 8.34124340832454 24.7099483366851
196.339612117087 -35.7920170885021 16.2099711791273
-199.834051691511 31.0100470925341 16.4537308134054
-188.661025547551 20.303753910613 26.134023764835
181.263378155537 -15.2359148300491 11.0231704670245
188.606030111853 26.5691483245557 -5.60991471966552
-67.5359389159375 -2.39954638539852 -15.3240508254054
3.26338442587588 -5.5997611710835 -16.3651977638958
173.2911928744 -15.1864542495502 -14.2242966464659
203.891537582171 -11.5123296650359 18.1010416075272
-229.751853094885 -4.81777642552729 1.00167706705328
136.48077204185 -14.5245616148562 -12.853733811507
-204.455930591675 -7.53079065794636 -14.7834307089327
-186.67904934502 22.3745816418327 24.5030325295925
-239.869441465916 -12.9275871067086 2.81238667909825
22.7631975654499 -7.21057522085405 -10.8025602333413
-174.683360304506 20.3983548730037 -4.75875884424302
124.792247521969 -13.8563323147879 -12.7675415456925
-203.779491936686 25.3818323785034 -7.08671890100292
-11.1954991295197 13.5328788425597 -21.2502343484911
-225.483573126228 -28.5166947399771 18.2395626385688
-175.327417095081 12.1642110801895 -8.23443765541871
-60.6977881673718 11.3422136231816 3.68476909583793
206.17649938838 -17.9185907755648 -19.6910238367659
204.798606883521 31.2795110620501 33.4607174194728
-205.38763519567 -34.2481469926393 9.47353508499285
-232.796749360689 -8.66340174365699 -15.048874527782
173.579470242427 19.4616994449444 7.91800009272827
-217.793012244249 26.6440551980067 6.13080734888009
194.609256415536 20.0040480401807 31.1821916445624
-35.2881741589152 19.2503733570556 -15.543766482663
217.648681790505 -38.4078554637597 4.42279933362162
60.7835009749378 17.3385045499072 -11.6503273855188
199.65680966371 -29.4377290835673 -7.10811349233093
-62.4671215338528 -3.86835736870353 -1.48076849726048
-65.6125854422345 -3.93868000306503 -13.549350091118
193.03794899488 -15.1145829845776 -18.0853565115867
142.92033136814 -8.82372639684808 4.08517293092458
218.927713908723 -38.6161568650555 31.5340985725357
-181.81918837854 9.51855344756116 24.5722369389236
127.399270521598 2.77958795087879 -22.4323916079502
46.0071078321432 -0.349576594569551 5.95413763503685
209.811565107797 -10.9973089808305 -24.5286757314895
180.555269718594 9.579509420449 11.8585253443985
194.315391074861 -28.3037586175242 -6.46454764945297
206.045985343004 -7.19701516870255 15.920609616246
180.642519258903 7.88774451341701 -23.2323255430455
223.641959931246 33.668874060975 6.48826700117891
-196.264441007082 35.0662658133976 10.6727345310756
-25.5867258049451 19.8857011290886 -9.97336383529129
213.177523235338 34.1376596942931 4.32621333252689
-151.822005397449 21.671147504487 13.2786129484363
-183.818470896048 10.8200410902451 -9.13273398867258
9.15770071200209 17.9933898425042 -15.7947965337021
-217.904045573205 21.1956596575801 20.0256095462046
222.849795104408 -35.2200279682077 30.6641097525058
47.6702012624968 17.1672280554117 -7.84634771931579
204.946978028151 -37.4174407428123 33.6051828109806
-108.03980120943 22.2168477888438 0.586331053707019
-141.745439922803 6.93223650318359 14.2615511381101
9.86195344834006 11.6189353388193 -21.8284217952747
171.262100046396 6.33762426256374 9.55207470900752
95.298004403646 -2.2751844621963 -21.6644250567453
202.624881059337 -29.7655895026363 -7.78694537574732
-206.638900095124 -35.285298623643 9.7974099388748
220.53745127021 -38.5246222782392 6.31184993488719
152.66624494664 12.1859155777213 7.5561124424663
185.758940875602 5.07051209519264 -23.6888022913732
48.9467324967582 -7.28369747536338 -17.7187576559583
215.695378686476 -38.129753345652 2.50771759192196
14.4254416426095 14.2626886461668 -2.56590373999942
-215.303720870518 -30.3849846744613 17.4477541975743
-212.376744894098 30.0856396533052 -1.48951803463279
-99.3697002307448 21.3625014101225 0.525687921279431
-211.690026421999 10.6871480716613 27.5501348603028
231.553628075342 -23.229541796454 10.3910009180662
214.999558242082 34.5161242735995 31.8953576755208
-24.5459402342445 16.3593199330488 -3.29080218464316
208.492621560701 -21.6301081487446 -16.7488768862329
1.29420906637451 -5.85596411441145 -5.98934204146602
219.902524875095 -39.4575898927571 29.3924076079493
-156.79291070375 21.9506027165981 -1.85651037929011
-203.853133815067 -36.6330819466108 4.89608930316588
-172.264540800211 -5.31215652948487 -9.57055844428134
-229.692157894669 -42.862455425589 -13.2987465475077
201.364855617635 -37.8734078033406 31.209584073835
-187.872041186991 31.7804256536179 -0.849009821890804
-190.084099765826 26.3998158351456 22.4218662017284
181.518758415419 24.8020935375981 2.87304330222802
195.61873580027 -25.7822919210935 23.8756701063603
16.3908886059917 16.6403787964385 -17.700539199667
204.905359434027 19.6091313147034 -28.9821841333254
231.442627672101 -21.489358706703 6.19480516831096
185.576673064441 7.42853096646464 12.2949822638833
-180.718444061708 30.501816474358 8.55781782519495
207.936017949278 35.0848071436454 18.0166111646365
-205.752819187446 -9.23637596016474 -15.3294192484053
211.527736589012 -34.1148554553347 -3.58426546521295
-236.92494899875 -26.8767032740026 -20.7550896715395
165.511527794652 -13.3916450164473 5.53851130612889
-121.666240400609 3.26381646510812 -14.5027276820272
217.519603652173 -28.5301951770721 -8.20616380565336
157.427137607204 2.60558112941295 -21.9263500499886
210.549116743509 9.00237225320058 25.7291805559623
125.569495007717 -5.88701641316057 3.80063438057794
-204.519297585771 14.5907018158516 -15.9897682858704
-165.398486839989 -15.4764952288564 19.3426998636116
189.615252280776 22.0228618815285 21.9525886118118
-139.191061099563 22.7193306012672 9.34481423874666
-209.919201698378 -24.5843647000485 13.242752557588
-1.63657745474833 11.3804505561863 -22.2446970536956
200.809804847595 28.439079798472 -14.2310379937778
-225.923762756445 -13.5788936467141 -22.9512767910706
174.908872206347 -11.8513816493579 10.8046364874578
139.478707828428 18.9147203716644 -7.87992107372924
204.321128793574 -3.2954811257052 -24.2415122465911
-214.088598553176 -36.8997569692266 -21.0219952228881
16.7011254604618 17.3113426768993 -6.88833544841346
-212.751606594974 -25.6348930473436 16.9690926845034
101.346523489272 17.3054796774485 -8.72727920153601
200.01205115471 30.8139584836807 25.1416215984237
217.912896272335 -30.1726406331281 33.9310321437274
-153.232506076975 -0.780451246085647 -9.0835095706871
162.723930430903 -0.065263371402373 -21.3679935238701
-124.529403463192 -4.39962140204612 -7.38478713746643
-224.228772499453 -7.68006248407526 8.03735988319181
-44.1090974451146 18.3196743818549 -3.80315091769509
-216.842790679042 5.56684222204256 20.3445747131055
192.711519890106 12.9401521226294 26.8454873867661
-234.054935253155 -7.97842555613237 5.24976995353718
-207.16499354468 -34.5422093513597 10.9688561048274
-32.0372644366453 -3.66920588407479 -1.16385991424111
190.395287209244 23.7631850864841 23.5721461821552
-210.307969566486 29.1125683883457 15.1565572209538
-222.318714438205 -3.42175442364149 4.53501239936841
137.733073025138 -1.97499868648198 6.23674533274607
132.07944816774 -15.2401578392551 -7.78188782167218
-234.115898235806 -42.4772710665831 -9.89859099051834
131.81553758628 18.1986562784829 -11.3573990649259
205.98177652495 -39.1896159370478 20.8840253537928
-31.5716617220552 0.792912196270519 4.88786628206595
79.6810423516497 3.67959015346831 6.56201652896988
131.529721240648 9.74093323162589 -21.5272781321215
113.161729492289 -7.6022180322306 0.691549694544869
-218.729450401201 24.9606205781974 12.2726397344459
225.056118888404 21.5194554745526 -5.5351756942727
225.342547412993 31.2402307572329 3.92822816186926
179.944285143795 -22.7923749570365 7.73002545839011
-217.073490407288 7.54210924028823 15.6368826600461
123.911625762088 -9.80038661374001 -17.722698095994
211.619092274947 -39.4553461531463 24.7043867419907
-12.4744726429134 18.9885636340954 -8.72649021917876
-186.695440112854 3.82058995981384 -11.7439649920744
214.100890395523 29.8195550414283 33.8862729424083
192.865569143879 20.8888790563729 -27.968342487729
-244.344211133988 -27.5299437962806 -7.4099055061385
-185.764954988607 32.2207718010143 12.108656548014
-242.196547129753 -24.7247101474915 -13.8831385823189
-242.686867013299 -34.09731873753 -7.48905268272283
203.845500212012 -29.1372135744204 34.2458081245891
-201.75746419965 7.57026543609501 22.4621731230657
-68.3936099773011 9.93950826933705 5.15739223619044
175.411455750331 -15.2722923380283 9.89680255419757
-76.0739699894987 -5.39906136677285 -4.41540324613512
190.932607795323 7.17128016064918 16.1462453290827
199.938756648085 -13.4963296057156 -23.4577398512307
-174.629032423552 -5.46072595014928 22.0693036684183
195.441397227778 28.0526099806084 -10.8990660590611
192.709620856193 -34.9076923792635 4.23819184933515
101.7120543617 2.49521618875741 -22.4850613458892
-205.286729293581 -39.9098294182823 0.0597613475750087
202.488194615299 31.7438434996898 26.0585921701042
-211.042426143508 -3.0528039206697 -16.9045763021911
196.613620391595 -33.0998819023037 20.8677843828584
-156.807608034486 24.5734768514086 6.23380700289921
215.962870122371 -6.00033086685106 7.77964991201881
190.212609138368 13.1164729883138 -25.9991826189059
185.242007645164 -16.5787647706907 11.746573150611
-205.635043600722 -40.3221848117833 -7.21804949167592
-211.202177530082 -7.52112401824452 -19.1975045482183
143.702257384253 -4.25094571456713 5.68831275410156
-184.491544169549 -7.76087118630066 -9.53957507758352
198.624272649647 -7.22741199160187 16.2978564421802
-219.887835324345 24.3035661576629 -1.78947013785065
128.425648278284 13.11112313351 -19.5832992960974
-170.221284783746 -16.0257471366943 10.8435060161857
123.167025707062 3.91203773636264 7.75434646458519
110.680242304057 -8.21854423773347 -18.7330631944545
-28.519672735491 -1.43565441548599 -19.8455249538256
43.1239996969226 -2.4931478235164 1.79624250024073
86.2504922581973 6.91549207213535 4.53041676204087
-195.993620919777 29.3609530845507 -3.05942677911685
-189.74220673162 16.0246522150279 -8.57481691442184
11.8071768756446 9.78549886717088 -22.5865162296248
229.261253307506 -35.630204898788 21.7336671037852
-99.6547689534613 9.85875918421959 10.0154454784209
189.955215282029 23.4300942264061 -23.6789983866835
209.496980107721 -26.4264952561847 -11.0711826951256
-121.404943501435 -0.310749844546912 7.75427722732466
-205.764227617998 -5.23447946610409 -15.2536805290377
-173.571731492285 7.74819030040298 -9.50833626011067
203.730620313376 33.4944709283334 -1.93590401415462
218.876351668023 12.9848933442352 22.4180720711171
-204.825943804917 19.4920634735832 -11.5680053133865
194.963692941058 -19.4098039907514 21.6646607553338
-192.590211820701 -16.4298529996391 -5.43167348118721
-188.441594875863 -17.6937480876199 4.98045065833012
-93.2001107104205 -0.582198235308283 4.06628518890436
-27.8676974898187 20.0050278695474 -12.2941286606302
195.538311186523 25.8751546141171 -21.0746681213874
193.822573645687 0.511520205533458 15.1888577799864
17.0832564726177 -6.91972621892743 -9.86358820139848
198.115263050052 21.8607510605819 -30.0511911311933
-181.51339644347 22.50950580016 -3.97946847351494
-190.083741090704 16.0521934035513 27.717380511514
219.712984613618 -4.55202659201688 2.71174504478829
-74.2656992867436 3.44250219960933 6.91782156878376
-217.839574955254 -8.94030869840697 13.3497126755329
117.776592347895 -12.5995427583657 -14.6073895235015
-218.460400046684 -27.6619077645365 18.5125090094979
-221.393372171915 10.8267339620888 14.2107064991721
96.3983045910097 4.26707680854079 -22.561381625602
42.7616297404628 15.2883243079134 -18.1622978672427
189.527524080854 -8.02386984340257 -20.1980555653512
223.94488701463 -29.3810161015206 -6.52923131871494
160.758327679781 -14.2702493999424 -14.6051209881208
174.728385205848 -4.66937164748482 8.50979867132747
189.022260441494 12.053580205593 17.4511743848296
187.705623276605 29.2582381066442 7.83720681082917
137.263309381538 -15.8138623697527 -8.07498925990723
3.67813286453504 2.23025583769297 5.99444792677394
-123.127451246227 3.30336965003378 10.317158898849
220.386505891591 -35.200196395199 32.455199235109
191.383457234965 18.0655583318435 28.1974966792518
-137.534064880417 17.2082727989907 -9.00958447908997
228.643816550338 -32.346034165518 23.7650720220052
182.707006154215 0.672298206106077 -21.989047724804
-43.265819086209 -5.99209727221935 -8.52207904958135
222.23523810972 -16.6300414778654 19.8040258855463
209.088460589244 -25.2224808776778 -11.8252907712419
162.735383193252 3.626716017924 -22.0399493053812
-202.514328586659 -19.7399749862077 -11.8850744686315
172.381063857843 17.9461798540928 -17.3732505613579
78.5542308811387 2.8689565236251 -22.6375285707771
40.5243194661802 -1.01680535053244 4.09984256228071
-99.108318279517 12.2004834192723 8.66568392364748
-214.693202961575 -4.37866354676552 11.6996572721749
-218.313506353542 26.2188600381739 8.36663158047264
-66.4568870381096 6.3159348289079 6.99124721112111
-196.13450460284 -8.20239504874735 -11.7243704255653
165.641713306948 3.34021531271338 -21.9328902188234
92.473928655177 4.82173636397723 6.23979374540449
181.590097495742 -14.7580302522034 -15.5517837850922
107.648685779805 17.431571676823 -9.25425626914522
226.154752950208 -10.4190956099404 -1.20470189707429
164.618433920757 -13.5074283320938 -15.3523999885333
-31.5992514834026 9.83649002455149 -23.0211354489653
103.550130717694 8.31269032828899 4.58224372530079
-117.86635374901 16.4854957292597 -12.6448199832418
61.648896693973 -0.48746460481009 -22.7820577232363
-215.949339579307 11.0220403963727 10.6846821543519
215.527930389418 34.2301911486638 6.3027043149247
-118.249334332518 19.8282987584867 8.66648263107281
192.192538643105 26.6785950455272 -11.8171492984618
138.662886767099 -15.1327105659388 -11.7812637520292
-189.377651344268 7.74118074243816 24.6957753375358
174.96837955225 -22.3029048000926 3.96473165807992
-206.196715870982 -14.9482719840067 -16.6633928714914
-90.8225054801984 3.85126719574035 7.48816722648597
-199.922532391742 13.5600330787406 -15.2754804885958
-114.710409761202 -4.83140952633923 -2.89327683753869
37.7553674225515 -5.3771835733377 -3.24146270932051
-208.808376699195 -30.9759464031365 -21.2710171996995
-148.308396500192 -3.37323868085627 12.9024325239588
-136.314145751104 22.2592588183325 9.58726582576366
-197.11934416422 9.59203577188387 -14.7373866787449
184.048523364887 -23.1883938528216 9.54937092822626
200.443882707807 38.1721918175759 8.47142096206681
-215.125835459769 7.92042009358093 -10.1224617475411
-86.2407334785346 2.50082706079791 -18.3012558189867
-224.320538965448 15.7023786993395 11.3239751419332
-192.871480856515 15.7231057469038 28.1338935253696
99.8429211351723 7.68678814228363 4.71393513942725
97.8637099936506 15.4275470319734 -16.1710517043732
218.883630530179 -37.9164890227095 4.38160191496041
81.7800829567395 4.40780040589634 6.24704753139432
-190.054414377643 31.5354341158352 15.7190783835101
-146.475574593397 -3.01557587244386 -7.75107551293786
85.5861372476458 14.7611221353431 -17.1771152938195
-195.839525400595 0.521543449634759 -12.3087051110871
-202.973518808941 13.0853878067248 -16.1055854603802
-76.4974408844231 20.8198647614983 -9.09078200437608
-140.093261181432 -3.62515641517097 7.6198305002325
196.742650759697 28.818710985157 -9.61508898919647
169.642561125706 10.1690190180513 9.85921341731645
-204.123839088199 -6.09581748215157 11.8981988305354
228.909842896649 -37.2173643833289 20.3301314117229
47.497876932252 0.380126841993935 6.42343520642125
-175.515600534067 14.3280854034788 23.2039593248984
-103.214646348196 4.12284052625367 -17.1951287953255
-120.65193012681 22.783903159108 2.74963415265673
-221.63891529436 12.5720144388687 11.971427462981
173.191045558035 -15.9956378120824 8.73497291119986
222.379961425089 -3.49387876426728 -7.92345740598492
-175.415362727577 -10.7674293597963 -3.74395932447026
134.486017594284 5.69500981722672 8.08093089899897
216.655441191084 -15.0766679632664 24.4323198336495
-204.439622345564 11.8735659497658 -16.0759248522071
195.046473221361 7.30746577308078 22.8662274586803
102.106949647937 -6.23831210587762 1.0165932467437
201.398700644884 -33.6863097102842 32.7377020233309
-218.195667387155 6.28935044205028 -5.52304527881206
-204.162623654693 -29.3468134615486 5.43722824079516
223.622159213871 -6.09711297652073 -8.59722342417117
-226.331242642687 -37.7764952549347 -21.5480190474488
-219.190291462255 2.58449092818858 0.850585511993748
-17.0217136773916 13.3600011743474 -0.760002748267499
223.441159792455 8.80618136381874 2.25622804280125
-198.514479696769 15.2829107468592 27.7273081921106
196.774191134432 28.3238781534414 29.7106832950732
140.536763112511 -7.88451531238439 4.40331355366668
221.436755851073 -37.4217746300923 30.934149883559
-219.853095881043 0.601229241038383 -3.59978188670237
224.493900691273 15.5874303623609 4.22131969779632
-27.6214761411095 -3.02804289088886 0.0312341446555729
210.596686795508 33.5580574117442 19.2607423159024
-222.795115469218 -33.1651960654218 17.2664080272002
-211.56679441131 -32.9060215654236 15.0090025061225
-226.865260364462 -31.4569250396553 -24.9342821435692
-174.115376102754 -10.7937360140318 21.5230736066236
204.286771298924 -15.2782653210764 21.8569866723454
193.630162376201 7.89672821772351 21.5194578577942
-215.66613394819 -43.0648225286614 -15.0790450067597
-54.6948476346082 -5.84271641213069 -7.17668013809738
-221.423259318618 -44.6364787312246 -13.887140317187
-231.510936437295 -5.95063558316597 -12.6455012737997
19.5752026021414 15.3677622366585 -19.0070152153595
204.866298380411 9.16528921504328 -25.4522031256682
-217.957152212836 -8.32789919860851 -20.1337998543687
187.047424962802 -27.5685544671871 9.22845846214022
-197.14206450213 35.9345130690663 6.30514425966032
202.540685941585 -8.27039484191292 16.9742258445371
-181.330553763792 -1.845535811086 19.2439049967455
-75.9625727581081 18.7210256784817 -14.5959479636126
-173.193430068123 5.25557607375886 -10.2229596775147
166.212848006645 9.43650400373351 9.22773976917439
25.6577154849446 9.13521075548803 1.34816477167425
182.518321317596 21.0523431939387 -17.2728243916253
200.744234594564 -5.68243351607289 16.6162293269981
-211.743137021494 11.2058405357669 14.3984080980495
224.344097246737 -13.4616698677128 5.80662629538864
174.789388435269 -6.22097093953639 9.03113040038115
25.0423120429243 16.3470964658678 -17.8152969925501
-30.7190405454703 17.9571329346904 -17.6821253262505
-165.88302292823 -15.3547415357366 12.3806254025152
124.659099493638 12.7200177480074 -19.7438449836855
-170.994203161894 14.2306845418314 -7.74192779234678
196.528622376632 7.00773814771972 24.0246197013362
72.5099058892299 10.2121593003918 -21.1958661152377
184.26781476268 -0.382122261256089 -21.7214166139599
-217.600734842374 6.37489008634997 -7.13430024667922
-46.8275879431594 19.8124541877184 -5.98755982057841
-205.460451183803 -24.2001316485711 7.91807797502558
125.5796906769 8.2184835743922 -22.0441004696482
-206.462208128221 31.12316346829 15.066377202864
194.339242122039 -27.0861531157928 -7.63006536290464
-65.9206427294907 6.35907975219987 -21.9031872264122
-200.656081091988 20.9931120244582 -8.50529119345058
195.667015401895 -37.3379195451993 14.1815513358919
224.971286180148 -37.8266823516637 26.8901479459528
211.736697639425 16.8341602478742 32.1792233674099
209.635223840457 -39.4262461120462 16.190121127661
191.121848354156 -6.97918712395347 -21.6656629233622
-197.351392978195 6.29092302754414 20.5865792530139
35.6238098800666 -7.45321888017766 -9.37287714505671
-169.732281201051 22.5711471253369 -2.47657436562965
-17.8939011800552 -6.30388998376884 -9.82448308359957
-238.451317671399 -11.3237246720207 3.36907006665245
-110.393122271192 -0.137539018303482 -13.4198310561803
-14.8518265556488 7.30452379329265 2.86130145004708
-209.953814355671 -19.38901292852 -22.354359108685
-194.633831010488 14.1860888740531 -13.0169549016728
2.3036516481431 3.5933687759137 -23.7368886160186
-58.7263473945665 13.7464704366921 2.18443603093281
-216.45146675473 -20.8668819145583 17.6786342432978
-34.623438392862 -5.44504054704546 -13.0704998690165
-218.087123764104 -17.0358842730792 -24.6330615684209
-106.633362318053 -4.96617931419719 -3.27742871139541
-211.688511182772 -7.94476020761997 13.1689354701002
226.402130767947 -10.5079513459609 -4.09589125639519
-198.964092734565 22.4660020671557 -7.6471358940626
45.8691080601461 4.67591452030568 4.80734368986562
-167.286314783232 19.2536455840367 19.2639933329669
194.149385389024 -1.14339873219741 15.0963454721313
105.8007920769 16.7726871191024 -4.93528836726013
213.834238696787 -5.62332595153061 9.05832635926865
-225.870878904439 -3.48647284110338 -0.800864334736006
-210.270836248432 22.0771244930584 -7.29123026602089
5.0884865777748 4.26707769412102 -23.7503253526891
218.662484141788 -38.7557739025651 14.2555404399765
-11.8627088103824 12.0973718971067 -0.0218543284595051
224.822977657348 -39.2290402122949 16.6429462801754
118.789577125274 -8.76414621632467 -18.4513755224694
226.096638784196 -33.3469482172444 0.0298963924269578
-144.269443913017 11.1498195007921 15.2401271281878
216.910969208183 -16.8017295891558 28.2622138019798
-217.801077655754 4.92682118620413 -8.71100298043725
180.671492070652 20.4868882553891 -16.7534184865183
51.7916312775643 -7.32668478720889 -6.59749257316481
109.864110198347 7.90559355476749 5.29259733303796
202.283582394656 -0.485186957404469 17.0058145800473
-4.12275176047702 15.6145277004856 -3.65613253008422
-112.776770435569 2.9941064590042 9.62129308606048
-219.730040257211 2.00818881677981 -3.85624187093872
187.016362998908 4.39486098906491 12.6675293630322
191.919705684066 -30.2205393422435 13.6040551034269
-205.835017196216 -36.9194802174272 6.99421235431372
206.430774604999 -38.0334747641904 0.50211495280009
169.451882945234 -4.90967168338547 -19.9809511239663
196.837705189668 -37.5336808505767 2.58007323005644
-20.2734207286757 9.10222527562245 2.0855165786174
217.049660143336 -18.8017170048831 30.4477855409547
213.172586232595 -20.627541757068 -17.9757322241128
-164.561283335341 3.18661601288596 20.1366649347633
-52.9144932668339 19.5617037925708 -14.6831142183542
-215.764499179591 -1.69571351560079 9.10915212210342
-204.773412470783 -24.7146518715556 -15.4382871554241
118.207581751256 16.0104645714523 -15.7529477977792
-187.03204480053 32.6198566155408 1.83451054433365
211.827852899009 -1.24865032002226 10.3768425812857
27.2259732269812 -6.36949742555943 -6.3923490299394
195.269131907202 -16.7853298694717 -18.196132138974
-192.417023378975 22.0872998648597 25.7997557328255
-205.713897733501 -34.2023755999155 -10.4044588854812
-223.664258207165 11.8302502656688 17.6512112573206
187.498010327997 -6.48245784913595 11.3773044939301
201.120259868627 13.3285426617668 30.7352501090365
199.97838893096 -25.2874742988518 -11.6232857205212
-90.5886465676105 16.3026556377293 5.86764362772836
166.875507918327 -16.9552559178989 -12.3686627830466
29.6700657516038 4.40049125223582 4.60656074880502
180.700005731597 18.9607304648321 -20.6076518354391
191.909936558092 35.4449016009677 11.9948289744914
190.318152877873 25.9328523466703 -11.4613096587392
121.50562501798 -2.8012948307953 -21.3225356937501
-154.789770412471 -5.41994791020163 -4.15054184503445
-6.49069251277069 2.00985968290062 5.64290457598729
198.56757081287 -25.82477441829 -10.4440130589716
223.920984236473 -5.75644682591314 -2.26994804285794
174.081164681331 18.3400372172483 -17.1822174597989
138.46352810823 -11.8128588198906 -16.2978712656426
27.1606523427554 7.32039585484478 -23.0073731973691
-218.334272371849 4.7496053833358 -6.95999845897977
207.255041774215 -30.7130934453556 -7.35379525545004
13.9903307999178 11.7967532012975 -21.6931153799121
124.722177323331 17.7280853750618 -11.9247894997518
212.897688440556 2.36314218007633 -19.9104696127649
-132.785542715759 -4.21737863434735 1.85391123376898
69.7031952760102 -9.46265730305982 -10.4871022392817
-234.119922230343 -24.7156892551606 15.0917322937321
-211.483698502559 30.4822210564722 4.62797035276861
200.56831401945 -35.9803664277315 31.5496557117178
-228.766612136828 -26.8543955656072 -25.3377641874805
-215.164355442667 -45.5083329870712 -10.4988826452507
99.4767386538275 -4.40907823477442 -20.8583130587037
211.283989505798 -27.6196370955382 35.6794654998747
-114.576536542575 -4.93600335998193 -6.16225368812092
227.138898210612 -29.8872374493034 -5.5110109998545
22.4610809289266 4.9085860985828 4.09448285938569
-161.106536374365 14.2537544183598 18.7725862882944
-137.0073798924 8.59649473952748 13.6598318656253
213.195914992592 -38.7960921216135 2.86318696170723
109.968207568683 3.10260266465746 7.50292418554506
191.734346362003 -11.8279667129227 -19.2308034699991
132.088045596221 6.3912576460853 -22.349884160668
138.681000301851 14.4924142266767 2.3642924402435
-229.729934368081 -42.7010153036765 -1.86176063392901
-198.716931078914 1.11410875797845 -13.1291947639818
169.605664783194 1.45475338913578 -21.6319966289961
-159.16578075327 19.3602373050137 -5.35733773833939
195.320006098546 -27.7876311550416 22.377454463438
-197.483250113472 16.6936372803108 -10.9696048397016
-231.639591778856 -3.57548598714629 -4.99147760796475
194.564379943183 30.1038122982419 23.5972135768313
167.456707310886 -19.4696412209855 -8.70849658279401
190.569318975872 6.62951046963118 -24.8720088373568
-173.401214424584 10.2434030021968 -8.85421151038133
-85.1558102497613 3.92983769821644 7.18835391443791
-111.037657816043 11.8650778927252 10.0769638152574
219.501268575408 -22.9274025607074 -14.8869498014298
223.54316281635 -5.1687848562739 -4.65554514730533
223.620828479487 19.8016568271878 -9.62791451660628
-152.550707366938 24.0867758217688 8.16052793781641
-101.459243009092 20.0975145828426 -9.72144956860201
-124.814567557976 2.3723995659577 -13.7203590010896
-158.366018824694 12.0475070880156 -9.82328905822663
6.35681959392055 -1.44495839573422 3.83342288694166
193.570194288486 25.9966674012342 -18.4574828316562
-211.352076107383 -10.1993978061155 13.3879545948281
177.174225374701 9.64812736665362 -23.2093401332958
182.206977962144 -13.295738063003 12.2125476111293
190.705277564268 30.7770779301749 4.70246476206711
-188.207680335042 14.0058593446207 -9.18364566078616
6.51348000325453 11.3609621930938 -0.0212698101874438
199.223608589856 36.962141651686 6.00916360036086
179.943841070149 -15.8452817479536 -14.4312955529845
-217.308854480932 10.7932092764251 -3.43923687002154
-27.7319047805036 19.2891412254917 -15.1516276792038
-205.214127066261 16.5248561888486 -15.3049175551905
7.92308929221254 1.35528201867064 -23.3673229553529
-232.132471286048 -4.14559687244988 -2.74815604391194
-31.7709785718388 -5.53326428988592 -13.2049806024792
-166.398004294672 25.9196523925627 10.4627402312087
182.633300872886 -10.4672440469959 12.1279243466821
-184.377356111443 4.54140489558091 21.9721149896934
144.318463959352 15.2675835179882 -18.1686418205513
201.99806083286 6.70660588955292 23.3886849576597
223.110249281254 35.5050060639254 19.5381141516841
218.439433273775 1.02377438331592 1.93021718754685
-233.50383923645 -13.7775078541471 12.2705090810261
-58.0730890804747 12.8984408938881 -21.1571680613965
180.523203743899 16.9000133106781 -22.5798799274713
-63.1666104055701 19.2153779023016 -14.6752775394355
218.073640046296 -38.5265078774062 19.0521867854792
-195.299752852703 21.2603961093402 26.3427535439327
172.088183529265 2.42202113278951 8.96139623597127
-196.026496149967 25.2113996014626 -6.74343736639637
-211.594827305663 -26.2409484328894 16.2980377942954
177.645562962053 19.7699391362679 -16.2337984933258
-152.500475308358 -6.85437785752903 4.80108480250917
-158.396200564845 15.6771933015629 -8.26845845480086
-131.694176654058 9.8309361603299 -14.1932097539909
34.4006270601089 10.9444303337287 0.217174176294764
-120.541301349266 21.5072275231913 -3.60909295677866
48.0299231706753 12.0597744038486 -0.411685098636052
204.174554505638 -39.9194977371402 16.2288366867365
-219.15867859258 -15.6573724990725 16.4715153222636
218.301968077544 -14.2322206362338 18.4304176599931
189.801755059268 -5.05889415890979 -21.8815904003378
-193.803522426864 17.0474793714061 -9.27161392049632
213.784664899041 -40.2139573874986 7.16380347601892
-217.171949517962 9.52674926249116 -4.98572714226078
215.902744772132 -30.2938355445853 -6.37300981695001
76.9690482757896 -9.0870017305758 -17.267047560619
171.641072434087 0.661069239896394 -21.3539229358076
-194.265419258789 -8.25580485329445 -11.1643132800999
-200.903832182636 -4.28339605029544 -13.351446651668
219.889874150946 16.5715324717973 25.1985562652661
-192.848336177333 -15.1648867414985 9.23640102237038
210.427707525906 -0.587913959825433 11.9920161140676
-157.702943269405 7.78916148512115 18.1425142493146
133.498287162907 -1.24647876554465 -21.6408483190024
-235.946857938729 -7.17017650365759 -1.54692260773104
160.730974532505 -17.2358551837029 -11.2226192347013
207.96677736086 8.97352036526638 -24.3170831991488
161.288872203637 9.20396760607078 -22.146654473345
-197.3668950375 35.1577534645152 4.17414029438079
125.51332405948 11.2171983659283 4.1046362893625
-237.264067786308 -20.6119225940896 12.0437654998545
83.3259199131952 17.126946514127 -10.9139971269667
197.12247915745 -17.5947540899239 -18.417292400483
-230.09729714506 -2.6139169155209 -7.7475291203956
103.543960408703 11.2938019680942 2.26607829700276
-11.1466214492895 -4.94633860430494 -16.5621716611153
-4.15612497479745 -1.55706654894953 2.69832928191466
-228.155012381719 -23.5759522601824 -25.3898423487819
233.094295303664 -25.8888535073876 0.748840277709848
-89.3268177440115 11.8430677825546 7.65678171950632
212.575430407602 11.8999017719063 -22.444105081476
-100.199782913526 20.0281523693881 3.83815436526972
103.213628750363 14.505264133504 -1.02914899772834
-160.937779886147 -1.59404067262707 20.4115591081631
-162.993828858079 12.5378137297148 19.4563640409804
-83.9633504264035 18.4530246235926 2.09046808377472
-165.437492153861 18.78817493302 18.9989043712632
-170.432159879702 20.0795015896759 19.9115666122394
142.300304545482 -16.2380276257648 -5.28192648806299
10.0874794485017 -6.92811581797971 -12.0948629836032
-213.034696285065 -31.9840429071274 -23.2203636538689
215.462602441813 -39.4688948537366 5.8151165828194
-158.237764973274 11.2826638166927 18.2403787600766
-96.0173052667037 12.1374747857667 8.27187946063982
98.8395368471517 -9.91055457071484 -4.51380622836267
-218.438294638915 26.0108074684113 -1.80944867908814
167.955385045236 1.24727328238795 8.23334478225094
219.754932966967 -40.4744802412081 24.1176991307673
-210.047969349675 17.127293172987 -13.080488665328
-203.712111861138 11.8008104278249 13.8235650493235
-218.537864629036 -13.6083922557235 16.0564538388931
-155.401714306377 13.0404775046976 17.1379251131816
-212.637630697948 28.0197212417846 -3.48611732875467
-209.98326802586 -22.6260669038229 13.1770334933919
210.243531094992 30.1271835851908 -8.50604529759975
225.890939555822 27.141315612056 1.43325283883322
-158.024104516582 22.8383588703841 -0.141034971746353
220.923877438839 10.558219345871 8.1913915015884
-25.7670002477972 -5.65283883737271 -13.5864439006052
-167.462426534355 22.6913181813782 16.9876940269962
-172.004481458784 -1.83695020708756 22.3929331195697
193.221554199713 3.59602510882135 -25.7195917960334
-196.023707420002 22.4602011500346 -7.02821688308094
-43.5299831484305 15.5425133417858 -19.9127916263701
216.85688157153 -11.0832386401192 13.375807192972
182.613837396169 -19.5188851503148 10.2365691150923
194.950044426769 -30.9657674091726 -4.59136969186724
153.818459166834 9.11991038226147 8.2816553412365
123.013421203482 14.449549030196 -18.1131262636523
-16.1347342140273 -4.45107480559855 -17.0091558857535
-72.5429641358147 14.8971314669427 -19.1275736155137
230.27150847822 -33.9429208695536 3.96580720999448
-146.194422622571 -5.53115559044283 0.281338553843246
199.591520449343 -2.49841760881213 16.626777643752
210.238638332432 29.2328263167932 -11.5286823889033
-123.990198051978 -2.72673482208339 -9.96872668879533
185.728163036037 2.17459805030491 -22.6602638094167
-216.40196841446 9.94859756899828 4.96939223584839
218.018823722843 9.93135893089229 18.6955756148951
-217.879397311927 24.9869880086487 14.2797811914433
223.78549619288 -27.0991115075322 -9.56718040911429
-236.637033931115 -34.0361363619242 10.3622316409501
-132.480311721007 9.71286263937119 13.5986476669491
-213.342249789436 -46.1014562481415 -5.68201966743662
-219.111019549118 24.9721839058626 10.380035304621
192.480636648378 -19.5379880352648 17.1282706371751
134.608206749733 -6.97129410535274 -19.5135952656026
-195.86040719726 13.5563005126742 -13.7843175356094
-35.3134328460539 -0.351064342238744 3.14092647377456
36.2464287443724 4.11797427134127 4.95138175445028
197.578832105627 8.22341006955571 25.0804060448459
158.940518647737 2.41968554172332 7.76821741116394
-95.6507395300466 -0.576791535909724 4.27017385822893
97.7910127585937 14.2198917182185 -1.06370705429331
158.999052580418 -19.0345638409914 -4.13372129601796
-225.943718417075 -9.49394091707677 -20.0347793224829
200.025183182892 29.6383995227166 -9.62999736162098
-162.457691683021 -14.0905042936601 14.7575143566764
-175.794930564592 4.31432788057185 -10.4370852255392
-201.317870475297 12.8458695982079 -15.8527584782772
-104.281405985882 -1.00900585979132 -13.3859052057829
-219.957248578109 11.3905638233939 12.5058196518856
-214.279815028767 6.68274968454674 -10.8394208938322
72.4382558888159 7.13667925679452 -22.3286226213252
-196.640161625715 -6.56551808342202 12.1575677870896
-216.568749436724 -5.05993550879708 11.4385119709621
228.467544656053 -32.7615893373749 -0.528799205312771
208.05584715473 -15.6594182997917 23.4113749051317
127.155327978763 -1.33356047657206 -21.700250730247
-216.603727001822 -7.33644868771586 12.614939275026
224.151694269026 13.0542614532158 3.96311508112164
-215.870304015008 10.0132240146142 -7.43309976494429
211.614113224113 -39.9401549792958 30.4217852146425
190.854717364231 -24.2061143344734 -9.17881075264563
-176.531025303851 3.3860699842949 22.0375267792681
191.045760819429 -32.7659054026567 2.94302504039252
66.5432815020506 2.68121737236801 6.36755775469987
-157.206470923702 -10.7465335799036 13.8393206274353
3.57951347900506 12.3062538636069 -21.6113777412928
-105.922018308532 14.2494642570307 9.09950462682426
-179.04092164757 -1.96268810563809 -11.599102544278
-8.83762322575719 -5.84169622387884 -6.08312071928948
-213.432062755499 -44.6343028530504 -11.1171445931495
87.2609755379825 7.92688327896801 -21.9627322553475
-46.3115203144512 20.4846443956367 -10.9308341843128
-207.032453785501 -18.6432037347032 10.5231723335722
-227.469029429925 -42.9691158831184 -4.88949366782587
205.159409520901 30.6596884355181 -8.78780168015751
-84.4441761033147 8.01984365387214 8.42141964999917
-205.150328475046 -33.2644102506608 -13.6694798825875
-204.192847039434 -25.3136022270836 6.14172140946078
-133.220130781758 0.855486760242834 -12.0850775772833
-235.146612215145 -42.7227784411214 -7.22404027859378
-165.946735216915 21.7980963340536 17.4740052408737
-100.980552282804 0.826676026125856 6.00921674249119
212.426895956737 -26.3334250280537 -11.3673060116538
-199.596982908598 11.9148017961395 -15.3378818377298
-211.517852960666 8.55931539922196 26.3974248965131
-201.179106533241 15.8978673998491 -15.0589539739359
97.6630617176218 15.9193146125676 -3.65668321057669
213.673281417356 -1.33634957388284 7.60173311167435
-171.15153511879 10.5424702277304 22.1149886748801
201.836497908572 20.5538863340639 34.7405529989852
219.408910712838 -31.0219013687726 -5.2756048151766
-198.275014503372 19.9269601935195 -8.60990787858488
-224.796403690962 -8.84335774090927 12.014436549097
226.17400412052 24.8577145140252 5.7803874603962
77.6057819222194 17.0835689170114 -11.429157346657
213.690056151033 -17.8248176867082 -21.3735436637408
-215.694677946045 -23.3674343979612 -25.5648869043798
-103.763591555514 4.30447944666347 9.13676413978819
75.7605008071599 8.31926919807043 3.22935275355568
-215.047364166747 -46.2961433104836 -7.8275681107203
206.778494034795 -13.8160861841742 19.1476392267127
218.469526531793 -17.9835746578325 28.7971824162303
-219.714824513645 9.73395606100077 14.2074723646461
-209.616752067329 31.1562213406312 6.29436479377577
-38.5550896422466 6.25576947662753 -23.2069158658107
-128.321352532128 1.07314108669943 -12.6580576489794
-179.367793333237 14.6372557761109 -7.52626525409939
193.315053741643 -22.065371782772 18.7397160224449
71.4855483796784 -3.88364025914897 1.51004046293598
-100.35075595532 14.2009632916332 -17.1583444188291
-190.045968507263 4.36193027131659 19.2196814249005
216.001901108538 9.97123852877904 22.6050884232878
-223.830886694767 -27.651095365183 -26.1946487205516
-110.360714119113 18.2997795522383 8.20866020729792
185.206334331279 12.2521552140236 14.7597618606769
-238.88433049771 -10.9907907895833 -7.96634775302396
214.219759401261 -7.40725487182566 9.85300308348902
-243.980251920314 -28.7856866463048 0.582618282729169
-221.043904487012 -36.8287744771186 15.3386526193778
215.089695088 29.4311207307949 -11.9709798224432
-203.427726236771 16.0896451372741 -15.6316406633459
205.640949116344 26.9589075032507 35.476065393796
208.234197553975 25.2135993961132 -26.5791219384691
-79.1536809500828 21.0325175237095 -7.60323756913347
-206.542286224737 -30.973893639689 10.5327273944814
14.5317408132638 15.3815573485381 -19.1741395232159
-165.245378670422 -7.1711630986348 -2.84584048495097
-199.624954756126 26.7520173619413 -5.74527984841048
-133.792074296778 7.76218868167522 -14.1254481391256
209.201284960658 31.9971839746795 34.3504766312532
225.144995578295 19.9369116493792 14.6939665138954
167.590687970683 -7.94825308265563 -18.5686206045508
134.973770068864 7.90782454336041 7.61435727717035
-182.524901379183 -13.4015814574242 12.5331361480436
-185.71791943792 3.94334668127077 20.8964264489716
227.325805147462 -38.4229958961954 21.3575436569149
-193.581864644145 6.06280921517229 -12.4736825416699
-194.212211998117 -18.665362829574 5.99557881162805
208.589581778237 -27.7308098284675 35.6602066286347
230.170672663846 -19.8866256971278 8.15359967463258
182.273905285147 -22.6825409079496 9.04354547714493
-20.4005157611846 -5.33856804794335 -4.71137960658623
-150.829150583232 20.2834770048888 14.1284922698163
-231.079542117736 -10.4640275109371 10.7874983333265
-221.802951058983 19.2071012492405 4.75966924208547
95.2474819625949 17.1705905860316 -10.8540550192527
-82.5153585751168 11.6909277146701 -20.1648262478912
93.5351154664174 -11.3667433866796 -9.54143710340957
225.767348190888 -36.2597992354091 7.53243086474041
45.3449391033772 -6.88015181042489 -18.0547606057353
-118.348011813804 22.6415334108883 1.27408369143618
-50.2282284404517 -3.85631448605272 -14.8318777807995
-216.050811686703 24.1508492030829 18.0914965082386
-191.092439698848 18.5775884379566 -7.64268225499873
217.717636483264 -15.510287017073 -21.2483263250966
208.083268649047 30.9677966660843 -7.22517078558009
224.835512178012 34.2859354381515 12.3959519198238
-107.845624321453 -4.45380818493884 -1.07032848319375
-49.9907631665721 15.7231931553808 -0.296132166837882
173.962285981479 -11.1575522507327 9.85628809722586
-83.5396506444249 15.1290793301958 -18.136971538881
-179.801264234361 -11.6985491344284 15.9827390063493
63.4345154404183 -7.28963571279905 -18.8766093991049
182.205358697497 22.1568219589686 11.6013315442697
-198.863751738409 12.9331020924888 27.5373052339321
193.198373150761 24.9815967237145 -23.2730404884458
-61.4507568978918 -3.3187543551399 -14.7408596726085
206.351389428582 -10.516508622421 17.0481717931462
183.234361494831 -14.9847166384743 11.6357237296401
-187.828698178882 -6.01012769266935 -10.3519798725631
-134.787890380095 17.2050590619776 -9.33501151035099
-220.255387097475 2.42741866353879 -5.35562061619661
-167.540113183432 3.1155805152522 -10.3772524842212
-212.942988661242 -42.9109129948957 6.67864744672257
206.158625135763 -29.907288792017 -8.41893042439179
57.6771173120971 3.87774950459121 -23.0954989051641
221.672862522954 -13.4298572108563 11.3314162112628
214.978879083688 15.1074791120597 -21.7158518102977
-147.211711503806 -5.72187347817419 2.4762727840757
-88.8995702372165 -4.2258076466947 -11.1010758420857
110.151095692539 -13.0865358264165 -10.3971160988773
205.88777392265 -39.5439160107826 29.4721874873389
181.589168374787 18.2002523212863 -22.3781092137944
-237.640756505944 -35.4609293249141 -17.0577145195833
-161.061188925467 -11.1306873615287 21.3201969811641
-132.541268462191 23.4702011697288 4.90718323362337
201.925786833566 4.60698886049196 -24.8888241327599
199.628013799575 -11.1209140261852 -26.2436009289586
-154.109256958969 -6.77479767317836 8.46231389363216
228.290760253528 -14.4613697499748 -7.56742615461861
225.671345637654 26.2263133335526 -1.73282018525394
219.763978475266 -19.9793531891246 29.9886039170489
-204.038092863757 -37.6755034826385 2.67090593114792
42.994190244438 8.92879536981613 -22.4584307669048
191.59877822368 -1.9940396551641 -24.335693382677
87.5487788753294 16.5608557389549 -13.4702971104989
58.0294401915787 -7.09036506741971 -18.8631896992707
6.27575722460796 4.26293440630584 4.28490868956413
-205.484722360989 -37.8986401847287 5.05856858407182
-163.121993428382 14.8577724528524 19.2239197514986
179.581219029608 9.36282351943851 -23.3886628640856
-240.608946753252 -35.2893748241917 -12.715121376317
71.9154604549989 -6.38778675416877 -19.9256844069391
207.048276915629 26.5457172203277 -25.6295238088547
154.973596042523 -17.9046278749473 -8.20258986786021
-136.140473886737 2.96238043803563 -12.8587379310531
-217.802979232054 19.3123894734568 21.4690833867393
-149.787476152734 24.0418012465892 5.22821456757997
-41.2027205291323 8.19008647365767 3.61710064304027
226.168865193465 24.9728943872996 12.8237899345184
122.874408785176 -1.54343897706444 6.22096041260122
-165.720437919625 26.0704577973961 6.8169500969665
-211.57072146128 26.7027750742156 -4.61085446920691
189.116291497709 -23.3454304645357 12.7623279101786
9.2089724049845 16.36136980194 -18.3876178003621
-165.943577532792 -15.8859821627006 14.2446333991668
-47.5870273764028 -5.36455665832954 -11.9086738696912
55.9390168675106 -1.65669983358156 3.54321929054194
206.097890685068 5.80049632739756 21.2692234500257
184.348552592725 8.69735108438128 13.0662893003652
-63.2596002453823 19.5474596858666 -3.29740431879559
225.801681020948 -16.7914023063464 9.51323859797972
-226.14459333396 -1.81650020646663 -11.5884182345341
129.230053677034 5.9893879057609 -22.4023139412885
-97.1449585111603 20.5228174232052 -9.15164391326066
210.521913404601 34.8299117352812 3.27621759637862
-197.616764546496 -0.112208317289165 -12.3488692483526
-211.437745135837 -45.271220858969 -5.38763107569016
-214.147028427082 9.01265369012662 -9.77491187687839
21.9966666937766 -3.68199665965174 -0.537465068178011
-138.944428011072 2.6362567181239 13.13521651521
-77.9984865822408 10.8125576607559 -20.7726117910033
-196.574187389117 -13.2329129798354 10.0148843749724
230.046730140276 -18.0397379597309 2.18776655712939
-219.003142022759 14.3379620799152 0.281775845702489
