-243.925861171686 -38.7905158798035 6.86902372564444
-206.119444527124 36.7322138205321 9.46262414735715
179.074022986399 13.2500687235874 5.45292179998123
234.926858904377 -38.2116710897414 10.6440043010738
221.938704823519 -37.763340239424 3.73283370614853
211.005124335526 -2.66183775855841 -20.0405079093687
-207.319468125703 23.6833091098843 -4.96445215148928
87.3267294894993 4.66746127122522 3.55972062368706
-192.696263194633 -21.3743605219329 16.8709063201715
-194.305564215154 19.9287803588656 20.9091977710134
208.058776838899 -22.6557065008328 -8.73069483870888
169.0981242244 -2.38471061136679 -21.5685554855825
-228.261161518361 0.0199022389893007 12.3873647256906
231.736801623291 21.1059588707038 -26.0596332706578
-242.333416667798 15.3975142753935 0.085168697850383
-116.56680391752 -6.516986246562 0.985937560523434
230.751193756238 -21.9434063932904 -14.9624959216078
-7.25532974400134 -5.03007536476643 -1.26956103250736
59.5963993806009 -8.44480688834629 -4.78817225895431
-269.903702890866 -27.9307530890316 -20.3490620970905
-205.023755141294 23.6548615492877 24.5787720307443
231.539984010535 7.96145576921271 12.6557148985741
251.589253505772 -26.1692071030166 8.97459135546871
242.17399115111 -29.8443236332114 4.20430950792573
48.7448028119196 -3.19331949168836 4.48265139674357
-106.196163355742 -4.19541379145566 3.53075761187477
-250.455371247551 -11.0804256497571 -28.48729503065
-219.098568030344 -8.73129324908153 -9.42497723239813
-145.381682790716 10.4359863454905 15.4817696078136
245.871357861575 -29.2090410998639 30.1478017223321
-207.955394297626 32.5226041910093 20.9058714812373
174.191881933722 1.74353610046847 3.7893629270475
-220.720449516443 -10.405773264779 -9.43663278421403
-233.730836840795 9.99072651567231 26.6401809216688
-240.12772282822 -30.1902484235472 -22.4926117984081
68.001819214821 4.83606379811363 -23.6539791156909
90.6435743615652 11.4188343327423 -19.1590133183443
34.7819199082169 10.4748396160895 -20.6704997584032
216.491094620424 5.45985524265894 -26.8376226918995
183.336823092986 -0.559970547072366 4.50293390180646
63.4316291334312 0.410961836742496 -24.0192296664681
-232.389389897172 1.82082925752245 11.4864820513949
-110.840232231991 4.97859787478399 10.9701695024757
33.0990763406714 -5.12913380487745 -0.232629013026074
-187.553377622286 17.5413009864073 -6.75120871194646
231.18525942304 11.3858509964205 21.1238430411394
205.125514621212 -28.2062883113106 14.9863034786998
-244.630187256271 -4.53262147800607 -24.0774758812796
196.224189174415 -23.8089206087277 7.65122600654699
-272.142229087268 -21.1925159243011 10.7942650497483
-154.811075735927 17.9894778809037 5.2087172668744
198.63819188831 29.5511800042096 2.30092607629514
171.941334760574 10.933851183308 -20.6671849663082
115.888749214101 4.05157238128502 3.76442245807896
-72.1706148681152 -6.66411469590154 -4.1496648103876
-71.299160317332 -6.66754255939854 -15.619507185437
234.530932106709 -34.0651758902457 29.889968974369
229.479251028577 25.1225391155949 -23.8553858012104
232.214602140928 -39.6979796254485 12.1916949590716
-11.5354516142597 -1.4002992100424 5.80595532887327
30.8347721724654 -11.1651893227692 -11.1700252459723
-242.578222443153 13.8826986049122 30.1482272583517
243.124972179397 28.0629240619099 16.8823796983617
75.9538871503334 -0.613742962370278 -23.8104970939831
-67.1457954308005 11.6181016203071 -18.9996812557254
1.59528969951697 -2.3339884518178 -23.3548905675763
-231.00895702972 -3.88317521999438 11.5780899945118
-126.292561108398 12.6947009782291 -13.6345633161952
186.792405268116 0.928699510245684 -21.9212387958346
222.46338619941 42.1578667608525 6.70938188499847
230.940956328022 17.039695009217 27.4359648803921
-202.644961562412 15.5243278178949 -6.85455105214053
241.157413089047 11.3504923719867 -10.4808630935635
-253.826440583747 -0.50916487739947 4.45969967146338
-256.576824076056 -12.9558013904589 18.1395864551888
44.0811610864997 -9.06555805458595 -6.59130265453045
-116.428064393456 -2.73785181038756 6.09099947578855
74.1703884630828 3.60318882994528 3.63447823357826
-243.447321293057 22.6201544810924 9.35759629154376
-114.840639360341 -4.04744834877941 4.60320278900496
-265.409477021426 -15.4600357674141 -26.7128953110123
82.0350413045994 1.89776281092219 -24.0616480616172
-240.102152526892 15.4572531154545 -8.88183052078866
184.53709403463 -19.5690132825161 -5.53631328357597
-187.815109734999 -7.15396100874596 -1.73843553516647
201.59963512856 -27.3466937551868 10.9835227151429
226.352962496958 -18.680786049819 38.5804446204568
113.972903081343 8.45910294708608 2.20990776043026
237.3880946277 6.11691560724392 -13.7534203573393
-27.2837548352176 -1.54860266849076 5.76290228991486
-167.776203692404 -2.4833560113377 15.080611974455
-267.618708346031 -19.747340592124 15.06222681893
-222.612804467773 -5.26985137112367 -11.952264607647
-246.886240970114 -2.74778932225366 7.40876451330683
241.810846959205 -17.9798565497741 34.0415561523127
224.309468117965 34.4158533480455 -6.6110507981599
-231.029996458933 26.9317687126323 -9.80072233217476
-219.924739175876 -13.3267200756852 9.35467880079837
-219.975354358283 5.41683254887577 22.9881352477334
-84.6518962839813 16.3573127181678 -7.98154112552914
164.31326549724 19.3477462205023 3.5292420364499
224.339217772925 1.07869138142355 -22.4066493266323
-12.2551234259305 3.7296068674325 -23.710374286966
-241.949659788195 7.58024772526636 -12.5383203904998
-124.926193720327 -4.87395305478562 4.75431515556403
-216.720273067001 19.156331938735 -8.94897911195708
235.662870429951 -38.3155069809793 13.5268070192588
-64.1153816588676 -8.06255968150259 -12.5298714568743
244.207471297352 -3.87450155613149 -1.78673273098685
-103.685320107923 15.737556099625 -2.17994359707711
215.450508808766 40.2344131706315 12.4306376175251
229.48538704305 -29.308320249046 -5.0358110342459
224.908554241988 -8.9118049922546 29.1237011993905
-223.379542629841 11.1090124263668 28.0975501519117
-231.832463063347 10.3696781542782 26.9226474164183
4.16692180148813 -10.666337678811 -18.0797594223562
-256.795079657589 -15.3989150622424 -29.6559353605455
205.271547410233 4.99307031355287 -25.2398779481483
-189.239545460211 -18.0900864933198 20.2737966943695
239.056458624481 -25.0384634255341 -6.06050161513156
-144.665287373514 7.12285660500393 14.789396846127
225.982444332144 29.2418631780219 -15.8190151461667
-224.464026108792 -6.63951713391728 11.5558182034354
-45.0478592581374 8.81931850776155 -0.746097523863699
-138.116492392754 -6.49367569342898 4.80948723383631
-204.65802897781 16.3633779809219 -6.77058566583449
-227.537041229431 24.476578794753 -11.9341193783388
-247.29869855864 -31.7968633154325 -26.0323385907228
119.816519402132 15.3021204541423 -10.5270718584811
208.261841650442 38.0905621905894 13.0220418463659
-160.316999179641 -8.4137093031871 4.96397530597301
110.391045140071 -3.1670395859657 -22.7675549251742
23.6241309706201 9.42647830124209 -4.51383322979166
-218.746068123222 5.62423542040955 -11.7358552959879
243.630649572608 -8.48847909206934 -9.93422067980292
102.093067413296 1.94419998034367 -23.8550792772407
243.099300007527 17.178099618861 1.17931180889558
226.911922577316 39.9098094426029 17.3188575226118
243.767487728232 -19.4889307130838 32.7138909674356
-185.730703257206 -17.2457018053918 6.66314510867814
68.1467189333687 -6.68423074178873 -2.22293664856192
227.75438095975 -28.7103974946472 -6.90982800665813
-185.031123023517 -4.66079230208654 18.9491570963127
228.931465760649 -2.4824216712498 11.6626392469784
-212.740522189951 32.3481179693208 20.57231177559
64.2756972693979 4.55944088624359 2.38170041398278
149.966473829202 17.3851441516631 -4.36174967807495
-105.872160888836 5.57308549042642 -18.8388932764058
1.36638567453021 2.64217728939983 2.71578485612868
215.518057833919 -34.3275905280105 1.29565857479059
-102.500066881934 -7.52950314273006 -7.57013619503418
224.844768699894 -9.85019397685937 26.1316098034995
-159.06553829117 -8.34846634549186 2.92762764010472
-247.501445901228 -10.2496444824079 -27.6290829105674
223.119437508803 37.0079573973215 -2.8437092043218
-209.841980081677 -4.09380087682508 16.0558079670827
223.427818165008 -9.59127654964357 27.721022763877
188.566824646266 25.128189892515 3.94958169056426
211.662231172807 -18.8450354821496 -15.4608117495179
43.2851981435731 0.214429146140738 5.82516618317995
-235.203724341067 25.6749139866828 28.2634005133353
-188.575732239299 13.2844280448728 21.5671237690959
238.750458228337 7.22306993023217 -12.2031695687957
-250.474744347652 -43.625256542306 -11.6115116840864
192.333116158601 -12.3549702335934 -14.6966425504906
223.785241585181 -40.4786741206922 10.4223676257592
173.113040150293 -4.35943838907942 -20.3387818864806
221.818227612758 11.1006292159232 20.0556509604551
-95.193093883515 -7.75062857591238 -6.22443909956924
214.494750572751 25.5999638201172 -20.6869938408433
-139.68576418053 5.63363901515037 13.6005457595454
-195.31791437814 16.885847380523 22.2102807349243
-128.579791318444 -0.0441619410721475 9.29149585380297
-222.95733244535 -9.7506837983422 10.9273292824622
-144.106328471351 -8.17674404985329 1.23228817601753
-30.8554362715258 -8.97080097464609 -10.3152551973776
22.9833755473336 11.6916325281638 -19.9506572355646
221.49043190685 -28.9417544629817 36.9453359639069
-257.962075869113 4.19434176328283 -5.04059956046692
-239.556186816733 20.2824497405503 29.5599031963244
-80.1341561890226 5.96786072223494 6.94224942713992
135.439212031188 -7.70327563797138 -0.232359474419777
242.072701841678 -32.8381434600326 21.2254925844433
-242.459082879732 -28.2714298683553 -25.0617049543097
7.37186330814671 -4.94231333516659 -0.317210917788262
214.183511294629 -22.1504891693517 30.2302467996222
248.674358999711 -29.2008909107377 25.2869706890384
-112.135740615951 7.1978048176555 -18.0502120177176
-247.539838965741 15.9941252002959 21.8831974782825
-144.341778908189 -0.349421130106149 10.8936668984217
-249.189924231462 -11.3317816295048 17.2718258828222
218.776282904455 13.1332072172407 23.2836621256035
-205.796499637434 -2.58152652349376 21.7194077439043
243.008026189336 14.8123947384418 -5.65883111411049
-227.186471929317 29.4776497511225 -7.2104906887334
-161.0752650586 -6.46227891099784 11.4237254013668
191.047215936108 16.133183843143 -17.559904346237
154.594319349101 14.1437972381656 -15.8139564881486
-228.417496934685 11.0033234334321 27.7859891843017
-84.2656385062006 7.72967462284541 -20.1753604544732
-130.781960341626 -6.29727014778092 -6.5379352909393
-235.626250199777 29.7609188611044 -6.06802999735982
-138.88291483442 3.77778458561821 12.1951819943402
189.777681986622 7.80559524390156 6.20890978568324
-194.608782648197 -20.2081563098652 16.3457054484149
246.997839347829 -25.6073251192627 30.4390516390633
177.247053313885 -7.68334969792998 -18.0911422074254
82.5509808932791 13.1158920912166 -5.74224576367301
52.7296552505786 -9.77329494132448 -19.9200903144776
233.790296836058 3.19199479281621 6.92237704285656
203.114351581209 27.835532187652 -4.71911894636838
-200.962541586393 -10.1204300055423 17.7472948079878
-49.6205875838629 0.79645178235808 7.4997722849412
-186.746126297127 -0.552456789325414 -8.27551008415866
18.4189393059994 1.42679355906845 4.18351302965023
215.534357995799 -10.2033229931137 26.2117011652926
232.856911884905 -9.02894080766125 24.2163107238359
234.039733127459 -17.2025562856825 -21.0368111793021
188.502787733027 11.8344107079675 6.74908808385958
177.175952674522 16.8406520496856 -13.2861666822749
14.6658649047049 -11.699645381768 -15.5107439607212
-204.146106316748 -8.8643652556924 -3.93086326921013
-197.160826971109 24.4745676023291 18.1817286411994
123.60605998666 14.8373930602006 -12.2628057323279
-159.154387701932 8.21028026346838 -12.2930343970839
196.235063054156 -13.4261002772834 8.9308908583899
143.118136578078 -8.84138464927207 -0.100501593806041
-258.502677592509 -30.6635267750361 16.1191915732041
70.9863771366306 -4.53279522931445 0.765196965652331
214.634680915244 -11.4999826187117 24.8354199020079
-170.881638737229 16.3258335970569 -7.48591019790993
-274.471795337889 -7.16369229610289 2.45140225719063
-0.962390231717346 9.1904697921108 -21.8081599713046
-233.109132835808 11.270395842651 28.3514584228584
-229.384315317863 35.662013377575 -0.0809035255748638
224.604483773557 42.0334188215754 25.6728892641462
196.593412844865 -10.2956786149699 8.00195488090432
-171.044903453133 17.8660598988596 -5.72623488641825
-15.9206063160904 -10.959163149414 -13.540127715325
174.586439740376 20.8916839051527 3.81974502018128
237.783339332374 -22.8135319623724 -13.5395839596361
-272.933283884509 -10.3674008730777 -18.3257165304982
-145.220154232088 -6.82525485707573 5.87827092211095
113.004133316322 14.7845080178976 -11.8080470372744
-244.052861302556 31.0387323157616 1.73328610342225
211.233539403415 2.28811266176427 -23.8594944669177
188.68861276809 -12.3564882571673 6.34942690102791
206.040363868208 37.3605352130835 12.4140725972172
-241.993259535254 32.1729268509646 -0.110213809183421
232.710935187489 -35.9949076644441 4.75009593398881
64.8528179270946 13.3672957225621 -8.11069359256631
236.00748588654 37.990586309178 26.6038918249022
227.792161733853 27.9834062349128 32.4570820258993
-209.480441652144 6.70193192034681 -9.45165188724218
-88.041007354885 14.6653124169388 -14.7928557737967
-202.948172401839 -12.8343838483544 13.532072613979
172.399458399748 21.7000524687648 1.88451607439274
247.911838984055 -22.72928145585 -4.70230833226201
223.659034111319 -36.9147527580471 2.58399860403002
207.03454343944 -5.59109004602917 12.3854923777963
-237.67977677032 13.6915858925321 17.6341403950665
-105.512648890022 -7.19857554954355 -8.17242554050897
-269.72012443905 -21.5859043419399 -23.5581361092377
-202.099464993286 -10.116885273557 16.6854173864662
231.088318562385 39.2543030238681 3.6364819882179
223.076955306392 14.7608811559825 25.8648400626634
-190.0000050011 15.5284170999291 21.8746223313157
51.1229358470422 -0.0642470250898475 5.62286100402859
-243.990132914974 29.9343278541054 -0.0208691306064736
-0.974447899314815 5.08497857273088 -23.5867388609455
-234.064090009148 31.8605817637605 21.9877691657067
209.136865561666 -33.3707087839592 18.911120717329
-272.690586504868 -2.9911623875847 -3.10378109376806
236.508408186851 3.87461696771436 -13.4722500169055
182.49467017751 11.3666692225756 5.61140057473501
225.830984548719 -36.921139559576 3.07793679717806
-251.070010616763 -3.45263646107915 8.36525469370695
241.947044199264 23.6021857758469 -13.5345183737382
-96.031653014049 16.0436689005533 -10.3659608115989
-268.579892902005 -33.1128407943348 -16.3686685812604
189.021189910594 20.6783176379596 8.12426661500283
243.738713691922 -31.6259201598496 11.8561012118215
-277.027722623027 -13.844414413164 2.15800371658007
-190.518959374552 -17.7285518431145 6.54425079605325
-88.0369137385216 13.0896955448263 -16.7974371025196
-239.417791604879 -27.6416656392895 9.02768648794931
225.824515607952 -9.70156981610572 24.5056979262934
112.673490521042 -4.81857677169281 0.318496332998845
32.3323093180399 -4.48776984543417 2.20566348484413
-116.923535617858 10.7816341744262 -16.1081601329165
14.8256632000777 -3.35305922184453 -23.2118085579983
-225.546705313104 36.2383649391263 9.15423763506373
-254.753338556574 -44.2144555894965 -8.46226627305623
207.62866410518 6.12706862602493 -26.5021754383491
-206.500454646624 31.6482823637697 19.9057511596149
-151.905897408623 16.2871195635628 -7.19399311939451
194.472495039231 -21.6307232711647 8.92096722314039
207.867211246348 5.52183255558773 12.6851662354977
137.291458441005 9.50766210289024 -20.8054687009066
65.1326951029511 -11.0624869016135 -8.37127060087569
-222.972941529651 15.6730151148217 -14.5214075535177
-238.818928302982 -35.9997396811888 -16.3621712756087
38.2621267929598 11.7699031635937 -6.96710572535262
215.159068874507 40.2461955450968 14.8242899537071
-156.829681070556 -7.49584167914348 6.9864162767219
171.438635897179 21.1090098154734 -0.357657875693418
61.0288033403004 -5.13989908731122 -22.4683156822897
-229.674469234736 34.1853097147303 18.9151779792386
-16.8240671777082 8.69976137969479 -2.71509674285426
196.248386480379 4.86874700234922 7.19727147451893
-245.244565179048 -15.9953328873595 17.5676590754583
225.296357058162 -1.12827802710836 12.7425581753243
-28.889885508628 -7.3013767905854 -6.26751942808345
48.6067973974994 3.52394390309992 -23.9489866294706
163.68816533313 5.04617412642432 -23.1668327949283
-195.209654242843 -21.5550530069189 8.95966622193988
-256.71306564992 -27.3580625469518 17.7961561855626
228.821289308796 7.77130463184185 -24.4966927885188
-253.858962128418 2.59527514854448 -2.80715312732088
217.963091829721 -26.4264364563927 35.0168227084484
88.0733722975735 -1.3816985407485 -23.6155338609078
113.601485443287 11.6892534358558 -0.210362682917614
221.245417853729 -16.2267864917148 36.3431502982072
204.28585969664 -25.1772804954199 14.8881230777092
217.577140792839 -18.4226313930942 -18.9500829834853
245.391902481985 -32.5630350143772 23.2342577527759
152.756370697347 -14.6773216662357 -12.8529488136187
-258.120328307243 -7.45931918847965 -26.9309848779954
203.01861760273 34.2974996337585 5.52524291608145
194.209394976538 21.9331738353941 10.7060184214678
-86.6003392122364 1.51688782448547 8.4213186076179
25.355047564739 7.18301237307514 -2.36711946225896
-41.266049235451 14.6853319576235 -9.60534020551784
176.571612479974 -7.67733733907842 3.9445843323268
162.766493104471 -13.271758240551 0.283261914873578
224.136781320106 -34.4826014990291 -0.534103488532339
-266.967535122785 -33.1208006168529 9.76190051999895
-16.4769480732394 4.28876560223669 2.06051720328658
-103.023670657277 2.2154664558563 -18.9305666900868
60.5255915031454 13.8838547186769 -16.0844614672668
-225.994301045347 11.8337648896294 28.5470654694352
-235.832045947321 -24.0661075709094 7.03645138998588
44.5078684222053 -5.46163339431573 -0.930605138164075
-268.614212930392 -9.6970907041724 12.050750193187
211.749508181306 -23.9104093781586 -9.29630909202111
-235.960758925136 -30.7199081155629 -17.2346497344218
-234.214880934897 5.2324609188849 9.00426390934268
195.73659326122 -15.3317216137859 9.45876203153723
-167.340667447879 8.36900756388701 -11.3289044540425
55.7210663814506 -12.6799189374662 -16.3821425978449
-253.512344919934 -43.9959741657981 -10.7443483735703
49.1993301322719 -8.20251521377773 -4.92227007598985
244.366504376073 33.771512823449 11.5458146386235
-233.291356643127 -20.2540926115344 -14.2981633213427
215.380981798148 11.5942366554932 20.9094852475643
-244.500617615029 -7.64781403623493 -25.5857391260305
170.206607071504 16.9813356686329 4.9481743679064
233.449701790433 8.87098456889009 16.4215964700764
-243.088431878696 -41.1781138351556 0.651998495076966
210.910879226972 11.5760847355411 -31.1494343427588
59.9825123541301 13.8709981394574 -9.88351325671019
-238.490256688314 -31.8659402179936 -20.9610455302473
-40.3796976042441 10.8748369430432 -20.258960180346
240.854139355622 -11.0220838463187 29.9381144361585
-117.725820328821 13.0126674506361 -14.3152407949402
72.4062257975107 13.8870297648193 -8.80309533049665
224.84501879669 -10.7856471949676 -21.6916552264958
-226.136624880355 -7.10912759416133 -13.1584284023511
235.099633473669 -8.59001260475296 18.5029710562049
-17.9960169957605 0.870828067653778 5.15295439579101
-60.8245364926404 4.34667100953218 -22.114819126168
-240.051517944369 -14.7752357001912 -25.5348745182126
-199.907573622045 10.8557582398421 23.4080470038153
-183.443429162227 0.819531747517337 18.9536029870172
-230.329127751426 13.0793761323769 19.8795600474135
-85.4036080383395 -7.13045310541641 -3.86848811433103
186.718596479256 20.4758758301821 7.14877877276971
-268.402801439149 -18.4278499835614 -24.9632660918613
100.068261812371 -3.95106744399715 -22.5194514019557
-36.0775573094303 -6.54324695568734 -4.67742582316263
225.377538794069 -7.96914141273619 31.618058972223
245.837452894411 -31.0273302302614 13.2676893697887
-100.110789632438 -5.59747447186823 -13.2573009705373
-240.577803077556 -12.8436393948471 13.9843947493625
228.990633670926 -22.4779519668815 -14.1919841667106
209.97440427318 -2.60531528508925 -20.7576408636764
-262.903221038688 -33.9025006767653 -22.9013750612976
-30.3489696014501 9.38335277388704 -2.70071624326199
-106.033075895024 16.0427040995878 -3.17459759687196
-254.64521183862 -33.6961054139231 -26.0521590154199
247.113155388347 -9.83335850887415 13.2785073028769
200.87445691831 4.37796001456423 8.3591802799154
-4.40593590260246 -8.69291884853912 -9.50066714520604
-209.245589181453 32.0494384351648 -3.39056896308318
-261.201651858221 -6.58127713539354 -25.5854419178364
180.195739093427 -14.9568022238015 4.42637184130673
206.397608184579 17.6128660948242 -25.5237363650396
-4.79119956051156 3.47226496675364 2.07591962966733
104.686432162915 -9.71237184297004 -2.85229245194253
44.3680669677307 -6.66811708793117 -2.75021208707528
155.565845691435 12.4443776739648 -18.4154173861911
-253.986531403271 -1.70680802266151 5.48390357257425
-25.3413211945808 3.41268555499654 -23.4443070680971
-14.1407634275445 -6.37711665373855 -4.50950748604477
-230.527317355751 9.16273600090574 9.45818984025709
-211.048156782138 38.5874434994166 8.50796541647369
21.2712952062799 5.02205176324011 -0.311127280207826
217.584138186407 -26.2593654479404 -9.13159266477899
-143.627533986195 -5.18686368898342 7.39792559142324
-249.979433365491 -38.6356712061193 -21.1819124508521
225.389349598893 -17.4599048271087 -21.9567941256234
-268.259148006829 -31.075219992198 -19.1294639499118
202.042832160782 -1.22316109533036 8.57477204104818
-166.8709030019 -8.76858361754064 12.8587080110539
242.80901604448 13.5375843683408 -0.95378738118325
-43.7353613016245 12.3679255156576 -5.54152688319184
-162.463282763201 17.8828689954883 -2.42361242541543
-238.738237837933 2.00680392687454 -19.7463558480592
236.638900691436 -6.93815932723846 28.6141228175519
201.123668404838 19.8033191429787 13.4535132209604
199.230355925421 29.9144919075498 10.0087427378161
213.951636663807 -29.6589630478576 26.7258715615173
-54.7278369264023 10.6337505957378 -1.9572021419798
-115.865985071258 2.88541134015137 -17.6216920961757
-235.77679580926 -20.7454060579185 10.589717414072
160.80432094133 -11.7352818264617 0.690479780397223
-204.156150554677 0.984427845589464 22.8720404178046
-113.490138256686 3.88853662049867 -18.0196680409878
211.756208420017 -35.3888542070837 10.1697539339855
194.346236811355 20.7419898748283 -11.4844154125714
214.896757888716 -16.3062293777655 30.2481759937696
-222.738557214012 23.8099603368199 -8.35505382168233
-166.554524573436 11.4730403033533 -10.5713459104861
-250.403620230512 -0.241968363440287 -22.2877483751609
169.795033671238 10.1822262159257 -21.2253712016034
-82.6648557422633 -2.01733356527086 -19.1556655727655
-261.62940217147 -25.2289387851532 17.3432117867204
215.122742546802 -25.8640474528422 -8.55771537581653
-32.8276660663901 -4.96281907350824 -1.04608810374953
97.7239100309192 -13.8173917511576 -9.00462186606744
212.812156054676 -15.5417200539274 -17.910647758002
221.030580682265 -35.5737973418477 29.3717045791583
-118.539500462186 0.0362166256338301 8.75557813414167
-198.836588147743 -6.07389735468265 -7.51468014041429
-250.702007666945 -24.3241848286139 -29.4608176612555
-272.37982821556 -32.8850044517496 0.638952243758643
238.037822655559 -11.3055190794369 -16.5625826280435
-274.197476923935 -22.2508588207171 -17.3214711722145
-202.576735941742 24.4159430111118 -3.78653254968407
-245.12160477213 29.056316728647 18.2177847438224
207.078134638864 16.8049043951969 20.4690021404484
-247.052951668738 -9.11747992600313 14.7074231663241
231.505840226158 38.5438669271653 11.6270853800403
248.836116249834 -16.8551460188152 20.9867633039123
42.9149691815208 -12.5452225035912 -15.7584001075803
-156.520750397889 17.466112265644 8.38481622514822
227.560143937701 -40.1947986301626 9.12274877461518
123.964232916023 11.5483291203664 -18.3765542336673
18.0672185278687 -5.42402573654241 -1.22975290625102
-255.417525549287 -2.11458826510082 6.31773578550408
-184.157645080499 -19.172371696783 19.3735876627718
-248.395984545757 -0.369258345631704 4.43093041736128
238.130944824275 11.0798359357924 15.927316547654
-236.835075668913 -33.4823088209849 -16.7317654559523
-250.999487088277 -31.4357655468697 -27.125113341552
168.909403858531 7.16918726593587 3.9471650747984
223.871269070032 2.98243274807028 13.5944152111939
-214.083989122723 -11.0572164877189 -5.26786137965115
-169.582594416077 -4.59204473887652 15.0572328378588
-265.165364555553 -35.7223654843564 8.62080877691455
-8.04384838964942 -11.3178046568471 -15.2662644375481
70.2968585300371 -9.15200697882496 -5.08977799051185
-135.328043933559 16.2864759750932 -7.05995993367062
200.082632772433 -15.356817993627 11.3398464855486
-223.758465319727 6.29305886800007 22.0575934635524
221.944572300467 10.5387273195627 -29.5417944659665
-80.3089717689708 3.90661232406319 8.6089628471596
73.6686506907388 -3.05769377606645 -23.1953536821448
152.92294936585 0.189010434995544 2.93315060677376
236.545339786524 7.77039552536106 13.4459541088081
140.332286397824 4.37624626105778 -23.3236856246275
81.3669548213531 -9.72546690961169 -19.4227356599321
229.223518471224 -37.4019525114805 20.0410034596609
-229.454414559518 -21.7071971394949 -2.93043571923169
-141.078873323276 -8.42572035285106 1.76304373392396
-64.6424671384598 9.70979286266646 -20.3004848770439
-71.8798515200111 3.63395591581821 -21.6164700230232
-125.310284594593 7.15022636040669 14.3220155205919
162.793089355171 -5.91984725169618 2.88234332587447
-234.239007514557 -1.10116130759376 11.0487392410891
228.129522044268 -25.2208391746771 -11.2856890788333
177.166962250771 -9.84937792100313 -16.7003542251252
-242.639710115516 11.8810119266463 -4.87952418856279
-198.05521961267 -12.1629320841185 18.4046625046431
-189.461136577363 -22.5598877559537 16.0644213587897
223.124762629896 15.5437483916769 28.2423825254854
25.2392401768203 14.2398951709432 -16.0031745654277
232.944904323167 -24.1376042615332 -11.3983574424019
184.214076910064 -5.01931365008301 4.6478693029525
-24.0910279527374 -5.38331450329782 -1.72911490488012
-0.339503251373786 -8.03873641250655 -7.64168059066989
-210.793153634359 -2.5100941992266 -9.43587354802313
239.946237807271 10.6358772096445 10.4959746523258
-240.3737734271 16.0731978097019 31.1627551148907
-241.56796126395 28.2792517446806 -5.94333556627587
-144.150355635633 2.35924498844675 -13.9509434503599
-207.719178137713 36.5301297617582 1.82022542153438
235.280050083376 -12.1739566919632 -18.5771342631944
-242.347579973089 34.3477037770291 3.19829017157487
-275.941366911205 -13.8113123005739 4.6875345107916
-252.585933291715 -4.07411322125376 9.86551937193056
-245.752628527472 14.7599823398531 19.3127284679357
-206.313553121063 35.0131430602527 5.46462322355111
-195.14724123198 25.9283334039953 2.87277224730136
178.362223957967 20.2320386334703 4.97241328791742
-156.334642901927 -0.126411860266884 -10.9496333217866
160.579419914624 -16.8567077026836 -3.33985831777451
-228.023806229507 9.5845667055953 20.1638775719092
-57.4496408728844 -2.76669394131456 4.35625680291541
202.412343200787 -10.0529953158365 10.1378335174421
116.670510722906 -9.49509550281404 -18.6852334246895
202.286864383312 -24.9161985326369 14.0415320273085
-81.6059441751377 -6.68142264899543 -13.512459902878
221.973590505257 -9.97719242502119 23.5021766404151
-105.057719854894 14.0492493536443 2.44438651273108
66.1696558723904 -13.1763205796025 -13.5827356121142
-245.035833828906 -13.2144084111037 16.3521759129008
-168.783098382486 18.0465234962964 11.7956211647798
248.800970314617 -30.6828290757448 21.6913686067695
-189.864086766765 22.6623289922627 -0.924205153293572
-252.322963223843 -44.2982483806481 -7.55308027833767
241.887952352221 -0.977780068858791 -5.80466068656682
230.65005886855 -10.7127804318288 35.8061303999386
-245.935177638277 -39.1924964624347 7.60721145250162
175.124709870582 -6.76352451249611 -18.7840574876575
196.967876547282 29.3362438839186 4.0521085875777
221.813892112127 -40.2735537694409 13.2651249790621
-213.678062932632 3.95318079916017 -10.3734775318896
241.022232089662 -14.6152278974037 -16.2472024627972
110.794042024761 13.8843675328019 -3.25058774720936
-263.649030647637 -4.31161550134795 11.1809367437428
-242.547297593255 -27.7413272967168 14.8229474771349
-206.529611797875 0.110108780916773 22.9871110028618
218.19224983818 -38.6156886607259 7.25613992169848
-232.36352134942 36.5630551210767 0.245514203946087
100.609002814039 -6.59254183935701 -21.1280379806192
229.208221897357 24.5447429837818 -25.4865931357138
-234.862741631514 26.8310053841442 -11.943516521539
239.303857434435 -21.2555486402025 36.829578526446
-147.990468102665 -7.22876440619619 5.80624494009581
-182.15993372731 20.2324447080421 -2.9169541030648
35.8034562723263 -11.5979118014004 -11.8459778677352
-255.406140200382 -14.8783090552823 18.7463803339809
-186.378149924335 9.79491135138582 21.1432716158852
212.938932447575 8.023131680283 -28.8524017923045
-139.109125887889 -3.49817072688073 -9.51001097756135
-224.624373233913 19.2483870255567 29.2583920089659
-240.604565965373 -23.5291090319392 -25.587879298165
207.411620148125 11.7864276951997 -29.5316764089721
-215.763114188365 -7.76749243055095 12.9375222376951
70.5566450738591 14.0874431840847 -9.46076108229342
208.223158471807 -19.4536567297053 -12.823784082049
-231.055667085888 14.5763725553502 -16.2034298327749
214.992037866891 -27.6784244368029 28.9112034864302
-193.490741973407 -10.8699082972337 20.4311813789103
-250.973996450792 -7.4255076833524 14.7740925488619
239.837123206279 -32.3971797139545 6.57830744871388
-207.020891011577 -9.03209909276703 14.6668303520482
-171.567893496138 -3.30542316375587 15.6715219623684
212.72337198327 -24.6062873344341 26.1825349181897
-50.6704922977861 -4.43319218059823 -20.5242773301189
223.303502152603 -9.72910106636111 32.8951742485421
-224.113387552903 -17.7845589454298 5.62652436488013
229.126746670596 -19.1752577028335 38.9049122685833
-195.092401486207 26.1599970377818 6.77778280781737
177.745784288181 22.3933646227299 2.20785962826819
-243.981199912251 22.1566530375202 25.9190369945326
-81.5453467628534 -1.82476624394396 5.0047449217649
-235.575722632173 36.6361295163852 0.976014462424691
-272.650388411521 -7.69641769203592 -16.601629746213
-104.487533603567 -7.72685333507045 -5.65801330338916
56.5066614448611 -5.62303767779014 -22.2469184746277
-242.010205161252 -34.8809290459073 8.54157560032496
-274.187418116897 -28.0821056091507 -9.75263601878543
177.891500271639 15.1505012949422 5.43222993551825
183.677654176445 -7.82798001436987 4.65266706165045
210.343646429577 41.2311295858805 5.0613840578277
42.2222559678379 13.742310300227 -10.3330219002099
-82.5130755184527 2.33754129697102 -20.8550419178878
81.9766168083842 -5.38715325138169 -0.110555182691941
99.2489589274481 -11.625109152983 -5.29073044995659
180.252258929695 -15.9742540143813 -11.4282737215823
-28.3042144228147 -0.633440315001218 -23.2674763506582
-185.000443592162 -22.8939048727123 12.6011499047022
-235.539429144917 -25.874124533456 2.77226200414276
-198.717818745007 -8.80688647885528 -1.12299528597681
14.9386170549109 13.5301054270592 -17.8659055244276
85.1949292438855 14.5035619899818 -10.2308583065285
181.922847209871 -6.76438332437704 4.31394854583109
218.309341134306 3.37974659748209 16.3318281872347
-9.34783915043925 -7.37611937591199 -21.1799467173358
-220.381310640858 1.84727821658297 -11.2487714307832
164.425082601494 11.6198134987378 4.35430370401889
-207.470602263637 18.536026150379 26.361641118861
197.38788339218 15.9868287645645 -20.2861201496855
-160.258236971835 -3.38163484928004 -7.57277580229257
-162.145882186018 7.66723477253187 18.0260255532781
220.567957029495 15.0358064327847 27.4064640606965
-230.009446490375 13.0324685100699 15.4021978768598
-242.771672618701 16.3929720255486 15.8312461989394
221.260436395253 1.59785405858881 15.247549697869
227.442328210155 -8.63297578918651 29.9356884223658
233.285079599508 30.7915431040844 -11.521217536204
249.368902110967 -23.002876925906 25.0127403349972
220.028984867508 -9.21558057080097 22.3115099646819
29.5751723876156 1.67649997965885 4.17069140544533
-205.975711727107 7.16615795055283 -8.80566453152568
-43.4184513816725 14.4282921082166 -8.82086646139325
-112.975189049249 -7.56939500390961 -6.06826911648077
-95.046665368571 -5.47168760532603 -14.1541611096968
-186.71237155306 -7.79617381129708 19.6215795701268
62.6219748090686 -9.55412266049079 -19.751516427577
236.272397436199 -29.8808555665615 -1.03609879332723
86.3751219466604 -10.5044900565838 -5.55430784397495
235.39875919416 36.390591464667 -0.786579685368021
210.74438910039 -5.25279723949831 -20.0486233230489
-243.72243220085 30.5952275301353 15.3636572033609
88.1353979590904 10.9837966700044 -19.6668081663181
-155.530399918996 2.37626558136499 -12.5304742573941
-56.7422765767633 -7.27376328403969 -16.8983781118514
229.104496331439 6.55288211021617 11.1348649572066
168.564628652312 8.3407225473868 -22.2808763535407
241.644481969039 -3.76498811125457 -8.85057785082454
214.538236234058 -31.9665928625848 26.467489596359
214.170277708888 -36.8549641269808 21.8377659208804
-52.1378558629714 -5.47585720560154 -2.89338013856548
64.5029422886179 -3.12140271051608 -23.2760194193046
-188.55456073998 -13.5905170691655 5.8998061161534
158.333734776362 -10.1445686208396 -17.401789212765
-66.5585334915653 15.8081530311655 -13.262451101949
-274.688727176491 -14.7905536909779 7.33739696212384
-234.682302331148 37.0358135204578 4.75485317547947
219.32466366103 -40.1523775311191 11.4566279696482
179.445659336394 22.4540347505249 0.333995675863745
-205.055735467734 -13.5498877616975 11.8168631518263
252.183487426243 -23.2630166153864 13.2216635858264
-225.000860006817 17.0015363417584 -15.7233375452198
-171.615520346665 -10.4595554654178 7.46550230013909
164.653037191488 -9.79458411642163 -17.3789300618099
233.165559060087 23.803663698601 29.4036837304291
237.996333980183 36.4481869303904 -0.768577382837962
-155.882005946656 -6.41880413221427 8.68773232769016
-233.388753044807 37.4042656943939 2.01607421712135
-102.320450294122 14.5669132220163 -14.1094655322584
-174.612443629639 19.66209725422 -0.188940640883518
-276.33498113397 -21.7537057071436 4.31019269927837
-166.171887979642 -5.20872501899827 -4.62893054749633
-115.243979091814 6.20616990516725 -17.8642516463018
-6.37784323646093 -3.65443159784394 3.4104410140072
86.0613483455892 -13.73205007315 -13.7292920319159
200.234800006439 15.7832582062777 11.4735297103137
-266.762551239595 -36.2796005798303 6.246126970709
246.864689926215 -7.94719403222561 1.78452467104487
171.837829372166 20.0565274252571 4.02984828189965
154.655968413886 -11.4195029567015 0.00879810928986935
-61.8664859306421 13.1899372008813 -17.8476491061261
-110.951290300109 -6.16931831333818 0.983462520413417
-18.4180806401744 -3.82427192690285 -22.6816942923731
-168.860649131682 -6.70412334742569 14.5194668887296
114.007380298526 -13.1714909900614 -15.2887560124055
-15.9647765197727 -1.61494783833266 5.69558210616852
-222.005682484505 37.4589863387504 3.22612032999833
-100.883538636717 -7.6723937257749 -4.63004786157392
20.8711550538271 -5.24135586877073 -0.673767363644377
204.996475680306 35.5727619473669 4.75048574658897
-106.581919543653 0.159119091785674 -17.8360101042594
-70.3131518292622 -4.99768927215707 -18.2261874844596
-240.50682781421 28.1972390721077 23.4458911402104
151.958770083775 -13.6319809361965 -1.53887181180827
193.73843043585 25.4501547022077 -2.05601517103185
38.3087413143625 10.5608050982839 -20.5541164764867
223.850382090123 -15.1775744398961 -21.8526896724745
212.682148868651 -36.9192681267371 11.4710304965191
-59.5899176254731 0.778088637735664 7.80069200149126
241.21823272611 -25.0274792787513 -6.03319197661051
-51.3865346747911 -8.05991916424693 -8.33775226986483
209.340433048901 -26.2794193364374 20.1605172638451
177.687281254375 -16.1885793730248 -11.1271514816169
146.567702338561 -0.421573742285102 2.72553622881351
14.5620464354871 11.291681499835 -20.1399350973018
217.306147245527 30.9479749494444 31.481124781154
220.759933371046 -6.54728762291376 -21.8221952182136
-210.485183142532 34.0698282440556 -3.26808257401312
-239.038008817822 -23.7425637452552 12.3530812755727
226.631874039472 12.1314415225718 22.0978436136925
220.579492593492 5.60067417275087 16.0602745572423
-257.373792621878 -34.4269598387963 -25.2646625255307
197.796313511036 27.9874620815644 -0.0292384368939504
-173.296089096889 15.2558405165678 21.343610493053
225.799300547686 -15.4659554008855 -22.3152117175036
113.947428475908 13.5589296154277 -14.8423994602417
-6.22144506457752 -10.166878313085 -18.1958268150451
-252.99147752589 -18.2147237850371 19.2300800090994
-44.606834411139 -3.02595435932092 4.51000457737763
-167.448184599599 15.8403629757496 17.8256337810231
-10.1938764445827 5.08046870316257 0.737797116493503
233.978380592699 14.3583159571742 23.8683683027443
241.952265455564 13.5029126368294 3.81158181241968
-246.328530105456 0.787642184956604 3.83824907818159
-244.35555504844 -30.3085634139089 -25.6387919366694
-201.651131627098 -3.30449171744685 -9.27302090922532
233.128638110911 -34.2644672342882 30.1053688830465
-107.386817543391 -5.20071614077814 -12.7674076429577
-213.424673050365 0.814531236033932 19.1471183082013
202.23828125484 -16.8206420428041 -12.9131848759139
247.700133584518 -31.5782874022879 18.60565104744
192.809300075856 -21.2764136786228 7.6960088350875
-246.345070220449 16.7056417516485 26.7030389004556
193.435760916653 24.2941112287714 9.65553438846858
26.1671125291338 -5.04590008594391 -22.6532118941274
-247.641171210778 -32.1436822317225 14.9659640210009
35.6373235916458 8.19268082080365 -2.92303243346339
164.386566312863 -7.71449465585779 2.84057862861255
215.521674582099 39.9454660812342 19.7736752302717
238.054711835485 41.6656840798465 12.9607954010521
188.068153411751 -17.0872780816849 6.50839311191299
-178.956315883165 -13.1601998287497 7.57611899288833
222.136340771539 27.954418378786 32.6315196358807
-241.652723473238 10.8907452360681 20.4059152946072
214.458800995002 4.56328885975165 16.2788339396759
-266.229994327315 -13.0274871012248 -25.7495154560215
-209.000545051366 2.50343085069988 -9.65199026286965
174.461934227602 9.52157065785713 -21.8856635623885
-233.991744581237 -20.1374377035888 9.20546585231472
-167.721823560978 -4.19271170651478 -6.04961820846614
181.777313142131 -12.9773644153456 -14.1516606739864
36.8350180377348 -6.34394078130191 -2.40873840663617
237.604575574219 30.7460063649296 25.866278779181
239.778815701335 4.97047818304217 4.876651217334
242.741304770163 -32.3290212087897 30.3019953016437
154.491675391922 -2.86355377555585 2.67788248425181
-232.857111698129 7.17594313374725 -16.3508677542511
210.9873480754 -4.90440011989551 14.6023996735719
184.177825187358 4.40318103331308 -23.0089000449318
24.3798818120508 -11.7315271132005 -17.3475268717107
213.493195149854 -14.4579299102745 26.5641023501357
196.682652685697 20.7963880540715 11.6024527959978
243.954519498929 -8.57691158053522 19.1191616409794
159.295311806304 8.16382601837347 3.84125327975759
-254.993688738546 -44.1430196507865 -5.95524165760091
224.87166457025 12.3349978864861 22.3848865560376
-241.854625404471 19.8995443663448 -3.59289548121245
-244.482960947417 -5.54206160844269 10.9570239466498
-205.070817787632 33.5365419154223 4.2800143048198
-187.127311183228 11.6716685086006 21.434869533829
-179.827243324172 14.5645054036258 22.8249716526303
199.943151494074 31.6067766245149 8.00585304925009
215.044522802208 22.2471701598599 -27.1015963313151
205.584443857525 7.92159425448158 -26.8659897477818
-68.285286180806 -5.59588659463204 -2.34813651136425
-170.775483904742 13.4085096596553 21.7372518786287
98.4781878606498 0.789676097112703 3.16200876976788
-164.167778429476 4.78651526354312 -12.1485432470005
105.22163104766 -0.682199443421569 -23.6028560573684
182.669029272025 -4.43944637644564 -19.63801711349
57.603262663574 -6.47782949616255 -2.19841069841427
194.884060108821 2.91053931893986 -22.7733144235897
-218.834708011379 9.78843516844785 -12.3959174369576
-194.554602248132 19.7959048836555 -5.54716886286118
238.315764263743 -35.971162293267 15.2420180596913
244.161422946462 34.9067314549605 10.0552211300852
-232.735468884926 -18.7203612958445 9.25080335189534
1.56405327725034 -10.850604274593 -13.0470932831895
-125.544459971794 14.9814487237611 -11.1185298916506
77.3047699421156 -11.3651406567125 -18.2685011970257
-157.321509652224 -8.37392143398488 4.4604776135256
140.791246238496 14.6255279253718 -14.0684984989788
-195.350367584506 -16.2037560104719 17.4734992749529
-12.2924869961198 14.6718309839031 -13.5331862157322
-268.809534987988 -30.3990014529052 10.3317719789122
-275.912511738814 -8.18569888876385 -0.784469830852137
203.053718536913 26.8813481450764 16.0058080871595
-66.9813144557262 -5.05470037764285 -18.6128925321318
223.48411574636 -40.270124241386 12.3185203142958
203.802556584744 31.1170694248008 -0.245674757111443
195.586132296145 4.56590111437043 -23.4396751763862
-155.940420434231 13.2850450427113 15.8408181445735
187.725982889788 -20.970915713791 -0.930543148424539
145.353905958817 13.2788455219225 2.94820792926697
-217.878308508374 -15.0014687104207 7.9305111625613
246.697859948319 -31.7739519287989 24.7904192912416
-17.7204708642803 -6.42412849731865 -4.40380409880157
212.568938599183 18.5865165314211 27.1824349790453
-219.696315008001 36.3471317053285 1.66789976792271
-167.777941532346 16.8442920468689 15.0685376060715
120.247360231158 0.0622382253732596 2.58542130034544
60.0223230935412 6.37022682986313 0.2571612546516
-171.071966284446 17.8887019981405 13.5268735085655
-59.1516870581017 -3.20774828563921 2.27532743848507
-246.203006603239 -37.7267690669017 9.80302193366094
0.924006622456092 -8.9467472342987 -9.43300973071939
-205.23546345881 -9.80296472965806 -2.09543583701525
-126.218407686728 16.395729621939 2.36687204853315
-139.585781426774 -7.18005021940809 -2.95770751449907
212.158843822562 23.9937803313285 28.4471703507088
-166.973697972546 3.39165355772784 -11.7380704438307
247.176727071283 -30.8536656312288 26.2829458504206
189.403013715197 18.4792875288184 -13.3436894813895
38.3707584315999 -8.82738342857049 -6.49421842305353
235.665126504574 35.0458769395043 -3.48331306058943
-219.650525585209 37.6860528938509 4.74503934090886
-99.8858016984461 8.77903405819154 -18.73030097695
225.47954118125 40.7606399357061 15.0118047067021
-121.139000731813 15.8020337487483 -9.52374705313446
-37.7158284728101 -9.22649147486583 -14.2731722180872
-242.814645381646 -0.249784982785584 -21.167366516135
209.857822399918 6.04962594993749 13.8173560426078
-214.913624855438 35.809292720023 15.8827950422498
-109.891488908646 -0.411113423136089 -17.0584644507663
220.930395492603 -30.5702876661781 35.8243219238975
250.983716147671 -27.8563997036863 18.1208138802846
-220.405001620537 17.5784140667673 28.7742966308766
-246.711464688904 -21.1782869892614 -29.0161103680273
213.459205759159 27.0458562354395 -16.8033520124657
220.377683581971 -21.8139459932079 36.4207874814837
-232.169578479248 35.861650060444 13.8096170312125
-185.187267630059 -22.274954532198 8.45299890705266
209.062412300775 18.7502488823482 -27.3469784632124
-247.491325069305 -2.33085606938565 -23.642027178368
138.414057890492 8.09128034989103 4.30062551823003
239.130980506579 -17.2656184395504 35.6721496054423
202.0401209495 -9.35106053086979 -17.5458928796632
-26.2372914549851 14.7468035407301 -12.1413062347349
133.857562782468 -12.1446434044633 -16.0966826808679
-215.901897469497 -14.121574111151 -1.92215248070327
198.024397584505 -10.223588338364 -16.6047609540175
-194.69354559086 7.23906212428269 21.8326737188988
128.930557265947 14.4094593321922 -1.08814514440048
22.3217985817619 -10.5695585315798 -10.4253980894113
-269.391598197788 -6.50298646245517 -19.9506229378409
205.89711640524 27.1287226213681 -8.92103182567496
-244.631355874471 25.8675848606617 7.16161280258259
-82.8174396872187 14.4132352645114 -15.6894077408948
-235.793075647249 10.7515938141993 7.10174312734664
227.8648157286 -27.9357049468229 39.6716824187494
-210.826552533471 38.0640085999063 2.02780572639365
140.020278699332 16.7693687209238 -5.68550268284064
203.615150874671 -26.4075222414101 -0.732517582722069
118.960078475027 -5.73179741082881 -0.0814661944998405
-140.812833191362 -1.46262935922093 9.84053317104778
-92.2910476814763 3.58043928775523 9.69004912407116
209.770564680683 -35.591066036183 15.0135565311947
240.385471044915 5.51698437113246 -7.42756741851675
-62.0660880905291 -7.25128226876672 -5.99566131745353
217.607841754984 -40.1221513548204 13.077713860323
197.861084507722 -20.4613820041262 12.0892039340053
194.584587430935 12.3990779142351 8.29984518980502
210.691661354242 26.5958611018004 27.6934240340351
75.7034764499091 -12.9460681636805 -16.5144559284397
-266.768616705871 -33.7582830268056 -17.8450001855129
-204.104443983809 -3.14309510776733 -9.65870652013264
-90.4711948264158 15.7803731194385 -4.17517050115079
133.086580244894 9.05895571865205 -21.0593165053894
239.053885505533 -7.06418609770969 14.4054059700328
112.297198579054 15.2049642889474 -5.92772940731199
-107.50906397752 -1.99483254159919 -16.2458431324453
196.440737275532 13.6912548697691 9.40566631764402
-15.1311656603683 -3.40598938170837 3.82633639436484
-37.6670352425977 -1.62990922322864 6.68884692229755
-265.395192086613 -14.309809757876 15.9568300720218
242.131715465073 11.1564883724956 1.3354230513321
-210.224254339934 -5.17051577735638 -8.96788695988834
-214.726006390553 -1.72418644381276 16.3894937277164
-228.88854203868 29.6157601236324 -6.66677403619216
-156.303508581119 -3.42575515418306 12.0213238080102
187.925032902612 15.7610073636712 -17.232177544892
213.840766808142 -23.8408818456111 29.6069327816614
73.2081386664353 -8.8883631103903 -20.0964163824599
68.2986576890033 -13.0503385790888 -12.5623479986153
31.3256509442178 -8.2731871059526 -5.85379982736973
-178.442711168944 -14.3934834554809 17.5423462293488
-163.881294153127 -8.57372537565617 9.54588680156105
213.880664988153 0.636704854650623 16.2254501553591
-238.695785715566 -18.8405166909092 13.7184108369009
198.120995442837 -12.4684725836713 9.33357380664339
176.598846872005 -18.2458984060035 -0.486405873339162
94.3245316474442 4.86061902351301 3.58933922508325
-193.46938743952 -22.5413712745326 8.81566799940935
-243.191746233954 -30.5383610208122 14.1283419759899
-185.768966075107 -11.3185701489483 20.3167902060502
-229.729149269932 -20.4624900124037 4.03201026874356
-238.946248720674 30.6693265876977 21.2069867650567
-245.324016443676 29.9996746879371 6.58687263192081
-200.803809946659 -5.71519703520666 20.6944519107124
175.332875570972 -15.2256681979657 2.2728450496279
-214.501443705122 37.289166303767 0.687762897297889
241.037137788902 39.6886069687666 16.9944799543546
-74.3706731667057 -0.380257587765476 -20.8276273870876
-69.8992155903345 -1.8644393052733 5.55124202343848
-185.144782952856 -22.8978204598282 10.420148394205
-153.127238186571 15.0506498018128 12.4331276270441
215.689311321705 -11.0518100523979 28.0883164059561
234.695869894062 18.9381353317908 -25.3364877919989
-3.75731267953615 12.8976879818717 -18.9506817068506
238.080742480103 -31.1737409087316 2.65350902821581
-216.784627615247 26.9062952124621 -6.09561718999283
37.8890308994054 -12.3398596479139 -14.8599277884619
-240.726380095121 -36.8904367211522 1.05671437900049
-255.349756122829 3.30932783035043 -17.1557959815261
27.006278746392 -3.54950384022697 5.29622892985674
-224.65257229528 -12.786768842543 9.85141567811342
203.384361954743 -6.63895382577877 10.3573226916308
50.5033090435964 -7.84687066534371 -21.1538206683149
214.105871787325 3.97094127582511 -25.9327015633999
-249.224092508447 -27.8453447400338 17.321916386586
-114.797667105499 0.517620744525462 -16.9862028841021
9.72259867894939 1.18388361768475 -24.0806294712094
