174.294555656396 20.1275211352389 -15.4880334724552
1.88882358548282 16.6345623436177 -18.5798800945707
-106.007852360278 7.25833755266363 13.4389955789773
29.9193450444081 11.7948836695098 -2.24044400340085
-163.742097863099 -9.06140728161436 14.6086391228759
189.931843961469 -39.6414576372431 17.9961070334755
55.0854038481095 -0.59847314013393 3.13608287595112
-209.389525021905 -37.6677276898819 -5.77755410840269
-156.665408576863 2.99738467524816 23.6675263969607
-65.4990290710898 6.66935306595588 -19.493698112596
-133.390668151443 20.9332785972953 8.58269130253647
103.367776234694 -6.92428163920221 -3.00142190035283
-36.8696482386322 -0.0237429283385804 0.423730063553794
186.589879214589 22.0968462000683 -21.0641867531404
113.100170638716 -6.49970349565619 -1.07033706782211
-159.215592079599 -6.0127904522187 23.0673138266539
147.085330889172 -3.51799151414973 -19.4804682323285
166.050308593734 -21.8539350488333 -5.1179036084011
97.6438102000673 15.2686474070914 -12.2065837147465
133.71419805154 9.14693780611301 8.30956372716522
177.137499701564 28.7864436384825 11.1562909062103
23.5799806496441 -4.41898797843807 -19.6964750245204
199.120719307003 1.87450694938829 -9.20678866565704
-178.556476568381 31.7254042321734 4.38532439729025
159.949734010925 -9.62431092428932 -17.2786305777559
170.387750906543 22.9829603872057 0.638973031542385
196.277142950446 -31.4801163254282 30.8029711330286
172.15129318528 7.37106714017585 -17.418656987351
-184.465161004208 7.18909323536028 12.3305152250424
198.740853865558 -16.0972602084052 19.7072058518453
-77.5562005321448 5.22173599521504 9.42031177739011
-124.278652664291 16.8623668730958 -7.6529732597869
82.3973963387937 -4.8976781064705 -1.13904304789797
203.654617276468 -3.12528090448498 2.35310053965804
72.6929723735219 -5.49407133528477 -4.85666255221995
209.529894509952 -25.8059911163532 16.203581428933
195.385230781366 29.2481045187245 9.74161577827329
-97.5787733005598 10.5507611825517 -14.3988211058313
-186.513601230551 -3.69039478158201 -14.3269640146397
-181.201103655842 -31.9526460873031 -17.2518497800251
-23.5517737509754 7.57797806986677 4.45163145553128
-155.286120185172 -17.4595886852834 13.8110003273857
-198.34280673114 -4.97441457543647 -0.30476505642333
-49.211330355393 8.76397490923615 6.44110570385472
-163.650667533415 -4.10791938200642 -8.56701379393852
191.338573066038 11.5027915746942 34.055540212818
171.064869109504 15.9689723141296 -17.2930167602288
179.500717018799 -33.1056202319566 15.8782929644321
131.137071318431 -10.1599433397429 -3.3101203078555
178.510550255142 -17.4699761312106 14.8592119794353
-147.698215752426 -7.2886513043253 -0.994245401221936
-69.4594502921264 1.42682000826098 -17.2616527521639
-114.38667829218 -5.5992195570846 2.23104501762798
91.4027133578085 -9.12496061889906 -10.9209307247942
182.820404708179 -41.6924405132075 11.5390504774631
-148.434467238117 -15.3275088720792 16.7866082561262
-107.184768026309 1.87654279819582 11.0224093818953
-171.43824889438 11.0258420320159 26.9112795846305
98.2481722793268 4.87663922832411 5.64062596364378
-201.142212184783 -24.14815925595 16.215012065016
-204.394059230822 -5.89633233831621 -4.39854625306471
-111.619895980603 -5.28936427349453 2.45422667824306
181.335714209976 0.205936715696297 20.8640138433001
38.7328579988163 7.93970682068901 1.43381776493287
94.3745681908615 14.7854063612732 -13.9468601786258
63.7754056471488 15.4440842021856 -15.1698142407163
-175.458195299641 -25.9464689356184 -0.611252322816048
124.794669990101 3.64274425261445 -21.1116870182213
163.755763139379 19.843950632587 10.5005751158828
-190.070590821543 13.7717773726573 24.5099337416917
204.293877851083 13.5878283677239 19.8772758076223
155.940162049593 1.52578503618005 8.57874539163631
-170.563498063629 14.5098822141591 -10.4186943385789
207.958091901591 -35.7719246256076 17.0004291748308
25.9441987861968 13.7186445147415 -20.3409223603525
-162.342768152687 7.26114553630445 24.9857353915357
-153.82955335667 -0.983098030692482 -8.22647722665612
14.3520649100142 15.3061119093457 -6.2291903727567
194.039004677257 27.6043039295784 -0.630758091845287
-16.4197518198064 -1.26886434373976 -21.136611080621
165.289433068121 19.5619504730603 -8.96393085207018
-89.5881016863929 10.6718509785773 10.9241482580663
-176.859607881907 -33.6787280590074 -4.9194992858885
-47.284251936264 -3.05081190596782 -4.14516648834749
-40.8876833819803 2.62145719098498 -21.3190637454261
-30.2924337532863 18.2789385845298 -8.13600740280275
-133.091194189257 7.68472610313031 17.9371621480405
-173.378484377617 -1.41459586463697 18.5014838463208
50.6313862121895 11.0376822890011 -20.9322323673123
12.5035289114702 11.7333314230514 -2.0952420324939
169.609436539522 18.7273353407404 -13.5011873826686
-31.3768819560032 0.500136605321822 0.876320007250007
54.9207668793617 -2.36247548635576 -0.814351769441596
136.821643069397 -11.8534988053512 -17.2232027827744
29.8654168791293 -1.87066022160603 -1.93291289447117
-176.939057939121 -18.392995864627 -12.9982704317964
206.05187264982 -25.0939945205992 22.5207807645514
201.252323318582 25.3688229560708 -7.71201056083596
-176.48949383806 -29.3021331712558 -8.03917017937282
198.065393263908 -22.7740699783365 30.0070715548637
-29.3436045557126 18.9389562592282 -14.0828969049286
-18.3885743069672 5.06921482428512 5.6470453451346
208.755810383387 -35.6976725393302 12.6953618533443
-191.368722177214 27.0079467367008 4.56037516890649
154.189567446961 -16.7218019844761 -10.5906711313527
183.921448891863 -27.775176308457 -9.33439271048982
-51.1038225106764 -1.3732637082868 -17.6462386040174
-110.587852695465 -1.7679292131514 -5.59436083068116
204.194975054286 9.36893327290054 14.182503661463
-34.8255799184828 15.061568785581 -19.7132750210896
-42.0607470003189 19.324015127223 -10.4571460483516
188.458086036442 27.3776546080071 -2.23271782544932
-197.868780776118 15.213677519088 20.0662481144581
-52.607575358734 10.9569688867487 3.84828339363392
-86.6957721442805 13.3406632534322 -15.3522289037261
-150.961626904984 -1.04021796701375 -7.81608043216478
204.52663291129 -5.75473111137467 3.0777261041423
22.1632415624601 -5.2392334960135 -17.7630593890181
56.011485992793 16.5034041106432 -11.5270045042886
-128.393848080811 -6.46008982631776 1.47062571143266
166.565444140052 6.85756790580181 -17.4261928123915
-42.2185083821463 7.17823371014202 7.14963727198478
185.513438710444 6.24110218030824 31.0031755483239
201.544560754681 -14.2721233855511 13.8052398327988
196.528494366607 26.3360838227682 -7.45874886426289
110.411250425315 -11.7336668945572 -14.8549922615051
-124.094175292578 12.6451837864109 -9.8998537989816
-16.9206072830921 2.89951729627499 -22.5678594667311
74.3782324002762 3.85134006487319 5.02976520785623
-40.2625918832333 10.4634414003755 -21.483012531862
60.4249373399202 2.37021392161268 4.47262380092979
-36.8202846594288 -1.46263827520562 -2.21336087666928
-186.363760042863 -32.6817647592936 15.0119813529189
-128.487313064745 0.429564200156701 -6.53033440535556
176.113324429785 10.9757506093238 -19.0633623463985
204.675465648894 13.4753556493867 -5.00196300247295
-125.692541163402 -3.7173617969024 10.6239700975
208.363553240404 -28.1449185804175 19.3375568687083
-189.112408213068 23.754119185487 20.8880490601752
-199.941890254248 -13.0984408128228 10.1305999096143
-96.6743936413586 18.0199597440749 -10.3962764286378
34.7924152901095 12.1002214077498 -2.52383889595241
-182.255028164986 23.441996487308 -5.86032646381096
147.426189491471 -9.24279475529077 2.09102602111186
-181.010762129718 19.9723037136938 -9.72111365517732
111.0289836968 0.00609999413881692 -21.986726856979
-185.644616078394 -15.0984565222168 -21.2937995167732
77.9243725316628 2.35577760898339 4.72802600690656
-155.758678454572 24.2891108642653 -2.34128349640536
177.838466738895 22.4879769717011 -14.6801117574136
-146.073996620083 -10.2916353705182 7.68527621396775
-145.184023150006 -13.6678229192872 15.3480530433077
53.1545523899388 2.8970537638927 4.58086480543133
65.7620218433387 12.3354117551839 -19.2509160101195
119.44354465442 -1.64681317991009 -21.5792783652784
126.969666486165 12.2608618677777 5.05419655000132
-66.9749358648635 5.59491352030348 8.25751521221497
79.458851673135 8.30809819341849 2.34444841686576
122.543274248692 -11.821586149874 -8.35817079202437
-32.5673958119266 13.1290451165475 -20.971509317913
178.923795864159 3.70283780870983 25.6485185553731
-6.1945093720498 -1.68125967903921 -21.2716794201114
144.820536501386 17.6467436883633 -3.0028445059322
23.0656123350511 -0.84507291147418 0.79325544351516
-48.1663531840738 15.1839423673778 -18.8297423063345
-39.2585352974167 -4.32950945380009 -10.5229580593502
31.6839010798609 10.7114910099318 -1.17119483687538
144.731094966585 -12.8963852462304 -16.2647533288164
-187.012711383125 -34.9279723733487 14.1541790070126
-41.3039652299669 12.9439535556729 -20.5909381857555
181.376498832426 27.7882523800418 1.10043658248788
-204.704055026653 -28.797936735665 -20.2342081249453
6.67083274307415 15.2034240359285 -5.80711621374281
-166.029973952445 -11.7917948960873 -6.62149884442869
153.304187925896 17.3764432451085 4.03892918085423
98.8103869774545 15.0015137516139 -3.8941267478496
-174.325611966839 -19.3328398606802 -8.87840810158212
-70.1276772045828 9.66111573805887 7.71761150459079
201.757914722873 8.08494666212657 21.5737716685684
198.696445077082 27.971536322393 4.03910332309385
165.038349140427 20.9780477255949 1.63260839772892
188.682856168168 -36.3898030054481 29.4563507173973
-167.12935674632 -3.34519224564179 -9.43591054051188
-176.753477813704 32.4099610628573 3.84565776258966
184.570529771628 -41.5395557268972 8.57375600394323
-81.1341346342748 -4.07196540463801 -4.89371351114149
-175.327738823629 18.0803420435075 25.3381970061966
-92.6642842697393 19.5834823240866 -7.15808169171759
205.737387406469 22.4500304246086 6.67716834192454
5.99030666388047 6.58186502687613 -23.0574302570699
176.862173138108 -28.0894684926587 14.2754955221809
127.120300114599 -11.4542147911484 -6.6286354140467
-212.66183220059 -18.0969893685258 3.47253877149543
202.195488350003 -11.1607629301739 -15.6448901379012
185.687916273563 -36.8081150339083 -4.2480827983912
-208.656915975023 -36.3342613477854 -10.538649038129
33.4004304056825 1.0671780431286 -23.2143957539639
-114.476767531782 -5.65148182100796 3.96174963828922
-161.097255439101 -1.92382060110176 -8.81283269465293
-26.374847315015 7.9222152670927 4.30842977867517
190.74986235727 -16.1738290189767 -18.5320675217787
-18.5658542457465 3.16374830629218 5.1704998378596
182.064677287588 -27.7627228984087 -8.75124720118709
101.797920055288 13.8366489784777 -15.4387171633026
185.759883768387 16.8872878165325 34.936480738294
39.441478193271 9.95793149991414 -21.9780324162371
203.080668394096 -19.7141393790914 24.2309391172325
-169.67637759239 -3.53550465417474 21.4820417335461
122.150915427713 9.49181134104544 6.66272853270682
162.013128089304 16.0218410884498 13.0798956544666
199.45185122989 6.64517194921595 24.1866748658747
173.647719604602 -26.1175311587203 -5.68983691984315
-39.0586095795826 4.04939452910627 6.36057240725609
203.281803037099 7.25078604932969 14.0785224045523
-203.792749565342 -17.9065015953426 11.487319630631
140.202175484947 -14.7247583587427 -9.77347768979058
-211.788889778065 -17.2885572219808 4.91624449153506
156.359561817731 -11.613532184046 -16.8233288785362
3.62691601358058 -2.95691448541851 -20.5414789667982
172.496058078492 -22.1216301162302 -9.44413219084308
-45.0298350148871 9.92065160519662 3.91325944932004
203.293203198086 -4.46275870529154 4.94118161887119
146.748761553183 -4.81314019263873 4.48238120344874
-53.354294591907 15.6717742686029 -17.9752320311663
96.497227141395 -6.39830212454014 -3.1879742239303
49.6186744865059 -6.58152607351021 -13.7514422634888
207.420166536244 -12.1794980352903 3.81392545890059
-31.9360802912185 5.23400462547563 -22.26292126126
-146.349028358275 23.2566685274768 3.78533559498648
139.667653037807 -13.6702481638138 -6.239093060162
-76.7150468788562 3.91398525511551 -17.3874874151242
-95.844518897846 16.5443734792436 7.70585228736285
188.213188831314 3.29430130151743 27.6393985647709
-135.475612471585 -2.76465118642295 16.0737277222185
-195.680385919998 -41.8076062893285 -11.5758915658676
-214.102001984994 -27.5381215051386 -2.4815267571653
-208.862839591972 -14.7288377391121 7.66121591598654
-154.348796658886 -10.4043667626462 0.739354525737133
30.3103351702422 -0.155628490297928 3.17836639653646
167.483242760336 22.0619598295524 12.8620973419942
-192.572053595588 7.26309765163959 15.6875763323741
-28.5508364794314 8.09857366868907 4.29412884534617
86.2509480609138 -3.14792437106528 1.84776451669221
175.123054223977 26.5948612502017 7.06558338366704
190.990274650919 24.5104592886871 -17.5751096522595
59.0663246722963 7.79518043375427 -22.1532359085174
93.3656448939021 1.1511716071792 4.63903415080775
-120.250811888581 14.0211990773565 -9.87087895411507
206.846532607281 -16.8637338223157 13.4659095559296
202.448373912321 -4.91901162511239 -9.15789808098077
181.124992118796 2.05840310720175 24.9595342974879
56.8128377665454 0.903532047628117 -23.2854142602223
-119.733075103926 -4.97437065844818 7.28839968371937
-199.058130031589 -29.279328424 -23.2199029803889
151.715669380839 16.4152159672942 5.61572720453423
-153.339676469746 10.6866448020689 22.4429091761499
87.3098695220872 -9.23597140813046 -16.1553848925399
185.367317266825 -7.91252432971293 15.5921522470546
98.2330313649333 10.6115351205659 -19.1798245541221
-204.987980425036 -37.7762110991384 -12.9362631867496
-167.363055468563 29.9169445565 14.9848534726177
-164.410476687616 -15.8671061106022 0.397609181636126
39.137976506642 -2.04543709213247 -1.77685771481698
-183.840627941548 -7.80555667734346 10.834456265155
203.198358403754 14.6995878410205 23.5781843616822
-110.447521475511 3.58508204909039 12.3482665371793
44.6871171010283 2.60227730757415 -23.4212721536292
-183.213024882492 4.8804556874676 -12.7700256636943
-124.468683395339 0.871339101210163 -7.18982451182663
170.671299495456 -10.5621214772089 9.25649356919255
204.022612164134 -33.8693222510226 1.00066131412964
-91.5388465244246 11.1751454998705 11.176261036332
30.2946847207747 8.36366278739524 1.14081705192268
-150.711312489609 -13.0498270063324 23.1167211840563
-35.4193215333803 -2.24861265489863 -18.9029423020396
-187.267189275135 17.9974791768463 -9.79133256190328
95.026573976319 -10.1705935296334 -14.0824883759865
180.13357141903 -6.8166824385596 -18.0335083597621
193.884989208506 -10.5950320640871 -19.6384322780443
165.886483589631 2.45501272939891 -17.4024430666445
-185.387561050557 -43.3087177092666 1.94417864619359
-40.7917923995328 4.88838780812771 6.84050287123626
-188.335600832698 -18.7679039260089 -23.2546172984724
-154.510921555076 22.3726186213237 15.7428889917134
192.89806003233 -13.5226667401949 15.5179318794111
-9.13208443620011 3.3979569444913 -22.8165065093474
80.5640531663048 -2.08846419043585 2.7108946456857
113.702372773542 -5.21760078062974 0.798759770447381
-183.79066550827 -16.3502739519425 -20.8493459266033
182.397406420807 9.95563368824591 32.5044333173998
-194.696721889562 23.5725893498132 -1.95982160109568
191.051220113017 -17.786134568503 28.9802949430112
187.795107056838 2.01903719265445 23.8987989480617
-168.218188761557 -1.98770804575913 23.2286378804037
201.161081584495 -10.0230059381287 9.76824482617906
-196.287797949239 -1.53023043789829 -7.87578110568912
-31.0263778600443 10.852597298098 1.21776007540799
-92.9630943494512 12.3957518236848 -14.6939877933866
127.507950708699 8.8385497593723 -19.3641192727096
180.115491623745 16.2228033126434 -20.4855858595515
-118.534841700623 8.81483377479841 -11.3151875139844
-91.6440324732107 -2.22862640137915 -8.2651845910268
177.39604844225 26.2038515994908 0.299684777799437
-96.9436722323817 0.631174491816017 -11.1631076865485
106.754483466685 -11.3272597992244 -15.2647041032288
179.446439024544 -0.713079325817851 18.9198965816451
171.49225577336 25.3058645061862 12.4117961451686
103.484257532261 7.63172059468075 4.94217054851174
54.0365446177698 15.2202500492585 -6.56467312846899
146.937942930622 13.2711434236271 8.97957456447612
6.94478474323966 -5.1844475089537 -15.7244010537608
204.52311645524 -24.4733234535769 24.5689955832881
-162.378332822867 -11.4757436098743 12.9212474284167
-149.520439346078 24.232212722044 4.77091555686414
208.070813875462 -15.3956598279681 -8.2385591250296
-196.504699030774 -30.6680403365005 -23.5550970649698
94.924417350024 -5.28631671800222 -0.914703382137245
184.559356521342 -38.9317203572513 -1.48123216780779
195.942222524376 27.539554947135 0.288344652670596
-55.5077482200226 8.45519240619278 -20.6025393113835
-180.933666865969 30.0897968035758 13.9438259288255
-170.886685649336 14.8836824852191 26.132103193045
204.003613532977 6.35060072149432 2.44689795981718
194.580061895907 30.2992308805588 12.8853938576389
-7.83122212734327 12.231515759997 -21.9753478716697
88.6067990466854 12.3212032284166 -0.134105073663536
58.4940503001386 12.4625390775465 -19.5853298843794
-153.123993545786 2.99847761060133 -8.24681748275439
18.0644708325843 -3.24657865479871 -6.72234470700103
73.0555076642584 -0.413537806317471 3.44226642246865
-148.334183428027 -10.4662397326783 5.92182118433336
3.92189827841868 15.9649508529308 -19.2885578993766
19.8205910474671 -0.631058260999224 1.31408681281637
-58.3179100215637 4.93181589617693 -20.2439452833406
-113.382794705723 12.3499667088519 15.2824608860372
-195.513676140663 -10.4517504596126 7.55983531355199
-108.476467063569 20.133062598557 -1.80374890714507
33.4710023847427 16.862395517769 -15.5742103915401
-138.094231683731 21.6374348956078 2.82989437025501
-201.199578056978 16.247738058875 5.16680817488974
206.401064748959 -37.4436407479097 12.0839241821705
-6.44075887747945 18.592678021503 -13.528126761608
-182.256689006966 -7.80610374173764 -13.928735261812
112.827804125556 14.7302004715087 -13.7456340367835
133.015704734951 13.8016799345558 -15.188854229626
-171.729599074841 12.7305148708898 26.8926139766499
-184.047686522958 12.8262343952381 -13.3344418904953
193.075526431223 13.8715949033866 -18.4526612388071
-105.734154380024 3.76824914868044 11.6878876202528
107.280746417302 14.8018217669222 -13.2907495422158
-169.946188784934 13.1534224413893 26.3771842866911
96.5085927620112 14.4442828285087 -14.6347552354245
-179.768302995708 -35.3233155832351 -14.5260837165053
24.5733466756164 12.8898196478609 -3.3833026162645
84.0333353220285 -9.01475493958882 -14.9108336922216
-195.913166847259 -22.9656224305231 17.5059915914168
177.16531570549 -15.712175045257 12.3823010914014
-135.770792656212 15.6552424198639 19.3541992629353
148.998957228644 -0.902770092397377 -19.4899839548287
124.768507460783 16.2746928192748 -9.71545089979617
167.050678270918 18.6292929132998 15.4671392610756
6.26336067506324 17.9061324205306 -11.1664275819829
176.335061290582 6.17700990208264 -17.5754574531548
-106.132121128511 11.7093424821616 13.4016376378821
169.280402672515 21.5022277609475 -6.08581182334996
56.0310353476878 8.42461908209282 -21.9842913683658
176.079595191327 -23.6562798700303 -9.69700638103414
-190.461800994852 -38.2234717166537 12.966034351483
-123.703297577646 -2.26284778640024 -4.02243358040887
127.760927906232 -10.3959053623557 -18.5753503845519
182.91598237509 -23.5395584311472 -12.7515541215045
157.942684373375 -18.2717032285989 -7.71680030752475
38.407720024481 12.4487840083206 -20.7882015650936
191.531147713558 25.2036340634319 -13.1106706614938
186.666513004932 -22.7119348355529 -14.1210866888072
101.15305478091 14.0423595150557 -0.858232046413987
-153.311445191804 24.3632674499991 0.0393642508334958
160.653873772726 16.6463641525429 -13.2669623098175
-62.7527705022309 4.0081539803598 -19.5859584855166
181.998539103473 7.33136654035761 30.9671074800012
177.364707963534 13.0543040286947 30.3199384732252
-18.1376189624024 17.0485182206502 -7.16834116631402
-58.704237951854 7.89590624807685 8.37371339776496
-211.236159460323 -33.8329493526552 -8.73019384477032
208.584250191029 -35.4463618235623 15.001781189775
5.06079054246393 9.02033881329918 0.926305706522972
206.358496280706 -20.7602122833883 20.1380515849941
-149.222747223781 21.5647783429933 14.6075004312503
-160.033793527454 -14.78011365765 12.9158474769764
188.642864736054 25.0062400390719 32.5204976115966
64.7769669765442 -4.08165890508828 -21.713025490868
-180.739109209907 22.1222227553956 22.8682585416997
-197.784629322149 17.309257737138 -2.36765233138074
-157.104437531817 16.6391687094905 21.7777203737512
-38.6185628442994 -4.34455304709801 -13.7239547998534
-35.0384084618269 0.546937716543143 -20.9941273540586
-211.400420730083 -25.3445671295943 -13.3934118607093
-84.7830053212426 8.75291155989303 -16.636325662323
98.1827173896119 7.56466052934291 4.50314605803166
186.164969647269 -19.1425665617148 -17.6933371842238
-53.5789261753038 -1.83339475289682 -1.05599003444559
-134.973241981682 -5.68877282685811 0.108934736384866
-120.665205488987 10.8797831259967 -10.7181508742393
185.507036599877 30.9296555854597 9.63812301372135
-58.6496695243549 10.3481823614414 -19.9565523151817
84.6733986519189 12.3966938310629 -18.2647808099161
-172.77118299086 5.46861943154517 27.0620341979338
-139.887798267291 20.8252661399625 -0.919171578155636
-144.790397447906 8.1353908156641 20.625995709661
139.107717330159 17.3230418020331 -6.71304046291931
178.944821555807 -20.4977083060286 -13.8473036745678
-164.304198367405 -6.92978721940008 -7.96296764416499
-107.538139551659 9.80220410331852 14.2942362331702
169.10444855814 -24.4859843994883 -3.02594070263516
24.6034059698816 -4.81835187091757 -10.6554441133302
-9.94250336596932 6.6428230843576 -22.9369891835962
172.191406909872 -23.3919478376834 -7.8947760285787
-166.4082926184 -16.6505239964372 -1.55136829662837
147.877118796814 16.3039781512786 -12.2483855823185
205.388166234121 -37.2563253502658 20.5319272001548
-61.7204743168515 -4.13761461066906 -5.68293709594282
-187.235135349092 -27.6464778559276 -23.6892881145339
107.351217199639 -11.5497351171328 -13.4304228286599
-130.12226726737 2.56025603802777 15.9358886785842
-185.735954421802 14.6222066285011 -12.2566554265945
48.5496318380954 9.4737297839185 -21.8061705974018
-144.550945114152 22.5811284335358 2.4280043819404
96.5104584120989 5.83948361886496 5.16774375083711
-184.829088135977 25.4571609595595 20.3361107807626
-167.554693622902 30.9605848641634 0.662286215291558
-70.0291050539013 -4.01047629354105 -8.35990063196518
-138.51565485891 -2.70293700489475 -5.2906119088779
-178.760706232081 -26.3801441563004 7.86408280328111
-144.704405846413 -9.11062793654439 5.20520860038695
-181.070052800685 18.479866334488 -11.4012230211878
202.206894280776 11.2999683673755 -9.18256890084725
-172.558149564338 19.4126307268879 24.9957987854492
193.71749894221 -14.9334256661017 -19.6940392880244
-178.932971236565 9.46945227042017 -13.4280102058561
204.748480560534 24.0042659087214 -0.874230627856041
-66.9520182156842 16.7695575999372 0.505203356799682
-182.875865023651 -14.763000641739 -19.3813043183812
-132.723603935283 9.25474829834662 -9.09737575512201
-84.1315086765073 18.4795367165224 -11.3086576629298
-207.316549588658 -30.1190997123822 11.135550288555
-0.337004323498225 14.8681009575426 -5.23616972221673
-111.843661109056 13.0721072107925 14.368918400743
-185.92253301255 26.5022151197349 18.814192664032
171.035787682486 12.7413840736132 18.2860812473846
-117.180475315938 6.37840740632261 -11.2936242669329
178.544769983283 -31.3038921641484 -4.64307301587309
203.017994923333 26.0565641142442 -0.476581591626903
203.983349028577 6.99206797602295 -0.723895428728081
180.202187617419 -1.34285418316797 -17.2002893140271
-207.209298226916 -36.8971994620839 -11.747497438911
182.828356138736 -16.5425484062759 25.1968680608768
-159.691806723067 24.2492232249245 -5.04130463908582
-132.269221349356 11.3521057717774 19.5815921875313
-117.854584610419 20.0385916803163 5.80823766180057
165.526402432858 14.5850966487545 -16.2700422697787
-161.712558796464 2.06838758864343 -9.77264685275622
170.764854099485 -5.27888037473009 10.055274038567
196.738134880241 4.59977819871951 24.3368320242748
176.462620795327 -3.8816076842764 14.8885305473677
-125.8489242137 -6.66645339506582 2.67505756704817
-181.732849505061 -13.8340024457202 10.49396411165
196.086096840491 -16.3945410978813 20.5709430576797
-45.7756809413618 -4.22452615680339 -12.6720341805923
-54.5114826743437 10.8951282841487 -20.2925477234721
-192.664611786181 17.3814242878191 23.819913962758
117.557329195067 13.7309899172993 -15.3502795089349
150.380599291168 -15.2646601903774 -13.1907939505806
186.256452945468 -4.5914212320754 16.0738753764985
5.23683484850171 2.16644409741439 5.28791413518389
-99.5712415682303 4.83742961989273 11.3833739279521
203.738096316958 19.2646956725446 -8.9375759401363
-170.277639766716 33.5402888343735 4.41064119325799
201.685421161499 3.26218463537856 -4.98430879026727
-145.201242205667 -4.65930381192377 -4.75720637785841
65.6107825341214 14.9128763726482 -6.27499631648404
178.400459630303 3.30427263389221 -17.2943653324897
198.528539734889 -14.8234831013759 -19.103176469542
-188.125129563102 -44.1944133597452 2.48954859681246
185.73542204055 26.959256186154 -4.50916909868628
-130.576254724732 20.6973394602879 7.83830575203038
179.548976025731 -15.429983807742 15.0596477158389
-206.690915459244 -10.928274451252 -15.1795276689628
186.062484004442 29.6836311130553 20.1284158137565
-97.173804405816 12.9945777520874 10.6715213211021
175.850080460079 -31.8261929356986 11.2883040119455
-169.397409337426 31.1551370697089 0.834030449503118
-152.379811033987 6.51042269317736 22.6572074658649
178.365275931216 -15.9297167567505 -16.3906786327992
-60.0034432489413 9.09471489713401 6.78543839328125
-128.697305868478 20.7930808336295 5.13134894700024
-184.640336991829 -41.326078869909 -13.563231491376
163.934327997243 -16.7048885317571 -12.8565852294213
14.2689290463506 3.98267986418736 -23.1680419759661
167.05870821258 -7.10893617387291 -17.2631896481917
168.313017857848 -23.8648161319804 2.69851106068431
202.551271202693 -6.54851947666958 7.7452717258553
137.748281054571 -2.73159209094853 -20.3707270886589
-156.018366420731 25.3163194593977 -0.432866003016363
-16.4646234718895 17.7003095296706 -8.35299010843869
132.879716290263 16.034813618608 -0.409902386454975
-182.676674695294 -30.4127519635693 14.1197972366235
-191.899227635733 -43.1890806966951 -13.051807617651
24.9077507318388 16.2012198509293 -17.7627313010225
-172.327592744472 -2.29032139993645 19.6260349116529
-206.722639204448 -15.1780487229885 10.7273754163826
179.582847424142 -16.8677449395216 16.0753470338541
200.305797965618 -38.3945365038844 9.41572879034259
-61.958332708536 5.64622530557538 8.34691125837358
155.744582371686 -9.84385082395255 -17.5936240394271
-26.1502259143123 4.4289401113886 5.76140807523393
-56.825051722594 0.508776451397009 -18.7225151733584
151.822688691686 -10.009900674568 -17.7714810249463
173.72389830781 -28.7698563845721 -2.42153721042067
-171.864651717954 32.9361216148065 11.1874624662977
-8.25843445494656 8.59150304030923 -22.7719250589604
-179.454170603348 -24.6093399236187 -17.6255403936927
-134.725151869974 -5.00813943348716 -1.62202544634796
188.816445461738 -0.931387642239496 17.7253787983532
-70.3712008938336 18.9990470441536 -3.00501014310507
129.392836873816 2.97589158187352 6.47383739399748
-177.662524166312 -27.8469078587812 4.43484894967044
-120.460504931481 2.55739926231863 -9.23316915622607
47.4020824816684 -4.19425888959745 -5.74283140177161
190.415605931904 30.5481237349219 8.7307165988386
-189.921522748705 -12.2040946891289 11.9973222202325
194.533535049526 -12.9190128168916 -20.3397148388017
-187.365951519468 -44.4740284289507 -4.41191173075144
183.01317067065 24.2709959470161 27.4857919663034
52.4272024462919 -6.8713691977684 -14.9566117033733
27.958659117299 1.19795167573399 3.85005445523483
-177.708723402949 14.3146382058893 -13.6857219847505
-118.401476658734 -1.30783138424751 10.9173659570829
10.5714536861994 -2.45789541822392 -4.87536405009741
-192.425567385305 1.22759158325545 -10.3149060461271
139.589685102387 2.66113235191173 -20.2974587596576
38.8431984891597 1.60386146358235 -23.3839548432159
198.499562362965 7.06399928433731 -11.4573665234159
-184.460479095785 18.6296005742048 -10.4358861652322
47.3332558678698 -2.66578679820481 -22.156032742021
-166.997390853858 28.4995674829691 -2.04131655663533
4.07170389725317 -0.0751975836069556 -22.2673390640578
161.317945299975 6.57353070163786 -17.9194712848911
-190.485225323456 -43.9688512342304 5.35848349957779
-162.071148264618 24.9301519109312 16.5377202323386
-200.41928873398 -42.1032842387299 -10.4398767555027
198.976637072715 14.5355892429594 29.9782431578017
-125.196776133752 6.65104922546699 15.8158278625182
172.636193946157 18.9212726771768 -15.5835307219928
-91.9988405052686 -3.15612503761949 -6.40884258005261
-153.713217260548 -9.53767238491397 23.7846022367399
179.809667520721 22.4262475724491 -16.4556897587188
203.267126986601 5.10741928679675 8.03600213456312
60.2605931763308 11.8585146581651 -1.589061905137
188.444809518405 31.8535136841315 14.6281407835267
183.836674057662 30.8960949560208 10.8036362148298
207.285315928861 -13.7120536183149 5.77317211761591
-110.052893197858 7.94577574485133 14.3871724119272
-50.2129044282932 2.08285650058553 5.72739824981492
18.0827867177117 7.89248641921565 1.89489906662747
123.147619678424 -4.06086692198724 2.97280861612516
206.081635822389 15.8855343341597 -0.349080096481153
144.930773566294 -5.76185982720506 3.79401495438871
-184.902317116543 -2.58614890231457 10.3645475284476
144.907299522769 -15.391538751308 -10.6418334588522
-154.37319773879 0.480081016226 23.1930600941588
109.816355442958 -6.67076623080145 -1.68713784984036
36.3752101964512 16.4897898246336 -16.2903218347985
-181.962189694535 30.158219848028 3.62123598684738
192.905330413669 26.0041964126913 -10.1999654623927
147.64457153363 11.2901243255327 -17.3583377496945
-118.924940544542 16.9211744461259 12.2777749319962
-71.1329916661197 14.0286435676471 4.92569495533853
187.613386412149 28.9962460480131 3.52002127028162
199.749975074268 13.1691944771771 -13.5474828043302
33.273307562406 13.5250016402646 -20.203448856926
205.832203613712 -9.23882821200478 4.80675742851514
-198.870944206016 -30.740939706631 -22.7615224875497
176.536518439251 4.30744020112551 22.3143073844054
-63.8896667792047 9.34287593930859 7.42864603014486
176.005185714869 24.5525412062962 -3.81065083386944
-210.939348137726 -16.2773780294785 -13.3534129541337
-202.581650444493 13.6445639538699 9.47339794207361
-136.062636995261 11.8310113838526 19.8312412098252
-12.2277175714298 0.187835439520872 0.142021107413618
184.831483828675 -9.69945778495483 15.7603460633506
-6.25968512709445 -4.77534289355295 -12.7331549838734
203.175901466937 5.11220797531287 -1.55077330716207
-153.548497666919 -13.3599118405162 23.1828150003345
-71.8686222812419 -3.26361083649802 -10.2966644327982
179.041602874009 -31.6262938191479 19.4499287144309
150.11449516128 18.2102199038703 -2.32929708013115
145.962808902508 16.8836434914019 1.43396828232184
204.016216392079 -14.463692730713 13.0754069567757
114.172333422953 16.0550708772908 -8.46997733166989
-23.822316262205 -2.73434567545506 -5.31361759857441
-10.2482551266312 -3.55557751751058 -7.68274517465357
202.84340562634 0.147572589411211 -2.24348994091714
173.179777797046 -17.8068985416599 -13.6956011212728
158.711572301104 -2.11687354924184 7.64424555781507
-178.208187311496 -1.2646594969731 12.8073327924494
26.5713289217255 -5.7234865088413 -15.275062420595
74.1691956849304 15.2065095971291 -14.6290458296066
-170.725031033771 -3.03260762706124 -10.4250427457874
75.279978862143 -3.9662272726659 0.208127231251513
33.3716931065184 -5.88389797826183 -16.5731952092962
199.036142135057 -17.2937204552928 25.9738033376781
-43.2812026321349 9.90909004403667 3.71707436557098
-202.291107633286 -32.5822414198099 -20.0883482319675
176.93259861651 -38.528586736877 3.03573183679455
24.2663533456705 14.5296635154962 -5.43761556843751
-160.119010903635 23.33921430317 17.773254143104
-161.256653040067 25.8568406059559 14.5881317467442
-56.5379032473913 -3.8654420866836 -5.23045751868171
203.154980889676 -12.8798795612494 -15.8476183426385
-149.467244325067 19.7884985599371 17.3041805850922
-199.508451697243 -9.4626551648977 4.91652354894811
-45.8257555077861 2.08532676755939 5.36278781108287
-175.203556877689 19.0838461428352 -9.92956870809557
-98.4954287975606 17.3711694685285 -10.9170223173759
88.0868544387778 -1.60955699595614 3.12957428781357
201.289895361934 1.55956713011246 10.5171019777721
-172.012015988531 -9.02629579967487 -10.4885783716801
-154.936843991054 -16.6167059753329 19.7312023403883
38.7773604799865 -2.15022928750703 -22.2061838141034
208.599205104727 -19.7224600064127 -8.05694480747724
-193.227376738024 6.81381181833478 -1.52784859066287
-113.056211097381 14.3101822416475 13.5207018796939
-181.609411229322 16.7730963906006 -12.8527759829637
-119.971143797468 -2.12484346880306 -4.23105200980538
-192.004034991857 8.20288491270938 2.91987339529377
-55.9325898202079 -1.69879095332207 -0.52089512832416
-167.45685602656 -5.63780654935064 17.1885396881821
-175.454590948109 -27.759871760109 -2.74774261693286
-179.394626318501 30.9241872968568 2.43863877298783
188.284713566054 -10.7091017323634 14.5272292205014
182.742354645456 8.81064741972744 -19.0800844537316
-150.147224305013 16.6105755119837 -6.456559385364
183.924203420265 -38.0412133622714 23.0889514085479
-185.952993943748 -25.404284684605 16.5646819561667
66.0132895807237 2.520772116072 -23.2460123239409
-195.27229212521 -34.1332898517117 -22.180666168946
42.4845342983882 16.7847233538479 -10.2497824307505
-183.324095224473 15.1442643736926 25.4091774534075
-193.050296397361 4.71365140313621 0.0310173094600539
-197.73313405979 13.9345673552621 5.52023037105043
-120.422438372203 18.2629615271529 10.6427832542394
-25.7517085101397 2.52147491692826 4.91086507783596
-141.404997067836 -9.52302438518339 14.9907028250386
77.3116053290446 -3.00720388998099 1.82498813187873
-140.756527297139 20.156766160298 13.7446418630553
120.57647957744 3.04662734627185 -21.4085912714193
-191.81374522105 12.6090778551401 24.2612223922082
-193.591992014152 7.79171703657888 13.3218331696104
211.056179719601 -29.5383794134954 6.55161815957363
-171.416414903942 -1.97742544980113 17.2469665031528
-197.68177521253 -14.9917535034312 13.3412152840715
-140.336252731294 14.6719087180074 20.6681547122535
-157.399674262948 18.1783128404202 -6.35898025252327
175.580609491965 -22.1317781987391 12.8600077319811
25.447148457575 15.9563336692785 -7.54657905939871
-191.640248210811 -8.56586019649011 9.29781714669105
-187.287139491344 17.4820735401707 24.304218476146
152.562916591819 8.78729799374165 10.2981702146164
-165.085123542618 18.2720117535446 23.143967088002
-176.767393770639 28.8269940609021 16.7359153116091
-11.220965793364 3.75740326730096 -22.8705517446067
-179.500883333236 1.91086660612681 12.9963663698809
-153.486110709862 25.5560372777406 5.30879136341496
197.46467392891 -20.835538202503 29.7181146629357
41.3244960694421 16.0892518815871 -16.4381718527418
-155.869831898447 19.8156729342108 19.6126528117322
53.2337429605353 -6.29922658874287 -18.4701195157785
186.974335255581 -40.0258381559497 15.2870391225353
171.610529217496 14.4041953100415 -18.2198790217275
103.444773134586 -10.7393521615953 -11.1088813758569
-199.804190432947 14.8479852467051 17.3976203674288
197.235692141005 -37.3407919456675 28.3817267569929
-40.6180674293804 5.02224820879889 -21.6985013620086
32.9419572805779 15.6057709076646 -7.02713393462411
112.245216101798 -2.06241469395761 -21.8624371602807
151.404261844955 -7.95675146152937 3.75840258763489
-135.58654304488 19.6720136044807 12.7460749692252
122.740956844791 11.1004959507066 5.44563696178349
-142.864199622359 -12.2777125580614 16.6365297340783
-126.530483900631 14.7612437933697 16.7449121217739
169.773832093048 -17.5085816199844 -13.1556981827917
-177.022446194157 -2.77682741303679 -11.9533980374455
-19.2951109540631 -3.88526199084867 -8.50953953494992
-27.0128871401353 -0.475032255730017 -1.17396317122876
-196.873930241973 23.9563495218911 1.21253428031091
192.009495954689 6.59529966541551 30.7838033115848
100.018365360873 0.820047334701995 4.80155769427933
-65.0302757925427 -3.59165444229191 -10.8689640090448
70.3068393928028 -5.36001267902989 -20.9157057506633
-191.739911764949 -38.6532296537355 -19.2929762693438
167.981660112594 -3.50860683494622 9.71897622243955
-69.357016951586 2.72734481850076 7.36316584874571
176.939808248219 29.6910990394895 15.9623256243738
46.9911451203267 12.1624460096688 -2.30161843935339
-143.449918261305 -5.50932054092168 20.8124225955572
69.6081822373719 -4.90379669543432 -3.96018755617717
-51.3736966574418 9.11276718706696 5.87691775702881
189.141086554719 31.2713781167831 10.7105360121235
197.215821781994 -36.4922011941255 0.22127881398987
-24.0690936850847 18.9989037437543 -13.2067481837338
175.051114419399 -31.3985685164088 -0.108502342948814
-199.90500148947 -10.544694021812 5.50301389975807
-64.0375440572527 0.107695185017138 -17.2495967302351
-145.321304734662 -5.84215082598928 -3.03178002781797
43.9669578535258 -2.02783269469431 -22.4277571095976
-8.05326148483745 5.89694748114248 5.19339786668479
-184.90005897249 16.9967192376481 24.7264128650729
-187.329358438769 -44.2855548773791 -6.06369942478587
128.537625931895 -7.38412507891773 -19.9980660877048
156.328950640562 -15.2193322896951 -13.9076502067038
179.052483920913 -31.2024164252034 18.0115350401436
-161.705670370673 1.26936509436418 24.2349132561387
90.3333878533352 -2.15554904806266 2.82237406886029
195.155386207028 -33.7596354123004 30.4963074739376
-91.6244392133891 4.2536147695013 -14.8171774580765
-192.184206858347 -43.6045647446949 6.64975414444788
-3.70823126549462 10.9351473262223 -0.806861825041919
-160.203980986175 -14.9592682561464 7.38946803362227
121.0244680389 -7.88444578805144 -20.1096281465479
4.93129458970182 -5.10317654363501 -16.5567553094667
-183.658167072174 26.0943747638259 -2.02872390945045
-202.323455275031 16.065969901002 10.3872010764237
194.131083515583 -40.2166585335234 11.3361815705683
-177.616473947035 -37.4386565861895 -8.53127159880388
173.66468567919 9.70574745863322 22.095908378804
-137.904693695388 -0.453918881082566 18.1619500912771
-198.375667297352 17.5192911187413 0.000108800601704139
-157.955138162325 -14.6837522681651 21.883236173245
94.4012396949161 9.95751663264237 2.84502714033708
151.053601787326 17.115119697688 3.42090723595119
-207.78384389552 -25.7152137106406 11.8912943628893
-80.9343513170262 11.5257458414932 8.4075745537506
-129.690260295917 -5.30748063363024 9.26861426731777
204.798132976437 -29.9164505403187 -4.91169479982411
112.33120715329 16.0095315883596 -6.10453944545365
-116.18326966294 -1.43316807559181 10.343279575078
55.3460939097976 -5.89295094469472 -19.4617033985944
170.582909249596 20.4659455370873 18.20207936272
-158.426330537924 23.7488400886934 16.0032007791703
144.240681571957 5.981850955582 8.45320291052647
-213.514433647307 -30.1356302272848 -5.0807523929566
126.828535435133 12.1137525093785 -17.1026872199692
92.5711790908112 5.08476604155065 5.39966940323533
-176.055800545247 -16.371939120451 7.93405665653898
-182.066873312767 2.83551366779014 -12.587139585261
200.259134805589 26.7161339650016 -4.39194835985472
-184.223355635979 -12.7481206797371 -19.2127836730422
-135.536762659484 16.3508867695247 17.7641337036195
200.213628615308 2.99819002432276 -7.64280825806194
-48.3569602778305 -4.26482663882894 -9.16788454374751
47.1455903308717 -4.99286699031128 -20.2427040176178
153.167474093795 2.68320614855753 -19.0179575315763
-196.310949496508 -12.258088151444 10.600014460238
-128.280686477095 1.64513677976309 -7.72972594801638
172.072732406869 23.5597124509403 19.7020953578336
-82.7236226913831 7.1748920687982 10.8302765629756
-180.434198184306 -41.4217301218338 -3.63932673866131
162.418988109278 -1.93059364187915 8.62965983259456
-207.145229617871 -40.4823965577795 -2.43148520031445
-112.607638610223 4.29265177578097 13.0251655419952
179.638858163598 26.2388645305754 22.0246397268861
211.296760460325 -25.9899831298783 6.24626188663859
-188.407306264552 -7.04131772346 -16.8067274112099
-58.8956312165818 18.0884370660854 -3.23328223433844
-157.754721988515 -1.91965092162223 23.6975387150864
-194.375337802717 25.7582338651666 9.07977376298313
-181.327694904097 -25.8516552238757 13.0600489541768
-181.074976770406 26.226076483732 -2.0710967278488
-33.3080285497272 3.19352580022144 -21.998367627406
165.519219972424 0.0615731781663627 10.1106967610398
-163.569318811865 30.4720193020982 8.67708098790954
-199.949585312595 22.0596923539088 4.37129461694539
82.2396769885385 14.8044735718716 -5.53667558981745
-1.4661204856543 17.8265108359404 -9.96749825901455
-159.345206246276 8.45399361386858 24.1358875443103
-172.887330548347 21.1564809735257 -8.05318586738983
184.993826956573 7.55162207032995 -18.6264440035953
-19.8008999714586 12.4486870508244 -21.8082752256431
-36.7146675631466 17.786898944375 -16.6484673506245
26.185082204587 10.228973602613 -0.658724267483439
28.8396511103791 13.2890539360369 -3.7694732986379
-114.052203096484 -0.208003874947245 10.93962756042
31.2934947493854 12.4760062221265 -20.9530507635999
-142.780909511131 -7.53145551488338 20.1901732184562
-193.680561472515 -4.6746987918799 4.25303278609331
115.34034012407 -7.2453122857339 -1.97212549565316
7.15482482146417 3.42681647702551 5.58057132469103
206.084042165877 19.8547912032124 6.88598352690324
-195.240441035005 -11.9853724180404 8.24292429865016
40.6913797764041 -3.14527498662938 -21.6655195791966
163.585364839589 8.91681845250688 12.5958094862172
22.6587214292746 14.6779521668603 -19.7240355551054
-91.633937585338 13.1793609687192 9.57740480326841
81.4796208305223 10.5779645440421 -19.9564401500963
-60.5864634965757 1.43122196146355 6.05321218073624
111.523221623811 13.7130384536714 -15.414842933997
-129.725941295062 -3.89931072594373 -2.85446050403587
-161.077804661524 26.2246274808161 -3.77160929480183
202.474321284072 -2.31392220419853 5.32991112195762
159.572954451212 -1.36832785048381 -18.2130430173649
162.090773828771 -15.2412370093186 4.4828886189885
10.1656486083989 11.7936060153306 -21.865978516381
194.70451019076 -0.857780685898863 10.1980633181621
205.585809290123 12.5813212563325 1.67160965655264
-146.406555517963 -1.6253658265192 21.4590473866436
163.696317878765 20.208776411943 7.41673537815963
-200.102968744991 6.56118611614555 13.9356480664159
186.626414495959 19.4554554104944 34.9700127369226
202.558753013737 -37.099465029357 9.00001072939424
61.8384599744553 5.60003068826183 -22.8243072122922
-212.397414947172 -14.0683357525268 -3.70181556752552
-175.790923129505 -22.5533773787622 4.2379566971774
185.537148404929 28.1139807929665 21.9817954316479
85.4184658783505 -8.88833658112123 -12.451253409354
24.2268706065659 -3.34298892150497 -6.2920947871031
171.130320906782 -26.4283361055786 -2.34112419663256
116.8281341561 15.1565372075039 -12.7698953913104
-170.390308826717 22.5925337022799 -7.30215591679509
131.842170021593 16.4569894518926 -2.1545218793399
-112.754414786164 -1.55802599273876 -5.63703892323034
193.407811414479 -26.9045188881089 31.7589223985794
-167.921795310631 9.11694708622957 26.4706929552664
-193.061660188473 -42.4993952696139 -7.66777792019821
192.982193020695 -34.2481719702698 30.6992371197723
127.273876537169 -9.62396928293112 -3.32033626164231
-177.291329006808 4.29366279962293 26.5991359139892
178.124563793603 -4.05580986049719 16.3627416708741
-155.725899034331 -15.4686536864767 21.4823835698532
-172.111809261328 10.1171656482166 -11.7488358949436
200.534205671962 24.1915281198578 -10.8574328217389
28.572476002828 -4.74705606340882 -9.80192456620384
-56.130045432053 16.1887555384273 -0.90038980451657
188.374944535116 26.2934744983319 -9.59533523332106
192.099619052533 -29.8312131383345 31.5819474776732
-196.081379027855 24.5684720570363 4.5385854680527
197.851344279815 3.76225547802665 21.6694397872685
-55.7667075514413 19.1141377017761 -12.7147026958764
-75.4739741042773 4.23146165280209 8.55454240265309
-191.493469410594 26.1332493752331 2.96523558493376
-79.2528289802396 -0.687573076533943 -13.2669635498861
-181.365145390175 -39.1100186776629 6.7422061134668
-185.014140930761 27.3152600795266 -1.37301373878674
-197.095048542707 -33.3429975549044 -22.124080365482
-109.015650115865 17.5586177733298 -9.07920972281345
-142.753376139803 4.92545631566301 20.0842980261353
-197.709082296696 -20.4356736224602 -24.221699959531
142.388443394008 12.3622830323424 8.83766617185614
121.714399883092 -10.7240026767749 -6.7760759433827
181.107028175209 -34.8572793554667 -3.87495289151694
211.070622998136 -23.5066632189234 6.84427528511323
92.099496505783 2.34489155011738 -22.6092397916048
-87.8141421009305 4.05828033028853 9.59303417528637
-190.559379140363 -44.3523416045272 -9.2162911095713
-35.5922623379078 -4.38617741275473 -13.8301710232379
142.323825290294 -14.9932931367486 -11.1656104936442
-195.08470507423 12.5248985687554 -4.1329367947525
-172.373054000814 23.1687481928897 -6.94633722663901
203.849778744632 -13.5510965379579 11.8910898170617
57.9685014083291 -1.85325114411608 -22.7180993764107
188.383051174645 29.9832066278736 7.05825648761299
-191.969086124548 -45.1718240293937 1.51697206263064
178.800708221347 -34.6275504692062 -2.08322019474543
-180.652377296014 5.77894384335788 -12.9734447200449
84.4615872862538 -7.94262816501297 -9.48726153522593
200.903394903795 -28.6948870615383 28.7843046951537
34.4845212798535 -3.61212464923013 -5.758816414631
-207.877353270538 -30.2495111732193 -16.6568445811902
203.079326169604 23.1123901937452 -7.61552795158408
183.068131023782 2.474671122055 26.6864903015496
207.595377192197 -12.9319457472389 -7.41054242819392
-167.379569356485 -16.9354769542463 5.62487702867105
-187.777826571585 4.20290531803221 8.02979101679215
-12.8021138154978 8.87123086844565 1.9915456911021
127.332584985143 10.6275291650425 6.89039589705688
-187.838407451617 9.49147332462798 9.96829211876528
-43.0425328018191 3.96638548024821 -21.4499174633026
-11.3560957131015 -4.05581723757874 -18.3785225205218
-174.136096601877 -0.705655656418168 22.7389829700179
-48.1028120754001 17.2108833721896 -3.63920812874123
-88.6588609126396 17.3824571582631 5.11185637925276
-212.266213816566 -14.0019430023779 -6.08891921737837
96.4795629820505 15.4688300415751 -7.13330663120766
-85.9575043080982 15.0701028626812 -14.6361069402387
-193.287803236383 -33.2541459381104 -22.9398277724428
7.44367117975414 12.2383127967422 -21.7445295787365
192.751801316534 -7.4233699618399 10.9752405140827
-78.5860271104632 7.01157398613172 10.5128937252073
197.470229357821 -39.4056257576629 18.8553067944889
-19.2577302099331 10.5608799961991 -22.3571108013608
-11.0180645562432 -2.56807642132154 -5.26907506928192
196.005118992762 -7.82841224121575 10.7176448519404
201.044582411076 12.5890713281472 26.544710535206
185.391503138055 2.63070248412034 -17.7484444296125
5.79541330980039 11.8019446208367 -2.12540567212749
-28.9717148835809 15.1148405421694 -3.5570180990494
-197.305398101673 -38.1925707122586 12.392372899944
-187.166954293297 8.12334030135342 10.0652929730847
-160.763293045208 -14.5961098447872 16.5849828351398
-94.2063285537006 18.847372310609 -9.24780807660951
-28.6358132046537 2.59263385302673 5.10571544542275
-192.781236250389 8.7579407444964 0.601694289830099
30.4802148702244 9.91263829179194 -0.365496313171225
-204.285126559177 -35.9732782013641 -15.6810687599056
-160.673244922021 -2.19681930131474 23.6606834466977
171.658856026685 -25.7492090376492 -4.57145174187242
-131.753033847303 -6.87164287213258 3.05039423522446
-134.16651304992 -2.9554118096063 -4.72482612480793
-158.289742074355 14.2816242411935 -6.97124068195115
-59.8938605691438 -4.29027487391247 -8.29994819083254
