-126.429009366045 4.71874593805866 12.8620015990656
38.6265147230978 13.2037783866081 -7.19091050228657
-87.504240677097 3.09063390001994 8.75690723958988
158.910696835977 -12.9987900974886 7.44626771943934
-52.6846727452787 -2.28682415176223 5.51202897485361
214.110451092052 -28.6038541089978 25.2083873786093
10.3709977229065 4.29474484725808 2.08397386701002
-194.147339754082 16.7002491260332 -12.961830234812
-142.664810668552 -10.5222138667677 0.521157467561151
66.7954522631132 -13.6862266576449 -10.1742751399
-133.108027746495 15.7895087013862 -7.36977947771579
-176.324045014369 14.4221341866083 -8.78363661245119
65.7692102942848 13.3504312014531 -9.23318937700188
-181.727851739732 -9.58454932156724 -10.0229071695957
163.219717385419 12.6707584073608 11.7034330292814
-124.059381077831 -4.25055738296608 8.19934906261735
212.732236274553 -5.08607742785457 13.4193474851465
-194.937565756969 -4.19127219411062 10.3391903846984
15.4625750880597 -12.5545535214686 -9.08346768699542
-178.573423303437 26.1847375973812 -8.15103874327064
177.603708339179 -30.6793964512606 10.5902103987395
-0.975994692241084 11.661535529218 -3.53829030974248
114.628212236172 4.55280892757152 -21.5116948548803
207.336097345723 -8.65118564186657 22.8356957387591
-102.601416738717 8.41928075178584 -13.5225927632721
200.755360915487 27.6055035342214 16.1297921467752
-12.2711658249754 3.29368415298912 -21.8587711353618
175.955063410468 -22.5119542018392 -9.85422301870714
205.314421381083 20.0584968094426 29.8988932497736
206.176931404305 7.01259564373257 17.0330164217644
-221.388622226772 -45.6991844715392 -3.70091166023314
18.2343263139545 7.67106352904357 -20.6476489524001
153.321072761838 -19.3118365677453 -0.950224774228731
-145.909709707904 -5.29867204549109 -8.67014652203908
-197.801322986484 -34.3085791543866 -9.83748983281616
124.598038246696 5.90548539814922 -21.2020107100988
14.4038595615492 -12.6953463323695 -11.9026566598029
-182.786993812727 33.8943503200205 4.33580970199274
193.951351813439 5.25581564351698 16.8510828242037
-195.11293028772 25.5058111474192 -6.37794646756233
212.38775038481 23.146829108742 -1.98995694917725
175.531444085233 -12.0030019876869 -18.5212502565149
83.710551416051 4.63820816429875 -21.8528344895342
36.3915588355114 -9.66167996084501 -17.6053639419003
-161.27224883632 -8.80549821402789 -9.12260760017471
205.691464466319 28.8145069111349 4.37876368396722
-180.074559792578 15.5213310788046 -9.29951790632692
180.25046245682 13.5730464287014 -23.9699501113401
33.9610426594837 8.0307811932758 -20.3314273872553
-125.238679048698 -2.60227457902155 9.79840823349895
-216.232153973137 -47.8031410760006 -2.32556248862618
201.284098511313 27.892381657698 20.1969967305122
-11.8723821199452 -7.13524372264073 -18.4031659387011
-54.6669928673227 -2.8694516045851 4.99861233517629
-183.46339488572 5.16772922945888 19.5780211783565
52.1997897040542 -9.54726171030804 -17.4300676753168
81.6081167386524 -0.48037688440073 5.00412919316549
215.664399063289 -15.8905302490084 -8.74562414538096
-93.6965826559783 8.96064580064423 11.1828040406181
33.2038775953183 -8.73310967799785 -18.3743208971005
199.6096532907 -32.7779731186543 29.2609673477989
-201.59120454456 -8.95041052352999 -13.0280009143624
-209.062799961399 15.9756383125298 19.4311444795621
207.682357366804 -4.72059470855322 -14.7659810381287
-179.30680111802 3.5582192676445 -8.85153109972601
69.1515262555251 11.9265565231321 -15.671812100083
192.006372530655 8.45366239242487 27.847398744781
46.7580688711544 -2.32643074390564 5.38901818352331
-36.4565185548863 -11.2342935925288 -5.64376862231169
209.155818840569 -18.6109349860681 -13.8332538289412
141.459648090185 2.39782568536158 -21.4338744282212
218.349355922387 -25.2152268086251 -0.295273903425074
189.975855331684 27.3716000101109 -6.02301312639393
-84.3345355062457 -3.62468403705384 4.56992035081618
-175.751854358424 4.85113488359255 21.6219562997845
112.513599548471 0.33110103022463 -21.6905305229104
-160.259624789036 18.5770854231538 -5.84247257384561
-107.566384347549 3.93013269996638 -13.4937677454155
43.6070384148934 12.5026002919557 -15.577327380892
183.857804598877 -21.3541538318882 24.4076880055998
-154.471113888464 -11.6362239698262 -1.09647011853346
-160.956904044022 10.6131235733925 -7.96221247404573
-191.165861746616 -4.64833602454825 10.7698423223461
128.008096604845 -5.04029086548606 3.58827033717224
200.117184699825 3.86057186797443 11.7241410447688
-174.187174060378 -13.1615466286102 -7.87555577537411
187.078172672467 -2.07637194525943 -20.7326036557331
112.371664511993 0.188614906296393 4.82707043650329
145.317599384751 -15.484558895251 0.931582730878893
-125.712019785819 19.5128733835566 -1.85199266325668
204.426527690045 -25.8659382197302 32.8368888522298
-214.473811117289 16.4221991689055 10.7493929233932
-231.114238832203 -19.7801767893182 8.48571431688697
192.470272246552 15.3909040221195 31.6149806356651
213.897042534774 -9.96066806906993 -8.47087934207255
-11.8978057067182 -2.16815597256148 5.0321681219376
155.734855174086 1.80180223742915 6.81159963547085
194.402663668582 1.76919397600168 13.2032659587497
206.734668390043 4.73142791542417 11.0624063142686
114.834777731178 9.47112487177251 -18.9744262741662
-210.704101321243 -14.191140181822 -17.1179267892777
198.403577317894 20.8421052343507 -24.5911567693187
-189.271263084047 32.8529538463538 5.32465804553367
-37.7497427065163 15.5479324750224 -12.9153855865895
9.27582504894229 -0.556354320594648 -21.9005924616779
-169.446689005577 -15.0976358362268 8.92138817753049
210.470497631818 -13.7952697573111 29.0155251574083
-176.942749274109 20.271374717035 -8.81008882814205
156.911964217373 -18.8993084338255 2.26704373767674
-213.889007457344 18.478298141199 -3.10289898836797
-104.078562036737 0.908318378588866 -13.8536765880753
180.087389882083 25.5705529868674 18.5654313805466
174.134745377814 -26.1945308367032 -1.37143123009998
-20.4201284094459 -6.01912314597698 1.28967174064066
-127.674218123619 6.19814250574708 -10.4695507004612
181.692162657493 -15.6423442089686 14.9738971213378
-55.440496340331 16.5361334186217 -10.973272136098
135.488034616783 15.8093852946894 1.01433468798818
-160.273341525903 -13.5975943089508 6.90912273293277
18.6928689513716 -10.4783676245641 -4.49503851608903
168.668791364814 9.57063304036671 -21.1629164115371
113.098894513067 12.2518914490339 -14.8937519415525
-105.477843015402 -8.80961450564088 0.688223912684126
171.159888988794 13.3170402144502 14.014821239628
-194.147753541719 19.404656413737 23.747601550731
-142.385166669448 -7.24082490937182 -8.30130584131798
-203.545094012483 -44.7662342422795 -2.05355579188157
-146.851963993627 -10.1781282524871 2.20490146870743
-217.915923472534 -10.9768573676184 5.94472176798988
46.52865362125 -4.94160255655873 -20.4930231261887
171.771208541112 -15.7275948875226 -16.0154561991629
-208.435982761197 -27.2786700037305 -21.0057339709361
-229.789809129306 -12.9320378709607 -1.55202416070751
200.411431908003 28.8682915227423 25.7028423637774
-181.449378361331 -11.7094902204892 -9.34496328093252
-144.42817069312 9.99830344009171 16.5153801257945
195.385314668197 -12.5656842190128 30.6672331001049
53.9642272169179 -4.33265842270953 4.01403320113529
-221.400826158617 -30.4975634185336 17.8721916882269
-228.951640360837 -40.3668230836421 6.23728747268459
-202.245572460077 -27.4027361320361 -18.0515424473189
-78.6666920790797 -2.21173125283286 5.40629341833119
50.1678701474011 -9.01692179781542 -2.16234611972743
207.863471971208 9.50071170434536 -14.5353287116987
190.48237151158 -31.3698296063678 28.0659649424339
-53.8334173968894 16.9401906040167 -6.49687425295205
209.332077816744 -29.7876972722729 26.3966813094558
198.359424827538 4.03806917538899 -20.2245646715492
-191.2411831521 3.46219694140646 -13.319033617806
-194.656089091475 27.0996092627873 -5.10557775168374
137.221685045754 -3.29459166927888 4.59402204199331
-202.073754333967 -5.56619571256799 9.66574855173958
-215.75986047432 -11.361139798107 -14.2957511663548
-186.853830217084 -19.2276671695065 -6.48336245802992
-198.800298161478 -40.5202108442111 1.36038093884493
210.765666822104 0.628309111679095 3.16120865647459
25.9708272331223 -7.22351586297115 -19.1728583742156
123.767534573676 0.62829635561535 -21.6255724703759
169.661096936972 -20.4975931584581 -9.99938544570042
-153.062362020579 -13.1579735748389 8.44952330069242
169.349394265168 18.9306031547165 -10.672095237406
-74.1664749491098 9.94747352758069 6.28560797310291
210.668454484598 8.28913114459474 -4.48201015291481
142.020762150703 15.1511090490847 -11.3391064380036
22.9057977858168 1.84953009725767 5.64967713767637
-214.374275041885 -45.2012548802962 0.208494396335979
-210.602030482036 -47.4914499479996 2.39356525090782
-202.767282063756 -34.5494693825233 -15.943291801351
-201.708709018889 -41.2924266661458 6.58309963702588
203.507571157466 -28.9084563575711 -3.33770578122248
-194.019563932606 -14.0854700521297 9.01378492809114
138.656393816476 1.33989366508856 -21.422064439572
75.5599592541988 -5.24388437556172 -20.3140603446834
219.698631578 -26.6037348512594 10.0341090826913
-161.734662323235 23.6428808967539 12.5266612426636
-211.2711398983 -38.7037729159256 15.9306876426046
196.080821671627 26.4747745367206 -9.68987164076968
184.64182851705 -12.5743618431379 -19.900161219616
-117.997778763177 0.358235595397158 -11.8730686252213
205.49980829417 -6.52253428000937 -17.9372600516464
-172.968847026649 18.2885755162555 -7.86448768807718
44.7406621862012 -5.92741913509506 1.46038593050185
206.946712295572 29.2166633463379 7.5316220059594
-181.365413323809 34.5238141745045 3.07859507567561
-215.541303413296 17.0198239642763 11.7868939017892
-214.47706411181 -43.7039413702171 10.8168931426754
-187.529282823708 29.9024469684802 12.68239477597
-116.69320243865 10.3875095799336 14.4181877235302
77.8357551967541 -4.63559516993592 2.78031935279595
-180.016385562179 21.9181980976061 -9.32603118702625
-102.185349795491 10.0896271532203 12.0229814523221
-196.732757978372 -1.33749488479069 -12.1467986629925
-197.044576465425 -26.3457886136111 -10.173700594162
-200.712118149758 1.31977700420099 8.53002164654161
149.623241495114 2.79988083091472 -21.2175794154398
202.837495472166 -17.6704000501862 33.6810370217562
185.40979535173 -0.99393539525725 -19.5892744150186
185.709916807088 -26.335113581781 22.5958794645377
71.7936266970408 9.03582258409513 -19.4373153415596
215.915621196901 -8.77377315335449 12.9293884229421
-15.1408835536917 -7.34322330672543 0.0502964188274906
-55.874029977837 16.931291962367 -5.87372565612993
168.097734460134 -12.5129279232188 10.063141522013
-110.073187344277 18.5693492970672 -5.584724853444
205.189765960337 28.6599001320309 18.0897398331533
172.527832016909 15.9470286159653 -18.9688711900482
-209.813935204539 15.6142599043944 19.8521005954844
180.146913641605 -32.4544499079281 9.60728100728636
186.290915842346 -1.01679872969296 -20.9562580529311
-107.828795927113 17.2272233647108 5.766710393098
-68.392399533931 17.3285712177704 -4.12794851978912
-208.760670289127 15.5072788956901 21.2076691181768
-85.0709097121114 -5.36943280027797 3.36100291814266
198.041846457766 -3.07963423321503 10.6976531371469
-179.572423170771 -16.6859423264561 6.69010466617308
72.6416507453146 -3.6471893391169 3.61141864089722
186.219253035458 -14.528970665874 23.4648849675058
-161.693997509773 -4.25646513343064 -8.98151816685906
-38.9470202291213 -11.501501732175 -9.3631579037819
16.1083216398756 -2.13424010780429 5.14326066918697
-126.257342181325 -6.91072974149442 5.90221986345929
-203.500029725368 29.6575914278783 -0.604306376357647
-222.803998784841 -27.9978184725239 17.5855083378852
159.960984132599 -15.337898752434 7.43032910433898
-218.064027374037 -43.7139264259897 6.97379112217469
46.9180220141331 13.7771868261107 -10.2787309079514
178.163179673164 29.1771531068065 11.7559883682298
-174.656934181249 29.5008507767668 4.82402885262412
205.44873161124 -32.3397402585114 15.8421071015364
212.382142786961 19.2990811229501 21.7573876884239
-207.606813885934 28.9077606380535 7.16685940737921
53.0054599001598 0.758828686416152 5.70840794435041
163.4435766521 -11.6856511504895 -17.1103501819148
-214.710090783969 -17.0036633841311 16.3991050209681
209.787847752803 -14.690783830158 -17.9567143359482
-145.57973913613 -10.7942762008555 -0.529357489638366
-216.06527278833 18.9090666965962 13.5511871136267
191.570113585638 28.0904434240912 -4.49840364558767
-66.0514103534642 2.73921834209096 -18.9682293324244
173.240559745209 20.1208034129498 -10.9773290484826
196.496610748114 -20.8148613157599 -16.9486814126221
-135.847257811635 14.9958195452878 -7.67887040985863
210.15413485851 -29.8603729972234 25.7050558472346
-192.32800672388 28.508113266443 16.5448737652985
-142.625031949103 -4.23472676402506 14.5084247771395
-21.5888483818273 -4.35159205490865 3.08157359674264
193.793004628869 7.65426713989125 -23.889473684476
151.089339289499 -12.6217995083139 4.52398862286578
-183.21811817074 34.3865517634741 2.16075617929901
-7.44220520088176 9.83231552518125 -1.80917466544575
-205.762961733872 9.10951678594605 3.34807593650926
14.6851975207821 -6.24223091589535 -19.7029989476346
40.4301413345817 7.30824755793044 -20.542447295092
171.27057390649 -22.2955449425193 8.27066795419764
-173.558613579806 -14.8072402956898 -4.13973707005031
-171.840492654473 18.9370455732269 21.1210057740393
-189.584698470935 -6.63060160683905 -10.1947267710561
-228.943037186733 -19.8180280345184 -13.7568258912716
187.345753050375 29.1137443243883 19.5997145426505
209.09668910736 1.50467058020624 3.08804282138091
-199.851372756817 -38.2376007960934 8.08650304200231
-127.266287994458 19.3839894144519 5.84830263887786
180.141392299288 26.61842767611 -0.175767807097381
136.948634747902 8.37590014615838 -20.380725390403
159.510876861001 5.26156004140418 -20.9609237328318
-209.603953658176 -43.5346008876929 11.3183211156617
-30.5347159666419 15.9416232356965 -8.85947057178971
-189.928306985716 12.3414285835274 24.9770431138803
-193.282128527646 25.0065296707572 20.5174390424877
-212.015328136435 -44.4015747158508 10.5796748537487
-54.0365343881117 9.16022069615286 -18.2229506471458
-147.213517398579 -8.96433650182242 15.1620670609709
-113.272931184476 14.910483496349 10.2052741642057
-187.862003015795 27.9791053183398 17.3550959882168
-162.763799660412 -5.83526189053029 20.2369640225554
-198.92440748664 -28.5159708177424 -12.8675675990841
206.87319633386 -7.91869644191898 25.964751392521
161.298696492351 19.613893485788 9.14256548916047
188.901279990093 1.45819699289402 -21.7979202672554
186.940465086128 -12.8961761773928 24.5709362312592
150.195030342842 0.783421424085925 -20.9317336045096
-168.222161015861 25.6270317891544 13.8821308494602
-108.297336993186 7.05992992056605 11.9415854836398
190.715125081872 26.3016304340761 -9.26769177285999
-102.527465636239 -6.50993194070362 3.62758703956324
78.5204661572782 -7.98993987861469 -0.514663634835518
179.858437462806 -17.4959539054045 14.4270766115406
-106.239126087513 9.1155596399994 13.4554754893415
207.925249462559 29.9942927755939 12.5491075464333
30.1950826247501 8.36015360202919 -1.27008089664651
47.8888338169437 -11.4970556428615 -15.4305075881873
74.2017108601394 3.41397250661959 -21.9940750348104
-212.437585241238 -4.50255883445629 1.62427212411091
-75.5091413483652 6.92799397545209 8.72423111474243
-215.963726152511 16.0534693118353 14.3777960342497
-189.292979185226 29.3502601290233 15.3390583904423
-213.59732664623 17.3373071676988 -5.8897465227589
-207.695585571485 13.3829848996407 -11.7913068029648
181.174233165913 -9.51537074374115 12.6812626621691
-201.915213441312 16.8824629754782 -11.9219459541598
187.991242342184 -11.2818757952572 -20.4254416622878
-75.2937781706304 15.3602905319058 0.91493397591325
216.93146350789 -17.4872779566927 22.1799557114899
180.827131779911 22.8858212085944 -11.8759931493699
169.190193797628 -6.76496384233877 -18.8422923969556
181.118745347873 26.1645168630103 18.4534398448803
200.711990332255 13.6137120959932 30.5514821450525
-106.501746863934 10.9581733168242 12.2001221051375
-182.203805841363 31.9288990112878 -2.14563663295376
211.14098646235 -29.6537523520172 27.3462703857878
215.981594986938 -23.7264008278021 23.9689589880235
-185.940894441564 1.74890922906915 -11.3913259852507
144.931605502857 -15.408339962587 -13.2187940975376
201.647060394314 -33.3972933900626 3.45243280778948
201.708355477203 -31.0743735253732 -0.862195926971537
195.103857672572 -9.27401912511817 -23.0251606482115
174.520360498672 18.2682426553605 -16.563637437428
149.843242804964 -9.8378670176745 -17.6519575425354
-172.871080903257 26.2219057377104 -4.67148428406693
90.4932774339566 4.35617394942298 -21.8267746836669
110.742387362242 14.1111047313901 -5.55144316769343
-201.052700134814 14.7367958889611 22.4109164041475
-203.588564430985 14.0590870575652 21.7829371135255
83.3103302302302 6.90834683901573 -20.9503299428313
198.161100790768 31.2658679827213 7.13603723984161
107.050530582654 13.2311362176003 -12.2739785269477
-8.44436641371177 13.0348102960273 -16.5138367192969
205.676267108919 -32.2174046299348 27.1011508546706
152.137474459361 15.1457382052665 8.88507609742722
210.058790409922 3.38563912555063 0.628731838223376
-198.877525503833 -35.4585164067843 -11.6624580447904
-212.304937224726 16.2694678011362 3.69630376164042
-212.324291350833 -9.22404171713446 7.38138752015971
185.955522683197 -28.4385442399091 -5.61229942332013
-190.412888463817 29.6520675370242 -4.37663715460494
78.7723902939977 -14.2720762030804 -10.018555868902
-198.697605919855 22.4292516122885 22.7952963980147
-147.473810093915 -0.0031298580363755 -8.97060116728206
185.193808103313 32.0037911975172 9.66619167416014
-29.4939066179183 15.9853760798481 -10.5983941616497
211.329962897496 -25.0026145452125 29.2973666660949
-200.327943195635 -37.7704252053966 -11.5964259972254
-206.429533067366 27.2282331921042 -6.00053913642321
152.177706663135 -10.3572496747313 -17.4139692829808
179.074932450856 -21.4016416967029 -13.0809956569684
132.219316256781 14.5157260265252 3.78214276595293
123.396498850625 9.15817792851624 -19.4795552545559
-180.944738692813 -15.712903271131 -6.81066257257037
143.61607964233 -17.9246011253851 -6.86233924271098
212.335707741481 -9.32301030906679 21.7387579233002
176.366577341276 -28.0127246356902 3.84544380405453
56.0899816792989 -10.3303417242314 -16.8074563261234
-112.131971115415 -8.11805806678876 -8.80920800022549
165.762542283148 -0.908596146614943 -19.6690925685842
38.3252475480528 13.919945441037 -10.9835303060384
184.057305535266 22.8059085068632 -16.6008098732864
-192.933697399262 33.7454593799717 -1.69633493996279
97.8366395304817 10.2357855446297 -17.8907245664024
-178.896799489916 11.3100210717757 -9.3008176956973
-168.839699401253 26.6675127138051 3.60399581980593
-183.11558810043 28.6920671320677 15.4048595857825
-150.710707591429 18.4158800324521 17.4503363144619
-203.235131816406 28.0670784190782 17.191824595373
193.681941325266 1.0445079843988 -21.0944987124094
-192.758501463168 -1.82300275595882 -11.6830993750987
65.4244716372833 -4.56214416327341 -20.7408242260227
103.876869524926 11.8018255610109 -15.3921765142096
-118.619161971424 16.831146992036 9.30241873760982
192.867605513813 32.8679736576968 7.98439004093368
-206.171557798323 13.5402994105539 7.59952880479775
-230.783656049774 -21.4399218037806 -12.0993162735598
-26.6097531597163 11.1154971673332 -1.70392664533391
209.477738362141 2.83386250693234 -3.53570849804133
-119.337795063065 19.501095210087 -0.202127707026455
-176.000415162909 -10.5054623496308 10.8766485312022
-114.866337362796 -7.82509588483252 3.11340974763303
157.290699829317 4.39591608240528 7.68847541564381
215.679965893558 -20.6142485239633 -8.92293210786709
-157.578728796835 -16.4037698309419 16.0489764455333
-211.477748162921 -0.0928852921118984 -1.94514865214563
91.5413222729529 7.91366265351485 -20.2890231402779
-208.470141782604 20.0631801172799 20.6791953132879
187.906728242671 17.5120572856789 -26.6910455499516
187.952930481551 25.3467628070026 27.0307301856605
-182.894612940682 30.4789386066899 10.4397729708833
202.897286059908 -24.5944390821455 -10.6225514920122
166.302882382642 -22.9637222844852 -2.64208724218022
178.735440053046 -28.5462786163888 13.0204756050462
-49.0052700838742 8.60415869495129 2.20423166181591
-191.831795321655 -24.8618072150637 -4.74749823664428
197.255718414428 32.3695797859686 11.1310736117739
-220.022769324436 -22.0390628520088 17.8912109419566
-117.453785533746 4.1510364359076 -12.058341874517
-31.7299946141042 -11.4685844716407 -9.84565443230147
-40.4395158674783 5.82267356144835 3.39046743289027
-227.728380175436 -43.2126077557278 -1.00539125384967
-9.36557115758906 -1.39892229952623 5.53360393477408
-6.92752136220756 11.4409509049464 -3.16756521432842
-207.410837546792 14.2926592321778 9.17441131613459
162.89933959079 -21.721252153475 0.787469753009613
183.564371859021 26.3645107564334 -4.41911060770338
55.8825221240825 -0.11273808287413 -21.9895688444896
-228.355318490984 -39.7435319566655 -9.28506557534741
123.963995085285 6.6354629225074 7.18022898171843
183.45113152758 32.0131730658713 10.4872107268736
-216.928444230809 -13.2243417636623 12.096585849753
165.391781037077 -16.236569194167 9.37153581190724
42.8474873267099 -4.78214141666327 3.59034746072611
159.92843477051 -18.8329764124567 -9.6596427887165
161.996853679588 3.36754676896171 -20.7183357231573
-103.310536683796 18.801202739495 -5.12868043502299
144.428377132448 -4.3445100941851 -19.9065214669024
-212.349706528747 16.2616398782876 1.10135949954068
78.5027991641919 13.3299674875758 -10.3519021951337
-177.926915287735 -17.3053300024508 5.57240871169054
-67.7563261065652 10.5830834400586 4.37124727275816
-83.5595256579038 -7.71793556712941 1.35295349634153
-26.3463365201227 0.677463076343142 5.82154180975723
179.980289147691 -12.5053140694101 12.7447523004382
-150.364916371262 21.090539501008 11.7790410393091
191.28975863034 8.33218822889342 25.5626250670288
73.0827360319779 4.17484677664288 6.34080889016868
-24.6380028452654 0.964391168039556 5.78729877360396
26.2161347764325 13.1135682916507 -15.4503154976417
11.637445421283 7.57515244969153 -20.8221357318372
64.9350690397631 -10.1464211425483 -16.9971621590539
182.984023694551 -17.8751526776087 17.4240750015678
103.992530491388 -6.45805078882401 1.54780588190733
56.6163756472175 3.8288878028704 4.87752148630706
-221.143956101162 -13.8113762723422 12.1800618070534
-184.516287971416 33.7099297137078 0.685181877858659
-186.975747836968 4.01984254842607 15.6252973561003
42.0644640829079 1.77175027477834 -21.9155902874626
178.457659429201 23.6526275337503 17.9392855878707
-95.1356791742252 -4.71782454302253 4.4936207925537
-76.5707871470339 3.32818492877293 8.2351214812135
-59.9213153839592 -5.50223841237681 2.52685068019974
203.670910017956 -32.4094186593423 27.7591998099577
204.029594088553 23.1105228821523 30.6128668897027
-213.301893602495 -27.5316580461215 -21.7276249981966
177.176359441438 18.9941989041505 18.5410079561256
-120.40884163723 6.31265485051945 12.8646778117498
166.706343536611 -17.4547815206233 9.31579402352324
119.24467318023 -8.37643307023537 -18.5019480836918
78.6062955660199 11.675127443941 -2.61044893199096
-194.594449742312 -0.928588783958991 -12.0655091408095
-169.705556005147 25.5361836132875 -1.49146223183218
-222.867348911266 -10.6885392820634 -7.67283523852283
-207.093218692391 25.7826101901525 -6.60466713187932
-115.084617288021 -5.26410911410337 -10.3877000914078
190.96824608678 6.14670888552183 18.8272929523736
-99.9709180838867 18.0103373659291 1.86773818157109
172.598937513584 -21.1509201894615 -10.2213807350816
-213.858514308865 -32.9287797994097 -20.9716239671224
205.577933597507 30.6962327029417 22.583367355487
136.82134489067 5.78842791894616 -21.2543028498212
-15.1467581561705 -7.54811933741129 -18.0850141462351
136.275123239358 2.95512095184602 -21.5619075268143
-90.0765297717501 0.0578878355996345 -15.6595945899746
139.361237787407 15.2456029369153 -10.0911870884565
185.058338069121 18.0599308515308 -24.0551181960021
-214.136885576325 17.354917168565 3.00486575921773
-201.879461997122 -30.0633801229963 15.1680225275201
195.449119447972 -11.9844613173603 22.3008723525083
175.106368287704 -20.9361203676172 -11.6369613082134
74.476678957356 13.2046195481395 -7.96341570479972
-197.797794269674 30.6672926520231 -3.30950430169906
190.638118670313 20.1978433773542 -24.5656898242118
-126.731873660561 -4.60583321105518 -9.5580940178013
-19.3084707653737 -4.26721078590994 3.24119034429523
204.326685493221 -7.90460675034374 27.0540661486472
-179.975938959278 -16.7716664337515 -4.92164198391978
-193.126084786329 -8.56775326072786 -9.36038240116396
-177.810078961495 28.1698794736492 15.8335967219367
-201.46712474087 12.1673752458246 6.30714567039117
-95.7136770775247 11.3473170204241 9.96708874381923
-212.400639870103 -7.73957850013969 4.52553921621649
-61.3651070657155 1.49264234497854 6.54785485297806
-124.883661691245 5.08659254183644 -10.9534014593456
211.99091659735 -3.09334020449756 9.422362418511
-130.230120849258 17.2232129207374 -6.31408421213188
176.182361536222 -28.7172163326323 9.05331495268408
-79.9701626308417 -9.74010270519949 -9.64495451992401
-145.760774765786 -8.85047075880502 13.6579738042827
-14.7292859916164 -5.61827506314175 1.76997693561222
85.0991123688104 0.139247355620145 -22.0104553197671
173.766266926666 -15.6221641910695 -16.54948744882
-131.458881512926 9.38806261342302 -9.62896161214859
30.444066654711 3.53638573309502 3.57712028912065
-117.304536888629 18.1010737191287 6.58171375124019
-207.194646187838 -23.672765776083 18.108236878867
-194.82448578761 -27.198760653799 -5.75497100425946
-224.833728904407 -10.2764470885968 -2.1277993636241
-186.61802547727 -14.1753185972044 -9.07085810285373
178.493371724487 -29.7293617150814 6.22750678014611
61.7707987683585 3.46663296756517 5.8704458289295
-153.332892459314 -6.1507080252747 19.8342844146516
-65.1921049083712 4.20707983953073 7.32633294631206
-64.7210285997679 -10.5351707538246 -9.76982469856097
-196.20897856458 20.2909238360877 -10.500428587491
84.9864114605507 -13.5490762166736 -6.56732140182746
109.457476911051 -8.49697620362223 -18.5314337442974
-104.613110938222 -6.60372362753762 -10.7820173202439
-201.282333332624 20.9532286143497 -8.0209184146938
219.477874081508 -14.7197895775096 3.00221840589432
-194.614890557993 -6.25430174299652 -11.1999089957108
51.0641296610976 1.09029285900887 5.66964247802638
-211.849040207413 27.0668760860212 6.77052042344171
-95.1600931121536 -7.84213577189195 1.6901371324419
65.6417689198888 4.53527675217733 4.64578749696995
-90.635782522268 -3.37745121553066 -13.8507610206635
208.19671115314 -15.3384754516019 -18.6764400986445
38.3463440474421 11.0695788577197 -17.9317470466564
50.5362445143455 -1.44445263611371 5.6599404306308
-74.9340896648398 -10.0628654498318 -9.71236896742506
179.863421569134 21.1281289546589 -15.8828580018473
190.544095282806 -2.68373603850922 -20.8903402608437
173.633758304056 6.60877762478158 11.8341343535662
-75.0808595546133 9.21567847424764 -16.539858417914
124.667008774758 10.4091160354898 -18.3616691428477
-182.717895659269 -13.8487784533279 -8.5238777972186
171.159459060486 22.1051877740955 -0.786558246064893
145.647235472914 5.33813892267075 7.04795611622332
179.231272360328 24.9194653960497 -3.96189045519238
-210.719710810556 27.5848538340202 1.95299641585994
-205.317567975257 4.18547154035768 -11.6593901407022
198.459333700378 31.7264268602862 11.325240725786
208.937407561168 -30.8802162795395 27.5941358291008
-206.738087204247 20.3085060543593 21.9355638534448
101.204761169934 11.2381712178599 1.77554455645448
188.404695465615 -12.4538012415509 19.211688013934
-193.049142982634 4.00065086258638 11.5668919154279
204.931134905903 3.46401111270097 6.03341214834579
137.007475866877 -13.3010884955413 0.934016711575676
213.686122995523 -29.3902304677041 11.1259494712048
142.853079805469 5.45724551727732 6.96666001861167
-52.5405029479761 16.5993266135324 -10.5743112692078
182.233402854899 24.7107660834252 -7.44004202792452
171.874441787508 6.78091556816663 11.9388724214176
190.181727462275 -19.6265602975774 30.3262493160021
17.0647443702918 -6.36451401123466 1.06044544827246
88.5102062074846 13.169408766371 -11.7784511770182
201.672654909001 -35.4421059300623 7.77476193303381
18.9573986333883 3.88597203529766 -21.7808318500497
-86.2137962702567 17.8915155341901 -1.54890636932978
28.6673069715051 -9.13854208055844 -2.5570320696546
195.129821787723 29.8359283184222 -0.412818041171238
-48.5873429538808 1.1127456021626 -20.3583695342291
144.333568761888 16.2718259830277 -5.23152676181271
-210.400831232153 -23.0165873588264 -21.1127386723193
153.375800082995 17.3874810989203 7.59149500663421
140.222152324382 8.62481653504472 7.86524065449813
-143.771683565679 4.23104233257164 -9.07587464080956
-169.936271139741 1.02087061824008 19.6853417365412
-165.462684858151 -14.1685578944706 2.40616783820251
-6.73781316345841 14.3988361375679 -7.27716685190094
132.258301329558 -10.4208273957481 -17.3562997457173
208.842325673641 -4.28483219293532 -12.9788977776943
25.9484007210958 -4.08268107595037 -20.8109390771542
-149.318957978579 20.8111436998408 13.9389544775612
-187.509717170742 23.5122084045201 21.2809240759893
-178.593810499667 30.7711815724692 -0.285781623846055
-218.066083724572 -35.8285423275821 17.2618536596914
-231.872708196597 -19.7314421256914 6.92869118609551
-179.054204128981 0.530988051182025 16.2551467762134
-225.136566475992 -11.7743722830553 4.70442408112108
-127.911647153689 -2.83158786138902 -10.0274886575203
-129.498473094062 -1.83915181094305 11.3100138775515
163.70583447582 -21.4471131454478 2.8408178043715
-171.752289994898 -7.61572817994174 -10.3622981631679
177.020088943314 3.32912023059438 11.1951257747552
124.600174169138 -16.3970324470848 -9.55380639918599
153.513758266864 14.8464430864023 -14.7113586634176
181.72923170951 -13.6909596851547 13.8052411898707
167.764601761794 7.20572216875866 -21.0879488391055
14.7695536936509 5.05675214631705 1.29337063740275
-126.717334607911 4.34570877201276 -10.7813775745046
-204.807814338239 -32.4213393958902 16.5153571536683
-198.521624172044 -36.9459094563501 7.2194027147482
-85.7885062568817 -9.69542090916025 -8.99883567413257
-139.731759544081 0.566112231167349 14.8808758290806
208.031203322279 31.5008979617704 16.0918979120641
-233.589816054794 -31.183304518237 -6.65904900655382
-157.45530140192 16.2072242218274 18.9246293977252
-160.620212587114 -17.2122396194092 13.4213772950722
103.955143785439 12.8417484498204 -13.1897735379914
181.162930184638 -33.6523250845239 10.9705565389102
3.65828355046668 -1.05570052329242 -21.7772423609856
82.5543981797839 1.82668593851575 5.91594237182555
-206.739036199572 -15.6945941217964 13.81815766829
11.6031248428724 13.5636038626806 -14.9931730652333
-138.414484930872 -10.6210099720593 -1.16807704468009
123.852840281057 1.35326205265044 5.33095510227867
188.414035980753 32.5515698710389 9.00573280786121
203.544809869533 -5.16127489461558 -18.2351373707553
-141.217521655593 13.6870070595462 16.8847046795171
6.13255520920078 -4.69780592491189 3.81028487404923
187.425667366723 -36.6558009145743 13.2912712631279
76.796455769103 11.0403392058491 -16.9504185074468
-188.605062370287 -23.048628687949 1.22496106507818
-188.889295537367 18.348616719799 -10.9495769413535
110.144997834206 -4.58985161890151 2.8079779706548
176.633502176246 22.7778295916534 -7.27922708758635
164.57687013357 14.7049681467464 -17.5580700202622
11.7428935261267 -0.791256164600047 -21.8376986234362
205.286037032288 -14.323469682929 -20.7026397316434
-137.898353839549 -2.3870482267035 13.4164373994617
208.087633869546 25.9923110680049 -3.04028688459657
138.937643921022 16.3200477106316 -0.128689420852002
-25.3508077168407 15.8681321810006 -10.2087223736162
13.8381122014076 -5.88882047632408 1.7484118386184
-114.27041448983 5.61723022817521 11.9618085193263
-39.5335099883411 -7.48582975692828 -15.9657912134321
97.9921961723472 8.00176985473322 -20.0428659309322
216.51968744512 -10.9429872188281 16.583708290294
-25.9572929940686 7.85597306121595 0.651631826739802
-15.352611997725 -4.17114353570414 3.37786536907358
93.2024388037606 -8.34839567858419 -0.395713673967577
152.804784826884 -2.7110556229304 -20.0757135569974
-74.6986086402308 3.24444234335067 7.96149577990772
204.204945742583 -9.69542690864619 22.0272886127905
183.600236692223 -17.9322611368763 -18.4693227153654
-93.5519780126848 18.035554079098 -7.73220235526763
-177.163029049261 -10.2955127887593 -9.80813260950523
213.336921009448 14.1220955355935 3.82003755715719
178.685088438415 -26.4112440736126 -5.20231208099402
-209.394324994696 -34.6945017258487 -19.7128488812369
24.8628733934445 -11.9094439377491 -7.04982333963851
-155.957837950911 -5.49417079792868 20.3847967248655
73.0529714192216 -13.928178911863 -8.32801907557424
185.936515879709 -35.2730262678702 5.9785820090231
184.206048036095 31.1306298770251 8.54354914081023
-175.855890485721 28.7781730060294 -1.53598021940858
-55.5455042522878 3.22268111110118 -19.9785020178004
104.226579915896 -9.53305390993933 -17.9609493439914
190.395084969152 25.2120434086599 -12.8609088384141
167.235493749068 11.062032051023 12.6199883052272
-83.5479297076359 -7.22548386160933 -12.0499111916177
119.299764731052 9.91974511515558 6.15114089800735
207.580470165189 -6.63221283014288 -16.4666421229223
-144.61367674148 -6.69167848503364 14.2879399275577
201.847684399209 -27.7640716180221 -6.55183852186316
-121.282714678772 18.0120859618456 -5.87394518435454
-184.797002501681 34.1372376348184 2.9101977090574
92.2244004676577 1.88107991914776 5.85147496917634
172.002995662085 -2.01665305593661 8.76985855879878
-172.067805840078 22.521060468257 -7.26004704010041
-83.1972907216863 17.7708140448693 -1.86815224825501
-161.566038619234 -0.950268474730705 19.9349294250398
43.9155594906284 -0.533925355235321 -21.838852567928
205.745019033695 10.8272797926279 -18.6353066372194
1.41473665712958 -10.6468697338681 -5.0198993190168
72.3561845995201 -12.4618344648603 -5.29840657447463
56.5268240570865 13.3150508328239 -7.92400895814101
-121.185194835447 -9.71789654729061 0.0561790057798032
-142.633805611398 20.6617817954737 7.44934922952044
-165.700830640689 -15.580596715514 10.7305155468269
-27.198975689877 10.7825192524328 -18.5071054771722
-46.7491256851407 16.6658797360171 -7.47036601454442
176.151206676339 -15.6463844884055 -17.2222464844149
-9.32824530130096 -8.45004626980563 -17.5554957565783
-191.609287188869 5.67994433722799 -13.53015835134
-78.2410203630934 10.8019740640337 6.51774775907111
189.955528371918 -10.4904285065827 -20.993591009136
188.298068521251 -36.9089526253901 11.808500098299
32.0101268455959 6.72571231206325 -0.0582451778102947
52.4240120315737 5.9891807287799 1.28254451376644
-199.553293655878 29.7055094228315 -4.43643996884326
1.54996971766318 4.20325647421519 2.44559692048898
83.776917933418 12.4822196827751 -3.77916514909729
-4.65372920228015 -0.0632799223473065 5.90908284748892
124.898138087838 -16.2449301837264 -5.84738750745871
-163.889957197962 1.04684021715512 -8.24381812094876
198.10968219496 15.2380471783053 -25.4049789328052
205.263194869189 29.414971420416 9.20165854629298
46.1775557948548 -6.86696838466701 0.137711838695021
-199.621725640932 -41.5185657476271 -0.187957161447754
190.055706786276 31.9364659662083 6.72713821543106
-56.1478666270079 10.8821880988043 -17.2062816436199
-191.501061993537 29.6407067885122 15.1356897368575
-155.429081219508 2.82346758378969 18.6336293909543
-183.468331995142 20.1551366733512 -9.90715569995351
203.466495905158 -22.5150920128645 33.7985090565684
189.703701214136 -6.12317932150223 -21.4818322476254
182.420980284798 -19.2518964821975 21.6699452614721
-137.501856438434 5.86496265794159 15.0166401783607
-201.169011142791 -42.6216633805392 1.64407311512477
-212.549253521411 -8.48573739704696 -11.7326609073773
202.800195783525 27.8141397599934 18.3270288898983
174.962998284511 25.6220565917213 4.85255046375534
-69.0128414243686 -8.1224959155424 -12.3035676312409
-217.163925593 -39.3737240428611 -17.5152365464887
205.933537891694 -12.0446636361541 -20.026814157549
183.073832095485 -22.2625902003883 -14.0140261895143
201.698010882232 29.306319533078 12.9217360771507
-203.299202591827 12.4707701096006 6.49943082932789
109.513269005198 2.65486207728535 -21.8275273681342
-199.438248096288 24.8246483621355 -6.98269858793533
183.557723979227 27.2597879070142 18.6270593979155
-209.515654897296 13.5797521258711 14.3824129927654
-181.064293533878 -0.0347774058226139 -10.2170399554281
-78.0131833497453 18.1286890432985 -5.21582134990991
95.7063420352845 -3.70582021616487 -20.8931867826567
188.263432266701 -33.5935881431957 1.80986873927244
-113.15445517012 -5.1545998408626 5.95147203670974
-192.536063361424 33.275636093332 4.64148863918163
52.6669676597589 -12.2660220361454 -14.174512120429
-181.717790585714 8.1815621401796 -9.73195626182963
186.233208862786 -13.4247695109646 23.8791438064628
-152.929343502875 -10.9189083413737 19.2666148461903
92.0815920163236 0.333091038002877 -22.0780891443251
-209.093875193433 -41.8019761010702 -14.6977483983809
-205.77651640231 -42.1329753651656 9.91008087229078
120.737550222881 -14.4012498319417 -13.7097355964217
-209.549266977891 18.7335781076644 -10.0234856627715
200.992637119885 -14.294887320346 -22.7575992579426
79.8538270589389 2.68160071084138 -22.082806114918
188.997159520014 7.91458045859868 26.509408889072
-165.348259032924 2.99026380614254 -8.16259770186798
10.6305568763662 -2.36360435421385 5.08635207166088
220.098030760293 -16.9000206853277 5.99824301599748
-188.876340859849 -8.61068238885896 -10.1882658793692
-203.052975914548 -15.8465422270158 12.644327133439
60.5253679595811 -8.53882531197129 -1.20222582763352
-104.404926069526 6.13641462012622 11.1410750876942
-156.66595444594 9.69115740813961 -8.04629638068322
158.579776897311 -20.540683810115 -0.361867896345679
211.73574947753 -15.8948181898165 28.8171154631265
83.4555159407508 13.3903925597356 -9.58865753059362
190.633262136587 2.83807220206368 15.1917507335967
213.376420070672 -4.18453477800774 5.27981364232856
170.430465445551 -24.8634577133138 1.17130471013906
-213.267640247205 -13.8192648043984 13.7305459750801
211.855163088123 -14.2308699219123 -15.9431137347221
198.177347123331 31.8087863723153 9.20934004387598
-23.3419416630561 3.94450322174086 3.93681518806422
-22.9703538840022 -2.23743444031148 -20.7847363342768
27.9862707204918 13.5719199746593 -8.18926740702939
-124.752801413169 -0.294327338286801 -10.9184020301737
5.25598727267431 7.62913134668599 -20.7825386221985
-12.8895647360253 -5.73065357257235 1.68430275011102
-220.229966710796 -43.0731592529223 10.47749952268
-147.094180501519 -6.74577689297179 16.467323053497
168.744770392276 -13.4283121101731 -16.7243555823212
-128.790151675728 18.6462314553717 8.64782319259774
-225.750783035958 -37.5596304019748 -14.1708596973567
-181.040413440212 4.59183307063424 20.1421347434319
207.173732758274 -16.8313287794461 -16.9976959729574
-101.943295787839 6.91792905317082 11.2183976057626
-194.646787253258 -15.7775872559691 8.65841278127264
-45.429187952939 13.3811849615245 -15.8964647559948
184.485444017715 -25.0299901130034 18.8014702667712
-198.031788007516 -28.9270118414277 -10.9759949506073
-29.0151165665795 4.78212126611951 3.44189715293083
176.928351431726 -13.0972792241039 -18.4996988278462
209.340559241074 -30.8652479368865 5.93046426639582
-143.428414382924 13.6566880621205 17.0032022528624
184.636070711069 -30.5336067238419 18.0229499431557
64.6054554402241 9.98054409924483 -1.63690219163253
116.457474958454 5.59609585576923 -21.2205619628763
2.32635744272735 8.3039944499147 -1.08687259804291
175.143655351857 6.09660923473561 12.2072551546874
98.6742218806499 2.22622426773699 5.87041495543765
-201.414474009014 14.5010478830538 15.601529866125
186.658489576449 32.8681084083497 11.0177157310828
-37.7197913641011 1.83845675575649 6.37301543394534
-106.872001210085 -2.73372904400612 -12.2844696029195
-163.541607732191 20.3127527508359 -5.28757747329085
-197.475417539122 11.0268999353047 19.5201430051667
135.026624645097 -14.4801302064645 -0.610931247564719
-215.290837958793 22.9119224065092 -3.46607538209736
-198.862007344935 -36.8213321624331 -10.4843276960377
59.2690976536696 1.46451165242521 5.96352830384407
52.5207792730519 -4.93281693217407 3.42697167215901
50.9860274417222 -11.4176777050397 -15.4691216158938
-180.912699646586 10.9669354733763 25.3437826267736
-185.251545655364 3.45809543695206 -11.2550067486336
183.590034118297 -4.01611865093974 -19.4153777858921
-53.0974074527366 16.9840629089878 -8.45985565168411
-79.9647090909386 6.04437348935658 -17.0600453456201
79.5000329824336 -5.58235624435843 -20.1249023874241
201.899736997162 29.914152657618 4.93644419488083
-234.258873290011 -32.0009233420212 -3.03641105528485
-213.164627056963 -8.05326378508679 3.21705862098375
201.324074544672 -32.4350053320231 21.9154353420621
-94.9607015076985 9.58563927001395 -14.1704325800405
165.613617929193 -18.5275643243484 8.11325228826875
-27.9132316744933 -5.23073604469593 -18.9380586479055
-122.541240890781 12.0641796673693 -10.0123393208071
48.6168937227641 -5.90157535530898 1.70795598908408
-166.926243464024 25.8397028586112 3.45258649212133
-205.708041040073 -9.60589031609487 -13.4259333940482
-136.452703528197 -7.21893477046796 8.02640555730957
212.674619354071 -14.4099477835741 -14.7706338613421
171.278525140957 -9.70281485458484 -18.3474624701925
-186.166380566248 1.08211951753639 13.897820249378
135.627516639352 15.8078328537514 -4.46470731069117
184.804640476171 5.36416499229994 17.5887899845877
172.925976573206 -10.4730086940975 -18.3898012524088
-200.834345899735 -34.6726456775764 -14.63088747492
-6.74948672241203 -4.20799026268435 4.34386854384375
-208.753649471036 15.5702738900922 20.341082327639
76.5432046611908 12.3356698703911 -14.3758670809654
-167.216010783232 24.3955915775549 -2.37970781360253
184.428966609633 -32.9038832582609 3.5618101455982
213.445488406704 15.1663412560644 10.2429947069834
-202.028223082605 -23.6240826584157 14.7813924811049
181.470121782321 -31.6018910167379 14.8940589709212
48.813390954264 -8.61453609148942 -18.1277233705392
181.343551497359 8.11355860643534 16.8060733721771
119.314143303502 8.18610464374706 -20.0722744188606
168.632588034239 -14.1945666124324 10.9390680473928
-211.955865588688 -12.205854718137 12.1687622814483
197.294949046379 28.9158496165555 18.2690474739851
-133.591551813381 -10.3531127786122 -2.19142594692911
149.488351176679 -14.5985160529402 3.23559014211731
-139.780807190118 12.7537334196524 -8.27737958846822
-186.829860907521 -8.29591512013084 10.3055917806737
-29.0354393336079 -11.5199495056726 -7.19253478814444
-214.876971957986 18.0191348870114 4.54034228800024
184.279287818556 16.6232747074858 28.2639281810866
68.2205736643297 -11.152843317004 -3.96409726953767
162.114893117063 -14.4239176715363 -15.3665869559573
46.7216355497707 -3.96300502271603 4.51760649798328
30.3566347929344 -4.55012968182217 3.2785271511836
187.693656010688 -28.5922411113101 27.1988944872382
185.377534239897 -24.5509794322869 -11.7225601749539
-167.34280402166 11.2612036837253 22.1801467456469
82.1428688806853 1.40849731782593 -22.0852840468937
-189.394864790086 8.04593815495073 -13.2238061550214
-209.50666342461 25.0620073742154 14.2293309160269
-58.714829552546 12.9721079939349 -15.5279878561661
193.009529007949 -36.99586106363 8.46845420120271
-179.365484892089 24.0683770301384 -8.85706668239161
67.842348236158 -12.6040026279219 -13.7036615056519
-213.026834145574 -47.3660706355024 -5.12889814252136
109.984922386652 4.53042736783258 -21.5545046131951
31.581666872596 13.4792286947204 -13.8176870213834
220.268946912449 -23.5077539980722 2.49731235732611
213.252740597263 -29.394349676038 8.61667481818848
-149.559328515711 -10.0648755077984 3.86430785119541
192.111672721886 -6.90291683628382 15.2131811447921
130.662245036586 1.03601129742615 -21.5176659173638
60.7079027838552 -1.4030615524896 -21.8510845302493
-146.97317154074 19.9813155602404 14.6875519767532
-109.732080690011 16.4339498930535 7.68354107462635
-107.465832758811 14.3095510264926 -10.6420371679975
195.520794614361 13.6387833699835 31.326598200309
168.132970021018 14.309991215862 -18.9977583309674
73.0947996504561 -9.07246230935766 -1.53359961039963
170.76334418495 -23.4966599572339 -5.18434574742241
205.778178973443 -4.25692888119158 -16.1226493417688
175.933149218256 1.60495789421608 10.8143668575189
26.5303800993808 -2.88435568742527 4.90438859904231
-122.392872819751 3.45552273382554 -11.4088126710407
172.247405959382 -3.56943024768045 -19.2111634792588
143.10295649408 5.04025511364176 -21.3689702736412
-46.9019349335815 -2.96239542848649 -18.9359739450951
-198.829361405301 -33.442092516021 -12.1598961703872
-48.0694374209767 4.02317925439079 -20.3528453689734
-21.556984257374 -7.84790916797063 -0.488294213634518
-67.0794782825689 3.53306937123065 7.61587841873874
152.094015598831 16.8374386067847 -6.71779413972849
181.247540856444 -1.25694812742912 -18.799154390447
-214.944114312726 25.3423436036029 1.7071528886366
-194.290694032984 9.33084826462643 12.1146223489577
-210.628342577932 15.5232451387084 3.74009094603213
-164.222752502232 17.9517811048447 -6.70518008383775
45.6218143203621 11.2595182593061 -3.8165241041381
-57.4515376365385 16.3412195452351 -3.84133436706633
210.396769751431 -3.66451405017381 -9.20270187862029
-147.303841779808 4.3956768514794 16.4679047049128
-167.506689183772 26.3968583251319 6.31503706754199
110.167102521426 -7.7540283223374 1.10149103889265
-169.156332228922 15.8531934419126 -7.81818200528727
-180.961137786784 32.1612537642703 6.93595733514226
-112.818960472786 9.88715452590935 -11.8984091162158
194.664449768695 33.6256167385615 12.904993576184
-203.156356309416 29.7056679097096 11.8313238189182
-159.305936209416 -11.8240102349464 -6.10977506720918
194.890650998807 25.386429350084 -13.9620083317781
-191.676147303419 -2.34604444527645 11.0340619654994
133.080925667098 0.989787094234867 -21.4612806360176
-191.416930575483 9.02247589360587 -13.9057644741398
169.644523444819 -4.76660454409582 -19.1419100548947
60.7996890932883 11.8061072046412 -16.1049361305322
117.856591009175 0.397730465491249 4.94945556708187
-93.9204660271686 1.2110928929564 8.483439046026
-191.375394368423 -13.8252519393684 8.4707690291586
-172.004518012774 16.6035144083078 -7.94567812129543
209.962311519728 0.218637738637863 -3.52860202691265
169.894430703377 17.1208319303823 13.8586173628534
-203.894070432493 -28.9915966597871 -18.7403008006797
211.962964188697 -8.15558597760453 -11.36839924033
2.85679348971502 -2.11517775366562 5.1709952771654
213.791881201959 -7.7410876806178 -6.2454509118235
-52.5624991565655 -8.12588741487901 -0.297400763117659
9.41240580774066 -12.3679749379959 -8.52141521863234
-217.383705637507 -37.3845726875514 -18.6698047145736
-196.459957232881 13.8002215915849 12.164760070041
-199.713887404495 31.3060105846462 4.11434283595166
186.886103733729 -10.3550226369975 22.0515626024174
-200.506442687822 15.699080015915 -13.5539588726238
209.648695654548 2.25025206052794 -1.79320300972411
-201.895607789088 -42.5383045645944 4.10382194043898
-160.048115053053 20.3406188313995 -4.40255176889676
-197.270696867095 15.9912424104002 -13.6777874957255
-204.342823210735 -12.014908006363 -13.9504551566827
0.873460951620154 -2.78387319374473 5.00357058980582
208.214885483419 -17.9119914679792 -15.197476336108
119.038306636948 -13.784677306215 -2.18101874138459
-200.346535843161 26.9119972084564 -6.13018673461841
-64.4120391216635 -11.4606301144461 -6.53348010182157
-202.491786573187 1.83249717728206 7.18533079342759
-157.727255665232 -2.01052320013371 -8.61817312626993
79.2264901360135 -10.4196908430066 -2.95579841565058
-208.292018550829 -28.9422930559322 -20.9487844245998
203.517343974682 17.686094897641 30.7218844324669
