-202.704592722056 13.6350277626364 -11.4591439080177
-191.029317654843 15.666091182797 -18.9492207132907
-225.359197694842 -15.3270696126455 5.73177585119865
52.2544003839514 -9.82014201612602 -16.1702067785591
12.7760453711261 -9.77676791471877 -4.99092921638679
188.237088093279 26.2673465330822 -7.0446099797121
-223.318098370827 -39.1502794365087 7.19800243812641
126.135728947771 16.1457512015252 -11.2797509505545
-178.900476841939 4.71378457466904 22.9671719222257
121.955775652375 13.7687869448474 -16.9459786727928
198.737133159235 -40.5006446532478 10.9958467457868
-151.232132653268 -2.96145950700312 -9.36270604175933
189.560176035803 5.13742024252005 14.4098903834772
-69.8931003219819 -2.18667899992189 -13.1672508061017
180.961880359597 18.826470675605 -19.280595740249
177.942533877205 3.80985161106275 9.02789833130572
86.4077081830125 -13.6991316141965 -5.48814052271786
-26.7557315514857 15.2816918334578 -16.0335353014962
-172.796844662782 31.0350925137049 7.15657371453607
-181.566421747495 -5.01098304462059 -10.0533426663351
-96.335965557455 7.92490782841163 12.3078243363758
-119.679532303336 -0.816219969200883 10.7427927489145
149.954580501953 12.3624980886815 -20.6818041088335
12.2184960745026 -9.01738233423217 -13.5437345787014
196.414805969539 -15.6172393031993 21.4918083584393
206.499820564439 -13.207109202289 -23.2634838252963
-195.671572474788 21.1691903994674 -14.0337316780891
-112.832840129234 0.332803005566615 -10.5108908559992
214.602671808974 32.0409316027747 24.8652619291132
64.4022915148971 -8.60728551964748 -1.1154838195663
-104.840016184626 -4.54436960455605 4.87244344766261
188.9301954246 24.6747127847756 -13.5976634151114
208.857054054313 -20.1510049644515 -17.3410634789045
-201.540423513168 -41.2552691320395 -13.3925643125527
53.1068931918382 -3.40344728081816 -20.5757865197192
40.9061436417902 14.6512948328422 -8.13752263586893
-202.573574968086 1.67419967742222 -9.67539330936976
-24.0624110597271 16.6193814880952 -4.31300574893617
188.665087374104 -28.2050200414438 13.2278989923995
25.321073450656 5.30445088343154 -21.4499139145516
78.9845434708476 9.95909353865567 0.768879423860889
140.575400208667 17.6918501267653 -2.81777945949702
192.591429993092 -26.8514750278732 16.8770430760013
190.250614678734 -26.1687391810004 -11.6362117391675
183.047880887134 -27.7182851526524 -4.70195288112281
229.067474351287 -19.6534277170808 4.89912309699122
221.868915431132 -33.1426686611817 25.0482398264881
-166.791894901228 10.3608169250964 -10.746039250865
205.027420800719 -28.168248750502 -10.520847336842
-196.026347762998 32.0577730155368 6.21429017066785
-140.83014460209 20.6111716206582 12.284709673651
101.517237165165 -15.7912590793196 -7.55209634536714
38.0861297977582 13.9690704468583 -16.0599925797284
-102.363449171344 -3.07358048725358 6.47379919919266
-139.244840687468 23.4440178592126 -0.165750471240401
-86.3831230918265 13.0391496132541 11.9680518086295
128.653426341891 0.980605589826754 -23.1594564460985
120.671514974656 15.5987414805241 -12.1575320456842
-199.557896026077 31.5640836934578 2.6419937237946
24.9043581420029 -1.17689235726756 6.56111556487204
225.157632567019 -19.3579091266606 22.1036601516681
67.3045730441058 4.49233151459485 -21.9828915434752
218.679144430203 -34.7025681717054 14.6805107846874
45.2973416714877 -6.14460680421963 -18.7808535955626
174.601828367319 4.60795000003677 -20.5485135915178
-196.412651414167 14.4832213029797 13.4879920671086
28.0447923675544 -1.94384143461829 -20.6772879944286
176.455951242928 14.0751722749851 13.8567482912004
-29.2695153540433 -1.52994507540913 -17.5962745961458
-124.907218373577 7.55540888153059 -10.5620901598879
-210.804917706037 22.7542991734797 4.88840835739846
-57.8154104214994 13.9953224746889 6.43761617173518
21.7123652883415 -10.36923836106 -12.0587486695616
169.964253725038 -0.647964239567493 -20.9464073568944
-201.035635528244 -43.2797829713934 8.68047728203987
-180.458412774742 4.92661756977144 -16.0499359958772
-101.329138032029 13.5736357883841 13.8009417824498
-60.9875310133972 18.9365937621567 -9.29693982401207
-185.442785474881 1.34059451314015 -13.768301620419
200.58169635265 34.0789305981486 8.63637386289228
30.5462765164422 -9.1915448251725 -3.37234863372578
175.920662334033 22.2372424707456 -6.05285640963395
220.027611062281 22.2023871535545 -0.744886867368391
220.965047349812 19.9126024488852 4.96622832428584
183.270116470566 23.641852746627 -10.2131431001965
211.804225397791 -15.3984745738117 -20.415238543028
-183.969359865023 -5.82643641334917 -10.1776801883216
-168.249810347638 -13.4319633595448 -0.830738689005067
187.093559340722 12.7184655900252 20.5061211697887
-70.9667348499766 9.32465440189362 10.6610192749158
34.6724114441093 12.0826137582891 -2.63500071260306
-189.415791233432 -21.4622495015895 8.43987739779469
209.278069821981 6.32375984208758 19.6819287499523
197.665497552701 -8.31727517371064 16.6426460660813
-125.366769011111 4.14023606143615 14.3926599277813
-170.598232446626 20.3637680552353 -9.61878987688801
163.912216502891 8.69015012767562 8.68110863992358
52.1988633128264 -8.95666388223092 -2.13070642648865
161.136385259526 20.0619162884247 4.22526924400435
220.380587963269 -10.8181285712417 16.5889241905332
220.46146942264 17.2587208400196 4.92188041660991
19.889079594051 2.11731134679208 7.09670919605981
-155.058471549784 -7.77703035468711 -8.16087361066538
212.198070026081 -13.0211781272584 -21.4191659780892
52.0826306945583 3.45549618134837 -21.8485628733718
164.606893858423 -18.8553944048023 5.34521063527518
-183.821679360104 20.5694266231996 21.6237350007176
204.558017939129 -33.8619939145513 29.4379784919378
218.472441772215 7.91027110811378 0.398576863174505
-210.570264794054 17.1367967205073 3.91454094099925
-139.997841852165 -6.09999491842908 -8.1719520692141
-225.665458587526 -38.4635715720577 1.83484942959151
-179.858572261778 20.060119777168 -11.8222241694249
-158.125090530433 15.2523429441704 -9.24790420768083
65.9176713191845 10.9464628684843 -19.2538271608647
-212.97344408918 -38.16257970333 -17.2390705669986
215.022140652593 31.8481103493495 12.5483806175763
-154.745390357536 -6.89213782313793 23.0296197325227
-26.2725343925769 4.16824365131542 7.94638795553233
178.445709636444 -2.33224184938938 7.62405441883306
-33.1887204676714 -0.180783266359704 -18.1667185245553
-209.195273334838 -9.76843613914042 9.3407549170118
160.478686120001 -10.9913446916755 -18.8407448564283
-194.578791163274 1.32462943638124 11.2184800091961
-55.1479244517648 19.3469083359677 -5.34650412431422
139.970707440668 -16.2769699242577 -14.7925303258819
-213.155123771938 -20.460705551117 18.6240930462037
-200.762569151657 12.9550690337273 -15.2554121954373
-211.422896857677 21.688594908445 5.9465733885474
-107.949612252282 -3.33664811953782 -9.44417556489533
-223.473156863443 -40.469580137696 4.57357164403539
-73.8018987196418 20.1981373576742 -4.64680329011952
197.93118294992 25.8361429106995 -17.2139810057309
35.4261560986684 13.6910451611422 -5.1953910490574
205.841736757098 -35.5524567314486 28.8232804926804
-52.1499381430071 -5.54799441596354 -12.143684279404
79.7950879641368 -7.8979954700745 -18.9582963560084
-49.3786235548726 3.15636250697745 8.33282112171572
-136.870415972019 22.1853315628623 7.83127274407503
229.103914708002 -26.8052755253461 2.78061405180686
-189.829617662563 32.625054050661 8.69228813264462
-200.20214455584 20.5357821650853 -13.7200542528198
195.045421629046 -16.4718539493489 19.7137712878997
197.504036208973 35.0637719936252 14.7710600999121
-190.744122570578 -16.5215145723749 11.258466179786
216.207105276401 24.2115558103143 29.4794383661657
155.890109853472 13.6617813460139 -20.0350912875278
212.194122497478 -36.9782978204845 8.6029017549414
26.067461834919 -0.818445487731594 -21.049400543412
-205.651167504835 14.9012740291194 5.12251460932609
201.684651427133 28.1074464319101 -12.1696059849337
-44.8765987802219 18.5921703148045 -4.75216209008483
-194.045794808224 -25.0217115163807 10.0844988237807
-200.490403528437 8.44677925070638 -10.9449084853683
124.632598899813 2.68364150133998 5.65559088014172
-120.573908064823 -6.69420950783826 -6.77977911627447
196.869537646873 -15.6163003417041 -20.970318434242
156.516898835525 4.01731087458776 6.54233119169223
-207.135269552012 -17.1098310672303 -19.5377823384661
89.6225459550558 -9.54409524189762 -0.304564754010918
-198.388892878014 -12.8523109845656 13.5563647527758
32.1242265693814 12.6405248059919 -18.3459739192186
218.021039422583 1.27123295394264 -0.821177154790111
206.889507917844 4.54231893694601 15.6562241202892
65.6466476465574 -6.92952761435419 -19.0601754414788
-194.681546822517 18.0731647056326 -17.703024314511
-133.095743661417 -8.63581473601455 -2.66604527212982
-226.501592708865 -37.4254447650284 0.0299258121992892
-194.826016254641 -27.6157432441206 10.3874772712675
-211.168937955634 21.8383847001451 10.2458731859755
190.546475865001 21.3400197639614 29.1366522403943
-194.264563510852 -38.6366327061356 7.32566514403939
218.008426108446 5.94435204590551 -1.4332593375583
-204.858515110348 -16.8603128636412 -19.2998465224106
110.320439111399 -10.859337020952 -0.0781118330348986
-133.984965158295 -5.4270752782505 7.69330531871749
7.52655797381841 6.06312034034051 -21.047873126463
-103.410727840766 13.920359264474 -12.4682784710483
30.5672178385983 -10.2577586323431 -13.4824768218408
43.7649502912107 -9.26183231855559 -2.87047777867513
58.2764593259137 10.6372041949962 -0.823692146998724
-201.090687668283 10.15087126864 -10.9476951137694
-213.097776650941 -43.6105629878712 -1.80810854835135
-192.109689089332 -23.8703951214362 8.9514108042497
-35.3060853677335 15.8514798249193 -15.1700539912213
109.354274273783 9.99121621149255 3.63481451023367
-83.6244663832992 -7.41361097144213 -4.75717280303002
-49.1686122599694 15.6396052882772 2.33554926546959
-193.043036158676 -22.3190993093285 10.3020313340972
11.2928765769428 9.59737250801165 -20.3214614790658
-205.267871985192 -14.7818131676343 15.5027056203569
-43.9930247229942 -5.17339470467879 1.51745079471762
216.507066354794 11.6046934453526 22.7090054735081
182.577132196503 -12.4055484273844 -19.340297092088
133.955574671129 -17.111473655788 -4.05538168290408
-181.786536086902 28.4991328343613 13.1544666928613
183.648108407722 25.7041566568482 -0.379550524408129
17.375981120532 1.92234610630339 7.06910693651765
215.370187395297 11.200587301602 24.6156931701125
190.806428648303 21.6477673215721 -22.0193666453027
163.016217042709 11.0704334827173 9.2704356933755
-168.292752049081 -9.23581331763602 21.1331272184528
-170.531923183544 -9.41639340841 -8.85454877090015
-224.959976194048 -13.005636813745 -2.64282475094297
210.048238148659 -27.3367607564096 32.8949450124355
180.201574337484 -14.1318411490313 -18.5686198476269
216.871405858519 -35.2988102880505 18.5036670468326
-102.584076896027 -1.57456703989401 8.10911080115755
-119.807927883312 13.6488073515919 14.6468727793958
-105.506645945783 4.7961636043328 -12.5997645341518
-197.837960854403 -30.33476958976 -17.4458048544239
190.594872711318 -34.6210089253164 0.841698575107718
214.317483625221 4.89918710432159 15.7900631443431
-192.606840703588 28.5758723419526 -8.95117759742907
-148.992774982971 -2.25591347670714 19.7957748546028
-182.002380337174 3.35685016754323 -15.8487907487755
-185.80448629471 -5.41215896457897 12.1267767014015
-187.769257706726 0.882728241940751 -12.7211301059316
220.246779781847 15.8670803533798 1.53591009258051
10.8809305786786 2.57460127923267 -21.2855809794944
-211.710129781039 -10.5497138577277 -15.0274331559497
123.539775864292 14.0382747995879 1.51524167945248
-169.312123647218 21.9169220549249 -8.97904394742439
40.7561037921951 -11.4399764348435 -12.4077405578783
-171.522926949804 1.18431033344568 -11.8796138225313
-198.848504467907 12.5894539257905 10.7628195701072
-159.828458649248 21.9596080500496 -7.67681431360106
193.816519600464 -22.8649567208174 18.3121888856457
-144.746807422238 8.57226843291084 -8.2459721817888
-191.618330640784 13.7539814621178 -19.2522572364021
24.7753330437075 7.8883533521859 -21.0256863221691
-147.141666592679 -9.20044521107038 -0.906765470769041
192.95879276139 28.8940293997931 -3.66876765694964
52.0009018748812 13.8953846182726 -6.08285541729458
61.5318980608766 6.47510714662902 -21.5084521089674
169.227605539867 -14.4891803225609 -17.1661593974364
201.764499396952 -37.3907373184921 0.539907108349071
-198.876744724654 32.753066648301 0.176834633179591
138.66401949408 16.4685216873624 -13.4790577384393
217.468881621196 18.6464727245873 26.7634029946852
-114.055116885627 6.03374208739527 13.3977814768248
3.91391088342884 -10.3531822635913 -7.40174013432268
-41.6999476140842 -5.77689232444955 0.794981400590815
-212.144553887909 -43.4136530068147 4.91488488162222
218.103485151122 0.0264194715071909 1.36096040291877
145.418657859201 -17.604459096228 -13.0387161692633
211.388157181385 6.08115400728082 21.5759114163556
205.253171775024 -17.2183499440999 30.6913827084895
-127.659315083554 7.63569907307812 15.3143165692657
-201.670565247969 -44.2203858829639 7.14217866590513
98.6299825590824 12.4570855923709 -17.7254402096439
102.364678286534 -5.92736115011718 2.52145263302716
159.461852004385 17.2919647226914 8.21963938546574
15.4324668165505 -8.78815735682195 -14.1303211476497
-221.018058013139 -9.4936120521722 3.11320924245369
-73.4468050708016 3.03473215877775 9.61604501055555
-222.86266413447 -14.6513722502794 9.31563319583733
-10.218386604909 13.5665928783297 -1.6662253572203
-201.209122630142 -44.8245225145952 -6.70509273342761
197.42174580481 13.9273116394034 -23.4164072328884
-175.115132650143 5.71812370774844 23.2726797962601
193.843557579101 -38.0470061372398 5.57641745743843
15.5234943754735 -5.66636337107571 0.939388612356951
113.487539143654 11.3178391544178 3.04195973995899
-204.448266135156 20.8409526703377 21.7786217029797
-59.6007680591609 -7.8276224495869 -7.86959108161368
-194.027806963434 -8.79857754784378 12.0353853212384
64.2615935287761 -1.44796500559093 6.2737821551522
-27.7146213099964 14.2414080839021 -0.0226446924824498
213.398999933853 22.9110776093279 -16.5230744959796
-105.465834955034 -5.07410406887833 -8.30201389248861
-151.779365119146 -8.57419287722828 10.3124486326117
20.5031442282888 3.51667079562951 -21.4646911314888
-207.770581602636 -5.70786189363233 2.70728207845168
12.4982430845511 4.08423760880023 -21.3145940660134
-207.481643247005 -23.5212809875956 -21.367251683182
208.584083468445 -36.2344294234025 21.1176934508664
-59.5568321245112 2.00728970061627 -16.873658789229
-208.473236221307 -9.16414254834895 5.67811795208777
107.06326518088 -14.523967988211 -14.9777576656903
-103.750862114805 -7.07626591622195 -5.24291629293528
-182.833126372625 27.7187724948299 -11.0344947491837
209.334030951964 26.870998286793 -15.8328731327504
-195.555672601427 6.69536204236115 6.87511701280491
-43.5283564826754 3.05847992348219 -18.7928968412687
-98.537822423597 -7.30178240486199 -2.81824702951984
-194.214738090026 -1.08420910419983 -13.0846003724977
-41.7236025645705 -2.21822982521805 -15.9264184809755
-209.11016154522 21.3150679774648 15.6274700456541
205.224123504369 31.030218816383 20.0056474571869
-156.010000982023 2.91228975827939 21.4879350270489
-211.25556513186 -25.7052016966191 -21.3640373391362
-45.5120373005784 4.26628141785314 8.38094955219537
-227.786551259198 -21.9364840425015 -8.20148676245564
-103.249562964361 15.4258610656176 11.9384893970281
62.7218244115075 1.05354609861607 6.85685234483599
-161.209781376859 3.89458759647619 -9.44531884251706
117.758731329839 -17.0344933981293 -7.31204913199197
-99.9265469045168 -7.30345389030346 -4.46920023385851
-171.668283890624 6.11103173534593 -12.6330619221931
-16.4367786699977 17.0442491504045 -12.7274682815742
182.278801538542 22.1241788495776 -13.8873324316496
-201.256357546051 27.9374249471978 -9.01895423960106
-175.81014197651 32.1257784621809 5.36051541195607
-171.653421627635 -3.93385726250969 -9.85950808637427
-99.5557649168326 17.6100647828479 -10.6673438068897
142.486996935009 6.4680253330462 6.66579475999392
-153.031091931066 -5.83179704643523 21.9917903945791
-158.192990836685 9.39520633410529 -8.42158726393456
39.2777403776308 -7.3005747189741 -0.503370571196882
-179.342822181268 -18.0740460857592 -0.496389536378931
205.402743048259 20.8487094564276 35.0372807493097
-221.86728401661 -17.3821238759458 12.7391400448452
207.157346710256 -7.84073859744602 12.4235267112135
-215.670022818505 -44.472270296652 -7.63551135098756
205.498198999396 6.12789368230635 20.3567325111703
171.015854647211 -15.5257838860379 -16.5932743695274
-178.097867332745 2.72130355662992 -13.8278909967857
-208.88132817252 -12.0665168140017 12.5221424327535
31.0383923122311 -3.25642345226379 5.20627073881641
50.7146797466719 10.2714658036233 -19.8734572831896
199.214200796997 3.19937066973748 20.6559624080071
-152.310135042351 -9.95505767684392 -4.10880338291438
73.9643998187524 11.3738585778373 -1.02287300315176
-202.007091638143 31.044506146556 -3.79634921485142
181.465348586707 -8.31105571603039 10.7223004983963
-195.726510214563 4.82077302106455 10.595380669569
-174.570867061074 3.46023572626429 -13.1540764384183
-210.068740968737 -42.9493268692127 3.438872990051
202.864496972028 -32.6689081541503 29.3268555722348
189.7289990918 0.064830039619079 -17.4903623947255
-187.802399172836 28.3677439428717 -9.21340492721678
190.747473924818 3.40891326340465 14.001007267636
6.9231470463165 -2.78781100490381 -19.3799045738894
98.1941326734585 3.94216611073746 6.4720954932401
-195.163495353619 -10.9352313848762 -14.8703336908902
202.883864114435 28.2835678826792 31.047946428864
117.076820102228 -16.56295784584 -12.5692468425213
-186.550310538285 13.0307054050468 -17.3035381581345
-122.985878367556 21.665777434684 7.09871599162441
213.800045845202 9.01513446519534 24.5904968648895
82.8499803986196 -14.2771516468387 -11.8174964855349
-154.052971954332 -10.1016000702392 -0.0167323923015111
190.715638502193 13.6673078823831 -23.6873713849527
220.369142502971 -8.38449769498656 8.7623524805321
187.718156805862 21.6983880890741 24.7053460969765
-226.950667935973 -22.092484046322 8.51222859656644
228.064157253744 -19.4055916494465 -0.746359562771808
185.251288069196 -11.6546396532975 12.3494660468328
-186.626260685092 -22.8703417818335 3.77234296520353
210.093630879307 21.132807624246 33.9217867907889
222.204851356573 -32.7876712797841 10.3289056296392
-6.29599347688421 4.47571651582262 7.39148304666979
-5.00775461508533 -0.507793961039425 6.28822181614643
-190.975171579756 -4.55978972069978 11.5144191145297
-145.056349875969 -0.906411916568883 17.9541344811592
169.585476360744 9.12924282823449 9.80559063969065
-146.099588771804 12.5873874701267 18.340716841933
-40.5098338907394 16.3337259240701 -14.4758616625305
147.278026350344 0.940431733949257 5.40674623688928
-24.0499094420164 17.2556785347584 -6.28398753456305
187.27400449363 -3.0845255080103 -19.006382084447
221.087642873115 18.7312828132426 14.9994254914133
227.063164409576 -32.0798004923803 15.5640988092014
89.4181787012835 12.3632138512342 -0.758127375765421
75.2779112433205 -11.2502930046545 -3.34128837316329
199.642665862179 -35.5236117737951 22.3523629691212
68.9809182405757 1.04151444881393 6.48487049088371
195.168128137641 -22.4714648420606 19.3939742521447
190.80586606745 -20.396223737082 -18.1527815319397
-118.881555048293 -4.80701107369998 6.70547831475835
-203.323086792608 28.9565242547754 13.7903707990448
209.046271286229 -18.0081005987892 -19.1012573820441
-199.865487130755 31.56647664226 4.69646991086739
208.980625141104 30.8409344288878 2.55032327476186
-3.83856203517888 15.8500216876659 -6.36511571692919
199.042030206858 -40.3845705173164 8.48106662653537
185.284850431643 30.6589177561019 10.8367711828288
-154.878258434213 -12.7416885785175 14.1060179124766
159.160509520872 6.45603049222347 -22.4039106753443
-121.034501081627 -5.04559581790462 6.69878542344003
204.024290970304 32.7132501248052 18.6760075280381
65.4096374924662 -10.8329938541247 -15.8287446990779
-54.6534789468709 -8.12857820906754 -7.91669317448598
208.47711890635 28.8721532963658 32.8046999547654
-39.0491545841651 -3.54329515626217 3.13490752608614
-173.439035476223 12.5568553827875 -12.49093414785
2.89059709379962 2.67522967741461 -21.0845224714074
-55.8045023771937 -2.6919381675816 -14.1969126514428
-175.195922443396 -15.5305843696757 7.29839330889824
-56.5818163369829 1.31033015984063 -16.8183549546859
-161.49323509872 -3.24438856066136 -10.7726696063747
101.299039275248 -7.86862247392151 -19.8111555912415
173.55148590657 -3.68077590783868 -20.2955661342579
135.03518521924 -18.0546727237812 -10.467826162604
-167.338383355169 10.5260126817839 21.4432247207052
-3.97004268105283 16.201304422238 -14.0718980145215
187.262225621171 25.7726787156602 22.9641990846714
-31.0762661996707 -7.43160183806722 -11.7261031559481
-132.65575574145 -8.83487744851676 1.44322650962517
-166.078449925604 -14.6689382680791 13.875744049684
57.3331433012149 -8.08641035591934 -17.92502250265
189.461385009388 32.257387919807 9.57022449592992
37.5126944221036 10.6111446042351 -1.11462518531063
180.364655547604 -21.7504910160056 -12.657433068298
-224.203024471958 -14.7762280025762 7.34518869932279
-176.03289191285 -6.01723536643483 -9.42503750738361
187.842264760115 -9.63744261964417 -20.1637992116443
-208.287450698396 24.5377610199381 13.7960736359338
74.8287262401669 14.0714205277084 -5.5471612748807
154.743338542242 17.5525030677226 -13.5427030321918
96.2933047471086 -14.3321312648194 -5.09911801184745
-66.7362297892146 -0.0176976362174766 6.99894428025579
3.34552003581721 16.4533146592907 -11.0579540965553
-225.592091760524 -36.0646739457231 -8.20982823293505
-196.637681546294 -31.7868669348199 14.9706500612363
177.973803138061 23.9087193718389 15.2291054821253
-203.204339471192 -40.5147484131451 13.5556929019194
-180.444490126229 12.2057476381335 -14.9838060912364
-136.217097338217 -3.68145777935147 10.6262721117172
-102.699041766932 11.1136420510027 -13.2348478848824
-191.453325450868 -4.81237442410878 -11.9891175580291
-152.647441689449 9.03608779382574 19.5166595598624
171.572168568625 23.1209478297878 8.59409448341866
-153.641267005923 1.50309577796766 -8.89156221828857
-102.092377086095 11.1692033639884 13.7103039443733
72.4385354352726 -2.9538964448034 5.04914762259075
-215.48381360961 -12.7438811714086 13.0080624315363
17.4097273381324 -10.5056174534472 -6.4245889966738
-200.094233683569 -39.5712315679024 -14.268827970237
186.114774482977 -10.577056156257 -20.0173644719978
-197.707425962001 32.0371585323107 3.3480810879348
29.5082636869667 -8.96887507978332 -15.4197715199451
74.5678600091146 13.9542870460091 -14.077221058144
28.7138280697552 -11.1015783058881 -7.30756085767494
-209.092451227476 20.8103497642792 -6.06830913880569
-204.114225626051 -12.2179455640357 -16.8468563536782
193.932468248395 -9.84343158343751 14.3918048808593
-190.4096541111 4.49514577920497 11.7670626217676
144.382216165781 2.01538697242569 5.54551896371255
-78.8939548043181 19.1711961467195 4.58641931736208
66.5384684575785 -8.58232656779357 -17.9011442545826
215.125664312554 21.985738390118 30.5771956585247
186.194974253491 32.762973388437 16.4990522722351
-195.151561821434 8.0901768888751 6.80772852434852
-132.670411022678 -3.75168237997008 -8.75366350591635
107.893270154884 -14.6561981065493 -3.85321898511218
-214.042171272712 -34.1273611999422 -19.3157398286389
-183.357428416431 29.7357444896554 9.91566233533195
191.690003469921 -33.0589469511298 15.5175759694401
-202.748881067127 -3.00905662762631 7.40871892217988
-89.1684553420583 -7.04802396234059 -5.94470946098813
208.282922759251 30.1619453363235 -0.157208412677314
115.671253123608 -15.6150785351406 -14.2386877537294
56.8240777200806 1.15615024771366 6.79430373160548
171.20156993854 -9.40560761550956 7.29224632687526
-46.6010870228098 11.8000634982412 5.8962396590508
199.830159361908 32.1534760303012 20.4628060013608
178.178451684495 -2.45578035133371 -19.8070331868022
212.181362406304 -11.3882465327565 25.9253918854808
-123.812899816722 7.45262532929798 14.8563617182858
167.706981031662 -22.76457866124 -2.45673332750796
-67.3185879416592 -4.80154587545968 -11.5489024814711
-178.018111333742 -12.9751006375476 10.8131097567251
215.320789385697 -18.8657532364822 -15.869207329913
-69.3909403425362 9.01964068797943 -17.0438892888864
-217.093568590327 -24.757239186006 -19.6222409419135
-176.512239547832 20.5841931551322 19.5000333527057
223.947769909338 -14.6923801257565 -9.4321503363954
182.486819076506 -30.2130566082535 5.71908326943082
175.797106758992 15.7616450194534 -20.5323049086045
50.0981225291618 -2.06527505225081 6.49299778635901
127.305054347459 -17.6786313776468 -7.35940085592846
-103.287980380855 13.8080567465187 12.929277537871
8.92431893841693 3.14539333373719 7.30924743361087
195.095029585283 -32.5801874398262 -5.91250062900441
-220.480855081125 -11.7822006227024 9.03658288564241
17.6760038826376 8.10191962463209 -20.8895719736649
164.318402092938 4.48962828346741 7.23977704140514
204.539139609875 5.31215269912622 19.1576437863379
221.011570764315 -34.5437422185461 22.743171045894
-193.853256368979 35.2357894239813 -0.678140898848238
-43.7641051054914 5.79245050398875 -19.2405467296481
-154.867069621131 22.0913988635079 -6.82874324875037
-206.176223685121 -30.6443620632547 19.2949591121715
-200.692377082063 23.3297970370817 -13.1706544124327
206.616499647732 18.8375166244253 -22.2491025354908
-191.087581839264 -0.582512415494521 11.5901126909305
-165.69188997158 -8.38006440270099 -8.84253768983934
106.807737326057 -10.4750136182096 -0.059563347080691
223.089440960944 -22.3777839755844 -9.58899249365355
173.100636739339 19.7924734807518 -12.7212992735227
-133.975242565482 19.5192695696242 -7.80217459687974
-123.792952915223 4.12041434544629 14.1071154276917
-91.1340029379398 -5.20146545408207 2.74316285670293
-179.831972605028 8.00055898062554 -15.3396430487827
-108.241749081499 20.9401585235483 7.27445760004184
-157.32657918734 -13.6160453978319 13.4560110341616
-83.435051745454 -6.15727975556264 1.21492550694736
-217.377711666911 -42.1655676341867 -10.9513949256014
-183.98437019116 13.3360457872511 24.7585765228869
61.4036187906388 14.4690297573373 -8.41948783379714
-202.793820756575 -11.4372730750122 -16.7327578898089
60.0834582270097 13.8873917486171 -5.84742110928076
-63.0190453588867 -6.24091790857917 0.417880201475419
-182.629146193931 -3.27117681799916 13.4381099457841
196.241339242552 -40.1950046080007 8.98338698427836
40.6493459608758 14.9701445670185 -11.9240713628327
-154.399129537873 4.66853970937302 -8.32329972648801
171.026232348328 18.0100942644635 11.8975745198528
193.502261205408 34.3171864519689 10.3652120461707
185.893171435601 -4.68566941034356 -19.3340663898333
165.10876803761 12.8218106310384 -21.0912415441354
201.214390439209 6.52440456959617 27.5968522534477
-167.153969564113 18.1561180857871 18.4393711527431
-164.400410603652 -9.68832017182535 24.7491902717518
-177.529011095032 -0.93193409320853 -10.9546865034964
138.219747469875 -18.5128061623923 -7.31810098591661
217.407468208252 5.38513814245468 -4.6578507557918
-197.060967789106 -14.2024112577109 13.3445788619305
-174.619776116906 24.9293248350471 -9.13462209262065
147.637051768877 -5.05976762893165 -21.4709171801448
76.8139919962813 14.5192802135973 -8.01168627579799
-79.1558926058173 12.7322180338253 10.9206963499426
206.32473419221 -9.69093218631637 13.5115253437614
165.492376122584 -0.879738047156636 5.97782707676197
-208.54866904864 18.8738896185478 17.5104431280437
182.116195865721 -24.7928228889115 -9.67871860441316
-107.71605923583 18.6789633172054 10.55737305442
130.701394860635 -17.412149027394 -12.071711402628
188.138688843624 -22.1567206066938 15.0041887117025
206.820395700434 -13.6173536908291 23.2971572455629
220.81658676387 -31.3646991521403 2.92892225835207
-201.319391853205 -33.6551845142142 -18.7650778959167
-188.419303967201 -21.5540839771679 -6.27599542133705
-140.510926013151 15.9684102783029 18.8037235470911
-196.240930497985 23.034725931221 20.2146488367638
-196.267602216232 2.90040953982492 10.6790074726132
215.880006714189 -10.1739391156391 11.3003554307137
201.030702460031 -34.9597611138561 25.6501623472512
-192.620417298745 0.972633223967776 -13.1231842682831
-216.748912902796 -28.5964732333308 -19.7173205464396
-191.297322502525 21.3961196293028 21.4156642024377
-222.056929489021 -13.1553383436605 -10.3566684249103
-36.9326665397141 14.001491451041 -16.9719223187817
-138.360669383159 22.586020939343 -3.71944184035202
54.1936400506448 8.42116184290466 0.755762448702102
172.105548530212 23.2567009271143 11.4786568842335
-183.276853825504 -20.6847995830805 5.02339614857558
191.504043768764 -26.4228362612532 16.2943318928351
-79.2170532458647 2.25317440324085 9.620725354493
218.643102482521 31.5409198268068 11.0277902011192
-93.1075118447271 20.8198423655244 -1.9499011194228
190.062773203648 29.228583812081 -0.329987522701893
70.4101785161359 3.93703388665925 5.87490560317093
-171.275544606247 8.8713474998629 -12.1609611278178
37.8781738762565 -8.52342071270642 -16.5486239789172
140.561976934603 11.5055426509195 6.75709108775712
214.73812993504 -30.7693449002865 31.3968465170697
-206.065877481066 16.501743844191 -12.0148385480581
-208.845558230757 -24.7632668337299 19.8372391242728
-50.724677688258 0.645544224884698 -16.9959961526901
-121.866957544634 -8.03053906532092 -0.785557643761777
202.74711678351 -35.6938990203877 -1.75757501538523
-196.077205759573 -4.78482249646501 11.6422506303539
-189.941036754491 -10.7627814471996 11.6738243283263
53.8488496572036 5.61682722100892 -21.5789609205605
-213.949507510338 -25.5011768781506 19.290331552323
160.391655249802 8.97209715842941 -22.2974206761718
-19.9010612057181 -7.81073026303036 -2.08093288467512
-213.548053138138 -10.801465683385 -14.6751158578851
-55.7937821455883 12.3716319643025 7.50780550288418
144.740588338032 -14.2924642705253 -16.7806349098076
211.026187475336 28.8873449973616 -2.61514990464856
-217.772064469191 -13.9957631844435 13.6278478219209
-202.720198335801 -43.2563300898457 9.89764138347033
-201.121649927357 -17.2894066282441 15.573297534554
-65.677875783261 -7.85747516664366 -6.51755731426776
-222.915869837376 -12.4976022709328 -7.95946138307557
213.79506057116 7.55657934033056 22.7572345333081
193.489312089691 1.53028575860921 -16.8400756182111
193.052044742946 -36.5733526357988 15.4653542090621
-194.686301485368 -29.8909101854326 11.2118515377842
175.304368397396 21.6413093746121 14.0946694557672
-213.768428101939 -16.3041616781035 -18.5487189871918
184.284869925448 -13.9679677405247 -19.4287700360764
213.472964791267 27.6287681312137 -9.3247426032085
-10.3842761470327 8.29925572981923 -20.3438219113515
-128.391750382792 18.8457278103736 -8.42478179377008
-185.927400731882 -9.62444921123993 11.4868880041917
187.315446355144 1.35859119360648 11.4725321747519
91.1587654097879 13.5266856111144 -2.5329470781736
-158.355299713412 15.7781793570057 18.353157965274
-121.025888679016 20.8498078032479 8.90861470578609
-220.223420824478 -33.9757680190805 -16.0311509011779
211.27198780271 4.58340554553171 16.5290822209717
-227.958645167881 -17.9003802109795 -0.81365606470351
-214.062137086539 -14.2124942618853 -17.183834849592
21.5702216466734 -1.26904336072855 -20.6829451897867
208.213661216624 -11.5285658043421 26.547113646151
110.216026676449 15.4975782321642 -9.40749321775941
182.293143747081 -14.7840568673468 -18.684761213584
193.365985178349 2.67707090650988 15.9435343371104
213.623460428248 -5.8700136374817 8.11457416253814
-210.809192273106 -44.4167195590912 -3.10825599671932
101.995544467019 14.8223511155956 -11.6844387893519
222.552686726825 -10.2009899102141 -9.24907570405739
212.16609726781 -36.0093376870592 18.0621981735833
21.3232817184766 12.983320708223 -18.1237077342633
-140.643882702139 -7.69510167128581 -6.32226582879012
-190.828853946848 -35.5610466243681 -2.12750167275115
-118.599960626083 12.0378288615855 14.7826191730927
146.808308549712 9.40570582249168 -22.2371495821035
214.206274699169 -11.3034185219877 15.6895222496389
-4.54089056657101 5.96264605407566 6.09357811644123
-11.8816175392955 -7.14005797705599 -13.8997282146976
199.889278401243 -37.3475936301865 0.491676765130322
228.995520919032 -20.8127116221944 2.43294928901348
120.33230160335 -16.4196729236034 -13.2561740068612
125.125258983945 -7.81794165213652 -20.3521991610609
197.552110787006 28.0202508008178 -10.2009557408769
60.3804848448535 -11.9995872549943 -13.8387381732984
199.582715645111 -9.29110384582659 16.6591281716188
-223.886607956914 -11.9559355553751 1.88535210440197
-161.258315702949 -12.2223846946076 3.6988882884994
42.7210379074184 6.15427161324284 -21.4788926202955
-209.331557227518 15.7907253067614 6.98892192272107
-173.470762159519 27.9155376157337 10.5851392951766
-163.815479717847 23.5714898317327 -6.85701245353038
-218.295055421676 -37.0919757018354 14.2454177264326
-1.95907866161239 0.922658121835302 6.9730769273909
-193.906200507095 -15.3876102853709 -14.6535726419314
188.122502363188 33.2225520739941 13.2216474525153
90.7263716503316 -15.1066015449766 -8.48058952652403
129.010194175977 7.60470767821437 7.0724503283685
210.12479935719 -11.3780811379454 25.9534618312833
185.948488748004 10.9365651884001 16.0543870557973
-26.5259759547197 8.3736346459687 -19.924844306405
179.025363728906 3.5753611333764 -18.7343449338599
212.927620690131 31.3058702074335 8.16289089515471
-88.4782954999909 20.5853227200302 -0.0203303718026097
-122.823167805012 14.5706016271981 15.1081089848715
158.908544344625 14.871052938855 8.68045295812549
220.722507655541 -15.7534723351619 25.9821727734642
-113.288875071915 16.8888504346783 12.5818589706653
-219.762648816207 -21.0247068511013 15.9961764333018
-209.604717004974 -6.17157032557714 -7.85195834268201
-137.367489886618 11.3114201178109 17.6806364397113
178.426868114914 -26.2773126906459 -3.36278855018264
-102.732691383184 -0.268765560704097 9.42058889107534
-128.103297545713 22.1655037907944 -3.04508787602384
-4.40722635786833 -0.132153765490235 -20.134550243213
183.833284842729 -30.4169752627976 4.08343590798178
-206.834456063894 21.4892542248166 -8.43161771371107
216.698941443238 25.9238106508676 -7.55179726941846
91.7838412402586 -13.9362626281985 -14.0314570595452
-206.696888873329 -9.96619357152409 11.1881644622101
188.859010436684 29.8892845173663 4.05144063465509
179.67075827128 21.5442494498399 -12.7078007729434
-112.012619986977 -4.76218539783442 -8.48514207476119
177.878731679503 -19.7208661939197 12.4793344392984
208.004953788615 -30.3164107879496 -7.14457595212263
217.492234527959 -4.12117216792588 -11.4827409312545
59.603533287763 -0.240663751857322 6.62587402995055
-134.573833760033 9.40415395692086 16.9763504509054
-110.670367385603 11.7140648499255 14.4413256770236
192.891444496532 -21.6183261735984 17.7646294172678
177.347503457563 25.5849349311863 14.617171552459
186.674823648897 14.642539249414 20.9092997205179
-223.364631723031 -14.9771487671071 -10.7518669458345
59.3889601712078 14.686642567791 -11.0891301400461
-224.145833160872 -19.0445100701632 11.2138416088206
156.583452993427 -13.996124191257 -17.1873769120136
-195.45920417139 -12.6573748534198 -15.5014329705988
-194.71360029567 -40.2215681940957 -6.98654672975397
219.242717043025 12.5100596064649 -1.17704514746328
-143.769681576097 15.4497872892644 -9.0770075878569
-128.458715052166 -7.52694792779562 4.28095532912403
-191.844736521808 -37.6213627639279 0.509802129707482
-129.667094156822 12.2886086785388 16.9120081927865
-220.684624181869 -8.91450624057553 1.2854033527047
-1.4878440422144 6.92307999405811 -20.7875717498707
32.0001760249381 -10.7915501071635 -12.5798200707417
154.278718181178 -11.5475277176897 -18.6135776421952
-173.003398405193 -11.4037590650543 12.7112747951859
56.5866998014313 4.43983723299399 4.47355326039127
-196.465262090337 -39.7408825738647 9.34110622220301
154.472292449884 2.74915648916078 6.0907788745616
216.152094548944 13.637071372028 25.7109695771543
16.6924935766259 -7.12599993051386 -16.4571976983548
119.296846459022 -3.07131158770698 -22.3018360834206
-155.838658913002 5.29186910982089 20.7866091557681
-225.136520732512 -38.56588460213 3.86204982073462
184.979985211168 12.1309274398301 17.1998835078471
-179.857580896385 -14.1111063525544 10.3189193394944
136.970866862548 16.811183715848 -0.736805373336896
214.478773312297 6.78297879588214 20.572557307654
143.836788059046 13.7789058417072 5.72186324757345
197.361196510065 -36.5902465569331 -0.862733339766123
-58.8492429726706 16.4712112992474 3.40505143923734
-19.4801254443967 -8.53606217804511 -11.3095750404789
-171.34446247868 -2.92494869485481 20.8322555929142
-217.318372831446 -40.3217942508772 12.3788753596086
-131.665801191273 18.6259463367761 13.9836778241543
59.5501441268168 4.30845812582298 -21.9171980692147
-187.816342879108 -16.8920232931387 -9.20699385054797
-176.193885661765 30.7633185856016 8.5436070973612
215.902196287402 33.4284376210436 18.0594763208977
-113.765608938782 7.16616118284117 -11.9856592821854
-65.5198189944308 13.1138000914822 8.87958642730644
198.931220000126 -24.5221322844658 28.2866181709332
25.0294965462758 -11.0708755330979 -9.6283822629084
-129.742043801119 8.63975530992839 15.9336344151249
190.468859817839 -8.10126180817011 11.6220090965349
198.534997764718 -11.8086577700146 18.3141414334018
37.3782302243046 -2.60900953991493 6.22587995342369
-190.020039767217 -3.57294471026542 -11.6476040162135
-194.738520606462 -18.0932810433631 12.6008141638463
-40.4947341434137 -5.14123009405642 -13.5362010295762
-198.327221515221 30.4901360377209 10.4581159436273
191.521222911104 20.1934853934411 30.6189736083665
223.74868268952 -31.2795829554108 25.0002749675289
-202.400773609782 -26.8436351928368 -20.5355071160777
177.605197938134 -23.202214206318 9.95887032536198
180.195289301439 25.7071901125265 7.76567964220826
202.174449378152 -39.6318943118066 9.71131794537056
-66.6015259858134 -2.17665919710803 5.17901131031055
182.142954752099 26.6442270357538 7.29090531008369
-49.5771869273844 3.21504133507213 -18.310499962942
74.7412663916756 -4.43565812080258 3.11003916369289
47.4310046249685 6.97817869999887 -21.2621619595709
-170.675256787632 0.855156735914019 22.8818342420425
-220.144294135641 -12.7954944872932 10.5745425611096
-211.410787645083 20.4143664112994 -0.714254894103508
-201.837509538395 -18.3505528148742 16.6342743004151
208.802111305623 -32.6491390639975 31.2445319925155
-38.5454664774527 17.6800310921101 -3.69381439638209
64.7348368228769 -13.2577249520206 -9.73605017354237
119.032425472346 -11.4944018592575 -18.0797733900613
197.346412519236 -30.4216849267275 22.9502247160825
198.897255924951 -33.2983624987716 -5.54578758357728
-45.1793481694959 -7.98052021768968 -9.81004364740124
-30.2379720400947 8.22810111851055 6.19029677150338
-27.6977845187166 -0.973940826535881 5.92710170226025
181.824287795212 25.9594577338884 4.8394710128007
-122.100799763514 5.96458052784278 14.4448056016842
113.758706990401 -16.1657958417346 -12.9820845728745
-154.279880067929 21.2421029382637 13.5289906162348
-39.0725915862249 5.74610979692576 8.17852718886152
-201.189012310857 12.9527213571561 17.7788860271627
-132.9973962739 21.8208567504589 8.02988455267992
227.905509634504 -16.4957984003796 9.14463221125891
220.578115400885 18.3147738787442 2.36474463488138
156.300161888247 18.6747316564424 4.57360473670973
-225.338560217963 -23.4242098889304 -12.9928407919982
164.019310050526 -4.16915074365315 -21.1592779458221
-210.126112109747 23.6992104238493 -1.8384752660428
-82.2691436902516 6.38401985628207 -15.7860142842854
-134.414627014441 -8.95323148020082 -1.10053802307028
-173.624774412472 0.86363217721525 -11.4961137873568
-198.503375688072 -44.5153474913085 -1.05809722019113
197.301537078411 -15.2013885696091 22.4440242550582
220.293956965343 23.5963396205857 1.59244622308741
186.716587053793 26.2928697839498 -4.43448582566497
223.45771316931 -17.3998700520169 23.5633186004931
125.132413700571 -0.37614916622533 4.97418993911816
83.7462014596468 13.9635352877214 -14.2738039924623
217.870131588546 23.6712326175572 27.3793754374949
193.313431173661 9.0769563622065 -21.2926265865475
-75.8121408685255 19.8081418078538 1.17045701052289
84.1689785819387 -3.52774747263407 3.99117814925837
-204.414166977932 0.0513753815573167 -4.47935658631322
169.111886644672 -12.3400141731378 -18.3689747145046
-139.194150362468 17.962924095456 16.6402953184866
171.112035080837 -1.28079182767929 -20.7393410573987
199.189214867768 -28.6581711698663 -10.4057804765426
202.679181904056 32.7907602287602 6.31928078509082
-188.503033390461 -19.2401201454428 9.20006448205886
192.116893526199 -27.4789186280165 -10.7359687349975
-99.2713309556857 9.90424809066001 13.1829101031291
-163.364064768946 -12.3464406384384 -0.209701955835439
-221.581727523304 -10.4118687215098 4.58281905713864
-82.7880625480098 10.9617381124634 12.1671993953131
66.1561413383365 -5.16877578475186 -20.144383723913
202.789339335004 17.9466842772309 -23.7083990296297
146.480955405529 -12.0034220173546 -18.2843556630452
-186.830182803992 3.30659012504025 14.3267078337188
194.040361696783 -24.9822703270355 18.1996555219569
136.302711811104 1.99515759421132 -23.1708234611424
152.301509029016 -4.1151074282145 -21.6043773296569
-212.136613527284 -28.4793818428651 19.5928279211747
-147.57759933003 19.0417827756279 17.6100787787187
214.524718568373 -2.61449408085199 6.02514452289055
110.068012442415 -15.0932978438916 -14.4951929416237
-211.15007644296 -13.8683994903557 15.3042111088489
-112.061630184834 -6.40914304624414 2.5443303606965
187.572867311964 -32.8211315802743 2.91616305654848
-205.407862058609 -16.1606490163137 16.7298517553816
-134.200157683349 -0.0403303697323055 -8.82252979632221
-88.4737868167681 8.57442894455281 11.9284295157861
-69.2486236390388 20.0209964994093 -2.94750602474002
218.507868344096 20.9893939592135 -8.43383537714647
-170.712378620115 12.2628813623777 -11.1978809033141
-101.458479235984 7.81747307834929 -13.6111447797632
-170.328961322121 8.31637772854574 22.3721687170535
-168.051153757698 4.54212648061083 22.5518485027916
-160.619940525419 -13.4243708506531 22.2490222288796
-141.792711051906 7.31807223718957 17.9850584888494
52.7290408817969 3.5636793812006 6.0082796686437
-203.346660313199 -30.8966494135269 -20.3344346723221
-70.9684594061764 16.5383093800029 6.94755477227706
-66.4055989089858 17.4580462960769 3.93276447613371
178.718290011896 19.7058289268512 -16.4489093402841
-62.9990038206075 17.9662389453392 -11.4227560873033
-150.728142107614 24.3216046283755 0.421995195411816
173.688703127414 23.540706295225 12.6728585105883
55.5136147819277 6.99825262958421 -21.2497807682743
-0.495528970492183 10.0108990619455 -20.0203274000367
32.8880355350156 2.05797458523627 7.10025968095791
84.3457843824507 14.5850001776856 -7.0187980585024
-179.638472415406 0.695107595764131 16.7820980544123
30.6640148342379 -11.385920245343 -9.91788605235801
113.814821840044 15.6203053003663 -3.96561116437291
-176.65146292401 32.6022668607794 0.651409743449979
-208.079297960633 -18.6445894339526 18.5441038981239
83.7749566406656 8.44159578233333 2.36179222980853
-6.11408581804718 -10.0966217260379 -7.69923759644208
6.09245264036864 -4.29363882671772 2.26691987841942
226.454884484738 -31.0835096637475 5.24243029778567
-143.302645065156 20.3679545457515 13.1498832000587
58.2307132075464 -12.3783508170027 -12.6977690826162
93.9078962583423 14.8693771413596 -7.03768872752564
-173.529381879365 15.1578243510958 21.5028837297722
108.655987029212 7.93189037291741 5.05670529822515
87.2466881836137 4.4838454549072 5.94562376651116
-48.2601621960643 9.75388868083368 -18.579319621601
-45.9020160823425 -1.55093364032488 5.1196690137767
64.8517155814878 -3.39774413349534 -20.963388841301
-180.856005974287 2.4242991102537 17.3113492727015
154.736206127712 0.552677926222653 5.66034424220152
41.0925995288109 13.3165901178019 -16.993908312006
6.79471826171808 4.15862238206358 7.16843649930467
223.100576311338 -14.2906782583736 19.9061392584931
148.274747500365 -17.5423884426081 -1.69061840572504
110.770610596704 -8.12661658493782 1.415981672335
-202.577252699548 11.3749554433045 -7.83721930328066
221.745016146927 -29.1715755966733 -0.911757985367357
-198.679202090319 -4.82322141301733 11.6365229274147
135.65000509033 -2.57818272965462 -22.4489081486303
-39.5517514737113 -8.77779586435199 -7.93836211044179
-105.153757614958 -6.89272317793102 0.394489696373632
193.518991293338 15.8775479674932 31.7307957979967
-203.121769993431 -0.714656734613846 4.67543197550518
-35.094453699748 -7.16496724516807 -1.1510993200322
-180.708731900264 32.3070225967163 -7.30526216989834
-179.152779509254 24.7733005235995 -10.3822980817963
-204.236080224209 2.69591772366499 -4.10323214929877
213.059885318143 -9.97593247216126 12.5154009809418
141.980724598694 9.03119145017036 7.37262467041825
-110.183262770094 0.163494382677139 -10.6724311225943
-174.439284372034 26.5878406365788 -7.92067325607065
-178.850670622978 1.63715650474822 18.0481605650841
217.876237048569 15.2048183063972 23.835979600256
-181.201951430803 22.1780220492028 -11.275498651126
38.4154630402433 -9.40162782419305 -3.27859076581214
224.59890795894 -13.0525816534092 -6.46216766119569
92.2840881051632 -14.5042639373002 -6.02597985309236
-189.948492528842 -19.7530729751842 9.54064282810549
148.423511816027 2.67246715524692 -22.8124924638605
-183.458446653674 32.5865683482797 8.29692913228982
-228.036659513839 -32.6536057046277 -5.49343873494414
-105.638970781662 14.8069663761573 -11.9688918723378
212.32131047033 31.3147986751833 27.9731633943628
69.2700357566675 14.5185513181093 -9.86000204157861
-214.206437767299 -44.4320152481153 -0.889415408651073
-203.754523026882 13.5852686310505 19.4373677587105
53.6258420702712 -4.84688989098588 3.42651917432784
-204.431790128876 12.4624107495814 -7.75704794274213
219.10195319481 29.597631931712 6.47503514799315
51.4465780355331 -10.6719831264252 -4.47993262539913
106.475596697856 10.1608582933974 -20.4710687047552
206.681430779446 -21.9029884880092 32.226271069146
187.2802188021 -33.7133900270374 6.84368244197374
-226.656522579726 -20.0538965818515 7.96050311183276
121.689137823342 16.3287370617281 -8.36668765838758
-5.9084637748737 -6.51575524969691 -15.0590167432334
189.705671309169 31.3422427080969 7.29999959857002
22.355615184528 14.88477707369 -7.0033709501581
221.800596458328 -8.90253669670244 7.29787133395905
40.8463278383362 -11.3364025399839 -6.55356109812105
64.2901545529608 0.696243230272972 6.74810520813858
-54.1939546367487 1.96355374035757 -17.3884671781399
203.176800004041 -38.3727217754447 15.9769348245928
-3.71375787901606 -4.70878468056088 1.74412478889672
21.5968101483059 -7.64701294021667 -1.4144438912591
-197.331903727478 21.2458776229347 -12.7996065757365
-60.2287895352348 -5.45626601430589 -11.4559108554535
72.8513460833351 14.3902181953611 -7.27309847000453
-127.390236128728 16.9541448839299 -9.47343825336273
-3.15428274339195 10.2121846972313 1.44434393915769
-223.315251199497 -26.099124604055 13.9897944633908
-137.476478490538 1.65907468027368 16.3259984427337
220.716825484719 -34.4952369817646 16.4259396217807
220.957770896914 -32.0498257532403 27.3570507212447
-220.472949016959 -31.2099489017084 -16.9625859145445
109.388952861065 -16.6276934102619 -10.1761243374236
222.219802708048 -19.496268016391 -11.9968888627571
210.051759702109 -15.2344917735521 30.3961510723702
184.428187886756 31.2807202839122 12.4145389433991
-195.96812579464 -42.6497762912125 -2.42162376900411
134.754606406775 13.0538177968118 -18.9635336655567
156.023540907639 -17.1895481128238 2.27390750524982
205.865299217268 -32.5626246982115 -5.39943116010608
217.998728511426 -12.1821587242884 24.0487123886868
-210.140447239944 -7.49907208708114 2.96422996011679
-43.6176957606064 -5.97128353934393 -12.5497646846091
218.935900007567 15.9670113846996 21.7877976187001
143.524994161313 -12.0692054686516 -18.2738154579495
