-166.686645111051 -25.263851115722 -5.77021984873899
188.565951707787 25.7490500030306 17.4540979115843
-38.9186684925323 2.85343117821976 4.58896268485062
185.742960250646 -34.3333974373046 -8.53585643948945
197.550963507931 -7.39476808626407 -25.5292963008793
-40.9642121457178 -20.5719658844107 18.0398271895303
-214.180216118916 -36.4673262441479 -6.06195328767602
-155.828906974958 -0.430283702181206 -17.8667257752933
-221.349545451395 24.5835594193475 23.2044344902964
-237.118174249743 -20.6101731330871 -18.1629613792755
189.590572650324 13.5913205394983 -15.3017019097191
-185.083592166953 3.93061550942884 -24.6007699812722
167.979064905829 1.53502614267184 22.2717137252249
-249.84167080287 33.6611262270086 15.8344075171515
127.724966496818 4.42802377803328 22.8078090820276
169.024620575176 -25.0936276821469 12.1087565600537
-214.309570409523 -29.2368494411983 7.86768907148415
64.5921937272366 2.41558329470013 23.9213454757298
217.79743743354 13.6094191530688 20.0521762339824
-235.478265599135 -4.6255255395265 -17.2796628899459
185.432146534558 -22.1237652165711 25.5415671233329
-247.002093985966 46.5615586177929 -3.53042037303562
-231.793447238389 18.1409045542281 22.4461013147807
87.4190011541126 7.50027506849391 21.6323503616056
-212.056763097964 -0.321274880928652 -16.6761981414308
-8.50779428562582 -1.63533548183231 -1.68495477642623
-196.786013702402 -32.4846196979353 -5.73849273173962
205.44967173038 40.8617214308378 3.75888611339173
-183.611289167213 3.7974100881956 9.88723282751853
-173.065231255964 -16.8275498491511 -21.0591296855154
-218.317316667096 -18.9180833477989 14.2196216591378
-239.767603940305 15.6723380443254 18.3118363628374
-155.913593435561 5.82869184582625 -15.191585526136
134.344235143111 -2.72982064943905 24.3631517687172
76.0995137278502 6.2521548963495 22.2278289962608
217.2667832085 1.09536162387812 -7.50258940003372
39.2287937399289 -16.458796827419 4.15735374377591
-181.89456456999 -15.607188993178 -23.560763877293
-185.923654600642 14.3092898725772 -0.638058440180524
-249.507612842086 16.3689618528433 2.90183811886368
-139.509210062241 3.37097121955016 -9.49766232392881
-151.799118280433 -12.2883601559802 -17.7968997306824
-23.0845895220546 -16.1118324883679 2.25457898512842
-168.045578683613 -24.1598636548346 -0.0795047419152701
186.990378581977 -6.31854265975062 -17.1593945199965
-48.693394627002 -14.9299167563805 -1.01646442291997
-57.4258731136379 5.44624511888523 8.78153107059738
-219.897015941933 -10.4130978355659 -11.3916877893957
66.095106784638 5.20544436745481 22.7050970829045
118.838052961168 -13.9681171969722 21.3142242777301
213.115239305188 34.6263926351441 -37.7035404859077
-147.975539229048 -23.8278216364595 -9.34351297279157
-135.138682398067 -15.2705040409411 -13.8893132661513
-33.748227358146 -8.37460858574955 -4.14298327378343
-230.294661597109 16.3330851315605 21.803386221408
-182.574867946344 -5.76560996627062 -25.0368166813217
13.0449666879995 -1.14348674583383 24.6655501134888
174.737573421187 -28.05136167212 -3.37087195925137
193.835788130667 -36.0075655469334 -2.17500053591983
-237.336166758666 11.715050324755 16.3234836872138
148.709777273031 -22.767583846907 8.56875387480662
-223.669452171549 49.5446949600335 -10.0445297907814
-238.621631770533 -15.9244908396164 1.20611975312317
-115.067397364012 3.49972956538551 -5.02900749225291
-26.6224412170693 -6.11862968918392 -5.04673930929291
-233.585157803947 46.2994908686341 20.2210303974165
193.818395050404 30.5551753850284 14.6763956134742
214.328939417685 44.475111068413 -7.86340160915003
223.536186732644 -16.0367039261525 -2.54659411990787
25.9267604903746 -17.7080357122108 19.8646338427468
-60.571592509361 0.359659903756184 0.131511371715942
196.762648975056 -39.8494724827571 -12.3167699771309
-157.349668616358 -6.76082916721306 10.5738138791905
-174.123279317388 11.7521071743533 -6.08136202420875
-159.912137891374 -8.90257377589081 -19.3891234735926
-244.088470554934 49.7521222642791 3.9617521299895
92.2921686718 -7.49026567637416 24.532298113103
-208.926801327243 3.73527089081464 14.1907870052583
-94.1632300863203 -1.65588174276355 -6.50282315682195
-240.151335218595 11.4991497110729 -5.34019435663967
207.047793348584 36.4354441114179 8.73627914203454
203.130169629312 -20.3847801359019 -38.1483851130583
51.4678911444655 -2.2103917795281 -2.97836114873183
216.038845584282 -34.8250426156973 -4.44408750462747
158.157078920839 -19.2114124614436 19.6561694717997
115.613631605828 -15.5701325999316 19.6701337416193
138.22605440916 -19.7091516780349 -4.24936896869648
-239.645267912073 -18.5958876081943 3.05897384625525
166.261740255198 17.7118775876017 -8.46945654142824
-125.603637463331 -22.6022850747022 2.64892665267283
-215.578817939956 46.6882389510774 12.2645729549142
110.546334295432 -2.71499587160974 -5.80313097279522
-113.851754354179 -18.5539163390983 -9.06021086931831
168.558753339695 12.3466988976623 19.6719138423407
-39.4802245298547 -7.05333799576174 -4.60202124519881
-253.2714011286 30.9234419623733 9.94343582677693
-135.242951358895 -17.7867246906404 -12.5258904765754
-238.574762661689 -4.63431308764159 -17.7032254716608
-226.20277445399 16.1240380742433 22.0160021589899
-212.070615054445 -36.9914901849147 -6.86680853886535
2.74938836122722 -18.8565655084901 6.85558576338994
-72.8250405482078 -15.2467331335586 -3.93706852632832
-172.987289605573 13.4337065467973 -9.8745555022243
97.8103255550442 -15.3585801344516 19.8488191784352
141.637424706247 -20.1011510324191 -4.3090182993401
-158.107467789108 1.76113821547728 -18.5637668991848
187.545511975483 11.08404415102 22.1053760173486
-190.694678447631 6.26470243103307 9.08551876165981
-193.741457531227 -16.2108724833605 -26.4844665334729
178.370037395918 -13.3584757633242 -16.7249351225776
215.832224227085 -17.1713057073959 18.7769556548169
-169.90150445976 -9.13071886529341 -21.8796618949285
-165.775894034854 -11.5773575985189 -20.8507068294731
-16.7124476364095 7.53510378554816 12.6975187671333
59.1885778391461 -2.66528044277389 25.1994380256687
170.837126401391 21.1743046387774 -9.41822030741476
-146.164472902649 -16.7027177754391 9.97288537732798
-74.930253659664 -18.1873166212049 -2.81605206849943
-182.206848283304 16.242708111065 -10.7650381192494
-152.54537300041 -3.95460637143622 -17.0986386323076
-220.60154590144 33.6179575463432 -17.7379451588049
172.307231472242 11.419164481292 20.4856515056019
217.793110318575 -36.0454600466122 -8.73380800758184
211.372052838922 36.9168286146316 -37.4116797950691
17.0067963301266 -20.1250743825438 12.71021553146
145.636033167678 -7.08894686905833 23.9680207497175
-55.2502771822527 -20.4106728606737 2.2909108074057
-223.706997411875 -22.6899544722437 11.5935381119128
210.62802615188 -35.9599985602275 -21.6926991467065
185.430448456527 11.7110904658948 21.8695373800459
-224.101744686883 -16.4331831888721 16.8355532388067
57.2531955469671 -0.55012147684855 -2.54803472091229
166.236701441416 -21.3750399304126 -12.1023828089964
-37.6073245420644 6.64558834316881 10.677410479174
-167.601665766006 15.5962322483753 -16.7473748861916
-159.894074785185 -10.8787435885856 -19.5073616452598
-228.610596385606 24.5668011127959 25.1154599271155
198.706032664285 32.9398598589308 13.1741450436976
23.264595893236 1.08117858506653 -0.128861873206643
-237.096485099079 -12.8883522552932 -0.246440374306327
-240.598950343308 -18.0008931008803 -7.04711504080701
198.084909083857 -12.6219012017341 -32.9766943192487
30.317268467074 -10.7523947750616 -2.00153796179575
178.589160717092 -18.986287237621 -18.6366453224512
204.020229736946 -31.3133610417745 13.6141180186869
167.48401464925 -19.8652946374719 -12.9958126956469
-18.1666371283138 -20.7143731800131 8.19761347922197
-34.5143066176092 -14.5636602103143 0.116719041889388
191.39336007133 -7.23013978457752 -20.5048843953053
-91.6024337746513 -14.8054500196287 -6.98231321764373
174.100049350694 27.9955794902184 2.82630930255119
-232.491253670834 48.8315460265488 -0.15969367619174
215.249526364785 -37.6284034239223 -27.7844969138487
-91.5053614670374 -21.4426896091801 11.8922893716078
-181.518854325413 -1.01110987725498 9.71838150343481
-219.614848525115 -5.38287299515889 -11.6175799007327
203.91837755424 41.7587902004924 2.91200029469867
204.973735759295 14.278759535695 23.7479161485694
-142.963758167924 3.55944857909349 7.51790751695758
46.3992168744876 -6.20137870481373 -3.61747409071924
-231.299889329069 -28.1240529797162 3.08472201610813
221.986777882757 -20.3029750512601 -23.8829623333687
135.858523693925 -18.5901119040674 17.0746066280073
188.452445458243 -22.2931493555168 26.5096737819537
-46.0246326540928 -3.01658147005227 -3.60833818571738
187.489226000071 1.129768800426 20.7571345480535
214.64492309014 -2.30565137213396 -10.0178719868302
-103.922515635904 -9.59920920414389 18.4505192496179
215.43130682633 -24.4547421646951 19.9839276316052
-238.046141356203 44.078236826662 -14.6990312306884
0.350216727759668 -0.561135732818665 -0.233332733399384
191.282176834817 32.2724248091514 -20.3975002473527
-5.49517759884566 -10.5606369906378 -1.34335718151806
-218.188049993354 10.8086610946651 -14.6412807956063
-15.2537055710376 -10.7879127900723 -1.32305908727478
219.408184995868 -14.3335886387872 -23.1461032462721
-210.725470301548 -6.83675122254071 -29.211414439398
-192.804900058639 -24.3304340106288 -21.8864175217982
96.3299791710365 -19.5525809260394 7.31342181147043
-21.811541776126 6.67247569751537 9.6943355922219
-217.070658450676 40.4464654696232 -12.9977276379991
165.440630256617 10.8039544827556 -8.41883264367363
102.900399851842 -15.091830969079 -4.10517251557954
39.6857243398885 0.633787922375475 24.3993239293811
-190.281012323207 9.19297635091115 -19.1376747170965
-3.88763019735378 8.21813785390654 13.9746155625467
-162.234645560118 -18.3944031385683 -18.8233133750614
173.188351651337 -25.6623329574353 -12.7673399724624
-130.934814851937 6.11735825041588 -2.58533678806945
-216.822602349017 44.8012763744975 -10.9591590792815
-225.624563434156 -28.8161671199367 -16.2687106400203
-81.9345949705197 -18.6184052582585 -3.64177489692475
44.2523963235941 -1.903195131782 -2.7208625189682
99.5065897750554 -19.670820192078 6.90280645180278
-134.225869146522 -5.77455320842245 -13.4530105396623
-209.947148072402 36.5863290189794 -1.9142906828147
-241.888658997521 11.0567036927976 8.54974096178353
-63.8974465816164 -21.1261464772349 2.02141173013439
143.754563251747 -18.5631143413498 18.103430048307
-238.680267429948 -13.0864504525461 -2.53896478667676
-227.846899073829 50.1637262718039 -10.4939171295298
12.952791260654 7.62086907396692 9.5830253234765
-204.721291151249 -26.3499423251941 -22.4565922721391
-4.82383262102969 -9.19861011494252 25.0919681899699
-12.2919883860629 -5.35216222792752 25.0355601560612
-214.419493968546 -27.9568434824185 -20.5365146432398
146.599554705344 -14.7913525810834 21.7496450137873
-147.570067265976 -14.9191582826095 -16.686802784022
-192.904536406065 3.94687118272657 -20.7452641064536
47.0684162044315 -11.9460712745478 23.611181055085
-175.203766711331 6.53743259627458 -25.9278275125428
-213.385692542058 -26.2348468565667 -22.2348432783844
178.789238925155 15.5317382842426 20.0306628956234
207.394453743754 44.7149600071818 -9.44162745743659
-199.915593334452 -2.19182275505106 -26.6493837196892
-232.179771094209 -28.4931823415166 -7.45624030388061
-224.18684702013 14.8394264023097 -15.3383598308732
32.4450072753732 -12.3842820260685 -0.587035438928841
-202.580464107385 24.5667560743954 4.52852839785025
209.333594063166 -4.10625272118437 -17.3790556434736
-49.8076926374803 -13.8836356381818 -1.71095971209915
-126.343218363388 -11.8369397802638 14.7896915619508
-195.93565064498 -11.578032518771 -28.0366348974054
184.20677518479 25.6661407726862 15.7932629881196
-2.177702251275 -10.7821716653362 24.8439688430592
219.141017545346 -32.5898975257897 1.99229635401217
-160.145636513297 -12.6018716483337 10.3181808381403
-4.53334436722509 -5.47481066650256 -4.24245608400334
192.936510880627 21.9006739648141 -24.8320898346169
197.380105616094 10.6156819505365 -18.4922738367005
189.999026187978 19.2973707961773 21.8943775397614
193.670604859108 -38.9751437206709 -12.6832261427822
-75.1535546954353 2.92160360680949 1.81012935180932
203.286136103682 46.1625068129688 -9.67778093796597
95.178352841383 -14.6730397275778 20.5755963577942
203.159623027402 11.3919972583394 -17.8856744588764
159.841982847942 -4.14633047505596 23.3970978515624
223.145209828238 -20.573948560754 7.42151943362696
219.576634845777 25.8273187136528 -35.6261978501055
-223.611096454556 -7.555216670835 -27.8846603408947
-173.546391303072 -1.06499758241941 -24.2355427946638
-5.91203704630167 -20.4695559163294 17.3150820767203
-179.682042212711 -21.3984241824123 -20.7244250238115
-68.0723592813969 4.18437303152993 4.98282432221999
-242.736148886709 18.6652117449727 18.8848899901022
-160.595584854391 7.46226575654701 -18.2700005322315
178.420788680196 27.7123054156018 9.8642415288777
-83.4577326167109 -7.92466473049376 -7.34041076792634
213.133391137995 30.7367185291871 13.1088527012917
217.754031548518 -3.55951524608351 7.91582698637791
-151.390069911404 -8.9631719389487 11.5222184456954
-213.590521896593 39.7644200956481 -7.6126053643517
-218.009913982474 39.2518981411918 20.9781292602988
-227.467387973176 23.6648185262059 -19.6466075655855
12.3705142881204 3.13574139542139 22.829688609213
81.61983927308 9.61381550698588 3.84964813403114
221.170234643781 30.2168182867169 9.52404969984283
21.8538021712083 -15.597149420845 2.95669365720158
-218.091986955188 14.6535125741714 18.1565191115087
173.568910086542 -9.10120520306298 -13.3445120048639
183.742483379365 -28.0937843742417 -21.5195233993222
-234.676879662551 52.9158598841022 5.87850424544415
-205.220561951576 0.871807560648641 14.2747881884137
45.0405758331243 -18.6705952983468 16.4059595965335
144.750801856351 1.71216830278641 -6.81871749967663
225.057500656539 9.07161960215616 4.29015273376129
177.670570205285 28.7682664772969 -9.61482844186407
191.393597030687 29.7320700471177 14.6445947684696
206.976722037692 -39.9410293045722 -12.7382069444334
-169.691529742134 10.1866571477809 -5.76855356933187
61.8302363174735 11.2081774735182 12.9879950632606
-59.0288352566533 -19.6645440423093 1.20704081135775
-159.629318196557 -16.809830878154 -19.2747230463523
-168.826804008172 2.70140748820346 -23.6114139011481
11.4046350354386 -2.36082569952977 24.9594812979285
-41.3160156356285 -23.013588269306 10.5982648088989
213.506977919237 4.91410792361069 -9.15600566948742
198.664537183659 -40.7299863470285 -14.5945158485707
-118.08193372 3.13788196441913 11.0692123265943
-129.654521419177 -16.4254215475312 -12.4056323339811
199.160654982297 4.71927661742789 -17.6196734073987
36.5012112537938 -3.98617981657072 -3.2271331402068
-196.394786388477 -32.1591956840416 -0.283155244077466
-218.50466655281 45.2951358412675 17.2531948515186
203.924656433285 -10.9337540086973 23.0805588406011
220.290481701617 -18.0475278656065 -26.1161086529153
187.405135704877 -34.6174913827636 -5.91344803382042
184.02617405746 34.1096467925591 3.68869050618131
210.317834775047 -21.70822818623 -37.7382772253582
-129.402364023243 -9.55377157855831 -12.7907429099712
181.697489105336 21.0222205881891 -13.2189407363327
-184.489705127577 -27.2338316125972 0.954237236513417
-139.815524844042 6.5387139571682 -3.57449229061322
222.506059006704 -26.1725246373277 -25.1760225711459
219.961282767318 38.6338503707268 -0.932523461381025
181.525826407122 -2.25882467096625 -13.3840006683989
-48.1827776448045 -6.83642994106853 -4.67927012612252
-96.2057709017043 -9.80152114110917 -8.33153868583734
212.903717148036 38.7510064805008 3.91631283391589
165.689144997413 -15.6447638252552 -13.0282092188292
-42.4923864460349 -22.9678900490824 12.5546428079563
220.647354346109 3.74464784071485 4.45430328197819
-204.37680697459 -37.7084617408778 -1.17610480854689
0.481946591724411 -18.6481101774924 6.35280223240233
199.550151110063 15.3156137771056 23.2678156117938
135.838348561069 -8.74784962761468 23.8773969764426
-217.190044214433 -16.824332303952 -27.4902490667755
-205.590809778314 4.16959655196706 -17.1285161491317
-122.937486483418 4.35467246379771 7.91963745551843
-62.739055180091 4.46364861902256 6.11186724341951
149.643687228766 18.8974136372543 12.8424984081206
-74.7352815980197 -22.3024993725708 1.8618778024367
-166.172561042916 -8.3732832605131 9.84175364818138
60.1234484021586 3.50299931629571 -0.833948103644463
-64.3942577057713 -5.12544607568927 -4.85825924795994
-0.118630500410929 8.23218307840549 13.4933662245496
201.17993145873 16.8250383330222 23.0595361661843
99.9232778519584 13.9964142264293 10.3444429029746
180.254503332255 17.6012101802326 19.6214455483432
-104.013870010516 -4.26279733454285 18.3918766978117
132.689822395261 16.6105197809894 6.24254618925179
-183.214879691588 -11.2861678286042 9.56574975731874
209.216389826612 10.6790788965645 22.4565165619008
-233.133594277164 34.0631735736287 25.808961003941
191.796720272165 36.3653654117091 7.57958249922809
49.0478213436348 -9.49625902395869 24.6258610155576
209.597875440284 40.6601009316292 -35.8266603039273
-40.7932679643398 6.82573360628156 14.6516165672229
205.118963092346 -31.7815265066663 12.0990965824172
229.321706301866 22.1723104175845 5.73746178313982
222.16638303625 -30.688935557804 2.61808307578009
205.848335435872 15.7525732856166 22.5950790025721
-39.8818461502701 5.93514576284494 17.0702823016423
210.308881585415 44.6352041572531 -11.5165360306505
210.31466111387 24.7700150218676 18.2416845612045
-217.434735444631 3.02168951177023 -14.0409008663652
-136.221742652452 -0.583522892173495 -11.7882357954996
11.2469349289739 -7.17324609634684 -4.13432636200828
220.11054822165 22.7754273491256 16.4711785222436
108.292568470747 13.5279059789805 6.50455445056532
-40.6569371729668 -22.3402366545411 15.0948881248306
7.0671094418514 -9.57827245534937 25.1891703783089
-32.790662573084 5.08852569516593 7.25851478305519
141.956088969386 5.47091270218573 -5.9242287507088
189.442114783896 -35.1477150558457 -3.80671484084081
-215.487612580797 40.1661026452837 -11.2953384619251
-99.9155867698232 -10.0116305461482 18.8777148843671
-234.439747435694 37.6943477348499 24.6188294632452
-120.734189572318 -22.8987402258373 -6.25430474459512
-138.113234693104 -22.4104212523485 -10.3799485468929
-214.580621238135 38.2471303999309 -10.2795799822897
204.486963025178 -37.6359364478752 -22.7232486052934
70.6869170223455 -17.6688224404338 3.80188536172997
-63.3940687826997 -22.2058468058402 14.0537667329905
-79.5021680502196 -17.7152671484804 -3.77809526998782
-100.495863231118 -22.8341198218537 -2.17415245870783
180.348012737283 -14.38402737235 24.7427043637793
91.7782523254243 6.09118407620698 -1.66655289805125
-6.5036401885658 -15.9422760284873 2.81441414388668
-252.324088929193 20.9197738951748 1.84545835991222
-33.8905112130537 6.97131502915101 11.8250162222094
173.483863225989 -11.368988552084 -14.2663136729461
179.553640259489 19.7641346607349 -12.2221062116749
-165.831307798034 13.4230934790376 -14.211615442597
180.621605563417 -14.6671322929296 -18.4536725153272
210.556952286732 2.03373334861826 -10.9963109333988
208.425220384415 -39.4049919925805 -10.5788999647333
-160.053562208491 -14.7607770706583 -19.4809921626982
-178.418385557117 7.80811390230176 -25.9733082597478
165.178781569079 18.4693550116468 15.9043224154487
163.429132120517 -14.6401208774609 -12.3894681776152
-143.666078121667 6.43873337812049 0.435708646842335
161.596191003343 17.6240901195522 -6.50427768123967
201.443326632699 -27.7732400341485 21.2570603272901
-246.418540976229 12.7212448307659 2.46668087649357
11.6524810124335 -20.4082329444693 14.9093894238511
-212.021882458731 -37.596088772916 -2.23027091011144
84.5658444280195 -2.45347391044666 24.9465855595218
-207.789865763048 -1.74830805051495 15.4628183714505
1.15250985876892 -20.6224085282883 12.0229507797802
-70.1084297585198 -3.62443045003812 -4.95219744318826
199.88006366765 44.7946984975774 -2.00474423152446
213.570047012976 14.6488129933725 -18.0164209948756
70.6255763969284 -18.6898106620159 12.90912422342
-223.151681012667 50.3525971158602 14.5595065887937
74.1826903836682 -10.6983750166665 23.6257223798252
232.690039090261 27.3783695447719 -7.78730278240938
-19.267791824931 -16.7795038133113 3.22248049200111
208.696809282474 2.22933284360416 18.1730349274526
140.168187064916 8.46209163545138 20.7861201447077
42.1472683778947 -9.99204357712076 -3.14612172894959
-228.634215650675 -2.78951879026329 13.2045855590287
175.952681505284 31.7617537499123 -5.65382910341627
156.371370308618 -22.1449395166348 14.6087209352008
-234.663226594035 -6.92030472439927 -13.1227041536022
-151.647095815519 -23.9440988101636 -3.88110247809805
-242.266724687279 16.8132482471902 17.7091418819858
196.738295056368 -40.3437229500491 -15.2145623609178
54.4658778519546 -3.17866487351608 25.2471815540901
195.265139029335 -35.4313334701718 -0.413864698444534
201.917589387666 -31.2250051661264 14.4629752516917
-71.9699484299153 4.2018192282763 4.63872608837045
208.52825643074 35.1257023058201 -37.924734172174
-56.61264711154 6.0394811767508 11.3129674106593
184.689897907689 33.3956393294658 5.95610184307441
64.7658972207892 -2.10347192050321 -3.1682506579745
-130.460264205527 -5.19912538306938 14.5252927578048
-169.115510198197 11.3045191664106 -8.78590941184158
214.965048397378 44.4123174179939 -9.45371365806268
224.114786916244 -31.8085625396826 -12.7478364890552
-51.4125596689277 -20.0104078408152 2.39950681819647
195.768451527925 -2.04377437491525 -19.4941541801332
198.605649246784 29.2748213405569 16.4387172076585
-224.506158890329 7.87824056206324 -13.3346838909436
-62.7304362760829 5.04608601957715 15.614724854686
179.145177256381 32.5194984798005 -2.95796325855216
-125.509661045549 -8.0962502843049 15.382784161848
-234.345826810448 -21.6054531445333 -20.1838186367881
229.078056405626 16.9729682147426 5.02911113845601
-60.4649046913419 5.50497082474886 14.9347500785403
30.8300744510943 3.33085967573505 1.78367181077624
-228.266477632654 54.617513792895 1.70801224088832
164.417845189465 20.5859557538802 13.7025634157884
80.5535994203046 12.247391756331 10.7903534124366
-236.746029074196 -25.0846117503279 -8.43639718805633
186.905104145369 -19.0396961869043 -27.274311955975
-145.993084158119 -7.71473035928774 -15.6421064970167
184.472650852413 27.3879067504524 14.3458028177054
219.667334684396 0.0413099065361306 4.17407303834186
-55.7866678883781 -1.31256723488738 -1.39809398025524
206.257009640824 45.2799778399374 -16.0224720405367
-176.322558653411 13.0150616529214 -7.33748981092427
46.9713370968673 10.468674557131 14.6930097006537
231.163169808622 20.059196139197 0.378164848302257
190.106483866422 -36.8895745407465 -9.23056782516209
207.74869615353 29.9301715506869 -38.5106737919782
154.933062030362 19.4169286487513 13.1540778610824
192.684504557767 -36.5624085124358 -20.6053466526647
198.529619729616 17.0220319984236 -25.7910234295974
148.124094174101 -6.8847335706152 -8.83315872284636
-220.784642014116 44.7093036666797 -13.7346536870929
-238.310925888839 -22.9700802261336 3.35501965781331
-183.300702866474 -17.7569201526053 -23.2217388262545
107.771832389978 10.5789634876002 19.7621047465423
209.236609533473 -19.3265680732584 -37.3637721219283
211.667313555088 44.8516995512415 -4.66096114324044
129.874925295743 -8.06051010806143 -7.54321748319549
88.7215575493304 -13.126890767455 22.0186745563767
217.127492570662 16.1800257799276 -27.8842467351532
217.855110100417 40.8689884903192 -2.75404977634455
-162.667377983028 5.5635492437677 6.39425536620888
-246.735980035546 22.0356556454041 17.5484286225486
138.417428879633 -20.1143455372196 14.7553736123503
-192.517023475321 -5.82430337211511 10.4563226041875
-138.007957385533 -5.66028346989727 -14.1726279222375
-67.0897441943431 -23.4247662037282 7.33132324059867
177.516356835433 -29.4025531668781 -10.1034142045409
-4.65144225613711 2.00886693085645 2.76416225503072
71.6615911391542 -14.0031587198111 21.5052728844575
209.308895576962 -1.21398642312868 -12.0050552472577
145.76325956083 -21.9103874898312 -1.11122986099116
225.661679251919 39.3486432502629 -25.9138206153388
-194.842426620807 6.00652427775631 -19.5679077680178
205.240910098023 45.3186997101144 -9.36522127316274
-52.2870676838072 -1.45950508301697 -1.40443649919363
-120.356768919131 -3.83106748201936 -10.4713962506828
-216.236840934784 -4.42308996998531 -25.2688380621921
199.051829751035 13.4642390932612 23.2074108009281
121.653870752411 14.6229228026861 5.53919577558724
-154.923870714999 -4.14515321057991 -17.6464777166848
140.517419288771 -21.2526855515706 12.2722547295447
170.552488317429 1.51035472314029 22.1098760218581
-211.531883149062 -33.6581602185324 -13.0159200720071
201.740561513823 -34.6392094548693 5.55967280737436
-231.108166612136 -8.32864018247478 -7.51401514352187
57.1056438959564 2.58698615194858 -1.24542113741147
201.059513116102 -39.8647348171182 -18.8888781421377
218.624982803091 -5.14360744186705 5.56408210708174
148.743212523824 -2.25659493022593 23.7367185369413
102.304278782685 -19.3537537276714 2.3240806859571
9.44625763262737 -15.5737647537259 22.4138050129067
3.28432268139551 -0.208032587900817 0.0821927557077328
203.981954469625 -18.1504352042126 -37.4895621721724
195.217092156417 17.4114715999268 23.3111666533932
211.231099408191 27.828450599526 15.4217443036543
67.5710755090126 6.03691681712025 0.909888548451066
136.773562787209 -1.70298516548078 24.2062521156903
-25.6836213564996 -21.8608635308056 15.339876461739
84.6421310869462 11.5072619610853 7.21095796919564
-40.1572890408144 -5.14266852942713 -4.27016950177448
-218.18990525551 29.7944510502209 22.7098027846222
-180.823634549969 -4.31040299295164 9.34165100722958
-167.472282322707 8.90033414719638 -23.9820684254046
12.9469138776167 6.84682799146991 19.8975342462963
-200.533670314934 5.90581784743051 11.1871720038366
115.679140191653 -17.7229535128766 16.6274879093153
215.741083905776 5.23553974468237 -8.27595311336661
197.129408053149 -33.4665851639243 -31.0324693531332
-232.726287594813 -7.78945197682445 -11.8672326496034
192.669957662798 14.2014613207081 -17.9101679039737
-246.865047838311 29.9743280958251 19.4914553518641
-34.382422088748 2.66652637448209 21.0445263294723
-192.672926016263 2.16623950832336 -20.0739188524082
186.960081451633 1.75004993510825 -14.4914917152834
31.0963359276255 -5.32795125294701 -3.5168765483316
112.338904303404 -19.6088253930854 11.6819373811308
156.219021042207 15.1720643793885 -5.27640796256555
-221.235890111104 3.58166752921267 17.1220960695024
210.043327393117 6.52849830591632 -12.0410609404784
-213.203308741868 -3.07604029044296 -19.4130711858698
-126.484876531042 5.59187635749025 3.31386680904101
53.4675374806998 -2.62531284462583 -3.07616431844094
-36.1139538478856 5.88417354844841 17.5341662323649
210.348468336718 6.62271519558048 19.8513198498318
-196.358107093203 -15.0433744515826 10.6564903322093
147.399408333867 -18.9131310487667 18.1944703381577
-79.9701326290816 -10.162522555716 21.0595105539687
93.0731864547701 -3.01133917321972 -4.74442669057269
217.990857495962 -12.6472535523368 13.2436967476374
-226.200048006181 -19.0507777852849 12.7941086827251
-202.534489381753 -15.5487911417204 11.4020481240169
-165.100679017599 -9.22944277185974 -20.6764779549269
160.313849287833 13.2421301505335 18.7822401220209
195.882101862722 -9.9843608578931 -29.5508919475262
202.872418860055 19.8554553612396 22.0996468549386
202.409801534128 19.5345355176838 -33.7411132824567
185.43259769129 -19.274297569915 -24.3572758712964
-156.393595007712 7.56366179394118 -2.76010814267811
118.312251991152 -11.5300939756692 -6.69212053612917
-11.5738831679777 -19.9388661327654 7.36794485371106
-100.192864151234 -5.92980658474569 18.9672230911792
170.935611377221 26.2898031709778 4.39652243916138
37.6249068243922 -0.740370245455169 -2.22585150186285
205.332498990835 28.6116022608732 -38.143874971972
-244.007699685745 22.8163752145236 20.3476183137615
185.470832341645 16.3825452605944 -14.3497111568256
-80.879964761602 4.63796509043418 13.5936960551337
-214.17412075201 -37.0138833429176 -3.72900099825925
178.865083508442 -26.5151116244573 -17.0028531552642
-194.907009969705 20.6081053284395 -3.51434480935109
209.535349769171 -35.7346543760199 -34.4528561585376
197.754551847336 -32.0930989130479 -33.7578482267868
210.582654481942 -36.4577147299777 -32.8150379554321
203.3061875497 39.9056779606432 5.12861861546085
211.219294086703 43.4642157301465 -22.426554452921
-201.014799147796 -4.04288864329673 13.3133384982648
26.7168255075545 8.05004306153181 19.1825310517865
-154.162970629788 -22.0209233603386 2.25563003044123
-226.755162004943 -5.91259370107701 -26.7927991054896
135.523831843631 -11.4397340938845 -8.11261118119437
-249.627313759408 21.3883361964375 13.4440827715795
211.155764088197 30.5012257336873 13.8752702000628
-148.8056250285 5.48772995564574 -9.86466132274761
106.086618565086 4.19883451855705 23.1692930611114
-236.517816703269 -7.12265104170808 -12.6178897613846
-188.769269294285 5.60953209944179 9.18278577713582
125.517774824597 -15.3116392804063 20.2443735594074
189.386156271635 -9.06900905851063 -20.3926145134192
220.383043512108 -16.2090790806718 -23.686380659083
163.971086572972 -19.7813520229806 20.3325264086161
184.346441254947 40.228858298506 -10.7681446091795
192.955817608637 17.1454880114587 23.0333389209639
-104.977202366795 -16.3565419380378 -8.3142876627516
-49.3915752987509 -20.198511859299 2.89179179465632
-22.6923941201901 2.39078225330305 21.9101518554267
188.299673251015 -15.6868045885863 -28.282635068155
167.017661080156 -24.9959651854028 10.7563734853967
188.43184686306 -2.68728777148422 21.35670339047
-40.6430056975193 -8.76230717852874 -4.23393033000655
4.4077383969206 -7.10746230493095 25.4125670942051
219.605731964707 16.4479838953777 -17.7642680800152
-167.004618988586 -12.8418958193143 -20.9711259291173
-104.647064499775 5.37536414830381 5.95695247283849
-96.7031075836936 -11.5623158375854 -8.95507043783557
-206.347700374414 30.2101909808185 -0.570411549499342
224.160373124888 -18.9979670135644 0.315960112735493
-20.8111232505362 -18.9697268467862 5.31762056239557
195.31645599261 -35.9735233261472 -24.2813824082216
205.444669210027 31.1167700587688 13.8610131390014
-51.8177131871703 -11.5234090818704 -3.18701500519921
48.7230518325127 -0.29793516069069 24.7019178637387
-159.534634739634 -19.9927516904567 6.05887907665471
-143.982030303649 -16.0751606013963 10.6664323189199
-251.210746096504 42.0692910543572 5.78826821562745
-200.102954511429 1.3124337357945 12.9473881645111
207.385631076887 -9.07448105953651 -24.8121432758616
50.8795665300022 3.01247922213985 0.288425535905682
194.096175731431 -20.5691286368911 -34.4628956685123
158.531297418474 -24.0675923988646 7.15868423475917
39.619830547171 10.0473875928446 15.7740117905612
142.638534523997 -21.4832234581444 -1.61816945103908
210.067234148748 34.1018545178845 9.77316635109578
-252.375975329881 22.4434259307632 -2.26247745686295
-192.802693807567 -29.6621910648911 -13.7835577367539
189.050556492079 21.9220078981655 -17.7035295540583
201.259983038207 -14.3887622067489 25.3444308354185
-137.269054321292 5.19900123138989 5.00059748574141
148.590976246894 19.5359060344038 10.8671898888562
211.309029173263 32.2434890823596 12.1993329018801
-139.402450207683 -10.3151908107161 13.1408859725574
161.655764987381 -22.5027140185094 -9.08951004357296
103.250061525884 -18.3834207271637 -0.780056825317382
173.277127594079 27.9969741096625 0.870605612181709
-116.27047058647 -21.3517635461689 -7.93555572285878
192.917083115814 -1.8662046889492 21.2338887803718
-14.3622226463157 -15.7455173932928 2.50193162334061
-219.116044054298 -13.6117109609649 -14.8500248436449
178.838401800285 -2.69645270205413 20.2276340484705
-135.008919153272 -23.4709109073299 -7.68306304099755
175.997632333477 -13.8705633628298 24.4636335419847
182.477882737622 6.10248893022136 -11.2678279243096
-45.5657240595596 4.05128399290082 5.96179119555165
-189.932177552694 17.4563909578665 -8.52387727732169
35.4529792899374 -9.75471353933683 -2.9669050876149
222.9937426053 7.236767700201 5.7605644774887
209.495933524223 -39.4377650870885 -12.6977873067161
157.867373286371 13.5784494122422 18.5091554600341
-192.418295485438 -22.2629538786451 9.25909706696099
207.338711299871 4.46250473975109 20.0372725791264
-224.280885976903 -31.8081511083244 -12.4446514674398
-141.049906923556 -23.4038017614587 -1.10248052230919
196.127738740586 -35.1031185655903 3.69933903195575
-90.5753350234957 -1.85651528681468 19.0971224619212
13.1752873170439 3.953317895538 3.34349379638237
139.742480049064 -21.1589031390357 -1.9027776003421
197.332386424741 20.9221042198732 22.160647814707
-196.850561708591 16.1241562153976 6.49743776601852
-197.229201882783 -0.317112190016372 -25.2808434547656
-154.871768619296 -24.1350516213431 -4.04208841967479
-221.652418115022 -31.1096116131532 -15.4302201169824
7.13284936838934 -12.1611110007213 -0.0162222734804554
141.797586302048 11.0115092909714 -4.28085763549517
-238.083922553843 48.3163017591824 -10.5032554632438
-69.2794900688169 -7.72642082422313 22.0934704746618
181.58674670723 3.15822329039075 -12.0138569365994
-193.191577000825 8.14920036280011 8.87328218734447
-170.800483868067 9.45977675702119 -25.3005814447027
222.854491018855 -31.8445744441315 -3.48152278457381
214.50769815315 -36.9594513306692 -21.8582663958735
212.728101924474 32.1875728350625 11.771447198878
-54.570653254782 -7.86805630339014 -5.27975115597623
-151.564810598489 -1.28015861331059 -16.5816056195128
-172.064129090601 -2.10218264417319 9.5974671415034
-237.356231629317 51.6805218135312 -7.21665411888144
-215.314916068525 -32.0503434718291 -14.8473052241773
201.079699573071 -2.76840712330181 21.1310715960273
-63.0267931102014 -19.7688388467758 0.65121000517343
201.122200348561 46.5630522858854 -9.46652034998024
-235.688477885007 -10.9893040354715 5.51121812704299
-119.388164742081 -23.6079438960832 -1.12867718611668
-217.503337684576 13.9250925922206 -15.2579600459361
221.546310913548 24.8264797088225 -33.9923098755175
-188.270588614194 14.2169154767187 -16.3836539949812
-192.670368831112 -6.69214875675851 -26.8698978843975
-251.789412229357 31.8642695320585 13.0463439920092
150.325160051612 7.68739432253883 -6.31681774923479
-37.7157988879985 5.63244293319412 8.49675449555654
11.7344836410538 -8.23933896700355 25.3198406444868
85.6182656785385 -9.05946830778957 -4.76925770178351
-225.291919064976 46.5511415405613 -13.9147122590638
184.079023068528 -10.1855591971595 -17.482969564813
184.168356503374 -8.89791669470955 -16.3507378803485
-97.052368466204 -5.11950543024882 19.2213381610289
-209.83139015236 -36.2573915902819 -8.81643037016831
144.531084968475 -22.4742852147658 4.18443795313768
99.8999338801387 11.9814697191727 4.90302499312548
148.685055071699 -22.703501858719 1.92996541213952
-11.5755699373125 -12.0728103504697 -0.282468039271987
190.482608027477 9.13395044590877 21.844526973129
-75.3921649735309 -1.69330837148006 -3.99733658141811
136.073337852606 -14.7103907903376 -7.89413860768081
-203.595827211344 3.8257895781858 13.0047907978604
68.517671673479 -18.8504943308285 9.97542568787455
0.812116519797513 8.10715209301725 16.0081950169298
214.677666498711 -5.91631596384066 -16.2846328720399
-51.4831466672594 -4.68216395791664 23.112799490779
191.386085628042 43.0187298721005 -4.68166164910031
-204.121695130488 -14.7071688679679 -28.7121586680309
-223.228509422688 -23.4032345154764 -23.0814188752809
-208.567454447311 0.0528763302708389 -18.1321162667514
131.307912903641 -17.9510160000545 -4.98169566275693
197.808698667681 39.7175139052633 -31.3332671100537
-253.91897661128 31.3656985886476 -1.41658265043079
214.544128296973 -32.4912933637002 -35.2555679452087
-197.801786907196 -30.1584382775988 -16.597521900659
-222.407017923757 -1.43362640431938 -11.2853590327885
-219.092504465793 -5.64195317815961 -26.4201700360337
79.7833237575029 5.51959026286124 -1.02456055984584
231.401966099907 19.0976683592708 -2.35235326627707
200.80865828622 -32.9020578343506 -32.8230261440874
229.526034348867 35.7457502778817 -0.348956893001494
146.983990842561 3.57881419567553 -6.6503542596088
-56.0083757734624 0.73071585474494 20.601486624974
-148.544907485259 -22.5416596067563 0.820973624541019
190.132690919196 39.4692649936931 1.55521161662121
28.5851918258087 -2.83967558879664 -3.20963941035311
190.749516435882 -37.6756223808979 -11.6862445596541
-246.626757711339 14.5804358973161 -5.29998095393878
-90.9846146074479 0.614734919676647 17.7086670315146
223.034141430258 15.0126503277655 -15.9518957624039
-56.0094353920126 1.10163338036612 1.74158353004017
-224.430643502364 29.4217287729746 -20.1159854260979
-210.906958936351 44.5863626324909 4.88516238602722
-2.16949087043896 -18.085787929004 5.36346782745458
221.238286377224 -21.1837332975198 12.4712055396367
93.3954636176257 3.1274502578503 -3.21610535100345
215.998049977791 16.7864556141533 -26.358263730698
-207.011094759987 11.6857277854145 12.2337949945018
-62.6969239900214 -7.65855789764706 22.589414205448
115.431071047739 3.59503804526581 23.2913190671128
-59.5141369399065 -21.9854294972733 4.54133081191414
-205.019434773586 -24.0996232693194 -23.8578947207525
194.57201091105 20.2494380304205 -26.8388411983515
-219.983923785922 -20.9878466495301 -25.2007572601522
201.400161274 -20.9252651837334 27.8183359490397
70.9470611892172 5.87001872820141 0.284298292085923
-228.324333901261 -9.43323009796422 16.9002152221989
201.575396963184 1.35003324324307 -17.0531874085066
133.854877691088 -21.3447079411818 0.956759086615284
46.1311098542043 -0.348739263342337 -2.26926592111382
-225.128538643129 17.9929987690963 22.3367629021827
-225.713045582752 -31.9480051656331 -5.9251760504539
185.451596096343 -14.4640347698727 -21.5619280692775
16.4574042425435 -9.04681826371265 -3.08237702270813
207.424558054744 -6.60725401126253 -21.0521871999445
186.124638329856 17.8124277322728 21.21036689605
167.146709110063 -24.3317440527918 13.4771503967416
-190.717938612859 14.1836848076232 -15.1260951720377
-80.2546479287518 4.61543373154368 4.9450265058547
-187.402406672878 2.1508886525675 -24.6810215987224
210.976703613024 34.0897619613664 -38.1240731607583
-153.851364477385 -1.80477831059956 -17.3641679468462
216.886522969677 32.8478229514381 9.15486928439218
75.224079696736 12.2338413968865 13.2621995585924
201.753824007504 -0.0520724030712634 20.865859841368
-22.2363482678228 -5.40539848155433 -4.91239888798885
-190.406294315177 -4.04679692199547 10.4582846365028
231.061041919611 31.2196316194392 3.02245216446422
-146.119744289612 -19.9958546419417 -13.3753901344133
-146.634041234621 -17.1018064665494 -15.3070365839937
189.906063351817 42.5751202260931 -3.02455328974443
-213.466161364615 34.6584094284507 18.556278653226
-178.198503553452 -25.8230183584479 -12.5572243744332
-24.0072727234988 -19.239577587775 5.36288259560714
173.907607719276 -21.8866470834581 21.1767993069092
-144.109608824674 -18.3986603917957 -13.7459865901005
134.271440345583 12.4564433795954 -1.68972580362208
-196.415671431375 -12.3363423186382 10.9301232243527
188.391669805785 27.8690172289208 -17.9613638960519
-223.705314662083 -31.4891347132173 6.44592042417103
-223.211169255373 -8.33562326354274 -8.79834580143681
54.6426034405079 2.26800265433909 -1.01624087073382
-248.572530045919 38.4907489311725 16.1579613132335
220.554608324418 -32.0233872976277 3.66058747720325
-22.9844968590724 7.10415221337951 16.042434931321
-202.277768071559 -36.7936574894934 -5.21745231336188
-124.446558053241 2.95175251671059 -7.57236832919131
224.018092911472 13.1478703083817 -12.2667022771623
162.001931353736 -3.56868007110894 23.2028665112385
-234.492684412182 17.3297712041197 21.5453695239639
134.797397355908 15.6198159531271 3.82991636542136
-200.339261588599 19.335344667949 6.26081574757372
-77.0346901659197 -23.588370515366 6.81554414447927
-224.589866570654 13.0526130803569 -14.5729111990849
32.780070065539 0.236420497932729 24.4733109576276
26.8074272410606 -11.0676327734667 24.493016480598
-82.159406047317 1.65113185567611 17.4710388958239
222.981227883062 -17.2981820811353 -8.37320456262485
-225.461180758148 -5.73382072077149 -22.7126521592534
-231.193000167775 50.7711935389997 -9.93756617122019
165.430411845433 -25.1308145220188 -1.75149196637204
-237.454548156853 11.5253835735187 -8.30536628774791
80.9802050830315 8.38333213714822 20.9304060107686
182.730257200571 -30.9980194443178 3.95384834730476
9.1791088262882 7.13069458377491 8.86069954477878
-213.06737163866 42.9884678440444 13.126983023615
-222.330509785006 -20.6802589614023 -25.230492436782
-29.1123833968363 -2.15271576960938 -2.65210778394643
0.030214449516908 -20.2099474459205 17.4162040944117
-190.799980506957 -29.9874808991703 -9.34236909515386
153.142853449419 -22.565999227551 -2.03677076557444
-139.604132996197 1.10213626553848 10.0046406769503
5.71723435982444 -1.24983520427034 -1.48175786971654
-194.512547305696 -31.2344390563707 -0.318461044825835
-117.90120669208 1.73219619844794 -7.5404686756303
-200.505829374441 -22.2247255838347 11.1801893018428
-56.1989412152554 -3.08484897432123 -3.86085054429417
-133.822259107773 6.17984558038301 -3.83636062888211
-83.402850546326 -2.03201146934593 -6.17670180976419
-223.428701177639 -13.3013307028335 18.8630418506859
7.3690937136 -19.911290871609 9.62411429151647
-49.7814589403179 -2.26980433284239 22.6004715960272
-157.727542978209 7.77760703424335 0.316733092496527
-203.064388810445 -30.6192229354029 -18.1628168736675
-171.618933909091 -24.9160394999664 -0.725946237089299
210.288597663819 -35.7445080968217 -29.8344597511623
205.673737057635 31.8948861508591 13.6821687477344
-177.659236165845 -15.7763847281652 9.0852567343774
-172.045203723671 -5.77276448528135 9.51257161663368
180.098151958172 30.0915096762983 6.99817417134492
-189.323675857975 5.50624562715155 -22.6738558976379
197.569186194579 -25.9972293680425 24.1516958325591
174.289711030256 -0.762388792326573 -10.6360970863845
-217.244807499367 21.0130356040231 19.5202130291809
13.0222216822185 -3.7937202121092 25.2250567398886
209.361972015665 15.8332840311399 -20.8010197312178
-70.0073262268218 -16.190516676703 19.8773999819564
132.416131887866 -9.67059761851248 23.6666887943096
220.08428955037 18.4006594189729 19.556514622946
204.55009069954 31.5321308407978 13.3061628171294
190.860572322089 38.6676185723278 3.33934047005782
61.74423549344 -15.6939390866461 20.3200172218644
-208.124985997839 -1.19369251403283 -21.1199080373712
-213.81193371371 -33.6736133260151 4.76314752381014
-15.7565179121788 -5.91473764370467 24.9946250314778
-159.654102470427 -9.94949567654577 10.5517610545586
-229.62138823162 -28.9057098672901 -12.344292139802
186.005180348451 -32.5942404720211 2.8826802230265
-16.8530855805834 -13.7855451672187 0.794537774175933
222.915941996856 -17.7234054204562 6.02336150572941
-154.523703223136 2.33284408505478 -16.8171211327649
162.500571642372 18.0634173141756 15.9072083098841
-192.234320679573 3.03838617935311 -23.1038363406698
165.868625627576 -25.3297034005606 7.01851039560958
-54.7247004699946 -18.1946204473671 0.349695556254433
209.552683811148 -26.5276381082834 23.1918515743694
-213.092682212839 45.3275820073951 -5.03008980770599
219.377270600438 13.6553632306367 -12.1448226338361
-242.235609106629 -9.03724024050605 -18.5901056581496
-223.100484568046 39.7913503633363 -17.8013263743931
197.382332984662 12.5668637921073 23.0928563448282
208.108761298545 29.0973404496667 15.7603712868921
141.189140453181 15.8050888120471 16.1407801251887
222.794989344539 -32.909129649829 -5.00473056061176
120.985726951436 -20.7644210218633 6.59279612009377
-204.379751487921 20.2419543080505 -10.7715269704394
-172.390476210005 1.36730596762584 9.14520127543119
-226.71343740404 12.3208022288689 -14.2044787608707
-183.019508159711 13.0705322428387 1.184153395209
42.2364326992929 -1.33765655754339 -2.66268068477734
-217.678830990656 25.9370045402312 -14.8771480884443
77.3038856174963 3.90399926409981 -1.81421369675485
-70.487904852521 4.86718250032406 6.42266921656201
-186.363608804424 14.2195484407294 -18.0695507523531
211.698690190151 20.0671604875649 20.763716208245
178.969634918674 33.246650307447 -4.97892830433347
220.083819365228 -6.94773111054839 0.594742245310612
-196.650154124569 -27.88419420908 9.16191829219945
-119.159823275217 -3.23986956218089 15.5901516180717
217.680676103488 36.9553198828848 3.9591116388145
-234.975120562092 10.1081680756394 16.1115045945664
-230.833995531815 52.6365051798651 5.28280332019851
-37.7748080096009 -8.95873281603119 -3.88197602628283
108.523445510387 -15.9269224885619 -4.06188932437089
198.457364583231 12.1996066948131 -19.0655474610461
-41.4819683156021 2.4340094791947 20.7265928993872
115.062467627358 10.7508361695721 19.6600889987235
-176.260581006453 -24.4384553009957 -15.3207263098909
-164.446774629224 -10.4037269579655 10.0844910340461
204.602423650324 20.5203209474374 21.3378940623673
198.549184471261 34.4091472454159 11.6503471074142
-112.9365877118 -9.65143273018766 -10.3780870140307
148.426169605266 -11.7278442092249 23.1957205352709
-198.309266790646 -23.7633209195782 10.7136719829561
-217.475710338034 -35.4944666350994 -9.07445410731362
-168.396714125298 -0.383089883251568 9.66164335980242
0.463319456278298 2.01039695372656 23.0699661950535
70.2189717237496 7.51399419141026 2.28440498606371
-234.585789870618 52.1498892411726 11.7548480103308
-204.835000111315 24.628652343673 6.92725316504783
164.74397667322 -25.310097535253 3.94406173455646
186.126301846294 -27.4929004064895 18.9640845037089
96.913219335147 -17.1410462440198 17.374453001648
-189.403580267915 17.5603532671129 -5.98629490591859
25.1919992573231 9.13265181858486 11.9627691845582
167.123432692467 -25.8096381349897 4.9764903246455
-26.7034344201083 -15.7810664397858 22.6273970021505
-2.61830854494595 7.89321166485746 11.6725049280924
221.467740451181 4.83932353043178 1.96330115994481
-4.53263092552619 -14.7947338039931 23.3900798447151
179.578999845084 31.720519701984 1.25742326352726
-247.582482309685 42.9679762642874 -7.89925636430253
-216.517548417175 49.4784832494807 -2.77164258440736
107.086130507269 14.5649147391035 15.0231082645238
199.210380989549 -31.0613651089538 15.2547175798126
212.778916945685 44.9100482685174 -9.4906771746718
-239.038744031188 51.4004710200618 -5.36767120760215
-218.742759895071 10.9977371744206 17.9597233557413
-28.0890151855312 -9.873191838065 -2.5957445700315
152.25160842651 18.7519947789035 13.6425150103038
197.137910028965 4.71909382064529 -17.8409466222286
-227.459012662975 -31.2118271131749 -7.93485663991059
-240.881532897607 14.6422992569454 16.6256133137393
-228.866823707018 -10.5852457094466 -28.152265839325
-193.121001062782 -30.5603888711763 -11.237948325744
107.977991816591 5.02980971541772 22.8126873805058
73.3698886697549 -8.31424146323206 -4.41858763483965
16.1977536137927 -0.509939572261919 -1.30108314320667
206.422258690301 5.22173583665269 -13.6553269706847
-231.854448274078 5.21637901093913 -3.20224983910195
-229.277480890552 47.1438785583062 -13.9660752463232
-11.3959268205801 -15.9134487426057 2.76011435987619
-53.2917376685249 1.4718527205702 2.34758761863397
101.854006494437 14.5168519298308 12.6458382434011
-163.419833788895 -23.3972920540541 -12.9245600753319
-243.001875488601 11.4822464691607 -1.60988708938642
135.360609993751 14.2096863299276 17.4135119214863
-254.171836388901 29.7078372536664 5.88635498530149
175.661668175202 29.3316296617734 -8.10760511967994
202.298587607815 -35.6268728115832 2.46874074285634
-181.004585083084 -18.5818492130208 -22.3309518171404
-165.849822834673 -1.41040126064624 -21.6090581528686
-235.154199893868 -25.6685826744323 0.575816037911818
-252.105715339588 37.1226628895384 -4.38265994194034
-102.814288008253 -17.1630516351435 15.5864985381763
195.967014049649 -16.7750269438157 -34.529976326645
-113.512174218832 -23.4296050113845 -2.19088280847265
