-128.819617631658 0.151808354837551 5.78863717354386
211.849693314023 -20.4806936412115 2.09682268346914
-205.896907213367 -26.0503143142743 28.8836571112381
139.501213558903 10.4379762087156 26.6886203368253
95.2226014814848 11.396678615986 -0.616204317170467
-134.205026123366 20.5468966366756 -18.7393694997954
-121.434445322239 1.64107404027144 -7.00317253412622
26.8102065978212 -5.0018461219685 18.5641477655841
-187.987339782282 -47.1830884115342 -11.481077915988
-4.6944004870771 -1.52508347404635 19.5160504738318
-143.800958233686 4.54777675393279 12.3921237172241
-124.575651124029 26.5705257435097 -13.8812898493018
-177.81843976523 9.73097231668664 -30.7472006120901
157.786031426559 -22.9290794727006 -10.451564894306
-184.263028958814 -39.3550782342684 28.804495769426
-150.766992092735 -2.57675281003751 1.42217304109147
-182.234488483826 35.8810702337347 -14.4702595425398
74.7219179871775 -7.3305373272963 21.911950336455
-99.5654475947581 32.169239296201 -2.70962072542117
211.636363347738 -35.5613241587495 -4.65074035562889
101.725900094013 1.28410105785249 -2.71411235361426
197.054975214228 -24.6432183205985 18.3485811386021
167.054714314582 -5.4413267579086 -14.0216676616821
170.611252105868 -4.9041415239846 -15.4699833763287
161.372907985305 6.94788121364279 26.8128807711715
-7.63165094513217 25.9130148908529 19.4599703426461
-211.142211373362 27.0178460297878 -17.6873149207664
147.4188930356 -10.1666388006428 -8.57303664159027
21.2964600042919 9.97094124120549 -3.44991319855446
213.538554727243 -19.1644804210077 -3.0061809938453
204.847273730916 -29.7064342193799 10.6488695537463
180.772517904383 20.4064927636459 -30.4061830108503
-201.46462979103 -8.13871285498165 -4.29997051947112
-218.501643158355 -31.2501752432191 18.0966792310951
-175.645928175196 -7.90057716906392 -14.7465681056649
-33.8683679783782 1.02306614549518 5.96279838639485
-10.4650606494242 -2.00275428419132 18.4420974660773
-149.886340089188 8.37406813440083 11.3494825167298
208.932904198241 -9.59141986338379 -3.58579510553158
118.661460972407 9.49913049391371 -4.45843546568452
-204.622936553319 3.78813367043753 -0.331617717791802
-104.748294083988 18.6185066940668 16.1593997470758
-206.883456394306 4.40599280960468 7.21656624822158
189.522676802075 -25.9193464072113 17.859712122679
192.240495199882 -33.1352725811016 -39.0548614286316
-173.411607055688 10.634494805021 -29.7569790125212
-161.184092428155 9.17864564159011 -27.4469752448804
-217.275123799921 -37.1864720145219 21.548863388573
166.214040052468 30.4735536122456 0.205553155585562
-216.254249077254 -44.2905082923778 -3.17603102185211
20.8750128348676 14.7743552425957 2.30144745304102
32.5369781552822 23.2299918492848 11.8924149785654
211.570057211331 -29.5852936223666 -27.8122674060867
203.904215182793 29.8228147650266 12.2618592610957
32.2490441768925 -0.00312663259387999 1.98583509808439
200.129152389473 -8.67010509146411 -30.628124345854
-210.076948254599 -56.6453146394361 2.6598633610706
-95.7630516678498 0.243757843405773 11.7080584172674
-170.047109982312 -3.71830408134599 -26.6471714325596
207.008378211845 17.7263803258003 -6.47943284486118
-208.784095038409 7.96432716680318 -7.18191557220084
-212.870145315815 -54.9635956836467 4.34237378254091
-176.998423377186 18.2417595839472 -29.2702191534521
-154.439842729161 6.80394913137063 -26.9877568485685
26.2182828014952 13.5327461603194 25.3873776126091
212.83774164346 -29.6522796091047 -1.80297860650781
181.949652474631 -10.8285088579298 -35.4058700318903
4.1003278506943 14.9235228653297 25.3163071267975
-149.179013817156 15.1322664187984 10.3126313590044
123.100874486114 21.0977738151799 8.99275798095223
-205.072668533057 -14.2731420760045 14.8449730310177
193.620011087696 -44.1136191013491 -12.0478731930141
-162.102115785452 -9.91971097714651 -4.88998706225902
26.4491851957407 24.3666562993145 19.2072948545172
175.602608157543 -15.2964981002802 -33.2694866217066
-187.721152342553 -13.7338242007925 18.3501374471001
-136.412937614104 -0.26842698033557 5.58166600635305
61.1733623516637 -0.640573016518708 0.839305548085574
-220.569487288961 -33.1194990618658 7.94336949985984
84.0531824576874 17.4433323852142 23.0234217383734
175.548904148978 36.2382437455785 2.03068691249323
-155.574018894093 -12.4646651529283 -16.4657495125319
-189.98516070008 6.76295886434811 19.4777929031198
-147.9589646851 7.19245052439535 -23.5891326356452
-114.947277433567 30.4234434725683 6.32015188574398
-164.358258256166 19.7743357152182 -24.4514883993363
77.3571455984062 -11.3918543828197 14.2492711604078
-128.041931248493 32.3267201481337 -0.773753207029245
91.2314787939715 -6.95603452350039 3.05757377752851
166.64516860857 -21.22913112979 18.063503365651
-197.679656956553 -57.891251074078 20.0410361866622
-128.869112435702 0.500012174089237 10.6082782788148
-199.783999491799 -21.5035617269133 -10.5383990525294
153.504623136711 -14.2185150271972 20.046538963607
187.210292279756 -28.2279884160579 15.5374969473662
114.843610903862 6.65913569885988 26.3554417640821
178.482411067006 -17.4953187816582 -37.6485745037278
153.164205833334 -10.5450603326689 -11.1344551826456
-170.864809133072 2.11126228484464 -28.5722330149135
122.40191897985 14.6557979838089 -4.22269675496127
-116.014467032273 0.215230943592071 7.77526310422969
-185.978679710604 -39.8861681055531 29.9068127242695
-157.788391292654 -5.68472038857807 -32.5533420946604
174.327465193159 38.6624640798727 -5.24868076601306
-21.3152820191659 -1.05777610702509 9.10567996930554
-117.170185151368 19.1282832310627 14.091627304976
173.198683383011 14.8380079978907 -19.9451990619773
-202.835698907548 -5.34759299874906 15.2243403579009
204.541572529977 -33.7072008956889 4.80015326339161
207.511254474619 -11.3790312346691 6.59105395868347
189.397849365604 -9.6384237181357 -21.2943332102674
-205.547088396442 -13.5343561504939 8.08674584073487
188.575856360707 31.6786967069852 17.9370882450953
-190.293473259715 -49.1385768139781 28.9718382474045
-155.239656751989 -6.66712166373657 -5.96997160734113
-127.322158726637 1.46099588727292 -1.25389740153385
-60.2943006327602 30.244404439362 12.3468137105574
-170.665616879236 30.6827406083766 4.83765939871349
207.754528682402 -12.111354360489 -25.0870591247472
-51.4488797842438 5.93960742847485 19.908093946813
-152.994924633942 -2.92197635222289 1.23702983134262
-181.8996625153 38.4473385027029 -9.17785358462269
-1.15284487193083 18.8269744973483 3.68204007322929
214.378815880886 -27.2749827793007 -7.71025900668985
-210.648432252035 -17.1818395939298 17.8372909717537
-119.143042627769 3.55184830025949 -10.5881442068562
-101.843066681806 25.0932077166585 14.1727438315038
213.646372075691 -16.7243413466747 -11.3007011786202
30.3368199164218 -5.03672295705162 10.6119258968025
-163.945118047874 -13.5478570798395 -14.2389463336884
-182.610735558242 -57.0726261310426 10.7410910456627
139.05791010581 -3.59444191507874 -6.4051771950728
119.197365395675 -1.93115762777578 -3.69935869179104
-193.701222170778 12.2261111906304 18.6186874163041
-210.588228088248 7.51831842380414 -28.9313064629335
201.389073310158 -1.11769700779798 9.81224310140968
-7.15264445406556 -3.03601738088725 15.3713287357344
9.40987609872002 -0.544242948025354 5.48586341348354
-158.463772481572 -8.31677964240795 -5.36938691049795
-129.786138986855 17.4966756344205 12.3381849761587
-217.730040116518 11.7043584739658 -26.4276023786247
-205.900078600632 0.59292849393588 7.84408460980436
-91.1468427156641 30.8684007848861 8.11418535019779
-170.547127570955 0.250101335734575 -28.153045614296
178.203724925515 38.7169740489725 -13.4013608438097
158.682014102103 4.43506198462985 -8.83133489748038
170.966062273968 12.2706701582554 -15.0700490545943
-206.221347257735 -60.096294279123 6.56372941839537
99.0992714908754 -4.89410208630583 23.1912143384227
142.144157706573 22.3269280802556 14.1585993533562
211.949706202217 -15.9773681827415 0.470548982179582
-205.032095152525 -0.370491623029024 11.1590752158553
100.537055180794 20.845717553739 17.0058776957208
182.393801578525 -43.1399849663389 -23.0283136817697
132.004717562033 2.20121344546918 -5.19979142467904
-154.163198697924 -3.59465635727569 2.55721878415117
185.018262246379 36.8361237832826 -25.8732443657886
213.343865461229 -20.1183805772266 -20.14075332311
-196.822796228414 31.1960717225538 3.73666444467701
168.130760799093 32.1966498810149 -4.1293320422386
204.837166255103 27.630202229691 -21.252380239915
184.780216482828 23.3365092077545 33.1012583169467
185.250722864051 -5.83895653479581 -17.837737836919
-188.629794355005 -59.6888834760458 0.767304867504197
132.853863764804 -8.9993382724365 -4.22370946905871
-131.688820874869 31.9897162556189 -5.41295256540261
-100.131896742388 9.50606811099215 -10.5235823622805
200.726000672987 24.354239106657 -26.9196668689432
200.366047176092 22.0161436778721 -26.6400320792746
-180.367752209644 -50.84729865991 20.0691893199196
192.493530788878 4.42472201722153 22.1187099107978
177.291012676299 -24.9526527146519 -37.8764868220376
199.233072217778 -13.0541128954787 -38.2896580317394
-159.465137141967 -5.70758884116234 2.8189688037313
72.7407741934948 -1.54690703504394 24.0643984025425
-200.05515777934 -4.85742147856351 -6.69204610266333
-190.478779527123 29.0461039424686 8.12733886255626
174.684465511421 -7.12833730719146 22.1453287926289
-78.1136552178106 7.50301073532768 -4.41093921835442
163.88089692972 5.73821901329962 26.0460638780667
-173.021436604083 -6.29477487587589 12.3187211323619
162.748538332028 19.2882804772117 -11.8811752147624
52.6484649630819 8.59943044170991 -1.6104040332211
-106.60625565106 15.851950429539 16.0172131732761
178.631708319339 -14.7691265153483 23.6697402232738
169.281783076786 -36.2539776618524 -10.3284835432103
157.538267167481 -6.71755031699398 22.2973780177529
160.621036266645 -13.4801665901799 -16.2017513295716
179.707824316361 4.55913458512728 -17.2049839936993
-203.027844390785 36.7615625730911 -4.23900094330624
207.110569123928 33.9232511173344 -0.00581687075166757
168.36343684884 -14.4675818831785 21.6386915711655
159.264509464493 8.63208286467792 27.4208798618052
-134.513989856568 26.8189968728273 -15.022297932675
-157.179108952939 -13.7827730240742 -17.5831851383508
-208.707106287223 -20.8282068766695 23.7768058465692
-153.622259197011 29.2246535875817 4.8592124557417
88.2717085846032 -3.64550339562516 23.6293562805668
207.679662133768 32.5283995719873 -11.1909924775218
154.957663656816 -26.0922079460592 3.58330118598444
213.455188607565 -29.988934998739 -4.18481820773678
202.051234980561 0.151004045544048 -0.620011844085259
23.6365027002345 -4.95305309424284 17.73629398161
-210.661661667498 14.7461389271954 9.827542708018
-202.913745663849 6.48634591013691 -8.67532005931842
189.96734014777 7.54103974727812 -16.1081572046865
-154.706888410107 5.07511033386541 -28.0499741676199
-154.289567960018 27.2754310053944 7.10599532306272
177.080340686453 20.4834305367784 -28.6877175198247
60.6471439729299 -8.79014006140037 18.106226492116
210.447539125107 -37.1254000240693 -14.2373231001241
-180.08907101977 -53.7091439861046 14.6695065942286
-145.864379846513 29.7706918679795 4.24666117360779
-147.743072178685 25.8556880959138 -19.2856192359717
-39.632288231021 23.3166447719477 21.4601987070041
194.104195514065 8.86562580822526 -15.032531433474
21.0860342840887 24.993765417059 13.5069688750192
-143.136740128177 10.2962581958561 11.4257420020847
205.139540942052 21.8356319658645 -19.6832350686111
7.05753849596178 20.860617647638 6.65341929314243
-106.70339825224 -0.0097499781537822 7.92181321604005
141.628555559702 9.35490824056989 -6.1428295768745
-107.131695026761 31.578554079016 -6.93366972029864
-111.359450045717 12.0425852455604 14.7657915088478
179.20635473546 38.0061308848507 0.868643027359934
-155.908953926384 -10.2079057780153 -32.687845603917
171.528785597706 -5.83063967833091 21.5771996073866
-183.775914614569 2.98682852424758 -24.2748684727991
-195.151682431895 26.3336475386854 -26.344861487686
62.5738507814373 9.56605117817434 -0.799310644016751
29.8395596738795 12.3053165828727 25.6487796483315
-80.5285614271139 3.49638633533295 16.25031900503
136.86364820049 1.73394325131063 -5.71710795310795
-199.659644694016 -1.54632839044051 -6.12255716576881
179.045880917827 38.5770036297276 -15.7413202140285
-25.9996857216657 -0.603918920832339 18.5511052876618
114.963339971172 -4.222039851031 24.0197246336047
144.956514122818 8.72882045911571 26.8367570160298
-142.81204443403 -2.82292194780506 -7.53897543110935
164.184483189935 -3.36936377817325 -12.0274703446233
-139.352537211324 32.3913550653757 -5.81040612639201
-124.560888982058 15.7412258168703 -16.2616094076179
-121.880699028208 25.4929568123667 -14.6509143418473
-203.650776589441 -49.4857668195333 28.7037381148936
66.2743840093872 -9.7457668395995 17.3974384122176
116.89760444811 -1.89678073601256 24.8002478243481
-185.784136847645 -56.4570430847367 17.3403915687537
-183.609222836008 -55.0539157171017 17.9505940925153
-69.1866398534723 8.8124295191275 -5.46686681007408
-208.40045107591 -59.0769714494479 8.62665514932751
183.770708289908 16.087950923581 33.6387416616893
3.13882712630443 26.2341742964119 13.2077120365843
37.7343983997505 22.8444034277331 20.4120036373777
115.723851703623 -16.0089953309071 6.81246435275829
39.5260586300288 -6.16678329638513 11.8920700211017
-113.109112931058 4.78134763450598 13.9566612113188
-219.816166502403 -37.5264102283762 15.6952607576609
139.071520047235 -21.6984944395559 5.58719252515844
-69.7415972422035 20.5709480504425 20.4978868919528
-65.0160543395707 -0.629330397294244 13.2706094087362
-220.235610239175 16.6383452058835 -18.1346135158078
183.612756088614 11.7659666192052 -24.2207360746914
189.557545953373 -14.7924351753283 25.2605190157206
-182.977424593138 28.2120490446406 -25.3797864174432
167.733966277304 15.3729105857813 -13.0828219676686
181.107557175537 5.67595909346121 27.6546191426647
203.266170523077 -16.9155717751759 16.26400081134
-174.009043468695 1.29057570429039 13.230391998615
-203.352320912946 20.7962446439294 11.41396336102
-168.977583314248 -14.2860864289031 -11.2834500803574
120.767898979248 10.669224149693 -4.64106723045501
136.393682176548 5.66671610163951 -5.57185111496694
-80.226845195646 21.962653557458 -9.36692936431491
192.908349450656 5.54039757877285 -11.5877202028446
186.453865977062 -23.2514304404961 21.020299725559
-212.277797629602 -39.2564061910863 27.3049748058381
-220.186729659644 13.918625558503 -20.6619074105076
157.230935396216 -26.7890569310432 -3.03175509317482
-97.856269297953 16.0858532520206 -12.1950308200879
-154.154389762675 -5.5155029569287 -4.77214282558622
18.1489296462167 -1.2941251872524 5.23019298061098
117.192915662512 -14.4318016784056 4.24218382496061
176.432395694869 -40.4525695724079 -2.0638818812036
105.524090525075 -4.42688668741164 -1.05490594776271
177.734463670869 26.3243950461265 26.7169106751518
-191.810422956966 -49.5762931355537 -11.0815470158161
158.272503137867 1.30973407568596 24.2551332758619
-217.265037280881 -30.2190557944297 20.2537569610183
-190.633132480052 37.4515397858162 -14.0122560338969
-15.0771556204835 4.75559044801584 -0.514129795254783
213.07274536037 -35.1186687020321 -19.7470309087754
192.520406209195 -33.4689153202464 8.90556034055671
-160.104756461667 30.9284748164458 2.13994638350105
-155.312329911366 31.9872871846416 -1.67933107687229
-196.139176245841 19.9161820754417 12.4274949983345
95.5319908093274 -9.86811839626916 21.0581345756558
161.834399878302 -9.05946388866329 21.8497933626497
-28.0098853796823 15.0403765513748 24.5281711923512
-158.425549942585 5.86901590245503 11.713143216606
188.89913820865 -12.1509418469353 -39.3049833980435
170.60414862068 10.7124480354659 29.4975762054076
-184.13759653143 34.0497827753132 -18.4356032258696
209.976077216285 -35.102282336307 -1.15565178216241
188.118017924207 30.9185247665097 20.0161286109967
183.782013594871 31.0409101581003 20.045983194843
-41.143518095428 5.82999167337792 -0.239493006794658
-132.634686548262 16.8416825262659 -17.9498793078332
207.544250828406 18.7037108654774 -2.93773796551764
-219.144909144265 -34.0750392114 0.579163078066845
-194.246089335656 -59.7161826754562 16.776921343302
-29.4431962353435 23.0918052935188 2.81844059682151
155.572031564182 15.9546488872311 -9.00657560517343
94.6384751811431 -12.6539263083147 18.8185996942351
60.8888932777031 1.25363824711124 -1.22851290424087
69.2629276688604 13.2333570364906 25.2963808548497
167.534329758827 6.44507672934776 26.7027609169014
138.308171516764 2.98451162266053 -5.87659152534634
205.716600302359 29.202206559953 7.49471607626534
203.801905282651 -8.86938800700222 -12.4525043591677
-85.2374994742998 24.9798922335564 16.4674562924421
-180.673273863927 -55.735254002954 5.39288747941095
199.856346514996 -6.66953027309703 -8.91631006044884
-32.6667802426844 29.1050666872567 12.8538039637555
-65.0777991887818 26.9227545417949 17.0219143999608
185.66325728318 0.673323215712542 -14.6578299500091
-88.6814837114614 30.6460376909617 8.76849766099216
-170.572499926581 9.05092461863739 -29.2208429561618
-196.541745167283 6.65540097964474 -15.4925927780045
188.907513725852 -10.3613769025487 -37.1186367173515
-148.92484305106 30.9240075175273 -12.0660358084569
97.2071594847656 -14.2619599459045 14.2686431324506
199.691387586663 -9.11446775966077 -12.4660617260087
127.046466051756 -17.1156001876293 3.80358064720424
203.810281234441 -3.21292759133703 2.81379662880352
-189.345940674376 -51.9368780162575 -8.95773101880296
170.407667541916 20.0353707673327 -16.4327360897422
6.61042880345556 23.2012164335464 8.96950134188912
176.748089649517 36.923840462822 -15.874699310401
165.969921441699 -28.8940794496103 -12.0071006202358
-191.057200539825 -34.7248508194706 31.5859150183062
-38.0999400017028 1.69780582474279 19.2611333469696
150.684602842988 2.86998010812068 25.2532158894559
-218.969954847188 -46.557591535912 8.23008750537009
177.145480863026 -24.4989990352655 19.1434712716906
-132.630633746376 22.0956598666706 -17.6072002452619
188.422436362099 0.343196187603063 -12.0961534248582
178.941496195542 -23.7198198100837 -39.1541281430575
-100.472753634666 29.8094862686982 9.27566344961972
-50.3095079425351 11.6145872462136 -6.02923534344065
-174.053712384267 -39.5475959702344 15.3379892887577
-126.220256179231 26.7380656837131 9.68118268287518
184.980495991621 -3.7100002378371 -16.6658483029687
53.3296013502209 -1.99212326527894 3.38522648584007
-155.332456781903 10.7698237445982 -25.449418732518
-209.973326531714 -17.9788634617864 10.9457488995026
196.238389387831 -28.5935117599273 13.9846361596827
87.1174587676282 -6.63770481431924 3.34186574604963
-19.6951159822774 25.0301061643666 6.83813283574787
-176.077540253682 -5.68576140683106 -16.5401935867823
143.984093404808 17.5851394945234 -4.76563885721973
-213.150841624016 3.65242055353123 -20.9742751602505
-217.438765280346 -32.1892081757627 20.7026172203425
-89.0382010377148 30.5269279550878 -4.41776037095402
31.2414587222346 -2.02722778468104 4.94710141256063
208.246781932439 20.897117979097 -8.02430718443408
-206.883251532306 -19.2679195522289 23.7812410864083
-215.90528831197 23.1091196094398 3.46084178274266
154.952268428632 22.1869352560164 20.0110082820913
-95.690471014089 13.2695709964443 -11.2648397926102
-36.1668200251399 2.49580066806707 4.05737811815572
-161.142164229972 -14.9827486058644 -22.5620490484176
-3.91272436081738 19.9728690588334 23.5993836388972
-205.56033086325 15.8008187266789 16.4922482547168
199.515154665447 -26.256461276026 15.975386767403
-35.9334478598576 8.74705400493871 -5.01380334997336
-201.441464173765 -29.4346077570701 -14.7590136853203
188.784904456617 -35.0657255166077 -40.6808003726979
-181.187104064105 2.88511354449634 -24.6618620312801
213.555079343169 -24.8219886303023 -22.4720112550118
-174.542332986354 4.64968165008618 -28.6038583562866
74.7254420228892 -4.06957526873136 23.3187772000152
-154.241356966044 -10.3875018311753 -15.1527502206767
-189.669700299321 32.032176843086 -22.3559915778089
49.8133121778318 4.04777918462993 -2.67544076018517
-70.7941067704154 27.92366354985 15.4576609994111
183.491384369517 -37.880363614569 3.77355710864287
-168.21292012064 25.2584860002045 7.777107365985
143.677297215916 -0.862063482818033 24.6774246285216
158.502833408525 -27.4910317530991 2.86702282727589
-27.8611443361803 25.8882762030901 19.8238249020422
185.23057903757 -19.4691813176854 24.0717314245042
171.494942316298 2.0234650151149 -15.2591772154138
-196.491469156095 39.1250149369691 -8.78753854348403
-129.897026444643 1.68848499391513 -12.1321976510166
155.232556054027 8.40652972442758 27.102180311292
-21.118075284917 21.81199438863 3.50126603414139
202.02853784928 -37.2014609646498 -36.0789359202185
138.772238662976 5.25864909810111 -5.83043784150356
-155.134311315569 -15.341058186597 -28.875364252637
-6.07255702543789 9.54609205555096 -4.41927630235279
163.812345055302 25.7149055721056 17.4653638818505
-140.666691467399 2.56959422368364 -19.7503514563037
156.609749947593 -1.83630592457858 22.7576499721533
-132.707291602803 14.7128738765423 -17.7385354355667
-30.2244457126661 28.7621804412111 11.2069762033323
163.761539777894 1.39940291756294 -10.7311945885182
-177.302793097214 36.4562668708007 -7.76694759455965
-17.8672102193002 -2.47516640393301 13.8697486536599
-18.4061976840714 17.7161847733155 0.602538120912574
144.902941635447 -14.9142297358242 19.7693914777412
-117.038230745892 5.05126824275755 -11.0888142764069
177.180224117342 27.5068823992514 26.5840865925904
199.837654288235 30.5129278704226 17.1690094779418
214.798483455774 -22.9259779382591 -13.2083811443406
-141.355835974374 17.940638435972 -19.9595450633634
152.494892987784 -9.18453341073215 -10.3855087455011
175.050960136805 27.3507422854555 -27.6783415947851
-177.564679870917 26.082069860774 -24.3395473965413
34.6924892157836 24.1221758556588 13.7852984641693
-84.2594794976101 11.9011725532243 18.3206464754047
-208.7633954217 -17.4683328285911 9.17008397649507
156.214764146591 -26.6408932376711 0.47436718339686
-192.444958417989 29.5062624042877 7.01196904958356
-154.01349603867 -3.35218739387394 6.4943700107933
-157.852762066011 -6.85653019466668 -3.5032145054238
205.224308863023 13.9463207757095 10.8749077544215
115.408175233882 20.4324298088639 17.142239619976
-199.121696137702 -46.8085916607489 31.0571867945902
13.1908264472567 -2.64167650618926 20.0400072417216
189.18152224072 -28.0467379601309 15.418206786761
-198.407489286741 -0.0432104895333294 -10.2570984790749
-104.417359728737 9.97889568107978 -11.2414635504582
46.13216397561 -3.92092855022789 6.23418274026601
122.677069982622 12.5823860329704 -4.71571512087448
171.44098191143 31.0332293880663 13.1174626029251
-205.568388586264 25.0155971666652 7.35944094481376
162.975776720133 27.2131774144456 10.3861142802472
-178.1135444224 1.52180525896438 -25.9741088680192
165.554955747656 -31.7118055011496 -7.07737573883293
178.995197551996 25.6486417768995 29.5862206871448
-172.766995304379 -12.9886505898471 9.40769307410414
-199.914878579614 -18.8751699632267 26.3252935101521
165.509818690014 25.9602445585823 19.012568887863
202.529972571127 -5.33633970718222 10.7781600838022
-40.038127062583 10.6314940499448 22.7427440326544
-209.144629968785 29.3156317254565 -14.9330137272658
159.591066980953 -9.11323430360649 21.7938581197502
170.310089826116 4.40983435631243 25.553173884836
-205.51257360318 8.13503397010169 -11.0301205553972
-202.419519151812 -27.6130245988933 -12.8468074950693
195.276966690372 -38.895748322222 -30.0531477632491
-190.391184408254 -59.4572309639205 16.5688392470338
-117.283171323383 2.86132994251627 -8.71705092143023
92.3875749103951 -13.2187586019159 17.272137976533
23.3762852268719 4.57304189781621 -2.2574795137842
203.168728123952 11.0362541814645 14.1467204512102
196.242382534788 12.398097081041 -26.5438408526428
125.096411326991 19.3572770591175 19.567775795683
3.54750932784605 -0.183304367696556 5.21999774984898
-128.720306943776 17.6488941909321 -17.5075010319767
-98.5868002024386 1.77207556354045 13.3390912221748
17.6492453860085 21.2456695151763 8.00601854451071
-142.961042104672 -3.80538791901942 -9.85610493163913
-156.307406397591 10.5260585156752 10.4811484228999
181.35354120733 19.6073288986149 34.7814345512557
190.257512460701 30.3031862949753 20.8053129853872
-134.308819080578 19.8512986420857 11.3988261776172
88.1715347196609 -0.0831467851914746 24.6971662653551
-193.523531336949 -35.3202001322654 -15.5986398788767
-204.318761967953 10.2729905138498 18.0940426554166
-56.2509717709539 20.2583421743023 -5.29684135333519
-214.140845476054 -20.6992667111778 8.07165944623605
-168.157148578507 17.2815685794638 -26.0415021920337
-218.663424526451 -29.3831091707757 1.38652523183931
95.3628016098279 -4.06532476938658 23.4640693737621
105.990712464044 1.65489154252016 -3.03197322536875
-208.589033801005 -51.6914493593019 -6.17352638271068
132.172440280078 20.3414765481254 3.12115470627532
163.301229060613 0.125085365996283 23.4423976008555
-192.323204608063 -18.917598973484 26.0739432956116
-168.173894851293 9.23283494934832 -28.7491677845216
60.3659009930887 21.5793488219428 11.2318816503613
113.430199327316 -3.96916156551105 -2.43769847469683
-211.453916276551 -53.8501517937882 18.8548426484652
-173.261600544623 -44.6768420517662 4.04328449329448
-210.666490434973 -40.5335169764802 -10.3148977086228
200.896703999865 15.8884070777052 -22.8539622039148
173.798241504487 21.9825740421563 31.8015013912287
-15.7880500657558 -2.48731924087109 16.2469522513537
-125.233798515784 32.4196689126441 -0.609031886017883
97.0173534122683 -1.74381397484049 24.2755691592067
193.394476174698 -43.1106967716007 -14.1066103327577
-200.879429324866 -54.2786812602961 -7.718942473399
-157.030173829013 -16.7962265884501 -25.5866655683674
-137.471100578122 -1.07253805790267 -6.44820402402816
190.22734890354 38.4730545209244 0.38893690991719
-166.469153119967 -10.5550517103602 -18.346988651034
140.776548964496 -7.62270597603026 22.8671276663926
177.577760142767 12.6638753350216 -23.9610140373305
-198.078852426596 22.4102979757618 -28.3942090408789
173.701304029751 5.78867479237006 -17.0122926889478
-127.779806712283 10.2830720633212 12.772785772347
-178.08860273002 3.48275624045578 13.7447585055863
-65.8861567499893 30.233948216017 12.6305133076428
186.915105126085 -40.7461397771432 -25.6091918975453
188.922342710223 -40.8748331124946 -0.830852357620231
160.513411102353 18.7379437817218 27.1505689332059
136.907612411909 -5.92785544947138 23.3890503195731
193.509859097061 -22.2671834916427 -42.5443203149446
-141.21147272234 -0.58069706541645 -3.71067259276022
-188.18881302917 -8.13021774312328 15.8169555337678
-140.355911626835 29.2229944734017 5.74408802000774
199.422839942469 -41.3265923816552 -14.6270708294862
186.593521941937 -40.4883855256084 -28.1681311297007
42.0960503357258 14.6741408133697 3.11526823763177
207.707741943887 25.3477529516598 3.96164819347991
214.165973565693 -30.4124443409333 -8.37009409507927
-96.5949919602667 7.01253536689295 -7.21504296231953
-196.073453504044 -9.86895608278432 -9.84079737115458
126.182355829818 11.8182311614639 25.6754656206373
114.623250187678 -13.8364064202536 4.442049693013
129.53199019733 4.2609867268499 26.2821109580906
-199.512770420857 25.4635296500963 8.67239382664019
172.027436015172 29.8273849730145 -22.7496627226219
-168.289264106187 -13.1998725019804 3.53735607113469
204.568894093823 -20.8087746417871 -37.4946608609031
123.398921778885 0.942407973421943 -4.32781578872669
-184.920464933713 10.1171559869304 -31.8964260726788
201.564647219614 16.6985661954907 21.4648919912201
-220.566119396584 14.163645171719 -18.2598524313618
84.7736540714494 -5.2289409999144 2.42982546770538
175.828642647712 27.9125817771185 25.5040104432293
168.715618849743 10.4694991909408 -12.9945190146815
173.439828723598 -37.9926015616843 -1.91203269061963
-51.8927248765555 29.5524168973188 14.0727732883324
163.470690657833 -30.1602130261966 -0.110284076242149
207.884588942039 20.0094817012184 -5.70091174578822
100.348516412581 -14.4744483920427 15.1709031533466
206.253512602221 -7.08767808633385 -6.50230432002433
148.32840492089 6.80830629774513 -7.1741761238305
179.425584030985 -24.1030170615121 19.928429370299
162.605164039547 27.1585045206568 -5.40036938203842
-208.850530836275 32.1748770916701 -9.34443990330627
-185.059500316448 -14.7214911619747 16.5611083198152
-165.911354977558 11.4813032170753 9.89070197175767
-114.977618865035 19.5187838569651 -15.6935642498201
-67.0853854493783 5.87263033508161 -1.01063569275567
-64.9853385454375 6.34854801025626 -1.76062051730546
-14.5693354683705 8.94464345849166 24.3104607842372
160.174073496713 -24.7992741447086 12.5404481703314
59.8546454568018 -8.95543039121465 14.266516574207
-197.835303244786 19.2461546935213 -30.1063362112116
-215.292422667792 -21.7276587561412 15.7151274832961
167.242650379908 28.4893618984908 -11.2280648629256
-144.793270167595 -7.39525740103123 -18.7817487608136
107.172622062118 -5.25282532143529 23.4757141610471
-216.773400687605 -23.8318861434299 14.7674370213577
88.0912702422849 11.5391408763226 25.525497910438
172.255610079639 -41.0395760898561 -11.4417941820612
-175.912376889435 -45.6231437332964 19.1355417726478
-68.5508505667821 29.537822862407 13.6507663671576
-47.5606364850105 2.93543516328257 3.34203999366829
195.27625738868 13.3249374592764 27.2914162760194
209.554017386343 -18.6643691623942 6.12676726215527
184.225718439238 -6.78746723363886 -19.4012301005165
171.758944963354 -17.4091917830452 -24.0196698209683
-140.66350145523 30.7916802365304 -11.5372539592133
95.6577619154678 0.132111548951286 -2.15600488037921
-205.731174520141 23.6875908040444 8.95645120940661
163.127368947769 26.8340471318844 -7.74805063870042
-53.3540509957763 -1.15299796432159 13.4663945083281
-113.831300574604 1.23656868240535 3.44270496647914
175.620510282281 7.52015348539436 -18.238900028445
44.8661360470336 9.95075861900939 -0.921159779885932
186.272599692454 12.6178849870836 -26.4655406738452
-209.603403342222 26.5336280142739 -21.9879675467457
-183.458556866523 -44.5094516202603 -10.7370663484746
-105.155815373536 24.3932757381105 -12.7360832203961
195.888139027737 0.76656306304329 -5.12178623724737
-41.3341188080852 -1.65467785375453 12.5064784626709
180.589195012266 -44.6888884430542 -16.0313528054333
6.00178996098311 -3.68382479879815 12.9584877977994
-217.23569517305 17.3041222855886 -23.9112414174935
86.4201285506627 3.29807847764427 -2.49630414290096
0.204058393335161 21.0149015160376 6.03389307800011
113.216805418647 -16.9449355712669 12.3438431470156
-217.841470251686 -24.4583884231201 8.59500826900226
-206.432545534748 10.4183022017485 -29.3291513052494
195.074318801238 18.778900874178 29.3491663575609
-198.15813823608 -57.1503761095898 -5.1692979567432
173.512350006288 -14.6736185507702 -28.3028161151478
157.284732595132 -26.7880722621737 4.68101634062321
-29.4298819843721 6.66650921568123 22.0935936836837
-180.329612430036 26.9810959208265 8.25415979667003
180.199140501893 34.8756972594096 -26.9520283789259
158.342327130038 24.6268569645848 15.3229543702443
47.6847224075886 2.05423230749307 -1.27784932788181
4.16852635202096 26.5330226514033 16.9248223427344
208.575369904528 -10.8476306021601 -17.4311203499623
43.1078648224457 17.3091740808952 5.50583368804714
185.076772620833 -9.11245328642005 -34.154218695856
16.7580075059979 18.0224810002312 4.75508402274745
152.379471839403 12.1688446947266 27.3342365406218
57.0767687089337 6.9143837877992 25.7864735306663
-220.9327351823 -36.6339413992395 7.93089499386763
-184.220525920837 -49.4147034622679 -8.31888420477793
171.69925224047 -21.2998334573633 -26.6070312953723
185.040136370406 -37.5295555903314 -33.4641548437448
187.349702079844 -12.2079019095353 24.4076119626645
-143.739972558595 29.0952899077331 -14.3212452846331
205.640050567827 -15.3258750542779 -34.3568807716179
138.226849618912 21.3892913314041 16.7643317180917
109.668944676961 -16.2184301081925 12.465068846808
-59.7538195262255 7.62922763828155 -4.81311346479629
-136.629902396065 -1.8373846766922 -9.78140396119482
172.773507141802 34.7752794678839 2.09797366393626
124.319009288972 -7.05280813176029 -2.9950514952118
-195.969059746736 32.63381524369 3.03971850744595
-216.456406620648 24.4366021314848 0.813255176678225
194.428834883062 27.2220848922418 26.8939882677062
175.98662429753 -33.4165065713953 -27.3091594928426
174.860225583445 33.8296404116695 7.53356179661601
-202.64300374959 2.64377504999859 -1.59966429552956
-166.541486106118 20.7249924273274 -24.4960994403095
-164.538204616469 -10.4535439356029 0.336396239338732
180.372256799091 12.9323571965146 32.2807753078652
-220.440257353478 -41.2513113532284 7.25852409182503
-148.594288034611 -5.42900283078114 -11.1363408262337
-209.92168941152 22.6248104121243 -25.0362211742674
-158.141546244355 12.3534370560341 -25.2940707703328
-218.483291012356 -27.3081395507321 3.70840887012653
197.172755309354 -38.9128013007103 -28.360467242648
-213.015396069095 -36.833956648663 26.7203516145982
63.2158147609241 14.2075806648946 25.1156735091853
126.240351830969 18.4184504534553 0.823787123098823
-107.391554723532 7.79401188790049 14.6977344262282
151.397897198611 -16.7131052725784 -11.0124378297769
-178.695570893117 -28.6889308604103 5.12675675912853
-207.874190258061 -15.9874722374283 16.9599700271801
-150.840797838183 -2.57771206710485 3.30291875747173
-204.003510792801 -39.2153858249159 32.0246480003001
-185.936544346192 40.5361183175565 -2.08226467112682
184.172879550304 -42.1454172375171 -1.41449466007394
11.538659319103 4.04333702922997 24.3899772155499
116.328991963841 20.8596994487417 8.99896282909529
-153.415319959179 -5.87656553324471 -6.82049649461661
181.052193365024 -42.9144604767791 -24.778674129216
-166.563209748935 32.3339154071 0.494418439175884
12.1709952369496 11.2396946432445 25.6518533327035
162.436204931094 -12.9213810546675 -16.5817280285506
174.369917804868 -17.2522619208483 -32.3264581434449
118.42188400185 -16.6813677354163 6.76336706539571
-181.283933561301 -54.2215764750257 -0.777559848851354
-191.508909547101 36.8510808479269 3.38749938749961
-95.429843599153 18.1845828833547 -12.6578421579745
1.58598745322345 24.9074979734457 10.3746579522602
201.655690759458 3.97069672472518 9.11146536181148
-201.957733532102 -26.0922333310192 -11.8075740002263
137.440533216624 16.9562933165664 23.5005508485596
-3.22964250928256 13.978215955007 -0.394727592365006
-9.16279614370655 -0.306619566866343 20.1644768450987
-152.116859204738 23.2821963098794 -21.6960485087396
201.73938682783 -13.7546072399073 -37.2066128479973
-188.5299977866 41.0582739309002 -2.47297399603576
192.82664614692 38.337421453381 -19.3517165513188
-190.90984815102 -0.725431954601377 16.1168928632615
204.534666653442 9.57592203092388 3.74779652782771
-67.1660518481019 19.11424368722 -8.58257389757811
141.594957730415 -22.3596299568085 7.32254820741192
-210.953255542916 29.3640841208746 0.400655984159991
-164.114647991877 32.3020141305228 -1.09125274828721
-201.889541754934 -31.5207411798833 -14.750723193957
45.2986375474563 1.14772681679136 -0.0671228362268017
163.636439745077 -27.4573578694536 9.57475809816268
-174.246520058719 7.44515178038619 -29.5483328578721
-205.229525461134 -7.71405617762919 10.2067635938487
209.431590260186 -33.8966840289286 2.49993179833638
6.38511987464508 18.5930862346771 4.36034284457796
15.4963043693383 24.202791438931 11.1946163674836
-98.4399324704303 32.2706101412206 0.524481636527807
-217.388279289282 16.4002192853002 1.85604907406558
186.57877756363 -6.7499696069155 21.6853416871683
169.451986426683 -37.5465173179128 -13.7166690992782
152.681737533613 -24.2246300164374 -3.40232626208691
-147.255527117931 -8.14111346575686 -15.3134337812504
126.799557184465 -13.9322275292489 19.921971658771
181.420209741347 -36.336841521821 5.32330857689752
201.928877537597 -11.202545673354 -19.3510759455417
-178.001791674433 -49.4825637442777 18.3248339183808
191.447519470166 1.24719963779247 -8.55129104734107
10.0778975281597 20.2322267767563 23.6187547705691
-201.826522271203 -60.0991227208029 16.1718339346599
-194.204278273974 36.9956294839198 0.485718898531876
170.908415467741 -10.9832155285526 22.1826775025271
163.486767116826 -5.98550716596732 21.8502254784049
-14.083062069493 10.6081594532333 -4.53769782859128
25.6354877561425 24.0306931734309 12.218678338337
-138.685976058362 30.31338103967 4.3002637100018
-17.980354136531 28.2281587854622 14.8079984991249
163.990291258935 -8.61140482666641 -15.4151347399805
176.026704813579 -30.7701334500212 10.766459471972
198.575267309546 25.3030810195635 -28.8844563442962
178.978143009671 -4.07464998596878 -19.3844778168526
-203.283574478641 -25.1289860947266 -10.5765883469802
43.2093782432132 9.94145006202454 25.7493577121528
-178.904936355443 32.827089244344 -17.6723509034254
189.348127726699 27.6785937108017 -32.3558712791078
201.073637853554 21.5367028200379 23.4212922006832
-36.447869165588 -1.7323411368871 13.0680245447254
161.476826583898 -4.8086930441426 22.1977957989441
-215.121183463827 18.5911357703632 5.8723732387262
140.881706468956 -2.53854353511181 -6.58359416177073
198.961767102322 -9.33617941571034 -33.0365596901782
47.6644907274277 0.162484245392675 1.34440193751313
-11.4510831260173 21.2075016346761 22.9701724192615
105.85820946028 17.6811396064669 4.02472189027007
125.214416718438 14.2442336399801 -4.42445364816885
-215.596238360894 25.1723307747894 -5.73199299261373
110.84022020531 -13.6206289502465 5.52852985238174
-182.52799227888 -23.8522371697025 15.6592350808626
-211.919612964976 -30.7615329459351 26.8528153348964
166.862011151184 28.1107576422933 15.0777293418248
-37.379391566941 14.052283279974 -5.35891581682206
-138.483764799 0.163036227020888 -4.68362919679017
181.914536577726 12.6875544872512 -26.1067679931243
-116.421604709899 2.79133584529317 -3.49269286027631
-7.30678567473061 8.21342187720008 -4.11281828620324
9.86459523384391 4.17696504438436 -0.521084212068327
-18.3199556112706 26.804436534045 9.83581253586172
-6.99049492984047 -1.72846850357187 19.0979333200585
-214.461170681042 -25.6526373714492 22.1205932271545
-176.466984058287 18.3765094598246 9.53122130884347
193.987798173349 36.033718934995 3.33473184970856
82.365056908317 -4.71743616140836 2.27446821354022
-89.9473683938008 16.6819721039699 -11.7640838989676
-188.174034859474 -60.2811183046682 12.6561036198791
199.567316291757 8.06001891503342 18.2167826034423
-140.926543483532 6.74759077280623 -19.9310193201874
-188.029118900222 -54.5921156237576 22.1021234836283
-153.298088592312 9.89541894800218 10.7950362058961
190.163545580107 -36.8192951238789 -37.6132621492468
111.168264784638 16.1562503519146 1.8147429235354
-167.82719147227 31.204347947216 -15.9381249659086
34.2028041072599 23.2582630586033 20.2867370660439
176.201098213531 -27.8486224862687 -37.0646878354717
-103.251073610939 7.15357023688078 -9.82885212430369
47.1744043205592 20.7602485560218 9.3022579760471
81.7332759298659 16.8859986355248 5.0717242926247
122.238162200527 9.54717610835875 26.1839788797293
-159.409239651927 0.671175433219513 -30.4345140497878
-172.256450465302 34.6301176093655 -1.43963960367802
-218.335269040224 -46.4604695745618 4.04025046182258
-11.1813581817832 2.0991816915804 3.25312521578137
-208.989685074494 -35.2479244246213 29.761687394763
-204.116543340672 3.39400627266334 13.1625101948091
192.615772261559 10.7454318070913 27.7594048443045
193.356026496259 -39.374202436165 -29.409226450429
-188.924932223448 -11.7663826779994 -10.2939261459861
150.616893277023 -23.6236908932416 -2.34929338052021
-208.447853923541 -56.8913089336847 17.4481883053571
211.09231055083 -30.3082648307313 3.04849824004036
-199.667282482515 37.8615687037349 -7.8314934608261
189.517386209436 -22.904848919717 21.3630101328394
-29.3592755655462 28.8222916980206 14.0091628609255
-165.826336587579 0.846177154712951 12.6432053612396
188.132885569171 11.6354549076967 30.5854420751609
131.983854844204 -9.5785200997875 22.2904779334714
197.864801482717 16.2090115667614 -26.579183904267
-8.12867095431731 19.8233973435098 23.6297099135796
79.1670814166457 -3.04246945158134 1.23095708324425
-211.45958878285 -32.7413782707009 -9.84742915105882
-86.0152052566042 0.648768862370271 5.52277464192329
182.239611771772 10.7182232701186 30.9282639359741
-97.3944609825304 6.6827238704805 15.5762797609695
-150.75299034816 -11.9505278208922 -31.3400436301442
-219.959941270177 7.80268786090768 -22.3626602190454
-184.921315844296 -15.9473720653042 -8.90883484800577
-120.251225236052 17.3650285676031 13.8644466094953
196.715851471527 10.1032467437132 -22.1055227201311
193.533738694533 -40.6306645896918 -25.2845976869932
30.0576728101587 0.525329485959721 1.47657033510459
200.210866392294 3.85585657939849 -3.21124666151256
12.1444758953328 -3.61592646926872 10.6144685573988
-172.175899943459 35.0651595175611 -8.32061253200434
-130.317701516087 -0.199661928455427 -10.07865720939
171.444392948071 -38.6769042618347 -7.91174003480343
143.457647081585 -17.6246452045403 -4.85998307109146
-14.1675248666754 24.0696883711974 21.39877279975
-212.108644692893 -20.3752966209764 19.9250246125694
175.489879740553 4.37347378630823 -17.8427425015985
213.052372777193 -15.4569333497956 -12.4330963329414
154.939610382751 -4.43773098095285 22.87201589764
146.223210232921 22.0618332772185 16.8092904171069
-51.8419673022027 30.5419164922343 9.40728773392503
179.970039908228 -20.5450865767851 23.3675428461764
124.681565210733 16.2648219281243 -2.99854628520005
-114.538345962232 32.4385146030491 -4.11326875453289
202.673431488597 10.1760015210775 -12.2680920821755
174.902150941635 11.7325225614199 -20.0229439015282
-114.343262919499 0.788849045440282 10.807880183099
-193.162597594261 40.5816537602838 -7.69086047223453
-213.018560817483 -38.5673295869891 -8.7814516454996
206.805201501634 20.3284130010337 -14.6098359447925
-221.08242318835 14.983894804279 -16.073686781664
146.242186820917 19.3212751178031 -4.33395918052188
-215.784332074995 -27.2729850463928 21.3110437094318
-10.8269141220025 -2.76387068234353 16.1557807766735
181.988915838698 29.6649675981458 -31.205840119757
-48.6027425548384 19.0961083708111 22.7466553165738
76.8401782312311 -6.06030019055006 4.59294733320331
166.031036539156 -13.8670877177246 -18.1241869855294
133.696426046354 -9.07280318041213 22.517482524592
206.407023611465 31.4141219516133 -17.058915852666
-178.382133638053 -36.7547660462877 22.7446158786909
204.537880199365 -11.2027519783621 11.5336411108777
150.817526647181 -1.03370108473112 24.0072171066027
-7.720371301976 11.1638341259648 25.351970632023
145.420506839654 -15.8143475829 -6.72732032333872
-115.715267109926 25.7610097509789 -13.7418448334175
-205.360065121192 18.9850603091808 14.0286321236889
62.3490859807977 7.9130096838964 -3.21078747740474
-130.066504440557 31.3651536426321 -10.3128022007257
131.508744816798 -19.5546017538114 5.62820126732153
-162.289130571063 31.0877876907872 -14.6783181365023
122.565772771782 -7.59741332248009 22.961153518601
-157.473626353032 18.4784281480339 -23.0009017681629
208.813496003492 -12.6494719691807 5.1458569014093
-142.534450027864 12.4675963031997 11.1339474921925
-177.395781777302 -25.0433891933872 -1.3786473615017
198.637415918171 -2.01678069807199 -4.5007111372577
-193.349716658092 -62.0310714617222 3.24762453315421
174.367799918134 -29.0558333563371 -30.1266871239166
-161.705476781787 7.94034700252601 -27.9530442349503
-95.443832984867 5.29299399557461 -3.80681879309191
35.4564920435528 -4.99369093756265 20.0312469719711
199.379774002533 -0.725505564817631 12.790076008331
-221.147663917989 9.77049618382024 -8.85668904320493
207.007186599557 -7.42938266195616 0.646682367093902
150.198318579208 -17.2203744943345 -9.5683816899502
-111.933281817203 23.9138171050251 -13.7186933528371
22.9379305343949 -2.62582328495339 6.57308858827069
214.034120307932 -19.174847947014 -5.82657563681997
203.054919133173 6.15869822991983 4.76789613386417
-199.942482398507 -29.7159324020379 -15.0798772749188
170.853132830543 29.7074384515996 16.2532481866939
-56.203147991983 24.3478240630991 19.7902471241862
165.622426486809 29.721278481884 1.54074478432975
157.802080241019 21.9012086792134 -8.09703223223441
197.784871822982 -24.0384100806688 -41.618504055308
174.445510475835 13.6026114063767 -21.2870811088601
-214.639633557032 25.1976113000482 2.8134059635116
167.844018401809 -13.7644700916013 -18.4951340761017
208.113540805813 29.2993155129093 0.0263394600915752
166.779436924564 15.9552819254912 30.4959012785721
133.077591975519 -6.31762653948662 -4.97352519291659
204.794917695867 -4.71540962148904 -1.35964846662039
126.347842742168 -5.17008338237 23.6779148072924
-209.961996410215 -33.726539637808 28.9214349757254
149.512363532402 13.2095134294093 -7.40161526294966
-189.60312710016 33.61901404994 -20.8360220078405
196.942800876771 -5.44820650884756 -8.97832403621575
-213.449134965607 -47.6864477391916 -4.84313211843184
-180.89177691157 7.37320979067762 -30.425823374343
-57.8854669424374 6.52510309896885 -1.64862094597059
204.216472909549 -9.32140653090175 10.96929312106
-185.792991107057 -58.8624885698346 3.10546963044004
-212.672882704164 15.0504712564709 6.78477642470512
32.242796258025 4.91199068918844 25.371939440624
-130.194413521439 30.7502398202465 4.17869191692149
107.528410988514 19.2938830770276 20.0210777683971
137.061643588703 -8.57256759939446 22.7134235524236
-46.5621846325761 14.71664811685 23.3101505121687
165.637036008888 -9.51347336176286 21.5250583472578
-40.5731398044271 26.8506405179956 4.04668417713564
-173.072106670542 -19.5291446612862 2.91565180235498
-218.69645597965 15.1049153576763 -0.329450169929138
208.215906678988 -17.7220300153656 -32.337936103883
177.871280315432 36.7087411206767 3.04745185803697
-118.396858366817 8.01373664504947 -13.0930497149594
72.4120993445444 22.0851235116673 14.018731179852
-6.85998370697457 3.10569368515681 1.55104080627189
182.541447226752 -16.4835704550995 23.9012681444197
-127.58588679766 14.4145113722534 -16.7338324005626
-215.278424780419 11.0553669048776 -5.15491119609532
-209.932247416543 -57.8109346623879 6.90461489744475
-196.214598893344 13.3561493878146 18.9937613528496
52.8631744256489 -7.98590801195922 13.6663811595292
50.8025272845741 -0.451059900975984 1.94465002452198
192.233990793378 -10.4519622771688 -27.7420119418793
-183.526820620914 38.7314907446447 2.60828615782612
197.111721950764 -37.2045001934705 -37.6533780664855
176.952676905733 -44.5599848220066 -11.3694217714717
179.711858274303 1.78434178410376 -17.4541152725306
-152.178880096166 -15.61216600774 -22.2741936970576
-203.876259868266 -6.66228105957905 14.2078812830523
151.030269893939 10.0942783007992 27.1769568902073
-87.2621462110397 11.1637847314752 17.770665730397
35.4046787680881 20.3241850597004 22.8999046808542
10.2638846910091 1.07774019719778 3.45167812062
-212.150347689065 -26.687764548359 25.254108853604
203.728055470284 39.4748980716079 -8.46450380474271
188.284363514166 -45.1131610551514 -10.5461643738781
-76.3400863253233 22.9253041612275 18.8198211879175
-45.3134072193832 12.64455191637 -6.40681017612966
138.450814171144 -11.5681753334565 21.6289466310167
95.414766316994 -2.17782119940352 -1.02769121617367
35.4262518591349 6.51665352012576 25.6258298258711
171.599476904551 -33.5481098949842 -21.4337224745024
148.267626725191 -9.61492525175369 21.9338004772502
198.481784179739 -3.47515662995299 -5.77274903793096
142.872805273667 22.6562941939024 11.4251398604242
-86.7135624797629 0.0266111230275957 11.8985469767569
16.7449614597869 -2.27155320103259 6.96796120597322
166.679549149266 -11.3693228975659 21.629164821812
-165.41460769599 -1.53565022315306 -30.0816064637635
202.297479258244 -10.5439608472914 -15.1429158549656
195.624073773741 39.3304085316366 -18.7172496120781
173.569355179657 -16.7990507095633 -30.2565497265869
195.518251949246 -15.8134227840221 23.4548127252265
173.190413581399 -6.05098933543093 -18.0663308020371
-29.602117247793 23.7653979418088 21.4673154152312
