-52.9470580754462 -2.84332118516507 0.173810168456794
213.784540143973 -23.7574990306983 5.86802547281816
-46.5914038184006 -8.21228194945744 14.5769413430007
-165.36847356039 3.18351496777661 -22.4577972903019
205.663718532183 26.1039995266353 -26.8312423084946
166.235221474346 -1.5174636521948 19.8734456485644
13.8867239052035 0.377599045075292 -4.76119912869828
-194.942753038887 -20.5705619616492 5.70334405469813
163.10317982827 -10.8529356127435 -11.6266502768649
98.3119668885827 13.1659464529559 -0.198044875718725
-193.770491304071 29.1061058575882 -23.0503340193227
-151.964839340705 -5.93016621380583 1.43460977248219
-234.716037531348 -39.1404813709727 -10.3317764218205
62.1686544962834 12.7505855492274 6.98187241428775
212.708746486201 -2.71585628649595 -2.99651330610934
-220.275009515677 -39.3883067752653 -18.3870958888351
152.459654283276 4.02771903712531 22.186086951116
-191.648741261953 -2.78661345207808 -15.4991224598444
183.317862826737 -37.7775842566313 -20.2846900165979
126.714057843687 14.6993063304213 13.6600762349478
176.687383519706 -33.8127314067216 -8.20946630624237
-100.119492946 -0.51437366637389 17.7252555322529
-184.391049800968 34.8070794339941 -9.19726216726802
179.944909228179 -33.8545764757316 -22.205568199112
-195.98604898259 30.1411715104265 -22.4045730083528
-208.112994841061 35.9094047240883 1.49434984901424
76.5001128670371 -2.3233479386496 -2.03334428004397
-184.280934646501 3.23449439049886 11.8802980246062
158.773235165944 13.7470453750582 -8.55218947023801
94.4445102362305 -7.40856250333799 -0.555859083786163
98.3665930461388 1.57126593737044 -2.9736500694555
-207.939824580186 -3.89988979616553 -12.435390459048
185.766056605826 0.0517881165590841 -17.7364738880458
-113.153430643708 2.02860716406513 16.7392465411897
-146.592571989131 6.61738650175815 -15.9282551236171
0.725488985930117 -6.69650015388915 3.97358635611233
207.908385946336 -32.8715650668998 -25.8203638075419
-121.736547791055 14.3118422038244 -11.4080717450992
-211.626588107679 -50.892981627852 0.77464083322816
140.505580003735 18.7188949961632 6.68617645388274
141.525566694123 -7.82613159851797 -5.14934518400386
204.850327852034 8.94720564818554 17.7232868792992
42.054535594411 6.83725688622862 21.7638909690191
106.352567756389 2.94423761303258 21.8295685502864
-166.011265028543 -0.854135971262688 10.7206176741177
-217.004480619759 12.582311865028 0.100623802236798
159.654019130049 -22.5932078014027 0.248598625398131
143.044920172721 -19.0617295596421 9.15953688976667
168.220191522703 -8.14749548518387 -12.4743597934155
5.35447164443594 11.7201440482551 9.52848142876377
-215.767930281261 -45.6215636048952 17.2050898748743
171.498519300845 31.2566260594939 -10.5149703717329
-215.762776278712 0.538359685481545 3.53327529143676
207.314296276706 1.57492042196948 -8.70270729299471
-66.8636489745168 14.7547651014338 16.4766026909581
175.53699890024 -26.4270597175209 -19.6511974728252
-189.780938920884 -1.81168659403766 -16.5736521612031
63.242071766012 9.69117520331474 1.06422967230192
182.681597177539 39.0229633090205 -2.50542111360619
-142.43175582649 -5.31602097702124 -0.0617188293327765
123.056759692213 7.02181067837932 -4.03717250900307
215.63926672675 -29.398637964001 -8.43898079119698
181.389232201129 13.8120451886572 -22.8083958967044
106.211468932812 -7.91332124157852 -1.09244346849481
-208.163861143465 -13.5245305419213 -13.9038244792011
-169.441070562413 -7.93099140116456 1.44368293184674
-59.245149604749 -4.77085555756586 2.88068807001953
19.5746647723535 2.83795139592037 23.9422551582272
-100.080756761986 7.65930624104613 19.3790607371594
-134.709652236534 14.4677683285371 -13.8371365204083
-191.499128537339 31.8322882228775 -19.7919080926155
-221.442791068566 19.1295518761991 -5.65114001233277
-37.7130352989389 -7.92298890112624 19.0429856813593
198.330800060282 -34.8796506490244 -27.2703944989456
-51.2460795152809 -4.57392859509419 2.14907433979732
-208.270103533472 -18.0936708666375 -15.2649813867665
-161.953605777614 -8.54297167137772 -8.44147308420591
-7.08073884231076 -10.9596709077079 14.0769722216557
-171.204417415516 3.72275231802862 10.4469578787615
214.637761887923 -28.3915006330979 -1.9604912304065
154.322035162907 14.9298923307906 -7.52200290648245
218.954897580344 -16.2898769750651 -17.2019543889468
50.7687820364506 -3.62080112442296 -0.571693734305191
15.1915026792915 11.9530350521465 10.9445753628047
20.9005081386641 11.8787150624639 12.7879092628833
-31.3413172365679 -7.57494666884836 20.5728917985574
-167.521584863893 -9.38627657648172 -5.03130667181176
-204.398865077588 8.18363942912003 -14.0760558525458
-100.794117481275 20.3664633308867 -0.104305972878002
-186.110012976472 13.5318185456686 10.4603125000491
7.28065192994038 11.9771115055897 15.7000932849187
-108.796015903796 7.99166143634674 -9.57709593115495
-156.842940033384 -2.72170830230244 -19.7330722638346
-202.985925267811 -18.7482606519362 -12.817301689232
-124.245071688752 -3.26774137570212 -7.05905170003667
-17.0195855391555 10.5459249556283 21.0120673936766
123.770201056599 -12.127364618641 -0.844058966615819
210.480586091274 3.17350687195735 1.32131025427674
191.129098913257 -3.74622806572039 -18.0291820657262
128.429300375876 8.3213021519099 -4.49916086412432
-93.6929946415455 -3.09883826866694 15.5913339634061
-126.396133429069 -4.26448289205088 -4.17196168659281
176.974515401729 8.05712720236243 -15.0423576035357
-209.122058649087 -25.1111087011553 21.8532914265463
-202.976662007814 2.61582528245778 12.5996280130727
157.297201450416 -9.55758627619091 -9.10751703906057
-162.731849287236 -13.5802557785111 -16.3027730556079
-156.865427602673 -6.21206185034339 -0.509697691299019
-183.695062608704 -4.41058044619156 -17.619614761368
199.135262055257 -2.33766729356189 -12.76872416694
165.623713625866 -12.4893645123712 -12.775051732475
-219.793365606529 28.6990043312148 -18.6251078162521
-196.248158144978 38.1979695805643 -11.1477731150031
29.7927824864771 0.113504633080646 -4.09388406290944
-174.777943682122 -8.37584025481676 5.23143727405975
-63.3276482598774 -1.45538468463318 -1.89433096149016
201.689871061207 -34.7640596886179 -18.6621819770405
-109.921742483912 -4.0901484324367 1.05439392955575
-198.200892512467 -29.8497623701389 -0.318637740852363
-239.082979485633 -33.1006877733105 8.22360591922503
-131.299356768443 22.6401359423325 -5.97348019351189
213.252955070964 -29.1522970304089 -32.6720132217528
-128.925140150518 -3.84975727327097 -6.67193549291841
-47.5251720484368 -7.43534008798305 17.1897982563886
197.695017659772 40.8810847661455 -28.4519273986757
33.0098604172083 8.55381955141881 1.95066026786438
-7.14897767545826 11.164556491059 19.8619821084204
-81.1814060542005 -4.44003632485386 15.9282663923893
214.826663413132 -29.6404734243587 -6.32113800867765
-6.65392040236326 -7.29725154480604 4.89693060040007
161.767291709318 -6.72176874372442 -9.86646591687195
216.794526628925 -9.77916165847617 -4.28386539528957
43.2912672230297 10.0814312733099 18.4230740426906
42.0338729622223 -14.1115914492987 14.5580450549379
197.239334595346 -37.4765645641052 -14.9008725332344
-1.09131232342182 -6.29009144956849 22.746747499739
24.8034598906293 5.92040401909984 -1.15327360122423
209.101726507089 15.532394661124 16.9369368908917
181.920288409592 -21.4851805402123 15.3858863494969
205.998089040581 -33.5366023687215 -25.841796731604
0.284363126687905 -10.7670470520829 11.1662805992408
-203.398434044993 -36.9458029840502 16.441160649103
179.380927283456 27.2386373602059 -28.1606328510132
201.216472360126 -30.6867278957826 -39.4506510162083
-123.561233800497 -2.70179585720378 9.74957450406109
211.733019127678 14.8093008077452 9.47658702310929
217.31861429278 -28.9536854341638 -21.5072185711903
-137.817917634215 18.6511505826558 -12.9880072625101
191.681345024614 21.2990720801864 -31.047215957234
-176.735785572531 28.3770138553202 -15.4506560604326
-33.2887160681308 11.0382169608579 4.16774720780156
196.089633285934 -17.0997427720827 19.0356954875549
-228.610931609248 -9.28942342089611 4.91622588278132
-234.640786216404 -25.2565289781995 16.2343239607403
130.784879118775 -19.1027151469035 4.6132509201362
-105.67254533648 -3.92837978476338 0.223017740184158
190.959359788956 -10.442823907212 20.8048192743045
212.221861513894 -2.32917564729387 -0.548480635990183
7.26099007676839 7.54390610985557 1.59608441378224
185.560419937421 -27.1133666672207 9.96332341110736
-215.143336688583 1.98913418523427 4.75838822075531
153.3803006345 19.623193817532 9.12660688719204
-179.511975357409 -8.68286976488273 -17.6784519857512
-186.852755753928 36.8747475217097 -7.11610023452427
-190.334710251214 26.2685740545307 -23.7663076936064
-7.41168618072847 -10.9528816107146 16.3784062268453
-201.234355440954 6.45668904725121 13.300699073805
-206.24217454518 9.5953569173131 -9.78401661267639
-210.072801588144 31.9772105852828 6.01966106240848
-187.652912606501 -3.67913758642166 9.9118649690964
-153.744548603773 6.30897361326003 -17.9905291868394
-206.236531611367 26.9778295419607 6.67841298450772
193.021728148968 -37.1113332012332 -18.0825790822032
-90.0196820087078 -1.30515538201753 -2.6333892444202
-173.913383549831 17.8219627357219 -21.5152460380694
-22.2523751982737 -9.04496365979057 8.7159631059813
201.149078880809 5.21906922312925 18.1578840411477
-109.772753888803 -4.16538265274601 9.70790393472448
175.848446859 -15.5269427354818 -17.2365873038606
-188.599281035994 -5.53954332114876 9.37987837235697
-122.205667544716 21.728753364163 -6.03329813865118
202.866501139482 -36.2664921066988 -12.120644479135
67.7685450324316 -13.7880899507921 17.0657967552121
29.6564614107872 11.6481189729745 14.7765226521173
188.405383532139 -8.06719699729099 -22.1663001487321
40.5537656043657 -9.87436383997776 20.3740060197423
-155.928131616896 -6.09713232487341 -2.16660185136785
-65.074209764293 16.6645080356348 9.50080027562495
-171.924080820374 28.8804341539994 -10.2638520865769
132.828605190645 18.3460057034131 2.91155984923709
189.643407420632 -10.4471618782062 -27.6533222068511
-22.7503333016254 9.95027404356053 3.6961407394649
192.237234653699 -38.3098185669317 -12.5458931259349
161.182844228817 -3.46461264319495 19.3564226700775
161.294596314007 12.6364020478639 20.8684904100622
-212.373599248969 16.5952088166797 -19.7590639909233
184.262950601572 -35.0433501508802 -26.1984752754445
143.91147762266 5.52759381201861 22.0479930344461
-154.382175752895 -6.00273663130597 6.94234899107933
196.568680146056 1.38452589989758 -10.6078765709959
38.510828165015 -8.77933854866489 20.9929723724053
-177.179023456453 25.3171627143513 4.41398268750918
26.5016089615966 1.45203786251618 -4.44430636246291
-164.846926054398 14.4622117683821 -20.004929348428
186.717801297461 21.048798105338 -30.2111186702049
207.209682610132 27.5913374821915 10.8268703728504
-124.985252762895 19.7560692923887 4.72692181395006
18.8950272956091 -7.2033051119572 22.2218897400632
-232.525432882264 -11.7215700322627 2.43973614979917
-73.7113690362274 1.09964481202931 -4.49987214556072
-179.554248185943 -3.64601042746986 -22.2360424766921
-143.298173021615 23.1485216837174 -1.93975933467482
-150.437544201401 -2.48510185561323 8.76955269058035
13.8242472533463 -7.83776573314123 21.9602365784628
119.070404256064 11.1320967702493 -4.0407441687318
-127.480536283109 11.0180416371168 -12.4260683735236
-204.949733656647 -43.7580932781634 13.0829619126026
207.581888695411 -33.0009624646593 -23.7774178445197
-182.997985624885 -15.3504366054762 -4.11364048908836
174.952141190863 22.1991352399584 18.2554875367895
-30.0141990567585 12.2444108600903 6.68287427234812
39.2390525435611 -9.93427561575765 5.62003001755576
-232.225378350154 -11.8867247286286 -2.71488558224026
211.031664422786 37.0526381582355 -7.2945975198302
-206.5971314689 33.8187301221376 -3.40793715703622
160.074335370887 20.3266961400313 -8.81610977293026
131.952814612769 -17.6460016198144 1.48947012479254
-216.764394827855 28.9132272755129 4.08391725755597
-41.6154367682567 12.8524645648561 5.64599095545774
-161.878360347804 25.4901555789958 -12.0215871251644
-73.340665093729 -1.63746664255054 -1.82010011958191
-209.372951111798 -46.9611999890618 12.76298853661
-239.125308529949 -36.6074428147566 -2.14367287629115
-208.175493877411 -24.4180329345264 -17.6697016985981
-198.214821754431 4.77821621697193 13.1176939958979
-167.105569475504 -9.84416331689691 -6.86978026393795
-127.205606244455 8.50101431833933 -12.0384230854305
-215.580055527877 33.9170983022991 -7.27314997582082
-134.239405595461 5.67592386886217 -13.0458988509013
214.277969931722 -30.5130508636457 -10.2972319173421
-224.061975858393 -22.9073830030024 22.440564584867
210.637709284513 7.60000012465558 -1.56262050113072
-203.020915721297 -30.7589668809001 16.0743383189245
15.6540381077689 6.9599847067789 0.61908174353726
-104.272893754745 1.63510994748228 -7.5622489413692
146.517588565507 0.867431422973607 21.6914497729216
149.339716894293 -4.44057325829133 -6.55846140144725
202.287812084822 39.2233411576101 -27.8152842264246
137.324579761137 -5.05890912853928 -4.8102134413957
208.535744942669 -23.4389524042417 10.7762412781657
71.9128745962563 10.8962905893735 16.1289519595715
19.5367078733731 7.11342228465258 22.3542524459658
178.535456490593 -3.84818696470047 18.425778828632
137.349262515668 -8.10652310340563 18.7818587894484
207.786858347297 -6.41527615206937 -16.6693904336439
-104.651798513884 15.0026926991224 -7.52676196541993
212.257970287629 -22.7254338505161 9.02784234426341
197.680763410301 -32.6757792060488 -37.1215628789224
-54.1129662115418 7.30460466709041 23.1879552813483
-124.103540335601 5.73408504628735 -11.3657682213601
-153.577603072847 7.17879860110206 10.9551025481206
-217.903569534281 -41.3692028009442 -17.4593595889002
-215.945208989302 13.5190432682122 -3.24552906750674
43.3109959711781 11.3973210747282 6.07248455178646
-69.2488075200913 1.44836750879199 23.0123306546188
-194.719536882283 0.228723637266978 11.5788107229618
-134.396161347301 19.859686347825 -11.1046673516487
205.423832373688 29.3693354093349 8.16668099210116
-118.365752369757 -1.91100613945615 12.1785357822052
-9.25560555792292 1.44817588301993 24.5653444288533
99.180648746961 14.6947561744267 1.67813743390275
-99.9128438945101 17.0338044834269 -6.27597259768849
181.183367880468 20.2175321460895 24.4969515809236
193.395343917025 -25.7650996227643 12.17427850389
206.520375285347 9.06754206370554 15.6164525304775
163.714558837654 -5.27968181511018 18.4805442378406
141.54625174488 -18.7941917215069 -0.067508669512673
199.212239879374 -7.8563920908235 -32.880569916519
-201.888338290606 -11.132528604699 -12.8755720171139
153.542370814915 -13.4253318071186 15.6322542505801
182.484918870516 31.1663805771442 7.79514752928312
-155.553526685148 19.4013634529987 5.73491693622498
112.653926859728 0.549732752136879 -3.2637832775256
218.337367544286 -17.5443951408901 -22.2292330186795
146.434931083119 -16.3575181545236 13.4437369729509
202.422166467284 30.792574599486 7.36532122160576
182.476807532153 18.1414696857309 26.4997208371045
146.617905114141 -7.77641855995716 -6.0249747503406
216.785036520935 -17.0481238534067 -25.7913324782669
175.396656453499 23.331081319343 -24.5225815233227
108.180804349563 10.9031184331901 -3.156380929038
-221.005322360098 -41.2953414878353 -17.252927821621
-196.988478979432 9.14941400710503 13.7746351982691
194.306667592882 40.9206024447382 -6.90202788083312
-192.37387294331 1.51664090613175 -16.8870047921029
-204.205676586115 34.0060846160545 -17.9447751009808
-101.350003049304 18.1145710147489 7.75563520008518
-196.102263165218 20.9458602636209 10.5351130380646
-165.006005686688 -14.1630172214875 -20.2985842240471
23.1162745203328 -8.45763002236673 5.2637624951152
-47.086277071173 13.8495890745471 6.25945867874454
173.338989829634 -18.9527330874141 -16.6784064344667
-96.3241285092532 -2.46956720799018 16.0033530587881
8.73537098190693 -2.42336500879535 -3.19244332391644
-74.5272089584574 -6.68156490643946 10.277409418956
196.068626038653 -18.0395511218924 -40.9925150963588
4.87519373538295 7.00381295285149 1.02004635828885
172.802972815268 -29.8160519498607 -11.0157155412868
-221.810646935765 15.5051168757196 -19.131799400229
-217.611801041745 -6.0707094102082 12.0082538545934
-186.065127149078 6.86891266300777 -24.3230458287117
-109.442583814018 10.60314897656 -10.0814449337254
104.094941123964 -17.8335521861445 11.2461755733756
-125.761828008814 -2.50308334078788 -8.03630660828002
174.155817062859 -6.57432417929501 -14.1060639702242
-216.919051730981 -4.0115591759022 -0.888499128282861
-214.197726385343 17.7043975685402 -26.327113764896
-123.127130756906 0.22205680904765 -9.61643756478214
25.4044210915008 -5.29190110241034 22.7558632306249
182.087988715476 -27.6525149301062 -27.6308359747122
-153.049110499414 -0.345774414849753 -17.7869434853197
181.531029524034 38.9036324260374 -11.9289526122813
196.858975669437 12.3258076499369 -20.6460780267489
-196.359815092557 -25.9265997622763 -0.0502394090909357
-39.9549996991625 5.50278531795898 24.1810652285282
-104.032579895727 10.4501673938411 -9.66082192883148
212.010059904803 28.7526371016425 3.20804527235912
203.593167003127 33.9716885153994 0.590712793902836
117.369964752349 -1.63121683787089 21.7700174585289
-66.4010852864939 -5.49743960981313 4.17791055073249
-73.5281356066695 12.9183447119371 18.6932251139625
73.3890009494682 0.896815394152626 22.3996408829049
172.427229956123 -16.274771743578 15.057409972606
71.7955135929066 1.81407754395407 -3.18349198813414
-148.551526682082 -5.42973556879194 -7.15160812237378
-209.036316546166 34.8349144896425 -3.28246261169797
188.51633831082 0.113327550942471 21.3361674210631
206.57259541465 -25.0703292488087 8.7393862320129
-151.942728014393 -0.366834209731858 10.4443706155301
-9.63104479689434 -10.6294296818596 17.2386169052408
161.163624075607 17.1768597924089 16.0216242146243
168.853217500481 -1.93818222953189 -11.0715049155164
-132.165286481526 6.53716083812278 -12.7896219318998
-25.3059648881543 13.6715893766706 17.1748194356679
-194.216345634602 35.3344875020609 -15.5621912388424
179.308922799973 -32.0717994149747 -22.2893528793593
186.808303034622 -32.9384500172122 1.61341229657543
207.553516974301 41.0144052932829 -15.1074592516008
-149.544321898589 21.0949351666516 -15.0450621024715
-215.704096477713 -19.0473757675718 21.775689836444
-127.353064226353 -3.97549085113458 1.84840478863978
-228.22427931598 -15.6005433146473 -13.1257532437552
107.047512292319 -18.0627387881396 10.7370220590378
-93.022548364932 10.3497959610815 -8.20317874671162
-218.799215627151 29.3474240408388 1.09765835038263
64.5180007095912 -3.93360200243873 22.0420612198158
-130.420943423386 6.176488339398 14.4587184529159
151.37711551123 -19.6975322220354 8.08347661967859
97.9811542872459 -15.0096031706986 4.67859022116975
159.994579922577 -13.5027553373181 -11.4859256191219
116.449492824081 -18.6789036702377 8.40275405569057
66.3343666336515 -8.92742759045304 20.2254313200801
-196.207055185183 15.7799110302521 -28.1087772490381
-93.6841361582213 9.08817350068963 19.6571877400095
-67.8382876333837 15.8335530250309 3.36067110957973
143.955033502718 -3.91694817360866 20.2318751686332
192.50539575187 9.80186517333126 -17.9611602477761
191.521654601387 29.3026931426325 11.9578192434278
162.858095600401 -21.4661660988982 6.15412129503633
-226.038487660838 -10.5899483237021 -1.9302314033388
113.541306659168 11.0606508415743 17.4296119348864
163.962817456287 -24.0612935473187 -1.17457125617599
189.895205440653 29.007725798178 12.3717591075801
194.951174461818 -37.8316220523934 -8.79369538533435
-129.095853898597 -2.60936235872504 -8.03533247055723
-174.378029591257 -12.4698175021003 -22.8630730443752
5.87300843852398 -10.8394056067135 18.93506257019
166.156440580378 -19.4909201052656 10.5025932673789
-217.061448250152 -48.5743612729879 12.5160873684404
-165.60455129718 -13.4670269426689 -22.3988762339832
136.890746810429 6.30059509144321 -5.28063049925355
131.092475372248 3.17085539994738 -4.58415184243879
165.613211670797 17.3960275928171 17.5119113327281
-95.9698267826586 11.2529005432188 -8.562066012153
-227.840261420645 -48.5576876728444 1.14414137766715
-216.508495017217 -7.84723183965196 -5.99553514559393
-199.567452339981 -12.0420847542167 11.5921966352227
198.134257428901 38.3024094016321 -15.52739510262
-92.099018615438 -4.25569198340039 13.8519927048885
-64.9147136004124 9.88116417997107 -4.3541963639371
22.0949928349706 10.5405513629832 5.95313875663464
-212.081691461845 -11.7489077936344 16.1163797638973
-54.143188823134 -6.80362093257399 16.65263058794
-220.452402075856 22.61199489278 -24.504397471063
35.8819609543559 0.735393029262849 -3.83245347743098
-189.54346677188 0.0246575336099782 -17.8082053113093
-180.522699316431 -0.948390845977249 11.0191499313053
-133.291998839397 19.8377182701227 4.69852169306253
-224.374956911983 -14.5233483793622 -12.3214863146931
175.3543633219 3.59701283394314 -13.2657814386408
-119.855312818746 14.7345435396428 -11.017190518069
132.635547048823 -5.64174932311151 -4.15683706921729
-69.558832085074 2.99244600111451 -4.93948712095035
90.5266642636445 3.48384854288603 -3.03770541088087
203.065586062644 25.9773467088451 -28.9688326097798
197.819593916057 -28.555141783447 -41.5268569089598
207.269253774287 -8.50885802456406 -27.3082862297376
-215.989946174666 30.5277164300741 2.82667433741264
-213.183539188186 0.694889723918202 -5.36672811181558
194.093515991511 33.1551455772284 6.52518869266971
192.886720530801 11.4233653725936 27.1005364880164
-199.581695898617 -41.2378523009203 -2.71129488230978
-181.494099058534 -1.29785101133885 -22.0810717245399
210.376324699911 26.4439647421677 10.4695781106511
-213.450972079084 16.5290869381768 9.55801960538317
-36.6898036840901 2.85499621386494 -3.71023975994866
148.351738811414 0.611502433868085 21.560376453796
217.01755069489 -15.2596589365315 4.13649777583552
210.828577761857 30.5603415519791 2.08819153593437
178.304007628554 -5.13535562940579 -16.2224821139455
22.4308987914248 -8.2599483039788 21.5728445732114
-154.047399915281 -1.37279598735987 9.81447565957598
113.44258518418 12.5457993221432 -2.861484375411
-16.3920352550193 -6.04338763530084 22.8847919810235
190.288464957362 -23.8461954210702 14.7652200017733
169.710892101331 20.5209583584471 16.2068245215352
150.33194302556 -15.1576835610383 -6.90221745913626
131.823294708476 -17.5438275788073 12.0101640175989
82.3857875913895 -16.7994407703013 11.3793892769664
-202.917549741438 -3.82991090426237 12.2673356161109
-226.035596029294 -48.8061175964799 -0.242235786054355
165.900672739136 21.080801079726 12.8181552839675
166.699681721409 -22.42463815971 -11.8778732088238
195.478530769087 -28.1790970787724 8.37773978981914
4.20976918243689 5.76443768848822 -0.803714298434164
-188.366508074899 -11.2347521894727 -11.3058511080325
153.060436527693 -19.2999348750317 -6.2371070116858
141.115739877833 13.4306330723848 17.4903467700858
128.008639540525 17.771691010287 3.87049161368078
174.570632997527 20.2847036080155 19.957132428564
-178.630187313561 24.4548276496738 -19.614557016326
-201.754744301886 23.1582903259838 -27.0330918872045
-16.4560144928201 8.38428940645504 22.7904637690858
175.822481212526 25.5974565765892 13.8465847434703
191.167063473845 -25.0180330986213 13.4934570272456
139.52806769426 19.3797542169549 -0.71689161056892
-225.358108761316 -46.5407874917939 -11.0187109865601
-122.23845888627 19.8191496464403 4.65673681787493
-204.789477045911 -40.3407803232017 16.4999201458063
144.76306385185 0.933825641097302 -5.9588854566222
-145.767760490058 22.3412191569339 0.821974433494911
-186.502183071222 0.994861523738697 -20.2545924810621
136.015383725916 8.61735234781816 -5.21210557214855
-215.991213318287 -24.5958188281169 23.7373783210845
183.494535538167 12.7710399636184 -21.435112624159
-174.92306649217 1.45979464744787 -23.9613741358034
-138.712046048639 -3.55303481437987 -8.59193370619959
-222.231919813882 22.1870379672388 -23.1711102968852
-185.642135824055 15.9556312209943 -26.1707398271512
186.280871509635 41.1849942452531 -5.16409788866165
154.95220087674 13.5043556260013 18.8943524816313
-213.828071384094 -14.337871215746 -14.0810139078943
76.0901071449785 -0.118808304796099 -2.87854684985013
-96.4407907606669 15.1992620847472 -6.32761801007026
-207.227122843089 -10.3706695205934 14.0923705808509
-214.041353699091 -26.5999915182232 -20.4849445733858
-97.3901889981213 9.1138431112958 19.2144474318655
196.11357116507 9.97680269682074 -17.1949653711434
136.374468581382 -0.568049792960227 21.6365737678047
-135.703759514973 -0.0635224288898863 11.5053636992187
75.279882682547 -9.47615553066824 2.26633223936175
217.989509140221 -18.9561119828178 -24.530113137467
21.5861732880401 1.67227557457808 -4.53884300116488
155.435573021697 1.31955645881105 21.5689600131638
-212.158950906118 12.6802052606166 9.71043520549633
124.593527874028 12.3993344054531 16.7943425826811
216.976068874564 -13.0082752070877 1.89540725097136
-34.3675186713188 1.52100012655245 -3.69677830703795
-190.076927524928 1.59752265890954 11.6568361125456
-179.577350930103 16.3332443563594 -24.1142828073726
164.6636954873 -22.4940857110743 4.86519900267963
-155.210336942198 -0.476332155304629 -18.8430793296913
-201.659825301666 11.3187552578434 -21.0057817834069
99.834388310838 -7.16433691379731 -1.06496831900475
183.181216794298 -4.40395557213974 18.6585716221939
-21.0426703882111 -3.43846400764625 -0.215672209307349
210.023471103082 -8.45054955829585 -21.4557207805014
-179.694145003736 -13.5618785421087 -1.53890121465152
192.416817382193 -4.93095042695803 -18.2111671875773
-63.6267054364315 8.87284030697012 22.1348743133202
-198.371459937193 1.92673512284612 -15.4344674086433
-169.466877782028 -15.4990648469246 -19.9716233527622
-47.005065650434 5.82343195181513 23.8618105336501
-163.175610906657 3.27865784329915 -21.6820728022101
-73.5679554700653 -6.57548093268935 7.99052010693598
-61.8140549492915 14.0941200672965 2.1790728851932
52.299563126658 5.95352018023825 -1.96722589572723
193.612056593031 36.0624474841073 3.12103395048644
-186.376384804881 31.3239050303105 -18.4119458542487
-223.635038405856 26.2608241110941 -2.53141633576654
-238.549544547219 -27.0197876080054 10.5876718589559
-2.03253549290443 11.6181677759183 18.5575734138793
-183.706325812754 29.2872386937328 5.20082687498291
-55.8052794555687 11.6749233610961 -0.53367054973747
-34.5537121479483 1.14648839742329 24.5617729178773
-214.452107504861 1.44884298667413 -3.43601114133778
19.2393068771129 -5.88182252607507 2.26924218164895
142.612235093757 9.35820899259397 20.8942337957895
200.437187956817 -14.5153794686815 19.9373576436858
78.9709493128501 -11.8672403635148 3.89275284799654
-228.682733065869 -14.6360365009578 15.8809984831169
-39.6529918472319 -5.71352082356993 3.20785959778117
-229.437421583274 -31.0446066844734 -17.9088919149119
12.9637352286136 -4.04272071298555 -0.167681157269901
-205.486352819526 -25.5711177417438 -16.3164022093733
71.2165989032546 13.1616558699883 10.0629401320919
184.763888274143 23.6235044870621 21.8636260415518
177.486264660046 16.8821174079129 -21.5011864203687
159.607926490023 -4.47269673825726 19.0047143932432
-152.938273808722 11.755012024386 10.0460067599411
-34.9105927088522 8.66325550624228 22.9430591909213
-233.859085664464 -25.594602661338 -14.308653581058
188.018895586912 26.3951009085832 17.5514312220346
169.000229489787 -17.0381431141718 -14.6198698751717
94.072784535712 13.4502157107001 0.74589471956663
-204.736137362846 4.7270187990706 12.6132248134963
193.709504663066 -6.29125472443459 20.5098516305992
38.0621501160973 11.0953535573885 16.7322074086521
126.596995783573 -5.77445434967393 -3.41418302962508
-164.689239204978 -9.85420180660658 -9.8834290697326
-216.673858834191 -4.23300984655839 -3.39584037204911
-25.8546485132332 7.70227400246164 0.225707817727694
24.1599174223516 11.7169985716285 14.2563867077214
-213.954093733615 13.8792159895123 -5.77040258546349
82.4233585988681 -0.236949705778235 22.1988205579518
58.0653205058592 -0.993613938401403 -2.59709006969592
-167.700798976056 -12.9609847431836 -23.881697985542
155.319901087911 15.2325235675762 16.8912101476025
-193.232346733984 24.3873821269088 8.6001180687928
-165.363437843304 -6.81851172801925 5.44108104165787
-223.17797157401 18.6323983949691 -24.560866876317
-201.780982043504 -0.815603778914129 -13.5870707630044
-152.820829247329 24.5914411415682 -5.73463258474387
208.316544131631 4.70645960882423 8.73523028797489
10.2185639876686 -12.1147258751566 15.9245271853122
198.260235150149 6.54554639649341 -13.4504613124739
215.034976808335 -26.1890078968441 -31.1946084987091
179.562169658149 -35.6466876409375 -6.68840047766077
-231.405331318866 -46.5693514510903 -4.26056363258988
161.977958530103 0.700101406819215 -8.85528824938585
127.107021655365 4.57471003700399 -4.26882860169506
-40.1228296946009 -8.2071453766402 17.2710102200144
-163.552383734242 -8.574725314998 -6.58464741652847
190.585506041303 29.9077268274568 -32.3599619224112
12.2054419658041 -9.30226628566288 20.9582945508454
-200.374631335176 -1.49560918793413 12.0342433206154
45.2792872921736 7.37855451347633 -0.0042240501142991
-20.4328005252471 4.68029447187364 -3.15560690065063
-149.908261879016 24.1600510475126 -4.73018445506612
16.0731519162077 9.88264519130335 19.89845937982
204.505713382453 4.70339430378974 -10.4913230549152
-158.363154037291 24.851024246975 -2.47639588145561
-169.576269550494 12.8562411428821 -21.8315212316881
-76.2554259497866 11.2954506547507 -5.23804792315843
193.293820204284 -18.185172816001 -40.3632291049762
-169.395667603905 22.100551563924 -18.5973937789219
-152.126144478405 -5.97867208943674 -5.99275436117925
-224.937366841604 -48.7999517864065 -2.39742674002326
-239.10015321938 -20.9569924088253 1.75137841987387
208.060176865186 32.0931512751 -24.6437517647342
-179.212896459541 -5.43826980656306 8.41970323203051
188.114127050876 36.9935655772203 1.92395075331868
205.397028887652 -14.1883124789637 -37.8266135710087
138.123455571547 -2.98616715398491 -5.1115361743308
173.779004588199 4.03699821078598 22.6134231367199
-46.2549833719457 -5.37533134145882 21.421998112374
32.1280199056534 -4.15312139537444 22.8590537446926
-24.5034863740007 6.20859623220723 -1.45450097444287
-89.490409253737 -2.947222097414 -0.367352605268467
177.507439137594 4.57321668947705 23.1065083125758
-10.5058624951084 7.24649687791501 0.828269622542516
164.691209186148 15.9026282777471 18.9245319813503
202.3435092522 1.68367353601424 -9.61966086122928
-97.0989130529895 14.5028966000382 15.4496162449762
201.882136889119 -27.2685114537251 7.4765951002825
-137.349666440107 -5.12289745003611 -4.81858357611187
186.573358814916 14.4839888803032 29.0374629028612
163.087395980669 -3.34092868947371 19.3191281422421
-211.146261197128 -0.33723495292035 12.2007352916657
174.624822042284 -10.2815553662858 16.969599091533
-47.3061034476306 -2.77846701054351 0.0611400124759595
-187.741347218025 8.76009792421033 -25.1700065347658
78.3928984582772 -14.68114264848 6.77632593200995
191.746238545103 23.3637322980623 -32.0023226566122
138.068582322602 10.5910782556342 -5.39610519647181
-211.21567503983 35.4876949922672 -13.1100553176102
178.635987353004 -15.1414397592647 -20.4248173075365
-152.621779626415 12.361099033752 -17.0283013121807
174.38109072487 -33.4468481820955 -15.260936960843
-191.964236669563 11.1839446592391 12.614814419815
180.695108820741 -31.9301116916467 0.691903411694301
190.647296415045 9.78863483563878 26.2423729629359
-109.529090157387 9.77944914333405 17.2856415887013
-206.323688283599 13.6836487542215 -11.8469200507327
-239.459820813206 -23.4334996210725 5.95103412833476
145.340691413691 17.7541249685387 10.7271560325956
188.216332577589 23.7411328331325 -31.6951003786853
194.465968268353 -9.54383449728238 -30.1231933937567
-207.984908182087 16.5894056737408 -15.2087438460118
99.4723239384271 11.4113457973984 -1.68253455060551
-199.963343957296 27.5318289912896 -24.6471546648639
-141.912931105663 23.3927110951458 -4.98973448312169
181.314915438893 18.3532420186026 -26.9785271332753
-205.211208468155 -21.8567488609783 17.3811301030046
108.615440102813 13.5039117049305 -1.41898765009812
-53.3296760741885 0.91066617163836 24.052379899921
37.6934851077002 4.71934078993356 -2.71393008603263
-214.357988584112 26.0015513614336 -24.8698093363616
-57.6271205918935 -2.93732725566641 0.254612330659369
-194.464422272142 39.5062145832905 -2.18406124624417
-47.6490036230337 10.2816669833987 -0.157110421864489
-22.409913360882 11.4134878043768 20.186173198868
-9.36637867083589 -9.54366074038587 9.1119115706181
207.266298282773 17.3197383833533 -20.2958139083756
168.883212742419 9.28281578869884 24.1340334636179
61.5612652684838 -15.3295612688421 11.9521527636254
-175.327176131515 -10.3419833801775 1.03478782928296
-208.062351858715 6.33962146928582 12.1214964358366
-28.9802170300748 14.3149445131527 15.4942683779585
115.46437512165 13.9800129428346 -2.05170137554599
-27.6837708327678 10.9155093758064 21.0372173141998
210.282058532227 -26.358143738857 -36.8258955743201
146.081482219606 -3.22159440972106 -6.06063980242797
195.693632881431 -36.7126029880438 -19.5348377159755
-203.220798166211 -32.5017918903807 -14.7327851667518
4.18405259228678 -9.18510673206866 7.4146821233728
156.995633452832 17.2285023036589 -8.05667369998584
45.5862232206221 -2.97223684923377 -0.953863226360534
-140.922776392021 7.38250997824384 -14.4871075270254
183.77598959401 1.85380845245286 21.6038704273369
-153.972738193353 14.7667940682943 -17.1878394024744
-90.5243086973067 -5.49427458502237 5.00463192344285
-214.325400875015 -50.598544413651 4.59050884575426
115.739514762481 -13.9953748976459 1.49328692994537
1.29539468986724 -8.3066609291655 6.1631768016308
-198.091682012705 -33.9215373196658 1.34013992766586
16.7703724928563 10.8634407040365 6.76855194249236
207.854759751648 20.0084724393072 -21.2793004672185
89.0600491407358 -14.6170873907679 5.42359047864633
183.160515805455 -6.43414994363213 -20.2048004615977
-151.633797368999 -5.7657070637052 -14.1225151686359
-118.254967899898 -4.09723476125087 5.25935740833179
-114.584937509854 -4.03029310351811 8.36595539932362
40.5326024658604 5.49999862197491 -1.94606675256882
173.19116348507 15.4249953348943 23.4907166914547
-213.67350128807 -13.8287229867501 17.8525980912295
-146.792518855497 1.91533446648948 11.6537850683209
-199.997743859092 36.9394436832006 2.69672244849687
137.530768642024 5.95917276920246 21.7712423153677
125.070009219156 15.4448013202397 -2.67731794360964
-221.703649961608 -17.7049841499207 -16.8504945229449
202.437596432647 -22.68940946754 13.0027111367242
180.702052251776 -7.99774414122743 -18.6583865111327
210.711327462444 0.680817697760439 2.2805550553948
-52.749678765421 15.9849440504186 12.1870012119476
-208.641057705854 34.5438571064946 -17.007649473083
71.1247468819637 -15.6953069583251 10.1008534786825
196.517874592894 11.3153234354804 -18.7860522217415
198.895599065968 -35.5919406105616 -24.2863903170015
203.620027030099 -27.6265763360788 -40.6976845317271
-34.8375063678927 -6.17798212869885 3.78578528705616
218.999673952874 -25.2704916322771 -5.86935179609267
-141.097815409325 17.6730223029656 -14.0705755402686
-12.9159580706945 12.0751338520346 18.5278296973208
-48.8550992166251 0.382994019959539 24.1421087420422
139.685848976028 17.1999438773149 -4.47870005974647
135.95834362227 -16.4626072087761 -0.827977922309546
182.338812353818 -25.1621713627216 11.319957980677
-9.22506366997503 -10.8132535750217 14.3745723603569
-147.358653272463 -5.61809487249872 3.99546896862432
193.687602598916 30.5270520747322 -32.3949820413216
-125.95813549696 16.0872920084539 10.1066346305455
-179.471679075019 24.7180424211599 5.34012112003941
189.843716647193 39.2969209249982 -27.8691892165341
202.700977279652 -36.4918839853062 -13.8513340619732
-236.12418879977 -42.1558881707423 -2.88009054495256
190.309706707905 40.1878302890095 -25.2737644642704
-114.337149142862 16.8370983298916 -8.82811337681108
-196.093678587507 23.6758212494072 -27.0786796078772
207.885256849157 -3.96975167866236 10.9946377232718
-117.636863494563 20.3404302269436 -7.21253681499888
168.793107985332 -17.6712746099955 13.2411834249009
-181.394972661785 17.2755361434088 8.41292140058123
-115.672619916111 16.0959111880628 10.8744564877649
-36.6030714758752 6.67155082655699 -2.12989904952441
-112.06995723302 -4.33698460529086 7.65533635266554
-220.153924343157 17.0307147471221 1.79868841306561
-171.543425201084 25.9704063362706 -15.9296981162191
120.147722455673 -8.08039422249979 19.491363957532
208.477797169439 24.9313803217604 -23.4654858177974
44.3530403199463 -13.8533789276823 16.1366757136656
-221.554555289368 -7.9774244169749 11.0671193779152
187.185600664526 -31.0157528099187 -36.4137786268736
-195.181387371435 34.1989786034342 3.46227256490966
146.348541141826 20.1204101357266 4.0895868731058
178.202315801552 26.5397478506578 14.7321987072983
217.15561063619 -14.9801302579211 -22.0694798833926
-4.1554680934693 12.0571668425152 9.55816840228405
-167.49738436589 14.1169375710803 -20.8626562547797
160.928210289561 -11.653127793886 -11.0618483984385
-177.163799840349 20.0291616702236 6.83245228704526
155.176743794213 -19.7665130041538 8.22380482951329
-116.464189197021 -2.81295258417119 11.0292088657811
-112.676849992691 -3.01627495773162 -3.07888588747204
178.806127138317 36.3907286706446 -18.8393599590733
121.337650899905 -5.84034300858087 20.4169131633775
-6.7399707726751 4.32427937919637 -3.14591468700311
-165.508720747281 19.7406886771721 6.12313371075697
6.78972403707694 -8.21307827912793 5.85282954232811
-239.145585246062 -21.3657349717043 -0.432907877740008
116.746438047502 4.73277332938878 -3.61256663269637
151.967337322455 -20.1842349787205 -4.19157128294432
76.3867555594749 10.8100798004452 0.564507984014785
-219.419548998643 30.7272381147612 -9.48270576112771
-57.4142737640086 13.3769420827791 18.537279383364
189.676260611522 -25.9709726307023 12.5678751015203
169.703327991894 30.0582103674974 -3.46255337607848
131.014068298317 -14.5769304829821 15.370850468099
-108.912310953267 17.3915571707188 9.18871618589251
-12.3206937848778 7.88010011081717 23.1080889745561
-221.322087043979 18.5176273262087 -25.9999708790773
-74.0916833104092 17.1412450075669 6.27841935617421
-143.349796403441 -4.86736801398634 1.99447491645865
170.097010206904 22.8686316736836 12.775664695093
160.237942402499 15.9657941779472 17.2249470642588
-190.298476736982 -4.39029654187603 10.1155925952177
-169.511826635646 19.8925718063453 -19.5586367813714
-219.982410615877 19.1488682954132 -4.04834345399847
-214.633868398262 -50.7186615753208 -2.65259301034083
22.3802961941532 -10.6508606468055 19.8530872952757
147.533381682849 17.3467802656798 12.092245312812
10.8634822135788 -6.65950385041833 22.6036983917287
18.8951491639312 -9.30938157631285 6.63028753717432
206.716872196596 -9.41783865235582 -24.4577407704272
-197.541750992974 -11.4145131676827 10.95872364179
149.571251079797 12.7822741445939 -6.7924068064291
-206.046667113347 -42.6797607929758 15.4597650861958
83.1280965693972 -14.312031938334 16.5142959043128
136.226035225317 3.62519465299377 22.0298668196724
205.748165732995 -34.6314276819667 -11.59652226212
148.725955704791 -11.2819108816008 16.9428628207841
-231.206994543483 -29.9161210353728 -16.870563556324
-233.765640962311 -13.8013298521341 7.42155958361162
171.141943457469 11.9636458992668 24.2624033074021
139.484415836318 -9.16730588754344 18.1949082128539
-231.730862750734 -15.78781476451 -10.5139373129761
207.396759604991 9.04557164294729 -10.9621257606068
-116.938324962218 -4.10472706862269 6.70301997690427
56.9265043874219 -2.59875739067948 22.4519790119864
-218.757325739258 21.1938870146426 6.64927754993748
-87.2655072138907 16.2655843237935 -4.29199374062257
199.948283801055 -29.4576836983922 -41.0094834647247
-228.634142155426 -44.6714055278676 13.7856360014927
190.906582739861 -37.4827525895174 -5.55724288546079
-213.966178424735 10.3979680961591 -2.9469854194953
92.3383714957099 12.2708214474106 -0.153676413369756
-33.9958373552142 -8.95430463944366 9.84737247112594
-224.365896966821 -37.9228979985324 -18.2790640139278
-43.8059650013162 0.310869858203437 24.3118778563537
214.458041047596 -6.76602467273985 1.87007322846742
-220.687070189044 16.8240751237906 -12.6949235160318
-135.971490035084 20.3151553218651 4.0147033500904
-207.044127797526 8.44196213721774 -9.11474312983481
-2.54648405438212 -11.2045624983768 16.7720202863983
-178.886113514849 7.97220456382725 -24.3507787109795
100.939985286941 3.32440569401595 -3.19591986642228
-118.516200526457 -3.34043473096061 -4.57096397102784
89.9995855780793 -2.07130363893318 21.907847639696
-214.725196944552 32.1959411771918 -0.195685251880246
-230.291083071342 -16.7025154635343 -12.9655799733393
5.35395771467293 -11.7265091053712 13.8840040952647
-211.23132997453 -38.2594375987169 -17.9677516182287
102.140833550359 12.4225468417767 14.9379791195045
60.3602028275659 2.13160834800019 -3.3599848746316
155.901926532002 -6.21885741915772 18.5972509276287
176.7124279502 15.694996685108 25.4659834047007
200.70111017456 4.63276460709244 -10.7453504928688
-122.196782858771 17.4431743923251 -9.83419658122543
111.596955111856 -17.6022380657026 12.1611838924026
162.722156732904 9.80984086217702 -9.16263838649233
100.930054401102 -9.36624096558828 19.4557774961186
138.150047284998 1.31025441257436 -5.25242412839941
201.689456409547 -25.3661430833302 -41.5108663431662
153.059970571636 2.13906929951145 21.8381384213043
218.134141887195 -20.3770401076406 1.97158763746597
-120.637614205974 -1.0679559039886 13.1300225772381
185.970082044553 -32.1827366073662 -30.528115381306
-60.6283236025667 15.7315428367622 6.2022248222728
194.330594023311 40.795022248928 -28.4651137987851
-159.321089891763 -9.26205829037322 -20.4712737445499
-127.29183578999 -3.88709095045848 4.38513437655966
195.211926861354 40.3809335980305 -19.6887863021668
-172.000806315179 12.9037353323654 -22.5517614363041
-196.12665653075 31.6438640422007 -20.8020340684677
192.882841527653 -9.58444718027666 -30.4072246741261
174.038850941149 7.87003761457724 -12.9141449138719
23.656985746711 -1.57234459885417 23.716036611285
-215.951023981236 -2.04537323214823 -3.26975750751272
-60.7899558171971 16.0288817960626 13.8386636789846
-237.301609227811 -40.0296364992803 -3.64325908399643
-73.6286418532519 -2.02963932598446 21.1296852784934
-170.934616746557 26.7922106728308 0.0974987425584315
190.808713800087 -31.4190218575317 4.84788266965806
178.240775238923 -11.5006827116877 17.1571237121307
-165.148475791286 -15.0288961242904 -18.5195146621798
-120.911642573594 18.7386888935329 -9.01178824453111
-202.867481860453 -26.2707361981923 -14.074939003641
-181.067967879206 29.5932887642588 3.7787683578434
186.025206245486 -21.2356298789573 -35.7637633511516
201.727812283873 -28.8216398792993 5.22926696052063
213.926662126581 23.0433655451219 -4.36078254672752
-234.219169485409 -13.2893284000847 2.6357158167996
195.773608067155 36.240499267821 2.68684865203695
210.91817248954 14.3592720786542 11.9004442951622
-218.714023273661 27.9018579344485 -20.9911510854027
48.9111833368297 -6.69940098073245 21.5969067494024
-207.903675652269 12.3520259013015 -9.63330949540508
-200.034573625401 1.36645778090025 -14.5454370479554
148.334565434176 -6.75728840943158 18.8419143142787
-57.5838299125625 -6.69242235735829 15.967948011652
78.1777567355859 13.3667480782338 10.4597749146037
-138.025707376953 21.3748445571594 -9.98660227778822
86.7274754445156 5.74563186303723 20.8888599649713
-210.891123930666 13.2535802169317 11.4389895263221
-30.4480539445502 -4.42597033936179 1.32793479213609
210.642632034462 11.4189456263269 -7.61023155694773
22.9752381224556 -5.03770617085257 22.9263416047016
-213.334710771526 34.0351749019041 -2.41818053158008
19.3845306246568 -12.6981179353714 16.469818232638
35.1399945025633 9.71354929771834 3.43817874828662
-199.964642224689 -31.3788813561317 -7.03256718121831
179.31694274262 14.1862717288835 -20.591674991414
99.0611038949455 -0.846734769306844 -2.72967487631737
-79.4997302715131 14.4743986475496 -3.86514872346604
182.353140477051 12.2069883695479 27.4890067048812
0.318091018696678 -3.43246184497732 23.8654783684915
180.820105357275 -1.1406681777027 -17.7067521068688
184.457897069315 10.8964046552523 -19.7984433050636
155.917444912306 23.1975812535314 -1.3371760250857
180.708858224588 -30.7078048805213 -24.8676944313089
147.792667509984 1.33082566073779 -6.33423960439291
-5.11796488709466 -11.1209188042446 15.8955464271455
138.318561289519 -17.544540135756 -0.52482988367779
-59.6607254282262 10.77085593511 -2.33878334314265
142.508475835191 0.56469725262087 -5.6958869595489
194.146903076408 3.60293071942498 -14.7693585756245
181.665175601644 -36.8446024719604 -20.8840275592362
-161.79521399819 -6.5075275901404 5.72039904443849
198.898576742099 1.36401553455758 18.0803874378016
202.43263596987 -35.8185649863336 -16.3593735414979
188.253555443282 -26.8363198381275 -38.5043293249939
-188.000498032312 -15.7296953430609 4.18072049252813
205.240546138699 -35.1110091604664 -12.9467113397555
-77.0531062999721 -6.5273092763696 9.37624939643827
-36.1152168742163 5.04778431589088 -3.48686104474121
190.315166344292 -8.35819459968772 20.7833916429559
-129.696696453934 -4.16613370301947 -0.983963939163618
150.401875736878 -20.4962230901558 5.51815426010661
-184.997821275372 26.3542547510187 -21.0285029269222
-0.854869367920265 12.4770197403449 12.9940788914466
-5.94466724579684 -4.20346920544718 23.6917532179585
-168.870651318644 -8.80130374253962 -3.19770415657927
-239.463830298662 -25.8261700163251 -4.98871347198708
131.777152959611 -1.38762055238248 21.5644024458317
-153.851990358485 -6.84194893602953 5.23508831006008
174.535359020754 16.6281863749599 -15.8715931357892
132.968175782952 -2.64514951163573 -4.53356311882282
-13.2730650797473 12.3683823961937 9.22442037318737
-197.880002250207 17.4331820934568 -28.2658988109352
-209.022245205189 -38.1383133147182 -17.1328004252049
-230.880379753359 -38.3447800342499 -14.7572382501633
-142.038519858085 -3.61077291497061 6.14897013933654
-191.345387047101 5.16483625962685 12.2547771735981
168.51089570457 -19.1093141751104 -14.1258274550878
-166.303310873444 27.4132802752692 -8.8232927765514
125.521732285927 -4.10394251442768 -3.55957325260527
191.983690181367 -4.35044584362563 20.5451929480647
-203.539729878474 -8.81977194200636 12.870906828345
209.282089511153 -4.94765402611652 -15.0340221492862
198.75357048984 31.3311346018974 -31.2050742959049
-173.171258585768 -5.20828014242426 -25.2720264462823
-120.629877889691 -3.5702103989613 -4.75736272642109
-204.477490786434 -6.87941291095122 12.8395956982653
-191.572798043026 -2.86078455299973 10.6950398992444
205.576438688204 13.3763424578781 20.1840142840598
-25.3453824494338 -9.62700289846783 14.4013678765508
210.164410270632 39.4593300281208 -14.3000649762203
121.385006737334 15.6359472694482 -1.4508881303015
216.920302172117 -24.5071798800372 0.113468426709131
73.2294318970813 11.9901300732928 2.38426493820543
15.8685657858753 8.56425708155398 2.74155443957534
-47.0516115446876 0.0844990216156554 -2.73437606610966
202.353526055999 -33.9552218231422 -28.9310586689632
-145.428423362551 6.9757857016331 12.038593523523
-130.594649507599 4.7705432804333 -12.2672834090475
-228.250378234554 -12.2666423107465 -6.39708674473935
-23.8611062658998 2.65460530967251 -4.19494626748201
5.22492004019774 -1.0845086447225 -4.20840122816396
183.062137125741 -2.48933774132851 18.8213593249496
-7.09508548811037 -10.437341811553 11.379832188653
201.2550744878 -19.5191835175213 -41.1633012488349
198.436311359533 25.1271397800778 19.3086781768495
84.3302982466565 -15.5364696777199 15.1318624069968
174.035128758112 -27.6912747650536 2.00127624787846
-6.62089461310291 -8.55253566432637 21.0054713538727
169.05829435573 24.8212841723086 7.794575108753
150.646844951707 5.28151130297194 22.2515244198978
139.629583777482 -15.9923831846758 13.9512665327836
