152.471656579149 -18.9108528719541 18.6226867561426
159.373226118287 -28.3526187363092 -5.69985531775194
72.8749041685329 -12.5137207494417 -2.98840004956155
-133.677651601172 8.30609847621137 14.0457768185202
-184.373736039765 -1.00981587719158 -11.72947849096
162.003425281219 -24.2102891129153 -13.8207337943232
167.884447866537 16.6816000798981 28.2962077760864
-207.92834683928 22.9391100321496 -18.86935819341
-23.0415379264878 13.7025675893128 1.03122659869765
-204.982697955421 32.2989975483309 1.62245587578129
143.344623714548 24.5803232895814 -3.81033248059012
-211.31276727358 -48.1350118204644 -18.5764867818139
47.971741837696 4.87775805017374 -23.9282948681665
201.783458029694 -20.9757435085101 0.00984000572008081
-226.055010317968 -5.78413013618957 -1.78279614374239
-21.3146268778194 -5.81450363440514 -3.50242470511513
-195.32989673991 -23.0370908409773 3.33888804581659
-205.491718241588 29.48944304104 20.9105369985417
-71.4970528422342 20.8259393028653 -7.01597758867197
-217.370965590042 1.16678582504531 8.14278695071993
46.2804131181357 -4.82372631940752 -22.0503042108507
-163.617277846075 -15.0610463185018 23.3824827653271
150.842307626598 -11.6603356836032 16.1814552352007
153.491035266471 -4.99428395435087 12.7220939622753
-216.837791017736 -38.4775569469483 -28.2380432121131
-139.264029203166 14.3039309878856 16.6058384573655
101.015708204385 -0.6159650006712 3.57062072486347
181.464819357262 -37.9811026026364 2.06681875316233
-138.887725347109 -7.1505450112206 -5.54534317653077
48.0770231267578 -15.0199571720005 -8.90730873384421
-96.2817579317089 -3.03052921661367 -13.2124356724315
191.852288178422 -11.5445170949319 27.0312187220954
197.635088512583 -36.9312869668686 17.5948780715217
56.7686354743664 -16.5106980546263 -10.4357545797688
-237.225307463508 -42.413345540291 9.13989574714353
167.345301096894 41.2284706025875 10.9522133188719
-222.121409304581 11.5454336827857 1.92027740975465
66.9908660384038 -2.8119918168712 -23.3286839361131
-187.341595952391 32.6260081431644 7.29574982870569
181.067184734681 -24.6431974596497 39.1305873719228
-222.190802055977 7.61585310431458 -0.759396196166707
-144.204993640994 2.40252532220611 15.4404942395551
184.640892410742 28.2905395596312 -25.5571263486248
-139.126762620436 23.7400496227344 0.464371676561697
174.794228131589 38.4639013727461 -0.499173182579951
-7.47502620062289 -8.35655089119364 -17.7132909265165
162.219948510831 -40.7124435910013 11.432724964802
161.516231994241 -31.4647096608798 23.7538464778704
98.031975982644 10.4502583694413 -22.6588063796998
-215.008073079346 24.9026506170005 23.6846451972932
-166.856920237302 -3.61980145623848 25.5774339452234
-228.637462355134 -11.3341168171512 -1.97406451927862
124.014139772763 21.0493127401942 0.173884822900182
145.640180809984 -26.1774744332376 7.15952492684537
153.261228652309 -6.84643484074767 13.0867439030576
-189.793223905734 34.5405534544304 3.2942473582179
156.749396770436 30.6506935347154 -4.00689871537388
-179.758789043452 28.7729847848307 9.67878645092725
157.28177680374 33.9937642964785 21.5389206005004
146.902253330482 -11.7621013856875 -19.3024041711447
-174.907024234739 -15.047348943688 27.4784036266411
-164.419451685928 25.7126863559378 3.16596305935682
-209.208500140646 36.9931518380209 7.01393306886479
202.192140029079 -35.0426173417087 12.5876852763578
-229.17331849798 -19.5203092909294 13.7915146572856
109.104837092043 -3.90808433422713 4.01076542989397
153.702626928482 -15.2307630111071 -18.9179134956523
-179.407747061176 -14.8042629370988 21.4304168105155
154.317874118896 -31.6092870110875 19.2212529141031
-148.17238180915 24.0285016009352 8.36784691934409
-26.6382548824558 12.2099379878772 -21.2606536447457
-222.524449638703 -8.41379724419656 7.82700767517336
125.785432558064 1.77881633885119 5.26415388702455
-211.998190887925 -20.7671432147084 -24.6997399662721
198.85068872522 -15.4010214217051 -6.51937220752251
-224.037062122429 11.4168995074123 7.56684864367735
-117.749180654744 -0.727004422260446 -12.522914220146
-215.346646235074 11.9044186189836 14.6943090663711
-218.786498116797 -14.5586747185456 13.0179873513945
-179.393696729696 -7.10266695928732 -11.0797150358287
177.849358654583 -38.0316009845806 33.6367549710727
49.3126255474798 16.6382264308105 -5.10537142660442
-9.20286942607234 -9.00498230298296 -7.40617207216293
72.7067224651482 12.8056854105751 -19.724507612501
151.595740992724 -18.1087840826023 -16.3769828381519
-70.228692134399 16.876856202171 -16.5507875784447
-202.252014435694 3.00199327684166 16.4901809897367
-1.07243644257821 17.247086620845 -8.42985245876026
-245.969821079639 -36.1222167379582 -9.38060062649261
-214.589191692437 12.0207189694081 28.9228030118692
-196.607195675054 35.5556752176321 1.61165616407261
192.677085449165 13.3877830940895 -6.8527747349365
190.293716228838 -9.81203084943757 26.5852929048717
-212.328088907875 -43.8541183447125 -23.6652254602291
48.8051751467934 -14.4939745908952 -15.6357223655611
-190.738113491882 -3.82018688098336 23.3633021456108
178.508436741881 -21.6783893075508 -26.7105350330224
-159.838500582428 -8.12342317331823 4.28776590404892
153.459996035718 -32.6106618097211 16.9740637179556
121.496601441811 19.8011486347678 -10.1775432821214
81.1535569247183 -14.4548592300327 -17.3964821667585
126.63659823029 -19.5281904345929 3.46371486425616
119.695197231797 -8.61514218034958 5.46003247215037
-187.495533713135 -5.26245712299692 25.1696862446568
-123.290305537084 23.513414509582 3.59912600290545
184.64975215838 -28.2554929636906 38.4152974538851
-98.5257609551083 -4.46832022184433 0.463099179625396
-45.4797929385372 -6.97887724977659 -15.1722802272116
117.270681879737 -18.6832009194702 0.653591877845682
164.125975002085 28.4904226059473 31.0119112508955
-236.47125855334 -48.9253399728167 -15.4378533068619
167.126573826717 -41.0751774176978 23.2900132287032
40.0949592159578 -10.952736094825 -4.97954347564618
167.396153740521 38.3971310135877 24.5654533447292
194.50442371289 39.4369676298715 12.0711740641958
194.973115633536 31.1662676725009 -12.5177461117218
-184.425354758187 22.4115032711912 22.7909385524313
105.237227353863 16.9289093414763 -15.4215965074667
196.161327076632 -28.1691683853063 -9.49024411008538
184.18524477091 -8.0436509971623 14.2235054123472
-228.55021598871 23.1000231667294 13.987307789817
174.703747790203 -28.0000189470791 38.5861099263965
186.728365977585 -23.11332090135 -15.9157372481839
187.449450679378 24.2875811530367 -22.8735131965582
-227.641221703557 -12.887141541653 2.98399646337616
28.4648748463285 15.8032123614218 -15.6057723283056
182.257328227854 -10.6324943140014 -24.2032726456584
-244.290158752564 -21.7760571660978 -11.7177938732937
-179.505926744051 25.4992581748822 16.0848462729563
-210.25081689768 26.4544954076041 23.3370678882091
125.327020793696 -14.1899015588049 7.14570354829954
-219.310724811987 9.90526334026966 14.3546470082341
-218.111738330521 4.74740458126125 6.71150496168841
-106.927548759708 0.325285248094332 7.45072306739023
79.5323057841475 8.83259857532916 -22.8741177519298
177.030411812474 -17.3688830738435 -31.8118645936764
-128.769028945913 9.97808827939777 -12.6677470384724
-234.732455218139 -42.9648056065201 10.7550096598971
-152.461447779885 16.8749133908711 17.4409350550986
151.529053772643 6.68044565036231 -23.5929622037578
-193.03983045424 27.7424701829814 -4.95080728624636
180.188077100429 -9.8403150803973 30.7406855769773
24.1483113006266 0.125918302621184 -23.0711255252886
156.183339651261 21.0662724950168 -22.3370262754617
-203.355122287554 20.9259469218348 28.3061045671433
132.399514542543 11.9625780418681 6.28374016563574
-219.321450242105 8.12142575819256 9.30753862566735
-217.828553724068 -56.1550349893359 -3.04323424475423
147.155763043153 -13.4321893930888 17.4576513039326
-225.158262457077 20.2597726564489 -6.44083567000637
185.264294012275 -11.9187679279881 32.3587571283302
170.485599620879 -18.4255851083201 -32.2174856820665
107.036435593014 -1.78716010194171 3.89495189748728
190.945844751132 30.8036898223641 -17.5297591041386
171.613431016571 -9.31408513591456 19.0943150351556
-34.8909490475614 -0.0217513921995568 2.6878666758072
-189.21999870279 12.0507169554769 -8.86873618567809
-240.670333689753 -47.2247697917204 -5.51828634455068
-181.157707598554 20.4352577784139 -4.02717374371914
193.296937389246 -14.4443616768871 -19.6911753965913
-218.604682987145 -32.8532898965593 -29.7125175703895
-170.867932957788 -2.60142681565775 -10.4209305833843
35.4811676669507 8.63226887187392 2.77221680645242
179.051890067686 -39.517529533466 25.6193625255225
-130.95231003879 -2.78236519734675 -10.6822553983593
-222.314704201204 23.6090789280755 21.1323440550476
62.2639392758024 10.141337913923 2.59936819184897
-181.411748725005 18.7028229640048 23.3918531166452
144.124722955242 -10.5964278134002 -19.83610516076
-117.1755223171 2.60700887393856 9.86307789393433
-100.756570972694 17.993233374975 8.96655604797554
195.246756315558 36.4994161852944 -1.90004897530179
-89.9599130473575 9.68119125666155 -18.376120382082
-217.171062466285 -41.487269020082 -27.1245475552469
-204.338688303258 -45.0400776030615 -12.4521586437379
-160.67042116769 17.0997429798781 19.8650898489582
-224.364489459477 22.3786082414933 -12.0044050873161
-143.229636527475 22.4690033952052 -3.08322727095979
173.886456193504 40.8252539342147 2.07481269833456
49.7928581586146 -15.7502644535312 -10.8776467401429
139.385495749373 -3.96293460096639 -21.6814164444793
-218.288458379967 9.03606065361856 -12.9674044469577
82.4118240073594 8.77498479896184 -23.010478684948
165.120227382244 20.5906270108303 -31.8262761997579
150.260774477225 12.1835261406469 -24.7598674050168
-100.083514716054 3.28629070829953 -16.3986659317782
127.954228849503 -15.8872172654054 8.1153128709217
194.647742471887 -9.57712514831874 17.7503114039576
178.529890058143 -35.8373782390876 40.0382483159474
-194.651910568227 35.9371085763191 9.56824178819967
6.80408189192185 -0.597171251451836 3.1341155154687
190.078032116424 -5.00237039484767 -14.3941298618046
201.050408746547 -36.147870978569 4.35560365249412
-215.382128316582 31.3297577097472 13.078921865085
-213.851004451521 11.1240060329156 14.6855672243997
161.820068776976 22.575360686084 -32.4719449020542
164.929469740402 24.1279026574319 -34.2993485866877
139.346028698139 6.66409800281978 6.59224519365987
-174.358799833826 2.24139721254068 25.966357808119
-240.436549428946 -20.1569614080971 -18.4602052816688
-190.124297472804 -16.3157580177529 -8.81291997387322
-174.506538949051 0.173110332233523 -10.4180274214554
-228.733869775637 -17.7500822310261 12.5052007499954
-202.617466767131 32.8843122948791 1.68403802496177
191.628516746639 -29.8356326923529 34.8007696210873
-14.7200188105642 11.6307045472627 -21.7823883807191
161.43783484075 24.1683228102628 29.6251155669467
-201.539000678089 -21.6041602386446 -13.3278434191572
-65.5774753870433 4.66707697296573 6.95976927571192
173.365459567116 -7.63115098469257 29.966993463592
-102.873055669313 19.0955666322913 -10.8040426580312
-222.343071525963 26.0573682986552 14.5507758013349
-182.633762916749 28.3093160794679 -1.47867819278502
116.744642207578 20.435239287897 -4.93888974721945
-221.886769609464 10.3442137123258 28.5559238567549
-229.217014359582 -14.3140618113424 2.68526574278491
170.720717539194 39.3563290121599 18.7555077834262
-222.978500354629 -4.31792449676661 -16.3396810956999
82.6674551100269 -13.605459900603 -18.1302420885177
-219.704836310221 -4.55249960377427 -17.6241134975402
145.141416536931 10.0857520808761 8.15641382548379
-237.340651222873 -14.7350458282367 -16.4740928674882
159.818674812953 -27.3504659021932 28.7353994418447
183.120291259853 8.44086289626109 8.52835256421684
-136.145321549533 13.2242195016197 15.6098682890803
171.965526684404 -15.3384288764236 -22.0850953121555
124.43792875614 -20.5337670018524 -11.0005361862141
174.462335133056 -40.8748805115755 3.67564584475005
158.526915603132 38.3495504565572 3.42083712776022
-128.202899027616 -6.49876547752747 -6.75029854394085
-205.007560944097 -27.8021954402749 -18.152499355726
-25.0430469383515 -5.18772378270116 -2.85460769024944
188.914057472942 -30.0134608898061 36.6010405448211
197.871166746512 -35.6474428276157 16.3523479742504
24.6224436529259 7.1059319403285 4.50431483936336
173.762288016913 -6.79807422345539 -25.8272301462177
160.928000372849 11.8105712023129 -28.4623580781687
-191.131426417909 26.2022932272772 23.538547406706
197.809458897492 -28.7607227777841 -14.9477568847328
188.121603850306 3.53856675035744 3.3467490593738
109.511170494338 3.16481765576083 -24.539370820041
-194.901136597489 27.2068592367909 24.259461285233
-211.347536787458 34.5009244615675 8.94255070331486
-224.793548397777 -53.9196248533737 -14.2774310445166
120.760996497693 -21.2198668940911 -1.71301402543073
-222.358846573176 -48.98674036836 10.0533365111357
155.903297984665 29.1208283301588 18.9197103415866
171.450190121929 -41.3124259113699 20.769831347918
161.093424878199 3.16002534272225 -22.187089646342
-172.703358696455 27.019967538489 2.58287424668195
171.270034358142 24.8672934605926 -29.6695189296858
150.412857346721 22.9748584494635 13.8601267862462
167.039106715886 14.3737475050023 28.694658259892
-45.6601890939143 19.6225101516044 -7.43858458799368
30.0793459367992 7.45739998359622 -23.2917187326623
-212.383194498223 9.13457130511589 14.8627222923292
-108.746641326186 13.5555213791217 12.3809360270787
-223.104335827161 26.2967986082006 -5.65406799057593
98.0338393518764 -11.1086967682711 1.12166485200134
129.108728046359 -6.44927673483912 -21.5382007338997
173.306983655232 9.72430210344363 17.4167620495445
72.3114187048784 7.0784092906754 4.76292410651834
196.255275896757 25.545417372948 9.36176666244724
168.309541678239 -17.7586844560723 -21.5682455659693
-212.395302164531 -53.0981541958622 -3.00493309061506
199.185132287517 -36.3874403972135 6.91465859441863
-217.862016419383 28.9986009823625 -4.79432027495491
141.126308897512 26.1984309791013 4.91701711350154
192.655921968993 17.5283480497378 13.1710802635884
155.471850666358 -16.0733255290736 18.6474209030639
193.786873455134 16.3797930443157 -7.02650918818924
-157.297668921361 0.671357888180023 20.62009110671
-227.924956388509 20.2250646446504 17.2948883999407
178.767057549475 23.0842691776113 -29.9080566714702
200.473967112222 -29.7110717444865 22.8311241983277
5.61192272955837 -11.6552343205113 -12.7900128337947
130.835454507738 17.5709555398365 -16.6840601133848
-210.698160890091 -9.09479794199371 -18.3948660329639
-231.959944568084 -49.3726124037421 6.83011587294935
109.502714473603 -21.0881031708313 -8.6481341705498
167.980400982831 -6.99428412147843 -22.9285321094871
8.7433384060617 -9.47032543674891 -6.44886969508766
154.516343291686 -28.9963545039743 -0.931025409372691
-104.821510675888 20.9794138653597 -7.99667469791466
-116.088228743282 6.96826409256671 -14.7318149714634
141.00234984416 7.27489781264677 7.07676417129603
-133.213727301693 -5.78023657599006 1.64042311511241
115.650672876295 -4.95285088467643 -22.326586359868
161.894784883956 -10.5371862042968 28.1407916960426
-204.645133237753 29.7861039698936 -4.8468456558666
69.4465835041603 11.9311384455926 -20.619503671299
-232.983972872328 -24.3875351127217 -26.7449242669761
190.076011300526 -33.7869746091774 1.00283136378151
162.665031505332 -15.4841184082773 -20.9686948154747
-209.221370280839 20.0385237068003 -16.4848638773769
-167.459275492419 -11.826325184692 12.9202100521671
169.13492802931 -2.10303995661453 -27.6422405964149
-216.411976392553 29.527561431882 -6.72263641218213
182.989738545308 -27.5008964928317 -10.6932702983333
97.540342629727 -15.9109829820721 -16.3291760868754
-221.890322807767 -54.7655700176355 -12.0360841512371
96.702981536569 -18.8758895402134 -3.57898249247311
-190.685140644183 30.3997604232342 16.8040154114771
126.365652719514 -5.46132603774508 -21.8513376170328
-177.253198363316 -8.94167395079675 -10.0835616295116
16.6403169173772 16.5798012143737 -7.27484779758649
162.097342569968 7.60983358246041 -26.6978529042645
164.086150008916 -32.6396732408056 -3.22422992702807
-173.160133594124 -17.3202206750564 25.2414202756093
196.123325120588 -31.7293138143632 -1.53268306521919
-238.805671450272 -17.5381299939157 -18.1008895434626
130.615776551598 12.8626785260068 -21.8548024685711
123.078016840501 5.82473979705158 4.97854178995006
33.6675624687134 2.38446972480781 -23.6003732451624
106.071409053672 -0.661063796706445 -24.1382436204488
176.530993759418 -26.1148026249128 38.9850834734725
173.633461461819 -2.52977308674585 -24.3732870604351
-207.539168580974 8.19336980305281 -15.9415455756314
169.282797749203 -41.4675451086591 13.4226419139178
-222.117071630154 3.62613477038677 21.2793205985139
-232.920749145321 -48.0151778444802 -20.4563294901389
156.845461562048 -32.9580515882272 8.74387693789209
-210.628867857686 -35.3440847008812 -26.4439100107255
193.403242939732 -29.9190600788917 33.2016290678753
153.916755646079 -30.4523066901242 6.16846557215651
178.777908122882 41.9074799238356 19.5651742250192
-89.9122416524979 15.668516180624 -15.8200620737562
-236.049505097608 -28.9892953168403 -26.0198699244246
168.010779662302 -13.3003358771863 -22.1582011622232
-173.148196657199 -5.80895579502414 -11.1898180760698
-84.9055659371594 14.9726569974614 -16.8154239550184
191.366606077938 44.5172786815923 12.9175277912074
85.6411714209295 -1.7279062892532 -24.0063791427226
46.53186975159 13.4736778671911 -19.161125278701
-222.04272966118 -52.4927810248418 5.01504366266654
188.026682676222 -38.278884971226 21.6438043617375
-236.875723094153 -50.826920471201 -7.10668922206446
-230.093463171177 19.0634178203299 5.82452313856668
-171.978576703684 21.8369088051353 17.1325866847602
176.664792437884 36.822215524923 30.7732913980193
147.545941878232 9.10798619515037 -24.0240562473656
-10.0533138965731 4.17938429022252 5.97609013144947
-212.388832998647 13.3738241601994 29.205942164521
-59.7465249100182 7.9728767662822 -20.802679487441
-189.366710108546 26.7859978531032 21.603171615648
169.345357677387 38.2846571413805 24.9500578071989
163.385434477708 0.101248604077454 15.4914690426416
18.2858463302147 -12.6710714078436 -12.4430043107254
158.052124966299 31.7662272918445 -4.31550976026046
196.460316838882 27.2902771068826 -0.192579090751386
191.248566174292 -5.39886694983708 -13.2827937631861
-161.962290190307 14.8514988535049 -6.62632558014371
-136.846932249942 17.9854178135982 -7.9935795680289
-212.84433107015 10.0492416793919 -15.9252022383382
177.705908330885 -20.0633213394527 -26.5991015211534
176.986096045482 -21.4964666652082 -27.4413982941186
94.1057515918651 16.0056251747931 -16.4501714656002
111.866024368801 -4.92941813021928 -22.4779501105029
-173.306431707869 7.4691168442949 -8.11524048911998
195.099527795071 -25.1004797189153 -16.2276353816229
169.767412033101 -39.7313657763123 26.4280160235868
-220.824982179385 -40.2529230493467 -28.2400877614326
-223.544800592779 10.143363236604 3.5377570912059
-205.252805920103 -35.3140491919225 -19.0530044851586
-132.912374472201 -3.66808233602604 7.03343026395964
-171.542279292606 12.0880202581603 22.5929117026485
-165.784045578536 -16.088506660765 23.5374148736587
193.633170774595 15.4765354529819 6.79781858753471
-89.7915250402934 -1.27083888975688 4.54729857998773
41.8601776274987 14.9278308292328 -16.8188261434245
-97.5055508708763 10.5726155383404 10.7997326506633
190.524783470605 20.5232551504236 21.027540320195
-7.06595307925811 2.11291670126022 4.92013487506276
-230.156276814613 12.9731334049325 14.0176486691324
187.470216723282 39.8357189863712 11.4503091078978
198.3790250444 -20.6248033206581 -18.2617819077373
169.526982051111 -35.0595858578876 37.5285834142396
143.148372849702 6.55528158620414 7.40253338295102
-54.1609695983238 -1.63769130973672 -19.391906219196
157.749257185688 6.32742509188586 12.5697774324934
-155.94475756239 24.9573772335098 4.37887965557999
27.7328706696195 8.26488949068856 -23.1245496465659
159.318986117587 -38.3436662423106 16.3050572687582
162.434029261308 -30.4138034196348 26.4773078794213
169.986852716145 4.38338008911232 15.2344352551916
-108.937077311911 -1.77606140285303 -12.8279229271158
-215.639856440783 -31.5393443364854 -29.1391526018016
165.983305695313 39.3340979876167 18.8531434020385
-154.621637576091 15.2927982611825 18.5129180000039
-35.4120098817568 19.0396945892205 -7.66926439512384
-172.688953505468 26.060297382841 0.460471429045066
149.817914878067 17.8009568953365 12.3579024434867
21.5901426040586 16.5888648622912 -7.55432644944284
188.353211940241 16.2936540165886 -19.6893354532004
-73.2094888167809 -3.91707906446306 -15.0673413927577
-153.508690750101 18.6239638947193 -5.85553847312882
177.722344970018 -41.4222526967594 7.46539792521568
40.5449037060776 -5.40863442073453 -21.7757165151976
175.956405520395 -14.9699134154805 -31.5221196865795
180.954575080726 -20.3255393733214 -26.7279344353779
-193.745233088943 33.3767743673878 13.910709258088
64.0192388381669 -0.441946036914556 -24.0940907882238
-207.540002847521 -39.8598505228137 7.80460615561574
203.047724335394 -27.1349774772958 13.0786472975876
-100.713074970139 9.16414882123793 -17.0926533619842
155.125167155904 -30.0080289930473 1.04262800635891
-200.575048191473 -7.2418231406026 13.4047426671266
20.1328524891504 -5.53367434953021 -2.04253157810646
-211.243237850166 11.4252045397592 29.2436683615443
171.315859610829 -3.05991857343494 -27.5011603454165
-224.974497801993 6.03586562422172 17.4791493843399
175.301220656417 16.5375071707575 27.5557507683225
101.094228926392 4.4561434348477 4.27233801815485
202.437392320605 -25.5134030736431 -13.8077001275778
-42.3382240139869 19.6061579698848 -9.43607894541813
-125.468316060091 -5.18995411876604 1.96334017650165
143.563447289519 27.0254908584358 1.43849139177208
186.600619601562 19.7702022438999 -23.1278272773098
-208.354925587461 -31.647334982535 -23.4285483698799
114.220909860519 6.75346730413427 4.63847041705066
161.104840711097 -22.928599181158 -14.8666760077011
185.394106513736 28.8272088938754 -19.9731087949407
-60.1299300358168 -1.49143048247039 -18.8691563101152
35.4882668036177 -0.0139026361749643 3.70515298171461
-197.093648029103 35.1971387500694 13.8851881603254
-143.60270639995 20.7008966246327 13.0817888153336
149.409892198168 -23.8112837549385 17.1439879253175
192.18390866666 11.3363279667674 7.67158436535692
166.504133471905 -4.15371106921284 -24.9051706569607
24.0723505635149 -12.7698445960199 -10.2508194345402
165.184373212742 -0.789519672314372 -21.9213959342347
41.9246150109719 10.1899212994478 -22.4044573479496
160.723434661037 32.2528038029245 28.0380541933097
177.198981646589 42.4654060101528 21.0245856834972
-29.1477863456154 -1.45631754861112 1.21919132804012
-164.454092654511 3.06252895704173 22.6709298546884
31.436416083996 5.69586851280233 -23.6524537873031
176.430639800264 -40.5884027256598 17.4325484899421
-123.315776564151 15.6438019872061 11.6883568758883
91.3064911027324 -16.5150300463292 -15.7496806419994
119.834488965314 0.840707861279413 -23.8315005148354
141.691011623664 22.525483533026 -7.89897199693662
179.144183806495 24.1194704573345 32.1880606281727
-7.52759181359806 -5.15777129922256 -2.45586430430885
158.898650869304 28.298979312841 -11.2665630898681
126.004599344912 20.7258217067646 -7.87476381382748
171.473170851448 -19.6291278999062 36.724412887532
188.609899439635 23.0459720118655 25.8514652173634
-230.688723420841 -39.8125210082889 -26.9914128823767
34.5833802856773 -12.1841037875903 -17.3337740225037
-202.081283807093 22.2323202220018 -9.21452417189105
-160.929720080477 -11.4701407312563 19.1413709240127
173.439136193457 -17.093992086976 36.6954897195976
179.30379794261 9.59293099572899 -23.9212716674604
-76.4497549783018 -3.28089338180236 -15.3220646622713
-85.4504741631354 17.1484624127835 7.21032951243035
-85.3697573217786 4.55472984430532 8.5419962779492
-28.7541596783385 18.7704118754463 -11.1209326900288
196.602329332599 25.5917171481413 4.80628552986313
58.2172027480599 -1.47126103517603 -23.6649857208283
-226.82508849608 -52.586515368767 -9.94550259863893
-196.500284392662 11.7427997418504 -11.7020287712854
-143.651071901778 19.1999109225312 -6.5063907521009
-68.8355103968586 -1.41970350561147 -17.861084578488
-123.519459087534 23.4654413663716 -0.760300964307909
-90.5758367629151 11.6361528174722 -17.8244285808463
62.5630219626142 -9.33797519361606 -20.5609994227334
128.058034910966 18.9419046011986 -13.6422928872434
-40.8999366112807 -2.42519968248467 0.435002023925431
-11.9625802871721 13.6144766663085 0.569763033490823
-225.086347226536 -13.02185611939 8.83617309855295
-65.7817343144539 11.8013153182624 6.88596006154
202.670357693749 -22.0386285001509 -13.5685233052284
198.908921702217 -16.3474747826938 -10.5298104231971
147.69732457259 -10.7763842879992 -19.6162094624838
-50.862990625149 0.739164510773653 4.42768685357457
-223.476197865876 -0.657701843459658 -3.29704174221012
4.94452889739778 2.11032468887105 5.05638146946959
-168.627741801766 7.24839900387324 -8.38476627522623
191.414913060521 5.06701321570155 2.6699198304113
-198.463765224356 25.8819123322795 -12.4715329808743
194.098444638922 27.1156381486217 17.600564042546
162.423737488274 38.5264569809005 23.5206594062483
181.745036455375 -29.6656712788945 39.0135260088665
144.42510686024 -24.5999558242651 -1.65860108768299
152.35482890191 -30.1166436770056 17.8718222737357
-169.71239480866 19.441988374203 -4.32531540998121
-180.47164075735 -15.54293500418 3.26693934128293
171.043998765973 37.8295426515189 30.1201909124723
-126.95280864518 4.69309341057205 11.7917681622627
155.946896461953 0.729961822783273 -21.6086373874582
-133.953226787093 17.9436263722557 -8.36154473648175
-207.871058206417 5.87504463422894 29.2034387605387
-225.05352301619 -3.60065271175514 -12.5994310158741
163.301823451248 -17.5731188807182 29.6714532392899
184.659838057074 37.2358435474727 2.92682810814842
-244.731095631182 -35.803472634559 -14.1165235310595
148.436497370009 23.2732402501626 -10.74581474252
-129.246619094457 2.2488620391113 11.3523416732943
-0.608708503349863 0.518660474131723 -22.7345905221068
-231.228716995184 -53.3489626712059 -13.8687099224218
174.696327706912 -34.0230112968657 -5.09465390261353
-203.136222827868 15.2839452809156 -13.0210608496824
-60.3272998993918 2.16153449606058 6.1926193223606
51.6096613556213 0.338060320264002 3.58152953857924
-187.58796354501 -5.86639159494866 -11.6426640218661
-192.597276817295 34.9994968780032 8.06801712488891
-222.884947679291 0.377297453333789 -1.36665893493321
156.834450993929 19.5089839194641 19.937278755994
-202.795190859485 -34.8937136147425 -9.61091336697405
-4.94850510262108 -1.73697019484753 0.841996157665236
157.792009294855 -1.75151850788172 -20.8605416719348
158.658614092492 22.1052537791737 26.2726798382396
26.718348972021 -3.31187626224318 0.128039577859586
-168.195858779959 15.1498498433631 -5.93828690780705
-243.010200304445 -19.1222230109484 -11.85898917316
82.6076091638371 3.98241643049552 4.47905623464199
-242.964427447851 -40.3776929203997 -15.231232102964
186.036168133428 -8.58317343160728 -21.2759433435289
-171.870611398447 -0.266231149911756 -10.245323093869
-202.517424531386 29.9522474333141 -7.06417027732494
-176.510516147058 -9.22087107609498 28.0102622870135
194.188655495715 38.0023037117201 -1.27169497872592
143.827026633423 -19.5711763269246 -13.2448112228599
164.045946505646 -40.710497264078 19.8855044326145
-179.49889600151 19.1875869535979 22.3038994714363
152.148530488247 -2.61894859116173 9.83111114923831
169.164462492375 25.0555690696262 -30.2936052706665
178.130959749901 16.7023980073968 -28.6988287680962
156.78219735782 19.918539862705 23.7882179929148
-32.3112126677267 18.3963921231884 -6.11308115712756
-139.211820463024 23.9810699461842 5.49087599528573
70.406738847909 -16.0641694373552 -15.1866357102257
-224.65581699696 -3.64341036467327 -6.46850435269385
166.256445623221 -10.6307925126095 21.6089313863131
-106.329888367072 -5.97858952407286 -8.59184057928159
149.650378006959 26.6918486908789 12.3591723199599
27.7513864132007 0.610250456182999 -23.2568826494641
-196.608220554294 10.8363833461715 31.511217414311
-134.167422811783 -6.92343775863889 -5.49789160429774
130.925441905653 19.0803196923991 6.64164066733764
164.346758345858 13.2439697536102 -31.4115544131902
55.7476276626719 1.87033144823693 -24.0679066149302
-147.422066461028 22.9892324093439 10.7970512724301
16.7421588095887 2.64989195381458 -23.3336164470659
-126.260964762656 1.35671888353215 10.6155288712234
93.7725534963647 -1.43997859074752 -24.081308735476
-245.912408549916 -37.0515326570756 -4.17532743073307
-72.2024637715045 3.40978293997261 6.59305128923491
-188.093959268199 9.34643048236668 -9.39453052400347
76.0984423807563 17.583888795118 -2.39082099939597
196.638436693682 -21.7466256120568 -19.3885709629208
203.701775612532 -23.9837371305572 -8.95479288432491
-86.9598588595898 14.7659867034491 8.73696895050628
123.381160482603 20.1077351469724 2.67298958328414
202.094473293168 -28.9939437006809 -11.2503037341569
46.8064452497421 1.58432453136163 -23.8991965498059
159.524261816011 7.07630911472746 -25.3627412861628
178.363281149463 -22.7806352134712 39.3629005466553
-215.070516094312 5.65933290594065 21.3635674121691
181.824997633639 -10.5198896013405 31.4621135116959
-69.9217203409458 18.7939899494223 1.9548999561485
48.7214398014793 2.52926618038458 -23.9453177465783
-25.4420787541566 18.5856939831007 -11.057549994108
-100.40285349261 2.3451641994871 8.23775721717474
153.820621350003 16.1370424291158 14.2059794292284
-13.7988887226162 -6.72458650530595 -18.8849200888337
-65.9229010427128 6.36272691290751 -20.6073432156711
193.223154276729 -35.0421272737667 9.66110450248928
-111.3631395929 13.1807895678511 12.5038279153553
-180.4351122113 23.2013867389702 19.1656111959308
117.079866418096 -21.3343195800754 -8.39153047344357
166.843413926707 3.94601801433599 -27.0584443959637
163.389699173809 3.09083748485669 -25.3109326519059
186.561049642457 35.3506858882582 27.5460745374425
187.16070149455 13.2351865935865 20.4860360283744
-84.2774429508953 -6.59943787574439 -6.54184440134834
-169.58669535999 4.63786835509812 23.6557221039475
202.470625506284 -35.0130416553832 8.44556871149908
176.575760108438 14.3102133235336 22.2166863353439
-115.098009940815 12.1288123489218 12.6134558859173
-191.192230331081 -12.2060634958286 -11.5926569836267
-129.061440341215 -1.18213731765359 9.44867071002631
-154.523026091454 -8.19901275002651 -4.19902836076487
-207.660663379431 -24.9388237184256 9.20297655847056
192.160742429943 -4.57785237751008 -10.9393226027749
118.520473792702 17.695399176869 -14.8539856595508
161.532806942644 -8.60759947873236 -21.0312408780747
-209.305207440186 -13.3714683315514 -19.8915731904564
-157.244026984706 -8.56622767435855 -4.55397547985348
-191.284356641578 15.5515724330366 28.6089186922066
113.653513420293 0.324903106585336 4.37319683777584
81.4022005086432 14.3434489892652 -17.9142759848259
176.171636941294 -8.47227244940592 30.3148708961586
-245.483427219647 -22.9197617519415 -6.03588167915893
-201.337537983116 1.73274044762801 18.9207535176702
-197.546026956533 26.5277553069428 -5.68776348799857
139.068944089474 -23.0720687700051 10.8244377380511
179.46412936747 -18.7170210442668 -30.1964275239997
96.3880318496633 19.1870204260451 -3.87892322061557
141.130808049207 5.3808263723791 -23.1948671409956
7.73095956670304 -11.0213798163589 -9.17346236976171
44.9935576187151 2.02147060961333 -23.8331447385513
187.837491329074 -12.3431821317731 31.6379075266046
-29.6708938796635 11.3546944010361 -21.549939103178
-148.244402794571 11.2574803718906 17.7505944391513
-241.941954732384 -33.7088245508194 8.23936837036301
183.99763525608 15.5841681048155 24.2213947820354
166.540922593514 -23.7590621354605 -16.6389646780168
-0.329391112450989 4.47143869721649 -23.1095616534576
132.097996843948 -21.2882016199637 4.57940763797951
173.282499585257 36.3524239292703 -4.51222139757378
138.146373923704 10.110313951855 -23.3145665958093
158.552644199194 -21.0362577184315 28.695558621982
153.760650961775 24.5895885252361 -12.7309963392948
170.891004070281 -24.1515339161696 -16.9984713637656
156.512911556642 -33.2077685757378 10.9713143613183
165.513890035453 4.97177472385471 16.8942498906809
183.060906376623 -39.2598171987607 5.01622048709459
-223.716424458812 -2.22153450269031 -9.17191151430342
-18.2885568050852 3.89372936733396 5.88254329251932
179.541700843745 9.57481573710665 14.9278176045424
173.635232503036 -20.2591134837745 -30.7727429497078
167.707109407193 -11.5531892339659 -22.0317909255539
-189.793524315609 -3.68006740263932 23.831078672931
96.4554997629638 8.4701733546629 -23.7453203870417
-107.058388658564 12.5402343447887 12.5655645484035
-117.26350229569 21.2196788512139 8.9741596465669
106.864647832602 -12.2012032750633 -18.9472656086974
150.031975773683 7.70570417109551 9.73397787477721
153.670067524761 5.30002092361863 -23.2074323271045
-130.743534139788 9.53249588904924 -12.4637223860601
-224.703357473204 25.2317774732773 -10.297125302357
-147.714729054771 24.4151213005852 5.67805051186747
-207.389364631407 36.317061658338 10.0729576123626
203.070131731732 -18.9991172706726 2.36425725446787
-191.957611859157 -21.7851594088793 0.657888798177641
3.07940105435368 7.70975441344193 4.46298889823501
-64.4096644132483 -6.19625823240553 -12.6390558089651
-203.461814023078 -20.1685275825529 -14.8420504587137
186.659680392963 -34.2525750252233 -0.861502836467787
-195.00501423918 32.9580552249911 16.8370660241157
-182.594884440788 8.63169834761813 27.0422666810539
-188.093330781132 -17.9600937780818 7.09194190703895
144.574305465024 17.5316987243464 -19.5938676427284
197.151347175183 -31.1087546169826 -2.91092017344181
-222.015185530166 27.8994371290296 9.68063917163351
-108.841924437915 14.8005871103003 10.3305409198834
-223.221100472881 -50.8477832799854 7.88164415991012
-209.936533296882 22.7711012908503 26.1209147840334
185.635450580319 11.3658073896697 23.0758805233611
-211.523096916831 16.2791649036426 -17.1380805088633
48.9382272600091 7.20542954261292 -23.6060279602876
150.927246294786 32.2112827647506 10.2814306602733
-205.789478663025 31.3367920059526 18.9714189429545
194.738200884369 -8.16276007503308 -8.51210014436207
171.907406601787 28.2172844015054 -19.8075304154707
167.918135653298 18.888111057132 -32.9854833536612
-196.542878363198 29.9535071889859 21.647174541419
-146.50165152372 23.751073903075 -0.0613972171838408
-69.3360844101387 11.0962436907255 7.88707474971842
-184.483291090192 30.394665186967 10.1177009598559
79.2592264053323 15.6286207944438 1.02525671537409
-171.181913914198 -17.1214068452009 15.6090325339186
-93.8709987366665 21.7282858857694 2.38651806767589
67.7003697379922 17.5223159995408 -8.69766206153103
141.117047790181 8.06177342395265 -23.5524445778892
202.876933210537 -16.0948488686186 7.33552396924544
172.437067814265 -25.4138765871546 -15.7882004857872
-222.499593073547 11.7774297358788 -0.565005427145129
177.23399488582 18.2676200648246 29.081309814868
-189.943287660963 -5.25317988482544 23.0607459033539
175.286282712953 10.5809750968221 -26.6737874410406
-212.272123079762 -26.0465050651751 12.7856291022488
92.0042076727761 18.1181967092823 -11.1090869765733
159.921401144055 -13.2865223457039 19.0940373579845
188.41426331653 7.62667250824213 -14.0357676340428
50.0823068051787 -3.55719361641332 0.752355724946265
183.81955050903 -18.4502716777662 -22.5276427106456
151.198803626996 18.5218290512698 -21.5356848959007
196.480597102806 29.5359312019455 2.06275674306857
156.666914468123 11.3330237908338 -26.2423979580169
182.039078642987 -19.2372183669726 -28.2703192458154
86.8827706936959 -6.29998331582538 -22.3621455440675
163.656556278709 23.1952979139302 30.8098540513142
196.176037001228 -24.4350328336829 -13.016987981707
-73.6783602674815 1.0183662556291 -18.9477463193317
188.974360782146 43.3130562587113 7.92496058811175
-155.20759043759 19.346207585482 16.1052923454585
162.073499232519 10.7303550958334 18.726575585207
55.6037546565561 17.0745017810716 -8.05079233490214
-147.916093325385 -2.62224339746003 -9.5660996213029
64.5242584947146 5.47222843560583 -24.2421402897429
81.7419565047623 14.153558405809 2.16809722937066
120.703008971142 0.0508065553897843 4.98674032697654
192.61094080801 -23.8296970124247 34.1053265715241
167.318589910295 20.1030381224721 -31.1431856995252
-46.2835939410949 9.08558380251242 6.638573733376
36.9214382114016 -7.13116465892869 -21.0223137133611
-94.0681432275676 5.02611511926253 -17.7031249228996
-197.515767135464 -2.82484294161225 -12.3823534233511
178.090960593912 0.39097984354364 10.1620034681896
-144.479011150753 12.8593957753317 -9.52593518609923
190.81633104329 -9.29116906613585 24.8540931755555
125.743837846748 -2.39105009105065 -22.8810634200241
137.196382650328 13.4214404152836 -21.8966265820838
115.044679704499 -5.57850497372105 4.71981445201159
156.779676560125 -26.9853818848478 21.2579936932634
11.8425320165084 12.0624222094517 -21.4808080619658
177.913643981892 25.8680330317136 -26.9371108645655
-62.2342557224111 2.79714519970158 -20.655078498031
194.17232363552 -31.1447706808531 -2.84313442006595
169.025084601144 -10.0782282257406 -25.923634664615
-209.294311990095 35.8972476404488 8.78779646292856
187.093447629324 -27.2174218493545 -11.0021603886848
-204.178380256145 -42.2615190901559 -16.0194333588108
105.031516888894 -10.9804028556796 -19.6100006588212
190.229752565496 -11.9095961521178 -18.5547789261376
76.4390610830304 -1.46981824721887 2.50118876197572
-46.9223735513218 16.7786933572211 -17.7986351416544
-24.8400797769559 17.6083998909119 -15.7356951921272
-3.56113286492164 -4.88412371827718 -2.07658723500289
155.211351794192 -6.18159318862292 13.3995987354826
-115.163494649354 -5.32895869454781 -9.54043600861421
-168.89173351159 -16.6497262895701 16.3816814642278
-199.275967296503 32.4937613899232 18.7815771366178
-7.55736061967183 13.803494253784 0.0617516520774314
-242.260143887037 -44.8205069878629 -2.28381799790961
172.575833971288 -25.4407338918058 37.9502251460576
-208.994934516359 32.057360090197 2.35218319488068
107.813761857282 5.02092698415627 4.35288623911559
-223.188489595691 27.4435666026903 1.00407499195408
-230.548907101198 -14.743754544322 -1.29549365735851
177.442659236901 15.126301468789 26.3282062962111
-231.854459381868 -10.3783576169611 -4.33427485598861
168.888231016072 1.66459143943135 -26.7797773607714
-208.164449133492 31.6254634349606 -1.11637933131143
-13.1668494713355 -8.51806045971683 -16.9007356650667
113.449098869855 -14.2675258128302 -17.7177246034422
85.2752214564639 -1.61779057345733 2.78605814177324
146.7476722968 15.3053931095435 10.0996922561985
52.9100893247455 -7.74403748409802 -21.0574485909949
175.928611686192 41.8910399158314 16.322813466009
143.014474076353 -15.5906678831042 16.9202746954353
153.941393918562 14.346235943065 -25.9116383610651
141.692089291354 23.5735896102919 8.09894030200446
198.435327721707 -35.8350279480672 5.67275269019305
164.635933189682 17.2507130514726 -32.4691780423905
35.6774474186362 -9.64959260184031 -19.5201675875067
186.737448026121 -10.0020285742889 23.1040762475413
-202.550571858604 26.0985691767547 -9.84828060828481
195.341808829055 -36.0199803125054 22.4376986924301
-114.987649078717 -3.88124888235741 3.2262313978295
-2.83721840528492 14.5295577953895 -19.7404205595552
161.036494842214 -39.8965257299177 13.4901792310718
104.582045177244 -19.6855156927727 -11.9774267237981
-192.500799788164 36.0314578478916 1.72301892104414
169.268058974597 11.7230744673797 20.6289784651662
85.2132207666715 7.4840440046529 4.72005968433445
25.5147663387829 9.17335522635905 -22.9309088531704
-241.892272312273 -36.5515244873169 7.34482231061248
178.242660361938 -40.2980602269441 23.9642657157142
-171.333981199329 -12.0267312682335 -1.84834009629864
-204.830092883371 31.3871260502318 -1.9283759293535
199.547842561459 -15.0052555061952 -14.824392242132
-221.43337508368 -56.3097890001499 -0.636583817658241
-238.791910326919 -12.686038327706 -7.61080830400121
65.5018419097862 16.2639584961514 -1.08719435534642
122.994774371211 3.59238375048351 -24.0169103072659
-231.421320266991 -52.6255439741852 -10.9940540132953
-230.730089360342 -45.7997071951107 -23.5700208099405
159.291977622713 -14.7100892335279 19.5912306624626
-205.136717387449 -19.7194012206457 9.8211481408325
8.63680886014554 -5.24534662990226 -2.09135922786676
-207.581741421334 19.8594795056917 -15.5909521163699
-54.6132969595383 4.13147527674947 6.41042318957255
-203.778054736806 -28.2247529301785 -13.7273166804973
53.7880821134539 -1.21473570547995 2.8450460015708
-73.2342026600857 16.4767816483145 -16.7243445281283
187.429853552595 21.7603464199353 -22.625399305022
193.571445030737 28.8242536808615 -18.9990651935054
179.164981266597 14.7635983681808 -27.2116963412201
187.575990648131 15.3762423360986 21.7597467565591
165.857145263492 19.0637856154736 29.427435021563
141.589434724683 -0.381472747886039 7.89253318949888
66.3473578033336 0.400151633433764 3.18820561708384
-142.571134800654 24.2780886516229 4.7428568103457
162.444727111192 -33.6159992391413 23.0052241768655
-159.18957931593 14.3125819639656 -7.20300263736988
-216.674174354267 25.2882186879547 -14.4409141535521
161.294228528549 -10.5793320399093 -20.9153609395207
-68.852840346528 1.77854990257641 -19.8020362582585
-221.648833427078 8.05040383908158 1.87006981304451
-62.9839408570337 19.8962754991408 -2.59773533589192
41.2793764364828 16.6682482409172 -10.5377684756971
-214.260289710362 2.67930993161879 -14.9014237505551
150.192163102172 -29.1045440833503 16.3946358713595
123.241519008402 -4.75003071298614 -22.2551999989294
-206.96538029388 -13.4980989202617 11.786148471618
92.8244912095887 14.421059627162 -18.6577446205545
-221.52786472125 6.8771498396882 -4.79014883825854
-88.1039025623712 6.61685154432033 8.73920966525335
-152.237783997657 9.42103066589189 -9.54341887023554
-214.211090122212 -47.5225642115483 9.50852648550942
91.8431669488857 -12.8483775448285 -18.703115783904
-225.534907603542 -4.96354070465794 -3.82270664638115
-234.850952110817 -45.0074835060739 8.96994780650149
154.601572587614 17.3199276406425 -24.6027441722131
163.184782639595 13.1974757131358 -29.7764122365022
-176.610746429628 -13.6565207262512 4.69606561812181
-182.334077809265 -9.95422074853314 -10.2254212821841
123.405968314464 -9.33733215145999 -20.3740042885998
-210.725224608652 29.8421519462479 18.6620915580813
-151.705691743741 24.5851390836221 3.42422308784111
191.000010481137 12.665468718972 -12.3597881161306
-95.000571556089 10.3257787490114 -17.5429745262871
119.510711564952 14.0461294543035 -20.0556065593014
61.1172631118466 13.8120544909047 -18.6222219265915
-160.243262964914 6.59487145309371 20.3117579088987
183.578829434497 30.9003834248497 -9.49144593819281
62.1507507435955 -16.7155070749559 -8.47776168338118
159.115954934361 -11.928586293747 15.5802509204256
-190.482607516177 -9.82470045006617 -11.6615014028602
152.779830723373 -0.942589189933571 -19.5932764313648
189.983935811647 37.3708092581181 23.3886749371075
194.105160015382 41.1741671633615 5.32314554263882
-4.79510283854126 5.76730640647827 -23.045930151772
-230.25245575813 22.4353865651119 12.6261657146817
84.0340033815631 -9.87562276105245 -20.5492871013268
-88.9226072293279 21.2063661471775 -7.46098990294224
89.1417533180656 8.00889615359483 4.45875998578095
-205.175532867777 -33.443138882214 2.47875788282284
-195.882029510427 30.0428341879607 -4.0320192720465
-199.841459000537 25.5605248494472 -16.6379672392805
127.430940074332 9.44956030150131 -23.2480454207072
46.6806745537758 -13.6012793964135 -6.85110509271683
181.619498567626 38.7914854177192 8.37598879051996
-219.349572590866 27.8787246512729 -3.09966738997822
-89.5795367094753 5.28970587318209 8.87421566970271
-67.5916423705148 19.8148186368947 -12.0878588337643
194.531431687719 -25.1827528496024 -18.1602000788192
-108.033653431573 21.4823007244534 -6.90159096415441
-30.0140181789154 5.01672949995325 -22.3828982186926
0.926308067657468 3.43941512489697 5.45524195423631
-197.018827380971 27.7071265244665 -9.83927843427608
-126.240516037884 6.14754473842692 -13.20320113457
28.2862961375937 -13.3818372060528 -14.2665006615232
-30.3730591059833 17.7193657886537 -4.69752858383233
-202.593199761607 18.4217059112668 29.3574437405561
87.2718693724971 -19.7125831510117 -9.4587918301344
172.199263868208 -20.521204943088 -29.8242473435677
-229.385997332828 15.9529424341247 8.06737427840193
-162.759567277991 22.9928697841743 -2.19998337482384
-186.429750753989 26.0190095583164 -2.92512135632887
203.154443296533 -24.7516063029546 9.94587810032812
-131.830955030019 15.9194328902834 -9.91404607063387
-13.7749343412836 -3.96511824351157 -1.39777913676185
-79.9024498574581 7.86104597156938 -19.4705019519745
26.7441895946708 -1.88134857033636 2.22960399328703
65.9109602556964 -1.08375226852743 -23.8342033458368
-36.6132397373313 -0.648908209038448 -21.4439280546083
-29.831613989325 1.71704422902587 -22.2966746814536
-209.878477451467 31.5132933658476 -2.24734383151945
194.835022837809 -4.41707978871907 4.72071978273994
186.87852713795 44.3882344853979 16.0139238027192
173.428471869166 -13.502906904731 -22.5081191695463
197.98729090055 -28.3801139312967 27.8565553080734
-190.204649145365 18.0346523828754 27.0888930503534
157.007545064527 -17.2915055596624 24.7313117864532
82.0317394449033 -15.8492668988691 -16.0105260099741
171.073382845521 38.791157315826 24.9819533643198
30.1579213448228 -0.536368663133882 -23.0465523123674
170.719350179365 -7.58860132533319 28.3021833029584
-215.697799167511 16.8842050377674 28.197322050091
-201.921004135739 25.5453967474896 25.8937711646389
-200.705594429288 22.0703801141412 -6.22160936872706
-141.966779802535 -1.23156512535626 -10.0310540795932
174.459474535983 -1.47071547868065 14.0011357026784
152.673784317361 -28.8033453464486 1.8649192273723
-176.745977022145 25.0458366946204 -1.76592392476946
172.407529621103 -34.0120106181204 -4.91201796741239
-215.584705733142 32.103865370316 6.83280430184972
191.649324463678 -23.8540528307913 -14.0969191811935
196.728251546106 -9.54251985850039 -4.76236181521733
199.841820731625 -36.7913606156397 16.2979795112939
-220.468146869693 13.276071757275 28.7590988174861
-229.086667434739 -13.5910591010519 0.911482108733122
-59.9261453831459 -2.56179323203322 1.02046974347238
-146.482164091101 -7.09910767455727 -5.84284963065598
-238.799760844895 -48.7301939355076 -5.75980838573144
166.125824609918 -18.418132524981 -21.2525922226723
-203.31388624573 35.1014962169686 14.338438810356
87.794443088618 -8.99675002096081 -21.0953957960511
138.685735551949 -14.3426020623032 15.3630774580985
-54.2931776580694 6.14164011571878 7.41990266264444
165.855585868817 17.72235678282 28.1389712054673
-97.0191176826453 22.4605213607802 -0.311368422725274
23.3443925754051 -2.76150267634393 0.584442784184288
169.837639989427 38.6150597731369 20.4570370516144
33.0028214147985 -13.3756929068118 -9.30304621991129
-208.76078924742 -30.095728805621 8.81152461276496
-225.247517566041 -54.6719271721705 3.36246975786851
172.12495950707 13.2350147862856 22.9688404077651
-221.595032889141 -3.33116435118353 3.56016342977195
-214.207293788393 32.4174328618123 11.2615638611909
-207.785846384182 -47.015905612121 4.17686474407903
200.063377083649 -18.2039089636105 -5.1114642991045
-26.889610441145 10.6576818899198 3.76232858545865
34.9243277407106 11.6729482636073 -21.3680344210458
105.356091213011 19.5750364363817 -3.25198791365258
185.445227065399 -38.2861742419098 5.30805961117725
-226.679788537778 7.47131097072998 24.1033615668338
161.605216531156 37.0407160205693 27.0294182150049
141.568591360347 -0.55026914870939 -22.0655890874296
-189.53428982797 28.4754398644448 19.3230756475985
-188.928660092707 20.4088282312223 26.1468496410719
-222.712772169168 -55.0506793450049 -0.747053188589402
-184.791747447785 -14.3984936428058 10.7920230065606
145.830586471842 -21.1133676961024 -11.2097486629788
