60.3319828315599 -10.03239798344 -4.18040091542693
-224.747297030475 -26.7872831939205 -1.0512855073698
62.0722099751413 4.96990558659977 -21.8764787390176
-190.047610366692 30.2231822265513 10.1198759755724
19.8606716397787 -5.70283064348058 0.419170746243717
166.707971144455 9.5341529762775 17.6309033355347
-93.7710104285236 0.537091409744621 9.59167289597164
173.308765140956 -25.9482059287126 34.4555025916889
-11.568011083877 8.35158509462287 -16.1861705294582
123.472709578247 14.6654637338923 -13.4390054912451
-188.107825590938 -28.5050858200509 2.77595233083987
140.811953310442 18.3349192358101 -12.596839096389
-140.60203419588 13.4346734566413 15.8583317907092
-185.433718147307 -22.2291663859326 -6.68039926737865
145.094687676698 -24.795116097514 12.2202556161541
42.3522467330316 3.11382242774329 1.65111610052683
189.642986266181 -6.35933251850861 11.7351532571686
181.74987818968 35.2929557994447 5.26235061690352
-140.769405254675 -10.1997766894818 10.8000203418503
55.9143662832621 -5.66161671745677 -24.3740805468223
-213.302684843907 -4.51393244009222 1.10447016436562
-149.264556083031 -2.39843065070555 -8.21010587891666
-203.543201769413 -23.7828242343705 20.2507011711704
155.713424786867 -27.6114663538717 21.5211788133844
61.5698608149591 -1.95078459400972 -25.0338586248699
195.486544590834 -23.6191283785322 0.831378850373829
-40.9465933065879 -6.99005205516823 -0.655223555224795
-200.557647184144 21.1791250810085 18.93948263735
147.065219880439 -4.41995851821267 8.1108239270858
105.114139531057 11.6855071951046 -16.9377029173446
80.0557660112604 -16.655771096277 -9.67768732986911
-172.655269584307 17.2506506692097 24.0971175999028
-216.071508690008 -36.1374252036967 11.0815515538101
146.026293642869 -1.43894239676421 -20.840689824852
-215.478441341247 -8.31783064232227 -10.0880663176403
128.550827766643 -19.9712469858393 -5.29334624735359
-221.126479592319 -28.6417459482275 -11.5512435400624
45.2335049576414 -12.4887267615567 -19.059768897023
169.618008152144 20.7704970441895 -24.1477284832955
19.8679522179585 -14.0794474115382 -15.3658175339757
39.959586143654 4.18557851014241 0.197389822315199
-203.6460619225 -34.0919281875574 -18.1970273725244
171.223351551338 35.9121585646201 -0.659941550969657
-204.65660447732 -42.5994033901542 6.01375428085877
-82.4319491354164 13.1373738555841 -8.40358516497469
62.071550607557 4.56225923366003 1.50935874470861
140.715630715771 -7.22379396602748 8.60570680361607
151.180350444723 -11.2550261751588 -18.3799599752703
-27.1905160234572 -10.3036927034412 -6.26679499274783
143.631861853461 20.9718597038331 -7.86779169842521
172.389632608377 -31.1430260790672 22.82037891436
-170.358000304363 0.454373676487841 22.5643083217552
-191.458631557298 -39.6605160616235 1.38731479808169
178.001771463085 -4.10316735214274 25.3506439254722
-208.067402701489 -4.14377677140596 0.276449488770416
-207.078991379971 -37.854177349498 -14.8647722951942
-103.236589414533 5.49732770711329 -14.0329310555603
133.511564540825 -13.0783222419983 8.45560669736364
162.495478577 -22.0300199352791 26.5237771202824
-98.4078223152041 11.1664278950586 7.82005025404575
-64.7226803634999 11.4192178937948 -11.76360636282
97.2356644086152 -12.2694096791337 -1.11860569233948
-219.376739417849 -36.1581946664739 -4.18196659303948
-107.928568541163 -8.81018878295376 -5.16687880885835
-54.2331778179862 -3.50572792350204 5.58853145358176
39.1007863819839 6.45377044557583 -19.0100701215019
-137.226219593045 7.35640258516101 -9.07868853822781
181.654040544345 -7.15614877240538 18.1835139092249
133.052044398118 -6.3254707347134 4.60701271140128
135.814845055687 12.6950278872422 -20.8416541234806
-98.3401610822826 1.51340771908885 -15.2756914263192
-219.567518936705 -14.4580691506383 -11.5678262227877
-188.765682181361 -31.5525011290608 3.65869432279127
-47.6075959767631 -11.237846747465 -10.5721970725345
135.859961013209 -5.50634985725676 5.34643997898212
52.5197445246443 8.21345748320897 -16.0402337630679
-168.399394115474 -11.2063899002515 9.82052362776476
134.780495056118 19.7104889705587 -2.65777399904387
-189.499123920524 30.4387723911564 12.9578635459434
175.264957057083 -6.37169789722912 -19.4366839048611
-32.636190544336 8.15900158111531 -17.3721084142623
-190.947349238073 -6.7964264173369 -13.3547729577705
-146.755342761872 -11.9850189207664 18.9583348538293
177.701237406241 9.81135206588868 -24.5007333858682
182.285871681007 -5.02689678349811 -14.3044619808789
142.372336733976 -13.4296697038248 -16.8821858199
-195.13136083604 15.2470952275691 26.561540940049
-180.102116786732 34.1400939149702 4.08580981331724
171.513679195542 -5.99371424001873 25.2255786607436
151.989163070217 31.3904092489685 9.20972229947353
-140.790336334854 12.8363982955971 -8.13596316676291
-216.256266118788 -37.6962015958592 6.97550005996185
-199.995537547268 -5.43114053304111 7.01109217951452
-57.4199550006537 -4.27995395076963 4.40036347808568
-94.8068483457643 -8.97885482422413 -6.98006767989834
42.4452407951726 -1.94536138756714 -24.4540891352782
165.889932793559 15.3310895129159 27.1256365806499
-178.488984760849 0.123479158956424 -10.7707837889453
15.146735728896 -8.53482158334598 -3.37094267409836
-102.581139349748 14.2888995942554 -8.79502140763978
128.990310836544 -1.59661566362509 2.67563283349237
171.358430973 32.2866455770073 -6.05621623729959
154.284940057261 10.5653527195741 11.8268077803867
-155.199254553862 -12.011486010526 4.80143491421535
-1.39970793937063 -2.88370590288825 -23.1644154126046
-188.651654281751 25.4352765145372 -10.9432746534573
-39.5672588984623 -10.7746869371241 -7.72967312967075
-186.28316895763 -1.92435465471434 -11.531164880016
-36.4394640708711 2.01032806428404 5.82458693626075
-69.4884244548839 -9.13303256895841 -14.4517418146422
-194.817824827341 -29.3075382554735 -17.9572750330049
-6.37653485139699 5.50873439374073 -3.15902420871298
168.626259898187 35.3677531102835 23.8207717802117
-209.083906530888 -6.34564518146238 -11.1650148018063
-141.582995775849 8.62405759466911 -8.71087122064445
-158.549960762425 -11.1402900800894 22.5725243066916
183.401403406501 -24.1394085677571 36.1570622235357
-180.251759982541 20.4664920301596 -13.0098006218581
-84.9216499557248 1.67569449977901 8.86978483644674
181.422878487847 -26.3395242810215 30.8154292712772
-171.936734206636 -2.19350706586429 13.5805373641838
178.696455349657 -4.19173578480668 30.1350580577901
160.75141414942 15.4131090100274 -27.5450782191796
178.642979293901 -2.59193663564482 -16.226320238289
164.176378175255 -5.96134769441673 28.2076438659364
-165.957568627372 -10.1299331001085 13.0344304699459
48.9801205417934 -9.59138058040497 -22.1381862279803
-173.952002294623 -16.1202649812779 -1.00060726701547
-83.9524621513059 -5.28523181876691 -16.1336399970234
-177.907469160019 12.582157478204 -12.3853247159821
-102.906366648466 5.5870136131947 11.5392403957886
58.2066103170024 -5.06612298037405 0.615030748239421
161.782712956121 -33.8472213271598 18.1692813451888
52.296305754941 -6.41397253876802 -0.0397773054577334
-167.971738251408 19.4084562254924 22.2270649722803
152.084149889408 -7.02512178635747 -19.4345815101797
-204.065516061989 -20.943366142753 -21.2314025002947
5.69757056367426 -13.7009470937034 -14.6271622698856
-25.1432361323188 -6.1797348139099 -22.0540836157804
-33.404142895522 -2.50430079014619 5.79955041715823
183.864649506589 -7.17547124270119 18.7477634755157
-104.400041721206 14.6445555146811 -2.12031829911081
173.656395397855 -31.1360619955658 21.1785914296248
-175.901831340398 32.254908387785 8.39322490477467
-220.395966857034 -11.3718959086433 5.81062003602051
-134.924390186067 4.15210391777527 16.0632619567653
11.7998179603796 5.97224116126771 -19.2498246877215
-204.35861607495 -4.00150362680635 0.430219976459267
146.681496515835 -24.8829635778712 14.8810876291544
-185.675900636889 8.99041690281121 18.4179614428526
196.127122404279 -17.8251239447606 19.8272966902052
-136.422044646818 16.0410559606281 -6.61440945643975
-190.751892299903 -28.5458136697576 11.2595685326867
-102.915047077123 14.1360720062349 -0.128484668721256
-19.5071816057835 8.48581456672381 -9.05144256904734
175.09720468158 5.49340401635898 -24.0854396079885
197.432401310727 -20.1940907328227 14.2388226715138
139.323165585678 -11.3802766050293 -18.0608691001445
-148.390762476641 17.0113191693396 -6.87711690800845
-156.278160732857 -12.654734356318 22.7754190697387
-220.541321017574 -18.8267427532126 -13.0329857792122
124.337842692425 -13.7266874427307 3.83543435693131
-103.882019289293 12.2174504220662 7.78996615910698
-217.776920304217 -24.2931869309401 -16.3765625740564
164.548467873186 32.6300602486861 -6.47835814734446
44.8919426735872 -6.35542356926946 -0.19733009369797
169.266201793431 35.5166038499657 -1.62426794465065
-79.82013087924 4.87683830629932 -17.2473339161107
-101.855505612476 10.9547718931671 9.96180840149401
-127.953803238567 13.093065538558 14.2651873001458
174.333065150724 -30.4911559340938 23.5491369334287
-182.518184805052 18.3313869785609 -12.2495659377203
-196.804350310745 -7.95512071386461 11.3886991452726
-1.42210571417605 8.62421070616322 -13.4403655348742
147.37257264131 24.9511850751908 7.38958256779723
-224.065209291665 -16.8982219503599 -3.40307409951191
147.947355945641 -6.36508398992926 10.9321411809468
121.526807243289 -16.5109274205974 2.27631808711187
-103.672801109836 11.2919359639489 9.96959490214272
-91.1963623645386 13.9303094663898 -6.95508509031386
161.016559280635 -7.22697308031755 27.7227101407409
-166.179231375419 -13.3150808386757 1.78517496706115
117.556049268371 4.0929934420574 1.40624857861007
-165.202075693229 -13.8133721881557 5.26444010191806
173.327955594763 -33.5342639752829 9.95941927347547
-191.381956225361 26.6047704821183 23.2151848208048
-190.857911194097 -23.3565329819934 -15.0432460960194
42.6847504693638 -8.53898556777515 -22.9032292556093
-78.1579167896494 -9.60104990213091 -7.25222956214382
151.132191011278 19.5398980087197 13.0054334023882
-98.7827539674268 -7.06218508174034 -10.9611893546871
-138.596463084668 5.94586751128414 -8.94582516208206
129.671720923413 -8.72368246973638 -20.0507279779278
-173.067339299672 14.3385644980887 25.0043106919733
-86.4894479078108 7.45878363618215 -15.7498974925663
162.300703103617 -15.4039925101761 -17.669090033378
179.661784087253 -7.4471333681364 16.4054579188136
-77.3534047384313 11.2465538556618 -13.5448333215926
151.929942941241 -1.84015445715665 9.08018902640294
-197.998500060042 26.9383477601952 5.07585896379118
-197.155683126242 13.1537840940209 2.03593759133154
173.141317909049 -15.1640375803199 -20.9235456981833
162.612464461966 12.9694611448059 25.2959110151238
110.657969566276 1.73108173664952 -25.091257055206
163.127233641075 -5.08113273560008 24.9268303956881
-153.871004333262 19.7294370182831 -5.77217319283708
-46.5562811077161 6.80883068004675 -18.9268911602749
-181.863569369012 28.963607379205 17.4749222409681
188.519064399078 -26.9192200467792 18.1016753873282
169.667363981579 -7.11048244495096 -21.2398688400361
128.396960315364 13.7616291486533 -17.2394146140624
-86.622752854353 2.7784632217327 9.26970422620784
-44.6816836596689 -4.11136810800352 4.77341757619605
-91.5306559908395 -5.52713587014071 -14.4965121557541
159.127464736901 16.7814693915313 26.6982792125848
158.376736724182 -10.4168491409657 22.6469578117207
177.902893657793 1.06459694682133 -18.628138532844
184.036883483019 -26.8751465697422 25.6787933232196
-115.370351667965 9.0246212013927 13.7595735809722
-205.284099537286 -38.0802539668186 14.1986237064731
-184.704233905263 -0.229130983866638 -11.3504279322616
139.635886869644 -19.986024374817 -9.36779616076074
-202.800331304277 -43.8240380583509 -0.622577560416277
-194.726395586455 -35.946175863971 -14.0771346517836
-166.168860735665 -12.5396336057678 9.3773059311433
-75.5943060653293 8.00712676862386 5.29302580844486
-201.378701597531 19.1555337560685 8.45926546660999
-166.735273936687 8.43041277597019 -9.05918813730613
178.865367698382 -25.0839808165413 37.6800397520615
72.0801624252342 1.68687801713586 -24.5359461842441
149.234302364837 -4.31800377166477 8.35953618838244
43.7747369364884 6.89075587776855 -18.4649430032856
149.167969025091 4.38027357664764 -23.1724571332391
-209.77161620213 -5.06835928909186 -9.02615759649441
155.511937707278 -30.6047678719147 1.14414050973765
158.193458723474 8.20021126695441 -26.2078255398157
178.967604184631 33.4152514117203 0.628082563817354
-106.756832886921 4.89230350801765 -13.6247087493562
180.599527299171 -3.83272165137402 -15.2481205113898
-53.4565900196633 10.0715065789637 -6.73921955512941
180.399137869904 -30.2086581944967 4.30259414672792
1.70258678150408 6.71090828224175 -18.3322819711018
177.411264923622 -6.44469917056906 22.2103256150331
159.310115489782 -27.9094490004839 24.0192868070417
169.424155676294 31.5308904752355 -8.07833904757674
-49.0033864431042 1.60247433659316 6.39007432855977
-172.099619137541 1.5503912714663 22.7408914334242
88.8136713326609 -12.0853678898583 -19.294452120492
-203.002013673957 -10.978766511707 -17.5048177419989
156.359312643165 -29.5255786118591 -2.01959175300604
-168.665323323248 3.65267166034872 -10.0796800234768
-188.294885102852 26.8688455784752 21.9512896490979
-31.3912933355338 2.81148242979144 4.23791039934817
131.054037673793 -20.0180022510396 -6.3240042589853
156.129459124453 34.3729287188032 8.8746282786072
-17.6519762622992 3.05108147584118 -21.0887584323632
160.623715786191 -12.9151793453357 28.3567199582173
154.62054671772 11.595386427921 13.531592437438
-199.623979673941 -4.61341477491701 -13.2035494375403
161.881315195579 -20.8856398610652 31.2970886923113
153.544643590486 15.3561930386477 15.4903059789959
-1.36757826048142 5.91831313016089 -3.89743561962329
-174.602752567376 -6.95787415932204 11.100498348201
139.461659297655 8.86776217521968 5.24854275422106
-181.732245884674 31.7524724845625 11.8881438041766
-67.3146113261375 -8.56226601428512 -16.0080852868378
149.458326411633 16.4809577171907 -22.5254825200802
-112.767296527287 3.82080213514781 12.4066843148458
142.02758229912 4.00260408572808 -23.0822154087919
74.8829483358953 -2.81936046031144 0.369984919875599
148.800651662155 -8.24693089161995 -19.0077143073465
42.8539315421119 7.31800509082767 -4.79675689585064
164.045321404534 -34.5221438709177 12.3516977040921
188.650437275116 29.4463867532763 8.18257887874076
195.248997661155 -13.752899495606 6.57009687019253
61.9274852283725 6.08365232705206 -0.330111818819167
130.426980282488 -12.9010111265078 6.61748015307666
-195.111923552539 6.22977316170162 -5.04644265968273
-189.501465522234 -35.9094005734094 7.15356780970089
109.970036460627 -16.786946920639 -12.5874212101434
-182.468086478455 6.34553649201025 20.2620113832299
129.952726766348 17.1261380344892 2.18728125622181
-170.54127568238 13.9138494329526 24.5085542073646
-42.1971516344589 7.22840412352535 -18.5774017286482
-75.1171297107206 0.0246756698172588 -18.7072573199346
-47.349571968002 9.94208300899591 -8.50375204031485
12.4163631366774 -0.80671362725965 4.79603926271089
184.839349370988 11.1156528152679 -14.1574493777713
188.139959055152 32.4601166341288 7.76721034992698
-95.4133070604186 2.00648279575216 10.1707615616772
-198.500937446293 -8.84421878310278 -15.9595281353797
-169.439295112655 4.85008069119622 24.3030241944979
125.757926362469 1.38201811083986 2.02492904073046
-123.294375008085 15.6781945114999 4.82472178655417
176.876645816396 38.6976923595416 16.2774174494446
155.341937347962 -19.0213909336516 -15.8643849967082
-165.225407621765 27.1617063128194 4.8609031742127
110.839588084178 12.5314235546573 -16.0900480472221
-194.809096531688 28.8144273998985 12.6446525166407
177.599862609009 5.55363833400014 -21.8666461803334
-43.2670528507737 9.05704717667811 -6.75888497470506
-32.3731606438929 1.81621570242838 5.819483481928
140.707734650421 6.951408375915 5.05898315579624
67.6060785005027 9.30911452210548 -4.95187842332243
-146.918156566485 -4.71443566521416 19.7415399665225
-98.499217145755 -6.9068266927561 3.85364883903845
-197.511837812464 11.5079734680696 -2.28078855179049
-191.320420499839 11.3812939709746 -11.5012605469935
182.519144736804 13.0946739996734 15.2393929380153
-118.36060328886 -7.91960898568287 -6.95425752683754
4.62426760189989 -13.1438151713557 -10.5141946378151
154.564475125792 6.94696817964968 -25.0737541048558
151.974977055524 -29.3911729468681 4.76024252000538
164.753331197971 33.4684600471523 25.483305072155
-77.5232297635041 -5.3103413487169 3.59044553022971
10.5474023741896 8.27485057911942 -14.1125533056213
197.525742738965 -15.9559886160108 14.5600756323226
-57.7559125602562 6.03629510403353 3.98067295223783
197.47439526791 -20.3224984254819 11.6767813564842
-176.279754899317 -16.5984404435747 -2.47427611881744
-129.52980235868 0.906199403777002 14.7156024711494
-196.586450252887 11.233676425297 -0.0754779408300725
159.203883462171 -8.63906166056048 -18.8677665776618
142.254135767456 -1.00884803428054 -21.2103150509873
42.2785937451641 1.33818698792197 3.23120777961822
-193.278621149482 -30.5985270894052 -15.9287456611037
132.256281141467 -12.6747721216506 -17.1610276211267
179.767733035877 13.1878781094632 20.144289651505
-14.0030791503856 -12.826399348959 -15.5132999208296
-177.175346103345 7.33406057035766 24.9784934326239
166.08650343657 18.9469178307293 29.2322588917472
-73.4227667148764 5.297461377909 8.4009313201138
-63.8463492034625 10.1011035374288 -14.661195424766
190.146238265897 -20.9235747361044 -7.68976407221999
146.008305875754 -16.895232902967 14.4750288290075
19.5977175504691 -4.50387042301905 2.73435502633628
35.7299561870656 -4.89977459479419 1.70282049720035
173.077816615538 1.011257661933 -22.8246785142767
124.750479236112 -10.2654077070567 -19.3121602864631
-214.275428303267 -25.866293784946 -18.4799607478999
-193.580279105786 25.8412125446715 -6.0122592116188
14.4936437868541 -12.4324896012576 -8.20365423461255
147.84120810342 -20.9653906996774 15.3746684427055
104.16446473329 13.1804176473587 -10.166370904884
-211.970124140569 -26.7843965554448 18.4378923779613
133.458986686556 -19.6104246470089 -8.19316152278408
147.540093302028 22.5590411886493 9.50685892608258
150.336542654344 24.6056187756907 11.5146022748591
178.051730317967 34.1503920717031 24.9221826017348
-195.751643420563 -12.4701390466736 13.3446336419494
87.2243195848138 5.9067323279243 1.77028801653355
153.273148034009 -26.5117062530916 19.8486061613922
44.0893903042606 6.29884416577023 -2.58603551233982
112.30750103991 -1.19480360268042 -24.9813754483568
-189.050817707029 -36.1880978681175 -3.67195249646193
-129.324323055316 9.19203102081354 16.8505008075195
184.272517095467 12.4666227984916 -16.6482175870583
168.604108976554 -7.5634454162977 22.6329961743949
-209.816197172382 -14.833738829492 -18.541016553662
166.968025194396 23.7243473402608 -20.2745144783049
67.7745379662279 9.03374580631003 -15.6052170443867
70.2399261851871 -8.49227218241677 -0.833323140966832
-169.135950390993 29.8652016915944 -0.645293784350979
154.733502307862 29.396418418133 18.3177323304663
-173.017276375372 29.6384310728647 14.5497489112762
125.235199984942 4.74974934570727 2.0983902729994
-200.818258421528 21.3974868990483 5.03462898439573
-69.4080387532681 10.1042726206258 -1.44073136469874
152.378015487258 -23.0617638122952 -11.4666489466945
186.596792533295 -28.4998274122678 8.25699912961044
143.51973024153 -7.42764542473988 7.62307855214614
-191.131723714023 14.5235299922895 15.7743396877433
149.537920714833 21.0018126734156 -15.3419098888397
70.115265741884 9.08015555312921 -3.74246460028349
-214.072831943738 -31.8565020061406 15.9683962435649
20.5194713279903 7.71719127296083 -16.0811385691719
-211.018123145651 -17.2508230845315 -19.3077575815233
174.250551378133 -4.02813871091957 -19.8990240392646
-30.216332343024 -12.2914638147236 -13.6686382315254
-55.8690501335874 10.8735388877927 -12.0871622073778
88.6720175515862 11.494413059273 -11.9138514306319
-195.829338785914 26.8210323401938 17.0164185188266
-223.38644341585 -31.0374680989957 -2.67640223991067
55.2857196655897 0.99169556014289 2.53407931940778
30.8464881973833 -9.56973038279551 -4.36110551836834
130.24042224769 13.564987754462 -18.1964870237454
180.856338460936 -24.2972813294684 37.4332178121651
1.01933419204089 -7.1022471967272 -1.36400205609232
154.009295266109 33.354786685373 1.72692005507889
-178.170446444693 11.6820144060432 25.3081179475347
84.1067546330104 -15.226619515652 -6.08432457893934
70.8031084569712 -4.48394120639832 -24.9275386696028
-101.912999385253 -2.35871312313412 9.25318448672614
153.730855783852 25.509727508388 -11.5462261904107
-166.884324939028 3.50791643359651 -9.72667598875864
-200.714818073706 19.8112402493036 20.3770999983983
-138.96544300317 13.8893300090798 -7.96488417345955
178.484035085746 -10.7897661028656 -18.8376573045227
161.156561042617 0.703118546929097 -23.9211914505746
150.579094249751 -14.6831890008424 -17.4302203548856
192.142176790307 -11.5971043862359 26.1141146713904
-83.397211362994 6.91500403995441 -16.2658912192346
166.035834794675 35.9343235672771 12.9463964983611
-183.017614664797 -20.3273890238276 2.65374927256973
154.109823381787 14.4150778574823 16.8972425618409
-2.91236618954947 4.51997228312678 -1.34819429125996
-94.6245682751681 14.1958558624064 -5.34617728089866
-168.743819434033 -12.5861897253122 -3.91673882696694
-103.658354187121 -6.41708966356859 -10.8605683093767
155.790212787801 36.8523648039123 3.7567982009334
187.258648961661 24.8394352190744 13.1531914805087
136.595308499961 -22.2741155348556 2.40556445585754
-200.573382758934 22.3408530225783 -1.20734215383028
-200.655083267511 18.8468981107955 11.30380287602
-187.814367933075 11.2478826266701 18.099334236348
180.852320380614 -7.33792240472133 20.1844583058243
-165.461531530807 20.1429274078628 -8.1016461145944
-81.1676314972152 2.57080095871806 -17.6635467250055
156.351827987171 30.4469557667483 20.9995030977333
-183.909158287493 31.5073956890662 5.28198535969677
-221.265607935418 -23.960684193566 -12.6122616292436
151.930134803699 -9.12962102395021 12.7775172062715
-208.91327149912 -16.8253841836363 -19.6896364354412
183.764172845333 7.8406495076926 -14.0016962008964
-210.680954684054 -39.6015042026965 -10.1762567821933
64.709752190043 9.10962629233971 -14.6967196840554
-57.9415338354234 2.02024244589193 -20.318622774667
145.081891654734 -25.6394444283041 1.71229209205823
149.655530146234 -7.76743968958079 11.1083044680244
170.717889746759 9.50380633900786 -28.9707981925532
171.314131847663 1.47676301092325 -24.1068407053621
-64.0634123666372 5.23901527294169 6.96065216441963
177.519238749283 -17.5179891297058 -16.9283767778403
174.24960162059 22.0396783229665 -22.6216935597104
165.627470288325 11.8881606574394 22.3292695033873
116.037864575094 -15.7670331199577 -14.4706141743686
-183.884131178022 27.0144630146464 -8.88084438259756
194.146778261702 -11.4115206357178 19.3977720627639
137.284495070156 -18.1185791247007 -11.6317713472788
-150.938110495697 17.3320935615808 17.4840750319658
168.736073095836 -15.9334525382797 -17.4914346720289
139.261979176169 -9.27031134763078 6.75284864902367
155.041246773328 0.245355774873272 -22.2093627354029
-94.4837935070062 4.27044322844819 10.4867504252948
-185.980609242226 29.3698446932776 -6.32958755137093
-91.8429276862483 0.118758236151875 9.18741674572465
154.779710829905 -2.42437647785821 9.9341817885649
-20.6319624960658 8.92611573120726 -15.1484563083524
-145.863352935244 1.54868561030195 -7.50460904738972
-165.239530520112 25.2417021678646 17.2397244108577
-187.724475566111 29.630323737112 -4.75394942606349
-146.40942117938 -9.89861497402103 1.74503760476545
-3.83661696639285 5.93451406083579 -3.92293394032653
-103.363265266355 9.86666545420234 11.5250588203252
-3.93047549983962 -9.21630284027894 -4.25535944661664
-30.6029912626809 -11.378102493848 -17.4983141349994
-200.654884993571 -43.2447044970387 -4.82571602832684
158.916797276261 13.5451122323618 -27.7764521055055
163.812043889674 15.1190411745461 -30.8700617549909
-100.344829328413 7.36914555111756 11.8799175352431
-140.761425606912 -9.03657642417503 -6.94742633450531
-196.103334545069 1.39314599062391 1.73270711684619
-127.268570799527 15.2730735123144 8.59185316008693
-173.075663268997 -1.23896483805346 -9.85392386431057
163.177750787039 33.2593242711333 20.2478572257544
151.120305917283 23.2616274113374 12.8772842582384
159.449257968076 23.5142562606531 -18.363672430159
86.6170054271879 11.1331625027607 -13.00948846663
40.4096503151934 -12.3345091828088 -19.2142728561231
-188.647617152497 -29.1598271989703 -9.82222045233559
-159.12331929453 0.65326087116477 22.1421259184222
-137.840529085591 13.9197526187839 14.7155132891921
-165.540356442252 26.626513323067 -2.9073006208518
-166.349909687811 -5.82222456239496 18.6793435109926
-171.480929868031 29.4497625749886 13.5997803158026
-155.429251170932 -11.5878483665168 3.62408902067457
60.200768643797 9.07738793210729 -13.7558680460954
170.075428870389 7.85464131894626 16.7042176656504
-60.5653693611803 -4.11451321215794 -20.158163653474
-216.90268183521 -33.2822308103614 -13.6300990483482
-94.4044334553505 -3.09330395559312 8.03300641274103
186.939108541046 -27.5728360875546 3.60737270531101
129.339529031251 -9.96865670376872 5.31431633713702
-172.781729597225 -5.8819160849068 12.3269480828629
39.6940959736336 -9.16032002135443 -22.4860301486276
118.725407870248 11.982805194333 -18.8379647057151
47.6123237925745 7.63881783266225 -17.22634538109
-86.9177187032857 12.9060138769246 -3.10537172902814
169.16118945778 -31.8183982683993 -0.48545998217785
172.060512529559 -3.16809886054035 11.7118084884585
161.808161624279 -33.5645395578146 20.5031233737892
-5.73295587019129 -5.06067817764094 3.63571781707839
-92.9983922358009 -4.16558806741481 6.53299148500894
-191.040329134665 6.94518561328417 -10.1790486065643
-203.71403249564 -3.07371503564317 -0.936433477097872
54.5482688279587 -13.5320640417511 -17.4290401680336
-209.733603091584 -3.7260056043532 -2.51226802887089
-210.733915255602 -40.1406626563167 5.73461357582595
-186.58956853709 7.18365460502136 7.66468888303505
151.500341783471 -10.5623656316515 13.9947459393513
-219.575396560842 -22.0763412078253 13.5936601432361
154.171944467836 27.3930454290458 21.9699971961948
135.129124554819 15.5190442188163 -15.8393523569622
45.3537056390977 -10.9585281244851 -20.9234428961558
11.6081058525209 -13.9805152834001 -14.3893289213939
-125.964802907511 -2.23341592893702 12.8195125750326
172.335767701009 3.36647833933181 6.55590158261901
-212.797406646204 -25.3291560525303 -19.4053508222695
47.0805508838375 -9.74326237097146 -4.3527811669799
65.3825288533161 -2.42100948395908 0.804136570918333
-217.24283193825 -6.2468964409711 -2.12146048946363
-160.18762155828 -17.938877566927 13.270782730565
-92.9160690586897 10.9668713541373 -13.630400155041
-193.194709158712 23.6084879558764 -9.45401018248686
-170.403202963744 22.5644235411329 -10.0680972411707
-220.575074451705 -9.88007720895837 -1.44049487960133
-194.704301127263 13.9574602844025 5.37528289533633
155.556034437433 -9.46865290214963 13.6238138100371
-202.243809373634 16.8390717851851 17.5973981334465
-174.182974281247 -10.7312130697089 -7.25984284262622
139.714507246956 -16.4906795849106 -13.8931697155709
-204.425650374926 -28.4184325722706 -20.6254826688172
-195.85038940544 25.5600065772826 -5.00991169860081
164.171836548408 36.9280734987223 9.7438157301469
54.7024713298705 9.06961322354604 -11.5729031671453
144.217885109973 -5.07689877397934 -20.5447040444086
-16.1498682972896 8.42158490856665 -16.3035962388106
184.948709167467 9.14607554019261 -11.7754754817824
161.28325416359 32.3523616694692 -5.92718775698692
-171.590592790711 -12.784348116613 7.27462252772045
-20.0379662739627 -7.22992424844723 -21.8901643363004
189.244458938345 -26.1853355029226 21.445012296505
128.83465961357 -19.0485106801623 3.4500196868175
-156.512801083845 22.9377498643732 -0.113274867210914
-183.924819465352 33.5896822952628 -0.840790745798709
-184.552410971982 28.6063825913063 -7.53212079506598
24.5993758565991 -4.70502240818265 -23.8840955886334
170.770217979713 13.356571381582 -30.3670228505271
-75.8679302391577 9.77102947484519 1.19126187747997
181.654945076153 -15.9353047197138 -18.2668500008866
-212.00149512585 -32.8365411827177 -17.1535586689235
169.116996359355 -32.4722974660303 21.9419784437717
169.642985092703 -32.9825198399605 3.29131411007965
141.151799505541 11.986232833306 -22.7753384743619
140.045785187405 -10.7477373382254 10.7246045162672
137.046147682945 -20.2795857831802 -7.86287762579825
72.8377092029347 -9.74643787370305 -2.57037324114213
100.523120268769 -8.26782034990333 -22.3664997911107
44.8035841715745 -0.314954074430247 -24.2201537894726
183.537965481489 16.3619338574901 16.0556155146644
63.6481348353405 -7.25956455749328 -23.7910493869957
-196.666270965543 -13.6130431887138 15.1697913132398
46.4584012823731 2.53819381967118 -23.1000441828171
186.313487317525 14.9119017026211 0.329623850857183
167.513322046808 -28.4133395804388 29.4250421369048
110.1340333879 13.893157575754 -5.25839821245159
-178.18793193658 -13.2341998856767 -7.03366442974314
-180.604290591904 33.0252200572229 -3.31608581538177
-191.170153422205 -26.9957109080649 12.8327619900962
143.223541584903 14.0504825909711 -21.6406610281939
149.648906050272 -1.7865698023732 -20.9262543813778
-159.776645418958 21.4437175905968 17.1624215286509
-224.628459840991 -27.4614000312442 0.394495373581417
-103.099797359022 14.7477962391754 -6.97705204453534
-186.859036937618 -13.9394833365472 -10.78847116043
150.437737903279 -3.14780552440634 9.02148859606616
140.847476268737 -22.4783057680449 -4.40342268873595
-8.54331265970405 -7.97742196080533 -2.47251645911996
185.537649451848 22.1769877394324 -11.8549507659093
-224.563602410714 -21.0846116891055 -4.66819951976345
-93.0789644406032 12.6904254661262 -11.7036709495984
-199.652290166166 -1.40249659720411 -5.72857081602838
183.878940650406 -27.0026869422283 -1.07341045314098
52.393253678524 -1.67412601522712 -24.7157816713401
-44.3089786070654 -6.02679965846011 -21.0249477434655
-168.465049591113 29.3384431491706 7.57629885041404
33.3842794644409 -2.88056629940591 3.04208615785318
70.6634780482524 2.10765307925117 1.80449405193873
-163.833586552696 12.2331930040343 -7.85587829632254
-111.607231450145 2.20309107927873 -13.0264019398394
-213.387380907122 -39.9160546291603 1.63562802737868
155.525012340082 -12.6563816280078 -18.1619168394238
177.035922779403 17.5218377709401 -27.0324576176695
158.541203047369 -22.8367599069497 -13.6966905917939
186.065299805754 19.6604150783504 13.5709081672211
168.587168838512 -20.4863682711028 38.2772362066157
146.737232106628 -5.83771143522708 10.2576242425444
-91.0424275926358 11.4799218363046 3.63890170543374
149.225420299587 -27.6734740540454 3.07502249526013
-72.7409168561045 6.95498649564085 6.5132323445072
3.07626221726927 -12.5225961208462 -17.7953928588798
166.322730451944 -32.3829084253408 0.160919369934873
143.60167020282 8.5138002105761 -23.7581856928261
-187.313989524376 23.7883259652412 23.8856306691378
-151.317742067663 -10.1436702585461 1.04161575831942
114.702722294023 -10.0853096636284 1.55299903666054
-62.9026462587448 -5.70402813938345 -19.4016623056525
-8.7727327598876 7.30457270268271 -17.6955963131263
156.376072831455 -10.713178911877 16.2863076327239
27.8541095158194 -14.1453033695017 -15.7710247164675
178.357914154117 13.6224954889734 22.3616530980757
-133.042578068258 -6.94503106189075 -7.07918764034456
-84.9543442222624 -2.75674031802102 7.01224940185437
-189.917829289954 -14.8966954434116 10.8678628441516
166.940500514055 -5.7006035544553 25.9544594449234
-177.016317213248 19.772447363276 -11.4807044852965
-83.953468180015 3.50723490038043 9.34699164046468
-37.8492848541023 -5.78812413786601 1.8241281959259
-141.704022350022 -8.46550855248112 15.0248798529482
151.466208454008 -25.1115345147729 -7.79572473952387
-9.41288893309196 0.468383937205726 5.27452647825265
-221.396826074483 -22.2506028562328 -12.4904309548343
159.250644869928 5.08982265858979 -25.568479743333
188.584464073747 25.5198353267104 6.07752492336638
-86.3114962215996 3.35297518114287 -16.8150595740538
106.023411335981 4.71903926068304 1.09600316916802
180.597449039204 -13.7054053541231 -19.8937886118754
-87.5256176544271 13.4449443216394 -5.4308373586636
-145.451698509076 -11.4267367991587 -4.52282193850791
155.562582979436 12.1347475951652 15.2132616163053
114.90615132922 -18.1732316870952 -9.025773448361
80.3172515738508 -12.8151712643616 -18.6446137746969
153.162244289809 11.1880132744869 11.9407314367253
109.532647261859 -17.7766404990754 -9.89536540322606
-208.762691838903 -40.180398267575 -2.67055345657172
152.702608678907 16.8087678712147 14.9172542374139
144.19001331687 -12.7544774581242 -17.533936326539
-216.017429251054 -5.78940351137221 -4.76861492737094
169.824756408694 -23.0876835223285 -12.9052972605145
188.490686979236 23.2955152559925 4.02697663776403
-87.8992455238095 -3.13867287179758 6.94536921107452
149.6278720518 6.50916918678187 7.93176566954713
-220.543905150983 -10.0548971087988 1.96562991983431
-191.901729733799 -29.3687523572942 -14.4732203804966
161.090612844849 2.18239725307662 -24.8057170229349
7.89781061570478 6.35962629043702 -5.07594561186458
168.603464280982 18.179875120613 28.9248291144644
-193.285283625647 17.6049969041686 -12.8722561907436
189.305905432197 -6.25244512751375 9.88953986855091
172.118910144687 -31.7709376618013 20.0594433250317
185.149026281883 -5.93149025715713 -11.7396619463547
-156.997579990549 5.4129109352218 21.2726505481807
-137.635317597901 -3.36004756804733 -8.07805825672922
146.053576744194 -15.4625609633502 -15.8461518305409
-218.980046157898 -23.2455149431454 -15.3714719109313
141.346281909438 -23.5288203803205 5.85059600341433
180.629675308219 -3.98257717352286 25.2838026466686
-188.326062087955 -6.25842159295893 -12.2320532277593
-188.706741132033 -28.5149319917671 4.60373039094617
163.83828610473 11.0303646489888 22.0708247557671
-180.36949851503 17.8876911139589 -11.4455618201717
122.857181866684 -9.96631840295788 3.16278516196694
-37.1232435368252 7.52589502070643 -18.1944409536123
-65.3021259394446 -10.2452431665635 -12.1077623823038
151.462601543872 -28.9807920704426 6.46001854034085
177.458971279339 1.89659680054622 5.4034479235298
-51.9857439396822 0.724565878437837 -20.8705960968373
-189.184693446364 8.17250144319333 6.1398914606595
166.480471684371 36.5434870220981 10.5239534528768
177.445671646853 15.1990068054439 24.3969373392605
119.808232926609 -11.8318948259646 -18.3119941505072
136.941579271605 -13.1529941285702 -16.7343773199666
136.245561095719 -6.42786177504672 6.15887398383011
-169.538866878946 -0.667240081276364 21.7740113517057
174.270595598145 -34.1931301131272 11.6322375742132
-209.672860327686 -39.6740458285569 3.26132692820729
-92.5660385389152 6.65949490023804 -15.2453055390277
-190.557030467549 30.4596580916127 -1.5172429621503
177.348480019756 -25.9475839503553 33.61559533491
-213.350314082745 -5.83022015977843 6.57344533632553
-20.1771306846359 5.73596789778005 -3.00047658403262
-216.3643631661 -24.9324106743975 16.3797894345674
175.619395792041 -32.2930725475334 16.2323392672025
145.227473537374 -15.8116472865034 13.2367172333561
-186.478956612578 -13.6207118531595 9.78184957452847
-146.380856054792 -2.23612839413427 18.8991410552635
171.145045371215 35.4226539706806 25.8032786591565
43.5603823997083 -14.4036105977222 -9.22877909820352
175.747095670352 3.58047486764226 -22.3148477718823
158.102317620553 -32.9812515820622 10.3477734290942
-82.6125694634167 6.34860684039277 9.13272477424056
183.151070496951 12.6666184964419 -19.0878605564216
9.88219095034314 -2.58597037027442 4.4823972151987
-133.542015633644 7.8424744757733 -9.6014570740714
186.688898151692 21.8388839431774 -4.76735389899217
165.876224537228 30.7344938922045 -9.40701349403468
-68.6838659271056 3.61851247009319 7.87608062888171
92.6403852670422 9.98959314619966 -0.867817246869389
134.732714585656 0.261705139584237 3.29880914550977
-96.5794854697504 -7.8102487966172 1.77917901111179
10.6723775795616 8.08702071362316 -10.4080753438153
131.723638244477 14.9028197267133 3.99147170080434
60.8115869728926 0.466854005820524 -24.6013292669595
78.4976991601019 3.2951445754336 -23.976572951656
175.502031486338 -3.36254121315066 29.2027207170266
-197.525054411021 -20.8743634170417 -20.1954794729791
-32.6766506649842 9.29036911398057 -15.0562533829901
150.503413715808 -27.4349111310018 -0.753082842182477
100.48864663972 1.82037637005347 0.758016466957094
-142.852620658835 2.80669075022393 17.3188466358385
142.12315597574 19.8905813954747 -9.43458212421178
186.018800028859 -11.4951626155385 -15.0326355146783
-146.591801648655 17.36449054988 -6.44364838851824
33.8595735760238 7.59558874347184 -16.5672772296401
-156.545681153267 10.3710372722087 20.9197517263385
172.400658145901 -21.4728094459229 39.8935595744067
134.560494078867 6.11207259617099 3.59794445339017
181.533799200433 17.7593740241065 -22.1448543853937
158.167981310463 -10.9076653574814 20.0178862402087
-2.88813181405751 8.39538211430603 -10.7744008110727
133.278703636397 11.4964022636793 -21.6243134710398
-189.153649980036 -8.61942592897901 -12.5247905181113
-9.61104212665257 8.44372301292616 -15.724142090315
-179.214526880891 32.1628575704603 -3.60050357820037
136.595200825564 -15.0833724311697 -15.0369742568309
192.720143665851 -14.5479173823623 27.3726249754394
154.607538935487 -6.0315397638466 10.5419118316434
-125.454771729017 2.42571845723203 14.1121539432976
125.764981693829 -19.1297495247112 -7.82935134124683
-178.258103175182 -11.6916304155548 -7.89249485392197
99.3331348928805 -17.3897240733446 -8.15927685280331
92.1307573653171 -14.193136825025 -16.5695322270638
-162.813872401277 -13.6239772214738 12.6847730810103
-74.7380654495587 -4.64597227488845 -18.0712156915447
122.762176189962 -15.4566071284959 -14.7638180776304
194.529829190116 -13.7959962020457 3.26921251392046
175.266109519561 -12.7357158798576 -20.3633350088116
-85.5996479733353 -8.5205278807115 -1.74885237391408
132.509532053411 -4.32987260491389 3.99906335074338
155.684380029538 26.9675782195083 24.0154839987664
-166.037388900509 5.79849814311662 -9.3311002320908
170.423590771865 -5.30143897267168 15.2302032403004
-147.842741605769 3.13245139205508 -7.29686304505325
188.915908782151 -4.82704673223389 13.7604495520114
-141.362353481396 17.903256053864 7.87515309279951
-181.784583171867 30.1822635112777 -6.8981951423975
180.84513582286 -27.1413687214467 -2.93755921402741
168.189648282924 -33.8437573310301 5.96939161771375
156.867863308357 28.3200368057077 -9.22567557930075
124.127938936407 17.3062183166493 -0.482573848882072
73.6445673575714 0.177205383290843 -25.0636530845625
-188.900177419807 30.3287695180881 1.78233348117152
150.580005724366 17.521895264245 12.1482340548358
-197.784736477517 15.5783698127374 12.5563311809495
154.881978694865 -30.8493069929638 19.9642884666262
-192.594730666583 -31.7574129245105 -14.0244196047473
169.384427858107 -34.9545701379305 13.0443652311713
-183.741045523073 30.9090831951344 3.47782300943353
-173.632597319195 11.4349322222528 -10.7264503789478
-113.155695499076 -3.82536237212309 9.85031189447206
-198.614824975513 14.7573741130749 0.0625557584719957
-68.335645165567 8.73909205505949 0.696567744497709
129.707688422434 13.6307667700071 3.67999366502719
-44.7990154917683 7.82567848943796 -3.54948406735206
-188.885315159451 10.4871219000576 21.6721038141363
162.471259824578 24.2210115112159 -18.8163130413105
175.940327932605 -25.6244239432098 36.3523640412169
182.247343585837 -4.37946906915423 27.1441815326143
-187.933089862397 31.4799593100796 0.471715179606329
-203.296791273948 -9.51133110560847 11.834828416363
-173.102739901031 31.4420384440183 9.26086976241183
-213.266590465752 -40.335130128465 -5.3923396008351
194.912666398499 -26.004652475201 12.0560902111156
144.342564860764 -11.26176090562 -18.1715159784624
145.268639982289 -25.3370606153654 5.14978203229973
120.075828988444 -18.6246243302786 -2.50366879463317
-175.703047353317 5.54925586292698 24.5210188934203
157.395057174763 2.67643587266544 11.2219033291853
-154.062434273917 17.5310157829371 18.5076834882073
108.071871191587 13.7021125564924 -7.89763966408771
-110.338585098883 11.4610126018001 11.1991246031613
93.4932158740822 11.8859994970288 -5.9214597569018
122.189774481253 -13.3951692412037 3.15428449216592
88.5314205063628 -4.14938031509186 -24.9758759549365
140.047621650092 -6.95214432163389 -20.2421442451797
193.530514455338 -16.9580390650035 27.0286102278612
100.365120564678 5.99850310749831 -23.3288716605387
183.185840726414 37.2755043303594 6.76245358891174
146.32760607048 18.8104873543739 9.48140517774561
-185.149902639195 24.7462185377115 -10.9453199859653
-75.2319349820924 4.48118561165024 -17.8685505986561
-176.343169273161 30.2673783370436 12.6348919711109
152.051859482568 30.0104188825279 10.3383365718078
-146.8170804888 -6.8332308709234 19.9641781688141
-169.075944219153 12.4485762738328 24.4438284624051
153.936112927737 -15.5386291283805 17.0760451908135
134.236699579867 -21.5588570680858 -0.929863231444068
186.602896837617 -23.3118811582966 -5.82130501224553
160.809214034611 32.9298249846337 20.759300689824
185.979661918774 -2.42142192269881 4.30786214651682
-44.3501776488642 7.07981463111082 -18.7416254572615
129.965007030608 -15.7365563343306 -14.1969667492229
176.801633827115 -7.22089557375765 17.2989207711289
-91.7248927897197 -6.20199465625247 3.92746937225053
123.351507987555 -7.72136611278124 -21.301796318865
154.376738812677 34.4385692128555 7.89527917002273
45.6950534959257 -8.11323528928879 -2.96321148991159
166.644968600897 -3.80090789730334 15.9059116996621
-160.848182903701 -7.88205508547189 -8.68983970675618
-176.310304831359 5.51613423324473 -13.4893429278878
93.3197515782767 4.65651803471547 -23.7746214962645
141.652686143741 -10.7585261448823 11.3278062758037
161.719586000688 -25.3687482207955 26.6295385955961
-50.7735270148682 -9.01886539007331 -4.11051836650323
84.4254297764109 10.2357844219577 -3.29794304064042
-184.458362918967 32.8338965705748 2.78250262816626
65.2875056789652 2.71968384777046 2.4059689180699
172.545028174986 27.0587040373179 -14.4318075010823
177.22812520384 25.2121364074089 -16.709644799479
51.2621234324786 5.6228470596585 -20.6455744120325
105.767554720813 -13.3255366522129 -0.0079751024773805
87.0768021476899 10.8457715070402 -4.20552305613277
-210.504660719653 -4.8182894768027 2.97109724300305
-0.419850985998346 2.2212861182772 3.95020277375156
159.605959971977 -10.0267675046667 21.7335096904521
147.743491748299 4.17284071559691 6.82981681981576
160.659306610514 8.86480868124008 17.670419238096
-24.2264764864749 -5.81910079312376 2.08594970203403
168.454293918467 19.6751754176024 -25.7012310778818
187.085009364238 -26.7917125353906 21.9658242043418
-154.258972739754 -10.7219997338719 -4.26778755567498
-162.155122798994 12.6392929403984 -7.87139856123486
-148.300815937143 -12.5306456869647 9.20656680366966
-189.851996763442 -25.3563503697855 -14.1463816630595
-179.838875517296 3.55317109724471 16.7006266702901
-2.66225606394052 -8.30064357361273 -21.8542840009607
-156.996646477403 22.8044084761354 -2.21315520218792
-85.5451284597029 -6.13358625825249 3.26423067043143
-76.3639393651441 3.58684046280872 8.66195138331937
42.7857789129555 -7.97022036217886 -2.84340996712878
-158.0681499558 -12.0033633439691 2.70045440172027
-188.128809572137 -21.9001388472892 -10.8375584508489
-50.618923038833 -1.73607959209619 -21.1334174078543
112.300093646937 -14.8495906575305 -15.5892458185404
59.9604413078731 4.71510443358689 1.0408852721789
144.553809822484 14.0015177014451 8.27439973114221
175.55141555107 23.2290294586609 -20.5821706645556
-199.697518131136 -43.3878014436122 -2.58243739205121
-193.919027267487 3.01771699180376 3.78869328317498
129.479416773234 15.3202275397409 -13.7993127694141
173.168809541653 31.6430338391644 -6.51482225490694
-5.81709572815316 7.73566531315544 -8.10482614405712
8.32181723318788 -12.6885346308859 -8.97749320927565
178.892618521986 -31.5950812304327 8.88902219981811
-164.979136368083 3.93448372185682 -9.21775045028281
-67.9011199479931 5.49301032785456 7.49972478787582
175.334118016754 -5.72151741936437 12.1759820104165
-102.646765710328 -4.11137695077337 -13.2688544233123
-173.464109230723 29.7198164981628 -6.90241847291481
95.3287950206287 -16.4810802650617 -12.5599753786699
-190.870840116321 -19.0486155572325 12.3342015306838
113.541890865495 7.27159942191531 1.51867888523763
-189.574995992047 30.1342506436409 17.2308853365535
-62.8446998899384 1.68438444822189 7.20625133924663
-212.429767042895 -4.90150501954923 3.86976696390991
131.299529795471 -8.91460431125487 5.46966344181959
-95.8912402607884 -4.45645592104074 -14.4349938623924
-108.087909225213 -5.57421269621841 -10.8417652895321
173.907124517681 32.6586576654436 -4.40300125512317
-196.991544409619 14.1265154300611 -9.01248027195737
59.8712419783409 0.0166164325801097 1.89694634900098
-200.851180536253 21.52082986292 -2.87023667193308
147.153692543674 -26.8721609373587 2.57134112775191
19.6204087462682 2.08826824555344 -22.3025506245346
-82.7038627892362 -9.45414764543085 -7.32172260584079
-80.2711933317639 0.306751026600236 -18.0307282867459
-144.533004765629 11.4642863506341 17.5550121190849
-186.513729297711 -23.1402431565662 3.25921521875739
148.369347270472 5.12826727108154 7.24414074252219
-197.708234105187 14.8386403887178 1.53402320726803
95.3528336999389 -15.0037748336032 -15.3611194572513
-198.734903081032 14.6096313188267 24.2818674765048
159.001084325619 -16.4977998124979 24.0111875533151
67.553447457961 -9.33280134113772 -22.4031431786673
156.784030932578 32.2148144072881 17.8358462330157
-165.11931118865 -11.5710859383241 -4.09471418420688
-214.285088897675 -20.8313423896288 -18.7001447167379
-196.008992267975 11.5636767846165 1.9436703994424
57.8600132893922 2.49961271867707 2.60357401932306
187.403589319311 -26.0735180146083 25.3661564735016
-8.24445956344545 -5.77111245492625 -22.7656879225114
-132.513977243687 3.6913183246315 15.5892627781227
-149.888532829034 -10.6695014498418 -6.50084329065873
147.69587405943 -1.11050608634634 -21.1008177618654
-197.207979985282 -28.6623021035085 -19.3272088701229
175.876942607224 34.8691597282309 14.625253974097
-161.994272315281 5.93122723314498 22.9131954310415
181.86233625065 17.4289303829699 20.8498057547824
-153.783621061181 -11.1298829742762 2.57767843653068
-59.741282584868 -0.312463944205056 -20.4274327704252
103.923360453556 3.35822884528205 -24.7034186795264
175.710861238621 16.5674116595101 -28.2135300706312
-196.296976102475 3.04709188150824 -3.28456015633289
-170.907833582717 31.9158150781777 6.17307309154558
-178.194835832416 14.6469736952 -11.5235698281871
-17.2207673209199 -2.05313002407888 -22.6017024705535
-128.10792139886 16.5243647652495 3.88914464679577
-210.333572454855 -9.75916476777931 -14.3489389990522
-138.842566215091 -10.0399208709788 -5.26983402350411
160.464098855798 15.483947141618 26.7129407153389
-41.5313611644989 -9.2126442577987 -19.308457171077
-122.180174599795 16.1779180906351 1.58512764877718
184.511512057216 23.8217825970432 20.463128599153
-158.49993862354 23.7195173537393 5.08003031535023
36.3756987815052 -10.685383715485 -5.30256017965654
-198.674166176839 26.8227555046033 13.4288282688463
-190.534046293484 -25.5478030154287 9.24229358881752
-158.565608416765 7.20218561423316 -7.52061787494041
-199.08451983176 14.2311836692972 -3.12258412570106
119.932741574599 14.2703112734794 2.03250323421477
-74.0492942747387 -7.29538823571251 -16.2688712822186
-159.848639613962 -6.24886767554939 -9.36518460302931
-67.1261664154592 -3.06095237465869 -19.6915996442057
-219.977691160097 -35.2497207266472 -6.39967406626042
111.609976235307 -14.7882685573864 0.00495855638739401
145.474202744013 25.1766882377639 0.575995515582328
-179.47553471402 -4.66325472956211 -9.36109399198572
-53.1588496556565 0.0406471487649283 6.27527451671844
