168.160304742358 -8.43569203947358 24.1298513336375
176.183865255257 -26.3298413006817 -3.79500481547927
212.318947997142 -18.0679603560275 16.8785120450208
-192.783003343507 3.31293202215594 14.5457240811873
-215.873619420694 7.22317377592913 13.4744982643919
-181.257304501785 23.570735104106 -3.59590613747107
-193.995122108162 -22.177893119328 -22.5503241228508
186.197620457863 -25.9031692611119 15.7712797339302
187.486372068737 -2.25999021168558 -16.3749504294326
176.040790187201 14.0802775296138 20.390538420361
-200.556144205107 7.91780088186856 -11.8203279625615
-79.6837789252937 -8.85191612020181 -11.2961367707406
93.9983180416819 1.48516596969649 24.5095194455345
69.4379125145388 10.8093903183933 7.57339519666688
178.544600169045 18.7994453273591 18.7141440734915
177.491042615568 13.1049274431354 21.3121137513966
-191.867524089554 39.9366009599808 -2.45207390911733
203.463437992365 30.8176701707002 -35.5342028320931
132.9388209589 3.28635285753266 24.5404402308195
14.0497899318649 4.67587839022444 -2.3157496323907
145.284752651896 -6.43530152643295 24.7482051694741
111.693125980478 14.8463019001812 5.00762891527852
-178.190795532359 1.67512412498689 -16.95909914749
-77.6319039636541 -15.121301995929 6.19176190216781
166.19393404461 -18.4887468644665 -11.9779020897835
99.8242216111112 -13.4426319940239 -3.09751718540023
-8.42139195827033 -0.533039688710582 -9.50191459295475
87.1477957895885 -15.1833155980079 16.0756820822618
-35.2120653782919 -14.8070852318619 9.52601271028926
-28.657686345826 -1.8206885641929 20.3255732735723
-200.585744395792 -25.6081492653772 9.69725674430353
197.537589024996 -35.2380720971574 -8.94471188611561
-169.492057517737 -22.8397406976491 -18.5623687184288
144.660558400705 -9.31009716668101 23.9142388455728
172.566198461178 0.355319898599992 22.9861780456689
63.1839957546715 8.43398300786114 3.61949031309451
146.425540693583 -19.1419875022028 -4.09565596076614
-194.049689402107 26.5303857572951 19.6206278488105
-204.005641965981 5.01339873580702 -5.08438410462223
-208.459682603762 10.9673957576222 -14.1956568191057
-204.186948191255 -15.981110196746 -6.27590974892072
-190.368996091355 -35.3157599535986 3.75785611608328
167.332878521579 -22.7995213355768 0.269980898923586
-143.599185556612 -13.7868849778449 8.09120056995207
199.763976178529 15.6224520547861 -33.5233572641592
-189.214203262244 28.2858092901471 11.2826078396616
-201.616885507331 -4.33211721843882 6.20929344836014
168.707949331379 -6.55637175853792 -11.0781491770454
184.23845746281 -30.5908702743078 -2.2317757297195
176.506353400098 29.3293219318312 1.63048002312627
-166.713118263019 -27.6127367067886 -0.358539675194324
-184.777950148983 -25.470410434027 11.3759954652992
-45.2224479043836 -15.0151182682491 7.45999993676852
-56.0064187041687 -15.0449692140834 9.39666091916506
29.3289667767426 -10.6789867357329 2.49520185452334
180.386227909904 9.45132809667072 22.6264515019342
-100.910118221249 -11.9268443343771 -13.1555385300173
-167.228292509075 8.07932091632256 10.9099358087765
-206.064934905224 5.11469233979086 9.54917830266938
-180.629333274438 7.19080444344928 -14.3736373701153
-197.699823383649 -32.9980328135199 -1.84631782363111
-228.667199921338 24.0860854818229 -4.11054913950924
-199.286626009294 -4.93308080693192 -4.28507091288617
199.759957510301 -3.80380414962251 -15.2794200808348
207.129757129029 2.86678374323844 17.9161523675943
-217.37456938838 17.3905586727155 -16.1910401252608
155.51485542368 -19.897367870157 -6.12154535594253
-165.765097991603 -28.3321288279081 -5.80205413704833
171.293528751051 6.56494145851876 -11.3314980904927
160.653210221464 21.5008548743596 7.48901876089083
-26.327268322184 5.15641302919661 -3.25969163474045
148.855652360398 19.7372453496355 5.39673103281608
178.359083265828 -23.2076884421477 16.454783663271
196.524267342337 40.3714550800166 -5.3669002773095
-170.090954347044 17.1674610313653 4.35325313601524
58.3056547259166 -6.12365225878765 23.5866779255263
210.329730000504 -13.1060482989343 -28.492365882171
212.752677154752 -11.3640328550968 13.6791628469579
-175.262759763849 -31.5514604714892 -12.285092996512
38.9334156531097 4.25469018545629 -1.60590629454298
-208.413628113846 7.8868784586792 -4.42161594292331
-207.07674937247 -16.9137327626477 -11.5789588469667
-158.730633081934 -24.5350691304953 -6.20444280003776
125.323999679028 -8.69744210928167 -7.84108408278987
-198.310999069966 -2.00762147985345 11.2417309041468
176.383292784721 21.5059895200622 -12.5219102307621
-156.300477223747 -11.4612040731864 -20.159279399135
126.998108654274 -18.2698396351427 0.663649324235932
-169.14818721033 -17.962398044109 -21.3878291826568
-33.9885361325733 -10.994982831983 1.94355191910794
171.162942091689 -24.2589566117743 -8.01818827350301
125.364786371516 -18.2011265181595 11.585198351234
-25.2164587272397 -14.4377972029794 11.6012757093244
151.187355987788 14.4972756796383 -4.99464370271559
196.311523856183 11.2700753312058 -19.0625847662558
-201.879694790815 -3.98823116580339 -1.38515089285652
46.6094962563011 -6.13200076598698 -4.51274666994287
56.1870426876475 -14.2705844842951 7.39000139526679
79.0732933478027 1.16942454045153 -4.96263001832221
-136.743874580617 -17.3045998327253 -12.2364222602264
-38.2495021143289 8.69792523517548 12.6533384618848
168.927556292592 1.32337904434543 -10.1853341602988
173.622492820626 -7.13534244459694 23.6618692674532
205.410807945704 -10.497548985945 -30.6350487329005
211.631125602873 -9.77315642672994 14.7184649423406
-177.290347430357 9.718707029543 -13.8887066762927
9.08038730206657 6.35359133361214 20.0598655223951
-168.050893647642 -8.46527648188649 9.81321413259259
187.218644830414 35.1907378001788 -18.5526083009958
54.2529365990264 -1.1838721456624 23.8806533365505
54.933216510064 2.77638998464017 23.0555069773429
129.942341007473 3.74203838281942 24.4508667205027
-188.181373844509 -17.2400446533597 -24.9739522001027
124.709702200204 -18.3301899829475 1.78473722986686
195.228508291947 22.0334432140862 -34.900792570445
9.09865032340633 0.824900247138818 -8.10938081959872
-193.483750246892 -3.7241810443373 -10.690919037289
199.564594291182 -29.2011019862317 8.16071322757259
161.545843742324 -0.916183936345566 24.1815911895177
-173.383094800882 -33.4476533580434 0.721085662114095
-202.776807079134 -31.0895291890835 0.868351247549192
-191.53593255213 -29.4764597949668 -15.9261768621575
185.595549850008 -28.7541013457547 -21.9360429078939
200.396375395754 6.00803148411189 -13.3793405917082
84.1725436069914 -12.1159994585397 -2.22115608217959
75.0844904518875 4.81995413802319 -2.72335742365258
-193.221465975864 15.5181464985972 -14.1446146855902
-33.4422199669806 6.57093372020796 17.7912967580853
-2.27085218361829 -8.26590768473552 0.257288632745773
-191.394576521902 16.8219267623131 15.770578320222
-54.1071599413011 -1.09530741635581 -9.87425315748407
-47.03472143118 2.9608706823425 18.7528139009388
173.081555030539 -24.6485079447832 2.19374480856635
24.137537358782 8.54148338420854 18.4284137958003
-96.1736068022085 8.46371886930477 8.17970220734074
182.400918897702 -1.65105641694531 22.849841016371
-67.0586732094728 -7.3455389968253 -10.1055582857959
-200.583278062716 -4.1488873165243 8.16814118376542
-193.919866967776 6.18970821264551 15.2416045475595
-199.151929759061 3.95551284965325 14.0931439270755
188.887638268923 -34.0938763157554 -9.07534004400251
-18.6282020997194 6.28352363620572 1.50299579301659
172.956662470461 -23.8194148461953 -11.1830241439664
-105.772233943479 -5.33435921049199 -13.3451645376723
164.307801017673 -14.1001633668241 22.4548569231449
-196.933919333355 8.99452801886361 -13.3284118764743
-100.424162205664 3.47814566048917 -10.6388074314109
215.222213521878 4.5089397535605 9.87800748876007
147.691319258183 4.67614180808211 -6.62026556009639
-190.957647053598 24.246545416164 15.6178229437319
-59.657003236601 8.44496353339762 11.0296785521638
-145.154819818324 -17.3566287267396 -17.055564047834
-96.6883318142954 -1.49123221823341 14.2898289970611
221.252272178087 9.40474344350226 -3.00101803318534
-194.112855744217 -31.0068356285815 -13.5136168639736
-42.3145377465937 -0.776839914645323 19.5274726103338
182.297912276288 -20.6281936933047 23.9161689415437
204.515910954006 12.3932165399814 -29.6301886347963
169.951628311727 0.40773773319427 23.2517569154127
-196.771465269082 -19.9768616631724 14.7328186479499
204.130127780164 -1.39455373854638 -10.1963863988425
74.3880367540507 -14.0846699687129 17.2806463269851
-186.540512984495 -26.6264619531837 -18.8290222671179
71.1775888383315 -6.68800592133725 23.8056991879091
-196.697495154269 21.765112036648 -15.6898489924815
-139.561907606256 12.9036126153499 -14.226048416394
-17.746328373631 9.50836284728811 13.4107731437732
-55.2019796829747 0.384299068644551 -9.45646418616436
81.8190372044173 -2.9717899441682 -6.82975704958785
127.27474715986 -18.6936245067695 2.97580542310871
87.3391930324607 -6.29774010523731 24.3524483384653
217.379160039597 -21.5835064043346 -5.43417976553709
186.269307873194 0.11021146780711 22.4853452713775
-197.302335130435 15.8842582830719 19.7698349900396
-164.189570182495 9.72446599947578 -19.4398359662276
-216.935665595168 9.71848138760665 15.7354686444491
118.007840069781 -9.38753047599837 23.749951077581
177.987531776159 20.9932720246432 -13.3817916261363
182.889126695306 -26.871926645816 -20.2713976927031
32.8112863941103 8.20895605867493 19.0716844902087
-145.131728555457 16.9237983630281 -19.5390377980165
-171.596363968179 -33.7343492571522 -6.47664070204792
-192.386899266248 -22.0524158889454 -22.5491674894744
-149.225033549326 -3.37685032306882 9.04085994750587
17.0033645881649 -13.7016517086875 12.3026653134692
-162.217707613495 2.36480160859138 11.7281411035533
12.3386022184356 6.49123577340689 20.0496998248644
-109.051908055112 -4.73442793415451 -13.5062685351089
-110.01470347603 -7.80925651112287 11.735739529949
91.5317358218122 -15.6935890785711 15.3016956898709
-38.1017029979225 -12.2826578135353 3.11295793049759
-170.949749995604 6.98372087389878 10.5828377696183
-32.1447266485731 -14.626406393177 10.4098860819969
-45.8153992063487 5.04747614967495 -4.87884495699746
130.970635531056 12.6092140299737 -2.54186305981668
-163.929256350417 -21.1646410657784 6.3215936210154
164.282071308689 19.9289413409591 -6.74533701424956
-170.26067739083 -7.92161077116263 -24.8989321906842
49.4085800100082 -5.42765456990782 -5.40765126625018
53.9431014176638 10.6045364726707 9.13924980320606
210.128422399777 7.42915548342412 19.1316398901709
31.8926417064506 3.73520343775735 -3.29164566685392
-155.017259864683 -7.89797271107978 9.23446219507358
220.150261436078 9.48037157477077 3.62724993373317
195.750256685332 -29.4266044387795 8.27213756934726
-34.6511099376006 6.95433891629438 -0.0384802437308886
-197.51100117112 7.63218506684173 -12.3116895410886
-86.9446696158867 -8.84105013947462 13.3020453012416
-207.845354521475 35.7247179130731 -17.6288117382297
209.456400791126 -4.96652395500034 -21.3340050015538
-173.199805659618 4.23599011397977 12.3552924721711
-156.063739922103 -20.9250925544837 3.59275611996396
-74.521179268556 -7.11738061151984 15.3731393230302
-134.368059916343 10.9744617891381 -4.4647498931315
169.826825142491 -20.1527360371636 16.3331092869648
-130.56086918923 -16.9735401970515 -10.141356047125
190.268616791746 -9.76014605230456 -29.0448904376041
214.099617252728 -13.2249079382728 -20.8321198661593
72.0852107627738 -3.53938338365712 24.4518907397694
189.509397883692 -29.0713661357841 -26.0969127328566
-175.233320568634 -19.9847933181191 9.27669930173684
-164.452796725905 -19.2490243660519 7.41896251403004
-222.236077039849 12.2141030197703 13.1094123984225
220.98248059424 25.8262516309599 -24.0817343146326
-186.793476119017 29.7422229019703 0.533026700701868
-175.513348928008 0.890788112863955 13.2023535601456
210.619094615416 33.9222124708538 -31.7038023913744
-62.2315936929256 -14.2439658074629 10.4941806874989
53.1906212955109 0.928573429417282 23.537377569107
-177.071606593736 -31.6541560867041 -12.3737829208105
194.269009392847 22.8447297962817 17.8681774560244
-141.447596285822 10.6480134059096 6.54792264310687
-37.4164555608936 5.12878176398542 18.5926736050664
205.937039976008 -27.6159482033069 12.4273631892065
-193.422222872975 -33.450835170335 -3.81372095754679
82.3042064542703 -8.08602298079875 -5.64340398408139
-47.8751353761104 5.40448927081334 -3.94286470844702
-187.921633003242 -32.8435763022504 -11.9631217010434
-67.6842101859473 8.91323817860221 4.62862893864568
203.732144102795 -34.4149402328311 -12.5230881816182
-20.079125179377 -14.1743382500246 12.3250433861759
-194.907724873138 -28.092480114204 -17.49701320278
88.9990992278154 11.2271315041918 3.93978591696221
157.592894514043 -20.609740592271 -3.72739519610922
-35.9939021543498 -1.26628508858678 19.9135205179268
167.074457741243 22.4721333114865 -6.30501305966829
-202.187346458458 -14.3184284971616 -16.072627207624
130.422899904363 -18.9936203693635 3.5540638728483
-46.910491368764 -6.66015150951242 -6.06725979230486
94.7030989145952 -15.8252739547065 15.3097929044512
153.082546153469 -9.45920083500918 23.8578406749143
218.833912051262 18.7414435931565 -25.8574641411546
-52.4395281993904 3.92109846336819 -7.63118809150867
206.904910988088 -25.7294056479863 17.9881475008798
186.449105792828 -26.4004227993857 -28.8254447495386
-94.7812564592876 -9.36505746225004 -13.3365839942858
-22.5726577473527 -14.232208881055 12.4933101036878
73.7956310221759 -15.2854501969924 13.8788361763497
151.121175402842 -19.9207470391449 -3.56675220568842
-26.1301791564192 -4.75758761562041 -6.00429492199039
-208.58593896308 -20.1921254464641 -2.71661805577999
31.7478165585553 -3.27512617614572 -7.63176315208061
-19.5017568658169 9.14703401757893 8.66889505151388
-188.771802287191 26.6202508063785 11.4470495951101
107.941824470538 4.21857528422273 23.9864398136342
-207.578087470919 -23.9427161955045 -15.3571648186241
181.258158496858 37.0792445241284 -10.8430443972404
-143.208236161258 11.9449195414947 -1.18145560900008
182.900614519036 -31.2676287131362 -6.089789305532
-40.0544294135926 -4.94365842438934 -7.4941768311966
215.039791320958 27.5712104868915 4.63150496611056
-138.921587716662 0.598861313339684 9.92919027933402
195.536745581607 29.5343571233909 11.1435166404126
-131.936751790238 -6.51606564221032 10.406928783498
-224.980597053716 27.7701588736515 14.8172635527058
183.373035796668 19.6751658547233 -16.2032823283403
158.700178395422 21.3669180324774 6.65398544444881
-157.971678026324 -23.4022773031159 -15.6544358956874
-161.643945792299 14.5032896473501 -17.8640424243203
134.626650988306 -18.4679136849541 11.7468738412633
-55.4087344385958 -12.180273353713 13.4330571126389
-212.943697370242 8.58651533724933 17.0500349148376
-196.067163190719 -13.2580878370773 -22.8022821882796
212.638287960465 -25.2708118803206 -29.770030316048
36.8199865750389 8.79928823657365 6.16404001795157
187.396045782741 -8.96471718532091 -25.7737373303208
221.486438956467 17.2902155133917 -20.1645707215475
-199.679121523979 -5.77490579003574 9.36307805102064
215.751360605179 -12.8327515171664 5.0408927540049
-197.578531356272 -20.1888273536302 -23.572076708467
199.032190924773 -26.494897784207 17.7275263835748
-54.5827463445761 -11.5925677619847 -0.738219679720743
187.189718029037 39.9756871591145 -10.0150823826962
180.866046160619 3.58123024410106 22.4919449370924
-192.234410109973 33.8820204858991 15.5908003687342
-199.100451991491 34.6726227027121 -16.3454833154083
1.86905580041406 -5.43136964759291 -4.29322157899756
-184.753138812919 5.27530053333197 12.7449018794082
-11.0941960124285 2.29958321794108 21.2006762824794
98.8736129447845 13.3438761806966 5.77015686146007
203.897397580522 -9.00861885149287 22.2917888208641
-163.646056242296 17.666843273948 -8.26539956283772
61.8966592650877 10.7654178518072 8.87582120668865
155.413823816573 18.0393635258083 13.2543798374286
82.6314504878877 11.3807861402669 16.5518210148779
-53.9333273461908 3.54383046881254 17.8513033419968
21.38255432281 -2.64210641080611 22.7829520307771
180.572138730803 -2.21708207020497 22.921597402197
161.752702891192 -21.5489106772321 2.10589116489469
-185.743603181043 -6.8890778678517 16.3643530178305
-32.3235136096918 7.55466750796021 2.68716032166019
-193.554098202244 33.0985090581082 -8.96759563960406
-201.463498053359 -31.5856170875115 -4.56790919045859
-131.893640527803 -16.1642236663312 -12.1578086822897
-41.8643399066868 7.64568424508414 15.0412029436926
-203.896561566017 -28.8438430147112 -12.82439361549
45.813789954353 6.98402043208312 2.79958283109118
-52.8548595353767 -11.2309019749936 14.3342936922268
-45.8501076947996 7.09623541498566 15.4917527475705
21.6871909294926 3.0081761436779 21.9863329527699
120.500566903682 -13.3782515644133 -6.16435943337046
-194.157644056051 -14.3928212269604 -14.465984095432
205.793223973699 25.906028506324 -35.8062715389374
-195.78066166483 27.5028039551437 20.9873334111061
182.538631809584 21.5956922350935 17.1822291129263
88.4121156942933 -13.9058554990547 18.5699335225857
-185.41865987108 -25.6556932427261 -19.7972425267166
188.057218045257 -8.51467436984157 -24.1019053703794
173.891318259906 -10.4546568859514 24.15024490748
-229.392813406672 21.9148311908926 0.3858892052789
-34.8031278779369 4.75410866129399 19.1108381240048
-171.106876137234 -27.3622149222065 5.46742956796125
187.375936545682 -30.7887997534305 1.73553515200446
56.1835027282478 -5.73511515691301 23.5807448888025
169.185953377158 -21.026408849145 13.8919274126531
204.788720472509 -4.24199436156155 -15.0511971454366
196.985670566164 15.1240177294526 22.4200444901594
210.938500645698 36.1276711888316 -10.409502489458
175.061483971491 -22.6392299336806 -14.4746587353066
-192.22673926446 -32.6884874030634 -10.3806107327876
187.058612764538 -30.067123602132 3.70512856589397
174.694733886604 19.3556859774037 16.2227017010734
-209.043330120641 45.6967105780679 10.7301370884676
198.026493151139 13.1713508739276 -29.8926686534493
138.850224865306 10.2595969100264 -4.84587766402455
-201.549122770781 -14.4308590110051 -8.56129709034022
-139.268035965843 -18.0190630829055 -13.1213128008529
106.281130107387 -7.40977041359395 24.4820928841785
210.064974464199 -4.83850731251098 -19.3994451139831
204.302209952496 14.5960105163555 -32.8001867514557
212.405062714421 12.1154684804559 -25.3367270947365
159.355863866345 -16.7236782195529 -10.2245008551668
-176.368113019479 -34.6578255087146 -8.49938355158541
224.160133294519 17.0160191413563 -9.17170903845251
-35.2584424365145 -14.4914960697791 7.19471380479771
-110.569379540492 2.16017069280674 12.4119746007288
181.301102226969 2.19679862846268 22.2602060163442
-225.47396693647 13.7371974988978 8.935518745468
-181.046686410227 -13.3808640761001 11.8583104392976
-190.209877615787 -5.46447064631979 -12.7880240847468
-209.64332761889 -18.9637316042291 -14.6032568718494
201.163033239041 37.1912008335073 -24.439172956619
189.873237250709 -33.2861037768816 -5.36285387121509
223.591063848614 14.0624244568643 -6.80792073834412
207.672638827688 37.2903516451278 -12.3101705266743
-212.573509266727 8.08818549715822 -6.89371395253883
201.114220092061 30.7731069617181 8.64535018669949
-227.104223244462 20.793923076789 11.2509279368644
191.601297464375 -7.37425610198422 -22.0405853689218
168.459596808243 -22.7041643836202 6.72227869462252
78.6827290891412 9.56629922415017 3.1081721270645
188.075440881768 15.0782940380603 -20.0054270961232
-23.3792994934829 1.78382647199418 20.7719676360679
-196.349561058666 -3.11010178339203 12.7827760630104
-224.645949228679 14.3454891481988 -7.49397857202126
-64.5822264495724 8.5074050204333 2.74053712377693
-195.871164288004 -22.3643587334359 12.1741752854287
-110.094032732221 -16.2777141850953 -2.46225205820061
39.8655762091451 10.0021911825028 16.215721592628
-21.8593932016556 -2.29831165554223 -9.247059254944
-204.175110415797 -29.6140878347982 -0.69164922792087
-16.2281295878614 -4.67160080834356 20.5669219261434
206.741438882085 -31.9060829130001 -17.4644059120376
-208.478690647541 -23.2890371220043 0.572480814106948
-10.9289702846257 8.52176701160025 6.5580188395099
77.2949203057867 3.06563170743786 -3.92679497793913
-138.293647987064 12.1079255302277 -12.5375701764829
175.431783666628 16.8382685157455 18.9158243618172
98.5423650454914 -16.7844967034557 12.5833467793339
-78.823328083063 5.02836767564313 -6.6054228001316
-215.804959268886 34.6555335847577 19.6393201877596
-172.310236736669 19.0916540256944 2.59360604022217
-116.207633661034 6.07126746294575 -11.2785850873659
215.379149492878 7.27771995552408 13.7525431011373
205.862753495001 17.5717177029206 19.7601886382239
201.32011408954 -6.68424973586699 -22.0956116750312
120.578096591381 -14.1491975525739 19.8604589608549
55.1364131044574 8.0248785033856 19.9172783986994
140.74012879502 -12.6564073722361 21.8830245419676
156.826628484195 3.66071370192739 -7.77994952614374
175.987734078998 12.0694379436444 21.1766050394741
137.386141281416 10.8710485099291 20.6053041587464
143.04734344814 10.4099524999433 21.0319889727523
-199.8751808791 46.1470979234399 2.71658312533281
174.309912163349 -22.3144927823351 14.8890197196211
9.26339119243129 10.1042084230369 14.3171647217054
-199.866597499928 0.17786176822658 -6.39960606964597
22.8535566728035 -11.7402968497658 18.1791305206618
-35.1219507447902 -7.50461838532618 18.3830567131439
184.808552478748 -24.4672748289132 19.1367927291655
-70.8452526975904 8.84637473820797 7.52139511795653
-149.140398859771 4.63693197396854 -22.4885640062454
176.017308589389 -23.5333440823356 -14.5636585738145
195.822687738549 -10.821124201202 -32.3165468217868
-87.459022922209 8.57686709136413 8.05497351632195
47.3135983196171 -6.04955683312005 23.2801061407079
-151.630455766631 -21.6616045038303 -4.01375154732958
65.8207638509084 6.15715012081515 21.794641545512
-182.251714354848 -12.3332216337828 -26.1694812385161
63.8823578519118 -9.9517896295539 -1.98951171104343
122.445171431615 9.08069860799042 21.6234244651936
-187.799432660584 26.3522220442998 -4.95551401290374
-63.3714389887933 -15.0275750387202 4.50523922553616
168.172694641224 -21.686628903362 10.9419652553102
212.759450240354 -22.1300669511544 15.222112401047
-205.507683203125 10.1165845431661 18.8771635861485
206.810851145193 12.6836413078943 -20.292214537659
-146.028756531237 12.5465063514948 4.69365675086192
39.1180351676024 10.9028543368416 11.4580280781009
-197.919470367809 -5.67079436831862 -5.17150244632324
204.772316889507 27.6438130816219 11.4021594489237
218.821218934806 9.05572127839235 -8.83768187658964
37.025764608168 -2.7056554804302 23.4407169578417
213.254709281367 31.3393859601981 0.886919846490183
195.527600658683 36.5189280678923 -26.5886073600812
-42.6313225578034 5.31343573929223 -4.32471913846369
-171.065872513723 -32.5967481641094 -8.84325168706941
-202.497438386403 8.21560659704424 -11.3242739072463
14.3511027391117 -11.6490408227888 18.2635944662347
-166.835757565934 -12.8910259492327 9.35419067226232
-144.723206078883 0.514630283233534 -19.3702440773289
191.167052433203 8.50887470252989 22.0296879855462
199.135734180941 36.6271423471248 -30.0842611629114
-214.987899562878 42.9650831146765 12.9930235393741
-81.7189830949929 -15.1803192335048 3.12183282422265
-150.099529987275 -20.6268733015824 -13.9403473272032
-197.827739147761 44.1244343171118 -4.28401029483171
-5.16767775807737 -13.6650130206137 8.9114831632235
-196.984563493422 -29.1050407724701 -15.961720914139
-190.133996759107 -17.1180926645773 -24.7040961118534
-121.547134883713 -6.17480033160106 11.2192810215418
206.799362837035 23.1598493432764 -35.5853204648113
-187.295222408413 18.1408977551528 12.1562850100754
-219.977376531697 40.9740714242215 7.44126747701734
141.616143952519 -3.82554070317013 -7.74300894486944
-171.817915366828 -28.1198808199685 -16.0347490766971
181.818297367932 -13.9973444203329 -21.7895511408278
183.12241879675 16.5079278841011 -15.4858905670215
25.4579639583881 10.479293260057 13.936906565644
211.661610157528 -31.915113579409 -7.79201131271909
155.815627006418 -13.616389856858 -10.2091238765784
-216.802037153205 40.7571021771146 14.6190036738261
144.791462282945 -1.22346713458585 24.9829234612789
-104.319336279948 8.26829203332189 -5.02872817653846
-145.640468247042 -12.3858232604477 8.73692604259796
-25.6278986501844 -3.20870559663013 -8.53738387861373
-45.3177423492992 5.00285627530138 -6.69162270314292
-99.7426234083553 -15.8139534162036 -0.910654079888336
-198.103134894119 -10.103979610733 -5.88056729299198
-149.904266431553 -8.14043520542579 9.37614841715914
-198.140015275029 28.0425622398109 22.1396638301861
222.687420321782 29.7745514214695 -15.6490705240057
198.438685011434 28.2308961367848 12.55014382894
-87.4958386401646 -11.9130648533442 -10.8046097618597
-217.513456207995 41.8888616547535 -6.94158606104435
47.3363158893747 4.11144800761126 -1.99081056461442
195.201355529631 -23.2005725188118 -35.6930272619529
195.015419009386 14.1652800036759 22.698324709846
149.518667061235 19.5571224080396 8.30001990891277
-124.977170892926 -10.284818202456 -17.1239255818963
-152.980273085742 -10.801257651166 9.1373298015606
20.6235661715954 4.59656777558494 21.3678388629458
-47.0046990468403 -12.3447824232445 14.0695919454382
204.726807587429 11.95379971352 -17.4990966128219
113.066488453956 -11.0983077169286 -6.68883707695478
-115.685663217044 9.15552601921689 5.50891011380711
19.3794428365822 10.4446783209977 13.2347022019514
-199.351654527545 -14.7287059690374 12.7375700145803
56.1446870713417 -11.4500846668098 20.1008477348557
153.706740817213 -14.5584049505856 -9.59585906968874
-170.527805662932 15.8523003220358 6.40317826899191
172.054750507821 13.1667403473159 -12.9681677402127
48.855554400517 -3.65176448538421 -7.28746280157914
-153.911304064705 12.1577408305989 8.76026465961454
-206.417956291775 -17.4391976013832 -8.37068476087278
17.9959907277209 -13.6815190743729 13.5907365701882
211.435287398827 -23.4695164126435 -30.8975154102556
-202.046252087065 -2.08015691542675 5.72821888745427
179.730261756301 -1.46096931081186 -13.1000184387886
130.376057498025 -18.4953409558526 10.9859919736439
28.8484197587102 -13.3944402563561 8.1009736695956
181.591476298003 25.2481579281737 -14.725750414302
119.270896646049 -14.6697571799738 -4.80548984477349
167.628641908366 23.1922014802036 7.14827535521181
-201.73042531214 -31.3345030353527 3.58147444392141
59.7617546447287 0.38277769262529 23.7573676365397
-207.459793769736 47.5564896771495 5.01329983659531
186.024599196657 30.0460683055911 8.46205901972757
-80.6641977284194 -1.95740289527025 -10.966135365953
-213.127553960663 45.2335258250237 -7.00616844026768
-64.6763061985273 -9.74957074130232 -6.06612852512933
164.885408673036 21.7653465761658 -5.63826449513989
-172.137657206891 -6.46516402388773 11.111802065948
187.484670380992 20.8672429726228 19.0747425034783
198.625405739213 40.1406042197891 -3.97228964988148
-134.560620427518 -18.3468831780157 -6.92059565985466
220.538121027556 31.413647115417 -20.2756267080447
-82.7626769060712 -12.4108153677106 10.5958617570127
218.067851677392 14.8816901067099 -23.1987759718381
23.0218765003008 -11.0581245757143 3.68508196357608
142.269239114656 13.1457574494741 18.5864562944352
-28.3380820121076 -5.61281950940176 -4.64406964275915
127.902465212358 -9.71997727001122 -7.98846266665849
-106.027526842356 1.99774439129288 13.0014317383412
208.605850670294 15.6490543937455 -32.8916285544977
-219.219285115589 6.02327004675506 -1.79576037916502
-194.696702125654 -22.0469963561085 11.4741197116555
208.420496775363 0.390205237502833 15.4649309302175
147.962631096047 -19.7907048683064 -1.86333096354695
-191.610855804071 38.1491484721319 9.11710156200306
202.051128531649 -29.5238979016789 7.59799863039406
185.749309686527 34.6956440541758 2.15112519660495
124.61451939183 -13.0625550500347 -7.01565287172945
-91.2041050922708 6.37547280767707 11.9812779319255
8.09316069964691 10.1530021364969 11.8810159624277
-25.2618133666608 -12.3495167050346 4.51962789819932
177.667445402467 19.5251615278958 -13.5908481340651
216.664503478838 14.4385655531516 -24.804573645469
167.350994620317 11.0488096052728 -10.6915602105084
-167.295958251629 -0.373877693711314 11.8947112754258
216.37801184673 18.6901181418768 13.2044382295308
186.291714689476 -21.6363710856258 -31.5812138998432
-90.0528788535698 5.56605048639464 -7.36981602902752
-165.73412198307 5.78427386386632 -21.2104331964991
-158.475801588507 12.8810081039377 7.6992424785038
202.143348192647 7.8289270507113 -12.9882215297692
-171.325042959788 -19.4262261856016 -21.2034030285724
208.963864484752 -27.1006850593237 13.0560470583164
153.705697628268 -17.1626444520532 17.4135907837244
208.628955003868 -15.5149329230688 21.0329680791989
-153.15179932691 14.5806053318158 -1.34683310390209
-79.4243305532659 9.04950225102425 3.21046850270861
-210.326115279888 -27.4517321917788 -3.63263900515399
70.0018414567827 -15.4069451897811 10.0244466028098
214.395174092314 8.06636999940129 15.9088004317716
-5.82484232555638 4.07273199300413 -4.36489108742305
108.381567921141 -14.2545783874403 -3.49984179517361
-165.711966481456 -9.15723562590095 -23.375605423382
-197.651438463942 -31.2196674785729 -11.8215392333344
-0.315372323945145 8.08894627607559 18.1964069815634
-191.242851967242 38.7139752949493 -3.92154360530538
-95.5219951170437 -7.88211538850959 -13.1371649606834
-32.9615190722838 4.00991783959334 -7.28444827039693
46.8615824423269 -8.2786066049173 -2.11425334031
-186.384238379167 5.42062888126725 -13.1869088644485
-157.305407511449 -16.9041477538768 -19.1214043780998
-163.995204125961 15.5526648112183 -12.3614397919784
188.642529428087 34.8553446171496 3.86662864625509
186.430040621494 -31.4045609392126 -2.24500027220544
-219.984799942187 38.6847099286809 -8.65902766318791
203.706847666737 10.9789509428587 -15.5567215330426
-198.613484602754 39.4550806050139 16.436707463998
148.442661962666 14.5331997275381 -4.5342737813829
217.877627674414 26.789756191928 4.66160601541544
163.705580115766 -4.98249655813202 24.2061125638854
224.295848626779 17.1272721840095 -2.92419165837951
129.847538641294 -17.8853534407702 13.4264710766149
164.059980042523 6.54287079602816 22.5020431162268
-143.784463968081 5.8341962253779 9.31967173688632
165.740994132606 -16.5034147425464 -12.6374181044982
164.456539794055 -8.08323843149068 24.2733275168729
-209.82083133953 7.449047860624 -1.22677576301457
217.781272852361 9.59793501798549 10.0165919906677
-64.8032645565644 -1.83510150924501 -10.3282963714075
23.1127324127637 -1.34831799616174 22.79220442178
-52.1165566835619 8.37054285766187 3.46043521078672
221.232932583474 11.2499030441056 -8.96006277986579
-148.035917117364 -11.3108830295237 -18.7358740580518
-58.6009129979542 -15.3759423613058 7.82109391987444
-41.3002638093455 2.22046246729286 -8.20615761886653
125.901398665917 -16.0328165940816 17.4047764702681
193.82349692966 -19.7100842584587 -35.4017214421798
-146.597297458802 4.10668284649362 -21.1041316171567
3.05454746796618 -13.9619623173693 12.8925198636978
182.259069512669 19.8635189383253 18.9030957307605
180.983280669873 10.0056971982894 -13.43046703249
-226.951817544828 16.0701287682057 7.91317796356691
-194.262118035168 42.6649442522157 4.41956570642807
41.9639687794233 10.8050464059778 10.3953842618288
37.1485365146447 2.17536339630061 22.7305022627483
28.1540330270159 10.6527012672991 12.9858889898086
216.660796958903 -14.2628771762053 0.844010471963064
169.294391383031 9.61893644666668 -11.3493873197518
-138.16694427478 7.24012365674434 8.77556006562128
176.084847124382 -12.7559426336083 -15.6632969724789
-3.6139287367983 5.38968975377091 20.3448230259159
161.159639405809 -11.3931933669898 23.4448586561075
-167.571023260027 -28.9876588064696 -2.96582596655461
-190.224528590342 36.6308533033312 -2.83520128644565
-196.081938659708 -9.29799807894234 -7.17058946096781
176.060389729444 31.0712723445942 -6.49218891371683
-220.060468034376 39.5056819054647 -4.40148788506021
-204.420688989899 43.6729486793135 13.9137660635661
27.1015592791583 0.483063635262935 -7.79048382680163
-179.829373969505 22.3883067588267 -4.34772512871001
164.520462927398 19.8056448213853 12.177153374805
123.115243644245 -15.2699654076279 18.4801810202255
-201.871730926044 -11.9678824016544 -2.07819488923283
202.923611028297 -24.95633962936 21.363785649605
-181.074767641314 -5.62526443397531 -21.9917576969508
-59.6211846900331 3.51595231864481 -8.16980427689863
49.8909209516537 0.67095659372909 23.5264339990079
168.53583028702 -14.3268816140253 23.2546615263601
174.082889341711 27.0342030263826 4.41628501872609
-121.199977628063 -8.89454838866679 10.5728547859631
-27.5843293225073 -3.010018731166 -8.67359645224884
-194.851530454435 14.3430268921357 17.5818823870888
-141.595438030657 -19.2173149368241 -11.252341252579
-169.582559492874 -9.98164584286203 10.0125578495836
-124.134982724825 10.0322575705106 3.4562437727597
182.063135233872 18.5670404094782 -15.0708095588966
-216.212798377945 43.7309523445909 7.55821102288655
29.9399752688956 1.05801998120035 22.780322147677
-182.92372405346 22.9324224025034 -4.92489713658286
167.840211255497 -16.6175882383959 21.1706872303696
176.092006368674 26.3826989606228 -9.46577245140971
184.125386893496 17.7135954806963 -16.1996949168319
219.823051462972 30.3176284882427 -5.30557580374965
215.919806393607 9.48234352724178 14.7925748305927
205.824356981064 20.8424384708009 -35.6129388579619
34.1190006507675 9.7997244329898 16.4559559900468
-126.64112847144 -3.7555822922121 11.0696293534914
-141.402877583634 11.841122067153 -2.90611227818344
209.261050927455 36.3501485200555 -22.8978259100715
-79.1328894990153 1.82195664046228 -9.94576245635604
-169.911312317823 -12.0302826092607 -24.0001992432681
197.069552409674 8.03068619053504 22.6111937544195
20.2110237228453 0.671385264117111 -7.87337450804202
-22.5546583556541 6.67556160559936 18.8335866530097
221.981625369889 10.4003020522512 -1.54339233904662
-195.859746568803 -33.202399419983 -3.98207286092486
8.99514026850969 9.54829836799945 16.0584561474475
203.867225268246 23.3450873481774 -36.2471379698168
-170.619487003505 -15.593895348657 -22.9242541676663
202.257803439947 38.6720969496721 -7.04028769681552
-126.613084649286 6.3138007297935 9.49243782732338
-183.77916765783 25.2407591588313 5.43304122963721
192.194144799836 -17.8133039442402 -34.9432404977049
194.796888495949 3.03505838624904 22.0496979113534
-12.5951056872188 -11.7843658325948 4.82274055930316
167.099410256911 -13.3662604771791 -12.5683134899556
-75.5700358686474 -14.7680353697349 8.11317421158153
-190.983720590609 38.7039279676182 2.80367523349773
201.918915404802 -5.52586624374414 -18.5138922345786
193.434597373942 -6.66451556547381 -21.3813591981605
-29.1978787321398 4.1260030662771 -6.69834103693397
-156.831002844736 13.7196313204188 5.87306113781666
189.128291865352 -28.4395549951064 9.93749498556905
-184.050714201376 1.70774273857838 13.0077314151564
143.944446374916 -13.5331193150936 21.2936318112557
181.259334033602 35.4015474601238 -6.52161435304144
193.105006882628 -34.0672949852892 -16.6040789696118
-103.756907705408 -1.93809593605186 13.5533234140935
-108.437974384892 2.19983397642029 12.6900897380777
186.795166653219 38.0856029366852 -2.30049227367857
-190.792743715519 -10.9863294410361 -14.4606559039165
-229.063601327058 26.467061672051 6.9725113661536
197.49860087173 9.99142442570198 -17.5182764398426
91.9367664421672 11.351050823334 17.5081118358282
-4.85169412416135 9.75543293915306 14.2815886684289
82.9924743981896 1.66318747879265 -4.72286298770692
-108.870884186578 6.3655516231241 -9.72650182753092
195.396089007683 35.0742309951344 4.30890545072346
87.5441893533199 9.15596597633651 20.0748605411674
197.839857983468 38.7913715579889 -19.0436689091728
-13.9483743258533 9.00448613038886 15.8505365582149
-187.172918501357 30.8478777546599 2.79678320102447
183.155317362819 -13.3221469202954 25.5678421702057
205.297859815463 7.45979192138565 21.3557794136034
-193.627659641372 38.2234018364664 13.6903960983928
-120.366339175649 9.7987210879864 -7.40977819583873
160.799085578668 22.6136397424189 -0.301806393882954
213.522702984068 34.4639445431326 -28.5601338254715
-34.8577091321781 -9.5045558209422 -0.0324172808582939
102.715508283557 4.70400121855624 -3.82362394123206
44.641452048286 -9.19601325374641 21.7569379867894
209.783907724437 31.9831944820359 3.11543314862178
-40.5139096296871 0.793031578516931 19.7407891114328
101.568936131464 -17.0533469514852 12.0008817515008
99.2248943797324 8.69356500840562 -1.06138781519557
-140.550460405206 11.961966926471 -5.43199697900593
-22.6643401757193 -9.30350031042845 0.933387463075824
185.942208126799 -9.15574454363558 -23.7721237110903
-71.2486628397959 1.08834633821804 16.8648137842105
112.013603489404 11.3523962574523 -0.199731522590749
-105.669856921113 7.75673317633759 8.98191847958186
-162.009684642337 -16.0459483875957 8.28685435358407
216.711356922637 -16.1424473591221 -11.3913511612563
-6.37016865661505 1.14043152524204 21.4728975931527
5.255298143541 3.57124728836899 21.3513153180666
-208.610058578936 -23.9242799600597 -13.2941668102911
-185.330914857966 -32.5654952557921 -12.0379686589274
211.066611737727 -15.9205719272729 -29.4772481057916
-45.0231074938353 8.53703116927871 5.40821838793244
153.668599294737 7.09218687631912 -6.97316459529639
206.885710040835 -4.59100187621161 18.0103383450853
-161.40617777367 -12.1716431761632 9.0427230953547
-150.663215484509 10.1062873473822 -24.8085480335528
-175.079535844787 21.356526686803 -2.75709583766873
224.745851959544 19.1088795119974 -4.83049957543222
197.160674684695 39.9945929143382 -14.1861038600831
-181.355018666434 -26.9866347610532 9.7615514513386
-227.730981746657 23.6011229219063 -6.76642070119685
-156.859041427422 -23.4386421806713 -4.01721677171268
-198.948447562456 -31.8027543312114 -9.87790221706401
-25.198519308978 2.6453091652267 -8.34203465786267
169.067809979873 15.538993256458 -11.5115278303436
100.535933502358 -17.2680932798112 8.47622793723537
-194.056556272755 34.3337640606548 17.3998394573322
-172.555365983201 10.7404444981322 10.3541350102141
-183.759399388111 3.68792345263792 -14.1628197093791
-208.521778540645 7.13443553649478 -2.11552573370958
-108.053978925706 -11.2294671802264 -13.7409855537246
-182.318765930208 13.7422376542035 -11.6163652867197
-154.7457446442 -1.37561884603585 -21.5331132212918
189.427936086456 9.87359183305852 22.2895528302675
-225.333461644776 37.2193135090093 4.24309017693833
199.614696087857 38.6541039239593 -19.0915995623308
-229.020946795193 29.3991014378726 3.05572679050356
61.7399641752 5.63371583062834 -1.60852566820349
190.862088392162 31.0676561088917 8.5308564566817
-179.6281239324 -25.9108696445304 9.64421363308036
194.206095030551 -9.74301906304818 -31.1319315720959
143.182690048983 -14.3449105339383 -8.57256103430481
-89.8250708615728 -13.5566247639078 -8.10574916877687
-2.46062346220753 -3.97610604702535 21.40177948952
46.2474647840341 -1.58825718886123 23.65565677572
-185.823507114873 24.9590665955157 9.43311995047147
-190.066532889285 -9.5047354944954 -16.2256265013681
54.5042892797294 -9.39944390935036 -1.56341985257156
26.9390534045902 5.90099283765285 1.72435468199688
-199.53168688221 20.6545105439153 -18.2086392751388
176.553069805976 -26.688267320082 -9.43818847059928
-50.6202976729174 4.26563206566003 -6.70211509343516
-125.390269321492 1.43569929536699 -15.2254241189055
-218.157636255858 37.4521127554094 -12.4118039443613
42.4473366723763 -13.2457905270982 16.9418763343942
180.143538394429 20.2552971525093 -14.1360875556143
141.627475548647 -17.0510870259042 16.4936201703475
-29.6636187759215 -1.70441464530662 -9.20636079189778
-213.857932199522 40.2345308152151 16.8173322857105
-26.1206092852254 7.50827966509409 3.65155942903491
-204.540795747373 44.016588618553 -9.90799456620938
195.108460133127 19.9040798522878 -34.2611335204035
-96.6221640944398 0.87884219863795 14.2226786919142
-38.5129707617506 8.6762933100923 6.73633473850339
-223.261162412817 12.213070929422 -6.90818671090109
-116.620928733648 9.85096846885209 -2.6415626501552
185.582270147641 -20.6900814599298 25.4039021607006
-124.166473195125 -6.36980072082771 -15.4652154405108
174.333019375898 18.1593059363795 -12.955836185097
-180.178724322435 -9.21141605148522 13.5692330797548
193.294324074889 40.8357500139729 -14.3953976990009
-40.7525187039831 -7.62300904785429 17.8967763395991
-50.4894503652241 5.554587869843 -3.48053657319835
40.517274388388 -7.44627189772837 22.5744784311924
-157.185988621921 -23.7746577758832 -10.6365298559787
-97.9431853134159 -2.53197250774301 -12.1534223260249
-176.917965418293 -33.3265994160436 -11.3630079396544
-139.230602403122 -6.12303451668472 9.89547258220398
-216.173654934117 40.2913573743873 -10.8781194288177
-39.9811053663701 -2.51164018319378 19.4956846491869
-1.19837388573415 -6.86052917603598 20.5928294351579
189.097508740165 -24.7567073265824 -32.6487016701313
97.1369604846561 13.3128692081557 14.1986065815196
-131.555854977112 -18.0371004178404 -6.11695368350993
-92.4012651657464 -12.4612932734495 -10.48816775617
-70.0773162373002 -13.021343329382 -1.82425913713303
-203.817462549121 -14.2332355634134 -0.0835459015480629
178.29401652374 -2.56850420614514 -12.7932585341537
-118.113138327849 8.85225094137213 6.45827067848705
15.0434391703181 0.853240376365667 -8.00124246996631
-192.06215873438 -3.62251734606204 14.262639518283
-189.18938574011 -13.7561162972317 -24.8189805400246
-157.555738629665 -23.9988881444846 -8.6606084455822
101.327383374713 10.9732493481947 0.99683668997703
-224.529945638449 13.535840160714 10.850532167414
-201.191191031207 32.7226665148669 -17.9084818206477
-158.960674478502 3.06476763859408 10.3581173353062
-225.731519802573 25.9437542510298 14.0698038718333
-193.381993100837 5.19851799624601 -12.7448282946283
-35.0613262774836 7.77116966491127 3.33353617410367
34.4223969824326 -9.21799400057298 21.2432678914084
-207.881682512271 -15.9990306705726 -20.5643334242608
195.669159914477 -20.8531310286663 -35.740150708465
90.5329765409908 4.25369298270307 23.4776118676386
-196.728996281051 -30.3452620344901 -13.9168776848342
-158.875695504931 17.520747405571 -7.79836367861834
-209.730757752268 17.5037772051561 -18.460418467232
194.534898636096 -7.11076834451512 -22.682249422627
-113.129949324259 2.48740996395553 12.0783046811292
134.42788831204 -18.5343329740907 -1.39177027361637
-79.1185676892243 4.04869417625538 14.9016194507584
-208.835612331624 -21.588827586616 -6.95738876150408
-196.053403552744 -30.392857506315 7.56270761758362
-175.086152736872 -33.144429481446 -10.6454652821156
182.864200334719 -21.5060826216265 -27.7531941192729
-219.054184367567 33.7523870170579 -14.3178379756807
-86.5130803062468 -14.9865630634778 -1.33596665365766
204.787483899427 -17.3984348556686 -34.1113788735772
186.0370038239 -28.5255523478955 -24.5855157347249
205.586921865365 -30.5988536758773 -22.8094905908789
-215.025291648005 8.84439692909244 -11.1141518235122
-120.227477704446 1.5453347444773 -14.5291381442852
-202.356366833035 -4.20950109883935 2.69510995954306
-93.8450421447085 -13.2618943638324 8.53586750374738
-189.18058726189 30.025609388811 11.1976410113911
97.8612293894013 -14.3045910686786 -1.62805491968693
-64.0624356904877 -1.23645603474209 17.7117250148611
-221.4883316123 11.9814266463059 -8.87628179320708
194.014557717289 23.8714401132 -34.4497154341965
-151.330131326441 -5.44998186981065 -20.0711133616259
213.709051929416 -2.29528638990916 3.06323972591308
-39.7618871202876 -14.7070700115229 6.77740916356602
-203.951689422206 36.7931379253894 -16.7565684543929
-190.209548823295 37.5708729804312 4.25321199674159
-122.322652530561 8.39714295576346 -10.184589302875
-190.722069587873 11.2752774351806 14.8616152189018
186.075296511639 2.04454199982919 -16.2817364348532
-191.704458270467 -17.8377572986717 -24.4280519366799
-105.138974193077 4.21405299026739 12.3494472258852
-154.991953614072 7.98928356780547 -24.7915111599148
-174.761800645763 -9.73005567503145 11.3472049524287
191.782544678451 -6.38301551113972 -20.4261783199626
196.942309486772 19.701905050085 -35.0666273858341
-205.951693679137 -16.8060021323378 -1.99144960378249
-165.06971136394 -2.52279332054036 10.9963799754598
107.666726517834 -16.0421341969231 16.2330823785168
190.646920839216 6.10013135691002 21.4057009398757
198.904302648935 5.50002833971586 -13.816487802499
184.920812026033 -13.7058022367049 26.0075456086177
-202.304023302775 45.9489701607703 7.76801273966307
-57.8105519503414 -5.82370360907965 -9.92439675125853
-228.860079383911 20.8413978928975 -2.2201794745765
-191.022129895513 -31.7469728972607 5.78282840634161
213.38203752814 5.972485622234 15.0531706171259
41.2569513461971 -11.9678571303246 3.50410481382616
127.284236698661 3.243583231792 24.5545474947401
-139.672779196245 -19.1174365657567 -4.32642006832439
-165.243216534478 13.087560459882 8.16949032203921
-181.681655124217 16.7176897695097 -9.56468807565804
-191.995159094839 5.4424138716616 14.7274868097203
-219.614913964426 40.0580089243437 -6.67454179301941
3.45609483245042 -7.29742287462516 -1.25703748701124
-13.7189096762009 -9.8764872117199 18.3899318737251
-192.905660639214 -34.3947425177677 0.603666628586895
-176.763129807999 -26.0949223855501 -18.0947893567765
210.738672209388 -15.8604554716217 18.6901959359324
-219.962616162787 16.6935985880428 18.6634263358705
-50.4693443597706 -2.59012963908167 -10.1870800157236
-92.7677081480024 -6.13390657257127 -12.4352514776624
137.909394105443 5.02868928973826 24.0234036668408
183.949999459278 -10.6139035139334 -23.6037367362293
-114.252386359472 -16.4910529308712 -2.59311380014104
168.262116373766 7.6987090293872 -10.4010028350811
-55.4223437510549 -5.4124376153618 17.781539409
199.017844124761 13.2071117915881 -28.4966821031107
214.297810945915 -9.01985780157905 7.63132612508736
215.564367826897 -9.60252255745401 -3.17014223213161
-151.07828600978 -14.2689112995839 -19.0174769989466
-210.458863211316 41.282656194674 16.9097153953488
42.8975118844441 -13.2188594180183 6.35872520102202
7.1809093147501 7.76633805441862 18.7432230388195
191.488403782037 -1.91552828911654 -16.2865358078328
-75.136989441966 -9.93000032111858 -9.46265560604239
171.820887983437 -3.31945540910321 -10.9420087054258
-186.253135194874 -31.4211027554881 -13.8437097097439
-80.3266462325917 -14.0871575010619 9.01475186959322
213.346797530146 -0.863187432087064 5.54300684355086
38.3633938453583 -9.44491369977994 -0.0618192524667079
-174.524476983571 -6.11737304128033 -25.1851000776906
-139.253379988104 11.6243408984463 -0.190583266253166
-137.099660545987 -7.11041622647442 9.98201677817679
38.4703467739426 1.8159274384709 -5.90209639150742
-200.175013414313 30.0696802171578 -18.4111709095946
19.5139505462248 -11.6165942409184 4.74348598648705
204.473964737357 37.0020119491578 -26.556555770558
-60.5144087478827 3.27445603835105 17.3231742066621
-214.490068843427 6.76516702465733 -3.72568631381672
-36.6572446754637 4.69127212436104 -5.30516791243573
199.579665408897 39.504868834316 -6.6653313034013
154.906669841635 18.1113423500383 -4.23581372464166
198.346903853651 31.7506945664683 8.09627666306281
224.573873948962 26.8579382153451 -9.72591198094937
-90.7390433891757 -14.1728821131273 7.33182584362288
-157.913675489016 5.41948700187997 -23.7806049015208
-48.2708151791529 -4.46225607799079 -9.50065629380685
-19.2060576506522 -4.48453028145137 -6.15528832917713
58.0644823947512 -11.2311299687966 0.357307445428754
164.321589431489 9.4613403669219 21.2605713307659
146.659965019907 -19.8644170911463 6.40243242827116
-125.833471321987 -13.3936956565067 7.59067526736807
85.6140077218214 -13.8994294336825 18.3779224225181
-140.304160297682 -17.0110194215298 -15.5378844146266
-107.326124474549 -3.63860442131306 -13.1645407781156
-200.542279533789 12.7571823588802 -14.9808341330259
-84.2227184616411 1.24180191576617 15.4247599969638
149.314054503568 9.47035262120497 -6.0381740993605
66.4823568505277 -6.59439991145301 -5.51432593523296
