27.6624039438933 -4.95575316877526 -24.7383565570393
195.778878862787 32.791491945022 -16.3785931664014
-189.158332939866 18.0631741117139 6.16026825849843
-7.68349360139154 2.88877442168462 -4.41127950305323
185.751004833877 -27.6082816587183 -23.3377774648977
177.686493724497 -15.0754248006971 -26.1687330270626
-228.97160959922 -2.06463618107771 2.35153706057034
-218.002278767543 -7.47434675329586 -12.792956962981
175.356135110084 -17.3775900834888 -25.8144626657698
200.800065961102 8.32749922706706 6.90843445608418
-205.275450630774 16.7301014545533 -14.0029852051736
196.121355786 3.76960464573844 6.92826534310718
126.849033883446 -8.58573413511796 -25.0651384552197
-173.097864635417 2.28104914212682 22.6075728343931
-185.454822905942 17.7671295098399 8.58496322958855
-107.466561052778 -12.5931035142556 -16.7122504606927
-207.196394345444 -34.7798051893039 1.88129608594065
207.03750520411 -30.9268358977602 15.4616921960285
-220.420918003801 53.7640599491633 -3.96598298635057
190.531178369903 25.3735826763037 -22.8498379638717
168.975103891004 -25.7021598907587 6.41055429109899
-131.085011130057 -23.3820695117525 -7.15856287083435
-169.271585743411 -4.55348435756559 20.9905206355781
203.899769583556 -1.44103354776153 7.08896609677212
143.215536571319 -22.6275082828022 -7.55693572616101
-213.063172966832 27.9360728280008 5.86625208212426
-222.731804993647 -9.82876359926216 29.1952893881417
-235.574938909338 51.9961699366308 -14.1139102429069
-208.32772396437 11.0887442379476 -14.9673561841289
92.2536940359695 -15.0490197269004 -24.0629063516336
201.67664928466 -3.56345276491308 8.34879301936706
202.061657946577 -22.9143462424889 37.9357490576284
165.306106880541 -20.4377814881064 15.8566995662042
174.787582856213 15.1371717373936 -22.4437064048855
-49.7783963128058 -25.7617314583502 -4.30988987782944
-72.2496131600617 -16.6525400091279 5.51700977487596
-66.8116933441841 -2.41133749569365 5.91305668178127
116.564556460176 -21.3073400446499 -4.08739040030095
-227.735061330298 27.9139434660817 16.2869520024934
206.000396116947 34.8440506935867 -13.3815609141925
188.178590290292 38.2239229087758 -11.0117945707384
-219.913556156831 -32.450092442737 5.17102539585095
196.630008564196 -32.9200596588505 1.57071938099856
-231.734739221157 7.01800972180688 -10.3683034491426
179.342635497505 -27.369545520596 25.2399959178327
172.479962931203 -15.8799333180068 -24.48586749078
-168.828446532965 4.11805949342317 20.3540904161769
-212.351847566549 23.9212039176208 6.93907909081751
186.819203441556 -25.0373138150029 32.6642441907637
186.938700830497 -31.9857611793298 1.05983009793272
183.085781102248 39.3344663838753 -7.88737249852096
213.725389881877 38.1613412641128 23.9271033570932
-101.47008044198 -2.1000207886511 -14.5885032263735
109.519286374819 -13.2231684014098 -24.5026954925966
78.91208688874 -4.81699598950729 5.05934681054353
-43.7495579777525 -1.31755894124612 3.74646175483133
194.91146187786 44.216289766063 16.9821896326875
161.198516341092 21.6865734471108 -15.4168239610473
-29.715632950715 -25.6394282100673 -5.86030497879909
60.3383900593044 7.38436012068897 -10.3693084055519
-103.703726988809 -9.76422800027227 13.5871979937881
-207.927653061687 5.90529603029151 -13.6424714980862
160.471547980461 -23.8400479844028 0.516523493752911
-171.640616658258 -24.6158833809349 14.3297438172941
-157.660875793842 -25.3029281217871 12.2216956748225
-173.6907304725 -18.5282208285683 -5.88413437705595
80.2132610357368 2.53115321389449 0.639563601685397
-208.802018830418 -11.5380965667085 -9.52318101036629
62.07126478224 0.0713697013129482 3.82744688269245
158.627162656585 -21.460066970967 8.45754300800245
-44.3320354722623 -27.640691438988 -9.33042647444007
-189.152302903326 18.8517109168192 13.7507334662333
-236.205765933563 21.9850977128041 10.992685125987
-99.8563203160971 -23.0245117390075 -13.1975471715321
-63.3252801421723 -0.151401407855598 1.79753886512875
194.883320140171 -34.6138432007443 18.0993972674925
185.094203046107 -28.2500003765015 30.0982378559032
-116.112020277248 -3.45619926093398 11.8924358711203
-196.856444864417 13.8790076541939 14.6768306849544
-47.5560434795521 -24.3667893944402 -17.231350109278
-111.743337878823 -21.3934631523684 10.5125542893475
176.980275132178 32.5104593786638 17.6499133257251
199.338990587867 18.6610616852478 -27.9321106653009
26.9083436085688 -21.9394919612082 -5.07334409177652
-152.834314056907 -26.2947173635407 7.02514754358665
-123.099563359758 4.07287107762168 -2.64215704431901
-139.666805778251 3.18645062784221 8.3687380388637
-232.401496104233 22.870006919373 -29.7777642654599
-203.719350998383 -35.2676720658255 6.30682264998351
-236.606287858951 -19.6432618893893 -3.23494310611211
-40.358706306411 -20.2254311732633 -20.9751383570996
121.684461590572 -8.37122245290196 -25.3171646014486
-237.106180611394 -14.9808958589535 2.74116924644973
-164.905556223102 6.87627009637847 16.525935431902
-201.616729105608 -4.10541276451352 -11.5796542176116
214.150812423053 16.2990730335116 13.4110278803157
39.5365227196911 -1.65818787536749 4.86438302215651
209.832790395318 41.2381882052641 0.489797181433937
-45.9009902204204 -25.7905234438099 -15.5841512274141
91.2011232533957 -5.02792368340478 -26.2148661004495
190.289216280401 10.6439772402048 14.1426869696024
65.0424280340659 1.36338751341988 2.34738758451084
-111.616216333171 -0.483611924617719 -12.6124391916035
134.503448972648 16.6596168239453 -15.3676504803676
204.9987881274 -2.62186831421983 -12.7138505039247
-123.688601130309 -13.8532509452732 -14.4755096153512
193.853595415701 -30.5910771677388 -12.212094427886
-223.456869898256 13.6905127772302 11.2684722272112
-223.732502190288 -32.9834002304146 12.456185296255
181.93018177858 -19.3504567228998 -31.0594548667222
-207.034035975848 4.45666940097342 16.9766195892528
-86.040054722293 -1.96453222514735 7.63265735368659
147.543182202478 12.4671893408703 -20.8557834685418
83.031036198899 -3.08441248475726 -25.9611966309498
-87.808003910141 -12.440492984531 10.2530008510345
185.444547911226 15.5201405227566 21.1439828995273
-213.580688243079 50.6440782867925 -6.28187464096461
-148.728079703941 2.65183844229134 -7.59678596943802
202.43536109846 0.00717573893970758 -14.5681908412188
210.887387686737 15.4110799379273 19.4892449272114
154.341868830277 -1.97873524953117 8.25485958720984
-23.3324566436639 2.42662946571515 -16.8972674998271
-118.106113400163 -2.90491227238666 11.6163869878163
56.8285733507595 -6.08781651286403 -26.0263967559648
-12.1098919113508 -1.58114045743146 -21.214263782391
-82.91357459391 -9.05988241268236 -19.1824021604459
213.272678070085 -14.4250494800574 -4.09166781098578
24.9932792177859 -15.8250408246898 -24.6375522261569
192.372751537811 -25.9995885350939 -30.3032576899269
171.504843905726 23.3297741239747 12.714526435405
-82.214605279528 -17.6884613125579 -19.0060134374931
-191.847779661129 -0.977156414226705 27.2662608663773
189.067602183683 -23.2648801594235 -32.2831328339271
-27.9701524893708 -22.9569750777508 -3.16367499786416
192.068948627388 -0.726118428950252 -21.8474039611828
205.304204990059 18.0318012310848 30.3919615551464
-14.3439210822665 -26.886154510317 -13.1463088166025
165.417151113862 11.1467108036568 7.80012336414824
-241.610575878953 47.2500657989561 -18.8718613204854
185.896140184116 16.9318399794959 29.6654541546251
111.669993861278 -22.1002226519935 -8.26060964339388
-235.232334988479 -2.50388844761455 19.551897629949
-206.647483801062 -17.6572360709894 28.8107135288409
-115.585065013672 -12.84463117165 -15.6915610741577
-210.917731889167 4.13232910685575 12.4700091074281
214.843376207234 15.6131568831694 7.27449981133858
-223.426544819932 53.4069913992289 -14.3356159726388
-162.385127599941 6.58852473944595 14.0807755839434
204.459890445434 -30.9102501412067 14.6522134192089
154.082436393126 -11.4740361498171 11.8296805046914
209.750630231997 -23.1065703274101 -15.7366118057004
212.680594656377 -31.4847291114191 9.97759838665889
177.858567333534 36.6100255897085 25.434664683851
181.211624398516 -32.3218100850811 10.1079477414071
-10.3620442393433 -7.67788579702468 -24.1544215040343
-132.18219457203 -13.3839629021418 -13.2942291840046
175.365389650494 -19.2477130139412 -25.6771544395608
-164.935423221642 8.18564219613754 3.52279379825515
155.829200142675 23.9468579824355 -8.76352784577799
-214.187389228941 -22.7024029043322 26.8742643534734
192.856535622998 4.66846866003609 10.8391983401235
80.890119845557 -15.0755885117654 -24.3421980857566
197.566740365427 -33.8121025114091 16.0640921678694
144.038243785833 16.4861960521771 -17.6462055931513
-227.397933392936 -9.19176511981517 18.7634499411649
-210.374314569895 24.2400889934534 -21.6473922262967
-237.904044421325 38.4388452675243 -28.1854485644339
-193.138296604564 12.5480474153261 -8.98407922952845
-194.974031762761 5.74825592326496 26.6287501457227
177.725449105127 15.7623592439248 20.5328568334578
-85.0343389431966 1.74208508246254 0.527118032466842
-230.618319201176 50.7941772565181 -20.5640866757221
-216.302510673423 40.9193310507448 11.4376458076421
-152.284287785452 4.26677445550262 10.3820215847282
211.102112283899 10.7183065531159 9.25083430536326
-154.611143926094 -23.3201061516225 -3.99968604522417
178.185614680973 -5.42141719138082 25.3758868614789
190.51852759279 -4.412371381269 -23.4461183445502
173.294867483721 13.5822504007242 -22.2500184517876
63.1223168178673 -23.2742203312802 -13.9232803032096
55.1856649575665 -0.897289393097866 -24.2226145701763
91.4518766095496 0.0524938593198685 -25.2220885613949
-243.513902554893 -7.55921638616244 18.301183156175
149.586156889168 -21.8401817028795 1.81819444693721
-221.214182085869 51.3907912273534 4.04173142891603
-5.06396314910248 -22.9287109340302 -20.2404641350194
-204.178504542384 5.88304346180071 18.5465986245339
-224.02736453382 -23.4378872004541 -3.63723472652157
-236.959690026513 -11.8564137491016 26.0141736488522
-222.198451036818 52.8898600116127 1.34286735824311
177.216463418747 1.64898919656979 12.413071489508
202.901687164962 -2.6113014610902 26.227454733492
205.468806049861 3.20020182943124 -11.826019396211
149.941584944478 -4.52232887729568 -23.4597440007276
-243.674901405853 -9.07245702673357 16.1054145260741
109.27031211666 -18.0756665836134 -20.9843734305946
-213.742619205512 -9.89761090042638 31.4620778973943
-177.606830707252 -13.1849767127887 -6.70034454565529
-232.61995925268 50.5078081410731 -13.0099314476362
200.924987471172 -30.4631940350105 29.3014817028615
37.1703670911689 0.597578713220433 4.43170498789259
81.3319750687794 -9.84552544627503 4.04370309492974
154.659602149436 -20.9439641083631 6.61832515723567
-107.232493263373 -11.1767766365957 14.5884220475232
-30.2768052202113 -5.016844604947 5.57174779917041
104.837928598564 9.04557404232063 -20.7904743109171
-228.405529274029 -19.6568881169522 26.3444500961062
-167.993932694089 -1.58200433798313 20.4016961035501
211.647782726838 -32.3989370576009 14.4548494231178
58.3280783760094 -4.77989379012343 -25.7659576240279
-209.54614087634 47.0913120107156 -5.6165880236532
197.724050972183 -3.07982543625975 14.6583705141089
-197.374033654364 4.81861432723188 25.8530475570755
121.888488643661 -2.07493021814961 -25.2931119660822
-100.025073280218 -18.2027316836527 10.581694184446
-28.9450862830636 -26.0984955855794 -15.7781691239102
-168.06801250298 10.2642282497821 15.3382615929365
-239.829168972295 26.4786291440972 12.1317353286156
-218.502950645821 -11.8420542459124 -13.0477937548216
-144.180057554826 -10.1054135388919 18.2032020520874
198.730738091624 -29.8452244095515 -14.6020914595506
68.2272057641611 8.18103486423551 -11.1590754621907
25.0455645079138 -23.4576439437996 -18.8280106516961
210.191999123614 -10.8184627965735 -10.4276146684255
20.6684350216979 -12.454823873586 -25.4710154130599
-131.91849410072 -13.2948879703329 17.1215297162713
170.78236254737 18.8384965180088 -20.46386718066
-128.593405737727 -11.0151796237116 17.6308511719412
-75.5629584485777 -26.9110737173249 -4.47851889286509
-178.286013462275 5.37983490834254 -10.3282564978927
-190.270731548469 -4.16896620941092 -8.91533641879921
119.250390939166 -15.1022396624677 5.12654302665017
-12.2330786036561 -26.5026260985566 -14.8088017444499
-2.76044837659009 -14.4728193008486 -24.6008858127142
85.6619801731122 -13.0721546417614 2.41486562965636
-238.246918011781 -3.36395631734314 25.4344735240703
2.81170235784344 -21.6448699267514 -21.3519886735278
174.321952174457 -0.560440404115333 12.4678564930984
162.874626671168 -1.01676887734296 -21.4948659476525
138.00482984027 -18.1273724290066 -20.0761398177085
-135.813919362674 -24.1609399393005 -4.9078498803275
-191.733240695517 9.81892211364095 24.6034483695484
75.7739737066865 0.814788718548113 -24.4020022476309
202.718622835514 11.2133930235423 7.45811440820369
-210.014515048834 46.4602678959561 -13.8041105170888
123.056287534716 15.3981267379123 -7.24100836617275
-46.2998629073204 -16.2738488480743 -22.291042020232
211.685883455522 -28.2100030074941 -1.07469831091256
-216.129329996779 -22.2451443677976 26.8816849275115
-231.339223467847 6.45535364864948 -1.17355399129821
3.83359274926762 -20.0944104593646 -2.62882031657628
103.789877132773 -1.88729372641091 -25.7803649506424
75.262948542802 -21.4595847397562 -18.1078637713899
-234.040102217784 -27.2053306177741 0.661841263864304
180.186394245682 12.6487801308775 -22.8875176969022
-57.2731375558415 -6.58596693103294 -20.6391775855774
-246.969528510939 36.1151674314711 4.73332639558725
109.514305272239 -22.0890535156257 -10.8200590337655
-211.545431610772 4.1483278147184 11.735107246954
-215.958523039753 8.08456674513759 -17.9929147395366
173.657903192729 11.2903625151147 11.9003499717696
13.0603570845525 2.27391311717774 -19.0907005416878
162.672493784364 26.6492487746768 -8.66628213076314
-165.518292518698 -20.1692256787222 18.4647804054392
-150.632567375341 -13.6829314028042 18.7111473497048
-212.422259606395 21.9244074991797 7.9239690393122
194.766247726017 -3.400327239049 23.9115240691669
19.5483251056163 -16.0434759916866 -0.509579275822515
131.94425875555 -18.4501988895579 -19.8298914191176
68.0532228469242 -6.88185792222955 4.82374170983817
107.942767101296 3.52429616442862 -24.2636100143321
-228.278693223803 19.6368839547124 11.6804210046293
-219.387769265994 -5.92541791275375 19.1000389567202
-201.886135650676 -8.95011181458917 30.2884105428872
176.744410934561 17.6671650145861 20.1035943537032
207.726703337369 -2.19944309203491 4.68244067734832
-114.15362750071 -19.9480083489264 -13.6376811379079
-7.31139582838506 -25.3851382119689 -7.43603899829011
188.328361145296 6.03855354172137 -23.5891765164968
175.955885497292 -10.3378217400774 27.1445016053684
-247.347567316015 21.3793794644532 -16.1690950054824
-130.43616011444 -12.5158731870037 -13.6714779080487
4.70004122201022 -17.1751307688669 -0.840482021577362
158.489380146029 17.6043725150588 8.66518086915061
-179.234972859774 -25.7168937428656 13.7971560193127
-231.118049979821 -9.20571982912159 4.28674864973598
139.363128531294 -5.48126860873201 -24.482549028084
-199.04370467153 -27.8325174549912 18.5842421787597
1.09006127227595 4.52947554455909 -13.5310934166315
-239.672963674051 16.1243949602993 -5.3629166688282
201.79617958279 -27.4091219058401 24.8922291010626
202.715591257049 17.3300032138365 23.301402256044
194.608596890796 41.4221249946971 34.4080929707076
207.507481230587 36.3892598028333 -11.5795794784889
189.67622301874 15.4008716419446 18.1542793152681
95.0706245654909 -9.02405838625987 -26.0338228741681
-218.218620276061 -8.77060237727637 11.9259993994881
-129.861239282667 4.00126066144063 2.02079438644243
-207.603272896168 -33.1076388651067 -0.269406593445638
-24.1597844654835 -22.6118473815608 -20.0381186182846
186.581064613557 -7.84379359354026 34.2500167700876
-125.694230943597 -7.84414023082767 -14.1447034925028
205.576043050074 -4.48379897704526 27.0350410610223
214.867823045499 24.1829457408195 21.9167806363872
-235.233384745444 -27.6612971668906 4.03196240111236
192.476427659833 45.6168372582516 8.03064333310505
-177.522270399816 -18.675810361848 20.5065253114103
178.099092335343 37.8879205445135 -6.13077678692463
-137.571185523669 -3.71806210882963 -11.7961240205261
-47.4623815526085 -14.7808993273173 2.85987800977922
175.574040381277 -27.2969333568268 -9.41325187385913
194.95953578822 4.63584293404107 7.75824433575816
164.993299172502 -24.6992090679063 -5.32519167825773
-37.8427515176982 -13.2908546247892 -23.4334825378045
212.053954042444 41.5027351020352 8.06872880445525
-236.709692296894 -14.1708246550197 4.08161286615801
-155.889692137685 -11.8732311637168 -9.91819672722033
77.6370907584492 3.2766555752679 -0.314772141250838
-230.548298285646 -9.00211802446789 -2.06630718859146
148.772081628182 21.9711610940673 -0.851554077336326
5.74481189606533 -15.0716266106384 -24.6868002597616
-117.289725038672 -25.8638783727719 -3.33183135058599
206.017795924779 16.2594181129639 -21.43161261164
-1.50004054677967 2.45561458337553 -18.0186328282346
208.061148323291 -10.6238314865768 -15.0462131892104
36.781870400793 -8.8321362291288 2.57260822507732
-235.962572668788 -15.6126763706864 -4.36871384233366
-212.391988635929 1.90156946936566 14.2551885956716
-236.367004579532 11.9684634415653 -4.31998496858784
186.240031526724 15.9912077494085 22.9314870182357
210.289211401779 42.5789821054303 21.5661473709821
-230.372121929899 14.6624396519927 -25.1655784305353
57.7698438785816 6.47233169701649 -7.11791798653604
-229.252391267629 3.16227196580495 -6.73099684974286
186.705906527237 -4.5249659311619 24.0839359413844
209.677180083465 -28.5216610325909 -2.09707357857618
159.590801816658 -2.52675145118173 9.07639964072633
206.142972204475 -28.8387699284654 -7.78173051869731
-237.9305743079 26.1180841886245 13.0795135645697
74.1448599726225 -9.17484684670269 -26.2471832689605
180.428777478062 30.3625545342351 30.6197075780992
-227.858059952818 50.6473805597626 -18.0898320446497
207.93350210626 38.9369470149521 -7.67007233927742
-233.838921854839 48.3648369574192 -21.7540682712285
-200.155002152374 -29.5376735160159 16.9673993052117
-206.969269243618 30.4473884310311 -17.1570525231799
-212.103382736235 37.6875463085219 5.50747957817956
-122.728523972859 -1.57230697017757 -12.1829061013616
2.49662385416383 -14.7510639543429 0.414736242399856
212.118298069488 15.368214084515 -11.8542446009149
-79.9683867347848 -23.4098776940245 1.55731894914759
-8.89327232132209 -9.30387093135057 2.92918156501063
-183.673769785628 8.35513089952997 -9.23352271611435
-146.315002399372 -11.317433045372 19.1103937522859
196.562051919969 14.9841052006334 13.4322451228916
203.635165167028 -32.203396928023 11.0282711318325
-229.433547757296 -7.89568298478515 5.91275860377279
41.8679609369735 1.89379696751551 1.23624542372606
25.2761784820149 -18.5174168324852 -23.2816471476014
-198.058535813909 -24.3466083777667 21.8832478441675
203.07894356556 17.6814628458115 18.9348525622752
-214.554807452953 -30.9666929095912 1.74725789541086
170.893014353752 33.2783426013879 -2.34754741732436
-234.238829823544 41.5352144143818 12.5381046506158
-156.512129643369 -18.7273444895177 17.9955354285923
-185.74698213587 18.249811811873 25.737699590836
3.23947468970603 -11.5026063718965 1.70563229655371
-228.785732483413 22.6809031079052 -30.2690925993807
158.829738317136 22.6183694634304 -13.4265585909603
143.555248118829 20.1538799052472 -10.3332611682545
199.4732065806 -33.7227388548606 8.01803721472335
-146.740142722629 4.55108200413595 7.16926342236498
201.362970826377 -32.6209434456896 5.69060390534112
-211.281073750729 1.16787354699287 20.2569770476784
177.438312382108 4.47940166075424 -20.8826271593252
-154.295646643378 -26.2387390891245 4.34759695384195
-111.371474371887 -25.83134939647 -6.16728487643072
213.590534529047 40.268458262255 7.40471568180589
-217.601306086845 28.6305766866751 10.7637776505929
134.158085041566 12.2097225376132 -20.5413508935092
-175.902369352711 11.423067546801 8.18604454628895
123.563197625269 -4.97520618122367 6.45931352392534
-220.035703437408 27.888225520116 -30.4270823800613
-57.0535081312018 -12.7664077369419 -22.0270310620374
-120.690555313124 -6.23249453224913 13.5078460651464
186.613379601547 -14.448790720623 38.0620531324846
-199.626282297709 18.0267217607633 9.10535657565108
-242.958175053111 49.3979003304215 -11.8277246824155
152.743173667897 23.6031617126662 -1.17469977079527
177.919694001664 -2.18850626526721 15.0445156462072
213.671229682284 16.1256861988056 -9.73093026795834
40.411170039051 4.05015794665186 -19.1071448956881
181.982864977061 41.7363818791347 -3.71694831794042
56.0272546015365 -11.987702828499 1.67332946560443
90.591003786516 6.06420668345962 -2.29324767873199
-242.987313378984 -14.3841690611021 11.4488288641442
125.503833214382 11.0143834591786 0.263940551547738
151.896090807215 -21.9131849551225 2.67639825694348
-216.533059577413 -15.4760311225635 -9.69262512969105
138.951277634332 -22.3232752010873 -10.3631170622925
-75.5107668624442 -13.7084140057079 -20.5054727708241
38.4733720977817 -12.0556211247063 1.55934698489865
-217.729208653407 -32.5915094955961 16.6512516253509
10.5652371701482 -19.7778623558115 -2.51767962255619
152.62643521346 3.88169306766182 6.74825942679707
47.7919674524078 -16.0365173668654 -0.561541973128242
-235.066787441584 27.0237156674368 14.7804943600594
176.1979956842 -27.3022869529409 -4.59153065127305
100.212649823694 -21.4651330849481 -15.2800252074393
193.48607447637 17.0254853745689 22.4015593145404
15.3607075140491 -10.5317232014406 1.87676275200515
184.386238986983 44.4804788854364 17.6880978538547
17.9493352805753 -10.4365583726078 -25.485802315908
162.610047893657 -20.9043305816302 12.712587935736
195.575174730603 -4.13119832067985 32.7701135095375
34.39301561564 -24.4914995662274 -9.96163626174963
202.534937281818 -16.1728295704275 37.776375555518
-240.355309025111 35.9380341232735 -27.5512671632006
-204.581980253174 25.7219795674864 -0.749531210520026
209.079812963981 -28.3538507381136 30.6023678377738
32.2150195860266 -24.8923271428116 -11.2203898770635
-220.855219065024 46.3885701394 9.9019574800543
-130.01306683809 -25.9263013185248 0.142245154838596
-180.48096843803 2.69869592671097 -10.9659736253437
-214.765254799656 0.111892448092156 26.0515691020477
200.31716304248 28.2802924213092 -20.1064692328637
211.31669203486 -30.9825890713048 22.8848761430724
207.322245313638 2.42073279824052 -5.7943946742815
-35.1978535701222 -12.5590929840651 -23.648481904128
146.275853967987 -11.0744593011591 9.65822800765437
192.160041112636 43.0268288529962 32.021597674032
-92.7117323390443 -18.1591452138691 -17.6343435445153
198.082677557686 -29.5819649673294 -16.8629743991145
-206.034142161767 -22.4632954341534 -4.22195308592348
204.93745337772 17.2165550508685 21.8169229211134
-147.002131969299 -21.2903946668195 16.0619823428917
-70.5071501394195 -25.1288383458697 -1.51873466131817
181.267214293739 10.9944380498097 15.8782955688756
-211.606109484122 23.7882477643731 -23.2892410026858
177.977537738402 33.694361624915 18.6572739588647
18.1694080100364 -25.4745942582513 -14.9765465560911
211.153176361213 16.2988314824696 -14.1600041429627
-232.738173040827 -11.2752593214661 4.00651931895355
-118.480426203338 -7.08336958740355 13.5793197108111
195.652191739652 -33.8548856897644 3.99276854297433
-180.37949319272 11.4175471758248 -0.684873311977457
-215.163796981826 -32.1790584619099 17.6702517077456
-245.661172688418 35.0308485533128 6.99290393030723
185.844419698742 -31.0728696859187 -5.409781170967
97.3627679388986 3.23052803871102 1.67200639970034
-215.230003835612 49.748035345179 2.29889640054114
103.305227417952 10.5687954502346 -5.98659502401827
-156.84899791044 -0.412232374174037 17.0803261230109
186.531568406919 -4.34563551217316 27.7794700330723
57.4952871549491 -13.0521529718611 -25.6324791949075
207.018213186559 11.9967476621925 7.53419095676424
180.117892884391 -1.55350347521085 16.6204437615036
157.204947635234 14.6163958678027 -20.0895746812779
-233.811267554735 15.8876251442956 4.09212568083013
-185.966335711486 -17.9283967337584 22.8705038030282
209.843648147262 -7.52855052242476 -7.20266677546442
-239.644494751024 16.9675498964527 -22.728916667928
-147.836027271717 -6.97257917939822 17.3143308821026
-200.515425520853 -20.4806869865006 26.272262025233
-192.358665673199 17.1979894574423 -1.35678308457229
180.090595566146 -10.4502249735176 -25.042854524396
-85.0129145663085 -10.1396893051569 10.7634159424316
4.35093951052379 4.68411419693585 -12.6953856849354
179.925833279513 -13.2516241574598 -26.2328666529343
-10.9217606577315 3.3951447104502 -16.1979699163524
-209.008816872541 -4.21088535595642 -12.2296153471256
-197.79522794239 -20.7163415342178 -4.14829646810808
-243.011804688805 -15.0790657383977 16.9097101174103
-231.331676814624 54.2938889007881 -2.36784572555499
193.09171439099 -29.3530125785662 -18.9950284873985
200.184552072173 18.0164746341353 23.0252651860652
189.785660519822 -1.20962630417954 18.6681958909749
185.296737567866 37.4313997849432 -11.3758261319932
-226.272984169786 -10.2729452833777 -8.95436664508369
53.7634287244389 -15.3026549181634 -24.850647337624
-97.9019989074728 -26.1091055692493 -8.39312331576216
-210.583949687186 -5.315373151298 31.6878818702096
140.659570569082 16.9852837080873 -16.4811590651917
-238.185506617228 9.7580009121669 -11.1647752171914
65.8430667593948 7.77867171988899 -10.0495464788603
-18.1974299482159 4.06087445790495 -12.7454904182235
200.365436143162 -31.8424977439692 3.59695544305013
-238.095697635642 -4.61750070553538 15.5650296386149
216.83319846215 32.8607070730343 -6.3837411801586
104.141472082464 -14.7228609778951 -23.9369333990556
153.421641164254 -22.9114871019744 -9.18506265291463
213.14649999751 11.9541006809758 -4.42372899089324
201.908263503893 13.4737951647991 10.6719262094184
-233.941056119865 10.2925915019792 -3.95734074621982
160.274599010637 25.4222620901481 -9.34907308983878
173.638538650084 -25.5557474481168 17.6372665596166
23.604103502662 -14.9023832971463 0.0717319117907446
211.974982877219 -18.3948408214625 -11.1832312557854
-80.5892360003999 -25.2185327718682 -13.0257683735537
213.847597962487 -28.9781256574346 4.08509562123817
-173.864813849531 5.54173728511077 -9.61084748435325
-164.026609619523 -14.5850234276755 20.8115187241105
25.0653191247732 -0.298526383514438 -22.3176676467646
-213.82652231242 -20.9287725069502 -5.98012972781295
216.374010103112 20.2158514849244 14.1306842669733
-230.033792987424 -6.55193843038958 -1.81478691306343
-229.055810507885 -26.6198770838126 18.9115960125363
66.8391353852965 -9.18306683555677 3.37089558501026
177.377893453351 -5.08470804014449 17.6313601903065
195.073322150702 26.6763462270743 37.0224426305888
205.775175733859 -2.90875130860235 18.9997939007584
-140.535169966129 2.34339051773103 -8.10694253900085
78.9381745256 -1.83801338830485 4.46085808789773
190.309834472223 -31.7074831888583 -4.72446231479836
-127.482180650656 -0.0162278686194332 -10.9860928010462
37.7359533603531 -9.8310269533552 -25.9948403072676
159.655667990544 -4.61207053981192 -22.2726849215624
18.7007784630889 -0.724603833616791 5.09133440417227
41.5302178449913 1.13025080646572 -22.2121541197321
201.086305143392 45.0408198956859 3.52890689178218
187.020552541023 -28.080018324047 29.4798707354362
-101.249491951095 -20.6562789881453 -15.1761559937912
189.769205634079 35.4221348355768 -14.1081047003227
211.030330576568 33.7040145194794 -13.9575068623559
-63.5678137659674 -26.6201321636876 -4.85758585970416
100.508742954008 -15.7029281137955 -23.4172582927658
-18.9402905316681 3.2674332759479 -6.16511825590508
-198.48203220901 -5.03720707522035 29.2488861384236
-158.909826026822 -5.9618377077189 -9.79290809916222
154.28235698266 -13.8334273977674 12.4639612921208
181.63823967722 -30.2511494419918 2.79936601714848
191.750311279685 45.8075523996859 5.33554121770355
-206.250414399602 -10.1388699511234 -9.80523936564723
-60.4909262362813 -1.09276244990086 3.21552538422519
-204.100990765093 -16.7745016470391 28.7338311071413
-199.922840834904 22.5388622211024 -0.623800216197285
-107.603309294143 3.59950648186651 -1.12559503776184
67.5162449695645 -17.0327201862861 -23.5062149050048
-150.499094447954 -8.82501831464291 18.4735489962192
189.266062002733 -26.4299664470696 33.9271813913661
-212.671594566 -32.7348313173024 2.19390232831278
-89.0012939789665 -21.3189184583477 -16.2002798772325
83.5670459884764 -11.1045265846477 -25.7769578493482
182.204061711049 43.7339929796492 1.23007010308974
210.450672529401 9.59637426307255 8.05357839968518
-182.328688899749 2.98142879505161 25.9730098036154
-200.288011296226 18.705523324769 -9.07568574120354
217.814689633904 25.549382352214 -4.38285222483239
-7.49985446238707 -26.4074822110602 -9.68152483671041
113.910879509636 -2.09662564643726 5.62959963754243
29.6841313071473 5.54048911318953 -11.1869499116331
151.879851406812 23.0913047531206 0.70244214538395
67.358328250269 -0.374281576833267 -24.5113364587226
-188.944250950602 -13.8489858150488 25.1808574728706
-213.653169818076 4.84172331574866 -14.2812789476673
179.118489021925 5.57525316464863 -21.3487102368146
-197.772776480836 3.2649807566869 27.5532195593318
-116.976812969623 -22.306055393747 10.6311109773667
205.313033820288 1.35814060769907 -11.4605486453285
-103.057605073306 -25.2573142278326 -9.60526031768199
154.307329005568 24.2734182448737 -1.73094301353067
102.642598093362 -22.0488862930566 -8.37282465266649
192.156292174928 -26.6241616463793 37.4874131469427
-181.074426525764 -14.7877961717767 23.1365446526251
197.60307894635 17.2316331622465 32.0749903116946
125.254578837803 13.3331815937152 -18.6072849699472
61.5142849854754 -12.5924731325278 -25.7344339701134
88.9753275310341 -21.6171729088595 -5.89284274350266
-232.249815349075 48.7346450597944 7.41175791475045
22.3147914457316 -23.1785479338099 -6.27973413618322
-11.7197163274958 3.70715895731058 -7.34988231065803
-213.508004339048 -24.8716388691356 -4.57904779043147
-203.045207586338 -31.6318464087603 0.451422701012999
-185.194255337654 -7.1134089853894 -7.52100785650532
189.917914236832 45.9368435072372 0.0352786936605242
198.984021222182 22.9491686458302 -24.3055630235417
110.658148222887 -10.6554444463897 -25.3407185674376
-231.659357256157 6.42930827811882 -3.37187593035017
-225.949806332357 6.85448462540098 -16.5715886883428
115.421083181809 13.6168518915087 -7.11098469569726
-235.228261745709 14.8462920092654 0.259036573384543
215.329354326473 -28.0846910148744 16.7022345448144
-207.096804426224 30.4714306474614 -11.5694431182452
-185.79533445771 2.41340531357924 26.4247705245101
193.326254135458 -35.1622450948021 8.4678707682263
16.1184074654878 -0.910565412456396 5.05836565596887
79.5712316844267 -16.3487895384638 -0.143606428243643
185.851760673879 17.4902734484251 -24.6538649055174
-221.990168620382 53.7997335039029 -1.55436115403776
174.433937132209 -2.34312091916764 13.4732276374753
97.614332426991 -17.4202636193236 0.334801499169078
186.37564334063 -34.0663713493624 18.7540752405135
-111.764952151181 -22.3487151064971 -12.1265222355647
-202.008797682261 -28.746798573989 18.9137824018749
201.170265650325 41.0799516585966 -4.66528845377476
62.9904403376668 7.74130023322418 -11.6072425719295
218.40660754632 35.1982147830992 6.73185025699699
4.66568699291777 0.731253891249759 3.62436528926211
-121.308940143131 1.5870740070815 -10.2339590320848
178.06303845646 -1.77689373793056 -20.6285538803692
-183.947507960725 -22.1389385758206 18.8924388296409
178.420108817153 35.0511317969916 27.5481229603183
158.27416389083 -23.1352544891218 5.39316073519315
29.647610072632 4.35620980661271 -5.05268932144034
213.633111278612 22.0249593137004 22.9759967754746
-199.824379085771 -10.9428002236976 -8.28840259230623
-213.832337647905 -21.455032507043 27.6512460387765
205.074015559254 14.629696289731 9.39823683869675
-217.433652430734 47.6327239741592 7.27509852997966
87.6023110974184 -22.1761947563346 -14.2639430443076
-222.635767652252 -8.09049298629392 15.9902648023405
164.279012460702 -18.22126209056 -21.2398947519457
92.3670991175713 -22.0525373415044 -8.00836005651646
-66.604482309122 -17.222676096507 -20.5134556579198
-5.8871630757523 -21.5742958965191 -3.60212367574527
54.544821822419 -23.8885377180712 -11.6405470537861
-107.828804223445 -0.177310020702746 6.99621776979843
167.042072996419 0.617615614768219 8.94358190451925
182.290096199971 -17.2076480064367 -30.5272655057925
-176.107243591749 15.3294908115438 13.0024871634416
-151.367093126658 5.81322197285058 1.06686902391507
163.124160903097 9.85441770669838 -21.7296762333578
-208.673272936829 46.231209661394 -8.189084646954
-202.147510260907 15.0963731456763 11.1072400762162
-187.035382816855 -0.969430040212208 26.4681317407557
157.244992195065 25.8723478307876 1.5817358141622
-209.541862513191 29.0073028059457 1.06287160849769
185.446745450249 -23.9070065471419 -31.2239163648563
-238.110568092226 -18.8505874064237 -1.76336243875317
-181.770694997611 0.145883980684313 25.2664091836561
-45.5996252443874 -10.4859616555828 -22.7992436820377
213.111102367825 -16.1165718386784 -6.66229461293147
196.51544856667 -35.3388569752027 9.9449766674046
16.9971736484435 -16.1084672636407 -24.3406332641115
182.625657628574 9.32786533021928 -22.9898833761045
-233.881902753468 -1.92760389164592 21.6771618760329
-219.75254800703 -18.650078909792 27.8797025052024
181.055528876949 14.531906866987 26.406008921429
-88.9123188415031 3.99244920467539 -5.17488708848879
212.188414680815 -10.1538411623563 16.7352425293597
-240.622765604845 -9.98332783834716 12.7990912172714
-36.4082609207419 -26.2665909149378 -15.3897063315789
-111.686315517744 3.70704626807108 -0.936144264189003
177.4671970771 -27.9593682966733 -9.32902685503869
200.311904664236 17.3524369148454 31.5537144886068
32.1844184584003 -0.210854133827466 -22.6377141481042
-49.02624966842 -22.7408496134381 -18.7136622273072
-194.520112422156 -10.4502049540904 -7.67677206411998
183.251034519349 -0.425750231995902 17.9555975198018
-25.9731052438968 2.92660754366061 -4.91824823255408
26.499321287922 5.42195343982437 -10.843331348492
187.780016166075 15.8921113838173 25.5758296710828
63.7261642795404 -13.7351720494062 1.02793950900954
111.781249370519 -5.63247180272877 -25.8647241095258
151.78020791346 22.5767544457131 2.28303828841804
181.752793886928 -24.1585215590648 -27.0039217477613
198.978793195326 44.0196183794082 13.5601954049675
-161.379571353801 -26.3556509911816 5.17021575019726
-92.8720533361161 -18.4503658880309 8.79850620756519
-103.264374551106 -13.7576628714146 -17.413049012398
-59.4012010502323 -4.49927519945786 7.70240972761681
208.953129785059 -17.9843055963746 33.3346901986289
-217.510506381102 50.8797678931131 2.39064553952811
192.929301373211 -33.0318633541307 0.520214196646446
-82.6978519700253 -17.7056566845356 7.02084652131287
-231.169797823287 -16.8496726609995 26.2829536108731
193.159405338958 43.8394138311785 -1.81286802368785
11.0726259645487 -4.84840280972978 -23.9201732590683
134.667573110817 17.8415440846407 -12.2446075087023
212.769139814381 40.5469749462236 24.2622680922736
-134.929595050316 -8.29198166638009 15.8864326081918
-241.201184942525 -7.06000002453427 14.6200275125566
-222.91072201164 9.27228432569337 -19.3265849758423
-235.335942691468 16.031421609496 2.6401794235103
162.595566183485 -4.77115184911392 -21.9114799987039
-223.919403070824 3.41222311489482 -14.7496695909124
183.416548632146 9.4753707035166 15.3777803359451
-209.752032432974 2.62506426118921 16.7043575189443
129.319668564068 17.0667284317972 -8.15975324131066
-199.512950555248 2.44473187323447 27.7957823021611
168.601169011027 -9.25798401004375 15.2414965818769
201.922852486799 2.70485628919983 5.96595305219499
180.089242610721 30.6664886295305 -16.1707955829614
180.622209834802 -2.727987803275 18.4726971161085
-128.313535034712 -1.09820429786959 12.1390495422135
144.341223646489 11.1400895849329 4.19634580125673
-173.359782320587 9.83951635622042 -0.873618679295174
151.660233997353 22.6151266246049 -8.71706765608584
119.503190417807 -10.5973432326719 -25.0319094260084
-241.111737567323 -5.41731238043214 23.1810117626463
169.287131151424 12.8969769821779 -21.9799800254631
160.401784656051 19.4755329577346 -17.3308698112351
-121.441132489519 1.05244817077526 7.48661844819949
200.964697171086 44.439378854054 9.42061416498752
19.799902332813 -5.40779123722694 4.81895903146478
163.008036042387 -16.1743140752139 -22.0458366492429
-65.8096349066472 -26.9229621122148 -12.1905433925514
67.2342147778559 -14.3745662961768 -24.9902896809092
-246.231410307597 34.6396313239862 -22.1234508842045
197.702853685284 -33.4164576176424 18.2513239482443
-216.020791981115 -29.1558118608105 1.23083916513181
79.8423888564552 -22.7250655030876 -10.6449344461908
-191.431813141793 13.8880641501397 17.9135648064584
-214.828182805663 17.9343126909146 -24.3090962837649
-219.891656958198 -25.1522102863766 24.0808789380177
-247.009383731069 27.9863577996496 -21.0304649534248
123.923820934628 4.18590107191543 -24.039625567344
-62.5930279516666 3.41276106842995 -5.54002056612921
164.965916973079 7.54913800364554 8.48185969471651
184.422542255273 -30.4046632496247 -3.31203607385488
103.486876077048 -20.3748654247878 -17.7752441987343
176.19292006013 16.407993035219 -22.5939534358948
3.52522464740514 -26.355096895034 -11.7439682639445
-102.568351589757 -15.9035686754805 12.2637241255701
-10.8885380277599 -14.1625658939614 -24.4008204162167
181.263304669632 16.5340062476413 27.9471815646759
133.02213642115 -20.0418891525005 1.60917822849039
43.9670905576103 2.15312446367096 -21.5735468733169
52.1665951776752 -20.9954101171372 -4.6587237282107
-215.493409047204 -29.9927003268735 19.6903659628851
120.361633708211 -13.1110118785587 -24.1815532793605
-211.003141883832 6.94326020848039 12.7094223589767
-247.81526954211 42.4721034472595 -2.95080310815323
191.956649499688 -30.4635098820154 -14.0022514182531
-182.354425866895 -26.3220294087601 13.4596300561314
32.7047941553165 4.84886639887506 -6.07332210327357
17.370940213348 -6.22286777283423 4.09833922843442
176.811943757745 40.9120588547086 10.2418681465124
59.9913803737219 -5.72773682379965 -26.022420553523
76.215498319919 5.39412784050064 -2.94404982054173
-172.684810832503 9.62456032674109 5.94534684600031
184.439585809011 5.74826272556646 -23.7933160780912
-25.285083855644 -13.6978627737017 -24.0383566591813
-12.5180036996388 -4.85476306409142 5.94633205327125
-214.737500494339 3.07507392358427 13.4394706304672
38.6051380198332 -24.8334531932496 -13.4790743838237
-30.867440328834 -7.16074231231854 5.58487670056322
-225.02386246453 -2.56647891081967 23.5498613672965
131.263495629894 -2.23060315588236 -24.7813666231668
-185.196810151313 -10.3400770857608 -6.6983840904917
211.776835277353 29.6505379832724 -16.2317604165248
81.1394279232433 5.14042543138268 -21.871974692493
-3.6625338846059 3.32730377252593 -16.6730754677403
207.420637882892 5.45362954520625 -8.96939483569645
-213.562084235844 9.79598280472302 -17.5545935322842
100.296403978024 3.70742629293219 1.5241880903634
47.6888608565228 6.47439494386508 -10.4486285390447
-105.504249275518 -26.3992223131041 -3.45228928020824
-182.464784420672 14.3537710668125 6.41626464655687
-223.380278387934 -27.9271369120584 20.9780665034005
15.6252295255681 -2.40061935886762 -22.985597199765
205.523042369338 -30.4604252464157 30.8947177714042
173.902204668298 9.89346954518208 -21.9373254020542
-206.785023260345 30.3164370030771 -15.0389350580758
-240.947540450023 13.8275041459469 -6.84344874500826
78.4042031510381 -9.89833037657651 3.7314574339642
170.29606874335 -7.08607077778644 14.6435624930026
-198.733146242641 20.203604775883 6.24047172392831
-216.632731425108 -9.8583638535849 -13.0958599432841
-149.906570939371 -26.2417935971313 5.47449751918794
186.566800553263 0.481665327064949 17.2046292024228
140.053196107174 19.7189726830372 -8.21471912111932
-180.445503854564 11.0324957754075 -2.59842083825059
208.270670871104 -30.8408437687519 25.8445460456082
-239.157862516129 -25.3204457294835 4.74673177574202
201.814309956972 37.3084698136741 34.5416535914677
41.2734893015799 -15.2173527955824 -0.0486966597714913
-216.468464631399 34.060192947113 -28.6315594600519
67.9432799619558 1.89191459283804 1.43361021387278
113.21156937278 -10.5136990790719 5.81154620372365
135.602835332297 -5.21814573521419 7.28194425581094
179.249020583644 -19.3203647591633 -27.7198335588348
-135.368258875086 -17.6684201171633 -11.3563665375937
-223.149126215949 37.5340012850884 15.0717198043392
-250.812385835699 35.0433949618241 -10.5338983016577
157.067179530508 -17.1880947611 -21.0184295875928
-191.61712706467 -25.0465296261234 -1.65505562514664
178.254309101266 32.4904320136482 28.5189194334029
-160.714701008979 -4.26166341504644 18.9253761512308
-224.420726698992 52.8931052013326 -15.8027720251736
-96.3464396781842 -19.601548190915 8.77836018277367
210.641686756903 -8.56932863076755 19.6722012188995
188.213155042267 17.2944083328453 30.8679083446402
203.646240104353 10.4147704024802 -20.1889600239308
-234.96447416678 23.6186960368731 13.9571759846872
-46.0756176484414 2.28921718622381 -3.12164941840824
43.146038449779 5.67528538495781 -16.3033466094358
-233.530779126827 15.5442393996394 -25.0414544600286
174.566593134277 5.67524141190794 11.4013777899554
-207.431380723502 18.1114823435996 -15.6687309761387
205.145202163445 -30.2278883069523 18.3263488036215
-104.517937411497 -4.06245148838335 -14.9439165209699
-230.412562520411 -22.0211156063975 24.0371325681439
186.642513376699 28.3947873224735 -20.2529901128853
-234.181356848084 21.1186698425509 10.8549283031951
198.808346851142 39.4401171699458 -6.79195440409115
-172.721686875063 -15.002919237131 -6.95915754378963
188.988324567408 28.7451394028368 -20.1250517909491
133.81816730827 -18.9625410600549 -19.1448718549205
212.832825179321 -17.0947007908411 27.045372962936
-197.519370145539 19.9589076047239 -4.7565059661148
-209.219684932185 -22.9668846507832 26.7264548384814
211.589571442169 -10.3159479959475 20.3645983676652
163.318558372792 27.6871152832018 -6.80469568152233
-43.1164778297232 -15.2783132823666 -22.7701687764197
150.259126171699 -1.5307020988612 7.67015415404792
-211.71222594286 18.2575695480935 8.94723631587553
177.123643729047 -30.3830914257244 12.8207074844442
175.701824955048 -27.8406953102842 18.9381388589706
206.849664557196 14.6351880973328 9.29449668800772
71.7622356716533 8.71131271549565 -14.0057651247251
-215.75912660604 36.2476130672721 12.2214959126041
-172.624617392454 -26.4178636603661 10.6782317629252
-202.906772178238 3.70299628167163 22.7991311696863
174.569172895331 -10.7324561726013 21.4589385744217
202.337307829517 -3.93944924278812 14.5636655086381
-207.204446219621 -8.07455616278632 -10.7891813629505
136.176477740583 -9.99295675284212 7.96776160650669
-234.658279394807 33.5946980237254 15.0326803870733
-80.2219073212901 3.71583622213874 -4.77198676673632
169.577603033849 -23.6926765976531 -17.415525413285
41.6759765174049 -1.64875562248528 4.79137535829334
-118.273832009903 4.05605995669367 -2.96370547947573
-227.944775307167 -5.13937078809481 -6.97591698339086
213.484218360499 -29.5886081067123 22.0917504654631
-194.811945692731 10.3040799014198 -10.4575991973881
-228.183056762228 49.5001780911802 -16.6091136226289
85.0203176245741 -15.0384122739521 -24.2910076779748
-211.48045946777 46.6715743332915 -16.6905140555579
-216.936770674384 -0.793972148977556 26.6206571594371
-12.0093541982246 -24.892440381745 -18.0308129585276
-245.474106370072 21.5944125774468 -19.963598623118
33.4382863829164 -3.08729464461262 -24.2023578639744
90.8902676790429 -21.9078570941204 -14.9534113780661
-198.296881473664 3.23612155094416 -11.7307207894937
-81.2600730992502 -3.20846065031609 -17.2116385771431
166.546174449825 26.8526546454703 -11.5245725104939
99.6787411347256 -21.904852828724 -7.15059655318782
-91.0555044139157 -24.9201937642398 1.08551590741001
200.866384268119 -30.0931236137009 -5.92306208578845
94.7972163157091 -9.76866204266693 5.44143273677901
-167.141427484855 -25.2875685729884 0.0748996327378792
-238.083208428753 16.3693526054554 -0.281509811046039
188.486801363205 -4.48309969710629 24.8149756787045
-14.871161175943 -0.209487767210032 4.02201626022316
160.084882743371 26.0460747434399 5.33819991038665
-165.355951314043 7.90270374991432 8.16800158176965
95.1338897103956 -0.366250920522565 -25.4034420347765
49.5688851438845 1.62575447031938 1.97324966982201
166.284358501215 28.634014860377 -8.04518427429418
202.65149954363 -30.4699154037397 30.3086030372993
-20.8066189958912 -11.6872991080995 2.74008727428676
208.117960878866 -1.29732690647833 -2.94392392673671
-66.9259507317856 -3.24372729887629 7.28642845678356
205.787862255019 -6.39484290135118 28.9953235401408
187.655002884311 -28.4465241378691 -21.8136789044819
175.992760506935 -1.38160808929036 13.8052163153831
206.045822552555 43.0626309925762 16.3631485659549
211.950035049477 -30.8192236311013 6.66005817918488
69.5450617841009 -15.7443525716728 -24.1814244564098
94.5422054190353 3.71336019963452 0.835376998594898
86.7571018711647 -11.4167501295424 -25.6358940196788
-240.148018255099 -1.77380478573908 18.3462827324493
184.146194814318 16.0295305006097 -23.7112492382703
177.992467611651 31.2587012614882 -12.7606248455873
-96.4669113988724 3.66425538247454 -2.69207359354781
-225.423141489216 -2.35664090645815 5.45688248350901
-215.968860455139 37.2395275595806 -27.8178446302551
17.9393141341007 1.69389861358184 2.20613753645367
201.04143999041 -29.0260900260254 -18.1736280432691
-2.88599875976241 -6.28002229218804 4.51735998393076
-211.912562764737 -12.5366718880173 -9.76167707289955
9.35119564393482 -22.1582343237609 -4.28357749431066
50.7702265919452 -9.37875646352416 2.77798466403303
-131.206432844521 -8.54867963894876 -13.7820724726816
187.494940822272 42.6249215530014 32.433092383029
142.120987906139 -20.3436672989641 -17.0367934747793
181.449548168472 -5.75855854375886 -22.4625498415151
-209.512991935774 35.7386008731662 -2.70373262532518
178.69128429359 11.2341416976916 -22.6345845879466
-231.624670564364 -26.6302924233539 15.6276372363039
-162.622899676713 -10.6863970549203 20.5034767925662
-118.101016273269 -7.77581178368341 -14.8865246654268
209.018028378006 -4.97705802570521 17.1055541441912
-233.63863962469 8.68890593257443 -10.8334115516911
-242.564208313363 -7.14060791254298 16.512438435651
135.548436208255 15.5216109729798 -0.618053893003916
-92.0337916973535 -22.9672854410179 -14.4941006670074
212.900414334196 30.6158836976636 -14.825581365751
158.679819743836 -8.57282194095311 -22.634195088371
184.838067603181 43.8092060811608 29.4656686501414
-207.237693542818 42.804387855031 -8.03324235631817
-239.546781648479 -19.4962799566525 17.6229371532504
-231.52570566413 -27.3033033315728 0.273889907804059
159.222210594816 10.1903066571579 -21.8004303725414
-113.127675285809 -25.9416965386587 -4.877047618291
34.3156950719703 -17.7112909136769 -1.59100637427353
199.217418751043 -7.37567381950655 -21.1708199882401
-173.776673344597 0.0658129483005749 22.6492998574762
165.445312095491 28.853842682253 -6.37078631895723
58.0929827124529 -7.42220895585718 -26.2128216756752
-43.6379068752598 -26.3084368610228 -14.8867571018048
-101.219569564985 2.14179304170637 -11.1588700605532
-86.2756559258597 -27.1482549067709 -6.63516683104228
162.619677596139 -19.2870477602929 -19.9778802926753
-225.956165169766 23.3281269653103 -30.5636640696768
-225.750290658242 44.4497250062007 -27.2128573370336
-215.118035804998 22.7337990048655 -26.9172953491574
213.669368969484 42.1684104599632 19.2172185642291
-239.229247471105 13.7205219026425 -5.87279542877215
107.816439205067 10.6281172505632 -19.3586845975955
51.0131232564069 -23.6710006922539 -16.0950244653515
135.325065571595 -3.80776920474377 -24.6794679795862
-83.8113727442075 -27.2399915891189 -5.80189362378893
-121.192641188528 -22.632412539124 -10.2404443053789
-232.587760636731 -27.3602264748903 10.3041535649026
-214.459830516484 -13.2204759248813 -10.4009657829991
