161.102405472734 -9.53013877162904 13.5666493061968
-121.41698615801 19.1670072901541 11.7332482943597
186.354140924637 -40.8604519982107 26.4017221292838
-120.487060356522 19.3374765465297 10.1310903518774
173.762580677244 -36.1929570971114 24.6777430196971
-152.88725052695 -19.5722249547633 19.5958764584117
-175.736797589176 17.4930326866536 -10.6893308507176
-127.179262878559 8.47954308242035 13.3306236328938
-173.31580186298 31.7040256307947 0.408030075330934
199.581505978302 -38.5966097338851 22.552341793775
-244.387584680957 -28.5818891575991 1.6129445371764
168.668095935495 -2.36275652479991 13.9882323796541
149.915541474652 -0.134453535786284 6.78069075925786
-127.759760283725 0.0234592602545207 10.8629958428653
-192.536525011713 -18.0073816203005 -9.15291265918039
202.601381526846 37.6776503488329 3.38221056923119
-192.334285058111 4.61537241375045 18.266665438304
120.861431223716 -15.9449813432154 -6.1793020818064
164.922482550708 2.42274494760491 10.969382409426
-147.580218347413 -9.55694144457968 10.9125303981928
-219.424796804304 26.9846425392613 7.93296320860616
-213.783769720929 -23.4247970028669 21.6170381451331
-83.9350568710065 -1.55743997414924 1.8850742495253
162.022255200551 -28.895502203045 7.32652248979405
191.120217961119 -33.8898691246176 43.370829667111
-217.067302737659 -4.66677935746569 -21.4713757317507
217.561536033141 -23.3954652173759 12.7945202717853
-199.108200812092 12.92008978642 15.974402094092
195.76315567194 -24.5770567981617 -17.1806589408707
-209.900406305398 12.8723244903939 31.4793752839071
168.516427412416 33.1570924165659 -3.8696597346208
185.55609275791 -35.3037176507605 40.6294081888781
186.444336505242 42.07854445773 8.26759123118487
188.890740127567 -35.7553640919924 40.5278413506122
214.300818779832 -12.130494429214 11.3512947874124
-244.226766007189 -23.4571665572487 -10.7592073205048
20.286886322796 -10.2772088002887 -15.8287557348519
-183.601215153089 0.354511486928326 22.0493676539475
205.026627685815 -36.2564801883634 7.84103076594885
178.984537511402 -39.9061078759752 3.57053677365215
150.665244852566 -23.5764956260226 4.65363445612632
-175.084343233364 35.708528792012 17.7331620427712
-214.740135656946 20.2708634069595 27.8846626481375
-131.467232305922 18.3892899249245 18.7919727817103
194.030889107559 -20.143669536629 -21.7292425709637
197.835162804163 35.7051087146956 -4.60790322533635
-164.192934711756 -19.6133676109837 17.3787555406977
188.253048662907 -34.8077461669035 -6.7649687582462
192.779963570595 40.6907064083234 10.7134956915797
194.743549948747 30.7043877449476 -17.4438705178432
-181.34171525569 6.93630309397687 -13.4031337972252
171.503528922794 27.6409174710046 -16.0540299931746
209.297594796176 -4.25310603346294 8.25806301707239
-203.854115607404 -31.2117207427512 -22.3106742284806
64.3273284089842 -5.30354370668733 -3.27989500405802
208.826260275863 -35.6759512582992 21.6242738063727
-194.11206383536 -19.2003641101216 -10.6386056444718
-54.5989630342042 -0.0307923688354502 -24.3891969498334
190.360478433267 41.0126477987647 9.95807751420809
-204.036826261209 -11.546313973395 -16.907325594983
140.465161444095 9.95902340174739 5.35534526054023
-145.525259906413 16.5506468261744 18.2658522717811
-214.422660905189 19.6670576926754 -3.27589621518669
53.2465319423826 -6.19699398414291 -4.31386524173385
130.058913107009 18.5327613765467 -12.5323993547064
201.565173594869 19.6922453937154 24.1428377650856
172.0466281665 -8.17537378352212 -23.3673050157706
-216.981859845222 2.99303942218642 -14.0733738760075
-171.459864551545 20.1654787317536 -8.45932560261106
-229.114706992984 -25.1137831718745 -27.7390257320729
96.7760797297797 -12.9739395764876 -20.4550992366269
169.949402675297 -21.165526346337 21.4528536270943
-126.785591679049 23.2437003770641 2.0677383301697
-92.7279928925935 -8.52381242598371 -12.278220955564
53.9160814641385 11.5621510518696 -4.01163315671467
201.333177262398 -39.7571331422124 16.6342751013702
196.329756764136 -8.31532810188866 -22.6140698734608
-213.962528408552 9.76261260948705 1.83187107976677
174.815168169346 1.0716880312188 16.9910806272117
-200.14119656157 35.1180065667343 23.076216286867
-157.916024380622 -3.24041251762547 24.4316013645822
-155.245930522916 22.1163237585181 -4.76098280258321
-147.467649616529 -14.6835077875755 15.9136476009941
203.215613928786 -14.8388503610305 38.8531385067425
-214.109192340586 -47.5996935142525 -14.6308219671256
-68.6147918710359 13.3433527930595 2.51675356170804
62.0964469129355 -9.85266932958318 -8.28353319827715
216.772772247684 -18.6285098642644 13.0582665657574
58.0472701655721 -11.4879726926128 -12.8954670118499
-216.702481212446 22.1108249164282 7.42735457909048
196.287603544736 -1.83936381859447 -22.5977287243793
115.678626874807 -13.7225707862032 -19.7834373962499
-27.8274785273139 1.59917208202413 0.756154623359372
-132.664130933305 20.3256631211035 15.3529876754166
116.978646291669 -8.58707319077354 -23.7096469851477
212.338838022928 -14.1326239053076 -6.52898007972838
-102.875105230871 7.10241884926859 8.51358477756484
-199.737017838137 -3.99287473158154 -16.0036626788028
198.757750336138 -37.6327006362559 3.26313669919029
169.652710364004 -18.8141011553574 19.5613429250462
101.866152614537 16.2680296519431 -4.72120925054407
170.512826918618 -30.0390685798 22.8318639887352
-198.207003911401 41.5350991876919 5.28522702641949
-31.219058812709 15.1729117713286 -6.23502841732819
203.791264036354 -37.9582496435798 23.4623194065145
24.1932228187229 -9.06615690907115 -10.7525684838352
-176.964772944568 31.1185305086527 24.8647471830529
-227.425382795742 -3.36788148759029 -18.4855688561329
178.383875492967 -34.4875641628268 -3.35786279076313
-166.573843304966 12.9805561794965 24.9388204324309
-118.14934988657 16.8903674756255 12.6243044575864
207.063093326044 -35.5164130368548 7.66499080934047
-217.844762423349 -17.4311461540411 -28.7335494112566
133.403799649299 16.7213187935331 -17.7310061365157
35.8925200463539 9.18813089273029 -2.7900743435709
173.799502416915 -2.53493022316607 -27.3771533366535
155.790469573869 -2.19781751293494 8.78854997061408
183.876455300374 42.2899447355545 7.65351362989305
-187.852540924972 -9.85454027388509 12.4754172463393
-135.22794996665 23.1553221539632 0.113711938862601
-99.0317676359713 21.0786696921826 -2.22381243020793
-93.7225022310309 -2.02354855925752 -17.770742033657
-175.058332792725 -5.05300573298556 21.8129419315177
165.822351385438 -24.3583183871943 -10.3139358850836
87.855713643293 10.0244167968281 -24.8811776931198
-204.731535170445 12.730533349201 29.7598894880361
-28.5028138202386 17.7633509611435 -17.2120231981976
-216.499844009433 23.3230023083183 -2.67997817904334
209.602897943716 15.2818076743938 -19.0566676829851
181.621314089041 -43.2273751016016 20.6054993012857
168.625715817281 19.2240828179803 -24.8636005125636
-227.526894462379 -41.0425040401547 13.8979304583526
46.9408318116861 -0.578413585026307 -0.10102128469919
158.910927824212 21.0402125044958 10.027737464565
190.520701129305 19.4075918224566 30.2658828938069
-237.830629131202 -7.10130282053168 5.00239477658571
-207.299642489055 -8.64326245019051 15.1080147905164
-127.299480284935 4.53754523083366 12.6737374371067
-29.6016323571379 -2.80890354335829 -2.64613169888009
-50.4226314136533 -1.15468765679724 -0.562503789531504
-61.9959998153871 -2.67782086964773 -0.792961338817389
4.4872441730829 -2.1114957689548 -26.813634717055
-214.483860948603 -37.2015207643675 18.1575567783829
-217.399453186049 14.157948844124 17.7305033854412
147.826897791914 4.40230807511127 -26.8946953678418
-144.57595935688 22.4569264840404 -2.0997141426713
-98.5808033586648 11.9572991423533 -17.8767968351102
-175.359864651667 -8.33568741056222 16.5357995353577
193.983624147718 2.68052779141301 -26.9423583468255
8.1406644611065 7.01846477978665 -1.46712079470486
197.223163182615 25.5098595882446 -28.1836211922285
55.1888865000568 -1.18543097313218 -27.4876622619987
136.256197547767 14.8647849902776 4.07347382728141
161.896791903669 -21.7888203679202 15.5282251678667
-0.37307796969221 14.4140278553835 -7.62998032179384
205.399656742308 -7.95822065300543 22.1471736390678
-227.763365787198 -46.1881184125255 -14.1459790347342
-214.26280713019 8.03517887037806 25.7710340879057
-199.085052194589 31.4507104813203 -7.33386363448684
-219.310834419822 20.7230551716043 21.6844993867563
-215.742033109966 -13.3121248584687 17.4000632815848
-198.189025209298 12.9852539385358 20.4667121691557
150.367399245771 20.075538522841 5.94433477289539
191.149231563986 -38.4039182707487 31.6026176189989
-220.418986062041 1.63217392318206 1.08418439172404
216.964628894104 -22.9561699368965 4.44879055074011
-235.331617499768 -7.46322539322069 9.42855281891202
125.951483834584 -17.334510891463 -14.4681033180102
198.236559681671 -24.1494410039479 -17.7602243487048
-195.572175026611 22.051107350681 -19.0998796134478
163.724536016677 -6.83671341916201 12.8749295821635
83.2852683687996 -13.9521959649644 -16.5565993213498
208.522700472615 37.8041991915972 13.662480469736
169.770025158254 30.082366817285 25.9465120118564
204.913315863076 -33.211340347047 -2.39388183680158
169.871240177057 22.3252475939057 25.4468689096582
-6.78770423524473 -9.36164963343503 -18.4938604491105
-192.755950678773 -17.5976834627634 7.68679904550656
-211.796111243183 15.0001403632664 6.46240765194052
176.556734528946 38.4941397428839 21.4437919075403
-210.069475960976 -38.1270327238829 16.127720196949
-168.348522800834 -8.61804416047366 23.3741613262874
-200.963466565217 1.07549500592797 14.5746833717455
-160.015073233065 -1.84298840281846 -9.57777200935736
-167.650776731819 -13.2536611549765 20.2394018011433
-188.596824987261 3.80688701132313 -12.4762993851321
178.188280754026 -33.4248445715283 39.6855034760742
-202.419734976683 15.5524163239429 12.1923214474622
-237.660539204973 -20.8398267795861 -21.7075200057111
-176.247504525052 22.7144872079681 27.1839818363209
98.6919089146153 -14.574012189949 -10.5969528565699
-214.801977852389 -11.362343964507 -24.8313315517297
107.138911849615 0.831918801883087 -27.0744142662112
-54.5774269096214 -5.89841423351293 -21.0570962858856
169.188446417371 32.7631830749727 24.6269496991536
-231.385403250042 -43.9295245428858 7.99704634285393
205.115734919678 -33.8637766372759 39.2873033704968
191.427895558743 -21.0445505547763 -19.7010068527742
-40.3550952870672 -6.00033663922858 -5.95219023676251
132.605805564638 -18.5432058725139 -12.1936625365827
141.009778689052 10.8081272627681 -24.2870562964272
38.2625709327856 12.3547199097342 -5.79419533389114
-31.2126477823563 17.0559506991145 -9.06562503714651
188.509663492143 -34.298722942515 41.9841710372669
72.1560884328472 15.5561535481582 -8.41428043027853
-51.4685545343499 -9.52484222858495 -13.1996745785961
-125.276218251384 11.4784256511556 14.970422288927
194.579889842364 -2.74825003179686 -23.8702477922917
172.176177973052 5.93674903958542 -30.9157647465551
-237.631231062383 -16.4792184439206 13.6461463052405
184.138473340571 -35.7674184762239 39.868810228295
-176.440344702621 -9.43965894480821 -4.09200379551748
73.4471766288683 12.9407923791851 -22.5297606156964
177.555148791462 -41.1916371792105 25.2786600502813
163.696512305395 -3.26795106412001 -25.1706073310233
174.542896022348 -32.6738722855385 -3.3716578565742
36.3388794093823 -2.58006811063584 -2.06987853089073
195.207431721814 44.7707792182123 17.9338940378881
163.755854648151 -27.1061348353694 14.3980731039893
12.7011888829011 16.3439035488286 -17.5936979951367
-105.199398000366 20.8384354273819 -4.02602015537583
161.909966724225 -16.2266356603185 15.6310155173648
-165.131081557477 -15.1512411572863 10.4437600015924
-115.892221654206 19.5639604590866 7.83498046535717
-55.5838722257164 2.77119433452333 2.3309055662292
-98.5467649363198 -9.11136582853384 -8.97479104839719
12.2259876393614 -0.241793299385913 0.604017783492367
-92.1694797207678 18.6501073399185 3.00701701189172
-215.423139950935 9.24163952143881 -6.65697657042205
-8.73487532996755 5.60845300066172 0.859539985026099
-204.091276787368 -16.4436404455671 -21.8336722891536
203.372660896524 44.0180371124831 12.4147108499072
-213.090857869909 -4.19414017708422 12.2558594979293
199.205235315193 14.6543396019515 24.2793411410096
174.528754530492 -29.2596866360512 -9.18802849940001
25.5441102238383 -3.44162502138908 -2.36247546602317
-190.999308888281 17.1240630214437 32.2598097609699
165.628421115973 -32.3825848851822 14.160798002009
-244.374972358958 -17.3040498996366 -8.06320734035456
96.5092273652911 15.8580045178543 -17.0652140495543
-169.139945180461 -11.9311372310834 17.8522545260845
21.3260132423338 6.07383698376948 -0.917576884453238
57.9374941762902 4.4873227924972 0.748156370286039
-178.590140908987 37.0275626532144 19.1588962903413
15.2330841784302 16.5062010003324 -15.5951317909009
-228.673452652234 -45.604671089556 -3.10051949274861
122.305672736868 -3.25944975611203 -25.961884490411
-44.2690291512592 17.3991145998018 -7.81192500305789
22.1966469720756 -6.93223647816924 -24.6325301828828
142.63262618998 -20.4853613765048 -8.7058164159284
-203.216076522846 -32.1195517633044 11.9923616834006
198.183565883882 -35.5796146233903 -2.46796008945809
157.588107627711 12.4024846493162 -25.6376356510335
80.9356416957635 16.3106107595818 -14.6498727681991
-214.893977755596 -10.3813511300978 -23.5692774120725
-77.5892324918935 16.8609709346591 -17.0384227340042
151.399716902909 -10.4492711928047 10.0028131127792
56.3515949037755 13.4618043509512 -6.19371883555204
166.977010098924 17.2531382368557 15.4879820497242
-176.641678482215 36.6485532937857 5.52594223321468
-198.01927444272 -11.6689087629954 -14.6410118358733
-200.621741298449 -2.22558953705629 14.5877795593124
-235.478269729052 -42.8757811282027 4.20284814205084
193.019941094066 -9.10799326178023 37.1589716352339
-223.38402814655 -46.3025598762142 -5.47686339929935
176.261399886909 4.85932993886174 -31.1770019743001
-202.434573917141 8.7805832856341 26.0561955833652
-102.877470994932 1.49838104491516 6.67737604850906
202.203914118096 6.98498552094794 9.68394429985258
68.4146643404788 1.84720003805385 0.940397822059791
21.0890241341349 -3.17185439066713 -1.96845223960116
-159.298077760527 -19.6447255347581 20.9197759921175
192.972920974544 -34.2648316376644 43.0587661595461
-87.0619223019723 16.3024563832311 -16.5064696570569
-211.014346906852 -1.12999125856775 -18.4227108398405
-188.47523766081 38.3588040737664 18.5051591064008
172.707582930599 -32.0645579814141 -3.02240837758398
-151.140505078787 -14.9794040886955 22.2118304633253
201.904817966835 40.5369531746895 7.16690415089221
-136.334178050556 22.2509691077825 11.624099218813
-209.783116814456 -21.1920738504587 20.2559320988165
195.05690771445 -30.1198001016503 45.6600374811087
189.922681694499 -9.42331688861854 37.4883736836825
79.8610008197983 16.2017690041893 -9.36646655089617
164.977966079595 -8.40958586244918 -22.7135201394135
-87.3531979205311 1.7748881991352 4.7058985525487
-116.487317468864 -0.562777170316821 -14.2206031245
-170.094769882257 32.3264648805287 10.2413087933182
191.56759867423 41.8795968580408 2.18017592416757
-195.468091254248 27.3658892163941 -14.7040677889344
-212.334806679156 14.2036714109157 4.1144606021832
-229.715247973546 -12.5943061438722 17.9264358293281
50.6084910379067 2.91231741313499 1.06487076093357
-203.083521317392 13.1317054572102 21.6513678879505
148.696488767158 -2.04662114216407 6.75273698435108
-239.543345029032 -38.1762019822618 -10.0638583308438
92.1572334635636 -4.59107397650387 -0.747897524687113
194.59361881875 -21.915008975565 -19.639543299392
117.784228339614 17.6209837665439 -5.61520741808342
149.999789080645 -22.3843602456894 6.89816058332167
-182.35928612729 33.0180919769697 23.9649861365713
-237.413054961422 -4.75417283435299 -6.78567230258707
13.4252264625105 9.24872927201463 -2.96021853167159
-198.902904381826 -38.3330732645089 -1.08002134619267
177.800772363778 -8.73368492649766 -23.7856757197161
161.244206615824 -26.3938956258352 12.5841037885303
-25.2096251667166 -5.85814268950482 -5.99543710792034
188.626718122866 13.136977498171 -34.4542218602875
-209.936459799121 16.9066845442248 11.0889712502632
196.343182667248 -39.0366864033281 23.9509888086607
179.077173825775 33.8281500761853 30.9192513449337
159.180113350359 22.9121632633313 9.45931232174787
70.0369418667579 7.66522353198421 -0.241659104159734
208.700251767633 -10.4993332193584 26.4378536728269
156.904775634189 16.5818530231188 -21.4440008735477
-203.998428022152 22.4515158119624 -17.3943644219925
-219.907822611118 -49.4430368903334 4.33358171631806
209.02697458228 9.21335904885076 1.77241948041
-192.96573134341 40.729533613769 11.4766485861564
-207.640557993074 -27.4514590489755 19.0462409047115
-200.292766043336 3.66711633117595 -15.1395373617999
-230.287278021416 0.581341631967521 -4.48430943030669
-206.410965560171 3.6451788799102 -16.8125581972256
-212.770095822273 -39.3720995658877 16.2860811067942
206.87036488505 -27.5183504363027 39.9517916773166
167.036429522359 -34.4937335841512 12.2180303119764
-190.233526227289 0.99179881614498 17.1610235824367
87.8348430324739 -13.8602281404728 -12.27335648482
-167.608827198061 21.6185673086668 24.6475416698318
-165.674959888158 24.7571197704335 -4.52990161867634
-96.1448661690665 10.4898039916805 9.73575808332816
178.239844961393 -12.5297902683581 -22.1817669816959
193.489428695288 -38.2844171472173 30.3415402246114
189.000382974026 18.561014502229 -35.012451321871
-139.158170648033 19.8461539027662 18.8583751637347
-26.4692722326083 17.7114140678284 -11.8421993798177
5.14557366462765 1.50030333397475 1.19463511701422
-213.176847030413 -8.27529851695867 15.7556502723511
-236.658445714049 -22.7849844560449 -22.8345707987468
-226.473936840997 -46.175589176549 0.0270582344593531
-221.438134302021 -47.6441190619527 0.461137079747118
-58.2538066530651 8.87704430793277 2.82374303257378
-133.322791345094 6.42764335268131 14.4426449652348
-181.277653508516 23.3664869936872 28.8742323172276
-236.971000545016 -35.9682919914458 -17.706435519493
203.085622118403 17.2805764957346 20.8421164795073
-17.3635388771778 -2.72268594036858 -2.24539393211765
196.261902986327 23.7537230169666 29.848000218268
196.53755653884 -31.6303787716912 44.6710699111953
-127.105318576984 21.0125373725078 -4.07550865018684
-159.57488330581 19.1832861105511 21.6368343358409
-206.739266249241 13.0454807851377 20.623631363064
160.585075955927 26.1453929286107 8.97077539197186
34.3033894319178 -8.60493840482894 -23.4292860424015
-58.1145070169136 16.9889368373232 -18.3223134896955
73.073310519498 -13.218340449 -17.1212459727357
153.391581423091 -15.1144774836785 -18.8894812576885
196.330866068656 -3.26230248412716 15.0741930904127
207.230116482625 -34.2285197795578 36.8354789535167
-136.66197619411 21.7658268264873 15.2178064437255
167.003662019291 18.6254229866945 19.8880388072206
-55.6226393044845 -3.27418610413898 -22.8297947807245
-160.494218905382 27.9483670402727 8.87313503922546
-87.5499090208202 15.2596746912896 4.48842017963511
199.343647745986 -31.2287450787497 44.1489867664308
-209.955805435575 13.0203667690033 7.09785036053073
-231.668737321656 -11.1556815325878 16.0763997881609
99.6607026993773 -12.274943185913 -5.97272739071495
75.8271857786682 5.86387946343771 -27.0911736474949
151.371430386051 18.3934485892987 7.34266030486358
90.1727011509138 13.8060467365455 -2.99230137476215
48.6808282066163 12.8810257308968 -5.92976615930898
187.754451450211 0.851582330934494 15.1384881819851
-217.582167090908 20.8455703276089 23.9659896305423
183.764682724026 -20.4592816818978 -20.1100339776216
157.918022650846 0.0416083143461874 -26.802599851076
183.41001311625 4.55690270308847 -30.7302516432429
130.473024082107 -0.363550149007281 3.73425914655713
-152.122039066655 -0.764536392913984 -9.60843169056964
207.309977226538 -8.92527864213718 22.386103496081
168.302707676397 -8.7765173505816 -22.9662508193319
140.127775908881 20.1405289555013 -9.34100651437528
203.521897528228 -38.0460711848388 17.6609686987849
216.566023471885 -32.957924792787 15.9301155823803
120.063947108488 -8.31603290224302 -23.7627489263033
203.905138098152 12.7311646488183 17.0941947746586
-153.787097198754 -2.85491261402996 23.0897785442022
-188.030716351154 5.02949254536026 -13.460484493192
201.366560622115 -8.21827760289303 20.4687055478568
-215.599448418134 -19.6795772832864 -28.9170736817364
123.949488990614 -0.461602791902938 -26.60492504398
-37.204534008804 7.37711717776559 1.35675625493638
-239.258394584784 -30.1636163486337 -18.1833975812998
-170.240228042231 11.3990105055632 26.671856824067
122.760639523896 -6.41253301497566 1.85873587718302
-47.2864568155739 -1.77265059808762 -24.4580574448052
-207.510154051505 11.9218556981868 21.4287363951058
-200.343534169151 28.5240593123447 -12.8098280658997
162.927929830367 26.639775168701 -8.34642073161255
-214.94874106349 20.3342416400339 0.408982140385718
-2.07731568711294 -0.833299812899943 0.444623935630411
-170.806256384662 5.56262566825605 -11.1580353116017
-67.5383137801847 1.76980899989568 -23.3469128858423
211.058230943797 -27.1785863416126 35.3058790896254
174.440149119025 -29.9234665813565 32.0548009214727
169.461317882989 3.03960474909528 -29.4862676937954
112.478674510362 -16.1082963840004 -15.2670048667258
-157.872838917024 27.1420367172314 9.06797741226197
110.963173472883 -11.9539485760689 -21.5418359292578
-50.6962132143124 9.48715552186619 -24.8467613099636
-153.119476744768 24.1040958426886 15.6035385239851
139.256092898635 8.36631805778783 -25.5821197350073
189.928824854489 31.3353576389009 -16.6922589380211
15.139585502154 -4.43921116068804 -26.1327733059277
-177.236483983726 37.5782977415785 14.7764851018116
109.585355581237 11.0436460795059 1.52242872695851
190.315603485833 -41.5671319034659 19.4868189546528
102.729275924422 -11.5844504545692 -22.0190264857077
195.326903287039 5.50878225645389 -28.2185970598736
-96.1847369545925 -8.9956365278229 -10.5860400406115
-45.1040064059794 18.6443033904871 -12.271110081558
-144.904154302314 -9.99224879952307 15.929026429732
169.432266684557 -31.9296811684541 2.06191391652689
32.8441823718962 6.31675718750121 -0.892094601862508
148.542855709215 -22.3540506061765 5.63917991265473
-164.013273060097 17.1395419462459 -8.85206504905955
-230.625017288842 -38.9426803934713 -21.1518129019121
-177.407117995568 7.18428613038496 29.7663724169111
75.9819903520998 -3.44150739550313 -26.6764422352855
-135.501655713943 0.159442473202367 14.0498167890748
166.444773497195 30.5897932096261 20.4702018171938
-197.273544164327 -21.1464525842648 7.87417209929022
-112.230275298473 9.97698515431434 13.2736701959987
-224.565263381032 0.858885916845795 -1.41658552155731
-188.975811818274 32.5503750867537 25.3935635882454
191.493225141055 39.5130957205576 -2.6374453713613
100.479791737835 15.5289733587687 -17.9704993515608
-210.38088892687 1.0939395695408 10.1354588429022
-59.7837793935003 -2.7962912569176 -22.5942748189608
-188.024053710054 42.2921851563468 10.3040091197522
9.11409932704027 -7.15626688701274 -23.6855967170818
-221.201347238479 2.64879809282851 -1.93340953268466
216.806197018676 -18.3028026025213 10.6323590439497
-212.790941790437 34.2709690080848 -1.71212230573147
-184.92131304485 36.4060380337435 -4.15676094424049
-216.977359260955 -49.7798196514663 3.69950908530463
-41.7765486069932 -8.73806549481837 -18.8982633708077
87.7807289024206 -14.3449723818318 -15.222881632275
135.895859920825 -2.69439087673765 4.46198718438477
-193.017447630177 22.135597257345 -18.6397484306727
206.987485145655 -12.1422509483058 -15.7243413130837
-195.364993353558 -2.57456244684621 -13.8933984602017
-188.255415002001 -14.1133843454462 9.20771846305019
-239.06467160611 -9.57482714599246 -13.4668565686298
74.1342029168132 -4.63507653597761 -2.37737981643485
-207.376951342754 -34.6070988520475 16.7468665166836
-225.346916732823 -43.5656475449976 -19.7542032902313
149.371022384391 -22.804110642448 2.82977492540701
-190.838511004839 4.79323011166592 26.9105300343985
-188.726080443879 38.5396928886422 3.13821623768571
-153.79519894974 21.2902210696181 -5.66646532952421
-146.238158270834 1.24690621070113 18.9086272034924
-230.682576676945 -45.6474683774947 -3.59131350763671
130.766080283234 1.76916833927493 -26.8134743682886
-52.5836854745826 5.63762323188247 2.46840767641264
-167.202895806658 8.80236384836597 25.7128775925649
47.6845014549013 -5.30133190109739 -3.91981320954974
-142.775572409411 -7.54798462093424 3.73015077049277
215.799568865419 -33.7532748193151 17.7718095575566
217.287703878105 -21.47402402122 14.6325076884423
6.25257355997025 -0.438383767996645 1.3200782773213
-136.238735553909 18.6744892968467 -7.84054315956402
210.812601020636 17.8523129722458 -17.9836181434754
-211.140260929085 -3.73657876758896 12.3932231837229
106.457562474653 -11.998118372138 -4.40279523953969
-204.663736773794 40.248605339493 4.78694648767398
203.962301674247 44.0732625924234 16.8206965226324
-76.4320579861854 6.13128680168598 4.61602614124131
142.342923089595 -13.8245781286617 -19.7010967642935
1.54777919190527 8.49944291487514 -2.14536060841697
85.8179335314609 -14.0204002004702 -13.7834274689992
210.818121464523 -11.4398607747693 24.942484308173
-9.58974374301515 17.4145284818672 -15.7051818044092
35.2817825415142 14.0251423560975 -21.9123796738632
-177.470596651061 28.8649733167579 -5.54265041755793
-63.8852984256764 18.9889386859625 -12.6740417722835
74.7889567488442 2.78422607655135 1.19668399006318
-119.046445239425 16.7976888174251 -11.4199967421623
134.052123698609 9.99856480360758 -24.684023417248
171.275413798593 -19.6658322797841 30.0745450413045
160.049764226134 13.3523413970428 9.88443924375635
-35.1588344379378 3.92890023592958 1.729429564863
-217.308110341515 26.7422749945395 21.238943370354
176.015225904122 -32.7711310385243 30.958546874258
172.554944693668 38.6322225273585 15.0796539565228
185.289578954236 -39.5309551796565 29.2351608721582
-200.807934108362 -15.4505467104436 -15.6096900955787
21.4860110039521 16.0070603818998 -17.9568041174409
-111.177883860505 5.23261262060162 9.37695409920539
125.194980841065 -14.5087996166256 -19.1413377504944
-173.714440179341 34.3953218943743 12.4499722517348
-134.865898262283 -7.1016741811487 1.38547407305175
-84.4108603217933 18.6225009190628 -12.9243927013583
-56.8349152049858 6.32629093875262 2.83269736768048
202.244055497915 25.5086505529028 25.73172130113
-158.033853951114 21.7144654882399 -5.94486834101894
175.635275980597 -34.4741991466595 -1.42081215190488
-97.5644709533286 7.33618007748979 7.83566997334848
-164.664339469998 19.9384664016917 -8.11413831457718
-202.475109733124 -11.3549375319502 -16.2543898925
92.120169410216 -13.1111319834754 -9.06586959796673
185.768304101478 19.0087860946465 30.3913043374488
-44.4820606281359 2.77880932163804 2.13376342508491
119.739401862633 18.0376994483294 -10.2351484374087
-219.382999186194 -33.6120842223906 -27.9577134067096
123.982029059883 -17.0920791783465 -7.30855950214053
193.691590442459 -10.0670138764604 28.4567896257301
207.036895559217 22.007025615767 17.6379972561474
173.844816055173 -28.7944698578834 26.8427677192954
-196.901226023108 7.05960743146712 16.5173567024855
160.045722374194 -1.87071848820931 9.28172228643005
139.433200336832 -19.0420630642334 -12.6594310687566
-209.971669581246 1.27187098896838 -17.3355957594101
-187.711528356135 -18.4414775346835 1.25391370931019
-196.631411880391 -14.0673479402462 11.7725487555151
-211.505013716787 -10.4883713472041 -23.654118870591
-63.282691917778 19.2206572040579 -8.32595516573092
-226.76618407549 -1.13915059250604 3.75778395552075
199.470661566334 26.5127967109001 -26.603101760161
186.193913362712 43.8746158128009 24.5768384021402
-218.574650978732 3.62508309885605 -11.1129439968038
-14.5465219457648 15.0232427715317 -7.72797414868177
-216.385492139205 33.7166655290096 10.0765570236917
183.314442788014 11.5562366872739 22.0409353216707
212.61354049231 21.2949910642666 -13.4238732841808
9.20169468313473 14.0658333006273 -22.5382676092237
-182.832173585592 31.8611607520106 -6.70072716951012
7.09075649739695 15.441433432973 -9.68234993529197
118.011333786286 16.4492907763047 -2.73813054431894
-174.02760665112 -0.576603824699002 -11.152707405219
-207.440114808241 -44.8209529499016 -14.5238679039519
-184.463911034787 -12.7458887057369 9.90705271567929
-211.565851472539 -5.80463778411612 13.5299238436342
-186.851884161378 18.4037865068029 31.7515973994892
63.1792129326156 -8.5239555059796 -5.92386576529003
-121.310790484205 -7.39664278324919 -8.28383553702629
-133.374959529104 23.4386287864757 5.81228182369727
-201.82546922831 31.5205509462419 -7.04208868725321
186.661618012362 -38.7024064795753 -0.544671508072855
164.307088920917 -18.880930829954 16.1370367234957
-6.14203440219144 4.80155469348414 1.0177443528704
-234.191294930989 -44.2442837284761 2.58692206088801
170.451173103468 6.80505422473032 15.1493291394664
-184.043104528822 21.5277438564798 -11.8032306821983
182.941005734503 -42.0296563041374 5.6704863450541
150.628128109303 -6.97378148074907 -23.5442688798313
208.935953772105 16.6193891764932 -21.184740570999
76.6586948315818 -9.18363820187497 -5.52293025645954
150.891976794934 6.27354365702698 7.06342528691114
123.889916441982 -1.13266808035242 2.92241518166818
-212.000785138318 22.3652997307361 29.9362915015912
211.874723717537 27.0584994757239 -9.67732990897461
80.4973163168529 -4.87888948126851 -1.97143254057453
53.6131528931154 -3.88159927185295 -2.9592819409543
163.031910624556 2.49490297131409 -28.2909328408696
-67.0124584937718 4.99159529961424 3.02268289603256
212.797677460769 19.1586835655475 -5.50459094113135
-130.328923300506 8.71074857952604 13.9776239433329
115.336492046383 -6.19930095031822 -24.9960993664746
-183.072719585437 26.7718368014405 28.4331366167135
-219.868625607561 2.72984211610377 -6.01078002166298
-224.282997995278 0.404565835444758 -13.9382402255785
180.323187617384 -27.9397760481269 42.4181094869706
-149.900602638996 12.2295816577074 19.9461656028782
-194.03028805611 28.4889658818974 28.8818119633944
160.02003616749 -27.7339115246349 6.9993843985372
-244.834915791393 -17.5155511626515 -4.30611082900861
207.429556904526 25.6916599327399 18.5733345517936
210.355424978692 19.4875215381758 -20.1599671717099
210.728765933618 26.5936974148217 -17.1975238952163
64.9273817098455 9.80478399119555 -1.81089235719535
-210.808148417645 32.9098289287313 20.2634072631871
158.227782742431 5.98371426283954 -28.0893904771754
-236.598205832502 -14.8884558485418 14.0109914005585
116.090361392043 1.07030205364723 2.56782207909593
-206.234426358733 -40.6495621253196 -19.0811447230807
181.187338046342 -30.4541162323311 43.1015863502988
-172.985767531124 -2.65178682958789 24.551727707705
-196.839241158681 10.4861267262302 -16.4079383259619
205.493632446343 -24.1342309869455 -17.1502957314769
-160.793042139984 -20.3428380856345 19.3132559677684
-13.6479204871919 1.17342802478286 0.619478406467896
123.679413609795 -4.3866073074215 2.4228319663092
-187.786201867313 14.6075453398518 32.165174255988
169.047013482816 -10.1107905868956 -22.1676478337816
4.15092186109146 -1.24224765177936 0.748283961489211
167.213099206326 19.9058207347406 -22.9342830239898
-96.1874787303919 4.33602235045626 6.71517586692043
-165.077718442245 -18.050315458383 18.1804790745592
-218.18538389941 -32.3152330153293 20.883449900529
-133.766840303819 -2.8196572206779 10.6421310471196
193.725642958781 23.125790459894 30.7338338012737
-163.004660537805 -12.8892324868161 23.9877057786189
-211.806603032866 -18.652809706414 20.799166936843
-62.4784323306792 1.02409631350909 -23.8267470247192
73.1699116265578 -11.9889347883986 -21.197177357183
-208.072843723798 -24.2548397181938 19.455535129459
137.249732630339 9.04916586971363 5.04487680578189
144.698742792762 8.20114889166189 -25.813612735247
155.20291306062 12.6417245155236 8.3701274320098
-5.62963918918259 12.9721440548861 -24.1760914753332
3.56579134730242 10.3987186418208 -3.62097287579956
171.470473054194 -26.3838152395434 -11.2005631554627
-219.300195565057 -6.35138381249413 -23.1850216258505
99.7095306232214 -11.4953271751029 -22.0866557759546
140.052719043404 -6.11223155840765 5.05181963671475
-134.147668536859 -6.01324270128538 -7.59541529208988
-115.418378964841 20.0486085207013 -6.05885196150165
152.656948868857 -11.67954252915 11.0968108333424
181.575917857071 40.9273020256231 23.9787788908845
176.897830246716 -36.7678896707228 29.5772367166553
112.332475443988 -15.7707414135455 -9.11758304335829
208.265541511965 -25.492061160303 37.9920188933075
-150.019040731137 -18.9523141722595 15.3191120949547
-215.477290501049 23.9099203198125 -7.18860130626441
109.937809596512 1.70632149029999 -27.0830907050437
64.4444367836037 5.12505558692365 0.742753729998671
-125.110803034922 17.9042554385724 15.5906286601752
-134.513814151815 -5.02584049283942 7.65575565572587
191.297210420982 -8.96726439426705 -24.6925950112783
180.314359724459 -17.3788070330139 40.6150054119605
37.4570683274901 15.5221453716186 -18.2438405975355
-126.344701790102 20.9222917772583 9.40059065903164
-116.814936151486 18.5280845860001 9.36998688574064
109.555388871311 17.4775688410952 -12.6822209803148
-123.817298634666 12.2484613122893 15.9157227042914
148.604315840353 -8.19319623497343 7.82702886492037
89.3209781474786 -14.0132244920829 -18.1143841235087
-239.625172799204 -16.5893075338586 -18.4836371768703
14.7045539369908 11.3971473976583 -25.0755332623064
-186.350670495972 1.76342673542255 24.03933760752
-206.67008581639 11.0137067999606 22.5740918997319
181.790054495715 42.9493802763527 5.76347902368421
-105.263329827407 -7.57117324320933 -3.22606622607755
181.453581434022 -11.2568790641688 28.082901629293
191.424625438264 -35.5651502247637 41.1162786671141
186.777681702461 -37.0045282061155 34.0926460650159
-176.12202838084 13.8208270917478 -12.3928137166352
183.881107298692 26.7697846683276 -23.7667777161326
-229.178483730845 -44.7620903699903 8.5414817062142
-230.648189180541 -45.3412838468539 6.37151361952099
-226.499536464858 -47.1894558108172 5.86568674489944
-133.923894578176 0.86101260970344 -11.7654513677566
-12.5774373084542 13.305953072972 -5.70889678345453
-116.173402629941 15.2826966122673 12.957100784391
167.868394005434 38.8631552477257 2.14107689985204
-200.869649143375 -8.00710804960993 -17.3624330626509
36.2742139817234 11.0567928050033 -4.4731731949652
29.7246398087556 5.70099457587487 -0.526627681717006
-25.757437609783 -3.82487296851729 -3.58468212412791
177.48295383731 -29.3297066104897 -11.4312799832563
186.736859706088 -25.7019973378808 -17.5450298636825
9.73859723584952 11.9587414783037 -5.34657613072801
-237.631512578677 -38.912276960471 7.03429066364003
-123.583329618489 15.9210590186589 17.4085338093826
174.19140133092 -41.8596578638046 13.271822026407
105.356160014709 -4.38486545046137 -26.0378378022315
206.938177705149 24.1671292026145 -25.380747714206
165.851896163561 -32.8328340057966 10.9380320711974
24.269361875361 4.02908321585601 0.992017978222117
204.042740958715 43.2648478993842 18.8069973878811
-242.76062855527 -25.234419013777 8.21928571589468
181.703229368609 0.347662568186146 17.4298528770573
92.8339595416156 -4.29619868950211 -26.1740582336009
190.437736090771 -28.8031777668005 -14.4209935086841
154.115195699948 15.3601373845865 -21.9520104057453
187.089544691519 -42.5394416984057 19.1210423499315
-167.679185831746 -8.90561496027274 -2.04150013160096
-213.717822837758 18.5866777988594 2.04533256818242
-241.404178406607 -35.9247065235863 2.74023326161647
91.5646621886808 3.08571129422183 -27.391700303127
1.31721486315177 10.2345618351254 -26.0766628559556
-67.227967873768 -4.10115587158614 -1.85691619745252
184.777235158448 -36.0300027453532 -3.93880769131892
-210.048922028365 9.19179465690036 25.8836079485547
196.555656038177 -9.23833097863666 23.3389925144701
-47.5197193236511 -8.35101808313175 -19.0564090337576
-228.923655583896 -45.3782886274339 -9.72065307609098
-70.6860456991141 6.0586337158904 3.991690757417
62.6223813486363 14.4287659617016 -7.2328779881974
-160.749268416362 -19.1717648177283 21.3130104315244
140.238087320375 1.09728063281244 -26.6825978565474
132.863125881006 -18.1522678411827 -4.31949849793535
-111.86647043536 12.2991524314313 13.4925002982675
186.841606130998 -44.101828086581 11.528522882253
205.166832064354 -22.2517806338381 -18.8914348012447
-244.127041054584 -18.4697865831557 -10.1883823522394
169.915847217721 13.2220139923817 17.675197398527
151.765394993533 -8.85602283587326 -22.4490961378632
172.261157750679 -29.0069832687086 24.6358768319011
193.065097306743 -35.7347632999181 -4.39098470762054
200.536305361478 -17.9182223860166 41.8852276141619
-199.613234202111 17.5890199264503 -19.0703193247182
185.338371635018 -41.7674546987081 23.7766166472855
65.6683130780367 -9.41014410720372 -6.97650974557082
-167.063461306887 -12.8801364420805 6.18199774513545
-171.778731036553 20.7003730786722 26.0712836098762
-159.508041432152 24.7127543202593 18.355922429336
-85.5906368040245 19.2837822714918 -10.1975281510548
-75.9465329623709 0.948381311628798 2.73312259861009
-195.640466761018 -23.6127955497146 -7.38589127505951
-233.860490269092 -5.03446674287691 8.04873721324467
-192.322910825003 -1.82252908447555 -12.8838891685189
34.8716500822883 12.6753759920584 -6.14418762020448
-204.963208206292 14.1496946104198 19.8024740594783
-212.752410772029 9.61496254698353 3.55380137642107
204.577358188111 24.8652023451329 -26.3701448063413
180.829991704805 25.24832208911 -24.9361432963123
-225.50004665241 -5.89942449517718 -21.9232218208584
208.137456135404 17.459301549132 11.7526907662809
-208.797993817818 -41.7768149684619 -19.7531349105213
-233.20508856355 -45.2815455694751 -7.87600708084079
166.041073497261 23.1383827674046 17.5546612099523
-32.8893778404881 2.68739760179246 1.33459645011385
-233.177110120025 -8.49606635124361 12.9606897888849
-8.34605959239991 4.43467896260064 -27.6867868609602
-233.043118690733 -44.2065889246256 5.40190649936285
-108.774895443425 -3.15021085701397 3.65398282154859
159.01188972972 -2.64185771761363 -25.4553961890955
-162.441492221901 -19.3680805292467 19.8097845954514
164.037029695166 30.0695033250312 -3.54823798899793
-205.409722853794 -17.3707678963558 -23.6790288529466
-243.317022370313 -15.7937554740487 -10.9009725599847
153.713933422115 -21.9082958282271 -8.53744532104346
132.432097574515 3.96142688305982 4.22355264640222
116.979311510447 15.512531169132 -18.5952858883532
201.873469501587 41.1801772535789 9.04287859001509
-242.235512755449 -28.4438341663635 8.08083007357717
-218.528180169037 -50.7271148423262 -6.80866676212011
-201.878168412847 8.42766144718752 -15.6516099497148
194.913776651294 24.9951518177615 -28.5189263669225
-234.287085958338 -17.6050565672017 16.9177528860236
175.980986247869 18.0738180241287 27.1960569195157
205.942225409578 27.1432136860212 -22.2180321112617
-118.393205501864 10.9858855744751 14.753457540076
29.8735853947171 -10.6251363002043 -16.6384142565265
-230.230219885813 -37.0982454769171 -22.8040646752107
102.814294784069 8.92093500795343 -25.3956209779302
153.163145771915 -17.7461250425898 12.0796488906898
156.496444584081 -11.7578394069818 -20.960602212031
-114.72084775128 0.985448028964953 -15.1627311123193
-230.537064722258 -16.8076287921848 18.8246062104505
-140.546499355681 10.5325893216806 16.5933726316413
164.258091298479 -4.26241578600921 11.449630282272
-160.156802855826 27.2451724574629 3.85849720989925
-243.196267751172 -29.4495862413099 5.31026821324208
-160.06436080453 9.43780344306587 -9.34837663166852
-111.498042954323 13.4759694776656 -14.9435844886507
203.490853478845 -2.85055067917548 -15.5067192327005
-40.9032709539394 -9.20695255103483 -12.6240377568632
8.42823326698095 15.6736940007882 -19.9832651385812
52.50050932291 -10.2532041502645 -22.3330618158011
-186.923197169972 7.91394432773548 -15.2448555809395
159.287978513698 10.556748337103 -27.1989575338829
194.650549402547 -34.5155614670422 -5.48818884608182
-2.92122744403459 -6.60023167137921 -23.7989995283921
-110.696020520648 -6.15188541318269 -12.2453754892599
194.68733056327 -27.9373998239823 -14.3414585214302
189.526483054476 -7.01825444455242 20.1933112842746
-176.676684283376 7.25119183494344 -12.6918302047992
-196.570903820703 4.00296538831131 16.1872867244448
-172.209886094084 2.63384067911175 -11.1489728919581
-191.337324863836 3.68435688879436 21.2044008549628
195.994561376753 19.9139617690307 -34.1912939656203
149.545401074892 21.2982459045068 3.88306983802033
183.575073707179 31.0190964994347 32.4218611604409
119.222810268216 -3.51682223362115 -25.9826884173468
76.2117000071016 10.7868710674215 -24.551700032842
190.383980829311 3.68828534580758 -29.1515025624102
177.842397990015 -35.4776120897511 31.5238135628522
175.705716219258 -31.4238677450234 32.9387402111722
171.107696387974 -40.8077324311404 15.7193317648558
214.614740262918 -15.3562852166173 0.00796119331663741
195.205698830884 -39.0537986942604 25.60964759285
-165.820946216634 29.5522192154916 13.5296748927643
167.227980999012 9.66574685881605 -29.8736942138725
189.947448066276 41.1153620001125 -0.228110683816219
112.921645133182 7.43596690648 -25.9817084809792
-181.751762848943 1.67764077349938 -12.1350910513695
140.686378228487 12.9185859002515 -22.6919255083068
118.221787341577 -8.6508898195273 0.467652877358768
156.217662139994 -16.3957041360608 14.5744031467448
78.5326907233246 -5.32646057629645 -25.8798984767206
-202.648622650535 -44.2434649498139 -4.00489514887582
151.975100737219 0.314951155860249 -26.593104848646
60.9081032325268 4.01548674589484 -27.7202462161053
108.272068069637 -16.0859475364158 -12.7418774903218
154.565492472299 12.0049739970436 -25.1813511892327
-223.403664122597 -7.50846032629328 15.1816217515864
139.870112222943 19.8310327729555 -0.77704778900444
66.5812369535887 -12.6895247900068 -18.4195015721948
-139.27007064424 24.0601794481554 6.99450243256369
-242.417716193949 -11.1935434848818 -3.78004514983808
-197.919498673225 37.9720437147696 1.19172703517933
156.233301115088 -22.3411076923228 -8.49759933145089
-49.6283906473148 6.46408363146876 -25.5966567360637
192.374785262798 28.9751262185996 -20.8888064969976
-197.901802007502 8.86424087987084 15.8829547716861
158.517322823408 -7.08799896060802 -23.4224256720687
-189.34489366908 22.9333023714557 -13.4749369925683
-194.786956505578 40.3733957312076 12.0151193800375
144.499382637814 -12.4586689621458 6.32000765055824
-182.501770777157 41.3186206172326 7.24406199829893
171.585448205713 38.8699966677888 9.17127636788955
-196.634961360735 13.9555924280052 31.6312019293597
-234.325700079784 -33.7910783217514 -21.7381325380909
-30.4907674994081 17.0331119745755 -18.9460507433239
-130.606718792299 18.9308258948043 -7.57798667779591
188.524298253247 -41.8563575721893 20.419979654464
200.044482880635 32.8928589977278 -10.6759772843395
-37.8518370224874 -6.10679157386653 -6.20249018735186
-175.807395781069 -12.1022574338581 -0.190763092953385
149.387515108235 -14.4434373641938 9.20940003678142
-207.048150290414 16.3301153620278 11.8590784903359
-204.736228055612 -13.999127698787 15.5127159583248
31.2674079851859 7.82932510626705 -1.89469030244086
-187.848852857484 4.57378172154414 29.6624896764373
55.3842476161853 -8.42656852959287 -24.3283232504423
211.903184633641 22.8584944597182 3.34830881016647
-219.213131238949 -48.8600128898692 -12.6949074369172
54.276066004503 6.92523431210646 -0.594955228603126
211.49728991828 26.9552237614096 -14.8665547796455
172.324335053166 25.3599993237456 27.797568908075
-66.3065689035918 14.3742929804252 1.27911083349547
-218.356232071059 31.6215968500517 10.9284557612498
207.184959518931 -19.5416141753167 37.5983486806865
-204.57162430228 9.27071064401465 25.0173958292899
-235.723906520686 -12.7690706868744 13.6508003804833
-88.8959489704939 -3.09904206208275 1.36869584461725
167.594792743819 30.8893671213007 -5.87347426828126
-201.902111556549 10.3052069145404 12.0481352210787
-60.3157015684716 -6.85664301700371 -19.6180442863212
-57.8010421207426 3.44690498237725 2.5458392350221
-237.538173868981 -13.4583919079221 12.1719341297075
-213.898936672763 34.6898560988269 12.1709122926263
-195.889299356508 17.6253825069916 32.3599502677918
-209.443561754 21.6081219881767 -10.1006586459657
206.723158260964 -36.7091530905552 30.9179558648265
179.006146247156 -11.0709931250378 26.4116493418994
204.927874376181 -30.9871505258618 41.6005840826008
-208.529763354387 15.2328720155703 9.40067580203041
-128.443138271294 -6.6054688462161 1.96313826656067
207.098171632837 -0.597064103216737 -10.4331293428666
-207.824882503959 30.2531447429479 25.6880077571531
-208.490539936991 -29.5473675703934 -26.5151694115142
102.386312875077 0.772779777330593 -27.1471507142695
-154.693030153093 26.1968665045708 4.77871501035708
154.267038046129 19.1908487710832 -17.1740973967594
-167.982953256845 -1.09886701096966 -10.7891083280381
-198.585058814807 -28.8589914687328 2.55946984470435
213.271598388624 -10.0315453601364 2.51351823568273
-240.387701322492 -13.8938764899993 -15.8429298507653
204.84611431423 -37.3039333686684 12.4608113606576
-237.38935932016 -31.3452494706572 13.4806003887189
212.539573547453 -11.804252508094 -2.72523719347513
-199.700158784944 11.7668364799805 15.1505741279177
-200.865223283926 11.9940306167853 23.0748507003536
-197.634619756405 7.91540842614551 -15.2860560653568
120.478231459557 15.403011190477 -19.0730701531232
-36.7182455164579 13.3582990173328 -23.3918853641972
-166.666767359643 28.1495676108963 0.523353687839387
31.8759170149058 15.1127334511744 -20.0602300673825
-92.80994136258 16.1567542004532 5.09321123191787
70.9440221602877 0.682206019040255 -27.7385792413193
-168.956050876139 3.97287482506643 -10.971421142582
-46.9389355109526 5.80150193836059 2.4755984776055
-240.209115163091 -38.6318557828623 0.31551342148795
-230.517202955196 -47.0349902429436 -0.150050268776753
200.954677262504 -8.25757628058058 26.3265452530409
-198.665984490856 1.93414537909892 15.1306515825182
161.8168092662 3.542825161908 9.90469594377095
-152.424810333847 25.8991696315106 8.15360202210803
-138.043671601125 13.9080814367767 17.6611089048046
179.879015760149 -8.32813752076355 -24.3977472533055
161.670757702757 28.6680081617284 8.59269510673107
8.96770193006487 9.56787368339955 -26.2608011109377
183.394500959856 2.47314764036586 -29.3513425878593
129.58205617538 -9.03077877444167 -23.1313036017373
-234.483932343157 -15.1778254755431 15.9539744107441
208.268494776432 -35.3423855013611 15.5462076790614
-154.352997637207 18.0974592662024 20.6996266582349
182.758524323009 -37.0889625084915 -2.02950961883669
-159.508203511332 -20.6677474715104 13.9103865416075
-219.682764832401 13.448895668258 22.5586511517879
-8.39717016857062 -9.55603883219636 -16.0958871585216
149.25837338676 -12.8576845545865 -20.2648533355159
-80.813905533778 14.8067667850243 3.57250308740197
-135.362419464543 -2.98852662884863 -10.8507914233557
147.174407383149 -5.76561474006061 -24.3755162269316
-167.242943596905 0.341444603454144 25.8410110296156
-167.320200808764 -3.93354466642769 -8.56387157249122
162.753204106645 7.45042909819965 10.3639995394874
-183.174259998559 41.5916729178165 9.50143473660168
216.829351017001 -19.2186532447996 7.00916391282662
-90.8649013413588 -6.75606859998013 -15.1132374208034
143.621914596264 3.17337182832061 -26.9308673607085
130.415132528146 -7.1353070166768 2.93480072482816
18.2072422476487 11.5239088384276 -4.90006235874067
165.736153336541 35.9267845901974 2.85033933561713
-188.680834148263 25.1903576675999 -11.4917405132405
-193.954936750004 -7.96178407595658 -14.1551379087358
194.434926225405 45.2406164754015 20.3257167322256
-227.150907837504 -26.2971763229168 -28.4059085299276
192.75911721099 -11.3598793953916 -24.5925700325172
-164.930824646013 -13.4712169437066 7.97952540405277
130.723030790622 -14.1843515679248 1.15006043354706
-206.802017216291 9.58576919818536 23.981176793469
22.1842739117752 -1.95643680572662 -0.244741652207281
