10.421964931752 11.4411296331411 27.4480548840631
165.473636931849 33.845702452406 -13.8614494519499
-22.325957821492 9.74195061373671 28.4705573563958
50.3838440445984 3.26425668039629 -3.92569598279918
199.713540070507 38.0773548649028 -24.5207786309657
-188.960051162261 12.0275639991174 5.08392043421378
152.800784190925 21.06942497712 -15.0491743681575
-186.282563807367 6.509355061126 -19.9767182975465
202.082809903642 7.79963477669007 -10.9640895377922
-195.83516494766 12.3647311759402 5.89313082454539
179.986718533986 35.8624671316414 -34.1034277831397
-169.488133367238 -21.0378458417327 -2.40367444509261
90.0231705908489 -8.65256166789506 28.8698222717786
-232.024745762368 -21.7814855512098 -28.7565917106373
-248.530002054651 5.90212136816525 11.1344812051041
-165.66344699325 11.9208518600351 -8.41115233605421
-40.9578415035287 -4.54717088679897 -5.45507136450298
174.961907213352 28.9592864812317 16.9706439324818
-169.798999676061 -9.73848550992136 -15.4065088665061
-57.4976706119691 -2.09944079901085 -6.56164653111682
170.448847599004 -34.4043255014306 7.08777669062824
-99.3517921098439 -11.1404143877319 21.0551526159942
-220.044992375126 -2.32056060574187 -23.8034616212844
-253.241620228774 7.51516867034508 -11.1894323989936
199.7131175796 -29.8120196124477 15.6018373660651
141.389499826223 9.49626694797041 -9.79714911073159
66.5029278205511 7.91874458623079 -2.50310624510735
151.385733749186 -15.5694993293828 -16.1898535455531
-232.776784355692 -37.0154335496416 -12.2310632224271
155.848855981028 -17.947108931447 -18.7551479810619
-53.17064125569 6.8150872532327 28.5311612560811
82.1196742813087 -20.1707145120059 13.958378894168
181.421104318313 -36.9040099688814 4.73608759251406
-190.928218730199 7.08293799946393 -21.6377166724474
-231.725734573862 10.2117243197855 9.0426137787087
202.596917568952 0.312175723263592 -5.20083822897062
177.042495996326 13.4560056994922 -22.6878101681075
165.326387323882 27.6914395204301 -17.6952402755411
151.409019478244 -22.3828089433406 -15.0502370078455
-176.768599254248 0.665990823567168 12.4152222904122
85.8535596731413 -4.90471276055195 -5.35122776023496
-208.087213616404 1.8176138604078 -23.9967710298524
200.989242721112 3.3126735053775 -8.38838853559156
34.5401409586822 -4.18009215370884 -4.20544050495201
-260.365436253474 10.5301530555634 -18.9876471665443
-11.3348513074261 15.537564701121 23.9127261284617
-166.679900936029 6.60351618862135 12.3807883529515
57.0990692849775 19.0856106741689 13.3285082922671
157.876674061151 21.9257013372011 17.878985923756
204.981030829843 32.7068817989192 -33.5165045460618
174.384664223811 29.7619062570257 -27.115162139448
19.9820895682508 -4.43437280700223 -3.74011733543471
206.493533089769 -20.8742285644617 -11.4543482829211
-80.7706300636303 -14.3779490208307 19.8108515229495
109.462197395445 -12.8099231597854 27.1477558835548
104.103806144922 1.59994929817432 27.8592572544497
182.807843845274 -41.4464528241806 -16.5351563887104
-130.667806869374 -11.9829734385309 -9.19431739818552
-265.421224285083 21.2109053237127 11.9740416630534
205.842023572472 -32.6623820266319 -18.3928412169462
184.545006043085 13.6692705065579 22.4472075222114
97.894933983266 -18.577937439939 21.4172459323042
155.290695059879 -30.3987984388374 -9.87914083739105
-175.523962889844 13.2991167101374 1.01402198211071
209.964803716201 37.1751722034139 -15.8082473559207
-231.47417117646 25.6087392161335 7.55448582637124
121.639720838122 -3.83482021611736 -8.36377605721744
-17.7420464367991 15.6418227755356 11.6905445093917
-144.00197441311 -7.0529759043792 -12.455769523596
-4.49032034885528 -13.7991205936019 9.80295765848992
-164.152413265966 10.898424798374 7.75742780020885
-206.212234977611 -23.0749339109076 -21.2829636981332
-251.402897271939 6.71163797586983 -7.73764411217448
-202.457097055775 10.0274602471346 8.24012087411611
13.0164365466477 -12.8962507264657 24.4554896671706
-234.347761935672 -22.1922464715798 8.77342455705347
15.2946373809959 -15.2484230965748 18.0009104420655
-183.064836704019 7.94902675895737 -18.7307337713522
-8.1651027274143 -4.00430322880258 30.3674788472755
-30.0884579577449 -12.9437821282216 10.1328491949149
-231.41592311854 -35.6184752714635 -4.47805799840162
-257.119823852133 9.41263773288764 11.6260115197741
-195.555575247269 -0.860485002824268 -22.2302421698806
195.352168533454 -35.8516727614293 -16.0094823106057
204.830568927509 -30.086122554752 0.416442878849432
-205.593891059949 5.22806504546712 -22.9328686749229
150.438323191282 -10.5326639586878 24.5875547050327
202.870676203399 -12.6799414522608 -21.3104722546892
184.242783876027 43.5970242420635 -10.5706987492482
198.762529181774 -7.90830724219686 -26.4245032658505
-27.6091626382559 5.16681804905477 -3.02287821121119
-153.601933650328 7.96243223266258 13.766045833361
166.458017860581 35.8053388500262 -13.2358685977738
-106.520998347416 -16.6608868885107 8.94497164401271
185.656461434613 -38.5968764661593 -1.79166478196201
-237.785907731666 -5.09319236209454 10.8006037354414
51.6487664872108 -8.19954725434081 29.9130145771909
94.5284475126592 -0.747961782392153 -5.60793854614798
200.627506645927 12.7630590258809 -24.203444050728
-7.67191459035685 12.7136961222081 6.91636358383871
188.875516979975 -0.589642110049782 19.9854950257671
24.9425555416468 -15.6072217229871 9.77573366717066
186.28472427963 22.3759804578014 20.4827711237576
-198.436482304759 -26.0582503858281 -10.7308796844324
108.349459505707 -0.299059229845803 -6.55539349784697
177.034261289017 33.3591095329145 -28.1145524239486
192.40486319424 13.1147525040134 -22.2006095607012
77.1638766857608 1.72899983986499 29.5459579014434
205.362311072923 10.8584403387963 -18.7570151260575
-158.118767820045 -17.6864798592049 -10.233415258601
135.702464253848 -24.0749682430235 -5.49055750546118
151.843935339846 22.2715212966646 -14.4720979688971
-150.877957438559 4.51959291240442 16.3561116115747
-247.638837815227 -13.5462169573774 -19.9110358071667
72.3802053217647 -19.5138205439089 11.8018860691883
167.00415400683 -14.1140994347806 -23.5984184023137
-240.717341695879 -2.47666555671691 8.91127357831779
189.597210719058 -35.6008626418367 -32.6777052678011
-61.0371112438543 4.56257828699134 -4.826680926243
-72.8090320486922 -8.21096532401494 -1.03916403252604
35.4625025669381 4.54095654214334 30.4920714411086
193.405217533096 -34.7560766242147 -36.1730316931079
-259.31449536755 44.2267810084687 -0.457264077301422
-93.0459734801324 -7.58730389986309 23.1972283180247
-203.647234900629 10.4348432152951 -21.8379314373475
121.027780699801 8.99785459690352 -6.87921778797875
-221.659802505284 23.9253505185979 -2.38297195188196
157.072149368314 17.4736914353781 -14.4731211394305
173.79660936123 26.0970293120259 -31.7439055168661
195.30814728649 -9.94754662820465 -31.7261876871196
-264.035455749882 39.2712093574616 -14.946946278039
196.483484674811 -35.1441743565062 -21.8628025996749
-103.589981999664 -10.2186382775002 -5.14379471997907
46.8430158092588 17.3113800696094 9.87589717795968
-246.852539491174 -30.0311599716712 -0.780777179331546
184.721531241777 -21.2977454496083 -39.2859099363758
-209.886460393107 -18.7954564243259 -24.9737239718645
-29.2718171740753 -2.28404666341414 30.0851614554478
-252.671354896124 -22.244685523351 -4.45704816935394
105.555071616684 9.67527877006416 24.9599540411079
199.47858032527 -6.4749587814728 -21.1581593017479
206.517651393825 -23.7579805103443 -6.89539961270103
-182.816089163234 10.4269872093138 -18.7878382788632
135.353462213053 23.015284940907 -5.1725036311726
185.576819275489 -7.27235017572022 -33.5528092820965
-214.44372705084 -26.5001987254445 -23.6437965260289
-59.827205130935 6.38089700522192 -2.84816841315127
179.264697667534 -36.9989699893278 4.36026043334256
162.501947278705 -32.6281329026128 -16.1330840721667
182.616455209952 41.9991903197682 -2.61227964762089
47.8328992327952 -14.7074570154009 24.1205399951337
184.801854383526 -31.1693646644864 20.953005860356
-218.230848771618 -7.38403849367019 13.1458803708934
-234.956738380667 30.8285982805362 -13.7804820562481
195.08407604375 -34.5974795830228 -20.158139509619
190.9452414563 -33.8885164201306 -22.3575735566919
-239.197050399241 -10.8397607463347 13.9417403351395
-79.5289168465709 10.0797255152384 -0.0943921196688281
143.539377335655 -6.25227721130323 -12.0364413644
-65.3051821099456 -4.71904834744652 -6.42240555524976
-181.496980956837 -1.43271634202741 -17.4119891790231
176.916977774981 -7.76361552929132 -25.2650603644829
208.52666179602 33.4934395205251 -4.83227364800329
2.57833161827566 -14.0702209335678 20.7730671082271
121.973151183882 21.9815269043553 12.902504370195
203.147549639875 -11.0551463947065 -6.15268260491564
-244.512589885422 -8.88607441677413 1.92861088532975
0.617624007853213 15.0216860788289 10.099107569235
-125.728133613302 -8.9448540965955 -11.7329370587116
200.535416506672 11.4061986913086 20.3428811457106
134.045572517013 23.9597666691221 5.47567187150933
153.845027306053 27.6596829686045 -11.8031539499323
64.2999721898631 6.29228331514287 -2.94281003076926
9.04626738467027 -14.8023135998717 10.649628710818
-180.875844183166 -8.17802905794883 11.2532018054246
-4.87660202240581 12.8659615097516 7.06723528449927
188.869349090303 -35.385005198986 -28.3253683550214
-118.202844823047 2.35637693483433 22.2896146826274
204.609124178024 -23.8039783342239 4.6630432101673
169.67356380873 9.61122761432257 23.1092524428702
154.930612532581 -22.9519248413636 21.7190878370083
-232.271468184653 2.82425393820663 9.77114368492048
-159.277889953827 13.8733941615435 2.16521008082215
-206.131570429054 -29.9568371132885 -6.93592542882431
159.334699895194 10.9781753522691 22.8776771649964
-58.5712039825753 -13.7917670757653 21.7126094800677
42.3721537744407 3.07497359548726 30.9801567714611
-149.809923472074 -11.6771656419956 -14.187736147503
201.313084674867 31.0400275684217 8.1925352426979
157.606642987668 27.5968574782186 10.0815614122259
134.668236687424 -8.76661340045804 26.6640668829857
-23.4714983332099 -10.3848917981385 26.1737106869447
-252.425004399281 9.84484756833248 -17.0517070865215
180.546611526523 11.8369951558161 -31.8955240493677
-217.688115772706 -37.8234372556624 -6.46621142878553
-9.68695900594834 2.93913955812609 -3.15191214626269
-171.642344211132 -14.785848537629 10.3448577114468
153.940288412069 5.55232608117305 -12.204851203221
183.917323143121 -7.33153724446527 -33.7918197535349
-7.18099619408524 -12.1975707859689 24.3179309616272
12.4715385968684 1.01581436330536 -4.11987552477855
-238.290716670665 -13.5432199974719 -20.9031314504847
-245.630851428083 44.5525816550128 -12.5659937231106
-233.60844343623 31.7725915884717 -12.3100183074726
-203.794196334224 19.7527071749284 -15.9078524324016
123.49261266871 -17.6395715955583 24.1845785981481
-240.324059813643 29.2326828143823 15.5009096543213
214.138828868698 16.8314512994657 -14.822938041527
-108.11632659682 -10.4924573814538 -6.63312762169621
89.4429824694088 -20.1329151924133 6.40124816611582
-76.2343650794552 0.245234930933126 27.0752480589259
-212.457286460213 -34.9344807860001 0.615324609707898
-3.67447362849808 5.96879306482756 -1.48152296881446
-167.902770815215 7.50695321229378 -12.5147598706287
-199.306406657648 -12.7106937870673 8.73665267132707
143.760600963752 -15.4458223345661 -13.590413184864
-89.1984848805585 -8.08837969779121 -4.71557726173194
-234.871752242081 -11.2699629496243 -14.8038771664951
197.945529135719 39.0875417223062 -20.7518183437129
170.40688443246 36.1431621897265 4.05316301378101
131.468928099285 12.3760915049232 22.3738186922621
-260.402431021987 42.6117631171011 -11.6593603579998
-165.844345598824 -15.7806701356503 -16.4403482724595
-2.43127076159894 11.627280048326 5.43541079764002
202.448731548763 39.4837322711016 -27.669159574897
-262.801958719114 25.6285723392188 14.3069088623318
-85.0335144490071 -7.1639411086539 -6.28481689501913
-184.827507282043 -21.2556164916165 2.24017329614668
-268.06422750969 18.3284141990505 7.90348903455941
-253.379604066542 46.5449623030607 -5.10055113191038
-178.796852661026 10.0759959096465 -15.0079247499712
193.374836434671 33.5043193960483 10.0029989099612
70.1115648601067 -19.1472771278349 15.3241655600323
186.09344932561 15.3758947696147 -27.409039972341
-42.6147211818572 -5.89558199340186 28.1529868782597
-265.091757087474 12.0731523909912 -15.6403077315366
-213.758791782713 -22.6126220933964 7.55447638926323
-220.528892466796 -36.9337699400534 -0.280664129142954
168.02977520086 -7.58249655812468 22.7391083691645
-206.308044549235 -29.7561629546053 -11.9521291490308
178.778067061246 -31.4922665784331 18.7045218977941
56.3178713243635 -18.0362069448521 16.7540548918038
52.7048850665696 -13.280188576499 26.1715721106503
197.495896580586 12.4707964379731 22.3290271933618
31.5624631819672 11.5033775712722 4.10390662808506
-51.166836007965 -11.0288437411446 24.8680575963607
93.6641877014412 -19.0197663849105 1.68937687123179
-43.3966619330993 14.5856568470978 10.1677308180401
-262.271753372544 7.32085075170421 5.77417860688868
143.612647968821 16.4150272726817 -12.2219467997926
-262.478244180571 31.4833302441144 -21.5663211430092
-82.6632890960757 -15.8171892374079 13.7387895362188
-69.6481068874965 15.6666512564185 13.8449673988054
187.734709896625 -34.2284332683491 -35.6577044134209
170.215618803008 -35.377020369721 -0.44808142300013
168.424115544364 31.1726871541597 -18.5499607497024
-178.436512277173 -5.31107306508368 -16.6951724564598
-213.393062840347 -17.7989986750033 -27.2334022963157
-169.134747756567 5.44655498774809 -13.7179826271249
-125.815730252112 -3.21171294086868 -9.87874390648014
-208.201072429768 -22.1446311204995 -22.7385366924149
186.58573508718 43.241839045799 -7.51268390467092
171.893785927311 -20.6617582693178 25.4856009789873
-242.854498608209 -33.6743465039381 0.934645888091881
185.673631439642 37.6612560278994 -36.0621609399217
113.386689471605 15.0610562174271 21.5412475236325
-244.67697463149 -15.0337192166569 7.6835628613946
-159.874684350178 0.267077585872141 15.1770085100945
-103.561717762202 14.3230200036675 13.7891085266219
-27.8759138150924 -5.59458937788151 -4.89876966503442
208.852680734356 8.62633088884026 1.00813523588537
-242.358034847385 -26.6973752365062 7.01154659158866
147.792647943146 2.07591849721738 -11.2015951749423
-26.3084871619861 0.864372085484995 -4.45650608311572
-246.010496995804 -15.5333657689484 -14.9098984287596
170.323839852352 19.2605296969904 -28.7020593031301
111.629897479751 15.7566601915746 -3.90845757491982
-149.365086568218 -16.5698279833579 11.9412665822996
-230.201304533203 -36.7234046155069 -1.12167610669739
212.724348346592 16.6162656538804 -21.7484108122625
170.954875301862 -27.327173534834 -34.5746386796562
-178.884098377642 -1.36582543696718 12.1006999648952
-93.607299275122 -10.0711355851287 -1.71077058752735
72.1664195064876 -18.1916361699107 5.33082797692079
157.80961075517 29.260760417833 3.7571079543793
-222.553313329252 17.3148491431841 -14.6599918410386
127.81069388182 20.8166416067297 -4.30453228759327
-253.830592995387 21.8002758781277 17.9792248777996
143.947482592119 25.3205555946864 6.42542698145366
169.255049567229 -32.2575845326307 -23.8985674591438
-268.283287597811 21.4602777004555 -17.3976148183529
170.393696926112 32.8204508605362 -19.2898511374983
-97.5671486520979 -0.652125229980832 -7.76473690213209
176.628534177897 39.7426056885569 0.250761087990693
186.615395124933 -35.7627645492399 -28.3609779256036
101.657460733126 -0.811127830376631 28.508947856055
162.040832704259 -30.8297541990067 -17.1549277572812
205.610994204089 4.62363427079085 -9.04704747190899
-258.967157382254 12.2999084688795 13.1263575682312
66.6736687130501 -19.1379533273487 13.8133524989677
173.534124708483 6.42227699331271 21.5256936754211
-175.688174525893 -4.34420304343322 -15.9714978534519
-52.7675174550391 9.06221901175533 0.678401538786048
144.631124927763 -13.5369893341897 -13.7508283283978
184.089021905869 -32.6640969048457 14.8970707153226
180.778415863818 14.6358870466307 -24.4441847991792
146.091214821244 -6.40517933759455 -12.5763169946775
-35.038214850168 -8.35988149669498 1.08005031080339
155.203331549076 -14.8454679278076 -17.9873142518819
-40.5342243829753 14.1197043034388 9.36497112620943
-183.751022460781 9.30233286336725 9.17213086916832
185.773972766396 40.001309380052 1.60237862052818
-225.961242889131 21.5911085744048 -12.9063636398327
-222.635881376795 -21.847297573594 10.080316072486
35.5565886075441 18.385783322792 18.1800181840838
-167.369851827295 13.1321249824862 2.91872568240119
-201.036663027651 -20.7060242065614 -19.9340392595739
-71.0008610562954 -1.9142919661678 27.1243561324601
-77.6629743142555 11.4191694581703 24.4214554100899
-233.478223186458 39.6115012719192 -3.9181781912676
-233.64072595308 -7.28553074588406 -16.2720139754883
45.006885008794 -3.67889399466585 -4.80277221729324
203.96649498962 14.1707611639927 17.4624309745599
-269.651188792579 18.752613584847 5.41668472949585
162.115238466011 25.4177312462681 15.7504252056324
195.151393007909 40.2241442413217 -17.2216029066278
-100.569162619475 -7.93460971098142 22.312493387749
-201.407844760729 -4.70947073266764 9.38554023564468
-208.413777885798 17.5048377383838 2.15329069795742
-247.236775528481 1.81906561838009 2.29142254964803
61.760299277116 1.50167992941826 -4.13509934519423
162.349536344752 -6.19296061039664 -16.5019154439214
-256.265024626437 5.31783255008007 1.66969066896053
-120.483390044079 -16.4042109880829 3.97448671660097
-229.913600438408 26.6907394536799 2.91484718354161
180.697837524127 -20.6449389473868 -38.6524515786136
-217.972211481858 -22.2668119268305 8.8706393226993
211.847560432598 37.0876179221581 -19.0127945895336
-220.527587269399 23.5488845016816 -4.84781387580919
-245.727295918657 -20.8402249726168 6.9756677075872
31.3460288190978 -0.183866178221388 -4.92517125772061
184.022131128605 -40.8443657539018 -11.409158555699
168.300383477931 16.7165428719933 22.802918862934
158.923396120116 29.1535614463941 -12.2595667197099
-141.035299252841 -14.8837850697065 -8.5022619061286
96.1899625755019 6.02922475896014 26.8391928680812
177.987774045377 7.6690792786915 -20.1713061419408
102.427068569045 -4.00811088710291 -6.43233103856348
190.246510793154 38.2947354699748 -28.9913430774589
-179.08163946431 4.45481569184611 -17.2653190190534
196.187870648809 -7.6541078299775 14.6847522673773
-212.876853346449 20.6352428647003 -5.09938804897848
87.6619454164129 20.406203725918 14.812993640379
96.1089906493186 -20.9391908697403 7.00723160982051
149.18084477181 -26.7334487169849 4.3042024366352
-139.614530526746 -18.9393046923114 5.84972276587577
-231.474816456097 27.7420444760791 5.80515507402404
52.1561497734062 -10.6805657330186 -1.40763659243631
37.6232523909162 4.80172748212058 -2.79859993394144
201.238961867638 -30.1211789571476 -31.9341993553717
173.106739421199 37.0905621428259 -18.2340541201024
174.085970536651 -38.4244186784507 -10.9971809449223
140.024298122731 -9.90869061816517 -12.1554211874698
-205.710281002848 -3.22837461886873 -25.1421292985694
-212.290412109288 8.13096153516355 8.68499493062315
164.305964826295 -31.4692867823436 8.33292562358095
-182.205844210231 15.6963385245936 -8.4985136254899
-75.3447185348781 12.8343567307863 23.0434193351384
-98.7357658063578 -7.81196278169108 -7.39353400193283
-40.4442030668158 -7.14994411541864 -0.56121610542913
-15.7773805687299 8.4829850012035 29.2106197141697
40.1466618707762 -13.4384499756042 3.25256339084087
-136.526689727166 13.6489600823719 -0.75290496592846
-31.9502785952723 15.5215061000496 12.1017069460914
-112.246360547259 13.8817521009973 12.0716954271901
66.9914453249559 10.9646450062203 26.5395012465117
58.8572753119079 5.08153310232112 -3.19704279432504
-198.190106576586 -10.2756093277613 -22.5554820956979
-208.739496614768 8.90739004619212 -20.4602547232918
165.897290479708 32.0081432391441 -15.2031679673118
204.019464974834 11.3660196699102 -17.2986227837707
-11.3195754863592 -13.2335760998727 8.9142393494974
-242.912846798439 6.91597528477562 -16.0055445814813
-79.3673963938356 3.16141849424155 -6.3340664376926
-209.608722370715 -10.2421411148993 9.49250449404884
168.871175269825 22.1073274670093 -22.6442345080292
92.8703737460901 14.9661746383479 -0.60333213746108
0.984200337684405 8.36261887948477 1.31579440849723
-223.290880289184 -29.1940994283896 -23.013173629794
132.199769714156 17.9543255374914 18.8729526240426
-224.2044814049 -27.1432125589877 -24.999795103706
-198.791370996131 4.64166755376261 10.4702746923245
-72.1639703042259 13.6295586357947 22.3241595092093
192.967230281712 22.098760031605 -39.1186614438223
-235.117373379512 7.76763281830671 -17.4231394403888
147.497291360485 3.19455010980131 23.7723791836208
199.950655034265 -32.0724080567097 13.1503440202111
-243.401224358841 -13.9513138069758 -9.68381677953572
-210.892340400049 -33.4200080777085 0.931625074921215
-191.156071850838 9.68665582307398 -22.3363667223189
192.715109430151 -23.9753279805323 22.973254789167
-87.7104069540094 -4.74640571783869 -7.85560365816845
-112.293803811021 -2.21777255693745 -8.57558644885973
-139.661568487396 14.0644032296649 1.56495511111687
-239.916520726872 41.9336694120453 -13.4109133911021
-219.528989790019 -3.8492085653786 -26.0565842445355
-243.105051446782 44.3364439399308 3.56088442211159
123.140173025268 8.08163896975173 -7.29996556503433
-238.032759367742 1.46484571668667 10.5570700111951
-236.044320656721 -34.3847735744074 -3.21630760699232
-228.3661104509 -36.8936883003206 -0.620140189329364
189.372522236741 31.7064367613331 13.5318046921101
-15.3705736535731 2.79753411194265 30.8808562289571
-58.185923071292 -11.613464138301 6.26911185938025
-198.177625833316 9.12236638255985 -22.9306626073181
-206.508926075695 19.2275256367447 -7.74101559609304
-124.276256005051 8.12421795968948 -6.49210351197737
-226.464920328696 -33.0483013943925 -17.6273752867302
-63.3339274740688 -10.1116958932876 3.18585254607551
-203.726033794628 -6.19489774489586 9.32446666758672
27.4979963775993 12.3416872499537 5.08471639298201
-250.50990809661 42.2338435313013 -17.0907329168375
-253.086564641867 8.93904800161944 -15.4540113724457
182.229653278609 11.234740554802 22.2317789754244
163.418127452622 -21.6746487091686 -23.058372799655
128.228227311409 1.42222015833644 25.9499595757908
76.1039491566515 7.64096624659677 27.4930859979873
180.124874651939 40.9594988842425 -31.0505938140819
-171.776572029814 5.96492963422865 -14.0213509648659
-27.2649806490678 10.9317950359361 4.49149994750073
126.871607451602 10.9201041277104 -7.53668452618811
-122.142582562789 13.0776138889358 13.0708139374426
-180.882242613844 -19.9542696233743 -14.9327810248903
60.0332163091391 -3.35366019699417 -4.37234329555179
187.652703074705 39.6667737130442 -28.0511118917685
-89.8315271283947 7.75790419100112 25.3151672180487
-96.4581715297557 -16.0365977297351 16.4681116438506
-216.588908200021 -5.83623707033128 -27.7557265448302
199.690262963233 -34.9470419725253 -31.5240309871094
193.052041564062 15.3843060653648 22.3422834933197
-242.413978436324 10.8821463386805 -18.6556285234804
-3.60897647824954 12.6424860328569 26.8914996723372
-97.425762092966 6.85994395182125 24.5163968618995
149.168483945052 -17.1460650972271 24.6648730116156
80.1752185363295 -14.6600743800992 -1.79751624559227
181.145385424556 41.024309128708 -32.7278631470254
184.313128999009 35.4149243292527 10.5133540810119
-260.080034609325 43.6338803335359 1.01489487067009
-154.358045728067 -1.97068972396537 -11.8490429765371
112.732991119165 2.15864453641951 27.1164352900491
173.522353891261 -35.6352742875563 5.4357008756731
205.831466402371 -24.8503778054951 -24.3650741791524
13.7943931860441 -5.15992854708055 30.461316544949
-270.609914023928 35.3498252287856 -4.95358698239003
-197.172597009003 -22.5188708136456 -16.2260063535771
206.011261983516 -32.4309059341555 -11.6775663613811
158.34758440108 -30.3898748970965 -1.70627123561209
84.0056257632499 -19.6164908850101 17.2262663388812
179.948767852823 -39.7042709098324 -6.96001713820309
-204.014941290655 -22.9368263201029 -19.9560110790874
169.793118569269 -1.62561244093949 -18.837442663479
-91.0888137681825 -8.95532007416417 -3.08552158351061
198.269300160754 4.6446758990905 15.7397237819771
-219.142681726318 14.9377360870384 7.10483804894603
-246.846249364581 -14.8664167427463 -16.8764975820122
213.67459647109 25.1202292176129 5.88036444383077
-226.818709133349 -31.108338131056 4.50166048477511
-154.10547307737 -6.8318603941129 -12.5928621964527
-46.3955766842633 -5.11631190916979 28.2750150828877
195.337898486229 -7.40375436394407 -21.5419500337042
-42.8784242636395 3.56313438241734 29.8157408383297
212.656948413104 33.3161548059093 -5.45509214499372
202.494258892123 21.3035899363556 16.081563928926
159.818261662201 -8.55076317291352 22.8090501459846
115.775940277767 -19.8929177502979 20.6093203037912
-200.866422363158 -27.143193530571 -10.7322665133585
196.841691412801 -35.3230518238218 -5.63482752888512
-19.9296748641422 -12.0761004631837 6.70420346450194
179.581287032587 -9.20985240192755 -28.6820013567897
-78.3664542375348 13.4333000996764 21.6915785969513
47.6855963928883 18.1673645853687 19.9441799416129
20.2895454654504 13.2402687132454 26.1382271700356
-265.924949459166 9.46053971096914 3.54721414520071
144.746938227008 -18.1446645295743 -13.6800156611775
-237.776590876303 38.3396453412706 -16.2428135480233
211.279808894691 32.0750046035699 3.99375717224072
154.201917421321 -9.60369192900706 -15.4772511062715
-173.238582622136 6.60232472816851 11.2898022786512
-200.985216979139 -25.4032871066298 -13.9826176231169
20.5823173070057 17.9258052614691 15.5129993350917
120.837620182232 -16.1810502960624 -9.16632804343276
-140.369077119725 -16.6676126054475 12.7315783865118
199.659702399109 39.9470263015368 -6.63541927482279
-263.719992229134 10.9101659341081 8.53174613652645
-254.776903568291 5.9227742464151 -5.45587409664066
-209.369171872841 -32.3074907535161 -0.966819665626959
146.61898702901 -26.5417921456862 1.95436982734136
146.297223530808 -23.0366082733762 -12.0303130192478
99.0319640590577 -20.7782855731481 16.4480942873455
171.035626256165 -2.44341453987361 21.6372579464549
-248.023134013331 -14.6128313952817 0.364697608021592
200.690181783857 -39.8086523160355 -21.0521568962365
-106.83285456867 5.05744406278708 23.7332432835908
183.643714881736 8.55175078318838 23.4703094373372
211.620863235064 33.7599785125609 -8.97398395922422
202.875088681237 -33.7472089554418 1.57275821690186
174.457367139182 39.9207816815829 -2.51026054760156
-183.082135781706 -18.3444384506232 6.38955143258023
2.57316474744185 -6.69964311732361 -1.84803847863963
-129.313302109864 -7.73998018309007 18.7769998410231
161.818697908728 31.6341381263998 0.338437726312669
48.4377646436635 11.8361543431919 26.6628458656517
-261.135243708211 10.2270416478998 10.3150157969359
150.969954436006 -17.3188062619469 -16.204995597346
178.372232113377 -38.142413310165 -1.80224945516157
-110.501396544025 -10.0527502014484 -8.73175482720536
-207.640038805717 -30.8153694580065 -8.37154789357332
177.794987571309 10.4639100448027 -21.0863501218972
-242.358345384238 -35.4680330868583 -7.13518504198169
-85.2406439086735 -11.9756158737423 4.08263697529488
198.221157945841 -0.275586098130001 -8.26621587203268
-196.295914664036 -17.4480429358423 -19.1363153592608
89.7424562902222 20.6726243897884 12.0552462973124
183.33030609464 39.5333912156422 2.68063369151869
176.147481922007 3.46246842439686 21.1889606245393
136.940052397587 7.22497542541303 23.9718961203461
-169.04353462361 14.6507163195405 -0.450565378089372
-228.804392847868 -23.1321710558831 -28.0814126689095
-153.666818426362 -3.86287449532216 15.7891523408493
204.346220975142 -30.2981587778136 3.24227934853004
212.793324247598 32.4709311758402 -1.80598355373858
197.116389326016 -17.4135063263413 -35.3841857710323
34.4400931499564 -14.9051699573041 22.0159665888276
-115.013378226341 13.8962745446305 10.0127580427203
-88.3192377428337 3.16733296549482 25.9454380372008
-110.299808283963 -5.4880982306965 21.7281642141637
202.536984246165 27.7873307794472 11.4222535225059
-133.997251091923 -18.6971634721239 8.31958505975428
-181.85841025446 16.132694367812 -12.6640464959992
134.561918368046 -7.54117272627624 -10.791440997637
177.000737072557 -9.42917173050312 -27.2699821894293
-219.138365594675 -36.0159276466604 -11.1352158972789
165.599106684315 10.1349967619086 -15.9257543244993
144.017798006389 -1.19848817019703 24.6075829066726
90.7394151581114 -20.3019082137669 16.2131355832611
-109.394214787171 -4.96029724225935 -8.66752514258486
-184.879453757765 19.8163777277482 -15.8048855050637
17.2444100944636 -8.25649410805954 0.0416256308896527
-126.592051264889 -17.3101792682215 4.07070864269559
-178.979457362528 7.36870565780183 -16.7036074247943
-47.2086137165467 -5.61376133071673 -4.46986270615022
203.667180856128 36.0203701919466 -5.15889133174238
194.282297455465 38.3549942018288 1.55227380853197
-177.608636345354 -18.8724749431462 -16.2084293826758
59.1059628679278 7.65671529028269 28.3623995210133
214.354235692736 33.1664750801814 -5.67712379866682
-242.404755770528 -12.4719071290077 -23.1539747257728
-234.323395875633 -10.34633002019 -12.8524847680242
79.6159862954557 16.6887634590163 21.7605526707594
-142.000786647424 10.3115636206325 13.5219208571428
122.769203334207 1.9418189297026 -7.89759728744492
196.600365164044 36.0850814150092 4.09257239309321
185.867067181933 -6.4538789892276 -30.8217780171768
-245.899441110186 -12.2534882911398 -21.8042474093666
148.615674160348 8.15195309857213 23.0875889070468
64.6654310951293 6.20347561569908 28.7713209416544
121.581792079799 -12.9010479279372 26.8370681888488
198.177553487524 -32.1213090799333 15.5266165158668
197.226684474327 -6.6996501001663 -18.1629589786677
-140.026510080373 7.4317860339999 17.1412282276642
-177.661249159807 8.20511110494012 -15.1287570610694
-23.3667222681943 4.44285101683494 30.2990058393579
171.93324359832 1.98563634175662 -19.3532663263715
-47.8300161453455 6.41963708235343 -2.60776008146654
-261.47003534349 43.4896610419587 -2.47514033840289
-41.140571770535 -12.9447320624178 22.9329329888763
26.1185271144138 12.5802912150005 26.5438332784504
200.141706144489 -35.6660278854179 4.56507682553714
176.18474686042 11.6585951603446 -21.4730137310331
126.59111070609 12.7722731765558 22.3983342385502
-209.910852262077 -6.16222949390071 -26.5107983715111
140.728785190434 24.915425569344 4.95010722374952
-239.767213654195 42.8416500685001 3.34026028573668
163.793683792564 23.2852231310283 18.3920674164238
87.5646398561141 -10.6961220587668 -5.7061928309909
-94.0572543749456 14.7861033088272 11.5908079686098
48.4138918373628 19.0300296363359 15.3867343994456
195.467139318803 34.3197697139427 5.43423774115204
-73.2217842751493 12.956427297324 4.73291634553847
181.452984819476 42.8199460315698 -16.7927668313409
-226.40107242012 25.4943036290727 -6.91139189386544
181.250661934453 -39.4597058468122 -21.0285553496465
163.629582895287 -29.7977350937764 -18.5837967521023
204.262292062151 -15.0118834461353 -18.6459336649491
186.803087594563 -35.4509892292007 8.27917133446973
95.0132008212245 -4.22356139272952 29.2654645810364
215.222778339487 32.9056570663046 -12.0164311313725
194.612456775862 39.252907703605 -0.563151250726345
35.3325462627531 -8.81085439526778 29.3535288192056
-114.006908297327 -12.6750326250118 -3.71660678479746
210.387695076507 15.4846888036455 5.84242513245104
-42.8201396073178 4.44640513087474 -3.84005198367676
153.224756667807 28.4668678809344 -0.633284062167981
200.527359332654 -34.2035414081122 7.38453830734507
4.85722558063952 15.2436024214423 10.2990165345739
206.01519011297 29.1970419829494 -33.4621222640744
-246.251039745215 32.5706229772434 16.49985025967
26.3511859350787 15.9694536739306 23.399252884794
-251.820772501712 -23.3025772911345 -1.34036702352483
-251.020126802411 -26.9335240069697 -11.9235170610837
-122.105014864181 12.4019141784076 -2.11941854398206
179.23123378206 -39.1983503114302 -5.77900745367327
206.391346266032 12.0923053247142 17.2561923160551
209.411090320145 35.4573649104768 -15.3214396968875
148.978612833039 -25.5937737780291 13.3961920231378
179.404529179239 13.9074491177795 22.6451000211403
206.143712247602 5.53526247001524 -12.7136747893133
35.05184888764 -7.39673159890497 -2.88957514602707
192.320374991421 39.9091660093142 -22.1850479223618
-15.8232205685283 -14.1313334421349 16.4860569767364
186.350379292834 -8.96358186902464 -29.5978498175455
151.735526075886 26.8907983224772 -12.1739606028342
-244.145046718718 -32.3036768361303 0.421520600981585
-62.3065988758564 -4.21327380687562 -6.50680525793398
152.386704346913 14.7107174163872 -14.228150697916
-155.91746184975 -0.375761066750033 -11.8913578498215
97.210770052654 -11.8357680552614 -6.36261411928351
-220.770769960984 -17.2621338955129 -29.5867490940959
44.976198213873 1.65355465648797 -4.38763948582498
127.5068982633 22.8270869270154 2.48184055056742
-229.876547343271 -15.3958372023412 -29.9117339887522
138.94895029 -1.19216242279071 25.2949518830734
10.6103463460732 17.0627704467867 21.7534756923114
-201.879931716377 20.1963752241585 -18.1156276205125
-245.457374602329 2.47403636078225 -8.80101333981734
178.964327603158 24.1909087869349 20.6191981307269
-142.326838117903 -15.8487014568341 -6.42189105298675
-167.913012512414 -11.4495504396274 -15.6319545260798
209.536955312478 38.0144642417911 -19.854439140255
-213.470895157174 -36.2786041136649 -1.60061395049485
152.23792157491 27.2938207736856 4.97586776130631
181.6530818842 9.40815510020887 -20.1603204232291
-84.7183762464018 -4.39673963299146 -7.66708852868705
121.211142515463 -10.3734908308527 27.5447935382636
-32.5114106851937 -14.103994454762 15.3466089976802
169.912432258017 -20.6984418859793 25.0503033259054
193.897008064504 -5.76373214488139 -13.5020659371736
-232.788027499987 -35.9038417636093 0.173639335407463
184.812173376755 -34.2538038112645 -34.4538551070012
-37.6373154535239 16.630035566655 17.6209467796521
192.822357356845 -6.79602146131654 17.7711880042063
-136.808727992586 -18.0506281704763 10.8172090188816
210.465196944057 31.6123531308194 -0.486750718324294
188.421302026959 12.5128615654673 23.6597957157305
184.62246602452 39.8069378860108 -35.1328867522219
140.756281478437 0.311964001270021 -10.3643055394654
-215.816731593743 -23.2639990888765 8.17096712222316
-34.6849525758735 -14.2828461890959 17.6066049382297
-159.043624073783 -8.02896291774653 -13.7503370718444
-221.082662485085 -25.4165928212179 7.95771033171659
205.929975892835 -31.8720740467671 -9.35986876439793
166.893414108387 15.5842731587983 -16.5698881937127
142.791469655947 12.6645879740254 22.1258510092764
177.783108905592 -30.5364772526459 20.2894223605262
193.642333228153 -32.5464589260547 -37.0612558659605
-214.327083044169 20.4532960903548 -9.61881852131038
18.5822829078203 -3.83928756005568 30.8784176326869
33.6889946507837 -12.0474336484032 2.35560672360811
8.31465569447942 -12.9582962317304 23.9360535953109
-79.3167666690761 -7.07730445260371 -5.37040151998267
50.7795076729306 15.9231968213419 23.3327765051769
-247.914771350817 -26.0777779989649 -20.1405873352254
-234.32913777316 14.2619510067894 10.6465003522317
26.2626328113557 2.87955693645738 -4.30733704817443
152.233637623682 20.912409484667 17.3943549971162
-198.989035405374 12.733880322566 5.70388287007837
-59.8776122211367 -6.36308863172484 -3.18026139124417
-12.9216179844911 12.6311862728816 7.02454851368113
-267.384958668569 15.2824175257632 -15.1773705272447
181.770983663387 -37.223484351548 3.06152482539837
201.570392025612 -6.82822329150273 -2.32164920669034
168.72766406598 -5.61583483907611 22.2730471130873
-74.3288848413868 14.2611647513828 20.7182731064693
178.45576570922 -18.1046398822361 -37.6827584286457
96.9167190473108 -10.2830229065055 28.2165532142156
185.449098965537 -31.5949312021493 19.4122213028124
-267.271518585494 10.0890017166944 1.21767772759174
151.394855307496 17.1508427297159 -14.2079499013785
-221.921923504963 -32.3548621205558 -19.812019721531
82.6820084807535 5.78535789745561 27.7368461019532
-30.7637756687519 5.50793960249727 -3.21316945578624
27.0049443060116 -9.65607261022312 0.802012179339889
-220.514445883537 -28.5831441721217 6.61781033110096
-129.152397392854 -17.7837046347375 11.6056841159785
204.11294861588 -37.0171047322159 -18.1030363216927
192.21920712752 -19.7727001043029 -38.3429143255381
160.218258626091 30.6726963647757 1.37614219140308
-223.298016879878 22.560550342243 2.54201342555985
172.113074977617 19.9803867602832 -30.4441314848994
-244.521629663137 -14.1895292689481 -7.88164389067769
148.659791223713 -6.97685681739426 -13.2306734152858
2.66257530765234 5.82974700583802 -0.998834392145455
80.2331131244548 3.95632110112033 28.4826010390865
52.1785766856962 -4.93130017168627 30.8859484056392
-95.9887973222885 -8.32310143644318 -6.06961908463067
-21.893941507855 -14.0079136709603 14.7465881016677
-232.271222696317 37.4795198372639 -5.64754595764873
205.073132492237 -35.2656452227476 -17.6652324306893
76.6853090188467 2.89597747555242 -4.49616750013495
-132.550234736302 3.27281705838513 19.9263816856638
-247.001427708932 20.811309508127 18.1165165877138
83.7274868028067 -17.062481133391 0.379190650565221
-208.48013222735 -32.5651075309091 -4.60368096279115
195.015084543695 -30.7844897812621 -36.8236258064895
-34.0184515154296 14.1117646026434 9.32775570567149
27.4537116440787 -13.4174479107773 24.2469238856836
-98.9624653047752 11.0003663393454 -0.989963639450942
168.376500879006 36.5678606224268 -7.46227011902019
195.329439557696 16.2840977100472 21.3432310114681
-186.518884777258 -12.742392319949 -17.6062298391272
52.5197321120547 -18.1100069200197 11.3523530830407
-92.1074730441956 14.5858191160882 8.63499141351779
-80.9101852962334 6.12522208767725 26.5794662839517
-70.0496956315776 -12.6644482642924 22.4097473458909
150.171964828321 -1.59603852469893 -12.2717994153905
198.475949703813 -35.6957173422813 6.73374307459725
-194.936832179481 3.13146141990351 10.3939821831551
180.811815362636 -41.6154188116997 -16.4761685449619
-238.842551436243 21.834878542436 -22.6797293271417
128.667564015715 -6.1365750647925 27.0455954442948
199.586704231637 -22.1122229701226 16.0581166793393
37.2399545915558 -15.7045723028989 20.461977435709
138.774897976418 24.5330368820343 -0.905210144712525
200.830127579529 4.55987769300851 12.6202370289841
172.12251950912 15.4832120062025 -21.0791529680235
-55.5970827950076 8.65506204274606 -0.152309471482015
-84.732637589486 7.65618254593573 -3.46810734291991
177.806408468096 38.2379381667148 -24.7528195306383
-105.132291308479 13.8983506603687 5.04652895038172
-6.20831247907763 2.16771993192587 31.1039602999982
-8.73339948206212 6.49589574720727 30.1053290374468
-208.386206749744 -1.27579823476648 10.5129925383169
-246.357770861727 -22.6141568963637 5.86828539378801
204.500261629704 10.5352992531354 14.5983394626056
-156.370400007806 13.8362423261546 -3.74890129581836
184.787954320106 -35.2864288652859 -29.8366436343067
-13.2820230353335 16.6980318469484 21.5999034714481
43.3934021516044 -6.84809745468386 30.3358492244419
186.963262093916 42.5477127884004 -1.71946305152775
156.35636632674 25.2228695355471 13.1754200832045
-249.667333007716 -16.3909527390175 -16.364638081418
186.251014288921 -39.651429449611 -5.50203519367598
-236.538932190176 -11.0060366831744 -26.0507800575729
181.360173334463 -6.24491373920973 -30.189882452115
-134.571643740435 7.7332535576923 18.0948436499512
-11.2520365363729 17.0003222988943 15.2458461514632
201.741778821458 -26.1649914683267 12.3471066365047
-193.775794610573 16.2756255797885 -23.2581336746338
207.026876704069 13.5848784646276 10.8907493230426
-246.398827081145 -12.3096622622885 1.53103215930405
-65.344214972296 -13.6861842638438 21.600297857043
212.475754816692 27.3975409963352 8.11934266492285
-238.106545452642 26.4243708223393 14.2723018685841
-259.195581217621 7.29671373896803 -6.92267864498763
212.153955189612 13.3791416351281 -18.6983188974885
22.2220082529257 15.5282279161604 23.9509521012523
190.14468413568 10.9423764977581 -18.011637990637
-127.496045827682 -1.02551181602369 20.4956833296428
72.9611651532479 -4.88714339900144 30.3134029100458
117.703322767808 14.0212275642399 -5.45076628395184
-93.4436598795215 -8.53250097528703 -4.715230870783
19.3947744097496 -7.23989384598651 29.8085417778205
200.069262799088 -9.6474710865855 9.14979940460336
155.483273016308 -29.0719663619132 -0.287329443680803
-220.56503158904 -34.4451107123045 -14.2941180448569
144.290912120766 23.4812690642103 12.3468333338116
-244.632877959138 -30.8388594574642 1.62911226985885
159.816837699169 -11.9462469057445 24.1155026215229
-206.425964374294 -17.8011412639993 -24.2642508562157
-148.359980325288 -13.0008256279718 -13.3214733797055
207.627239346765 14.4604732389594 13.0776496863288
-43.153438242471 8.01827336894757 -0.558291350078155
175.455718576505 41.1437134841205 -9.13976038649297
-103.693703254743 -16.6896320217327 10.8638015991004
-185.978213316911 -5.35443525722668 -18.8017733446102
-196.608884820846 -5.03142511823358 -22.2868664510349
201.88289186572 -29.4557370946864 11.4118514115255
206.807808401353 7.60484927094946 5.70992580891222
-6.23134226714521 4.52786643930859 30.6779186425741
173.572016931504 -11.5359878179584 -33.8759727108871
-260.540188299454 14.1940361495296 13.4099894050046
187.961722214962 2.94868854345701 -13.542042073748
-212.327996315556 -35.3506116841951 -1.56874263950852
-233.65339867286 -35.7662846502881 -15.7082275997914
103.498958809348 -21.7675739699317 9.92252746721773
-134.220308008524 -14.369809660362 15.4346639742677
159.526293274153 30.6000029080092 -0.704169624858916
148.125971603659 -2.12283906462025 -11.9576690506483
201.039071490807 29.4247842572244 10.3972058914385
-10.5382503657941 14.6661136860334 10.0320231494987
138.283589124038 -24.8554164436993 -1.91275783256199
-167.532590621041 -1.96989021157597 -13.381818951866
-139.141863630211 7.64413617722946 -8.37902762528237
-174.941758022554 -18.2977896701236 -16.2600505440259
-264.147733897582 41.365411270985 -7.99087099015575
-242.357960597741 -34.831675908044 -13.3884641783962
-155.189143284303 3.06073614828371 15.9020350676732
160.164459284099 -26.8111121406931 -17.8557599193054
180.039794851422 -28.6726558246134 -38.0355152577644
187.973075230623 -15.4037849398141 24.3020886750673
178.625256864278 35.0934109287434 -33.364674967096
208.123024489323 8.00685625055176 -14.939833948368
167.660498405266 23.9491459790003 -20.7915912104391
-225.916544454722 -29.1371330686371 -23.7602466396105
180.007779038729 -32.724915200834 -35.3605349074315
135.460413852213 20.7872339073088 -7.39619032670106
-95.325897125053 -14.4734121548509 19.2019340225713
1.99371648474206 3.4880407248446 31.0129634885832
201.498159878433 36.0078447023796 -34.3777412221405
136.768306884916 -12.9443299637157 26.288749864111
154.585969661732 18.569839090891 19.7751967868281
154.333413750793 -27.4942373406326 8.43225450759771
180.851325406272 5.23533533693913 23.6146147673843
180.082385192532 37.5490128746857 6.33219578844862
37.021722461742 -4.27766445347937 30.9248826518752
196.267808942968 -36.7461686526506 -32.613250761111
179.393041514674 28.1328153744553 18.0063292323874
-183.134215915915 -8.37378941287775 10.8439242999
-243.658861978619 -13.8176169321787 9.0287058989258
-231.947782717974 32.9892004864769 1.40984251957144
36.2256638512215 -16.9339722397453 13.1679814458386
-203.187244993678 3.63995749543331 10.517992460616
-251.263326353127 -20.9616934710583 -0.256266035089148
178.627414298506 39.0948338906356 3.60410128500375
84.2165261098119 1.45720749852521 -4.82861961236408
185.279878244128 -40.8378494787953 -10.746802702493
-120.732032920741 4.08066388053532 21.8952656114453
139.453208134572 -2.01183406993751 -10.4699381774174
-52.4077447693951 -1.99276025728702 -6.16490370225855
176.565303330629 25.3757699736642 -33.6179349986596
211.701064226329 22.8054209950445 8.82819503522594
-228.469652231613 -7.88382312833076 -25.6430178655403
124.821241841232 21.0914808711214 15.0765709692249
177.691228460826 38.167829575005 5.37774026546127
110.299459983516 16.4368525011369 20.7329884979132
-166.224552723737 2.69392934498153 -13.5672129599981
205.507721493136 4.62037850832304 -4.14772309978883
1.458285003921 15.5326500445738 24.1349672581395
187.763406490781 41.0178575280158 -0.0417480310094966
-114.808572200189 13.4804001615964 13.7247715574191
-225.457153936229 -4.32564182561656 -23.6207124648666
203.910798716192 -14.7338873856146 -20.968761471719
144.628054808931 -15.0544441787859 25.3076401163918
-239.706912652933 -35.9608369209496 -7.06037767106947
36.4853231300079 -1.41280591543802 31.2279345085812
17.8921216282245 4.43863326867739 -2.99779289509366
211.489860217266 31.0188045780398 5.35530649893977
66.1591543428895 -7.47578563390609 -5.41306524786692
-203.171705346639 -12.1147161570883 -24.1731864125748
-183.691983760897 15.7049042254825 -4.92808559160898
-216.368210915976 -21.8749812250576 -26.6488179290932
152.533095479115 -26.9472571826165 9.13685153871629
-232.688020431817 -4.82712583644674 -17.8345123194561
-233.809099357587 22.6177129111349 11.446638116417
180.475665347402 36.2661111308195 9.00640714393387
-171.927748344122 -8.76453897593994 -15.6100491857008
85.0953968495987 -2.99383620448705 -5.03651735773527
74.5286150891043 19.7408307069523 11.5548603682396
-260.797418972158 7.80270127640366 7.97736254619274
194.619358396989 -5.0287619139583 15.4769225735099
196.511357084134 -22.6059953748075 19.6838387211528
203.698061112827 -29.200613521626 6.69589433985259
-170.903741246632 -17.451175821133 -16.2622094373316
-57.9275907608127 9.21157592175462 27.3893698917981
213.243556084607 14.2414045244679 -5.72574634291751
-41.1657829992073 12.4282445458195 6.35064951969661
79.0960925878545 -5.48289758791793 -5.14905806569796
-249.076464266074 -16.657369155912 -13.9581937683688
-183.278346674466 15.1210237115544 -2.55591397463846
38.2749690138228 -9.33114901979841 29.1355437113167
193.468340774138 -37.823942826261 -5.87398230893689
196.703278471424 14.3882526157781 21.6590651528683
134.963313166583 21.6375310245269 14.6870705522388
167.649208803729 32.7187147167442 -16.4938470568664
202.992637396825 -32.564832853947 3.64493650995331
137.965582656935 -25.006867459441 5.55477623932543
57.4111187905999 -17.4948513099734 7.51873966519207
118.862982875316 22.483247406278 9.93082039737127
175.865709231034 -12.2908469673147 24.8204640602283
-198.934046710596 -8.19873680601308 9.00683899898651
-32.4894219427823 -12.1183752109557 23.8727074648805
51.1009527636847 -3.84812644167441 -4.77654889914288
172.815299667273 14.4589022699197 -29.7094518128791
-222.68289462829 -9.1987677134282 13.6460365314626
-250.053338743119 -20.2093289005031 2.47847327269674
-59.0443039564787 8.8122887890691 -0.0321493812606415
193.223613655603 -32.2780289185361 18.3133613071478
-232.360053336852 -31.4042477178604 -23.0732189315861
205.286862266983 10.4134695528594 16.3812437117822
202.482796362673 34.7132551712333 0.983284053961686
-91.9108083826177 -4.68954171913791 -8.06780487245562
199.217507874261 -17.1437626020106 -33.4842076121567
-186.858727065101 -8.31068658124112 10.2633252633118
-191.417576323952 -18.1499220337177 -17.6023308994847
52.795038821313 -14.6542560355278 2.9162117615886
24.232785592736 -5.38787199069026 -3.6981123759537
-218.014707704401 -1.05603787386332 -23.4759089286747
154.655268698712 -26.4204989001777 -14.6203180234037
23.7725426297424 2.15646104079345 -4.51631828890442
-164.820087552362 -16.9004095769316 -14.263955563184
-230.145657389826 -18.9601767558731 11.9668121782806
212.422061648931 31.1685389749176 2.53977431800858
37.7868537054234 3.30431739625662 30.8828971699093
120.105580610831 1.06111411791751 26.6764289193961
-206.195987718218 19.0084722914697 -13.5200209220185
198.807476085963 -34.6887480118383 9.09565433864558
-31.436695083061 -3.47116214316533 -5.86309089579611
-152.622782961142 14.1557962020577 -0.891026989128714
