-82.6971428784629 -13.7626189643638 -3.44718159617587
-192.591329335981 -12.5714540932386 -14.3153651462818
64.6169782213905 0.489885623267621 -1.18976616778358
-25.4315544810654 0.285112297617631 0.970362217918939
173.290278198376 11.0052500172716 22.4861951633271
184.557579970238 -25.8852023831992 -1.13035077246525
83.0212403990914 10.6541612102558 4.59238714974439
41.9865332677494 -8.24123850551536 0.72576476594249
-148.629445619508 -17.3783644487427 -16.8555911536102
173.455963237034 -8.98909635546368 -17.8104764628067
-194.447655686195 15.0508623808924 16.9857155206826
-217.644101752968 18.9953909209612 15.249633385439
150.004875897009 11.6239190019257 -9.1747687788794
-193.747779622897 41.6697494376928 -7.24459390332094
178.5142312851 0.232930940144651 -7.77247310535658
160.733435755523 36.2347084967811 -8.92094489752425
-3.50615134333965 -11.7080639668708 23.0660118739927
-11.965005012987 -3.4737134418421 -1.54638103180696
-194.039296013009 -8.42784067141038 -4.84363694689257
65.8033000353901 13.9086264999936 15.9419507214701
150.714246811486 -16.3875511076511 -18.1280354109458
85.05629984043 -5.04054421850111 -4.08605782920622
140.884042222458 -5.31320242028987 20.4047659327053
170.127242254459 21.1597890636215 17.0162630955451
115.867798939526 -19.35140436702 8.53570100789295
149.315648731847 6.84912453168413 -8.2179044764408
176.086606639095 -6.61908454738345 13.9339920617241
-181.775511927954 -9.06941662399568 15.3737034287975
182.163322575432 -16.9548038763881 11.3844825369558
181.150073485485 -27.6511139518117 6.50144444505586
-199.351560272238 6.96290958219087 -11.3980591693335
-176.926862555715 17.9535405774194 3.95030318346049
-219.953368708713 19.8960899647837 -11.9920180693315
-156.494029404883 -12.5247347218236 10.8863226891147
102.126667620284 -17.8482124960738 0.89723497838582
163.534163590048 -33.6377962289748 -20.3075911597321
-157.078678147738 -0.55717878199671 -24.1317117647141
157.971005565185 20.7047831345102 -20.1748876079461
-218.241217863573 38.9640576011318 3.01902263657258
68.786280872318 -16.1269766432064 9.80970587338019
-122.555774472046 1.6867137043995 -5.16630266890774
192.690828781613 25.0591885963197 -12.672497852035
-46.0726530852147 3.75887534915982 21.6311696332127
181.016401703004 -33.2409876875359 -16.3286245850176
23.4033324174368 -15.3463746699546 17.5527247350621
-144.391069987937 -15.722597791594 -16.7169102882288
-135.398614910735 -19.8837862700388 -8.49807766634669
167.97203918583 -9.4632900501236 -29.4170518056885
164.509641007801 22.064109173704 17.3550357174456
-184.102787081924 -1.70227308713661 14.4558398041242
-107.818133121115 -3.8780455203928 -6.3870995723446
154.584531150896 -28.6866876476188 2.04463415632928
-66.9707540340894 -15.3595532351601 3.03855347811668
75.74578698624 -9.2637569937076 -2.84412892294186
167.472430259243 4.47317138758565 21.6363659405261
13.4188081960349 -4.43112129636963 -1.24210706592386
-43.3596280080541 8.79819440705031 14.1988046670384
-108.899918600526 -19.8907730724442 9.52123113497726
174.771390889842 -31.6042680910769 -10.1771941257553
-197.00870364897 2.45740634351738 -9.11442428572835
178.484836527838 28.0996307078724 7.55871377386952
143.12463134743 -23.4462064713603 -11.66930963732
148.671844071683 13.1690104849815 19.4348462263321
46.0836620368996 6.62370526041076 22.9160478749089
184.723242084554 30.5030436334268 -1.07021562204119
-61.2690107826179 -15.6644143220138 18.5863384549631
35.2376860840412 3.39816843880915 24.3185520631162
-111.823174758747 6.17235766187946 2.76415619067363
-46.5998252359098 6.54481872639427 7.34300450125978
186.331545845374 -23.800912909205 -0.323243114330698
157.063013267807 31.5892480136613 3.34240106549163
161.232521040978 -29.8737385994076 -25.4555067001247
-204.899053646195 -12.3481532024048 -10.5897865226801
-123.463579616708 -5.4240248790575 -9.73776122157596
187.992961155585 35.0357372416943 -18.3964734592973
142.58003045599 10.110789586222 19.9108258708386
167.561013576854 -16.9000581107144 -34.6783770584414
168.848555868237 -34.3437680132467 -11.725861514041
157.475732929366 31.7830852360142 -11.7481658037854
163.96027809293 2.61317527405902 -14.7398448720997
149.006475391273 -31.2940963836915 -12.2599392229319
-198.7120375606 10.5406941578818 14.5834441238599
134.79155936463 -22.0780390826025 -8.31503874876628
-174.59118913042 -21.354018683498 -23.1330488603944
-36.9701592129402 -0.739485923261739 0.628289349863901
59.0270694707839 -4.06955361688419 -3.23089857932707
-137.513289070454 3.9662566085904 -6.96172364853895
-163.427734030773 -10.5483501249366 -23.5253930595533
-42.9622521216316 3.29018215103882 22.2727689102373
50.8289458680321 -1.51955623069943 -1.71811901638089
-188.739298683153 -6.49279517098616 17.686225505524
-185.062448650958 -31.7473598869851 1.90739250889236
160.909804943338 35.7566664293553 -1.99537765647077
-161.561392097946 -18.8141529716841 9.39638995870757
-106.517667513145 -20.791715280804 1.5732030602538
99.7585422117912 -7.6805004822389 23.868885876071
-197.935334078549 16.735438612084 19.2532949674705
-100.51341134608 -11.6649296266007 -8.7682652937961
-177.019359211925 -31.8359266157757 4.46264025322571
164.326942816763 -32.4930208505678 -4.31298835404472
117.756023928555 5.71974980448693 22.6258356707096
-145.678715618377 -15.6486183204599 11.0727438744591
181.287225939778 -2.32721227935591 -7.17110560181537
118.727590927292 4.07786446465656 -3.06230357371823
110.855543958075 0.217394915982287 23.8504968649105
159.94603662218 -35.352834401274 -12.6461279147486
-167.875752421434 -28.0050408991071 -13.0894873003118
59.3526305043724 8.0157811228999 22.3030139942517
184.627074497894 23.1041309761899 -27.5982469948425
152.103166757614 -13.7077669041121 -19.0323529111443
116.227612495286 -19.7200519540138 4.3000022669219
25.7268212039827 4.39512687360102 3.67406501223421
-14.6953459982302 -12.3992193022242 5.47431857768617
55.6174689661741 -6.04680479070379 -2.32328865573126
-79.4539148458324 -10.6477851190919 -5.64952205659402
-137.870812618561 -5.32691219158076 -14.1452257988187
-30.1638238803309 -16.5356827073917 18.0810627747295
180.696519031437 -26.5760883359646 -27.7355573187421
171.045523073906 -28.8030968076123 5.6141045674733
-120.743336627929 -1.54430008233164 14.3741862329574
154.548956643337 -30.5416389999842 -4.4770983735537
152.672891050732 -14.2944053530127 -23.3225625186639
-187.690003860969 13.8668390073473 -12.6767527647709
159.456590232522 30.8668934293028 -22.654563147548
185.876109762614 -21.6908669355322 -2.25703994431167
182.090766896045 16.2160970741638 15.0627993670404
-147.052131263416 6.90917963346332 -23.832665797309
172.086093891915 18.9732402820944 -30.9022977518017
0.681930070535924 2.12678842440196 1.65427663110931
38.2782070094008 -2.59163992954595 25.4178978808219
-25.8288526744972 -0.912769038542052 24.7061152583442
-163.208845471804 -23.4750603311889 -17.5467378734536
173.816787407003 13.1654403362691 -22.1403534364787
-117.150754658599 -3.35955464723994 -7.18010791132175
176.984213246358 4.20937081258367 -8.56811266869256
175.503286718536 36.4932156093968 -2.10960879366084
-191.337534027007 20.5307929314105 -14.1550951779849
155.481233023982 27.6048095224018 -9.6844256309877
-148.31012635598 11.3288335547723 -14.2811919803783
120.398103975076 17.1307040236285 4.19104566082351
-223.321879118634 31.1884203437067 -2.04906954286477
-196.431159747943 -26.2738931130209 5.03818435429517
172.98700325624 -31.0551253577676 -7.13945352695937
-102.499514847379 -19.4538414038168 10.7258689368451
-219.84136487147 11.0989842014824 -2.79547341783261
135.151937487492 -23.127553786897 -0.425416123671435
-99.7176630782528 -20.8565083705742 4.35079176222319
-34.655637943153 2.8732546167341 3.75814233118414
-177.55310449087 -9.24858438105422 -26.7153546648517
-170.713760407742 9.49958864094656 -12.8764228084781
170.904665775275 -33.3528104707584 -16.3141138777647
75.0352455569251 12.7423785412662 19.1101015944663
82.0687757033964 14.5660809670149 16.78007012296
103.15110851824 -18.5287382647177 3.82355406958885
-193.206463870639 40.4086114233763 9.63232874442117
115.798568989823 -16.0875167221087 17.7618610384066
-60.0767749434952 -2.83150397647123 -1.62112294006957
157.155141015798 28.4380970038905 -16.1207287193892
108.327302584647 2.0055746494144 -2.76741048645743
-196.529153698249 -18.5404385287317 9.59787440772517
-185.755313644803 24.4300622521758 -7.50652479434383
-203.543836719562 -25.3096178860729 -0.683917928977382
161.885636323034 36.4748030940177 -21.5706681179798
-203.744880499612 -18.398032998978 -16.6433716436222
-171.492502435123 -29.8193511790302 -14.2826236933439
-33.4702765121997 -8.98705199835193 23.9049343711656
-196.390257546712 -23.1889793805361 -20.6072445236853
142.88986094463 16.461808523484 -5.56128921459799
-143.574620575633 6.85907172015874 -15.1923135908089
110.611857624589 15.5006800792699 17.6542863804543
-178.889378474197 -0.0822757223305961 12.7064834932487
-190.665163757724 -12.8878102043167 -14.4400390562509
185.185286481741 -15.6355193795024 -0.935936254465304
160.803052111548 -15.0134741994597 25.1343987305173
162.976405344811 -27.5723597566667 -31.5488227422969
-186.23987940438 -8.02344422231224 -20.8724670501094
-189.186087833367 37.6809601841102 -7.83080022731033
-161.65068963009 -23.0380765742758 -16.6694094389794
-31.4405887115616 8.69651577633382 16.8203027979074
5.23414013864702 -10.4847113779119 4.10027097930336
-30.1890288065618 7.4003138981659 8.77177450723871
-144.317755858152 7.11822156081828 -9.01231158332115
-222.858460441178 19.07278720457 6.98483449629553
-168.555191115182 -25.2008442624075 4.70759794109758
188.564018520047 23.2927605568453 5.03443661601939
132.72799013716 -4.36195304984637 -7.30825143718174
57.9725134358447 13.2692726032921 16.2837703340734
-215.772596359258 22.5396808373828 -16.5467285203489
53.9191654569768 -7.79201059018097 -0.855235404156578
181.894875511552 -12.4045813746311 -16.149651108204
166.164646529893 -28.7813741559904 6.41592463740964
131.600333066838 -4.88717930884339 22.032859640091
37.3723046988016 6.67356261948906 22.7916986375941
164.799997265422 6.87010234262371 21.2692814145518
-146.575249800983 -9.75167934016135 -16.9823047556894
-144.839967683983 -2.11982451119799 -18.6927294329192
-170.978440785841 -28.8782626194948 -15.3102876305841
159.761957851064 34.1963271627203 -11.3109522095794
-2.46903408175956 -4.32582237188913 -1.44659924650368
158.646448126999 31.5019364101372 -15.1169320276652
-203.971182373421 -23.5151454249179 -0.114582640227352
-7.49492965681567 1.2768494841212 1.5662635997088
-204.221554250329 -7.64785703589777 -21.5897831639854
-177.863569258639 -3.67697260078163 -15.9114295193691
152.848076895601 29.6488630812 -5.85288425982596
-179.748385195553 2.91593055937918 11.2133998716443
167.082857866548 -4.72957358388362 19.3509823276222
179.166406719386 -16.0766624950779 15.5592430765882
-167.840108352987 10.2305062060997 7.55915342367761
-183.126668514157 25.4539253932027 2.9822753673434
-222.766281605734 15.8290440730987 2.03396244461868
-63.2723512370044 -18.5953189325392 8.9832849520034
167.812423491573 -30.2347011198985 -25.279145565448
-217.614087145403 36.7506194085741 10.1171610032981
12.2513852437038 -10.1205014482107 3.69481318968923
-202.519712361065 5.82040069844053 -6.67211428039559
170.373313046362 -22.6860190898365 22.2949716208152
177.60129696607 -27.5787755064797 1.77327345792901
172.095840595566 -5.404560474475 16.824985492274
184.276965204645 -23.1832380345243 7.6771857934664
-27.2596789223222 3.66650413185993 23.0501778605688
136.042728436548 -22.5497729000319 5.7426916237911
180.288091614399 19.8470400880574 13.6814015146563
126.488305373761 9.56518314361898 -2.03765777736245
-3.9089793957328 3.74330038762465 23.7000346803786
-58.8645695029052 -5.18514391642087 -2.50360142936342
-174.466142047132 17.2255081148221 2.11839924710647
-190.646685289135 -21.8260419213669 10.06625091751
-165.859427059811 -26.1391861230529 -16.8414175998181
160.530339303415 -4.96501815908517 -20.0454274187881
-43.5994940858356 2.53321809312221 3.27316817273946
51.7091495531151 -15.3784074761697 15.4024577561553
-186.858923618067 -33.9573476724964 -2.5783353687663
139.964789227388 2.45426811071001 20.485749876626
174.146378518672 -9.2480120700494 -26.9334838760107
-146.974225158554 -21.7795680284937 4.1020757978243
49.5158861362575 12.2898649684807 17.4355414453123
-166.285223469522 -15.5312037545523 10.4779691047704
-82.3134605911466 7.94740207930954 10.5904732392304
-46.1107588898296 8.52216962765427 11.0202481166168
-173.733697641906 -15.2320209708515 11.0080921909269
-203.980981017002 6.96015135878017 -7.9296004436303
-25.2728777925208 5.45734563583937 21.6339190218195
37.6497623570901 0.879730850887166 -0.253390960421081
168.428299354521 -31.7314112761327 -2.69334875156339
-188.424100900693 -22.7539935483263 -21.7894369724698
129.619385079025 -21.811741876992 -1.14340737508342
126.964466179851 16.4299264616973 17.1303159773999
179.567412736922 -7.94017790483513 -13.0869207274875
-212.67561166849 39.5672329685473 -10.9311734699191
-177.858662052419 16.8516377893917 -8.00049008689675
148.148155085376 14.8707710722035 18.756761385425
165.778112485673 20.5694285866724 18.5775324263315
128.815943709769 6.51816746684795 21.6807833019016
-198.059723033602 -19.4004073566991 -21.5366624720413
-184.320342948914 -7.13781055970706 -21.0876841178776
-134.296378596775 -21.3490033255167 4.354555258001
175.668092484009 14.5862862148149 19.8722333774517
191.074432013057 30.9416412414987 -5.39518497057788
194.225379298184 30.5375305980043 -6.98613479854312
166.18399890464 -22.3458288450071 24.4675200783216
-121.331331526096 -12.6638202493263 14.6538168586575
147.162816354014 -3.15982690121818 19.5495059529531
-202.642229583343 -6.90704925545495 -15.2221837907975
-193.03447522538 -12.0593982293198 -16.6045639979773
159.938890552735 -10.23843335033 23.2972107264229
-192.394170596393 3.50666894908421 -12.4920976222368
-150.918939458713 8.29408597932094 -8.54990905571305
96.9419612916242 8.65523132465658 22.1687310277223
-185.733853139231 -10.1995042231108 -25.0640619875501
42.7473067600479 -11.2075700273531 2.7160293545088
-181.784962032279 12.3973907022001 10.5109823806414
151.357969269339 17.2176854692605 -9.38163859154686
-204.748929769761 39.8362764570192 -13.7963054041411
-204.411722790605 44.3143651698932 7.28953422801881
-160.053500572349 11.1907026175146 -8.63021547077346
132.332943832877 19.472446875005 2.05326386508698
51.582934802955 -15.2533256405346 8.77628566881225
194.302636653275 23.1147623814808 -3.80081757908211
179.397553488941 1.87635545309833 -7.69717511179761
-139.795442356147 -21.1162731041517 -7.35226074528465
154.571982364006 -2.54901992384407 -13.749142029743
-61.314711254999 7.6175563679088 8.30129103045282
167.970039054211 1.17757467219713 19.9951146055382
159.896109040894 -6.04006194912246 20.4161774912904
178.152318692424 -29.000522259967 -5.62452594967191
111.225955162034 -11.7879042885707 -6.68483454155165
24.8833575938718 -5.22224231240188 -0.889128983171026
-126.260156469169 -21.6413301757805 3.06046934148368
-119.765196993184 -17.491855909371 -7.91844961895131
-179.929196979975 12.9112705792413 9.33911286298398
-188.131977197512 36.2952791905052 -8.16476248824346
146.976484691726 -26.8937765589844 -12.2127248099397
148.96452234447 -13.2850661443477 -15.7843593775933
59.8439581436935 -15.0041481310032 6.31228157370431
125.348458099129 9.1316109599499 21.2008863253567
-217.340481522041 21.0321405553897 16.0487134560265
49.9053772920774 -7.34653653907412 24.7497115534632
75.4819523611495 -16.4480727998608 7.66486367652729
-81.5991626064285 1.42912031475933 0.397319997679058
119.299799145738 -1.20158922001315 23.2793058742596
-126.656239482993 -14.6050816973299 -12.9179012054188
164.418202057285 25.4944929432183 -28.1903706776545
175.944006420466 -31.5722098492609 -26.171913948299
-57.2628099356239 5.03315681438854 19.4507302293351
-183.901712032037 -21.2059732907292 12.6433904843422
-199.884688413428 17.3754750162633 -18.7855979371127
194.279957389704 20.5629814191743 0.93290119275255
-174.334815211391 -31.1412906619829 -0.990115998815768
146.541606084799 3.10245319041398 19.9139233540446
-82.6377529289096 -19.8975299081893 9.61630218556093
-59.0202098602859 -14.2217147921632 3.27174856092221
-151.623672434473 -16.360010624703 -17.7492914085782
16.4077760606063 0.0601259361144669 25.095087420981
172.582361248462 -31.0438603458708 -28.5135089771897
122.939139711812 -18.7741622600979 -6.29369339409823
-15.3246454751699 -15.9485889214254 11.5747610326145
165.647641839407 8.65739458850491 21.9129246062191
-218.52829623327 10.2167509382147 5.89571019394124
-52.426850196879 8.65050334010423 12.679171457888
10.0087561165063 7.06184193207646 21.8684017824009
-220.563126380875 28.6330052070512 -11.1705439153868
-91.4706131746704 -20.0834107889353 9.69467888877461
130.579400457826 20.7593749934943 5.81659817517562
-21.0540875994713 -16.6163711059058 17.1454455685738
168.109648728078 36.8990262878457 -24.4325989337142
165.743825410218 38.3100117074723 -13.9689375364079
-150.473633391217 -3.65397404153827 -20.9675201163105
89.3942155095847 -7.74465893284356 -4.92273044711808
71.4829800011639 -1.02255684283981 25.3129534876016
158.94206035204 18.5913998363795 18.8007515346127
-45.717836275277 1.85862721578033 22.9531678597971
-100.993164423553 -9.97746418586179 -8.80328559308988
140.58134861454 17.1259282798328 -3.75398243785613
-132.678417966301 -1.36820361864921 -10.6701804994725
183.105662660071 -25.3653451628703 3.76964252938725
-190.026109122234 -6.98771017872184 16.7301290558187
157.647647636086 -34.6295090738632 -12.4917777080916
100.156113088257 10.2464242654465 21.4663921631381
-188.781996861463 31.3047128913616 -9.81261037291094
-5.19748191910501 10.0560645079482 13.4983228689395
75.4791189099199 -14.3852180741098 18.0466931782151
-95.6847376535572 2.28003082753001 16.3871946465171
165.471009023063 10.4623498517111 22.0761759239709
-214.154826710461 11.6628297036782 -12.5922658300344
-207.313556689823 41.404640015298 -9.95780238454135
-206.656440958957 7.12388776086874 -3.16355929491515
182.547387968133 19.5686427503558 12.3745544483667
116.298989389603 -17.9547423328278 13.8890998211066
-193.551652466743 -27.9534338949143 4.00975974362806
28.8142237211695 -15.2437591191212 11.1553100068695
-107.969393366331 -2.89148894811561 17.2764753493207
165.401931661199 -5.87650185034646 20.2731061406091
-50.2977081226677 -17.9253006238442 15.149218266112
174.505277505555 7.5610528276267 22.1434707086405
-188.683013454996 35.5087384481459 -10.0890330479945
-129.626787503367 -14.327934923753 -14.1405519967051
-93.0099570231645 -19.6182363786092 2.92625840811766
60.4333710073853 -11.5841023575875 0.954590743980107
180.515628919857 -9.43628318938849 -16.8738918072235
-218.080587952286 28.659676605982 -14.1873764817506
-197.566589240881 -28.6417577445899 -4.8902637200233
170.700592298795 37.3400916469053 -3.42923847504009
-114.499472073458 -8.45164790984853 16.6394850971347
180.506375057407 -27.0647753186337 8.62810217309226
95.4516118214483 16.4048140405665 10.0765430808187
126.951359174121 7.63587009779035 21.5498838871627
174.545403819487 24.4353029327414 -31.6126563159381
-184.464997237291 -19.4977405330166 12.8890971688681
186.285278539708 5.70450612305264 -0.231423832896708
108.561180054621 6.91187174826352 -0.990298991423453
157.035672990353 18.4898875754601 -14.846813233685
-207.459972472659 29.9690372981318 20.4296319388923
-138.404356527909 -1.62742651839577 -14.2086216259398
-173.003823055268 -28.1423307008744 5.65084756206901
151.914396475208 0.724041079410614 -11.3568279882005
-140.515460061032 -7.87355153452605 -14.4312203387039
-10.3228342557453 -3.99651462359222 -1.62824770074293
183.645418911242 -10.0276981825727 -3.8147959337084
156.042875624381 -7.43774085668225 -17.0238975782358
-66.9665644984756 7.27228961910975 14.6737029343269
165.474855092832 12.3753314307672 -25.6495698280794
-128.103434468283 6.36454298669487 0.973495002129632
-205.139522582123 -21.0245068853358 -12.6928985561247
-218.318619376158 34.0443683566978 -11.0524262298009
180.594538158863 -7.80781593547522 7.88176882419828
-193.961229461518 -30.1631026230937 2.52618098655676
131.70851257879 -15.4033367691732 19.6525175508426
139.081834879474 -21.0403984576954 -10.5225223022383
-209.357579298581 42.4259904563469 -6.14493264222831
193.209492126458 30.2478804571828 -13.0971873552019
65.1783828089975 -15.8642193784027 8.57932076195548
-141.989348015566 7.74174894235277 4.90156261644119
-218.625819101908 12.4214216875515 9.56339709071202
-47.5911815776713 3.47896726909132 3.99076872051217
83.5835287359381 3.50042295805683 24.2285387526759
-72.6721905473449 -11.9932598676735 -2.4210655519757
92.6709839546112 -17.6748748253342 5.86318606818142
-217.755128599761 38.8964486511077 5.52928538620308
111.538066797559 17.7199889517864 14.5556326841344
88.9406674965107 -16.6259103841817 12.7540973833122
22.7951467004723 7.74096103996896 8.05040475654488
156.346366035321 13.2442999710254 -11.6687778714827
-83.3954702748127 3.59521587299207 2.02497921037706
-41.5305095764924 7.94971629970791 9.38520443538294
171.771768689572 -31.0359644442622 -4.98264664684903
-1.74197144573907 6.35574974356479 7.17934323052587
-175.150281369392 -16.0916063671541 -26.2537673850757
-174.91701799509 -0.460601422148937 12.4354303326758
-109.09890276144 6.10515885710446 2.9076839881132
41.6269696335595 9.2195794327194 8.5124970173264
178.495620824871 -26.3230331792495 -30.61848962522
-106.867401674505 -8.68203293802839 -8.16590280401963
191.939920426732 17.6624277519223 -11.0443337364124
-176.807242454266 -34.2519168742109 -2.02642345810687
-210.098073933003 42.9370486891218 7.28129306400494
-64.8045998675427 -4.04878938442724 -2.5501253816084
-183.4944677095 15.99414223483 -10.4985677492967
160.278854994751 33.8367808202348 1.31170169442505
154.784366813235 27.6200712654327 10.0038939108974
-186.811938265873 -27.6925580879161 4.00631908198843
23.1957136924918 11.0822622637235 15.2872878804618
-139.633184377726 4.60660242773901 8.54306997124914
138.023608790819 -22.3622607970315 8.37723083133454
-216.012917820362 37.1253007027154 11.6770587172677
104.205580231725 -8.23398444261251 -5.7732669540905
185.521309705131 -20.6913639139056 3.81385024808934
139.817057365649 21.1229372420202 12.7894880395151
-198.973997737585 -15.1671534245599 12.6126461805316
119.700047792795 -18.8638930225064 11.9496393523542
-1.39539455621075 -0.437420296474497 25.1422150705978
-24.8171464214482 -17.2650341141494 14.9048936949253
-103.81367605905 -14.6494300744627 -6.31433616089868
141.404312740217 -21.2941420039308 -11.7814956496185
147.655488788599 13.9896960624475 -8.13046729905265
153.914656001427 9.4103394575429 -10.6032372560128
185.9427963447 5.85702965393185 -3.66693527026641
-114.459370346192 5.70572466879556 1.55079879910142
178.712771290266 36.5252537127332 -22.3238431939525
-176.26028819973 -34.1637322311328 -3.8891574243485
181.226409252918 -9.22039057149205 -13.2078077514194
6.35028718396576 -15.7383388684193 15.982186623822
128.1788736238 -6.87460628235405 -7.3059500721842
158.52384083625 23.7174155902995 -22.9190774999011
185.418033296735 20.9611750412665 9.29794912468629
-180.470412800807 -7.29009403875527 -23.8917160584615
-30.4385645750816 -9.2173117839407 23.9419594218814
-198.70880377411 25.4765280912968 -20.0522124164504
121.743784281633 0.980605847835972 -4.24282318514481
-188.276609640007 37.5880083326395 6.95319455221994
-215.631899291628 42.0546801754716 -1.34190681930538
51.6943745305733 12.2569518815357 11.9804153591337
-218.425036374425 39.7360184498034 -1.19976283025569
150.240631122658 -30.9548970476694 -10.5537877633984
163.209175780499 -24.9086464321356 17.7321925918689
131.517677348714 11.9126519375548 -1.83918906338577
134.236588498599 -10.6708997931283 -9.36699208758476
159.748202897849 34.8425240198013 -19.2705156346156
-206.144542623174 -18.0899272401181 0.0597053532722171
-103.729443065157 6.69916150979618 4.42241053816646
-33.9229889945552 -15.1468038775812 19.9732788924048
-97.8266847674813 -13.6569804811845 -5.62508011783977
19.3135777746071 -13.6630936140158 20.963537840452
-140.757110502116 4.19856412004571 -13.421874384714
178.644925127569 20.8679865436055 -30.7899922754444
181.984344681263 4.91413416317593 -8.01872156202219
-202.869696699104 11.068667813706 -15.0017934750771
-189.918103896317 -11.4100370369273 -24.6671081168115
187.602922413131 25.7816134026184 2.66385304845165
183.323137666747 1.07174614877251 -5.89489254898357
-201.966870728233 -20.6503378919285 6.42459598568089
175.200609592651 -0.406426765286214 -8.24158587712262
-206.181280946256 8.74678560465187 -11.4072606476709
-220.31889490174 36.7846281023635 2.35933773657757
175.20273808816 12.6379207511055 -21.5962183221543
-205.934050655375 14.3601835460271 -17.7887454606775
-210.611822344178 40.4139080706506 -10.641100394638
-180.334547104475 -5.37312723204528 -16.9966289192622
168.203377725682 11.3388840691594 22.349691221499
57.2719214754642 -2.49135180271728 -2.47980986942034
182.038557837587 -12.2411343075038 -11.9844912070156
-20.3026180518893 4.84862671031636 5.66910398517913
147.66068400238 -23.6830961129496 12.0076580341918
-186.672872400031 -1.02186837488173 -12.331693734373
-178.798770008456 -30.7178461123973 5.48660381656346
162.102815072574 35.5103360166671 -15.7195479440562
-138.167038852995 -20.1447335930103 -10.7567948958555
-165.006734204171 13.3771973098956 -7.70948793925881
57.8175940610033 -15.614783590917 14.0583898819032
-117.774903038204 -5.29023080276418 -8.46979732588921
-173.582599282374 -2.79757710672012 12.9195397547901
-71.0303697245424 -10.4628894699372 -3.6501329141806
115.004641178492 -8.79797566743288 -6.40599779459913
170.359419386522 12.8868604654845 22.0871068539225
-112.272341972534 0.118533159330236 -4.19384136468398
187.846772771071 19.7690097954139 8.36915969784639
166.196434102564 27.6344580962378 -28.9081921022219
185.356328703349 25.859965957215 4.96572116808745
146.578038518597 16.0384583439793 17.9757949814636
-81.0085433551086 -10.6303713339319 -5.75327011694229
33.4220286414667 -14.720145440673 18.6395500649772
157.074375626251 -12.6397131453849 22.3291319018432
167.210079181263 -7.99516326567802 -23.8151035063995
-64.6370575322812 -7.74023916587395 22.8033791912256
167.327800731956 -33.9916156316114 -9.7512649807351
167.914170533933 -2.7179485920695 -14.8509465215655
-127.360792243927 0.607847777261012 -7.39176947291354
147.098601900894 -26.1869399737885 2.51104606063441
128.330296017659 -19.3344143692048 -7.48690316475061
-198.874601443113 -5.47959436771911 7.27570375574075
169.750985023484 -23.930129398408 21.1569063524157
-162.878768058692 -25.5982242784673 0.0875950853172076
87.6600715329033 9.47948142608431 21.8072403538199
-134.500453177933 -3.15778947223009 12.9625006430384
130.770715362524 11.1944960953131 20.1798547837237
61.2849851627613 10.3685729452375 7.40445498075414
155.805105947642 28.8316309243719 8.76318251137946
160.436600010788 -8.27226332246368 22.4787414664936
-203.291361209332 37.6975221034243 16.8786822028505
64.0460537079681 -7.59790352041397 24.4395624111842
46.0262945346611 9.49132888194292 20.9990176202637
184.924382849232 3.9035694619903 5.9447255738648
-185.901445541078 35.4615278902847 3.56456127588562
143.402406717213 -25.2096925738235 -2.5441485618786
-188.648161071595 -11.5106119333721 -8.9740511490208
-179.513591239315 -22.956339196736 -22.1350082960038
-187.823243333594 -32.5580113378205 -6.41033998332883
187.293798061847 24.8650286157821 4.34688968058031
125.163509697923 20.0965614623485 11.1372943302117
-115.504924159392 -7.51046998238659 -8.72707468088421
168.831058150213 -5.74501039264641 -17.6556926842791
24.5665111547248 8.71409281029554 9.00336211542685
-80.7014382687075 -15.1665660718755 17.6043253810567
-147.446150717087 4.60668429861896 -24.036877325738
172.679564878303 -31.6512464841953 -8.84798682473573
-156.742025098541 -2.44243417746331 -23.3528023496569
153.187739011481 19.131950291566 -10.0637964503568
14.8931136187228 -12.385882417361 22.3020962572981
-15.3668212106208 -15.4449690143206 19.5665656772665
-96.4067199235163 -0.642067124952872 18.2186189007797
-165.207632670476 2.6676730799886 10.6711244563027
-159.768592016926 -24.9051916937667 -0.395326758591618
-205.931371600353 -16.345989935791 -1.35243598217357
-207.314139135772 6.00895602965828 8.57826655621458
-180.814433195187 -11.7471196993874 -27.06864338908
172.670016299088 19.5686704721943 17.5351423872544
116.124192865777 16.0822030875789 4.29843600874672
-180.406828547006 -5.72159100163708 -20.0772357440037
76.8582415779938 14.9263404069239 14.4377967177725
169.780000424137 -31.3907358372342 -19.6792319116037
-3.08804842059887 -16.0181774767818 16.6782038295866
-188.885627346379 37.2460413541699 8.61703077852072
-145.511301000175 9.07491502739896 -20.4076568601701
177.525463442943 10.9023304097772 22.1873083828963
183.204550678307 2.95251625245256 -7.33640917849773
-145.495563840403 -11.6776822503473 -16.295758132869
179.104892630232 34.654734889416 -20.9244462527564
191.596048298538 20.4964829068402 -14.2394745448032
193.389643825745 23.0295516414103 -7.34139336286056
169.477144269033 -33.2919410253635 -9.76579509840967
81.6577788543528 0.131344525991844 -2.02217226941852
172.154464236621 3.6149979676848 20.1444513665002
-181.329641302995 -26.5551958376642 -18.7872463431242
-218.122091717317 18.231207955996 -13.4877854404025
132.074089424314 -1.09978392368931 -6.24713794209126
167.914389396097 38.4283551835715 -10.8932616059887
20.3750368454936 8.59960921477328 20.7453763616648
164.5455225198 -27.9944334308419 9.7364368696144
-130.030555033506 -17.7843672247839 -11.9732966484536
-112.049961946275 4.62559307855883 11.6582076857688
-201.372288397632 16.5798297728666 20.0938977966431
154.553939543785 -9.06319994400782 20.486784537963
-187.926206965604 -10.2742094701925 -19.3642816911763
170.648266963233 14.4774245191665 21.3191895919612
-188.258332795703 -31.1687545901721 -10.838361569985
165.205082054066 27.4811668700325 12.3938923152055
-196.819485857983 -20.1424515289901 8.8734201267189
176.734001228274 -23.1776006311857 -32.0173798598804
-200.212635897376 -9.46336885214348 0.754001441525913
-168.24995048278 -27.9680570340933 -11.2271357659349
-205.598945211464 -18.1979191452464 1.88445913141971
-203.181099596449 23.9469638928056 -20.6529454473196
-102.029875638849 -12.4543285922829 -8.26060022146166
146.801600540538 -24.0975084975474 -14.3698581899227
-133.690404418427 -12.6352522818577 -13.8578400525218
73.969679464333 2.53247595762174 24.6821561797428
67.8664087040209 -13.1893793593972 20.0056380229114
-205.100104234279 42.4872124318345 -0.12831888042497
-198.941083421388 4.44149961364844 12.8540784227027
178.114890356278 31.6311037520662 2.766506421296
-61.8451616011786 -11.5297864155124 21.5662356894153
-194.632303676625 -7.83352051781088 13.1285643161476
91.2458546020835 11.5617821219209 4.06194886307682
-204.693125008739 5.26447597438922 2.42764431074335
5.37338173897785 2.52313796376064 2.28738962992633
-193.410807655277 28.607916184178 -17.6221070532872
141.322318564713 19.6057273252456 14.6728545072903
-55.8955640479325 -17.5542061369957 16.3685955802163
-86.8849963481535 -19.0322224223838 3.48891945235721
185.073182257864 -29.9205753329806 -10.2955809615004
183.80786944597 -31.5096139969966 -12.0575640258578
130.066456402403 -20.7311537941081 -6.68959543124234
112.524100194325 -10.1222352374043 22.8046002218869
176.602938533611 35.4843099177339 -1.48633339362605
105.283686985938 5.85657133547053 23.0956220758115
167.176751857604 12.8240742995122 -26.1459353657354
172.269684947568 -30.146295342858 -32.0200258004792
38.2579014922763 11.6839523600398 16.6733202262168
186.801320735531 16.6204199957936 -21.9860571152856
176.15473231676 -28.16345971173 -0.412151032318088
183.656523919625 -27.2189352958539 -2.78025469698215
-175.548326646373 -33.5057858887206 -5.71074267223841
-10.2353415883202 7.00031013715385 7.86829568454641
-18.424451478175 -16.5935277778946 16.9867221191158
-173.518498426519 -8.66801459759292 12.0876897124465
-194.598961339057 25.6848486193992 -18.6009825892451
-213.730042945041 41.1776368282494 7.86012091348495
192.679051191487 30.532038669044 -4.26797061344962
-198.28632214842 -9.71701281361502 7.12374023140182
-132.520185002081 -21.8066011345123 2.3826668915168
145.083954775524 -25.3648371441206 3.51381776390608
165.58118635714 34.9856359916681 -27.4562660537124
178.252011892688 -13.7707755420883 -27.5222545688047
176.70664287387 -25.1905335088303 16.1838611999606
61.2577309215819 -3.63514057686245 -3.15002477940755
177.58149636545 -11.8970756636267 -26.5601944611313
-209.774456780561 11.0275022240778 -13.971605189909
162.850834193291 -28.704513284973 -27.8896107001271
-184.857053927878 27.4436808128061 6.60333536338277
154.625744803602 -15.1219849554561 22.7372885003216
73.3109730496184 -16.3091157096669 10.2958113894228
131.770626441401 16.6007948549698 0.166984752979062
146.33091974377 10.8489400558431 -7.88208577971837
49.3470227362955 -14.8383306283853 7.64779273626635
159.123403552278 30.6648688668582 7.31377606377898
155.876034408342 30.4342927749683 4.92932785243588
-198.775466493038 -6.82423994700737 -20.0620274877427
-123.146326064488 -9.04669933385896 15.3177562516904
-206.93363941416 -19.4949225658041 -12.3318550024901
153.754840835269 -9.58569716637605 -16.5458274934398
-137.916107168584 -21.7623266165008 -4.5246309260263
96.626354365502 -9.17418439532396 23.4741780733225
-171.692114354381 -26.4334871969279 -18.8328471734179
-185.992665052648 -9.7088426930322 -12.6031838687981
43.7310560375916 3.78432805075466 1.32251437155566
-78.9242927773942 7.16638289571941 12.7895794594124
-190.244378980525 -4.05937084866957 14.5352508718492
-165.220991593388 13.6883755645361 -2.71631432681211
-184.90307742162 29.0152428130927 4.60551210506398
-168.901197800739 -9.06640395259254 -25.437206597241
180.648254511404 35.5805835636044 -24.7215056800508
53.0540904887834 -15.4998171039891 9.8325645365485
101.475177786575 8.03658543223788 0.531755271375001
-222.817696941004 15.8614564882233 -1.09785322940013
155.80449597296 32.793075483652 -1.45624434401294
159.4448118022 -26.3454576027496 -30.6702426333282
-88.0762276778704 6.98214219986043 5.54649737701778
-50.0265405201313 0.819214160890167 23.1037144859673
184.432702403208 7.7148921105528 13.1392747934422
50.2012184040484 -12.9181310219642 3.73341221773041
178.613341814248 36.125129697138 -7.79111602364072
-191.585331319609 -20.8708088022544 8.91422116362349
171.955252449785 -21.9503426911258 22.5203619292225
-172.805274676866 -18.2259753085846 10.5218984035675
183.243813199407 -25.1263948891785 7.62634507106611
-130.618588989393 -7.92272706296942 -11.8635323179297
149.720790161273 -10.285139545718 -13.9581300069439
-198.650673721806 3.87970296087009 -8.87554915326421
-165.76609510242 -20.3783280509317 -20.9859055399135
-96.7717809715416 -19.9951963395827 2.40579184385031
-72.771445459624 -9.05738727079649 -4.30157467926145
169.557617352587 -2.77589286165741 -13.8022349169948
145.171356710999 -20.693642010024 15.9039835269795
113.335788267784 16.6233952414102 16.5215209532331
-187.936163989179 -16.264810324164 15.9224007390157
52.7565371765198 -15.7069946424879 12.0495910376563
-106.057500771573 -20.6846253471584 7.92219994259554
188.243706059337 9.7802465658497 5.15040114625402
182.523498439839 9.11010961677978 17.7629840662966
135.354203770808 -22.9128864613047 -4.18907309327051
-1.61410906825318 -13.7335863274855 21.3140886491408
167.880574353199 13.3804001581148 -20.945125295965
153.203813940912 -7.62069357704871 20.3488355570666
-96.4267572577067 -17.2672637679226 -2.48658182526981
183.486872885749 -17.3481865524 8.85576072511956
143.937410683474 24.8823215498264 1.15099064658956
-201.167287011986 -5.91645612170833 -20.1359287233305
80.9430634054429 6.19688440339535 23.3170794616458
154.386076863165 -9.4079062762948 -21.5085351182706
113.093267971246 -15.9228015053902 17.6933604643462
-174.492310060794 12.0954000548781 -10.7106602550705
-204.59832501269 42.9836448076546 0.750551008301013
186.325447794417 -27.5123018698639 -6.50916054255164
-75.8692045532087 -12.9876121244183 -2.14943584133921
23.2070049328493 -15.5830665895337 14.8075536818316
162.178730911811 4.99601367371133 20.6274640521836
-176.452519146474 -23.5040833345797 -21.9147636158798
-169.116217358104 -11.1783322943161 -25.4691961373773
139.316419657639 16.7538359171186 17.0169374607966
-11.4604984638813 9.52248762437637 16.7049258387669
150.218300858471 -20.5812371832621 18.5382912444645
-116.055496443507 4.8255106453846 0.0395894126830421
150.240107849529 18.6440040364463 -8.77514710895779
21.9892642141576 -14.2680743286475 20.0697003096886
-183.771851389302 6.42968235447379 11.1050854409569
169.830926280488 37.109126185442 -1.53480776269015
-205.348240434133 -13.6636113183374 -9.17801054945926
182.020127782415 0.184837310045049 7.68538874103957
-30.692037245614 -7.69607847229878 0.383229621205981
160.637154979549 34.7296327318033 -18.4196237874429
-162.207759876018 -4.78901940050999 9.42599430116681
-166.497540451108 -27.2207988070482 -9.36140831010213
-87.2082815241185 -6.92056520391965 -5.04396096945107
131.572492654691 -21.7677446873842 -5.20543807511662
153.536952836606 -2.26753243900076 19.3688053347306
179.388705239902 21.6770726929509 12.6427766171138
169.139485362964 37.7153555584184 -6.40376093793903
172.454310774655 13.1409446294817 -24.0822445047481
100.427515188261 11.8778992493769 20.4838828065199
160.559631591092 -25.8308368433444 14.7979280625486
140.909464688569 -6.37742467697846 -9.74369229140785
-155.871744069193 -4.13416741001884 -22.4749991003933
-185.069768516232 15.5751192342938 -11.2070380385887
95.6798293447794 -17.9293405824901 6.57682471351088
-181.170170780343 -33.0074282680285 1.3066011728597
155.824084876771 25.4612550677855 -14.324433447484
184.037464658272 -24.7944557127707 2.32336527911574
175.639172008668 -30.9496241182046 -17.7773419567977
163.982320431158 -31.4936961280032 -1.0135540014689
33.363182822878 -11.8606290578515 22.4013214323146
-190.365750153415 13.2757477005902 -13.8768362864391
178.478238682189 -27.3760028726131 -0.0954216043588722
-195.931077331238 37.932404458745 -14.32415117473
-223.521595058453 17.6883273626642 -0.0244613522088426
155.373325144706 -3.55538302099919 19.6084790266328
145.732720809014 25.1267225659696 8.2628914900543
174.465539526346 -9.40369732939434 -19.029859127771
73.4545260354645 -7.8059206155588 -3.29987718883351
-168.019339422217 -20.5218599018291 9.14361557338474
-68.0134564982086 6.10404051956428 5.23505074472507
182.848497199014 17.906272568462 -27.7356404268589
-170.554080746527 4.21372941924522 -16.1213847925565
145.580143801159 22.8774804205831 -3.78753052328631
8.86705569025477 7.30084039253141 8.06895795360843
172.570842223465 -29.1974446732487 -24.4320062450834
-202.146344513074 43.6336097943135 -6.05108247970619
-169.058953260882 -30.074685118976 -13.4376407056709
82.3859688830253 -15.6255276461913 15.2185586543963
169.39227411297 13.3108054741288 -21.8982247931518
177.877224911135 -30.8446281397953 -29.0135143346163
173.298271605291 27.1606586674475 10.6227452153065
170.775982408244 -25.5963721911863 16.1512770737184
1.1074553917714 6.60104418366018 7.39560152857596
29.8557407639751 11.3321437994681 16.2741228347146
-199.876224767216 2.12535839209347 -4.60676899277895
36.6036372938582 -14.7592147950655 8.81179250674901
-68.8472407419464 -17.1705668984539 5.03984804114071
161.78940169748 -24.6692443920098 18.0327472246321
186.412541398602 14.0083806573086 13.1507882987363
-116.424228129985 -15.044422988018 -8.62096726165857
155.869372897436 -29.3761127552559 0.770602511718456
158.668840993322 4.13419319968622 20.0387494112549
-202.675353039638 -24.9660277064415 0.87424165594839
94.1681933300628 3.33394724397781 -1.33409642107342
-7.99416988932742 10.0190892084183 14.4469730046618
-180.089756469859 -5.87792433452884 -18.4044510904065
-94.6887165883227 -7.66338972584233 -6.04088210184111
173.697758994131 -12.0317626821459 -30.4286908522828
-162.035833149917 -16.6721164810163 -21.3599393984615
-76.8225110630881 -6.57267416867523 -3.92235999943971
110.943772138693 18.22978204984 10.2019934864572
183.187462345639 14.5590631061474 15.5690759000809
174.223139869599 12.1772366244193 -25.953171260958
-159.33932169799 -8.98272261449918 10.1635819131066
-182.72128840398 -18.2950663060251 12.0968604669705
-146.580996632414 6.86518655014442 -5.81596014058195
-214.724073727369 6.7957675003941 1.89883703757243
158.806158086959 -33.4227507856517 -16.9728735823282
188.849389412524 10.6781131767188 2.62906731892718
-215.998315260057 18.3425043292646 -15.4953887597634
138.471797465229 8.02770316947677 20.5226375025306
-218.800125827204 21.6794655832156 -13.7406289128281
-125.339557198209 -14.4330256824288 -12.9515517683933
167.164766967706 -6.85114514985547 -21.5802084945182
-195.404895689896 -1.62944341392211 -5.2597553832758
-188.043387089517 38.4550505452923 3.65489136352922
-180.850049810268 19.4815730417522 6.91283100075486
174.684817317469 10.8923014462487 22.584391165126
183.990875115261 -13.244052263806 2.41236648705832
-168.620120369259 -3.02314965072991 10.8158733058371
-216.413104442635 7.65201255672798 -0.8518806670556
71.0015802667531 9.70619774930452 5.49157490479189
130.30586631851 18.1155131504945 1.39352476044212
157.934896076741 24.4843152462201 -20.3015711749048
191.467336314357 21.9497177643902 -15.6547813766223
172.395119754073 -0.797166903513141 17.5273482666134
16.9300974106179 -15.0829647964304 18.5091758249726
174.410596057871 34.2655495452135 -22.6485189729147
182.253614502725 30.3430369881137 1.80568554787203
182.278807501235 9.50766092565124 -12.2177919722955
-87.1753444946606 -12.0644546992525 -6.50807849951325
-177.067168772954 0.0941845455584561 -15.5179770745232
-144.875898343316 -22.1745082959911 2.13612985730304
185.907794312443 5.32923845814521 -2.0054432689915
156.389681900134 -6.073228067448 20.0847798833898
150.841744752821 -28.3238342984756 -2.29323196212878
-223.316454311069 31.1836859800482 3.31839331978668
172.168909031137 37.268734042832 -2.55937820735499
-106.061600921794 -19.6449730645597 -1.40912398866333
120.027350009059 -14.3091923912169 -7.47810526551278
137.377561047616 -23.5838718730818 -3.66557690783097
166.284214046736 -0.558186405731192 -14.5660880326182
167.21870022636 -14.2338051427357 23.032586445205
157.049000675548 11.1847579704571 -12.4812329870422
164.77102652827 12.3392559902594 -18.2305657405723
-77.5905726955717 -15.5038974733802 0.567598873036721
-197.417617012847 -17.5909681034294 10.7785349326691
-147.64837286497 -20.1502814045244 -15.1778819400957
-178.698968450871 14.3724739413926 8.45674208725725
111.76450954842 -19.263625973594 1.74569051414422
155.262470882026 29.23352635036 -8.55690540533752
-17.0223248613802 0.123885185271522 0.626132416904174
-26.5634724682875 1.85307575673894 2.87850113392024
98.5430056487748 -12.2210660022958 -4.7528547940854
-149.625219723369 9.80744933651695 -12.6189818238125
-30.2099382302609 3.94798564128387 22.6822357728698
-154.877299478066 10.2932906163658 -10.9542907264545
162.754367144339 37.1729970023302 -4.95272878708187
194.429756230879 21.4774720884439 -0.65468091880396
-195.128330922229 14.2900445896253 -15.3285950911858
23.4128903349737 -6.11378540057755 25.2443226695978
159.961950626852 20.2749798987101 17.8603155369615
-117.614372884795 -12.8836541934631 -11.1562825141144
183.040489573998 31.636247077564 -1.8120054907371
-142.162344764101 -8.61927444794577 -15.1930900718718
119.634182689253 -12.1208765259431 21.7804326698066
164.127927472546 -28.6586536873201 7.45363110179684
-212.902547249021 28.8467903646959 -17.8398170490164
-172.470758236091 10.8399779560508 7.90420304258218
145.008336707927 -22.9402784609725 11.9527304982613
147.872151945001 -19.1509917250022 -16.148945557213
150.06440865405 -23.2552444055523 -17.6050967481737
-99.2749141814584 -6.29297951775683 19.2399761348731
-111.321016885905 -8.80186125029599 -8.67808137175269
32.1301910031926 10.8300450222616 11.5648485546864
188.53223285067 26.177447550909 1.22344636898861
107.725162842702 -4.00195427432371 24.1641567658346
114.389300879797 15.2199347701641 18.0479292295868
-204.958071096632 -23.6780310007745 -6.43629255732619
166.898326143583 -35.4701046314129 -16.820688443923
-184.193364874464 -7.42545415002035 -17.2617053338959
-184.935465716969 9.95070146284836 -12.6047613068963
166.026554096116 37.7642097635874 -18.7104279528407
160.396454086943 11.3726504454261 -16.1363608465256
2.51572659175508 -7.75797669449698 2.17395287301063
134.847548773247 19.3012592245534 0.904617348086372
-175.785819011706 1.35527999457043 11.3296234775284
102.287537592175 -11.2576904217506 -5.78402858874943
155.803047128277 27.273323618109 -12.003321418853
35.349214334347 -13.9402602523749 6.78763654854197
118.238223050366 13.696997208663 1.13342681722112
-189.079486726401 32.2345873434725 -12.6290335567003
162.462235959992 36.5583647454686 -2.76401241255712
-181.584804358607 -18.6381831289527 -24.7189785878372
182.674302338881 -13.89046557435 -16.0675800143125
-122.96869544747 -20.6788843013278 -3.87323314591376
166.53275674491 -32.829686352676 -5.14094236529694
-151.456327386084 0.619160172715294 9.13781961686105
170.818978087109 -21.517943946011 -34.588116585678
-167.077662501267 14.4877395431397 -7.05247689048507
-202.040397653511 33.4432270905658 19.4366448391455
63.6613121121108 10.5966371246755 20.6434604019732
-17.3370469746053 9.60553523878404 12.8219111689912
-23.9019725090017 2.55348134349726 3.50990775172622
-184.892340415899 -8.5857909791541 -15.4589447096368
-171.424445483948 3.29454612309792 9.85912650487476
136.233388530669 -20.6054579577438 12.4363294717246
154.814362243028 28.6677095066878 8.05074957589322
188.038619049809 18.0884980379141 -21.4182579811135
86.3006923913019 15.713183792705 11.8489787791449
171.402197493339 5.29943274867928 21.193891673842
-197.585796522353 11.6176371371707 15.2811275866583
91.430474826999 14.7699121431832 7.82581184448541
171.863785583275 -9.47559808876536 18.5109380155382
70.9020873342644 -16.1858588037305 10.4232759268543
-163.459705263542 0.424880487394187 9.65456205962789
-90.6711335747747 -9.18489441152762 -7.08911984649589
130.306392675834 -1.05282634770329 -5.98356380096082
179.319730703633 -11.50950372596 -22.7156470063317
74.8583503356762 -14.6277840735532 1.77569353817936
161.067475719747 34.6974744221313 -24.4670401312343
-194.672932250952 -9.34519144990254 14.3933594294923
-130.583529813791 3.68912244576837 10.3038552644986
-85.6593532304134 -8.20232342536049 -5.41060262778048
84.611215989898 -1.68871174248156 -2.8926276614082
-183.862344338792 -7.37638461866131 16.4112372225441
-69.5721914878859 -0.280818801335855 0.2577583015905
160.847751007018 7.22453953710653 20.9563121897147
1.13875729827271 -0.351845504804667 -0.932765089538586
160.939191685004 17.9083955762986 19.786185438668
165.078903224523 15.7493130904926 21.0020240789222
-28.8097400775038 -1.29988415915198 24.7635453570949
-95.4102746066119 1.71174763188822 -0.703937322390127
-127.756076420984 -13.9644284897242 -13.6877107633002
-81.6596357397516 -3.4898448426927 -2.724322027428
-172.536975038415 13.0846174657689 6.22159143306474
177.369459771991 -14.3905290046069 16.7508643468387
182.580906151129 -30.2066621944727 -23.0155078402457
12.7229423782398 8.16764699304892 20.9779179122524
134.160345672802 20.7638464388911 3.05920982475888
111.114049001489 2.3729156663511 -2.88231899695556
183.935820031136 -25.5205690977225 0.275144869594911
136.853283203428 -4.32604130528449 -8.1026494941588
-27.1751538324572 -4.31800997630554 -1.76596425409857
25.1945473946911 10.6807274839299 17.9920956885615
-70.4940818351524 -6.39279846470895 22.493462713131
175.171825829104 4.02840620131804 -8.65574953517607
80.2407736815186 -16.7108559433414 6.8530636616024
122.869551978777 -20.6401618250233 0.195714893851918
