-196.78591399463 15.429319623454 14.4077581558708
-185.039499045191 6.53495613885013 23.7208847149183
76.73221047608 8.66906462775443 -22.7007564209944
-212.230741520211 -35.52088781585 -2.76707940233888
143.166021463984 -7.00782938287028 -25.5180466493886
165.535689931318 22.0898863936152 6.4490856135881
201.408245671602 46.4523661005947 20.4646704020167
-224.059419052705 47.4187231918706 -18.9067996279371
-240.251678957367 34.1569875879275 -31.1813278820901
20.7598236159802 -2.1309684308567 4.7537393573047
189.95936134898 21.1476667050457 -21.8323588119233
225.491919751339 -32.2267245800344 -0.458238543674335
-172.691517875262 8.84489034087234 -3.68560103190479
20.4807456928342 2.70641085567722 -24.7663096402035
105.103374501438 -20.0245018695001 -3.07126377709347
181.361404473402 -9.7070636207927 -27.1533202329661
228.059901772624 -30.6564620723817 12.729124572964
-201.616113857218 -36.6615606710492 9.01219979714644
-208.925431147999 1.13966012315728 -12.2528070928624
138.860903693836 -14.8207004952117 -21.8373234296575
-5.99746017699476 -10.7571296743007 -25.0062983875318
-220.116125908583 -9.47880750025425 12.4971787943565
-236.468954703037 2.18240996967594 -3.53623836511588
182.441425663795 3.99865280048739 -22.9626573552187
26.0232289567523 -5.85576399525142 4.46421274527023
-215.938108333638 8.32681302662849 12.5280290942577
-219.105381213621 -1.03540517723923 12.8109364525467
205.667675239334 40.539090801457 31.3954420668645
-40.3400010499571 -8.7862616294129 5.14406794602445
-260.003722932713 42.6060466648613 -5.86368710435168
-171.088579350021 19.9558082656233 21.7016122368235
-249.88242612352 45.539291596504 -23.0230062686929
213.526832859187 -25.0121817231211 -24.9223283124038
-174.001585207363 -25.6528276797442 10.7684663820067
188.945664565383 -32.7968025103297 22.7827113857889
-248.754784498804 17.9698736610609 8.83650682346815
174.929545006626 -27.4127412886257 1.57352341243596
-194.314687076205 -28.5508742161384 19.0648893606896
-189.517930941044 -30.6671748806085 2.09577974567651
-215.472020339484 23.3866291326502 -16.4741932879284
210.315800130995 40.1554778434274 32.478882312266
190.098400650526 -7.81681756932045 -28.1940563432396
116.966209832283 13.8593689926014 -19.1816655935108
-157.254046796112 -24.5628416568527 2.32203861828166
-236.550242124907 -15.1100617005735 5.79652851072577
-234.403764558117 53.9510225438671 -16.943995208165
189.494591874688 -19.5748251183923 -29.6467802574321
216.976182583607 -35.8460405442211 3.87163056830569
129.651387567692 -16.168282476163 6.806107298269
162.462494342433 -15.9030662637325 10.7100788264047
148.357152486894 10.8479827859982 -20.7691828498522
232.490785876472 16.666440568539 16.4483393704818
220.069959565697 11.2423122210792 24.9282465890236
139.452377918352 -18.6201161594872 7.12690480132173
130.509346771768 -11.4311082400337 6.58638641260323
169.523981341788 -5.36958643425462 8.34703254954622
193.377292920744 14.5531459655101 -24.1012645190804
-77.4158596960475 -2.28784128456597 -19.2528038877041
195.699064956774 -24.9706086065045 -25.1183071419888
110.263830445029 14.7773643005896 -18.4995896239983
135.278389006219 -20.1525586011057 3.18019575220689
-208.671974810088 -37.8150348305906 17.2911638625094
-44.9132637961133 5.98329858680864 -10.8500289577753
-240.478271760863 38.5447542773821 16.2504124375134
-244.06065256851 21.4243480333827 -28.406442226832
85.2798649212739 -10.4852915384677 4.56707904945722
-46.9105100476972 -14.9878771691223 2.10381494059851
98.6649725779792 -2.86533931978452 2.37176583792274
212.415951341505 -34.3989458907676 14.7827744930584
-216.241955583996 -39.6663623873024 14.1137033364843
-79.2931848994579 2.18526429868312 3.89545180206605
99.1318381870952 16.1222297748974 -16.3417148726966
-186.149750999935 5.25657520764689 -11.5121768160843
29.7265711295307 5.29045535307496 -2.90346024980882
187.988318054493 29.2832580705781 -11.8670599622068
-189.6104056688 -12.6173660848978 26.9721261266414
189.23152506765 -10.7627704472035 18.7788722254012
-191.775011279638 17.6414308738988 15.9691245084176
-113.740274802024 -11.9516224749428 13.5571626524468
-158.775470347293 -24.51583514965 0.0369509511038838
-210.607426113623 25.3722141459706 -8.03563273412313
229.333521809853 17.1374979889124 26.4871845555096
38.9073596670615 -8.6444267677535 3.0646999250577
222.542778080992 40.244599223823 8.30354701919052
-194.986715365549 10.0640906445099 -11.1301872791288
25.2841105438458 -0.365872872132289 4.47947981695415
-214.388551357672 -36.8442856100972 17.8486952703235
70.9172475457711 -17.5525968939579 -0.511391533581004
225.275702140263 22.6616856427 35.2217361190917
195.310539577773 27.3761052714475 35.1299604950649
-244.307033361456 -23.8893703890248 16.296860228225
186.626758554908 34.5300386109185 18.223999579602
-232.566899781217 15.6716107436542 -25.0682309901583
-234.072364613523 37.5044332220068 -30.1645372822815
193.260103720666 -37.8558943402455 14.5298669203644
-249.616659323354 8.49038397375597 -7.22673289888488
-90.5437975806434 -12.0103418397056 10.2448684282842
-239.919359042807 12.6706049764478 -23.2296005032279
132.841235757259 14.2078175865827 -0.629441261214198
189.575160449458 -35.3392590393953 0.91818682154156
-89.1845557223538 5.78561507049502 -1.81223123004768
-20.4040230228781 5.07331713472605 -18.0319782846552
230.907034351508 17.3522894327236 23.1581003841681
-253.4823496015 15.7095278466844 -18.0957929647348
-231.171750728366 -16.1857455748413 26.990857258929
-241.710736589458 -28.172075206351 5.59135753112402
62.1302216917038 -11.0490361360836 -25.1153682379716
192.480917145425 21.8613518030653 28.8318681779969
-148.227659963666 -8.64018848306283 -12.6213526257366
234.641506397135 24.1113115202916 17.0526286640052
-249.367155166586 8.3866763324209 -9.03676124278544
-106.440553408469 -19.2629996429164 -15.1019079148778
193.264414842539 19.8675382572823 30.2407846452572
232.154407531833 22.2155722853905 -6.49812411350319
-260.933012392455 36.8067711305617 -13.8359824833652
-106.350680423901 -7.42353694341309 -18.5934616222346
-186.808787295657 19.7290760760154 19.9511294203406
-244.940626630481 34.9825198130618 16.2390413610654
-96.631094494235 -10.5056682216841 11.6674034338734
186.532749619677 6.30100873354441 -21.9233071622012
-83.3876400678593 -22.6594053078231 -12.5833650321448
-239.679493106754 56.2679627572601 -2.90899878744146
218.327025929462 -33.1351922490239 -1.87385811206523
176.731514706613 -16.6761292387616 -25.2531497098672
-215.906235294941 16.9669950899805 -17.0027585586408
-88.6251966648654 6.04490044155426 -4.2510268434477
-242.214898341925 46.4173854666272 -25.1007817513247
230.816387637523 37.9879479546361 22.9158137971186
-159.837783229402 9.06299940890598 -0.0593877107877459
-217.747682400393 -2.51929286666409 18.1265342859169
-245.240164775405 44.8169900655852 -26.0976281457088
158.316334058027 22.3898546451809 -9.28959151036981
196.988457021749 -3.4085870947676 18.1977606973123
-238.874670106252 -28.3184470842683 -1.07151044311633
152.613567377518 -4.78730556477642 6.13467712006714
200.917438733202 -36.4265131396399 -2.56303183354555
-160.150425107635 4.10114101195243 -7.9406343687286
-238.534880684506 54.4430056052006 2.82646842013766
-134.597040528327 -21.5172860435977 -8.31459743054265
-217.54454411772 -32.8042680785827 -4.36186967806282
-259.415648167518 19.3234024061653 -9.75877476070423
-100.915159468784 -5.85008445356277 10.785674542429
-241.197823441236 -21.0275327522131 1.68591863364282
-189.228586648135 -23.1465903039983 -5.43950040636485
35.3549360190696 3.32142080545845 0.653129718780751
10.8855694477646 -9.15480427973981 2.42294197778812
177.202865075617 18.332864931294 12.8640627555107
-44.3439310755485 1.85121392948056 2.25008198939177
208.904226766461 12.7265802466442 20.5442100461165
213.104004379882 -34.161039152435 -4.92590961779236
188.27413103916 -26.1993354049149 28.6160808516238
162.270475524876 5.20384078843604 -23.1167191311275
143.210208258501 20.8008269012957 -10.1137083699323
216.954870139358 5.11400382219765 8.05354498022073
44.6645826690467 -0.83020174350391 3.88634353241254
-219.939132047852 -38.556115998133 1.88410167846717
220.111872069553 -38.9800348057941 17.9764092328451
228.219139114405 -26.3035224346252 4.06635167934112
-249.505115784523 43.5453860923794 10.9627594584499
221.364869018588 1.4395552953671 3.74580141248311
-4.67410448170386 -19.1424555187718 -19.7950992033997
-102.955495078052 -12.1388426291598 -19.0571173740471
187.212288450689 -30.8055039118503 -4.06170465854982
161.856952052439 8.30745130173892 -22.1788305319064
-229.916996577263 49.5898973369195 7.75517998009365
-182.548814535703 -28.2304958788384 9.62830677766586
-248.452353620363 9.50097488731044 -14.1660163740024
189.70276810333 -31.7555080220665 25.3923396180719
-12.8786992867093 -1.8198286111108 4.89006225585066
87.8485536690925 -8.7388413926668 4.88611417101372
106.578455845392 7.69583571258736 -0.94206929420513
17.0637944913162 5.67968640168086 -22.5028269481944
190.920441914674 -19.074459258368 31.0421508682747
-184.957020433194 21.6401554886196 6.0877957227474
226.995705669724 12.8167774888465 15.0277170625976
-149.611819453316 -21.3296359669388 12.3922745140144
-177.459175903638 29.8013439203935 16.4346614858759
134.531726175053 4.69106119803421 -23.6970886159135
-129.15470004068 -5.82832335429323 14.4020016105066
93.5214579120379 6.37067272340011 -1.04245550841782
-258.959042412781 19.3874447522942 -12.2372143853247
193.904244608603 35.2858950154299 23.9378157353007
101.777340510622 -4.50320725011167 3.21440577509933
175.109250579782 13.8350121481207 9.94121262489489
-235.135118854749 -1.45983549134524 -1.47937289062376
-167.779857843579 -25.1079727104045 -0.804124381810559
-233.376979096371 -1.09639924377164 -8.82066352180616
226.327722810942 6.40318942017872 4.99296643637029
199.304130137831 38.250379056272 33.4993975344186
72.6554183372941 6.66553627861016 -3.0942243104389
-235.328068073694 -4.25890625438937 -2.38087513924107
108.829240466379 -19.7157352991928 -9.89231987671158
-61.2363522287639 -18.9469085850909 -19.6618066787148
167.592972693362 13.1805138595401 7.15409406108093
233.961184106998 26.8138514392105 -3.07981564867948
227.813283818592 33.6306279467746 33.4355244254807
-101.603912441895 5.73636762471549 0.864218874391106
207.526192095077 29.8898379258949 42.2369748962907
-220.40138579435 -38.2527129056536 14.8847188108839
156.346262415936 -19.1415103249889 9.04213749159011
164.292748927094 1.17859126599606 -23.7346798666212
-193.394073509045 19.1994431793808 -0.158532363882231
199.424433574364 46.865320727113 18.6956452536302
226.835462852654 16.7750785059545 -17.1327252655238
-11.4469665780873 -10.8741861468484 2.17504010449578
-232.387788273506 3.82079040271084 -17.0123076793245
164.637036129196 2.72470378193971 5.90102250187119
-50.1378780480561 5.9694150179442 -10.3053048913077
169.094295254416 19.1538618542651 8.62711399162267
-227.853830410062 5.74236084280478 -19.196921516298
-215.994922553952 29.9181982488315 -15.7268054531614
115.301752243951 0.0708637044546763 1.89743870806409
217.87474150381 39.7329115184463 1.13234512829689
172.525014280381 14.4499717429138 -20.0548266699142
-217.336741022726 30.042141747457 1.5968870315792
-239.739400114913 -4.79142546712827 15.622785501598
-125.654706170651 1.26245205964826 -10.9036927679646
-88.3696145143803 -5.29180337309512 -20.0059863888759
-199.627630105414 9.72611786155457 -12.106567576588
199.538504507639 -40.315730384674 7.14967070621607
-217.575050012386 40.0986454339672 -2.88125001722434
176.074701563339 11.872255423686 10.8994085801066
127.886817714115 -13.7308367183311 6.95209328420199
184.175245284236 -35.8698042290117 10.6772617097344
135.592425688432 -3.51140321552219 -25.6944350365851
90.9624401684841 10.3291689094608 -21.5781256348479
-175.323175092638 17.3650584536289 23.6520477566715
-107.056887893701 -23.0717603425682 -7.88101427797115
219.193949721867 -33.6198851213619 1.79396585164912
-163.725828289622 -7.21937593594051 21.7483333038
-170.294345369885 7.93902637245944 -4.47308544827144
-226.393458015795 43.9849270734199 -24.1946677977014
233.724924993965 22.5551089407435 -1.68327550921685
-85.5509790325448 0.77596773775859 -15.6096438573176
203.288029672011 41.2488245876488 29.9657023569198
227.269620640542 13.6599202356718 -13.6809854603747
-64.8252987075588 -14.4776730866942 -22.1107450645663
-226.581012813047 24.3645631689381 12.0800255478801
-53.39364699868 -16.7667923947869 1.40405967243219
-236.818179006543 -6.10098353620192 23.8372476038285
171.943634994012 -27.4185244464876 10.2616177852109
195.280989367346 37.9620754334435 26.4336152256499
-125.972479733754 -12.0904337779855 15.7125690345807
167.145292433392 8.29237461201475 6.34153109416645
194.273898146204 29.4765306591984 26.7087018114649
-173.586106058834 29.0556743425338 17.8011681194604
-185.980238455324 -7.0748917808018 26.1545889841328
-228.849410803329 50.7234685066721 5.24739344681818
223.665315061318 -7.30014769895586 9.31766798985462
191.573065476924 22.5021838213647 -21.8288044374755
108.115856057519 10.4698159743097 -1.81475871644652
-158.840018381225 0.468111372143911 18.7485700699583
-12.6097697931396 -19.001853767478 -4.35723234468485
-153.420826110394 3.88438373392716 16.7171791390897
179.627012260806 5.6380273390543 -22.5576163039862
-222.762157720956 -15.4139681648744 28.5721180438843
-73.1783507023393 -2.60374398113726 7.32135585633825
-216.237277917854 41.8904881000813 -9.5470814571387
-217.033046561399 31.7977602839646 -5.88115533107471
95.6448333969527 -4.32641318820384 -26.0891268538265
-202.569650605593 -17.5236540926036 -8.32857287083342
-224.273321433514 10.5395849111939 11.3832453929607
-28.5679424247657 -22.2654892188392 -9.25133769439456
94.6421669806982 -5.73841500962265 3.78799484788049
19.8772067373508 0.123689320834185 4.07293326268196
119.534616718925 3.90851160437768 -24.3164486027939
-237.828982383608 19.0932267886541 -28.2168890858404
225.044748965667 -9.74486836645239 -8.36188902233902
-223.784646676126 -39.6280080139052 4.20669005305415
-155.362300748902 -5.64655576535282 19.2926178263402
-165.422013985635 6.54567128782597 19.5552909698403
203.487102700126 -35.6200784664478 24.9914698184442
-205.683040130456 0.907084568300401 25.8327934186114
171.658037986873 20.1835730998962 -15.3494661401353
34.5089034961453 7.25466094914262 -5.85297385585346
163.245307333281 15.8075520587404 -17.9566339248668
189.248232001634 7.20423860572181 -22.9479176571577
-135.157130798071 7.11086132726718 -2.61270274930803
-250.84058856912 9.33922571435346 -5.77334130911822
-11.4514801775768 -0.117826467746417 3.62403388298621
119.479337348908 -19.2034298732447 -12.4256827864868
177.005575553352 -4.94740462461709 -25.1061071162019
-152.484319982091 -20.5716890499528 13.8254580038056
-192.512726858718 -16.0598318375139 27.232967511656
186.411942181442 -23.9509245305577 -21.6536660507179
-130.038858245803 -11.3420186423721 -15.358507830326
-222.249219834211 -33.9833967883295 -1.18666337725283
215.937198462428 -11.2625225323997 -24.8009904911681
-232.079946306927 -0.621848474976342 4.48584493198187
200.766944981714 -39.1803254304644 3.65269569141386
-244.240020742363 -21.0053281146178 12.8792622071479
-71.7332827216459 -18.718651465088 -19.1654650744998
208.403572601306 45.0047258381265 2.74923367521691
227.15765634657 -31.0012114530836 1.50456363459815
-56.4179714427759 -11.485924217334 -23.5312639939637
218.860990947172 41.5302304313052 4.32733158957116
-243.373034130151 -16.409791005246 9.48593116947055
-213.678109787074 -5.45189571277609 -13.6482470627543
-227.006069791637 17.5186810356461 -23.5672206475235
100.829891252318 -16.9786251184815 3.28079591621169
199.529917886451 28.1150261580257 39.2300583272349
150.642005128988 14.7825012341452 2.56621212082617
-170.910574483734 -25.7926965010907 0.0662693343308673
87.7620443636102 15.4526346310595 -12.5952446287374
220.888478305304 13.1213775303708 14.7025348733478
198.277501725631 -14.726774488663 33.0744512994781
-198.041418302952 8.35951105408136 19.6200380194812
146.895138049335 -5.483890487726 -25.4807288843305
-66.6525876138451 1.21529662386212 -17.2995475325636
220.460976103562 -9.18805505086946 22.7564685875411
-229.286807538428 -34.464140634361 7.6510625224622
161.111183255745 6.69590882630668 -22.7014961328054
129.136248402733 -15.5330670355481 -20.8556475856571
42.6062557887869 3.71980369476266 -1.03580585538826
-73.8347508929821 -7.60665989039719 8.78489310739702
-239.877059805373 -28.8609954208307 1.03778454813729
-9.56535729231548 -1.53757863815047 4.667578658324
-30.9131860027165 4.02085149448097 -1.58610159999502
179.435082878898 -7.741573399149 -26.2688138119425
-33.3538545291288 -22.8647908439412 -13.4385839099104
152.844640657763 22.5038516981701 -7.00187302618963
-231.273630055996 -2.68262251487533 4.54908317674793
209.790610399907 -19.1778601877611 -30.1771322535362
66.2298128855119 -6.99660647155079 4.70154052359869
232.122457478771 24.2666285199417 25.0376604515066
-231.953477025351 19.6965674495748 13.5174206654578
146.597332848138 12.9253027579808 -19.6084702996445
216.610714340067 -25.9364024963088 33.3759577060462
197.259883262915 -8.5794212962975 24.3467560726007
-132.071970474067 -21.2439018051378 -9.07808540785787
194.70352901304 -34.9388620540907 26.6796987262788
-54.3179113314648 5.33676316306451 -4.67779689800776
-141.232832144832 -8.75577924728942 17.3260148757183
218.471999592685 -19.0596148940995 31.6334563948338
-197.070318699252 -19.5919005813528 -6.75254653787834
176.276371619773 26.326172773311 -8.66626495790999
-143.848690434165 -6.61240595807548 17.0394990695474
222.009990956033 -26.4057570383772 -19.2768393247633
191.415919687306 25.3093861715934 22.942607476256
186.310332169371 -22.4362734537475 26.0098988266603
-219.457438605821 26.8015452595749 5.83435433236964
196.077020412792 -30.927851893114 -12.914103347968
-217.791915311152 -12.6038430018837 29.8219672869156
-150.046419334518 6.91035020388773 -2.86007231193632
-78.8975735208999 -11.5949568335806 8.62338632414123
129.978356104234 -2.87736595733909 -25.759418261955
124.661506061331 18.1684050010523 -6.21806341201062
-224.868439340756 7.36928850474285 -19.4578419379106
230.122522373872 18.3376208912375 -9.92839067337293
217.814156381238 38.8158478036633 -1.13826701985553
197.871544534892 29.0319834104952 38.0106236793955
-181.760748845027 6.86176816573241 -10.3374091051744
-75.3617731669993 5.36263434192221 -10.3888396821426
-114.838233375989 -11.628009220088 -17.5385347920814
-255.919875427262 30.1206587522545 9.88393450181142
191.973649260841 -21.1662827509601 -29.6085490404483
-208.062748986897 -42.172209942001 6.15963167755738
-192.179404297512 9.7097954113158 21.579111068295
195.007342194637 1.00942189009756 -27.1083585047958
203.842123275328 43.6998705335047 -1.38093139996177
-223.824112081123 -6.55859028236595 25.8075433688843
210.075706103556 12.4347085643242 35.5473421011692
-222.536881262883 27.1909662380925 -24.3836480149427
180.676777241022 11.5057136167489 -22.2058215602663
-202.189500885439 10.225174703917 15.831983163556
227.376338321631 -28.9865871381905 19.1416798849607
172.911432811257 -9.6079812680791 10.4028265775614
-209.527211381044 -39.1547807691686 15.137951955206
174.816868268721 17.2780489049095 -18.696089637294
117.604580572651 -14.361819800403 6.75947259936961
203.965223526934 -24.3341635544071 -25.9926546938734
223.04346570699 11.893856941827 21.8809572152125
178.393060483983 -16.1242498849836 15.2997606043381
-212.592903667298 -27.0857287307903 26.5339146702108
-230.950049939 23.2206424657432 -28.8990643851612
212.241901177558 -6.94645950156456 17.3636911310668
115.239044046119 -11.8643364478465 -24.126366349388
188.470593636521 14.4519648858748 -23.3038056335861
225.910511878564 -24.9605255971687 -9.94704194700763
-2.50309882707204 -14.6330040056795 -0.206709759487632
171.070206548193 7.06090334361039 -22.6678751914868
-4.08644350852236 4.50731446877639 -21.2072803004106
227.548412271618 10.2650627258231 -7.25980306836788
11.4675428090467 -1.0307722536532 4.51708228313364
-69.1857342653018 -18.811748812768 -19.3061688501599
210.682275811087 -15.5091886268356 33.788086485422
170.051273246736 23.8794846806323 -9.96349377836274
-221.094988744138 36.9450785938514 -1.25461465211148
62.7092140472674 -5.67492500761778 -26.6062128285353
125.990224753217 5.59504733288972 1.10156467634255
76.7086600512048 -14.7821526970081 2.23902570481459
-26.8279999872146 -14.0858064449538 -23.6467404141985
183.535724761873 3.64890990681511 10.5381637226052
-188.832245680112 -29.178431752518 -0.517822534615578
-155.363435732275 7.20618897409948 -3.18476425208759
0.659663591453826 2.523209752041 0.974052900988725
89.5333334007203 -13.2740276120997 4.21842815683169
-82.6162754991735 5.35953004120587 -1.60756355990322
-208.565181781489 -36.1496117259094 19.1760266713688
-76.631002485383 -6.81536133639124 -22.1355300426103
103.081576614325 -18.5626028248171 -15.0411698230194
-194.207110695521 -23.4577384367593 -5.72118965104121
214.016184478943 -9.66031987953761 28.4702298395317
-141.437269189677 -20.9891352429273 11.5126459540197
188.117753634244 16.8692350477591 -22.7374018654925
188.682969570922 -17.9946551494504 29.4827614317672
168.132801748911 -24.2733209415838 -3.32306405550552
122.751503601573 -17.0101368011734 5.3740607077198
-224.674045292779 36.070994549541 12.5276690065074
161.296129836115 -23.8991223503412 2.2330211344611
223.71390921525 37.0613997266359 1.3631369004633
-190.681506492744 21.6853541761237 9.73496428453357
-181.790551224417 -1.17951487860866 24.389254676747
-52.0580366366076 -23.3078706606769 -10.2381160197835
214.141977595031 -37.518449891127 5.62193885365874
226.95359877713 7.20920992810667 -2.87625142537107
208.849098349934 37.3368003654359 -8.57079595006188
40.8131735124988 -14.7414280341922 -0.00985519676151682
-51.6647660203399 -15.1165291331846 2.53107548705068
203.63162943526 -31.9551649535786 -12.6588086289794
215.899403026758 -33.5129423438749 -2.44381820936339
-77.8163665635108 3.3422109468583 2.07533806604
-240.591873339376 -10.7917887359643 12.5157559595548
-191.629273106245 -2.36669734646008 -11.5501449364973
-253.893176846876 35.6121299695586 11.3286290673239
170.987648132558 14.8562151345101 9.20647047988989
128.072129298423 10.5492192737705 0.0170750678178991
-257.46209921936 20.6483387353123 -17.4739875642993
-189.613979173022 14.5893517119459 -2.65869435511071
234.404678575893 19.3295703513699 8.12875537436674
175.594738640326 -29.5181143980012 9.76189520078169
210.375522364188 3.01999946862809 10.8310727482503
-15.5235262442819 6.72430318617 -10.4512104747626
-177.27885177828 6.94842741503487 -9.15782618706929
-122.778058313544 -16.0835474378807 -14.8602262809982
-175.971960342767 4.14348357289213 -11.1833580520658
228.637476305768 11.558379339186 11.9181276425074
227.3292816478 22.6669106948756 33.0600541945357
-225.037701833032 52.2037786777048 -3.9734864288135
226.347764949068 -29.3781296224282 -1.1355489079012
-230.233015572649 -32.1076708578323 -3.66517299950615
-194.379881652596 -32.2089042802853 11.8945859557115
-176.111102164171 14.2392351068773 2.00165325337185
-254.265999092174 19.0297743194786 -20.7229791438406
-0.292885577635236 7.37436238623336 -13.3916747150314
-233.818691683258 -12.1830837317386 26.3077273587682
-170.868887678422 -20.1514924024645 19.6428643868716
-218.617095293698 38.2163877784306 -19.7802914084911
196.036869173098 8.39957865459877 -25.7593422758896
166.767330363809 9.84565989358664 -21.7335119814238
-243.988040633201 -18.1590015073277 8.54110768192807
65.0401033875462 -9.78758315872773 -25.6147867628055
195.30733780943 -21.1387808839929 -30.3102531961127
-204.884431888154 -39.096772689951 7.70679655752623
169.741284272478 -26.2749542487996 4.17996952975608
211.469697743828 -34.7201747229251 16.8721490744267
-183.055289883574 -8.71450587485335 -8.60310786691988
-241.66798521175 6.67560028397456 -6.01313618613468
-107.28489247376 -11.134518426554 13.7907425183324
-44.3956941195517 -17.3129967691041 -21.5893600164174
-198.83391052818 -34.3483284927277 11.8617560913051
-139.494422646111 5.9213652574799 -4.74964319218865
20.2323411586814 -19.9335325745436 -7.8228464946177
-197.072629938371 -27.2546678678208 -4.65745185132716
-255.843609896165 17.8236656094652 4.54519125854482
172.651756225551 2.4433973853877 -23.0470859152686
-244.654760403096 6.04359818002578 -8.75212803569954
170.58050602739 -23.1195140963303 12.7646917333227
94.1262662231292 8.86547337982251 -22.2133284391152
221.135456799629 37.6021955016292 37.3211999249723
197.416256709928 9.47077793187162 18.4615599542383
200.30391731161 -14.89468686494 -31.3869785993861
-248.294539281702 15.5164181797125 -22.5480346448021
26.3558198234538 -19.6417715444464 -16.9871814551201
-237.970797453798 4.48588951748392 -8.15184672372662
-184.281531432427 -29.1586376649958 7.27633299575368
86.1568416860983 -17.0937297312042 -19.2548875432263
-169.860613232876 -0.838055833494094 -10.841380066372
-218.013150773506 -6.30562310586359 13.7753192319571
-226.704002747029 7.5604537659349 -20.2275911771263
-227.826095084932 46.2359788018748 9.71214771373422
199.03059772166 -17.0908744094993 -32.2766989528597
-233.062140749041 -31.0851029065255 -3.42445268865595
-260.039264846232 42.4206452338112 -8.44073698571517
-242.132229748719 12.463317939241 3.38763563393172
-0.641707861128298 -18.6952511184592 -20.2931375465061
-165.063839387442 2.45828173870012 -9.80211641872009
183.370803417658 35.1019741605194 8.68614999779472
62.7155411627143 -2.98348355567676 -26.4554499383386
181.79011625296 18.6392536102894 -19.8178177555984
-172.702952412397 -26.1721465861989 7.7683416427223
189.280471410743 -13.8123163858445 28.1641335201834
142.302575163751 7.70271047719512 -22.3604462904558
-170.047279165186 26.5928929931754 11.1998700565984
-152.276009512648 -24.2146723945839 1.78262040272631
173.105306418665 18.9596391214273 10.6554223587997
-235.26083350292 -5.88615262902031 -1.6680845367973
-63.9358665151997 -2.98212405120758 -21.6159766653299
-207.291532157509 -27.0628791213653 -6.44049320112327
-247.516786934082 14.4387570089687 3.6054575120578
204.156092427353 -25.8192206126209 -23.5546352956033
207.395683640605 -11.2657119593857 31.3857754917722
-194.574861408572 -14.6441947674615 27.7734228255528
-113.240334945925 0.765417339922671 -12.6823225028175
206.581266386156 12.5064622198417 35.1622431073141
-111.14361721924 6.07217092663799 2.20303876980213
68.4979974610102 -19.1159216216197 -3.67274203714921
-179.694724529163 21.0604238964723 23.27137940655
188.026911892459 -31.4468170121134 22.0385390028421
-180.428665473791 -15.9594459798648 25.3189472846656
-0.79744514714709 -20.5536517912262 -17.3502981367107
-67.3069382333039 -14.1255417589719 5.38017971245775
194.183989365132 -28.6401343434568 -16.8570696443844
-58.2485408616292 -15.7233171393677 -21.9804394353715
-3.50144510778067 3.52245665394225 -0.4563453588673
195.212668652059 -1.4619060879919 -27.6968018591801
-239.889923133902 -21.4410465790354 -0.843771428701496
138.168381538444 -9.97137347033719 6.63408716645045
-225.917732241423 -33.7061730066952 -2.71076129669276
188.021693115695 -22.2671860740875 -26.4510677514898
129.840566652456 -1.94687346619815 3.49681449776673
-206.352697954062 24.0194266360006 -5.21584966122988
-219.165926588473 38.0734795886689 -4.17068559201017
-51.8980562670782 -5.60355639790606 7.13111143770471
5.19333000859908 -19.9273793093746 -18.2740952353336
201.872215412285 -9.12129453280698 28.0879417033118
27.6902611155738 3.26994257208488 -24.7222849960636
-58.9777654546348 -1.95447512272308 6.48490712353213
77.4280443107701 1.21933015984813 0.898769886672722
-225.214514120565 10.1797196215754 -20.8941739512457
-62.0905872715866 -13.9807380080218 4.58176572743761
200.180495014963 -8.71485465669385 26.0962035757111
-235.238922959827 -22.7166806730638 -7.24725668916658
222.022722083284 -3.37727408633804 -11.2738196816028
212.060811842323 9.64414922319017 32.0244005083662
118.638228227443 10.8315715500303 -21.0405509236641
119.918702999736 -15.7609347845495 6.07756661018688
192.908829731854 29.1325274019479 24.0836593482167
-212.819352856809 -39.2845322620478 1.56578071153704
-157.516689875711 -23.1540487636494 10.4164782183429
-239.891893968769 6.36230603581889 -16.901105684969
189.019470321296 27.3160435792148 -15.5733498847796
205.203664699684 14.2174364297285 37.0706515940988
198.196399620379 11.3555700736702 28.5505005594927
-165.723993274874 22.8929811456065 16.6121973722305
-80.1011603955032 -22.1553628454202 -14.0835274616371
-253.327582782966 20.8773837741112 -23.0063040159705
200.965602583894 -32.2636920724115 33.4493066464106
173.049991916361 -4.80224011663352 8.69674970671113
7.85902682890485 -18.405193777145 -20.3568833956555
-32.6264231955466 -9.01695747796824 4.54445912031501
121.623706219833 1.89503746860835 -24.9324759505408
-246.388859916026 9.00534208322932 -4.99850270937189
-240.035710814827 -15.1556084902414 24.6034864078059
27.9035322021858 -4.61151195364532 -26.3163209572175
191.915571900749 32.1535504967092 -10.3403012441735
-156.848507732207 11.9667666839805 7.30325663686812
-232.726698828972 -26.4219265143323 22.7403471478789
-222.118925799294 41.8889915130122 9.23397705716603
-240.460840082707 4.73730946768065 -10.9202303927586
-219.178745252216 41.0915537276921 1.43604186234927
-13.018963442293 -16.5291124588735 -1.36004791065031
224.470555728324 39.5171080640799 11.6515546483909
197.749566161896 -37.5674184620089 18.1813169605085
219.691782881753 34.9012264576058 -6.70250903925276
-192.555235663644 -30.1031383099746 15.1894490979318
211.03999702704 7.03184922133948 13.0004859244995
-37.9365680282651 2.75402185705448 -19.4500741077019
-250.949115969595 11.4516729754155 -14.4637999793951
-90.9517901916993 -14.9322418415851 9.30839364346548
138.973734640855 10.4425316169139 1.55641908755018
-136.134515515984 -15.0606184416908 15.7270907190768
205.513993191383 -36.4852106993369 -2.32179485390628
-185.912367029137 -20.2772503329672 24.9554691505759
-82.7160671423946 -19.8316874986603 -17.2082525313249
92.8639627947015 -2.92277375113877 -26.0167166552655
204.378768275791 21.8688803828716 -22.7369082905148
-115.083226207746 -5.16758088617839 12.5135286383818
183.500756431292 30.5211529575818 -6.42964213518125
72.4432393997836 11.0304573728177 -7.26357717644847
-118.058129691696 -21.3995438072008 8.06921490790025
217.397663188029 -25.9077594279412 -22.6983172562005
-140.414883772974 -14.930441202405 -12.5571552360181
210.443241704666 -38.4480921676972 6.47179415199067
-119.27715545701 -8.81550977834909 -17.055365000526
198.207499206374 47.6042788795508 11.8592223686522
-239.749181206272 45.105029950019 13.1893664535413
-72.020654371157 5.96821088409372 -8.09105491338499
224.636567330926 28.7110760382597 -13.9678140636765
134.217762014962 -20.7625876843123 -2.08829058325125
193.704000829419 -11.8369242285236 -30.2771143022614
-223.310264435587 39.3755841990719 -24.5084059478493
86.1120907487736 -18.4136737600694 -16.0542385380898
122.976844546325 -4.41100836814515 -25.9907514073767
230.485354674222 20.9013822779721 -10.7478106917479
195.010501164978 -36.3492930375661 -0.741144233896551
-257.399927186684 16.3793586836879 -4.03129605876469
44.5145131621338 5.65102536273029 -3.43199044717262
-252.106879770719 49.7399423648159 2.39787951327078
-46.3326266210109 -4.89343859913134 6.19164585043443
208.057430965004 -25.2949266706205 -25.3251738410149
235.36114618229 25.2140807766185 14.7663300470392
-243.837887783365 21.6833492066188 13.3276594664945
216.801209332842 11.2747666759066 14.8382022295932
201.859552306969 -32.1507108771833 -12.1597660659686
-180.065198795226 12.2988254501495 0.145583735733625
-234.66412920379 56.2639111241329 -7.4518907439729
-24.7270525152584 6.28926494467932 -13.0666217556534
31.3133513127852 6.90578152867042 -5.57391546829658
-4.27254933709146 -15.9301989473974 -1.11226125947486
228.485662068861 9.67028836850149 -3.04572678745935
-232.205004968177 -5.6237381327475 -8.14056708569443
-80.3686363342623 -0.812173863220896 7.14518730201628
-192.079208957196 -16.3178242523126 -7.07122689223411
-171.671339275688 10.012902400495 -0.42871184465094
-152.06613751215 -18.512425145973 15.941675426512
-196.264540707035 -32.6563867218801 13.0476017471015
-190.687870678502 6.52920732498026 -11.5719523819838
223.081123552585 -2.43853293873942 0.919718954578437
11.9792266589182 6.67965241637098 -20.4527534775612
-254.890933924836 13.9338553990672 -0.498236696830034
-168.870463415179 -20.1575070113698 -6.83957724478572
-239.764016227115 -20.0932477506614 0.964425463761635
187.827980942819 -15.3730432192151 27.619127901989
-250.776904974067 27.6341432489817 -27.50212041691
-112.261817220415 -4.20883204757269 -16.4269028490663
-249.692503108171 53.5715733037204 -4.00308489578698
-157.365449107651 2.23322930124644 17.9354707667283
-130.412891141128 -8.5787618747641 15.8322952049509
-86.7219776250199 -11.756883352114 9.94086489372851
205.559976203499 16.0339698888185 38.918723916809
205.913278494286 47.131934489309 6.29212512971385
25.4039009455089 1.89458849453789 -25.2267842168888
154.660554995326 -2.16440500506098 5.65119803288138
-199.119630077887 4.12787953165085 -11.9627619224075
-191.146308775872 20.4273116901848 3.10242200479845
76.9046897585507 -19.1724944012669 -2.95369697629948
-216.551795599776 -3.02762789207912 16.5217914460931
-255.490046659347 44.5236723186736 4.44386195218334
224.423912088978 1.95971970622446 -2.46648051885267
-69.6310335124735 -2.16922997017702 -20.1957965129181
-209.442805400601 -10.5049604049329 -14.1222603318075
170.498999449787 27.5486880495512 -0.674405362729048
-93.2901726271351 4.86562269549617 1.13313378522741
190.548645995423 -1.97542110482374 13.6241350771914
-59.9805099827049 -21.4003102561903 -3.42519909416251
40.1581413343019 10.2607804519134 -17.2147312151374
206.808041102285 36.6223925859141 41.2624039092387
204.450462862893 30.2306344972454 -17.2787208745747
210.912479548094 13.5320432414871 22.2335387021686
198.93213240116 -10.3376606986547 30.4486528820547
-232.381834868702 -6.91166957552917 4.29071865375309
198.082764699955 -17.4378281873468 34.3121914624293
101.579432954789 15.8473795064132 -8.80477885272022
-76.7994661522092 4.7201616588676 -0.648373333104874
-68.1216193262186 3.24054872440941 -14.8613561995729
-185.75950614777 -25.3867296831277 18.4466980277498
-126.656484443174 -21.8199795721362 8.23748801583414
191.527467993619 16.1019674131862 19.8574002061092
196.907141940679 -20.8751204023965 34.6476945951815
-205.762907023949 -37.3530035507779 17.8687090139467
-217.828680637467 7.27901760886816 -15.9753653950127
-198.188301437608 -9.15690633599935 28.7941977394422
-225.906995347616 -7.78364568868343 -13.7945581014808
186.972485413971 -29.2514050849889 -8.35999092392018
-125.600258193743 6.70736107971125 -3.24030776139764
156.81678283317 -8.6454834481349 7.79552049367335
-225.755182726449 4.48940528689422 10.3709655771891
-97.261903020858 2.03624275401832 -13.066890069511
-93.77760897253 -5.74310711681735 10.0778528706764
-164.713936308663 1.29990134387976 20.0613904894529
-25.4438512321277 3.27169293121747 -20.2417337459994
-139.274717848499 -21.4867519949156 10.2655435858547
227.013509602254 -27.0696667011293 21.0113274408043
-238.362099799748 -30.3820552399303 2.76772919481534
-160.890026453254 -23.0170645366498 11.6610195600933
-223.107753520086 -19.5180152776054 27.8552865317917
-197.755096516225 -30.7952276210963 18.1728860993716
-187.526017771869 2.91129438762054 -11.8425474942255
168.4215314779 5.44006128112579 6.51424592779637
-56.188487977935 -16.0275359856617 2.37978710373295
194.829806926866 45.589776521601 16.5438702949184
209.296680631116 -24.025307600506 -27.7713228867213
211.733207811611 13.2022996520751 20.3706896390959
144.226990433378 20.8693884414888 -3.98316071076564
80.9317394464837 -5.20201279111365 -26.3710301743738
220.586084829963 -1.44945667000177 3.65685912232588
-4.22172376137552 -3.92245114115584 5.23486081114828
231.651923880958 25.9294119817939 26.8371993910321
-230.752758287527 41.8660690055907 -27.6296102226873
23.9640344733746 -9.68520373756901 -25.7094299854774
-38.7307321532147 -11.584354063225 -24.2681643705919
139.130499330236 -20.9052801735566 1.99891237910152
-257.938314514516 16.7980274336993 -5.97873660031483
-198.543548948597 -31.9449688146116 -2.0544947021193
201.328924893856 -23.0527826226989 35.9734847240962
-80.972968345011 -18.012429253613 -18.8737611904741
-48.8284347183565 1.4412475952328 -19.4736457505578
167.965561548538 -14.6711861108354 11.4955492647868
32.9268303425897 -19.7812308030264 -7.92176164481298
-221.089826075074 -37.6084953819481 0.79625065613276
-240.08491953123 14.2747870890718 5.29395425664674
-29.217271983821 -1.91053307934194 5.14067907996653
-41.9360970451025 -6.70869701697115 -24.8124890724323
-37.7374815642093 -4.35991889627193 -24.7895074858931
175.869131991193 -18.0369865620169 -23.483130508183
-183.550450579343 -13.1990709077825 25.9319682553477
-192.704455634425 -26.9252907789086 20.395398056921
111.678338957432 10.0002306318621 -21.5304236771056
-200.272471052839 3.1605493529549 21.0515237833731
234.976730063911 27.4518244085941 17.9032354946049
200.576556299729 -4.00380063345323 -27.5785159045706
207.72809240617 18.688054860487 -26.6693157324613
-139.559858486933 -23.2196381660431 5.15226476081294
144.697884608699 -11.9657985526716 -24.2192553867196
-227.930248848322 -12.2121105609974 -12.92057871507
211.014876184085 8.7982244699079 13.6282360547618
149.646345086587 -14.4826747975334 -22.6160694300364
-229.27720755123 11.0248418971078 -21.5295705982982
-150.621407886553 -23.0316572046968 -4.02592587435002
115.045802755428 0.872493057582268 -25.2573154783877
-159.657117558899 6.26381203616724 17.9334419735022
212.712594528969 -26.3624188598415 35.0091802668407
196.398407933081 -39.4784727065918 5.14809273040046
132.740138635145 2.76457143415049 2.45565906608458
-258.510778989141 24.9002690815991 -18.4975682699821
-106.058274791803 -21.4375114725683 6.12339378733342
1.89270973252358 -8.57060037601831 2.98114533324033
-246.68873719094 10.023167856968 -2.58388604296531
188.646460139139 -2.11905164364203 -25.8873565999791
-174.200348474728 28.5318820937143 10.45607986757
201.79735085838 -17.2434730975202 -32.0758097370586
68.9214811376009 -14.9474895115022 1.49978317675519
-221.317214035636 10.474225859745 -18.2241200738014
-239.987229966307 18.1888869965129 9.42029182317564
-209.229753321252 -12.523587821217 30.2732959542791
221.150859963109 5.92905816278705 -16.4340535871558
75.1519000574614 2.33718831291631 0.235880948642505
-161.692960219295 6.75939251751559 -4.84629058118202
218.014427293906 -34.696207301562 29.4405158769536
92.8705465408194 -6.83916471395794 4.31840853312253
-211.880329822201 -2.06354505288793 27.3781488798521
226.495471630821 11.5125848965912 -12.9103889887732
-223.961584860908 25.4965779985549 9.76762289928726
-165.704321904608 -12.6439057305404 -8.99311563077841
153.489172376834 -20.0961746891863 -13.1977964520792
-82.9642567572117 -1.2450560759434 7.78674232643322
42.24485877363 0.307726657865374 -25.7532535281422
182.402970891359 -8.19955468934592 12.4912281848015
221.237092251472 -23.2522230126807 30.2262434815503
61.5092300060749 8.92193028693912 -22.5129362678816
186.537661563165 -16.4578152405141 -29.7404590602664
-67.0265990247527 -16.769378945709 3.65169921875273
149.175173514869 2.26528781958404 4.14385541860449
103.666832382178 -8.1404164306399 -25.5433226666914
234.76627229672 21.3343996261709 12.9170045524094
-85.3242899597563 1.17458291058097 5.35002349842985
140.635651354597 19.4263966662324 -13.1211041629153
-186.32129163817 -23.8250768633835 21.1241933006388
149.640509032983 6.72996407227153 -22.7560160736556
225.515932656095 12.5399315481928 24.7972109419734
-162.340281299565 5.20738455779505 -7.05021011102248
-243.460884071916 14.7469705967626 -24.3798907984491
-246.581170874072 30.3648421848557 -29.8690874008469
114.399370345611 -19.6040030363303 0.539188412010488
180.185735735271 32.8472291191235 5.85308202008555
-207.341365996852 -41.9021101550282 9.93643017982081
-213.975019992384 -1.03744809012608 24.4629946772555
193.164981725561 -6.83844927787418 -28.6415796345899
105.914010357981 17.22965670714 -14.369513808796
-239.34262765591 23.9715705166621 16.1557489198475
177.025596942448 15.2504172785719 -20.3602357926734
185.573760612411 20.0807835053795 16.3519473943027
106.335371024499 -16.8459610761799 -19.0215376496213
-138.687170491199 -5.68356412681122 -13.8512997393283
214.100302143296 -33.3197281072811 32.1852285259817
-76.0428795619571 -21.2232661934426 -16.1209453247943
-144.268831326016 -21.1084467242212 11.7670606515161
-237.71405317452 -14.1045576897494 9.33866005465569
196.626627714721 -35.7547062373918 26.608805480746
-126.125679274131 -23.294956522452 1.43568691305168
-243.614102033919 -20.0756142194426 5.0042559432373
232.513863614431 36.0910772002887 6.12020305365475
75.4016303867269 11.1317435745601 -21.3146067452025
-232.408236724015 -10.9938961333745 15.0736049230834
229.787318820547 11.1881201441208 5.54087843838109
204.804556998369 -8.08251612518425 -29.0301137950256
-56.1806290829311 1.02305164552391 -18.859376372807
-240.919315005075 21.4957296046329 13.8661840099444
-226.394905818518 10.9680174803827 10.8691955513482
-235.087148656186 33.6394941635247 17.4008300521632
-39.7698445139295 -20.7940017074802 -4.83705335781575
171.300366255469 -21.4496762184707 -15.0778183926771
71.0902208145668 -12.0349562042038 -24.5307125592275
157.103027399685 20.4726803230115 2.65762905931661
-151.29989127335 9.43152655797637 11.2351466378523
-222.23416159826 -9.93014600246956 11.5164546566749
164.308881917288 5.30997899664431 -23.0556234731064
-48.584396536845 -5.15788734616157 6.94893074673514
51.6031500002383 -11.5572915880191 -25.002002309946
94.550661705918 -16.9568991694814 -19.2376096577945
226.491839718933 24.9997415901479 34.4326505854567
216.914923802154 38.6414826774201 -0.0101298802263258
-219.445551344294 42.6253233660732 3.39763180671763
187.51183041786 -28.9933270071975 23.2168461474127
108.253012448054 -8.82251270312008 5.1365293455778
213.235384180108 -2.54786610948911 8.52907724041486
173.163699455692 1.45183283077652 -21.8248446124951
-107.363854295505 -8.25478613053675 12.7451073486575
-251.724982065262 11.2814176039377 -1.96918201681017
178.652802805512 -10.0676572174337 -26.661367677638
-195.150856030891 -33.0067264806968 2.53883823134055
219.754072720853 32.4698865768376 39.9196893418422
-228.776320658929 -23.3204893979277 -8.71903332355495
-114.964024534085 -17.4145402929518 11.7849613274403
201.462825437491 47.5634111448441 16.5342105854838
120.809914946906 14.721621583443 -2.98582525377852
192.505205696419 -16.2516042703393 31.3659899019347
-13.1864264841143 6.3415734004877 -7.48859855611529
182.182283245895 31.9996569318792 -2.07465926258324
233.727210112252 20.7788750595997 -0.568275496966818
199.224764766646 47.5665629048575 15.8558824547379
125.585037715445 10.0752156017276 -21.3446438181958
212.645457477435 27.3915292664147 42.3666634515806
-241.826480969461 -12.0863004830631 24.4373083872595
-179.974045851412 -13.0874229633378 -7.28901523801281
230.675436989455 12.9859514371328 10.9050987878763
-194.261771617599 -30.6236706905347 -1.21977286925426
-207.90769546626 1.62054482471219 23.0002207275966
-243.454711105975 -12.4964166805691 22.6087546883112
175.531525662748 19.1823611921779 -17.3349750278083
-177.586328169469 -22.9578044924805 17.9514385862807
48.1314108272792 10.8699554535057 -14.7047635787494
-230.692574727167 46.6410626811502 -24.3690509846155
149.082215958558 -4.30810471443795 -25.3396969711085
-141.241520705117 -11.1358472955816 17.9265831133265
227.958600276506 -28.6754296529522 4.80960229347399
52.6684485769722 -16.7330383542084 -20.9543440106637
-142.842010838312 -22.0602672871946 -6.3358435423371
215.310732569203 22.2897168961765 41.2027760114402
-233.513480415787 17.122698148801 12.1769216940823
161.392917076374 8.14305434621378 4.9980298689689
-221.67961665109 5.14958603941709 -16.4112114297821
-99.3883115264411 -22.0343730117901 -12.4174311353376
-10.2017794693236 -7.39585042203595 4.58031188242976
118.510374692755 -11.5820676788745 6.15549543935093
-237.615851989013 4.31877999581087 -0.534905309836247
213.338698357948 -14.2044806672498 32.1712691651326
-192.529081127753 21.3695382469862 4.08269411746121
203.106588650029 -15.0866228288114 -31.3469028495129
-31.9625337288006 -0.708062276569244 4.27643575545384
28.0990286676579 -20.136859883914 -9.54957718142726
70.6373118924513 8.78699885261057 -4.66051354816206
146.870161547227 -3.30488391659573 -25.3241321859352
-148.356607571018 -23.8737905902815 3.8939857133484
-220.116645665993 15.4697542609566 11.5619048663237
176.693947656517 13.56086651322 -20.8871590597535
183.826981199795 -30.3847237971613 -1.16783700301264
-114.721438218776 5.65490798022408 -6.05677977711305
188.165065461259 36.5851584948981 19.2376834426766
1.38617342054167 -14.8109151949085 -23.5159548504909
12.3335126099297 -14.7225893034796 -23.4592164823275
-119.347187003653 4.79171062759304 6.33453701046664
-173.536573318495 13.9044284400574 22.8058512917164
124.706635270401 -3.07406393607191 3.49638522572733
178.454322211312 15.3973002614343 12.7620520836974
224.242651773564 -13.1640522403141 18.9904891618091
-217.211327856909 -5.99457824237342 15.8020354121361
-226.130636663283 -10.756207913605 18.91094334772
94.5184347945428 -15.0411590378744 -21.9445311423999
143.01631682767 -20.3234996879423 -10.1172998087501
184.417849791027 32.8265043727653 -2.95891081326982
170.457000418076 26.2736929031495 -4.98768225005853
179.682474457849 -0.362706119467155 9.18938085206146
220.64697763681 2.54837833832834 -14.8377018109213
88.7214242040006 -18.8507692000607 -14.3937538958377
218.688970321978 25.3179326303616 -20.2138305587425
192.068942215461 -31.1113009645766 -9.34475876953359
220.76952049559 12.6160022989961 31.9867538080127
-218.508974559785 -6.65012646283347 -14.3573850086602
-188.067319938694 -14.970757117393 -7.01122724869484
-233.409911146478 51.308171361643 7.12410776239825
199.090355109395 -30.9930978503124 -14.0154313939695
-226.011316971746 -7.87316316653723 26.2951462559664
-186.213652644668 25.8551261317623 11.2867629062518
-227.60166955959 51.5039474231793 2.74596383442673
-209.453642301459 -3.44751856242316 28.7420800477005
-192.268120023484 5.0214765734974 -11.9224581109061
-234.971746234374 -29.9406965328824 -2.42225840319684
118.282630800318 -10.6968482725788 -24.6715227336468
-195.592210554308 -12.9926035016042 -8.67462213340491
110.800037599331 -13.5908175862138 -23.0257256831221
47.8463336947314 5.34188174987589 -2.95764535511008
189.157142418917 14.9068129014887 15.8082395477617
-111.877534512674 6.46560560183193 -3.61992793147005
-258.5492829769 18.2143884316966 -3.08441847258769
224.208464400263 -20.7218197988116 26.3120864256888
184.245211905066 36.2460746053309 10.7728526404259
213.241952399294 -32.3504382444003 -9.256227326606
-210.372347342278 -35.7977933047218 -3.45119477266935
-159.643345931999 -2.724811531744 19.4778535365306
34.9668556532221 -4.85143059549656 4.67562114182294
-153.963810122681 10.7699787111331 11.5753326863132
-254.104105392575 28.1001935436005 11.4429804059421
-209.292734763017 6.39539298462856 -13.7208371519239
204.838109514602 47.4152828160829 7.88081185768899
221.898128446866 39.8069603233516 24.083318595347
217.612170087907 11.0568555878723 26.8631808905173
-252.312092129466 31.7977205476085 -26.6972316832016
-241.557370038969 -25.1524730578733 -0.398160211585008
105.645071457208 -10.1085988067943 -25.0071958235887
-227.898467755898 -7.07997316930182 20.7561038805306
227.946599532181 10.1181673750445 9.24454414246569
-242.320281701946 -15.7461785169749 22.1741864715831
-60.5805312072816 5.83233654606407 -6.1043464745893
-66.2060049492253 -18.6368233719303 -19.6554829314499
-39.1234578695484 -22.8508314153961 -10.0677374096045
203.796585509703 -9.70236788883904 30.8435397000812
