208.862979413418 -20.119229009027 30.1473068653435
53.7666307532913 1.25562402308979 3.6680168352072
-19.5714236346441 -10.1947402475688 1.28413647649331
27.063316948903 8.4825310007279 -23.1030102755013
-204.504335407013 -19.9096768761873 17.233978690917
211.583491391486 -24.2258787890092 31.965813132265
-145.516724218812 6.74454781094783 0.11440424747231
17.388507012952 -15.5123467177933 -16.5792703168084
218.393288497153 -41.9021165414059 16.3508473975505
12.7121860115005 -7.61325225740769 0.253641833154077
-15.2314691145813 5.55525270247879 -2.13077680124697
123.421219972134 15.6218121078464 -20.8939750787172
110.366076791566 -15.7938117150123 -16.8761549333897
50.2194128466745 -5.28775471898045 2.56920049875068
-129.163009159512 -19.7455877370977 15.5843109514014
74.0101665740082 -8.87531849807359 -0.693261252090109
-189.352656939589 22.8783663803688 -2.2074196378492
-160.098865789773 -28.8017992843856 -1.48288319435106
81.7867697836244 6.44602343232057 -27.0431462169239
189.113125330001 17.7622854773254 20.196982679177
-232.424980165534 33.5985388592178 -20.4198019787388
22.3861651013292 -5.90457584376811 2.72044333227656
176.969536455102 -20.0893843030825 10.9468034919155
209.079408349082 -41.0980802217394 15.6135504637585
-131.122402028254 5.65994291800907 -3.76078345111677
211.098464637595 -4.76280363259455 -25.1521266632033
-90.7084457501628 -16.5978822988254 -12.6130565748113
-175.119382245271 0.949237212145714 21.9918243017612
192.067767484948 2.92019642315715 16.8403352186522
-205.599776231476 49.3403998517229 2.05421058249531
230.905952946912 7.58712142350043 3.60115973471841
177.571031311463 26.0935884432449 -6.32191252217757
204.25284494754 31.4761166360568 42.9754716919582
-11.3299842930248 -9.55751271535083 0.53900134131141
-36.0549850716795 3.12434739057792 1.02323778055882
205.969416145841 -16.1890151419598 -33.4575954993363
223.672413113925 -24.7815319988845 -17.3671883011051
-67.4002253992996 -21.9422168090911 -0.0484769973337585
-75.4939551417789 -18.3588732625461 -12.170835499153
214.047068396819 4.93004258593872 36.7376086078099
206.740817976523 -1.84650381959988 -24.1652105045519
232.564761733474 30.4862882647408 30.4420961195738
-55.7784637923647 -18.0760756481745 -13.0004761365216
-173.436108089952 -35.0721727798955 0.00396054623432531
-84.0422994398001 -19.1873070482088 6.69155634225346
-122.733584168105 4.61015615396238 7.0007146856796
159.151217298623 7.26544624322862 -25.6456814552366
-157.835874280556 5.79034854752728 -8.20454126891847
95.352977726612 -15.3998635137996 -10.4061468522954
-184.157030455679 -23.3445453853122 -7.46293851050005
136.945386860629 -7.47500888236817 5.15228104318461
45.8887911842711 -14.7120454599234 -14.8459291445295
-120.458892500977 -9.6658555105561 -11.3904423956918
181.321643500169 -27.4485383735888 -4.61515551341628
-197.208671072013 -38.8422446541921 18.1926666992904
-240.609542064284 28.3677702673012 -1.95353814174549
-48.1285724526878 5.0828931421801 -2.16616519080292
-117.946243053217 -9.30932647336441 14.2632846843981
213.891760548354 7.15554647351497 -15.4612272693332
-170.037233095172 -22.1022473388229 23.209300827751
-129.819611037863 -24.2565918793578 11.3124676077992
-99.648731958792 -11.8741678660093 11.2380478865854
196.576168563451 7.05355452028483 -19.2678738603689
226.60026114068 16.9787536251455 -10.4044999235671
196.570431384019 1.58888946912671 -22.1360782541846
211.209778914518 -9.06905022237315 -28.5024156357506
203.759174026384 -28.4213529163481 33.0932880578069
201.643306448837 -36.886737353169 -4.08084903904391
206.469301483245 -0.323694254837118 -22.7963720330061
197.000192567499 8.79698945751642 -18.626619643494
186.84831088934 -24.2004195301903 -15.5906710944431
170.773032310356 17.882961943052 -17.8661980545759
191.957736555742 -1.29175124482569 15.4449425520711
-228.856177621627 32.6914845230396 16.6325701564186
185.60796932776 3.39422393021506 13.7080304181683
-202.249644056513 10.4926969582113 13.7513535841656
-223.015129702031 8.2833635340771 11.34304980058
-169.693354352347 -8.57929837889328 27.3552831534647
194.929992025354 -5.55972220948417 -27.6948757048823
-75.6041284162973 -17.6022475916584 6.14349358651983
217.141665533524 6.25723240883801 33.1746164115535
181.880055857745 23.0636019738061 -12.2505388684314
123.586346509894 19.0685413199124 -16.850858267319
-115.407583679177 5.20423593575701 -6.12667898758411
8.52026472572454 -5.93241544449927 2.89498378070256
27.0390029914188 -14.7730842316151 -18.2026543897702
-194.703248120841 26.0910827196542 -12.5235848774068
168.655311118416 2.17553281988445 7.05306040180053
22.6182978956344 -15.4773205654974 -14.6497860441628
195.716534534648 38.6322015375922 17.8690754774193
225.757240909538 34.1039629414639 23.1326125545276
190.858639323831 1.60366377717717 14.3702392278169
150.149084449065 15.5193395547903 5.16125715978013
-221.136879147283 16.5514401861042 -26.017750618587
-136.823874909676 -11.0324259272759 18.6830160433706
30.4811189032977 11.9480179184977 -16.5418986228225
224.589426823331 32.7407737199221 9.02847112460407
-160.002076822053 -25.4792039993741 -4.72270779554418
-178.846324866645 8.49279610982262 15.0219129426395
-134.115230732698 -10.6994321592678 -9.48234076950908
-217.227925132243 12.2389307464511 16.643655008453
164.969633108795 -2.66127418076512 6.53386870867669
47.1040624382081 -12.9831927632778 -21.0337936623265
-61.571421953156 -9.63716364051627 -20.2343276724654
80.6916745166428 -14.3176486392469 -9.60438125736696
157.755325375031 22.8295722557279 2.3847820887342
213.618996676767 -43.3275631140517 21.7393484746851
201.622931216887 -10.3987834544505 -31.7086600844198
-203.873794387431 -8.82687362378502 -17.1181563145896
-164.417122236291 -23.0787580248314 20.9235216244751
-174.195190378677 -37.0512347703675 7.55904643260855
-134.517211346678 5.81067185695749 -2.45479682542583
-197.895509210756 -8.1967773012992 15.4291791248306
-196.391141034068 15.1898282000621 -15.2888557611257
142.931224941087 -18.6846388853093 -12.2958646210467
-3.15602094302776 -7.4549072483154 2.05570403167672
-204.532391303913 -19.6184427961674 29.4062042577761
26.5664691032785 -14.6114640782291 -10.8946259113894
191.869811165365 -31.2112887687582 -8.18892007344437
113.167722974616 6.39955061443074 -27.3893232683858
184.617042416118 9.17663048410584 16.9206648541425
178.410272859989 6.40978909350314 -21.5904551086859
215.294495577107 -34.3126568870389 -4.77703751319982
224.726369399777 -30.6877516724158 -5.3021561491699
129.553037758936 13.8344790688503 0.535349636746723
-166.349864272261 -4.41854701444324 27.4062562220659
-131.084384145485 -12.5703148278178 17.4211642083222
220.222466392157 -37.2208289113615 3.86071946937382
175.901445020225 1.78286219324159 8.41483274942367
200.691697428628 -39.3507961289953 24.408602938036
102.549032147399 11.0758293655711 -2.19839297978298
195.584183305123 -39.8375539849735 16.3704578842821
-187.605139804625 -40.2707862470379 13.5421658244779
-224.027285179446 6.82248462285923 5.39752879776486
222.619773168092 35.8535445997453 18.4400584140123
194.909773648372 22.6745311833424 -15.3304252112785
-151.166902399381 7.12317141292726 -5.0525537419002
210.065819621442 37.3580963142756 5.74984168671526
75.255542780668 6.42349727081062 -26.9543805035957
197.959012858237 -16.552949061884 -31.3082455550057
-196.005280367565 26.7157458515796 -17.208523501126
181.860988528159 -12.6561496677811 -27.1251136013266
-199.332566418147 -15.1140192781598 20.6662143534049
-112.313086349204 -25.5936137317904 2.10636350598804
-135.558590186471 5.93406281835146 1.93260698112925
-205.861535804655 -12.4038289236376 -17.322638137919
210.188539179141 -0.202605409177179 16.9526274761233
109.622855112238 10.471024107584 -0.728835366993336
192.222228864105 26.2152496418964 24.0893808978607
-214.794841618762 -0.787855636466614 -2.31637291412339
-218.419843769344 48.760281928531 4.03490069384963
-219.312433131071 21.3833707968986 -27.7560505703663
207.056440356784 -39.2792168948792 -1.23376651343204
216.069094357095 29.8855063059863 45.1791484576972
69.0988828187591 -9.90618435892294 -2.5196320424638
185.713140289915 -15.8183969814163 13.1633062411248
-212.210189818794 7.329669137028 11.9898916275322
69.4779554767776 -5.50422795402066 3.44579456802779
44.3287585596527 -11.3424700252418 -5.77590560762539
149.400227002601 -12.4044235631652 5.72786201147725
150.878045008491 22.2326048591943 -0.220196291457808
196.338800605241 37.6024441004598 9.43893190988863
-195.298264417061 -8.43987075090112 -17.2346718206624
-210.664519898746 -25.1739581213852 -11.6438068386841
196.564715634171 14.9972297538356 34.2513764323386
226.770410592358 -23.1717180692047 -13.2206763175697
-28.738962147238 8.70417110215718 -10.9038532071706
229.552358335856 12.8660053446262 -4.83237068977754
-102.960413886921 -25.0960340957646 0.931704147864788
-218.526672287751 -27.2525260182061 1.59767580529289
-152.499239139028 7.33703619236943 2.60465846961921
-174.659291931473 -5.90908267336826 -9.992733036548
-203.562400323204 14.9591861387345 14.2547522737275
159.998047897005 19.6103015721362 -16.7251041130452
22.5088399706761 6.558302492564 -2.90173075640619
-0.202028161696972 -14.8971577850305 -19.0012306717306
49.6369919923335 2.83260940762093 -27.7248508953903
-22.2115619277699 -15.9641625135712 -17.3698256106498
-207.011976459542 29.6351474274866 19.9580555449578
-135.188865550779 -0.128770864188426 -10.4237179420218
-161.429534133515 -1.01013970080445 28.2674005135892
-215.012178198012 -6.57171792578644 -5.00938989549753
-201.882068903124 33.7849743529688 15.684326756712
159.655649599711 11.3399484591211 6.33517348883976
128.671739275583 2.90691742220547 3.15934638726826
-132.90342125734 -25.6731204899662 10.0857206831851
148.712412171675 17.8438303327991 3.33049585434755
231.487982282827 28.9341857841585 3.84117281456004
-33.6172804128495 6.53022656945342 -18.0064868785785
-225.299330744196 6.62829714889012 7.46033536834907
194.223624595737 33.790132792012 1.73014533660899
-163.640299548962 13.5251670772944 19.6036095598673
182.451326296127 -22.7104267889655 13.5613096142311
51.9858151925725 -14.0358505688568 -18.3670902246844
-10.5925042253686 9.75985203683022 -12.701908104637
-190.531196597836 23.6343761051522 -4.88461897492486
-210.007453178211 51.2448059874961 -2.16961530607459
23.052680456985 1.47708471901179 3.63601181202596
232.35424537817 6.89732107250382 15.7454349747709
213.901144210741 -19.2682683664206 28.5100989637524
61.0745870879056 1.64068946248668 -28.4999773898428
-227.198747199789 7.74188611517749 -17.1314865289045
133.340540299618 -2.00855056708316 -28.4492369672545
-193.500668022806 1.82503760380468 14.9261081072102
-71.4254916670883 -3.38583069358849 7.66783799564716
-221.184628479076 -18.7754053270328 14.8918171467507
122.704226979274 0.685235751159082 3.14606430326525
-237.029095519715 13.5082963643697 -4.66860700488359
-35.6030589121533 -18.7792382180318 -10.9081351626761
182.424435820549 -22.1239185124126 -16.127492029064
69.4071263191 -10.5901892168965 -24.3466296554871
-235.807050170813 23.2934463765041 -18.1303941044266
212.122760743076 16.8674720019897 46.5383162204828
-77.6786713924517 -23.2384295778209 -0.882311961464325
198.384987801 40.2720693996655 16.2241535058701
-196.59046172405 -40.1316539606722 -3.17444465989646
158.223698180361 7.57973114735846 5.97247354037838
-86.5098010717192 -11.5433144262647 9.67259264704899
25.0178484754989 -8.83173019368756 -1.9848840840794
-218.934317396095 5.93022216257162 5.0802381665641
-6.93145164278307 9.78441490591451 -15.6460521577427
149.480244068456 -5.85510489950082 5.48794219167506
-171.745145704398 -35.4228730810732 7.92761332993941
-4.32069766403949 -2.06816158842601 -25.7280319692822
-173.077454223151 9.35395762113647 15.7787180507298
-221.911489192619 48.25982982445 -9.93767754302309
16.4454728021877 9.10828302982016 -21.5682145879585
80.4545957723246 -10.44333238165 -24.8069753382599
214.841792896758 36.2778189394525 34.1182171279358
189.107662510365 -24.3716264262398 -17.2715730353948
208.517405909962 23.6772278643998 -16.4427466621868
-238.205615780034 24.2122928206837 6.51461569733503
-46.5485459083251 -13.0179904784225 4.18281421769798
219.276588051439 38.7832756682067 22.2768252629105
143.26607090862 22.0601146448272 -11.9435161774403
-213.882449187823 -11.9789003349604 1.5083027837672
-208.784032365684 37.5929743905623 18.3126575467239
-213.991664430766 -8.50358505101311 -9.16022550802048
187.135155271467 24.8754552718896 -10.8729347901697
198.632500355875 29.1145459326566 33.227245597896
114.333131114758 -16.5946619831662 -8.39127500764844
84.824259979381 0.287184961649811 3.38572666374581
-172.409714229981 -22.2182391444431 23.9420088863512
228.006757882077 4.00891916474846 16.0314328806506
-207.146190397677 -0.747214662475021 12.1286039383873
227.676108783934 -14.8756317195512 -9.56381336301707
-136.982324557676 4.64391487769732 7.89553081750993
-213.521994863526 -17.7598308726671 27.6617751570131
-61.5988593961785 -6.61541715778391 7.68318237659902
-226.412584009833 9.30802628642377 11.1979662892283
176.990459061027 21.0870119811883 12.2563731050146
107.321914392675 0.909606766573006 -28.7152968615048
158.993260059937 24.5937630576141 -4.15170712505773
44.7385044247712 1.33957258479581 3.61065344680963
-225.222667809995 43.4541448359426 -19.071081034166
37.1510813743002 12.4215282596222 -15.884666816243
-168.376991238977 8.28460747928155 20.7324901167038
-193.856936746222 -36.3468028696875 -4.02715582239507
190.258059897077 -22.0535191265835 -21.9856732597193
-203.381975998993 -1.0106630443094 13.4461069779724
130.246527533346 -17.3522534314893 -3.81347498928395
-233.670796649932 38.1505262613172 9.39336952808239
206.532328950395 -41.9031678674999 24.9304603070382
182.613373736384 25.0179527286901 14.2395638777754
192.697068383412 -40.67821078161 9.13509690158004
135.728227750107 11.4213791008696 -24.1234532011323
185.445322851904 -18.976470138046 14.3955382893425
-175.80748154654 -2.75370366069957 23.8711798868454
-239.785265578592 29.4752924242557 -9.40463439249249
-137.82789902256 -4.98540107355548 -9.97461436826629
-186.625387339004 8.22223230938496 13.9480540064328
107.767600232205 -16.39081130071 -12.8004858175346
101.727955671389 5.23780084491695 1.7248184206256
25.564336663559 -4.70125067172933 -26.8732374404046
69.8357751555167 -8.86895287155097 -1.09864847723461
-188.284237560513 -6.22635282349164 19.9028824748629
201.579536876279 13.9358277431893 41.2972768700478
19.1220929269787 -5.82436777889796 2.81109044664183
236.021138530374 11.2885810843245 14.2081029803976
-51.5249375755438 -9.99057499807826 7.05881704634651
-168.7149101228 4.90751102408574 24.2481230282249
160.854689520726 -16.943004333236 -19.3539452405364
-211.956850567198 5.96316770113037 -19.5153259115101
224.967075815634 -5.82103858507203 1.29344466883428
-134.736931171711 -6.90865772380435 18.1403337279093
134.078706253302 9.23639086481076 3.26874663604349
191.340932783891 -2.20006661472608 13.6313105877123
1.80834573844897 2.28514648861919 2.54560202513769
-160.515722732076 1.66957167563742 29.0581278375934
-80.25657197927 5.87236975400242 -5.14074030593291
141.338013453711 20.5948058268295 -15.137901439362
-72.7863776777894 3.47101840439493 1.12078544882969
-180.117672356762 16.9212465733347 7.13056831407136
-174.588446239927 -32.674432796753 17.5856368043784
125.835987388366 20.8094106275197 -13.1743381284637
-200.535274705553 34.7713552797431 -22.0196736791068
-172.869534126713 -7.83974516665537 -9.26918651604157
-158.460266393098 3.01540893378881 -9.45207987797462
-201.69602209021 12.2724520058303 13.7408025696674
-34.9036979065056 -11.0243044966228 -21.6649120776088
226.55533219342 27.436924984093 43.4269450183195
-170.102229044397 11.4202686722545 -3.76875063337087
-191.745776949686 -5.43571075968496 -14.5091697465993
94.135344903298 11.8159132774876 -23.8929844864674
142.315858154022 6.87961247618048 -26.4791009351103
189.335868416195 -25.6197561976407 19.5531878732235
-189.175168149406 4.92571584306079 -12.1165758868945
-223.335457821614 15.9564752820358 17.8788893885663
-139.028665463082 -25.5230937155291 11.827399606335
-183.252982898721 19.4642149736366 4.08360205562791
127.224470909666 -11.8024490766682 4.45973502883329
-173.842674724577 -36.3950741329958 9.97793201716797
190.069741270804 -27.5038864751419 24.2453600115863
-116.764010582885 -7.5230942735334 -12.3087613342034
-142.981841079664 -23.0299631628224 -5.03090545226839
236.862197418632 14.8918515561935 24.0618066871309
-25.0607172610688 -12.6087217165676 0.180221516754968
185.595344068768 -3.28021567848215 -25.5887951280739
-233.374939213664 36.6385453513606 -17.8648574170914
-223.912635991168 34.7426808357619 18.5264559939706
35.0931367815308 -14.6166583377232 -11.973023676617
-113.771376567338 3.74180373513604 6.25877695152955
-200.843455483326 -16.0164995098548 -18.9365213702384
-219.205510948646 -22.0516562798724 10.4876640542624
-186.217736744394 -20.4858873157703 -8.39552256283491
-42.7774394020485 6.98382219767424 -15.9412749401049
-180.955769070367 16.5974379215691 -3.77607721606256
224.980798869871 -25.5440339832923 -14.6210523355717
-164.096149449441 -16.7137318914269 -6.47719782792699
100.858268405896 11.4639535436099 -24.1047146256659
-221.889849049358 39.6600990371251 16.8963246900142
-178.253373326241 -38.8454487971201 12.7991900517284
-212.171659490889 -16.4694508969822 23.7667004954422
-93.8554538452508 -23.1100089737269 -6.46545073956997
-170.841225224493 13.1458605524332 9.64826680556731
221.73303327724 -5.33178555658993 -14.1920896317441
-224.28946939939 4.89794872958969 0.808878520052796
217.932356957817 0.720061878716062 14.0723460445765
-132.67489815116 5.61106112414667 -1.42518243804052
175.884649079794 -23.7552329842151 -9.26471842953186
201.384363787373 -37.1282378457082 30.4994011996388
-99.4312063743584 3.82671007199107 -10.8454151510435
-206.182561854124 15.100521803699 15.7417755602786
-40.420370353585 7.23185605217643 -15.8844941090773
-116.072156762581 5.32515976246786 -4.06866965408715
-145.52681076263 5.9337421712036 7.14378305151612
227.503905977409 -26.1011562780806 15.8918000403823
-106.842484307578 -24.9924488303678 -2.46663931463483
73.2586545179167 5.02504580828405 -27.564361338636
-186.942504315416 -41.6893202803124 10.0227794005536
187.021842814429 -7.96948261876601 12.8464257068819
-38.8325607175757 2.20384219652196 -20.872074804864
201.757324841123 -43.1709691844522 8.89016478503015
42.6928420366747 4.91354841324587 -26.4645381288609
-205.602337847916 46.3269606424903 -15.7871605051677
136.26147506626 -17.9979724016716 -13.4438840107045
177.117201396302 15.6694231192316 -19.0887189564729
203.671797046379 -1.04117272619689 -24.3245303666129
-168.92491601759 9.94218676853528 17.47151011613
133.897332388084 -18.3569974692306 -6.55906535201918
-220.570145551557 -23.9285808221063 9.5261976890855
-6.80583647235908 -14.0584452448052 -20.1064308761803
99.9650194100211 15.2032058159725 -21.0417827532891
-176.252265068006 -27.3749516127065 -7.19441539373019
-111.725299213886 -9.95491938383119 -12.8296678852582
-99.507447319053 -3.48284987415589 10.9730601550905
176.757977028335 28.2392763013159 2.8376359143409
199.323563059667 16.7373706963791 -18.6910893224038
44.5891216484927 -13.4637563646242 -20.3617026084457
-136.239611869793 5.75013925700151 -0.0770463390052655
-224.155840480918 9.8415374370583 -21.0680628799384
-95.1761859701053 -12.6885258281408 -14.4519183604643
-140.578848250266 -21.7385529548962 -5.67862123013734
-145.962396324545 6.26606318733756 4.9218929551697
172.321380092536 13.0595641982337 -21.0514113861945
-208.235098644254 -31.1389021698752 -7.92922881286898
-220.411133019963 47.8452305265059 -6.95830084226641
233.132540930889 16.2149287407033 35.1451168048342
-218.948905311873 2.93827338260159 -16.70238434669
214.762520988684 -39.487751255906 3.71727100713231
170.407123371326 -13.7668058660965 8.40692593790792
-122.816924026187 5.07049838086597 -7.73784103020824
106.449536994617 -8.25545739070021 -26.4786131175731
216.341470735295 31.935711895017 -0.16289565151763
207.932829117837 -11.4324432041135 21.2400879595106
-98.2336343150125 0.815210291421692 -13.3653561790179
-212.794742611062 21.5053170681724 -27.9156859869151
-203.244930585626 40.9165247885648 14.1715406643144
230.154688971127 15.2122523594936 -5.68746631266288
-187.742151931194 3.60279140353531 15.5121171948874
194.463838873438 35.3147869915236 5.10532857873508
209.890221029038 5.87904216974884 35.6115636135385
-143.822508980273 5.8400027322611 5.6952445563013
-108.519186804402 3.50594239923198 5.29724700157086
201.965574612691 -8.2433463310168 -30.0990985469971
-92.1111822475667 -10.625093574871 10.4619508939612
-19.4656538080616 7.62494826227844 -6.09035374826832
58.9768337907009 9.34912951776154 -5.02230480818186
-61.0033952375771 2.12445707549526 -17.8285027438083
-186.13210149492 11.473535662261 12.7468215883796
176.632105604684 -22.0754480411854 10.7053260224695
-115.168697989863 -9.35305993401073 13.7901084150926
192.634714518551 -10.9996575725583 -30.8648023230982
166.250745467135 -15.7310909146058 -21.7837292487172
174.070863915754 27.411295804269 1.19114730921786
-192.478793086487 13.5883461540025 12.1363687195777
-152.191024914183 6.58775855349021 29.09152958222
-199.901217773975 1.44033014593137 -15.191927458739
-52.1569010722303 -5.05498803807258 -21.6376984664947
143.845699530057 -8.00310688004679 5.46783625425552
-219.636607952638 14.3510282761763 -25.3664613314017
-52.9201760525 2.86434575261127 1.81298731530098
202.443807201257 -6.58046701607822 20.3608638890185
-174.722017988863 -36.2068783600452 12.2867170428312
15.5660424520191 -10.6202841685322 -23.8473354145719
-156.146469693786 -12.8260899330958 23.2209716105906
228.052289594733 -20.7720355449414 9.48276225268241
184.507266383786 31.1301582581914 11.0429036091882
-202.472816978754 -34.6489733985399 -4.13448809149291
-224.610811953705 5.12890686214388 -15.6791658189672
-83.8943712267046 -8.34216904822565 -17.3862528062007
148.004486498114 5.08835588687319 4.67749627680443
213.366557417608 23.5856369172509 -16.2563931266031
23.7169125918599 -13.8344670305507 -8.77151746250845
212.242590932617 31.8656219338795 -3.35522028208494
-215.461279241546 -17.6745552904162 16.9928859375547
-200.151620013386 -14.7619868323069 23.2882345568481
-202.163866292425 28.5013818390793 -24.6688002096403
-194.525760261821 20.680913415264 10.0295428746457
-150.998279062692 -2.13520953841353 25.8906509647598
-196.283940119976 -33.6307328848161 23.5400078255376
-177.904959805119 -24.7916016889686 -6.38414105062017
190.796045333439 23.3782163055332 22.2536994824225
-214.250063122539 -16.0519244119538 -9.45668114087726
-33.0250386585782 8.52295924681085 -12.8037136163445
205.767932854221 -9.47594001427665 20.3624005009457
128.416905681223 -17.8585560295283 -11.3283023154445
-214.341243943029 -29.6222262505777 -7.71090036850347
-186.169278662705 5.27411059862574 15.0982749207357
50.7657600029165 -1.52157240222019 4.08210163215701
-141.941953296264 -27.5377410547661 3.37958311918073
-55.9501742137608 7.18715546062074 -9.12407308848801
31.0944299148005 -14.6189668484838 -11.5487090079957
-67.3488424466432 -7.86698864098867 -19.8477990854142
-164.550301116712 11.3851130757116 7.04795578130601
187.970507302216 -31.8003558758578 14.4627776312155
112.321881012323 -12.3418622543217 -23.1117319229582
-176.193011180978 -38.669961144346 3.36405607261039
-28.1696695372004 -18.1737735833266 -12.1977393047712
124.266785902915 -17.464418849303 -7.72816990566827
-52.1712373262574 6.74607397983073 -6.02151696314484
-37.1152883128326 8.14934019521051 -9.85179261943602
-219.806694530168 42.5405118390392 -22.4184914854616
225.17725599874 -32.182965791447 21.6583583458827
-24.7544617113351 -16.0099779267124 -17.2130055503898
165.814465833401 -24.0836193753265 2.13217899825689
-168.025169612276 -1.89339758928784 27.0407089800385
-185.380914163288 15.7613827227249 10.5057774672356
-157.197473903712 7.9040637822452 1.09562081004088
-147.418768136948 -6.74213522714194 22.5097862734501
200.404480425254 -28.8340409851128 -17.5200528798896
18.6877160232276 6.9834257151222 -3.50732198298277
213.194256155012 -2.81395462462574 12.912624572522
-160.19273664961 5.57208877186314 -8.65229375379079
180.878191280084 6.61456650248935 -20.0915815941781
-160.30852620694 10.3973394441705 9.45146615127966
224.080106321382 11.3067525990507 -10.4982877226077
-167.7766988783 -32.5828778020153 1.31052038389543
-240.279945628319 24.2338656899705 0.00371588337469148
233.362191532919 29.1005983884283 5.81431363375394
-190.128586000766 13.563618540962 11.8947352606329
229.34473271661 -19.8631647599807 1.08163452737435
12.7376650161772 -6.91271318020049 -25.7666943643375
-212.129091216986 3.8091202591809 -18.6858285641962
115.597380416671 4.85976977355409 2.3207963104817
-216.329966764002 -19.9980990467745 -6.37396935564902
229.032005903735 -20.5612453278025 -4.12604297261039
-122.170352332995 5.17476487302932 2.97971454968564
-100.814392870936 -23.2902908695964 -6.22886927262763
227.432601812404 11.3375208377766 -6.63256457828646
-208.461138109895 -2.57693641668063 10.8894939210548
227.142874348457 -23.2225693991988 15.3808280371998
4.28096568901528 -13.8577934273397 -6.65307190311508
-203.124588216711 23.9031899850396 14.5784163815631
79.104438346746 16.1205843564428 -17.0969073215867
189.188471179604 -37.4409618976696 9.17075245524768
-157.35301544549 -17.0780954453586 -6.45609966624676
-127.863642748209 -23.3363857561054 11.8369099226777
-89.8100330799797 -6.82832649500818 10.1476254511111
-95.082678144402 -6.71995885383717 10.687775788882
-182.941270028945 -42.0874104983863 -0.108824697092942
-154.188130804253 -16.6181347585357 -6.49308703555034
-217.444086197712 -0.570034304515602 -13.2997736305167
-194.580471568393 37.4837035789118 -8.10492297456356
121.455503115015 17.14276573229 -19.34855286572
142.134188593117 -8.61395573092787 -26.6983357789596
171.485024104243 16.0339875098958 9.45313643158967
82.8289606443782 6.25119955013932 -0.198229506731553
-216.337516933702 1.30123044870231 -16.5116252230083
-103.349743677639 -12.0788879053563 -13.5201182311948
58.4876654860245 -10.9843806549819 -4.7422352574791
77.1189053624445 3.32643876398549 2.31792126488864
161.930748013339 14.6410064393781 -21.0549893779153
198.446703834149 34.0221510079794 -0.551222684283581
-158.299732824664 -23.0402327807033 20.7528043437617
-135.520267660526 -8.87782715321125 18.3298517397125
-222.863004117094 -18.4876170632767 20.1635423980508
-165.196048564907 0.0694882183993941 -9.67296457719138
-233.019231688663 44.493381848701 -0.69400591475899
-166.560653391704 3.56322709398657 26.5012363882419
193.185144089042 -19.0458203364897 -27.6538536003933
191.379565650288 0.0328555991665917 15.1518108935583
185.188365718413 7.4929316826531 16.9624788159496
129.873413869252 21.5679251455099 -7.54551821480543
-211.274865057964 0.408125015331469 9.26200666284135
196.287239843834 23.467626034993 34.2709758396137
188.890360663966 33.3997292883657 7.02086092828423
-37.6580318822219 0.33242666321624 4.5568701991538
-163.904195265719 12.7720957878228 23.8579848879698
-194.886017143964 34.9829671877661 -0.50128718595017
-233.833910099003 12.4708584075791 6.29157714641344
-191.679448542693 21.6059081290939 -8.16859652815492
161.958821124062 1.77929986989305 6.22713642198983
-207.569667552471 -36.653851827537 16.6694104288304
215.031201416771 -13.1660644888857 20.897328580978
-183.684092204754 19.2170437507974 0.149256197574856
226.374820092162 29.5159550319015 1.20857971322201
211.602718676018 -4.76192282120386 14.6573137195174
190.743518878451 -39.1234287821534 8.27143607952573
-220.193958932625 1.48187734271966 -13.8446954465025
-175.464984416962 15.1069688893016 5.14097980805982
62.9905167161888 11.8509555189958 -22.6970383455732
-49.3509682172535 7.49799304646458 -9.27945078292559
-215.727894776059 -19.9775473908928 3.72858593375009
149.595021668091 -8.80563984405834 -26.7012988362708
-213.686423696662 -35.2005508732899 -2.7565224209188
-32.7560157967706 -0.756609906931183 5.18021925476195
230.022747233051 30.2733992117502 35.1386578036843
-5.01030694975917 -12.0543481651597 -3.16907290881287
-140.520265116964 -25.2431665740433 -2.93261935238344
178.605443963309 -14.4923749864502 -25.2294289486982
186.146829450144 -32.1499030171301 0.959330215987748
-114.27348911659 -7.06625046243717 13.4418414445682
-196.42911656722 4.26420816826086 -13.9791721062164
220.274953816829 -12.4065263877405 -23.6600980706443
156.434592991242 -1.12673846950653 5.60966626264114
101.238375762402 2.65099680879679 2.32616008485009
-181.977200937786 14.0199735309878 -7.424302558385
159.256048256689 -13.9527437358781 6.52055510442577
-212.318979435588 26.7485543498368 -28.5090901790211
199.658169796202 12.6631804480902 38.9692642584054
-86.2986290824569 3.14095059150653 2.72390179235101
200.619362191835 25.9330690676565 -14.2114735074941
-167.43863949769 6.45398521252525 24.8557125659508
138.160646179968 16.1334916191846 -20.5012971553844
-235.862410526171 37.0233629533829 -13.8343329166657
177.696180497191 12.5195668954196 -20.522234851384
-182.259000842409 2.04514374656229 17.7709267181951
45.4525128366532 -1.52113835360111 4.07150510838343
-193.226610279736 -33.915108015785 23.2006816448641
59.7419428342831 -3.54615776643409 4.06115215265468
-206.505263990861 13.588125956767 -22.9511364591961
-48.2696552294532 -3.57732141277026 6.60076974384343
99.2539587405695 -6.2860051805235 4.10002986147689
158.914986046792 -22.3922215387037 0.699418769262428
200.819046160676 41.5394831425735 23.5213999881582
195.274158676648 0.501084647514548 18.8425999522998
193.798179397916 -32.7083131840569 -7.80847584082483
-22.904366406786 -10.9765340804464 1.17588439842496
-199.322903922148 -31.4878671449016 -7.23325576400585
165.843445122705 10.5314722059923 7.36782399091604
0.823609379102684 -5.73067932754608 -25.6644658026188
160.030073811607 -16.7827814772306 6.20037631598
175.814694227859 13.8881034536115 -20.1720480921331
226.801424515152 6.49568239760166 34.1414001807826
-115.530516781755 -15.241693760673 -10.4771132265366
162.285615685706 18.0645831243691 -18.2608884048228
-172.74826824372 13.4934200084076 9.81721817374439
192.50396796486 19.2172534509041 -16.7445021682218
-138.144474443415 3.01848561532471 15.9086081871076
228.564170858587 -15.2877079982665 -2.35096771885177
218.500979514293 -37.108567604511 2.8975461194946
-172.688275381317 -35.3003646740565 11.1475079283852
82.7680465294525 -13.9743707418399 -8.17183697843771
-14.2766608052478 -4.40081903365255 -25.091407680093
118.08603475122 -7.98324542234359 4.69221382654779
228.281545892498 28.8906245690579 0.774680600750253
6.08870284155513 -15.8673768032433 -10.6807782400297
-220.84756170321 2.14235333274831 -1.73359626801311
181.832653451633 29.3662297202476 1.5674670358136
-196.300923397305 -14.9092989748894 28.2542910109795
-15.5488181824279 -2.78012912335542 5.46901218234702
-216.767521895818 6.66201058103586 8.12245999581602
-179.908356499343 -20.1090538357799 -6.85950171018066
37.3711869368526 11.3228244651431 -10.0707360129488
165.739395556521 25.6628753055889 -0.257744740788556
-118.214417960444 -5.25640709130358 -12.2219532626214
201.954598830947 -20.8689275902823 -28.8499224392359
-190.128289392263 0.992097814548446 15.8141198502455
213.644258979535 28.0931040887788 -9.35308091806839
-213.679066639372 -0.137445569819415 -16.6294400172072
32.679713429616 -0.800580483734917 4.49951972611534
74.7671042682382 13.0508390309704 -22.1738435003632
-185.326240056999 -37.9344615263806 16.5394422873487
85.6862856144882 16.6254347525998 -12.3856060176882
117.892988518756 -12.7390769323514 -22.9066413462653
-219.863767027096 46.3707311487695 -2.91159944155961
226.263051717987 28.6774703827927 -1.03144480120562
88.1843696363159 2.64942930266605 2.49462721230305
-153.238668107211 -29.2343180829249 6.76596596390155
107.427433755524 2.50033245325283 2.44879984228125
-194.311316661554 -13.7099461399909 28.2243908233377
-205.304092857995 -39.6835423799808 6.83684697635477
-23.3615614401427 8.4204234707511 -16.4793461174691
27.544849188392 11.7892306508635 -16.2577041495226
-143.420044260296 -25.341171150643 14.0517203295477
-221.441545665132 1.81954744042452 -4.16857448174777
66.2423413821415 -14.4172569488839 -12.919621720397
56.76848074961 6.25577320451485 -1.60665515202703
191.075147953037 -37.2637165838511 14.7328820341301
190.710630766553 -32.9489666308236 -3.84188768474893
-61.55865127952 1.31518453688054 4.29136775282752
-211.204672258796 13.9200479342782 17.3459172631072
-180.040719445075 -8.93788190406978 -9.83659264321477
192.791407740241 35.1184809596326 6.75121284365244
142.004887988933 -16.0377340517928 4.20833614544296
216.623757898273 4.67837812195443 37.4888257275456
-128.245956811033 5.42424415776611 -0.563747895339808
53.5799527386653 -0.524425700572715 3.96372324029904
-21.1058883934956 -17.7063198802087 -13.2077233858543
137.682381690551 19.9498328639218 -16.0373567357099
-36.8397172671071 7.58836439546205 -7.38277289847771
215.171179945701 34.598743379993 3.84672673586539
-79.7879688151864 4.51611508609633 -12.6606928070561
-29.0320334122343 -10.7508928283178 -22.204351209031
227.532732417349 -21.4205326302591 12.674622923887
-194.21338200681 -41.7816319170243 12.0781993508845
-17.0937581425727 -10.9484908414629 -22.6611352291837
191.42215985017 35.9430446049071 18.9750414099961
-226.766840161366 18.6897032909393 17.3735253004649
87.636034656466 -10.0720911768793 -25.3211818784363
-46.7236710706782 7.61761689674419 -9.33185363488046
79.6790934363711 16.226428586755 -13.7903124638032
218.075132916764 -23.0821326179193 -23.2127137555403
129.996526519445 -12.2687211101195 4.58572438961558
125.937223132698 19.4948469168966 -4.40832931611201
205.678612944048 -20.1882917974335 -29.789656391377
-171.033636203172 -30.9051520331579 -4.21289409286632
23.6387263172621 -4.13314634517836 4.90985729409002
65.0833732498784 10.0511986400688 -5.46858883015733
-142.400077633248 4.56500465773627 -9.20313985058042
-34.4293878580225 -17.424962234237 -14.465841888405
-183.479898043196 -1.39315091306713 19.0404592825177
-195.702606032843 -23.7332571236085 -10.3241137675327
-210.306901302228 41.3806663412105 -23.2166900349984
-174.580759320557 10.2431313738892 14.6883653089051
25.7915615150969 -10.7265162460029 -4.29884374938266
-138.597177300883 -12.8360335459434 19.1384941629202
193.671659140389 27.1642547278153 -10.5661176162146
-205.139321845408 -30.8122726403514 -7.07508662774777
192.803357351867 19.5160521081977 24.4034307026435
-206.633170231083 34.9654723050869 18.7335973492511
221.748846983321 -11.5227709795593 16.9878222136068
34.2627791081106 12.2379760749783 -14.304867725553
-86.5213455989709 4.58318930593912 -0.883595474382114
204.185920645182 26.5882514094061 -14.1851706225872
28.6828703572809 -10.6610414480432 -4.36310427053148
219.591579596257 10.629181101456 43.7611592501766
-203.345467836997 12.5105278537228 -20.6386364686805
-18.4042175072316 -17.5114297272929 -13.6749782439184
19.0643811171815 11.3847661182485 -15.5816038695299
231.317382148947 6.29905022428754 18.1006504162156
212.165502693059 20.5462457676542 47.472454794684
-175.16216310684 -37.0535556099506 1.41837127010091
223.023056893549 4.59919458560786 -7.36807333859783
-229.282824784924 45.3736293241505 -12.2389109701529
-131.50548173531 -26.8035003767612 3.45937310672069
-228.628701427891 32.9217061627034 -23.8555545377721
91.6543855931124 -7.25794243873162 3.1744406286396
-181.758896505493 -4.75835375419204 23.1793237820237
-164.722772326172 12.1021173114666 17.2170638025804
61.5038507272338 -14.4315773879002 -13.74716935358
-213.373412740159 -10.4070242875388 2.87710012398373
-84.8688759706619 -6.36444518276798 9.55069287519965
-176.536518491494 -36.2793947271624 15.2767939737229
181.724267081023 -30.4370872805325 3.04833594829344
49.3476500473813 -6.35342259842781 1.1881322802293
136.824002837762 -17.4987062865272 -0.638072929450743
158.759412684959 21.1285718262167 5.52293532832971
224.583878800611 32.5306371383804 10.70122099613
19.0959458114295 -14.8494909786682 -18.6483107338146
-70.4147824280205 -17.8466110411852 -12.9537619701786
-16.9358675926439 -14.1654915936767 -19.8354137579445
-189.488808430736 -24.4598425898363 -8.50773169924524
194.222092522321 37.0884950520935 10.6133153786662
-148.164081032784 6.63236894209664 14.2988895337674
-64.0080492352106 5.14093707605831 -2.22208240342136
-195.295017933053 -6.04063089066557 15.2115885772511
-185.471033428198 18.7666024287085 -5.01171628215572
209.563047890674 -20.8321148200326 -28.4066184662621
182.232061040454 -6.80708054905582 10.3819419654454
199.985728475397 40.9034356777475 19.3941822701427
16.7151999132211 -8.4052626036762 -25.2374738958616
84.9733991907825 14.623486311731 -8.72598199903173
171.464828902666 -25.5040857529784 2.64914332630285
72.4366165348058 -7.51730747745374 1.04708726179374
-189.551612290031 -8.974663142868 -14.337926858776
226.50339403277 20.2365524213884 43.6008533806012
-200.762130040223 16.3364138809188 13.3955363781228
-123.385270021828 5.44521060107193 -2.35637720180057
-70.1576268892139 6.13841414635513 -5.58171756175375
203.028923105646 38.652782078349 31.6239753587019
9.34047198857936 -14.3895773341978 -19.8335421185696
-42.1124976717699 2.93688456073829 1.35332909368893
22.4280398900364 11.0447060057172 -18.4714441341381
225.072203564799 25.2266806769562 44.8907759717758
-196.786900096919 36.7444345586845 5.64269337793226
-228.950958810173 15.45516015566 14.5369232516848
-211.964944740798 -26.7433565321661 27.3465809924505
33.0288528286496 6.47817958491483 -25.0850985910303
194.89081007061 7.73464467266567 20.9125312524423
-171.527369829776 -33.8835371236007 0.438822565643039
-237.653152654621 34.763481913795 -12.176936406341
206.578394132201 16.0086765496282 -19.7883451802088
209.359418320331 33.5336052561465 -2.23604245000957
45.3317614050584 -13.5756280287934 -9.5456220424627
-168.904482119622 11.6682419819762 -1.62124935784515
-213.344006132118 -12.438599257612 3.66125551178184
143.326567234691 -18.4011096324561 1.98161552059265
207.766926186744 17.4969997418837 -19.9609228261145
194.100028082081 -39.1788430389299 18.9299365357808
124.684312436898 -12.1106465743164 3.532342404291
200.990252046641 39.0843568118047 30.0771465058805
229.119697945277 -29.9503236700486 6.66654697287545
-197.401817527643 44.0026277830317 -4.9001510745101
178.845504265114 -12.4978545466443 -26.5966022643784
178.67364034304 1.89615348836238 9.37705386349515
195.372047155874 17.0264185151435 -18.1591873930892
158.175254282681 -9.4644885269823 -26.5586975666305
94.0216522122284 14.205460618107 -6.49181539380141
-212.584593299202 -18.0193673921161 18.4585934293293
22.5271856402827 -12.216386476412 -5.87788081620497
221.431668166907 29.3833150222235 -3.32037406234969
27.7037657812167 11.793760532426 -13.662382460109
201.944594908417 7.96411380015481 30.1172653848978
208.623087059404 7.26184254979865 -17.9279756963499
-174.133473838154 4.28102221265866 -10.328663246684
215.102044950933 31.3967058649462 -1.38192228076183
-44.5931617483638 -5.32456724543014 6.77817725848435
50.9166856158773 -7.34841251675057 -0.109209672721344
126.728380431392 -0.0438074778230431 -28.4870601536747
-220.336543725953 18.589496699732 19.8425554443775
-178.305512531867 -5.84499314447574 23.2589759459147
-198.255126652503 -5.1749784718342 -16.0723431946649
60.8977858469287 10.9723086716349 -7.09384817436592
128.422175046376 13.7429211335315 -22.5375592971766
-162.004086494564 10.2285236185922 6.60824048729341
-226.628823994956 13.4718819293141 -22.2962183340539
-60.4173750655637 2.77767062930129 2.12073559461529
-55.6829760911354 3.69473736819161 -17.4890152909613
-62.2226784896993 4.65792998949912 -15.6025386759625
70.5019118654369 4.72550873777255 -27.6475069914767
-200.358403181326 45.8313679925825 -9.8059012113021
-222.871760815881 30.9239503502667 19.9569507915048
-125.731566830147 -23.4181165819465 -5.1527962807709
-9.40595521006304 6.97895848000953 -20.9810440646225
-140.074504405142 6.08819568373051 -5.09584988526512
82.4679770956873 -8.44675312283166 -26.5154508634128
-231.826610038747 7.02566309546381 -2.26123213900926
-214.649877099925 51.6830908414651 -3.67387618971831
189.962084504964 32.0625923333332 19.5458806091669
124.952239439721 -13.53253924964 1.67312575774872
-15.7288932410666 -16.8367917769625 -15.6173019617178
-126.896256296687 5.5142960299638 -6.47900609093003
194.393989422852 -0.92022897424174 18.2397446302168
-192.555140172919 15.7388279335173 -12.3607099295905
192.952283934678 12.6848472028748 -18.8159150476031
203.159765144043 41.3036816672947 13.6319131613417
-97.235875138595 5.41351288769229 -4.02760253704727
-16.1157808278531 -17.7371071255832 -11.4619629032095
89.1656839282181 -3.12355943919161 -28.5453636062683
65.1311983895022 14.8433048476046 -15.6935130027565
-159.109731395692 -6.45888219346537 26.2969636217324
-143.488469703445 -7.85833377801279 -9.00320640075242
-206.455869102692 -37.4542375003209 -3.28639617326515
-208.014568541334 18.3835896973503 18.8488983858093
220.60469231302 -6.10744262273493 11.3827279360182
-218.819591172548 18.7836752848566 -27.2253757805888
155.98475007788 14.2393478365546 -21.6711369113562
-211.715337132444 -8.08490811098643 5.65667600971864
-28.851894573686 6.72433940044171 -4.63437719987345
-173.493448251633 -4.32204405261617 26.8245499309238
-228.683437283358 5.46188516156385 -11.1852769237895
171.195707173382 -18.3328385352013 -18.8254573550289
-82.6368787828979 -9.60850991425753 9.49629212222099
-13.6031588141403 3.38432438255105 1.15570648558311
207.228433227251 28.2693547036334 46.2904488427403
144.805113744254 -16.6056041573393 -18.3651674325531
-166.781353988991 8.3148084456372 24.6084949330496
-227.207323525573 17.7418067028617 -23.9630949385547
-205.820540319377 38.0516634969661 -23.8508289468412
-239.795297660783 32.4044253870312 -0.255745971184835
-144.821696830886 -16.1424304048576 -6.91245538801467
205.731400444232 -29.5807777117527 -16.1569329627342
201.281938304454 38.8760307012335 8.77714219589431
-15.2994482374424 -15.5606398628607 -18.0525894883853
161.290747360071 -22.8525234912813 -1.41367357078073
173.308775786436 -17.9546523664801 9.21145838419686
190.240913786003 22.8674231882542 -14.0950036593945
32.7883924942042 -5.21417413634509 -26.9915664524857
-194.639747730925 -42.6512850552508 8.59121787429915
145.47579439178 23.1994609740494 -8.22700676176479
-240.599060886013 24.6167024060792 -4.60521613950023
-121.180212007006 -11.7625162359825 -10.918491400063
-90.2999519980206 -0.345437723699022 8.54170766078805
160.350100136583 23.3424091121266 3.40675420182804
-239.836455610748 24.7972451342258 2.47447595392383
221.809664112252 6.21725538098577 38.5833899501068
-213.32467151647 17.5899606738303 -26.8949823662463
225.861363009068 5.226584859332 31.5588025887241
208.101033555259 42.2806945114916 21.973555960859
65.7303444746154 -11.5754549752475 -23.1095896236393
229.127247016463 4.93223236671148 5.09018104597987
114.600670179044 -8.7274655452589 4.20922210658954
223.552204539734 27.0096022733696 -5.99718817292091
-158.692466773323 8.24592772168351 -0.652159913309936
197.468412151665 17.5291204788399 -18.2596379093838
-180.786385911091 -6.1550621574305 24.531155778421
185.772492939975 1.17229615957302 13.448341100743
-27.9449623849882 5.88022223859665 -2.91934394006469
223.885660893105 15.2723868992682 43.7071008636525
28.7765597525892 -4.20601582627113 4.77549233502293
187.54598523447 0.694661961019977 14.065079653019
-207.801510305856 24.2202490811182 20.4544606133156
-218.253139775201 4.3574975491388 4.30602632315111
-233.250102261786 17.4808560236132 11.4588913659422
146.218421349556 11.0829142931566 -24.0784993246776
187.933785794285 -35.1196222885555 11.036448392081
172.182468907596 23.7756403060497 -10.4280448616613
228.812399467695 21.8452001244442 -8.19764037833435
234.961588088318 29.9088001895284 21.195325623938
136.227541180909 -2.51206582494059 -28.3658769281927
-86.4322339470386 -7.90190910892723 -17.0248819469529
-12.0887217469922 9.44780476310958 -10.8505038265041
-114.643086095107 -4.26558715860988 13.4288887392211
63.5087165119296 -5.2948516231098 -27.841205674426
150.081961215196 3.58403687687087 -27.3475810931762
46.5967459210236 8.10494658449307 -4.18557369032263
192.372487320996 37.756525550457 20.5232257099564
32.5932266805839 3.84949590691269 0.784566065264998
21.7992134934041 7.229933555093 -23.7356000632455
174.25923734904 7.35613081540292 9.15221183036932
-77.7598374123821 -16.139154754071 -14.1835574313413
-200.295005091231 41.2106814234723 -17.3473555190536
198.4348183571 -23.1093204818807 -25.322710058304
143.344651956005 -1.07807058790326 -28.3073712325541
178.432570957059 -15.2907808120274 10.7270694721805
-132.147715100363 -0.933122734152061 -10.5383515268843
-172.730588296966 1.8379729112049 23.2535678784577
-163.587044549173 2.48874986103387 -9.76359162354428
-196.370944828164 -2.77703699346918 -14.7798608911327
214.907723872148 -40.7645494185584 12.1196581309901
-106.931250657021 -9.75676274876409 12.3284239349406
-131.928421229966 2.14354621660404 -10.5104840219658
205.129179336733 -41.6018189329334 16.9728933018374
98.7158886247217 5.39018397672433 1.39626376844818
-239.933337153932 23.4283941896617 -8.94690684626825
179.474509501088 4.56823578346455 -21.900477081313
-36.1912263715651 -3.84522771367053 6.36898130911421
110.562178244909 -11.7598634597342 0.611340855825003
207.63520959338 -18.8410207656064 -31.2483281252014
205.248930206282 29.2493113849242 -10.7808807496862
-22.7835430997058 5.67705829037705 -2.46404058738988
-231.588183112954 40.8792792660272 9.47030290867663
-222.166261958558 -25.479917502291 11.221522600019
56.2643463695843 -11.3014201099002 -5.37580569995415
-145.196000249887 -7.53233745824929 21.4864484202703
139.313293530962 4.27706735320131 3.9435128118601
-142.43328247187 -16.1687664804213 20.6543475723446
-209.567100643147 -23.6381944070597 28.1934925960805
-218.311960713268 -23.3964531119286 6.88540668253681
-134.772774369479 -15.2408256581418 -8.12040605908582
187.316578190237 22.8495292446637 18.3411363962889
-86.2088343147672 -1.92113860435519 9.03869569887893
188.821963680957 -22.7938759790636 17.7862077778293
-8.85391019686532 -15.1118195592239 -18.788553225196
148.648848761683 12.6169960763991 5.02216591929376
-70.131074757956 -22.4877371829996 -0.728027437756603
196.631196820126 12.4708148827618 31.7288793236659
-193.804900755702 25.6424292169899 5.99522558516474
-209.991086331551 -36.7669991377495 14.8066925558324
-101.771541695113 5.404059418715 -6.20789632335261
-174.571031858063 11.4270623505249 -6.17364035703087
193.728021122952 -21.304082047747 27.0460698286081
216.15779964669 -19.1737056290411 27.981579486552
-65.2356167531427 -5.17627239701812 -19.9981512136066
214.790238905283 39.7685558227105 24.2715680761651
-0.00750888751740114 4.03239774677931 0.12485619950786
-138.146065725606 -8.09188567967355 19.2178564044267
-201.974615767037 -14.1126417074649 -19.146125312207
143.409619973122 11.6173286310396 -23.800758104825
-216.116812149749 7.8770935922673 -21.3908592652324
-217.892322774235 30.7877977287646 21.0715596069704
-70.4601413014926 -22.8145811469777 -3.28671730514492
-204.762234921141 -27.7869231430491 -8.62183786338553
102.99984658447 5.2310897280766 -27.9116822197704
226.331287023695 33.3822146284373 27.8127377198838
150.816359094145 3.4444019465735 5.08947612707142
219.208751967233 -40.121099407629 27.1115703387271
-121.936556282282 -20.5133206151695 -7.44148980052438
-199.799798335745 46.5582304525803 -3.83858903047715
-119.979878889171 -23.3869863525437 9.82955675892064
-4.61763102291664 9.81574708669086 -16.322553813339
-96.1409444871355 -1.48257611996352 9.95886271987493
193.049968978626 34.0220812904424 25.6498845055422
-207.362762933991 -38.3511544402936 -1.02885835089539
107.425786570084 -14.3008710444563 -3.81065841188036
238.45821730337 22.35586696741 12.1553199712424
