214.270934405708 14.686329844549 -17.0823547831918
199.987256971909 30.8576981199738 -6.82615442806362
-210.192206904087 -5.21295014363521 -16.3465581985037
-26.014917215783 17.1701550956166 -3.52744391991894
-135.080977108165 -0.77006387123958 13.9855000421081
174.172721701086 12.2263373103059 -20.7751375205235
-203.000315716704 -20.3386902641674 18.4845787162019
176.814600174065 -7.56576524580335 8.67314256373391
-227.950714877664 -40.3421760787021 1.49942964634327
214.988032827274 -26.5181159396966 -13.2340340329449
-148.13285925415 18.3558967818426 20.7221704261036
-212.591048865313 -33.5893491069863 19.7519534213149
-182.346063462152 38.011502938808 11.8382428804503
-85.327955762703 1.77376779310359 -15.4487668160379
7.47472712076813 1.43277800999056 4.73641591983664
-191.632351497848 11.091012618241 17.8961349182198
208.262646562043 31.204073349806 35.9617927217223
140.35640110851 16.5991071304529 5.64229415312219
228.736140808519 -21.9022949515813 9.01318681858119
214.117720583025 33.6422638597182 7.17619336676342
192.078051201004 -43.035749257902 1.56940680739742
-165.160536842847 25.594751149262 -9.70737230749396
-209.954343062962 13.4126382942685 12.1539198434081
-138.949714451723 12.6358729768415 -10.4109802625386
98.9253123819722 12.2568796429048 2.57463186203209
218.812638497767 -36.800012970166 -0.190259588315091
-197.666322229346 -27.5362106184445 -18.1517239166018
183.441251211075 -15.2081068517054 -19.8556496035287
-203.002190444737 33.2625363163785 -2.61710790369794
185.877792780666 18.6671364319478 -21.6612010706432
-1.72676102309624 12.0763563209365 1.75486546907561
-172.664742060036 10.404540381658 -11.7446034123922
-134.459267876022 10.4486147993693 -10.7831292367019
-112.438680594873 22.9222595236753 8.62983613921458
154.36994810066 -15.7840747262379 0.883093038902176
-97.6171446161769 22.5591427124517 -7.21428564141921
-211.796559836077 22.8737125072509 14.1375672312172
-114.844649257756 24.4638059567971 -2.70217100242635
-208.067377051694 23.0283907823516 0.498161223362969
-223.200505890161 -36.6476849267835 14.8688256659575
217.138904686967 -15.4927302653548 12.4656678618043
-122.108839694353 14.3152692212279 -12.2499738312611
84.4216901838564 17.0436437226517 -14.2509481080318
-178.540548514143 -2.98059141701879 14.470597604957
83.3633230872789 -8.95612242158587 -4.10107074441652
-202.542996593252 15.1193967015487 -5.49102073022242
2.74381785187687 14.3982392787959 -1.24426425789818
189.042249487396 14.5513095375371 -21.80381247275
127.534435717272 -12.0712287960286 -3.55127310622015
160.405331251732 11.0699872426921 10.7989686348912
227.595047207675 -16.2460263324766 3.54682472929747
-130.626648492956 -2.20093928858669 -5.02449938429264
213.759919647086 14.4212295979014 28.3905715342009
218.197408737245 -40.0075381612111 6.46976708758968
-93.4688465577218 19.653686621086 9.27047546199538
211.187113848144 -33.672551181502 -8.96893435895978
166.367260844006 20.2827970662234 11.4835481527111
71.2301093989284 6.35857720171802 7.0628360822823
-160.003044254251 17.3807521316998 -9.78398119628386
-36.4743302672356 2.9777350506488 4.94385934728205
145.473460003111 19.5236769187529 -0.8733339110125
-65.659860658742 20.9952776118934 -8.70792986111454
8.88884482983669 15.6129527803995 -4.33728587336595
-40.5836175179283 -0.797975601487457 -19.6962782763882
-161.181060785195 20.643452831274 -10.0204721574496
28.3605358025868 8.95674033716647 3.54362666064851
60.7455486491369 13.6214451301178 -19.1714248443782
193.083140355499 -19.098847393733 16.8808135560282
-61.3569566221881 7.39665585981339 8.43518819969512
-180.799589404306 35.3584863824048 -8.88538469404226
-186.483217681041 36.7927616225635 12.6665048873025
29.9764757283387 16.7825603728439 -8.22899843731802
-211.597849578397 -2.02232008211302 -9.99825260643571
-8.66388543325123 16.2899347699271 -3.65491948256056
196.180660916316 -41.5392244554378 18.3967927312878
213.634263354579 17.7015527000295 -18.7940995910145
-148.683648233578 14.6661167938028 -9.72115322751255
-233.002781476862 -19.4625805635375 -8.42519279636404
-139.252323463012 0.715511174008409 -7.97323865371471
-195.261525308269 -38.9932412521286 6.41552935068644
-196.494551926926 -7.18024081236269 12.2786284096828
-192.919455432631 -35.4755645886555 5.8540671373094
199.3227366592 -45.4465385652895 13.3554209524317
-130.346787791876 -3.90715653589756 -1.22726407362229
-216.382737286843 -3.6925748235865 -3.68004191656329
198.970563955777 25.2135881609269 -25.3023297297026
80.6728302006519 -8.1573933621151 -3.07937203970672
-190.647930230531 -6.57770277139855 -12.1047979153946
149.239710400811 -17.0573682766717 -2.2518879036651
212.10372755357 3.64903306502528 -14.7519746741108
117.319031353969 -1.74653465925428 4.82970359022052
-199.013490149548 9.87050589242638 3.93426258444532
-212.435776546197 -20.7210022711801 20.8249189626464
-169.841480404714 1.390958688248 20.3545533129238
-56.9777924318898 12.9746595113007 -19.3141557876735
207.01009536204 -35.8979259159128 -7.50347658743932
-234.023462130113 -29.3085359559238 -6.65207273028955
192.546426647424 -4.17773531966912 16.7882809712711
9.60996817542108 -6.78332958159965 -6.57695983848837
220.126814672325 11.9825659901404 14.930575526213
221.597207947556 21.3651982801883 -9.11963861568874
-159.764030939571 24.4340754946153 20.4233519719315
-88.5563745099705 20.8914499118122 6.53358723158098
108.496920056222 -1.52902585020276 4.75047528497198
34.2024398579347 3.49652468740961 6.52247134822377
122.833092221512 -4.99918106358985 -20.7944465129795
-208.454314185038 27.5037513036601 13.5472613713349
-164.322088294335 12.1767292587737 -9.21013215568302
175.170330906858 19.6308831047021 15.595062763328
133.311164798577 0.336349225704176 6.33333237385967
-228.181235133084 -19.1537015446108 13.8884130013288
54.8670999519034 -1.43747556591835 3.14183762799897
57.5722425349483 -7.15057001816525 -20.1294872622366
-198.207325524327 14.2223929053932 -12.1688736194993
-57.5962344384108 13.0682778009385 7.39596691140238
-63.0756587567524 -4.60388979112723 -7.81989899685042
-139.871043140795 17.2722519432406 19.4519364592015
133.489371349003 -14.7616447064156 -14.6011458882268
111.965958733481 16.7014715133714 -15.5331772760259
139.784366957772 8.6311796542974 8.83524391937209
156.58120364794 -10.8712885656625 3.88040645323401
222.350842393994 33.4858354444373 10.3131490910492
-189.967978200926 -32.002849355072 -3.62116548897504
-111.806591520644 0.491084740187125 9.50181190373071
210.322847334408 31.1094802400613 -5.24469177176109
-199.784559765984 24.1538863934039 22.0294607379023
208.139123797047 -43.4888271708919 28.5415568604368
193.189972894819 -40.6871170579113 -3.39124592820017
222.695921806795 -16.2141556004985 14.090108782588
-115.017891070333 24.6887110651145 4.03401953419475
53.8660960149893 16.1348691022802 -16.693037480693
-188.976583157883 -16.2141495985063 -8.54940449065919
77.1801897347495 17.2562079145701 -7.89700023649204
40.887395033228 13.2539358357115 -20.0869240456977
181.328363888463 15.733282948183 -21.0626298545156
-129.802692312312 12.3863640677 -11.7157208711486
179.165560387871 28.965551777672 7.66952434825565
-52.5352279771509 -2.85000502801983 -0.737931848522804
140.90740078071 4.98248269566658 -21.8310165657864
159.33756416045 7.82761772481911 -21.1109212588685
116.603388758837 -3.6252252632351 3.70875705817381
193.960057261833 -9.27520196778902 16.5836063417047
-203.582937971632 8.64866726554387 -5.44124626074897
221.283213848745 18.608055332986 19.1469281143322
170.11360653697 -17.2828423090924 6.09785013326047
-167.410829473419 16.6164542925001 -10.126229401994
-163.505983572403 -3.75296746971949 21.9580217344642
216.85871329525 16.7241646664059 -15.324562021894
136.94434519294 -15.3958905734086 -13.9248234570636
74.7219172477387 9.21525468369154 4.03130569245406
-194.150438503338 -3.78689825508342 -13.4927287220861
53.5323313322927 16.8856330736088 -8.87214751855012
-33.1014327236909 13.7274280700122 2.93622663708077
-199.969205744722 15.0000433331363 4.25159514608424
-136.575335529697 18.0783341601957 19.3085315928787
-192.457890760937 33.2240631975887 17.0235335116113
207.093992989392 28.9275662081758 -17.4182340346398
-162.401954280188 31.3971798711724 -4.28548283229501
214.749577443649 11.9223849853504 -15.2342920668798
-202.75565666913 17.1466157814783 3.58706059125306
-102.679501468668 21.3990224722067 -9.14179168818462
-171.208562505423 20.3883175949687 -10.7631771610354
153.899822722085 7.26654984392213 -21.2715986672096
221.985212615527 -21.5906179066666 -15.5262338091738
-183.585118832835 8.37482442604453 20.4383012522439
134.2100955981 9.75246634443254 8.9638932689275
-45.1006825342069 -3.38616581315945 -1.78465444058623
122.240086700394 -9.96057318113391 -2.02571379134957
192.398625746407 22.7061100990694 -23.2727326016081
-133.722713020137 6.80960280483402 15.9693664431711
215.081916861275 -29.1759763224709 31.697276013087
-19.7907988632152 -0.19570416188907 -21.2592200091582
-66.7247898948228 8.14151773159963 8.76866520495162
224.754699903256 -11.6221418317821 -8.25039145751319
181.944597316292 24.4840481141758 -12.011022813036
-94.872488656478 6.80695211473189 -15.9140375704439
9.03936341559603 6.43082511477197 -23.1794225045379
-223.484017570408 -6.18382207050237 -7.14524338482809
-207.44491408464 -2.17821574212346 -14.1089336109889
-185.987826023709 -12.2378627137621 -8.35291209321216
190.453281567723 2.94414539399019 16.928897706639
-126.450586729642 1.50251116058559 12.4585670286812
90.7624842257339 -7.63197330636504 -20.1753662756894
-15.6317049277805 3.22773015560663 5.1755034417633
169.824715810498 -22.6308328793932 -10.2253008450932
161.505026145404 -10.1327019070652 -19.2243630243257
228.583236747721 -32.511567799238 -0.162789367400232
-8.00595804632487 9.3652215013076 -22.6262381120087
-23.619259158195 -5.33050432496354 -6.16199324871224
54.7087370597574 11.6350495280288 0.49720145411074
129.24340648716 18.7597285875015 -3.98540517246656
102.386330900366 -0.817925768529595 -22.4212688031789
120.86503134334 -10.833154224493 -3.37462056322886
190.970754243812 -10.7298121285097 14.0983898593413
164.550324140139 -11.7592040582226 5.23194885887588
173.019651229975 -24.8380258549018 6.5163731132559
116.460936800798 -12.8302373057113 -16.7384938119952
188.849849006808 25.8251294499569 -15.1777561763827
227.38093904723 -36.7490668140629 9.97989358576494
-61.9457101140445 2.38048013499202 5.90428532553888
195.954975409369 30.1946142907855 31.4536375854136
-21.6127010871829 19.0731714267122 -10.8360918556403
-207.914227402265 -48.0060009234254 -3.7869676533645
-84.2951969557441 2.47599719172103 7.40591492887255
-199.529251200494 35.7532662228665 5.94820570902405
129.194220068401 7.47252364927613 8.55223483326632
-166.576473801995 33.3866722658981 9.10442267951097
203.116355769836 1.50637026396692 -19.6147523368755
117.777892738039 11.6714688347802 6.11682432040776
187.496717665745 23.4127017927865 -18.7532095466967
183.094853243285 -9.69974865783291 -20.5597479398787
202.790886085458 27.0495158683803 -21.4578163863301
-6.16207535252359 11.5217574633363 2.73337272571805
221.659253243772 -15.9551325074899 -18.0030205957155
-126.186657146752 10.6252492999971 15.193345295896
218.926478833379 -41.4090684033189 26.3068416942622
181.888156334735 23.988518184019 18.8738293464173
214.159730805356 6.25115207216666 18.3107859986489
137.138801680741 19.1360408758321 -8.98989388269792
-186.571113372446 -18.2750459622492 6.85716320780069
203.431827090384 22.2694497753426 -24.8869695498883
219.8644489739 12.6454658536579 16.5534901687961
96.3392645111295 -12.5537074612782 -10.8194430253154
-207.522895746873 27.3872583927417 -1.4989455894718
-135.634240426265 3.07874417080238 15.8097153711975
-228.24134394104 -32.087949725373 -15.833528805167
224.67013203094 -19.2569348660279 16.2400557967952
-208.672400034214 -47.2531712366932 -8.32462264588771
83.5170491622237 16.8475178391336 -5.77523981676657
213.34376457352 -11.2926407621425 -21.3564839376825
134.270745872786 -2.30279988365812 5.2084567384595
-132.217193374204 -4.75539271315717 3.05915373487536
203.345793067508 -40.1602528270355 -4.03651041834475
-0.341363646476885 16.3468625187086 -18.4996111566727
195.189323014483 -20.030372926792 24.2765325939539
200.681944310246 -41.4411550353085 -2.28668241625363
-130.084598750389 17.1638475927533 -10.8298447896639
79.5446692868086 12.4927113179343 -19.6888793892584
-152.603954621327 -6.214671030401 2.64927505790257
84.121244402975 -11.9828764493953 -13.5221901847086
-49.5105860546962 10.7460136403867 7.78119807291979
-177.607638202763 18.1672098423435 -11.7749317928754
-173.542842763668 37.3535725118031 9.85375785225345
52.4258074560596 -0.451996649738977 -22.3174704801713
38.9839722456257 -8.87240327919015 -9.7034088956366
-59.8941236816157 -3.37090136714182 -1.68188065066528
-161.380289620003 26.0898437123351 19.5082232184491
-43.2996471978676 7.17289957760659 7.19060256179068
-75.6297391654174 5.4231902315407 8.81037372571663
-161.048914832337 15.4203536544795 22.2997486132129
185.480016556153 -9.79168695699827 -20.6933923341406
-181.011707650087 31.2592708559399 19.6001060640038
-198.084635876485 -5.16150584522056 -15.9225743996524
-121.146103423875 6.73471662927809 13.58096609952
166.114625588628 10.1211764648699 11.4320747883661
201.725315338474 20.8632521384737 36.3333924365389
173.169615236703 24.5594256075781 -0.565652728124532
180.832709947587 9.85679772806307 15.1720583265487
159.160280630624 -10.4630008479269 4.5440908894559
-96.2048345774402 -2.07101509342436 -9.81978639624395
209.270605424953 -17.6780694865039 29.0263671411949
214.783655744385 34.6092705079422 30.2810005049962
-193.649597620539 37.7316947338595 -4.56283454290454
-205.810856155648 -2.68902284497355 -15.5405872102737
-148.706249793692 11.7045536194081 -9.33022716391841
-209.153883521348 19.5574875158399 19.2887511854128
86.4622886224194 -4.60973216759547 -21.2952843792522
183.849261859921 27.5005296585459 -5.34830322865846
-165.598552805013 32.4240326819326 10.7533191422193
-115.632999932423 6.74342480585224 13.0651572432261
-203.607618874087 -44.8045690251801 -10.278957739734
-223.29132477447 -44.7062055997788 -3.07407092522893
-19.3701412461461 8.27053216391299 5.83756458129313
188.677114272374 16.7142512197722 29.7966876145411
50.1812179420004 14.1562337804255 -19.1776609428956
-132.670381429792 14.5740061104528 17.249905825516
195.945818312944 14.0964918274989 32.3669142421643
84.1780121917825 14.0128583811014 -1.11604454667095
196.653468960236 36.0334278091919 5.90125491726762
191.667061612516 -7.75563067718098 14.4162061690855
26.1588886874544 7.71076894778851 4.85296491909466
-219.680223909457 -5.89682763467002 2.81978540436793
116.147953613589 17.6635905176639 -13.8538981553678
-191.102185626338 -34.5757938471086 -4.251077165426
194.23159177515 24.4580068108423 -22.2799267369917
-210.182991795232 -42.5395492035683 13.1389466116727
219.936891379333 29.3188053202187 -6.39149580957664
-61.9194015618755 19.3807183103802 -12.7337115134096
-133.349114183047 25.4264569054778 8.91530649513543
175.734345761827 -17.6587240811823 -16.9184003979
-152.432519216572 4.72547796544521 21.6631181862324
223.523043712668 28.354414820905 18.3388940556722
194.526414101386 33.1080654394203 25.41955057197
188.615502348719 -14.3418208575551 11.4598388091681
23.0761507742922 7.99203908463981 4.39785613121805
-190.803142608306 -23.9518307016102 -7.80290612439349
-226.786406677179 -38.0782934150239 10.6980099347497
-75.9435099819454 20.3977990652387 3.6347646369908
-10.6395835724472 6.78029317503411 -22.9607869274956
-224.175532252929 -5.74956987671047 1.79699209802506
66.2589147734892 16.5940436498302 -15.9736622045958
191.030818244025 28.6254440120243 29.5518947568018
-178.508332230232 24.5866755064435 22.5841247594712
223.053607773136 -29.8790658873073 26.1865558684363
184.237039772682 21.3036348744575 22.4278437381091
-58.4311526478673 -0.581923489617816 2.50767701621802
216.549514939763 33.7648318631825 8.6831817294803
-152.224141172496 19.7581572039757 20.9274464517836
186.155381357551 -21.178823349181 11.7596524420606
-169.109351299618 9.40606721085008 -10.4351938768054
-200.951526632191 -26.8629978143706 -20.7446470221308
-178.561832517837 -1.2364783780311 -9.64349435856333
219.912949500866 -34.8614249141735 -2.13638831656851
-195.740295087966 -1.50105582009468 -13.7595770645848
224.130074067868 -12.615429620033 -11.7330218304409
-194.632850932065 -14.3869689722037 -14.9509612263472
78.8064673005392 -11.2927823149571 -10.5885143299772
-187.396708415745 39.8476539640343 6.26310220826628
178.532097414592 -27.3164590638256 7.49537983476722
219.741725402694 -39.6232827558795 8.37185166667525
-135.032935222418 25.4639398832518 -2.77195281095035
209.821767079164 34.633122892599 5.99510455788891
-225.722241755395 -42.1111945523121 -3.74998705093789
98.6686244527171 -7.63732779887313 -1.75965640691694
-171.83694685032 37.9035811525617 -1.37486235530625
177.863986160831 -25.2821060376033 8.35271976974885
-150.134565171143 3.4162992356314 21.1734503648699
180.962640714221 -9.4520694472497 -20.3211635424773
-155.014024725375 26.9842412191755 -6.50784250438228
-207.291858432244 -8.12530681870529 12.6894191321277
-127.519058465559 12.4203887405584 15.6883409168759
214.814924452893 -27.874463772245 -12.2007541613329
-161.645330060559 18.5117536273462 22.3154460731185
228.482686102771 -27.4524308288701 15.9376126726201
-135.797327317348 22.5486581239833 15.4303075699118
24.1313334085311 3.77336126635275 6.41329177046701
-12.4140775010498 -5.98863764378701 -6.60633468733573
194.384129574229 -11.3451310532357 16.7311221698082
70.2100005778907 -1.60264026674918 3.74287743992242
-212.877425335202 23.6405118661658 10.6012589007763
203.368068589184 29.872342501674 -12.3290310881142
-168.345491726993 18.4672486102831 23.2398284359038
196.707502279594 -37.2384077141644 24.7885777521067
12.9375767225285 13.7192863813193 -1.38503683747206
-142.171561320601 -2.40295305115207 -4.91979528477526
151.606783475348 11.5411874165624 -19.8385173008918
-141.238031757597 13.4771412357491 -10.3011595580642
-199.045318220331 19.3210802258131 -12.3359285019337
-87.1001637929914 0.0440094809640589 -13.7841101204089
-39.2376663396533 -3.94148040031094 -2.81361119345576
-167.645814010351 20.5312646364794 -10.4758910135536
141.344228175622 7.53440214744893 -21.3121761134244
182.691138737867 8.0572404759714 15.1968431353137
173.612474735054 23.2964982321707 -7.66903727309497
198.435778155311 -3.90081826240082 17.872504621274
104.137863832073 -9.54669781754868 -3.86949214291127
140.275992984976 -8.55833564615937 2.53387838230989
193.745400669197 1.09740893756306 18.8179189001848
194.212720622667 22.2099179992624 -24.4720532451731
49.4309655965377 15.9677713393584 -17.0960318571593
-206.412650944711 0.622670321953323 -9.1135095467311
217.718193438269 1.85679206708222 8.87539249233287
192.751018033274 -41.8947345648415 14.2440027601524
-187.80245984677 10.7515582260354 -16.2498340295335
-47.0493477326519 20.0526180050624 -8.84831398736249
139.328191986946 2.59564973844476 -21.9924603108218
110.391020033641 -9.16742857630715 -19.5754139449199
47.5678069737079 -0.0772693547559208 4.56913460882854
135.034342130603 18.8798931057742 -2.79501585733383
-201.424266799792 -21.843926399891 17.935091116633
-231.705853737548 -33.1621294752457 7.43293940149839
-217.919476674721 -14.8187711750872 -20.5239846367885
186.390690506874 -36.876344550126 12.0385375550122
22.3473856977769 16.6182449480159 -16.7063154090283
212.959421784503 12.7714935046064 -17.2587689409635
201.85930906131 36.6935395511309 7.15034134951603
-183.513599183129 -0.389289685274507 -10.6619340852972
-200.985198693361 -39.0312975250084 13.079414123362
226.220788233108 -16.8812617575628 -10.3104590899745
192.71637119932 20.7757780392413 -24.1580472505531
127.603321437061 -15.3598191837989 -11.0257674344401
-175.985221330207 38.6666440315969 10.1018847134928
218.772167490391 13.6064196410736 19.9584657389923
-214.560230492525 18.4121318755701 10.1472197362787
-174.998772908486 -12.6659302295529 -1.22744371926256
-214.12078702358 -22.0784383440867 20.9814153888079
160.245383143568 -21.1909729353802 -0.396389476789909
217.432313754364 -8.48673211721474 7.9581751491693
-70.1281117842467 13.2102705255858 9.2897417693661
111.857583565246 -11.7003364291762 -6.15041652679721
204.727614873631 33.1471297246535 29.5117208970113
-6.96686006774806 0.179405976420107 -21.9363411441145
219.937918722762 -28.9874498980423 -9.87032035155097
33.933068597391 -6.85954219976397 -19.5758929292818
194.110990101138 -22.772723257231 -18.4872681645249
181.435977036478 8.09148584104102 -19.9551532894422
-218.982891413113 -21.5927426956926 -22.6244031197744
216.664661477254 5.08976995156535 14.084396369049
-194.906839439002 36.939145692551 -0.276264464683706
-174.802072337148 -8.28568501121245 13.1791880903877
-176.258061423795 41.1664822905845 -1.35665993302218
182.705471297832 -16.5156826748996 9.92699067576577
-40.8911762158488 1.08422100812754 -20.6137467764336
-118.170905405581 -3.41022193570181 0.0659163056722544
204.586070887447 -42.9132238566522 23.4366669231854
-136.807484688313 -4.71290382028771 5.07951240532857
-171.942321232473 -9.33905873108011 13.8288499212005
-71.2321088492654 21.0473112875557 0.687642316000872
-32.320561274126 -2.57163137080735 -19.0947682479755
222.810639103463 -37.0838046949991 6.52736568507894
15.1711624386505 -3.99457532094145 -20.729268439825
-55.6076284363587 -2.91975442442481 -15.7756492745079
166.049058978324 22.433074747594 -3.46608739836701
-94.7387952754367 23.236059010938 -5.37018816219638
207.086627294552 34.1943157779424 27.991499133017
-46.5661521966918 -4.84750782352076 -14.756915444959
-220.744548263228 -22.9625256197034 19.5853655506824
213.29466690465 17.0264634092002 30.4160020321845
-214.05473993529 -7.35405871359833 9.54093101148349
220.034717402362 6.51059864745569 9.37954261156372
94.0608562417115 16.9949593061405 -14.8687726513192
1.20137892557199 -6.2641805725027 -6.17556715764
222.942386308788 -39.2918729890525 13.782145413608
154.582867730105 -18.1183500861958 -12.4462413367333
-26.5421543043166 -6.53755187927834 -11.5713425344962
120.2803812794 11.7877934605969 6.47767095717994
-81.5148503401582 6.10818756296873 9.45147940790314
187.644146412075 -34.3036217476651 13.4841617521543
-202.198751944586 15.8548891083665 10.7173400071259
-205.249509796663 31.9983449886431 -2.54360643627613
-204.182444616654 2.60108219473322 2.76818257979135
220.486293832752 -20.7157360966439 24.1783283907392
-23.1256195983004 -4.24641596833781 -3.04210382834402
-223.109860103725 -15.0642556498968 16.120009434754
-43.2417496267529 12.4416891055727 5.79645503501734
-13.8483184265939 16.7256703010754 -4.25147122071305
222.273993352987 -7.58238625693741 -8.89857372600549
-204.319637263104 3.89306428396609 1.37061995472199
185.529197777584 3.87626157087126 14.6268555539791
190.912928349112 27.2906458793661 -13.145310044309
139.238647897614 -14.6232159935111 -15.2447175365849
158.903165848168 -14.9543249893886 2.62924141486274
-195.475357173551 34.0586539236213 -8.23037804582532
-60.7267157560177 15.4797200618622 -17.3666059038702
-61.5991957180753 11.6169674088846 -19.4926711459533
-206.114680323043 1.66772330107664 -7.78956152313836
229.809081219194 -31.2490923280382 -1.46914795116272
136.540475417363 1.49696604199647 6.87788813037874
-195.379891030448 -37.7272814830449 -10.9174896706835
113.047514630292 -12.562746254478 -16.9382812979923
39.1038282136224 12.5898194920488 -0.844565330903538
-41.2589521891099 9.64534386627568 7.35697675993089
-73.921118687698 14.438057511754 9.08155986411617
-232.343712765772 -14.5341552138547 -1.40695629504955
116.36467364652 10.5110669596879 7.66068827864163
-170.127001943138 2.67342266669054 21.3640146442547
31.9498842955412 -6.34543382357549 -19.9104719301939
201.989433071647 -16.0911517332681 19.7336677315218
-205.035756367956 21.1122709640661 21.0008460149413
-193.847772693884 14.3331810332614 -16.6564038825546
208.165795481758 29.6786158852479 -13.090717323297
-45.197279419549 14.5054983468978 4.19662473166925
175.508828826323 12.6340722037829 14.5002864329312
190.075179572241 -35.3320133231671 -6.36644909849564
130.065694136529 15.7281457049768 -16.331750468017
180.682911737778 26.3156601198261 -4.76350240799026
-95.3525038592966 18.7792112945018 10.1776652291149
206.204575432759 -6.21815205784271 14.062950544323
-197.616196935276 32.9381143037294 15.9818807814027
-147.593703070727 -6.79236727887846 7.43095423301336
223.557138053498 -27.6341063755736 25.1676283752217
-139.471541017004 22.8350537946648 16.823354602023
209.68436272366 -4.97085453737984 -19.2799660352861
-91.2373186197183 20.8844370752708 7.22564031400888
183.812264241932 2.37387952725646 -18.6205024974239
-207.945192056129 -30.7798290811901 -23.1313478055067
2.98476399005894 -7.61710402247622 -11.8752451818557
218.588194373204 2.76674168736749 8.92415665825541
-177.091047842904 1.12885453042406 -10.0192963562208
216.196749396706 2.14462388337111 10.1329316482601
91.9973180679369 -0.316535980102691 5.26761177566949
124.071656907782 14.5144972740374 3.85977901358586
183.55009762242 -14.5166701853756 10.2008416153156
206.134794179275 -19.8004698073724 30.9853920604292
202.694064512534 -42.5935637073197 21.9535194852025
218.681502647175 36.6268272509853 21.8947069897449
105.639614018962 14.7720813745018 -17.8336645893351
169.839725650594 -17.8989926507985 -15.2150390044516
-202.093021771903 -46.0205464552789 -3.63206250722649
126.375604142174 2.11236437152153 6.81898010351732
192.393500535735 -10.2006737200606 15.3113204454146
-164.120907008333 -6.98045261515086 -2.34943077146095
203.377765035779 -42.884982801768 19.2786783802216
-200.521367830864 13.2300720002829 3.26429795086886
69.3718346715608 16.9836522176491 -14.6741088114017
-30.6698158770589 -5.74678929895077 -8.63532398619831
159.40321290418 21.6647209177293 5.06310061020888
187.261749256577 -32.1669306451159 12.9589181571424
195.109307884568 -39.9553375047144 -4.18353562357262
-233.641122145929 -24.3422212121001 -8.42738132181231
123.240369890648 -6.54570473002908 2.08490562510492
-213.567678491798 16.0854704575405 11.2225282124833
-191.420994515003 38.1596096801209 8.19753505811546
15.4019093124672 -6.11686223565895 -4.51018107620482
106.789770328408 -11.8161753160966 -17.4841736681303
-104.193884810468 -2.13971103372377 -7.48226475821984
-192.015982628961 36.3117970552242 13.1817185860349
-72.3880595389132 12.6437098183204 9.81931440010525
-228.920824346374 -13.9866049834436 9.43535417679231
-188.096941703725 21.5057532476136 23.6228742692237
-189.722317089666 -32.8712800320633 -0.3435650372465
183.245865770357 -22.2082736003667 10.3611055088267
219.890053102602 23.9795116128158 -11.7079631780472
-95.0195176586695 -0.824626182415195 -11.8105500777139
-37.7912454254832 8.78579324396046 -21.7757527697636
-156.153628762888 -14.3242726772825 11.2557155112443
-227.838882799801 -40.4140840470773 -0.142484655778324
69.4203524578516 -3.50413016171093 -21.6949836157722
102.906273248227 12.3773601602144 -20.0290214418481
-142.938807913982 -5.994116688847 10.9912494993635
-191.145551596267 14.6019026683521 9.80011112095362
-194.508973154577 17.4750931562958 9.64404202318197
-197.239637330919 14.4235762364175 5.17023014467879
185.050547836436 -5.66050978912328 11.9660374569455
-179.915097087756 7.08378295496791 21.0314363732965
186.871780333056 34.7080335269449 14.0523356676957
-222.971254911315 -11.5272610884778 -15.7805643679633
219.937438688862 -3.18474924956252 6.16509512506225
-160.870590999597 -12.6607312614482 20.0899242964963
-60.4618015235485 11.2330833003823 8.71233234882503
-19.3233795732804 -3.71354959125809 -1.77534661513949
59.1238014697104 7.77348590057978 -22.0887525184198
38.6355607471544 -6.85542634244429 -19.9232474003053
215.348453499004 37.0762719628131 22.9769772633393
207.520297070359 -13.4242285352402 -24.5958648479533
-156.353789065298 12.466054716223 21.4999408443775
-197.709193892179 -7.08817044770864 -16.6457089952895
-211.657437200625 -18.6516458397245 -22.9513964095077
106.732688407739 17.0978545176805 -15.0379168740899
-112.962686970372 3.03245225902119 10.9984523220339
-197.599353310418 -12.2642691857439 13.1493916286545
195.447132941041 -37.9971729322751 -5.81744310407237
-231.302299338025 -22.6078434966079 11.032358432655
-120.096410494298 24.4730868773406 7.01312217795872
-206.600574722461 -10.4019917195455 -19.5386329428524
229.516514708872 -34.8546859381439 9.48366081120708
-82.7092668680884 -3.58642098848091 -9.04032469481022
-200.963184070163 0.562623674503853 -13.4399816024454
191.510565092554 16.729690142631 -23.104657125231
195.867170217769 -32.0313319420118 -11.0866566398141
-197.455675694101 3.42683061162286 9.50388040959185
211.522557029457 -15.436721530276 16.4868724240489
69.5425724011978 -10.4519498121608 -9.62033114160793
-196.4739131033 -9.24428419300872 -16.4997291457267
136.108333060533 -11.7622769922361 -17.5487193309616
-104.066665259783 23.0190210183473 -6.23139285518123
-208.720954116778 -0.126849436079202 -6.2480523665237
50.2935238864872 6.86591387956505 -22.5072324920847
2.92224237834448 16.0141717461389 -18.8330954616461
156.597901962724 -9.12439561451392 -19.3085215362797
27.3536137347222 10.46243119779 1.72244876772128
-164.902587210885 33.2492495586368 6.28927235125578
205.668559266223 33.7636050003844 1.7739023762183
177.172367721216 25.9112960218933 11.2241651551752
177.106862866815 14.1412911976281 15.8310050501805
-67.0428657743369 15.371748981423 7.57177837358972
-120.750254448157 -2.47182125502791 -4.13555490041365
77.2772932544802 9.4558662876633 3.86035156089049
-213.000984414441 19.2513486405541 15.0894386845296
-193.130582799059 36.8499148756723 11.2458629616469
43.4918288738552 -4.46900063671289 -21.3283847942984
1.03566426986287 14.4701167990762 -20.2616668364515
226.818569855282 -26.6199893973957 -9.42509545656479
-205.402959617451 3.69263341570336 -2.98973573023743
206.503900846472 -4.25645057310757 14.6522556902581
218.349087777415 -40.6019014079415 10.8813845774007
-69.5891518621274 -4.38682799446974 -7.41255354632129
-138.415170048259 25.6452387212849 9.86065444921436
211.350314065551 10.8337232749607 -17.4658382746808
49.8942164520254 6.82452815136235 6.1362302387687
-147.614680141013 -8.57556917665861 11.2605090039821
-170.811275334552 18.072365556437 -10.579023357612
147.829881528149 14.3500180339602 -18.0127595321644
204.451885490217 33.2971973648274 26.3690953771299
208.500121124169 -4.20945839840553 12.9929252295858
206.105749840992 -19.3168822565037 -20.1512066870573
152.97724204707 -17.2960374254928 -0.589868837648205
135.473190481478 14.550977900544 7.10850367514116
202.926118101245 27.61248249939 -19.3312238932477
129.563192020886 17.7646285585301 -0.469290454789039
43.1843129727344 17.2197895195949 -10.3303404560552
223.96501589561 31.3514261387384 11.7101229136029
196.672229336655 -41.2078207539546 -3.2592106173429
5.29783323456151 0.266926689631967 -22.2387031021173
-206.837915800824 -21.4919753555258 20.1581571069635
-9.14308963746306 -4.34022051471886 -19.1227396282338
56.5824555707132 -7.99152330360685 -4.92384302279845
-170.111081101257 36.1796695541682 -5.05382670209592
203.550265260349 31.6167341792438 -3.87251512180583
-199.898637856805 20.2175876231116 -12.879344692521
221.938203654998 15.0337162394938 12.9361030981906
42.1926062482514 -6.28745999692106 -20.4832417865805
-166.306096241076 15.5043479739626 23.0865888175813
213.607500471088 -4.87467368488697 -16.7719023245553
-226.073405992725 -33.9768886797988 -17.0610759437744
147.728764971422 18.3783338016159 6.15562488812178
191.429950589784 -40.7932388344977 -2.28252359571375
95.7099458477857 16.3688564484821 -3.48294674596898
117.231305646974 18.9124472853985 -8.47921163455812
195.163340705375 -44.9248536357425 8.55480463295581
189.406892837805 13.8652639186009 29.305750687808
218.450776661824 30.3921600828893 -3.82044128014473
-192.249941048374 -27.9560777876064 2.69045858927463
214.648170903163 32.6830001825564 3.9719850250496
147.546585012874 -14.0445894257565 0.512954287147938
-193.015081949566 37.7884853297399 -1.72529971745717
196.191590275612 -11.5961231417733 17.384182089517
208.944803181796 0.597982411985934 15.1043320758641
162.683082777911 9.52820486392117 10.7609444481885
-192.23850525742 -2.29553900067921 11.4429791506068
-199.027277391123 -27.3174901846448 17.3119119513912
-197.922480924 -19.3245196190122 13.4689695388026
-199.622814214716 -16.7431194017295 15.9250906758991
168.531224239188 0.179257928523447 -21.1288808359361
206.035318251191 -42.5529689195298 29.5677065432104
41.5393851364762 9.50217534473893 2.70569890823315
-230.804102495606 -29.4263969244016 -13.5255185006674
209.926209288081 9.78092707627276 27.1781197332723
-168.544470092397 14.5423762318566 23.3561603369191
-7.04131457516192 -6.96494789965951 -9.92029800186428
-194.632225754297 37.1048699423792 -2.56998934959492
-69.3664273927855 19.9906198444524 -11.6789906571394
186.671929238346 0.0273729461932185 -19.3149795642291
186.664051250579 -17.4954841572906 11.1643759259141
-1.72415183509633 -4.19540036346317 -2.14560635444123
220.342672493155 -3.73155978391651 3.78540441108331
-146.915594399769 -3.54229147888295 -2.96289151983279
-191.50138664588 -36.1319411212702 -0.349599838106392
69.4753068208801 2.08984127825756 -22.6218417278102
217.58886612956 1.64132682442607 -9.242820339813
167.787599429032 -16.4418841761958 -15.9835609950371
-135.601695627043 24.4204378866343 -5.43007698166424
97.9057601303919 13.5763432625196 0.898893927578925
25.8199294588558 13.7559449884502 -2.04988703392647
-231.66077637866 -36.7894669000824 -1.4829679526774
205.262972529797 30.136467620418 -10.5162124902761
-124.078943081504 -3.30813247059724 -1.75657114172164
203.899093940326 37.5666076935744 10.509045629679
-208.009156422501 0.139210947861302 -7.94150313284687
-65.252314035903 20.7885691996557 -1.13084518573086
174.149340371497 14.1939078902907 14.8055558512706
-216.44838032743 -37.8738636231836 16.7770350417626
-195.405570836807 -32.3771637729125 -15.1821328321842
-201.27571625143 3.01610278202698 6.29552627834102
-211.435567148665 -48.3961319655918 -2.2720085678168
-44.9169402868729 15.2233790251947 -18.7449822773905
178.220754979543 21.0813284749478 -16.2058203446677
166.286915530938 14.4734566529107 -19.3369511189039
-192.021790175858 -36.9049761843929 -3.64690695366054
-227.924428922769 -39.2905377731439 7.175272234874
-158.221290434431 15.076618232737 -9.43748350775443
128.981433443653 17.2077119020678 -14.3196928675441
204.703661253154 -39.6412964761959 -4.07486889584733
198.621114035986 -41.7061718071998 -2.10857656720678
200.303872733213 29.8169370447166 34.9352412507212
-193.344698352705 0.359387699051238 -12.9851415923169
226.042037625478 -22.9208455883948 18.0700383113934
187.448934808272 -41.341019432137 4.55760704431552
115.196539468852 13.0281271698113 -19.2094167984405
223.590656637499 -39.9065661192229 18.8665210179609
-215.99341657164 -43.2107929087606 -15.0740232004996
-225.471285884188 -41.2446463483689 8.32614628874627
188.570940748139 -2.11171372159327 14.064850565251
-176.297359170283 11.4176153697325 24.6845406812676
-191.563292616539 7.16358912171164 -13.6273944073111
-172.942892143731 38.3095962427244 4.7163528975942
206.958900410173 -42.9099236016271 7.59061682929071
96.0087784049551 16.2190779659514 -16.3204217048336
-80.7393920831196 22.051693431946 -7.4004440141648
46.3117604934431 7.22284951098755 5.6120599949545
28.2760527504656 4.54514602953842 6.668495062793
-219.201943446033 -4.82993734931837 -2.40442741628953
193.261518985042 -35.1065089254225 -7.68087524620898
-197.07615835535 17.8837203104027 22.2362221748143
-223.124304628116 -32.5733747963974 17.2076920487437
-184.571103954346 7.49633430216948 17.2553509073043
45.145958347754 10.7483208233137 1.29786771988527
25.8813124202878 17.53361080609 -11.7121368383659
198.856428671947 25.7533557499274 -23.3874148321102
86.0815112676847 6.93868636091174 -22.7347853459904
-206.849514090341 -41.6427254816664 13.4977724283557
-201.159854774886 -44.2048661619943 5.61746544709411
144.200577955879 19.6240969682902 -2.89558328864912
-207.365763685332 -45.0028800082556 10.1972006876256
199.937355937587 -31.0392279146346 29.4758463030522
-119.520664483187 -0.558150682516041 9.32483262268999
-188.720860244936 6.87558468715473 11.9397436668135
-198.232975516653 5.64230425163323 7.50417489905201
-201.701383852068 15.283123638129 3.02844663181563
-10.6277900326874 18.7029478557946 -10.769192739191
174.337530926227 -19.6789680398779 -14.8579980879561
207.867198268261 -26.5111817313108 -15.436874813528
-221.116393690581 -4.24338510440001 -0.473511365412908
186.679430197454 -6.75425622063266 12.5220528023731
87.728839427565 -4.93859124119946 -21.1126978773013
224.252724128249 -33.2575629186441 -2.31279949068526
134.771055804651 12.9388566508113 8.83424894578121
189.4479067953 29.6603453659804 26.011731809667
189.256798493318 32.2151064956736 21.1108621215284
187.820085007483 30.9354728395615 1.53969913598748
-233.815664332517 -32.3433258529373 0.618871170389455
136.876327400521 9.04754478938709 8.87181742557897
197.863502854199 -27.7146482022692 -15.4060433463166
222.7909790273 -18.9687548248951 18.5962415484911
177.725440322387 28.0518048199971 6.42738304550146
186.379276064376 -16.2487990434263 -20.0315112945836
25.4932439505964 1.58350021721164 -22.7899108822025
152.944444962018 18.7688183776541 -12.8272269598898
102.181169301116 -10.7260209424721 -5.65987248811299
-15.7954808129064 -6.88406684427568 -10.2039808105691
203.90741347154 37.7967596980793 18.0309937067647
-6.42474532121629 -3.9673001467541 -1.92980768814532
55.8273508484415 14.1386626358606 -2.63386137888412
-198.362607969419 -21.8199870936136 -19.0917747397135
221.007849592634 -37.8682997748893 28.0566448874041
-231.383610365237 -32.466881554861 -11.0463202288781
-116.056273847277 7.73673819561276 -12.8542405115465
207.849453757532 -5.74489918778679 13.1797312985843
-12.0917689015504 -6.99106112251161 -13.8433466887173
-166.533022957624 10.3847590181451 -9.79122992140445
-88.4855800077158 3.43153857709825 8.44189380552913
-196.3300554016 -16.1168769689383 12.2378889783575
194.720349349001 28.7979723812963 -10.8926018321537
-203.088308233012 -28.0595815026667 -22.2261868478186
111.388246674458 15.5444421801332 0.275435738825748
-163.689353717245 -12.4415067376981 17.4086053717634
211.516078777208 -18.3486032071165 25.0897424214669
-34.0435733987492 2.61316938457849 4.55839924608822
-98.573628042166 -3.35051274651464 -2.64863263743122
36.9691837186455 11.6862173254734 0.154368479237315
-190.092682823889 10.8264265717954 19.4207017903238
193.615726638086 -14.5198577535636 16.0886648614953
224.380435364131 26.3208444469805 7.82234966701915
174.511721440204 19.8273894929365 -16.4410461043611
210.199514479535 -42.5585935571211 16.9069053906084
177.124448065609 12.0196170690633 14.7394736262435
-196.507783033771 -20.2257913632565 11.3978184372527
209.740708146144 10.7849941138079 29.1334449993902
48.1498674322497 6.78180673153222 6.14204165463067
-124.16142201152 8.92158741780866 -11.8860364123557
-228.236239172672 -25.9749736142781 14.8639397831632
-158.508054776824 -9.15921736412749 6.11948782198866
186.263852976736 25.2033110172816 -14.5674183170644
189.414838312777 -24.6998116345824 14.3180870482401
-185.864023167724 21.1497484847637 23.922524991516
191.704660638917 -42.699426418752 10.7618400567663
209.491131626221 -43.0464031216383 11.9834892796002
-183.913411524309 4.65831469464672 14.0381237339808
179.071136108578 -11.6239175538067 -19.9360668394083
82.0461158056005 -11.7822667998556 -12.1265679771856
208.329946939748 28.5351615045586 36.4800843108331
201.744919531638 5.37823173055323 24.6767467901198
204.573997837624 -43.600031906775 7.29865811967681
-127.389935940597 -3.61617170631184 5.82223771080683
56.3220185036722 9.25290456095963 3.14828287687256
-163.161553747952 21.439860799176 -10.0971096909516
-195.151374297961 14.2747557252621 15.5431881516638
-141.810167767306 6.15203356943728 17.7344655516103
116.274883905329 -6.65630334757301 1.184265196451
-226.959172312939 -41.3036658972768 2.79467071623846
29.7634752391594 17.3241000806264 -10.6665871631282
-197.987783509473 27.4345579343892 -12.1831785907235
169.043851278244 -2.74381586472946 8.13705091240045
-178.354594811229 40.0502005566431 6.9931901688694
45.3224611630448 4.95727148357008 6.76918605045459
-203.025301693192 12.4930582548213 16.1884163993314
174.431157957777 1.65301096138788 -20.6896668586876
-215.338674709158 -47.1834762197092 -7.91764414066846
176.236745906897 -25.3103903922675 7.61515427984372
229.725954726762 -22.9156116652221 2.33618715958946
222.226257436899 16.445304259984 14.2137716522756
170.144606307343 -21.0962408215225 -12.2893709767493
230.443558714128 -29.9654282294731 7.06991624344186
198.167078903441 -35.6384829951938 27.8297906014865
222.990521568346 -32.5419637740884 -4.27508996592604
-51.5615323500946 18.9413369533488 -13.7823001175512
-105.747576834468 13.4025001292535 13.3973413584061
-89.8728680896632 21.3625460959297 -9.11044285459054
212.520755357534 -37.8635043211094 32.020861222878
148.286286023855 -4.10466137235387 5.45415723193801
-42.3937169852768 18.4496340846684 -15.2776945299292
212.932410174046 -34.3027846915021 -7.41948867800111
-200.032806520734 17.5333526583939 10.8444488232346
-49.8648571569637 14.981965536216 4.59076311379477
223.522181607063 -10.3163790402224 4.73988924385813
215.011669525181 34.4679930009779 10.3063414583414
-142.831622046996 12.7340643025886 18.628869616295
-4.03835362107323 4.18968072496453 5.88273673631547
-197.091798003458 -28.9568690072744 12.7353428991868
-194.528180893234 3.90255366179347 10.5532815315039
118.844561639238 -1.13813815400124 -22.0442989383693
144.676114759043 17.7153923412283 -13.8508010732948
189.038205720661 22.3970873983264 31.4651390926964
160.530671200251 -6.21291249633187 -20.3000211764567
2.29162885800226 -1.10380546527397 2.34235929602319
-224.520418798608 -24.9584320804743 17.8151608531122
-187.736339196201 23.6067777540847 -15.1338024422194
-136.390882836714 -4.50465811297391 -0.283031058300039
-20.6660395135369 3.22295224409845 -22.2586050705904
129.304807695353 12.5432720177517 8.10557755855943
-121.625424568728 13.5381828709762 15.6884273187535
-216.065805671619 -7.496363593318 9.3199568114581
-192.692319486623 2.87997834554842 10.8829037155148
150.375896258601 19.4215540608698 4.38315016783804
224.317555964892 20.6746180665921 7.63844996879917
-100.530526742245 22.9478711429769 5.70010484809895
-216.903810582654 -21.4438042921424 20.4643198805457
125.912239948118 -7.5824195617402 1.55045231190555
-109.11846947594 1.81486944246537 -11.6519537759124
-188.693132491667 -15.6220651219183 9.17845242855167
114.852061199547 -13.7217413859449 -9.7723202006099
204.712150859615 16.8471913404414 34.7382401928396
158.360513256865 16.1523492149561 10.7384190461577
186.233592267662 21.3485510636963 -20.5362222985769
-234.044079308727 -18.860504208539 1.7531762386607
91.7570640626051 10.3123303031772 -21.4573154217944
178.337806532002 23.6896140237483 15.5436588128023
117.893192625306 13.6323704217293 -18.714423332692
-186.667591619631 25.0110261700867 -14.5869693782094
186.578897539088 7.01453781509457 -19.9223411582155
-154.532446179362 27.6146514293213 13.9339144509013
-147.405712496901 16.2012867908267 19.982127195451
-181.983189072635 23.8859588133549 -12.7585632795316
-131.614164998679 17.2602818825665 18.2575178373447
209.457507297299 30.810524680343 -7.22797250867972
230.242260066899 -26.5132054520756 5.93833522160181
188.38289636096 -9.91572567293795 12.4116186382343
-169.251049823643 -5.84780395255044 17.1069237268878
27.6834868171872 -0.00234651979287224 -22.5603307910125
95.3629750210593 10.9141423033198 3.61258791554483
-206.621261776623 -2.05313537487623 5.34948470460182
194.010114778943 -33.4113932426898 -9.43640464962314
-204.276062963665 18.4789857377322 -1.28644916694171
28.0570582291849 -6.79177538369743 -5.23201475904015
108.654680683691 -7.58777903429023 -1.02660194393316
223.494687967748 -36.6701303273685 5.26106766226364
-194.244877715264 18.324529182755 13.9470546191893
-157.782622016877 21.3045938369212 -9.79382461320775
-115.41260650038 3.71434469532213 -11.7166207990635
-198.597191702503 23.4322834281091 -14.1835546539179
211.361891253023 16.7419733090352 -20.1362383546974
145.704804878966 -7.14250855149599 -19.7262963872771
-231.558840703973 -35.4639520616076 -7.35469221817248
21.4948121096955 15.4233336537161 -18.9529148264071
-228.504345014895 -28.5148980354923 -16.7913830144755
114.903774877244 4.07712127497123 -22.8735560216189
-175.604461670961 2.75309898344733 18.1817035362723
-138.751395601609 -0.970620904685645 15.6663740746425
104.471646882569 16.689099910712 -15.6790345224859
123.78736984043 -1.74167575261048 -21.663333425116
200.604039271251 19.6001636872826 -24.7300056217179
-71.9831198232435 -4.12234181266814 -5.39167615983932
-200.490816999969 25.7275974702484 -12.3545006143649
207.75251057046 -17.8875010487714 28.3985014440334
170.97082248658 21.3543130987156 -12.0624811498092
164.304955821795 7.61466382527914 10.4721789580178
-76.1787638295586 -0.733141824757479 3.17279852307145
130.731380105032 18.1814663514366 -12.2820555483919
47.5132798346211 -3.11460906291629 1.38358013390816
-84.9512696965039 13.0635640528962 11.1215726208882
-196.96109907796 -37.8328838065525 -12.9307646659326
109.775262983211 5.7782920555682 7.87036083376291
221.070715827476 8.58010693593919 8.71700952912196
133.753904333626 15.5695545630069 4.88931922582718
199.396340398049 35.673936539402 5.02918148230738
-202.300133768173 -2.62029707375412 -15.3856636704676
-108.413502211056 -1.31862118103875 6.76925264309758
-180.005751227023 -17.1283940665167 2.47560891453247
-203.348011232662 27.8769970156101 18.6457944517173
220.490417140404 32.3363139203101 5.65241120959295
229.924372531164 -32.3246006905279 1.34836333013362
-198.625702842305 -42.2855244966335 5.91488894002209
-80.0998957109779 18.1362769930814 -13.5261291315393
-190.973434628199 14.8270689775708 22.3324967976706
215.109704042172 -12.5141194924253 -21.3331845910536
199.673902734738 28.7389500375147 -14.9775140895019
13.2639163570181 17.6218387749076 -14.2475033468984
-60.2877775360487 20.9103700978527 -5.21499941761551
93.6333566513244 17.8649643307723 -11.9603864990724
-100.050849625934 21.0596259921605 -9.5943896591913
191.872053610933 24.1360163853363 -21.3450519153118
222.751887329112 19.253314511928 -5.78278152771545
-193.684550697367 -29.4828128326826 5.15242616013064
189.71894881776 18.6894861037195 -23.1421492571055
-109.561576881953 10.149049936814 12.8261903398598
185.364287680502 -22.4343808257361 11.4347049176199
166.790725339825 -12.6815072141561 5.5066142180774
-194.089667978212 -30.6602108314363 -14.4738369522654
210.3280895692 -43.3102063580342 28.9742255093726
-107.759821608566 22.5508754475759 -7.26534833062235
140.980821794002 -12.7659601923394 -16.9511921902601
-185.157884395864 40.768429589334 2.84449539518888
-192.70899712164 -20.1491325346642 -11.5870114799419
-205.074092650316 -26.4868026616906 20.099043878396
-200.724746464717 -3.99567486944518 -16.0564641194576
-227.951119910295 -11.1313636158385 -9.4941515428711
-223.496685898082 -37.9513877003702 -16.2192984138539
-211.105303518502 13.5626979804485 17.3331662476823
100.201291954792 -8.82837907160358 -19.6816669081367
-214.356870936766 -38.4477704190823 16.7548742817242
226.537623803607 -29.3044794246038 21.0764523928785
29.0090231094077 -4.95232020751082 -20.7097737915386
-105.353615723679 13.8665287125262 -13.9544860508959
-35.6662782558695 19.3500927036958 -13.0292703121356
149.641991429523 -0.419606974345012 -21.5615569255005
174.428166176057 2.03917804321463 10.3856698553549
-192.559887601078 10.308696588549 9.80486758276477
182.002843712838 26.3558291928929 16.5793657150469
31.207759968323 11.6705469133753 -21.6049346496251
7.96608555840679 1.98075533219564 -22.7063315827797
