-204.023585505061 11.6184667336714 16.4749103131407
-212.541043179923 -20.3621039137557 -24.7072008334632
-58.1253923433 8.50859515805421 -17.9479934883207
-153.691793753871 -6.52120808082921 -9.49860693066946
186.46694236442 28.5357254673734 -4.48371753957251
202.304087522895 -9.56864542659549 -24.9705815210154
-99.8657914403024 23.1541122525592 2.75294591552875
45.0689567052428 -10.3290410803248 -3.99454164725547
-190.00346065923 1.46545424661889 16.111307118639
28.9318455650322 7.35361853657384 2.63561119554551
-190.407342236372 32.6123593331579 15.6845555821748
45.6210203838165 0.177915334701825 -20.6295442099859
-71.6803221826809 6.04095330439618 8.65890320444236
-8.8066914141123 18.9670584911436 -7.21097667695551
-108.842148051265 -6.94553287573988 -3.15652297341293
191.364964548997 -41.204907300879 10.9458477512908
190.810791637946 31.3074897213958 -3.00819195845487
-203.174444889548 33.669313911599 -6.41337800657832
-81.7048134988664 5.68274814979012 -16.0343262322088
-133.494021534643 10.0822148575783 14.2354909945695
226.370390419331 -8.92141434829183 7.83616111650399
15.2903823494074 -8.14156556310526 -1.84656446777824
-139.023950767374 -4.929100320561 -9.23873253514273
-177.326436807964 -7.5194411916761 13.947726979152
95.8340784795338 4.44977717462377 5.50858595979681
-174.755486109701 -8.38806590153566 15.3347352634033
139.426883092434 9.97412565594291 -22.5409049586484
61.2103969332191 11.6800948469485 0.115245359968017
156.622869590831 6.90077254975098 6.31100712372304
173.096053320547 23.746970598604 8.08552509201841
126.151059736714 11.6496528423784 -21.3512739557288
10.2053817087645 -11.43414344162 -12.5253568488416
-24.1250988132891 -4.44076285756504 -16.1548882597733
-174.66795815268 15.8077716424283 -8.85915819920796
0.691133313501152 -0.268068224308304 5.38819102484604
-121.314414736729 19.1129475165993 -8.06114154601261
-181.398341658535 1.20140501326774 -13.3331117562204
-57.4778652836577 20.9168106155923 -2.25851942008801
-152.051172460045 -12.9742798197744 13.4831749532065
-215.445468291371 9.40316978433457 -6.33917866346519
-110.744206441133 21.7810963794513 -5.73215958288383
-217.805955935505 -49.6507133479691 1.51707767851072
-46.6289356718259 6.64678247586067 -18.9121269136572
-50.9285295028539 9.31308060113705 8.41964516947944
-156.807573533918 -1.07327932678763 22.4318711775184
-27.8807011907802 0.670687886563191 -19.1425949691314
-214.622435788249 30.5120993398608 -4.01012286426499
176.374615715436 -16.4618384532455 -16.5855993225001
-159.095850400339 8.76841330310626 19.2447096852977
216.07607203882 -11.6535523533164 -21.6985489709939
224.692487420314 -15.1732905561992 -12.9100717120185
193.499583311456 -29.6088460243804 25.8039516016495
-198.265896165133 -37.2558763005239 11.3591938193307
-114.939723807393 21.2871030109901 -6.20446096862324
-197.706617865901 -17.8622831356678 10.0982278769079
-193.211957056491 38.1524346326561 -2.4474742982926
-171.582013176855 -10.9762435543837 15.7843096140698
135.289228866193 -9.73708576663556 -18.97666793317
96.3960864990314 16.5478234027175 -15.1465583118312
158.253426976798 6.58770458288979 -23.6736797369929
-120.369269438939 13.4066686606357 14.7758524278627
209.979444123295 28.8424447782315 -13.7069662133661
106.711170418652 -10.2517012957711 -1.48222082147474
-209.806336984551 7.57002475086341 21.6945228849602
52.257857581159 9.32722400567993 1.15825356466835
-200.918643954808 -7.80761758652825 10.9940292853279
221.982702095534 4.42994651180235 -2.51970743311524
208.023183718674 -7.12611187013973 30.7751202303302
-108.443499899727 22.1138182613433 6.5744979437756
-207.563206539867 12.6960643279134 14.9969426867138
191.921458484414 8.43713349046284 20.6719894327866
-150.772167230544 -6.5669255588171 6.64476732116332
-155.897916365008 -16.0045737011255 16.9919875332182
-190.633495710756 18.7536982357056 24.9703643413237
-187.72187127439 10.7493457142388 26.6337264533909
-193.643786702944 2.6740614786543 16.878270671965
4.66895953785498 8.76956350748548 2.85335372834594
-84.7276739471227 -8.10965208275165 -6.36776834564713
192.412547961992 -5.43626535122683 17.5050208690521
212.5180798781 -23.0722218246381 -16.5723943104451
-190.671993709553 -21.6875315252818 -12.2670331761842
166.295346606619 21.0777711697111 0.63459855662621
-179.266939367953 8.34931370082798 -10.9909789147145
-142.845275581097 14.8162474565608 -8.85754933529287
-215.93227757186 -52.8109547902599 2.77180897402507
-212.410210472252 6.81260337679634 21.0609786753392
-177.332978800494 22.7824483367682 18.5703924632315
-7.02229104855336 10.3697450857867 2.04335687318703
-157.917259228133 3.3931565892223 20.9366850734223
184.883709624207 22.9705468502364 -18.7005086003581
198.560865849806 -12.2890574190988 -25.5802358077907
193.939097203114 -31.2238558448459 24.560272592745
-236.678826296666 -29.8476357764573 -7.66844040969408
37.6580645726003 -4.08485132055477 1.36761981001004
-143.207788823316 3.10006918325283 16.7926865621701
72.9069352588564 11.4184101195901 0.718061746155195
227.402585428667 -29.213972820708 -1.98523271226269
-141.179598438229 18.0587882726157 16.2104877038025
-97.7607619107569 8.00913134908594 -14.0711015602869
197.197812947283 8.3871021193755 21.3558142720579
163.889478110194 -18.0211070809048 -11.7405189703503
-192.723127857241 39.725045241132 -1.19651816221718
-2.15684752944301 -11.6933089314742 -11.1161792349934
-183.483469938103 34.3607598894003 -8.33207600920519
205.971180807582 -40.2994090242672 3.0096209727936
197.44945825118 30.2739138312522 -10.648674610056
-194.621336641807 -42.1059475909854 -13.3000642626325
204.079846963225 -38.3483590278341 29.1932179401781
71.3034994171464 -4.4526995861024 -19.5256564760701
209.58571864824 11.837837819931 28.5490411103797
183.988226412719 31.7379936591796 5.84509279628433
-200.003395090893 25.7951896051032 -14.4992286180677
108.207745575364 -2.6667302133345 3.45714708722608
202.704897147477 -43.4301881080091 11.0175023415845
201.121639836021 -8.56176480852528 29.5229996096027
211.883226320537 -7.66899406844561 13.2322962089852
121.030519354558 6.90284308465223 -23.2063192131604
-222.328884779509 -7.8340530428332 -4.66029322269408
88.0015052815181 -5.38430790685766 -19.468561444239
36.0489713777152 6.50760507255663 -21.1378027164719
93.734987518291 -14.1250935271459 -11.9154887534857
91.8504689089251 -2.76411691392786 2.91207299058726
206.940996777423 -7.38812105593869 31.7757311173953
-183.290293395886 -16.8708408594543 -8.65020340873498
-234.613126693329 -27.0516453330246 -13.2568932608823
196.383564189171 -29.6246201049042 32.2540929727733
220.46417492105 -22.9065132833665 -11.9905321779079
-133.862045580945 9.28963753610784 -9.66882009387074
-192.078119190259 30.8736418239365 17.5240871167574
-205.043785614845 0.311562958743669 8.81267998285819
-81.1717446751498 -8.33851148494411 -6.2808141217434
217.685902907598 -20.6091068272284 -17.0624104353506
186.948841988879 32.111767502426 17.0140353384357
179.173761196778 -4.2319729624561 -21.3956175094254
124.778625675864 -6.12546307613141 1.7801751356898
-162.590773896052 -12.458503185317 25.567138405796
203.715680982598 7.85344719711673 -29.4257244715214
196.65461656274 22.0860944783518 -32.9106600407074
170.074347215501 -20.1393004841386 -9.75223859297934
-158.568915437875 -15.4601262197849 24.0463339452182
186.515294859702 0.341691756778135 12.3141319542739
-200.324631836588 18.6550668633952 -18.5290626083246
16.1802003499914 -9.52892891015301 -14.9207522097416
196.995215754317 33.5156055460523 -2.47105234732426
97.9996608630768 -6.9717764625088 -18.9002603793368
52.8567932200585 15.0096123663538 -17.6705877741934
24.8385758089765 18.3106715193853 -7.84097741727687
-224.576009732374 -53.378130209187 -0.933817401247616
198.459097222401 3.30421045888874 -27.25978893922
-171.136526434628 -11.275685194615 12.1167280231565
60.7635686487446 0.741385054989537 -21.176689337052
59.34555637258 -3.99457497602145 0.985747149871991
-208.603287164806 -5.71049805000261 -19.1624301753905
-9.03976026835734 19.3243914000736 -10.5359507952136
197.011230759634 -23.4303165805861 32.6614341131685
7.37930965444461 -3.84860148634441 1.36261752466208
179.869615660729 1.74952912886832 10.2586188345165
225.001857509651 29.0761813454215 -2.19323462248267
-226.874755944192 -19.3205171024543 -19.3270253250828
193.541578807426 -4.00409277198935 18.3544282784238
-202.751187048142 8.27507264965967 11.3473838491518
133.094946133954 -9.73568125355844 -18.8793813170721
187.288696302944 -35.5628723745042 14.2139579414533
-204.92031505875 -8.13991889692663 -20.4024340137333
189.39760727252 6.47158209247529 15.490839837305
200.145800785926 -43.9801401968091 11.2147940715821
-194.827959744425 -20.7606417959888 -16.860933211403
-38.1248596745383 19.6949511657964 -3.88376759340816
212.516282947191 -20.3925830940667 -21.4185687684112
195.889930164944 -40.1398554490687 3.73465212534727
190.800961531978 24.2180802199806 -23.8399868566366
-90.870980135605 -6.3950682470306 0.175122050893468
195.651930437573 -25.2235593570088 31.1105779108588
-38.0843187107623 0.694166650610738 -18.417733636319
57.1939963311741 3.00797060840982 4.96050644955589
207.707012379583 -37.5512623661003 35.8179698793132
-92.0315880585877 3.05111347738402 8.85452876616858
41.4606183883381 12.0854852113365 -0.597216233807246
-28.5358710433497 -10.0809290496997 -9.61215549597395
215.387901243948 29.6778698356784 -7.68372751374624
231.478417165122 -20.6201276849872 17.9645586834072
-167.906289478795 -13.0325337719989 6.37383863608774
202.487763929514 -19.6233933178791 -22.4786943176901
174.486644292678 21.4401044765846 -10.9656231687234
-180.204752264187 -10.9261449309004 -9.84800824439351
82.8939658150074 -11.562199280521 -15.2150975149096
-167.379903531773 -3.58200060373508 -11.8276753669895
151.998700313836 16.2788021494948 5.68700690911056
214.620053154855 -5.43994226431117 -18.9907731587664
113.251387701353 -3.03996197332307 3.00001720868867
224.453697328069 -9.12694292445924 20.539143063569
195.309714178527 33.3330789451812 -1.84814042987276
213.420082866413 9.64209846301864 15.2532544805217
-222.084286917847 24.3520708975441 10.3002586183116
214.106422133703 -38.4044948417933 24.7241757544877
-163.498780583801 -12.4979205307979 10.818842692577
-195.33062104764 -47.0822904049565 -3.89871409455207
112.731024125649 -11.6154947257121 -2.14223603825006
-127.547386328168 -3.5002499436318 6.51975605724692
-108.601407802271 -4.64237134713384 2.71116283584237
-222.364129315177 -23.2203457279234 -24.215136641249
25.2407110078913 -4.70120912926237 -18.2847396353814
-227.493885862267 -13.2728626804053 3.01274306846946
-52.1144288849208 1.42169394523174 5.91444375849148
-209.214724167017 5.11246950954 2.54187863244557
220.885945808161 31.8598580648201 0.484738272105498
221.581577434419 -35.7134664643729 10.3254664552594
-78.3242534774144 11.5749564308415 -15.4654926726192
-198.616023405481 11.7310429605861 -20.0013567004878
135.165750194026 -3.1321539887027 -21.6990648660885
-54.9661765612595 -3.31256830516254 -14.6306772892153
225.428875987922 24.4225953617951 17.9600589629874
-187.650913888222 5.93765728301793 -14.3948939627661
-199.84913986421 -10.5805013059377 11.0260457126379
213.768487431273 -39.5927739722263 4.87696963393052
-171.197758344799 -12.4076664223894 20.767852834852
196.010421305752 -21.7034732083399 -21.1968674953817
-100.419385691014 2.0154798627152 8.70575873712895
-212.426118269693 -6.34762334369629 -18.2493941931275
-112.748290228873 14.9191586874399 13.5039066666327
-56.7222991527734 -3.34249150046712 1.94940680580221
121.365658530704 17.8062867154159 -10.4989682150482
-217.741512152855 4.89743489548454 18.3331325749261
-160.743041166432 -17.7257269935514 22.8325081606824
-195.069449095709 26.129271513614 -11.6665770041379
220.05567597474 -33.6062964530569 2.32928678392172
-182.394885621068 23.0073637512073 21.0979720756604
220.164968116024 -29.4218064085712 36.9123926653505
186.691863756834 15.1356874300303 19.6893340837945
-96.0845400459699 17.7348054023179 9.01018433896931
-41.0795003881228 -8.87008687394744 -3.99854812434558
-20.4917136682663 0.0874612081443827 5.36986272653881
-228.608145253409 -15.1729139291125 -12.820187699549
-32.2077667572578 -9.97965303055144 -7.4548340653046
182.806085973904 -5.74484311775768 12.7103788923529
199.143405785295 -9.6658447536812 22.9047468054935
15.8215692405127 2.31779514026472 5.93426348315176
-229.648374650173 -47.1112633712692 6.61401684506393
188.234054698691 1.90735032298172 14.2738551665499
-219.420039241559 19.5885508936038 15.6943233312177
128.053445286 -6.28545666655817 1.92556631016242
80.508506452054 13.4132085237544 -0.0718357131670077
-164.446700814877 -8.19953604813143 24.756398332017
29.3360514073267 -11.5267681682634 -13.2373041388476
161.978239648609 -11.8756011847713 5.77269539784194
-202.390958239119 -29.5433393048949 16.618221482168
202.853629408603 9.40583305142531 -30.4897358911578
-125.345340833818 9.5909625108865 -10.5694750039594
226.267423208531 -10.6489247045254 -4.30324112779379
126.284778806812 4.66217469731524 -23.3640982745163
206.306596675558 -7.81406240791144 29.9421832828655
-44.7060421308343 19.8415786411566 -10.7785579756479
154.609003404019 -4.53125392787065 5.6531627405234
5.54337193177785 -0.293915619462778 5.44136397411147
172.890154747554 7.82486729079635 -24.5072231716688
222.361563854454 21.6170208649828 -15.8113774724483
220.694455804775 32.7227811070085 28.1222879080253
-171.197055776905 -0.740520502036836 -11.4216806529894
-144.879014538294 22.4134094217449 12.9839097223277
-153.04723782601 -4.62112812410173 -10.4033445255012
-222.490606562636 -8.66110857277438 -11.3893896924731
117.06151002622 -14.8421380433543 -5.88732523142587
122.815620527457 8.07490157895001 5.82176203560883
188.202390617847 -32.1887837388087 16.22568944177
221.149108344893 -1.41165603226571 -7.63504781660854
214.209315354838 28.6692246028624 -15.0157795706889
-180.160233443476 -5.7967276140013 14.939903415903
174.151928746066 -22.6222286337758 -7.02612174419278
164.788532824761 -14.6265155805285 -16.2299843651681
170.576535085876 1.79711666683622 -22.5897112664
209.017799359809 9.17011852501167 -27.869086378572
122.586372766111 -14.0653438162037 -14.2274510496137
-235.515450206057 -22.6926348808638 -4.44560223590653
-202.106727322413 -44.0895621970227 -20.5417123516357
-182.963997708868 -2.16389744463093 -11.8886565300658
179.869312543473 1.78370060044317 -21.8734460015037
-229.443556530354 -14.0298842124479 -7.82635486955833
-208.66691260064 30.9751364668909 14.438233934167
-116.745687016251 -4.77806144139227 3.03545365326513
224.547057907435 26.736990533524 -7.73583530839309
-193.667246044416 34.3009054325232 -7.99025115733278
-88.7901830168445 13.9010285523948 9.43138593264045
-100.704221070005 12.8092712784465 12.2147051778197
126.612068130473 -3.4688799495565 3.09665657796891
178.62978888264 -24.2465695932828 -6.86683335726882
228.857355989502 -34.4014471985981 17.8963850508063
-140.355413616742 25.7651896329178 2.47592323769336
203.644951127872 -3.54431516522399 15.3888593260236
-84.6252962762135 -5.49154300074486 -11.2321775789891
-61.131262189872 19.9488525869521 0.613497095033963
-172.534736649036 26.9824278163341 14.4441416105412
-174.166198473454 -8.22284704576771 -10.0147944445763
-139.361456094087 15.3155391956894 16.6629897817732
213.29896431855 8.20641213328297 9.77360973866112
15.2675314687741 0.103880863433611 4.68610972490873
-214.978709820494 14.045896396435 1.5004497327212
198.974255886458 -19.9317837861965 -21.6107441473779
-190.099742063673 23.284310591141 -10.5917069491057
-201.844055502623 6.24517349647468 20.1818280986873
-160.074427915962 -17.9259699421149 18.386234904224
188.205363492692 -34.3168076454393 2.18018055998937
-98.573613222361 -3.57930641250481 -11.5112169303334
-200.04651321665 13.7700626919294 -20.4054710617213
139.901397361396 14.5545022189776 -19.2721761306274
210.48723899024 -40.4473127417682 16.1558559982532
-83.2960887326055 -2.12483447228772 3.86408048150696
-166.559197297265 22.809117579385 15.3994596263808
-112.148582610011 6.49118707394543 -12.4176154958172
-178.28323305913 -0.930746158901097 22.284761541062
-163.627766252122 6.98970787205359 20.7805416432128
-172.359295851257 32.0796416641208 1.44924723439323
-209.255761818505 9.47874702446264 -15.3634082335519
159.143624421925 -19.8859109242364 -3.8412158940361
-106.790825568063 -4.97197552886946 -10.0742871478561
178.355534103766 10.965174633792 -25.7515323074306
-194.345709752075 -10.0087908149518 11.283355427665
-155.985767109575 22.6032143823584 15.6921656788718
196.470241843119 -36.4734949238704 -2.89229626309201
-72.6000910282699 19.7160354436952 3.60633638531557
178.080064829683 20.2403002959888 -17.7360366985487
-121.694571178584 4.19756835093654 -11.4778758890253
-164.924654485424 28.8076310730572 7.91378181148742
212.249235764196 37.0640399643911 15.7142281529718
-56.6062406369793 14.9983687134571 5.6057661440832
98.632965756619 -10.865343052207 -2.47710008466966
226.624745051646 -31.2308861351586 30.7612539351115
-167.541457031146 -11.8736660912244 -3.48947084426849
225.626057321706 18.7582994733179 -5.95183159548205
77.6518909081779 -0.654055172145598 3.73573427040801
-178.679079595335 7.02006746995605 -10.4135138486758
-160.895886734466 -9.18953527064565 1.53310358477361
-10.1098989302593 -4.37937634030541 1.03176504892836
181.79136348784 -21.481149614522 12.7065737429748
-216.684619607397 6.85340660644549 15.6418207016201
89.1448598396472 -4.42227366832627 2.01540429805988
-211.893836289486 6.20351080739074 -13.2347778606339
-148.037717096618 23.3495304212724 11.2118620091973
-152.950117953854 -8.53774983661326 -1.72228021408137
-69.4057944441568 -4.10625832468674 1.79227375874189
-232.643876549562 -44.3777992212337 1.70557425017504
67.5499789941979 17.1864701990474 -6.41618068043309
123.666303422184 4.14441522386915 5.39449675522821
-183.705375394743 4.23688501069313 -13.9694645478191
191.1268989771 1.43334128640413 17.0667622423636
-107.455952926886 20.541092922396 -7.22110460990919
-205.396537414318 7.81308508929235 -17.3643239157762
-168.254549570037 23.7039095949525 15.0987347186427
58.2194097383244 16.0490355253732 -4.25538057566099
-132.954238876551 0.262271658326221 13.0063552476276
165.912170511503 -15.9389480788855 -14.7521516682304
217.362649987137 9.08499873755692 17.2468407130445
-49.1087444900277 5.16384918121251 7.42231917231097
-226.582562407507 -27.0727256309506 15.5899604141498
-113.577658764387 10.6765751640015 -11.821857231446
-192.334194703632 -39.1824966798176 -3.27461766110264
-214.628090186032 -15.8474403411811 13.9190535084999
-188.333075842335 34.9070599314479 13.1378061243299
-221.946305547506 -29.3480458421759 18.347076826218
191.958856368536 -25.8646005443282 26.7558324668659
-182.983836360792 17.3991424488747 -10.3277543468247
-194.914836614927 35.1706822548161 -6.10503564762725
70.7735843192777 17.7461067802734 -9.32456373641947
-94.5470381081891 22.9428279945118 -4.16146104875818
216.88277261433 6.79184703623379 9.15519262027554
-221.577681346872 -13.5098709125419 -18.0861219354961
-220.838158868328 17.2451355582204 6.63797398781106
220.873815103835 -7.75512759643172 12.2148115419923
-121.952745060016 -6.41687902692226 -0.730396118111733
-183.775200512455 -21.2793970804473 -1.79624361732201
-49.2995921116558 11.2531018509339 6.5539792637558
-172.017097896527 25.2020846985016 -6.74982071081443
-226.765731354215 -51.6923879912598 2.85593766451546
188.086541142838 -8.41632770614614 14.7685624390484
-144.18374210345 26.0718145045471 3.50598975297808
-115.835130233458 6.44013265081376 -11.956702385805
-176.877325986032 -14.7172848303513 6.11081998012453
134.353301160386 -16.0366515008795 -11.2346528771108
102.60687543614 8.23102136438128 -22.5039394541421
-185.348851869324 -19.8691701349165 -8.3267514459308
-25.2857917458698 -1.86364956134378 -17.7747389334803
-149.412544393378 1.34833655382133 -9.33265984415302
97.9375795379175 -3.22916564034669 2.80931191072187
29.9383928911846 3.36894377033019 -20.9271749965961
129.871026959645 16.5211910240145 -15.8455281134621
-215.582752954033 22.3332761196065 18.415756862861
219.520574027837 17.6784455523398 26.6047066478461
220.785865610425 16.3510321869247 -18.4017126382968
158.036314651105 -8.44643592609231 5.42624372857692
-20.6638074609173 19.1418051564336 -5.02353316430551
187.082070489601 36.0183002511237 7.74312637871548
-192.327068819641 -35.1656027026401 -3.87637890920186
-175.331574405155 34.180075004973 2.72229414394728
-225.871418524924 -10.0706646733968 -3.6722575798656
138.454669738679 -5.20410594267417 3.69105418998885
172.867818802941 18.6664091628319 10.6053938002035
-177.028433447446 6.32777966545162 23.8848556112454
95.7716366036306 0.676945076808294 -22.1626570658942
199.716476169961 -17.3598100929986 -23.4800883430269
-100.676972253482 2.22469255035031 -13.4098280610425
181.93328125441 23.018410117869 -14.901953417354
-177.796304306274 16.216301291046 21.9587124750883
-114.355685356404 17.7693253323126 -9.22907781110235
-166.685371426436 13.4437959593694 19.5200104719795
214.929698795553 -37.9617320389817 26.5013136935731
34.9300126220744 -7.74793349004777 -1.54893418491309
193.04318034535 -35.2325017358068 21.3954201364792
-33.7381088751474 -2.16099968328137 2.57575632983029
230.599732664936 -20.4186050508036 21.6225693308666
-98.571206388487 10.6369165717073 -13.5493480226907
-58.4822109233363 5.6218702739493 -18.2013648681543
116.226458777927 5.34937893488667 5.41253258651367
-69.1424914518715 19.130572148525 -10.2604579737081
183.5887730714 -2.43120678593677 10.294598135425
120.649570763516 -15.4417853513534 -11.0816808823507
-11.4380573573048 19.5332179396219 -9.39473978550414
77.5125025219756 -8.91505113161119 -1.6546057692084
-205.608719988197 34.6855596883164 7.97653909758252
-212.0451901589 -8.19167291006088 4.91275697559005
-63.5373790407421 12.1965673031932 -16.3401923203658
-231.329934071147 -37.5326418683076 10.4942080326502
-90.31139753217 15.5465531813519 -12.447544320356
193.940379606451 -17.8317788700536 -22.6202546134872
-18.7498486640494 17.1411182501719 -15.1451366890965
221.857472798536 12.9007111637733 15.0384743782093
-72.3200281396091 9.87143693828825 9.74239663708546
163.630064888344 20.4306337407607 -5.00402525445136
-229.737282675515 -49.0280536361634 0.993998793886371
-176.628130918153 -4.84371150925278 22.0349016080494
179.954300773708 -25.4102734466447 5.26947051330263
-205.041900238362 28.7354679630877 -12.3245634606646
-212.426705186681 24.470032865974 19.3671997884307
189.797073178286 11.0648776046259 -29.924786036195
148.965801331528 8.83463460801283 5.61252428141935
-162.180548352801 -10.277579571679 25.3847517327439
-224.647514919103 -51.5481776680159 -7.93012277952058
17.7712788449069 -12.0566237276493 -11.3816045833849
183.577344977505 13.1161855951364 -27.9291737186776
-220.213187312918 14.9676180315068 9.37264242093883
-175.128013877848 4.85717874704229 -11.1293244448744
-136.103537958428 10.009626997129 -9.45679933389669
163.812341787999 20.4015851158254 1.94113160520484
-148.095919288217 16.0841518990903 -8.48176666954355
153.48972019806 8.52352866526617 -23.2990688363717
79.3997252068614 -11.0863035165106 -15.4211834225916
1.88504869550103 10.0194655512723 1.91181021804892
208.30576820593 36.8384993004353 23.1893396483925
225.737476434869 27.4988541868066 17.5024323314153
-50.1283864134477 -9.96087525891229 -7.10197089749628
-226.557161101142 -51.3524379851961 -7.91504484745341
60.8202965855926 -6.37981756588893 -0.510982303462535
207.492774164086 20.5991245917869 34.408322562433
207.780661752127 -13.1782019031014 36.5925033116444
-212.890707127419 -31.6706820437239 20.0929334183152
-225.378682883357 -52.3873574629683 2.53774015202803
146.63516326155 -13.5825026897274 1.11736256865652
6.46387300709814 18.2687448657529 -13.6467669730851
58.1252037948704 11.1839883773775 0.280706415174565
212.151170824853 17.2166447738973 31.6449631145797
-221.482243406773 23.6426685603417 7.85669677344085
188.033828830461 16.9193536392182 26.4107319025467
8.56684245461724 11.2419527633573 -19.6430571135255
-193.990822530117 -35.7498503418314 -16.3297490386781
156.20327506972 -12.3856370665241 4.34918083663025
190.783588358399 -21.5566648826184 -19.1660446566755
-156.097087919032 23.1670622576327 13.1410818229656
-86.1148231733165 22.1192638042003 2.28875837242943
210.767180336992 -9.46225394129694 33.7259787987535
209.291561356045 36.2328869852022 21.3439769384283
-229.136197148853 -48.3809174426343 1.95813989795763
79.6984637599169 16.8676122147424 -5.13022573630423
106.675150090919 9.3672477236551 3.25907608718822
-198.206847606184 -32.7804727705316 -22.353270214036
121.783089185991 -9.86718183708348 -0.258716546810564
-33.7117368313781 10.8025592637455 4.46871363884643
224.471397056533 34.7564888695243 19.6145663076432
-218.257569727916 18.0082181872529 -3.68761384245867
127.579162627386 -12.7429581978808 -1.61109247441701
223.417269765007 -7.97899252479572 14.0258953026643
75.1412294395659 -12.7551533862299 -13.1590142132632
-101.783170210405 -3.20290656801671 4.42843269023647
-211.639053565009 -13.8146060341803 11.3928768974242
-109.681018338244 20.6577210205465 8.49564393194601
168.957692915187 21.4930233652775 -4.06186046641105
166.96770691707 -19.6323101345626 3.31518501528433
127.930020153119 3.07207249921302 -23.2635249962573
187.176790741508 -37.871110523372 14.4443891470434
188.4260054268 -33.6144330233207 -0.211428903095046
-163.749276092865 -18.1140035911386 20.5068616806645
194.049100604307 -27.0049640531416 27.9059663351368
-178.207039039977 10.3246376570948 -10.217594262623
177.73244484178 -3.17075380358759 9.63969910085645
-138.812527821666 -4.83319873781387 5.89537521203879
192.367424167463 -27.3744468607021 -11.8427363004722
-178.067346833068 -16.1416708717549 4.27696779228364
-108.613164366519 -5.74888133434868 0.531700573049727
-94.2166996100181 -7.80781482891278 -4.37645701719209
61.8095055832011 -3.57287224283074 1.29771483705213
-187.023684704817 0.456800454173455 19.0275953274965
-156.939930511591 -16.1683350262971 22.1555913985284
-211.360622937877 10.8121741853308 4.23345467691271
222.253789787725 27.9928605521749 -9.8386625691228
-133.304142494816 13.9466709314555 -9.5655231947941
-211.216848165349 -12.3900286170662 -20.5501851709692
170.482650799822 6.04772180684824 8.17285364363861
207.384956422313 10.299995315493 21.0176953352205
-166.704886392358 6.15243739611553 -8.38849990759681
62.0637252225923 -8.66882840909986 -1.91135578031484
-24.5727351764481 0.494996685780927 -19.2604568105001
230.707251802561 -16.838188346629 12.1378798119746
182.482425613925 -3.78294684088475 11.6535424047989
-171.532589556964 12.1163450576107 21.2562872033444
198.661525922933 35.3778934974389 23.3149496966613
96.0439714792326 -14.1722802047759 -7.32835954415822
83.2271237188378 16.5827228872257 -4.2584801859539
-81.3139870343769 12.7658539490493 -14.6423826928921
195.253385293811 -4.71899581828166 18.6690125535695
212.527246345797 -31.6859031642238 -5.40653125224629
226.591779675182 -30.4380498982655 0.441947395118929
221.20234996784 -10.7057282257382 28.9656392245018
-213.986968097413 -1.55028172019408 -12.0034059149514
142.054578561197 -9.11526147576631 2.51207391455387
211.007384354574 -34.1970098233274 38.3613074732011
227.94303120025 -13.6525587126124 -3.65672112176689
30.9438416280853 -5.09710109769185 0.402444216544195
160.32442863795 10.2725052229639 -23.3137857936345
-171.388414980706 4.47066314112226 -9.69894182988158
-189.544816674432 29.2625787445669 -11.0034696803211
-2.91711918657764 -1.8247348622642 3.4570491860643
-220.434417419973 19.5320410818696 0.842963860224863
139.672576262601 3.83641813599159 -23.3302931258944
187.992786632896 20.6280645557891 -27.7904281944899
202.961629528732 -27.311134355864 -14.013176720904
6.48422210846184 2.7290429396451 6.41323034104641
-189.056100955062 -21.8704750701419 4.25934521907004
-189.227533154318 -15.8217784855462 8.69340143733772
213.400704893403 39.8765984154102 24.4000935740891
146.771302919288 15.3073778828338 4.86284885195166
-195.809059910752 10.3998746856498 -18.8841169672148
-27.4547882812171 4.42357613744078 6.50040228416646
105.398400170788 -3.33694317124683 3.13527231981362
-216.255117093314 -52.9814901016444 -13.054848361983
221.10619694314 -24.3563281328204 -10.1159350907561
60.9173769514343 -2.2266352791507 -20.194546183807
184.029924151159 29.3993113582687 14.5114243874796
125.091234461029 15.9470959122111 -16.9175762263503
185.601098598965 10.0412999630841 -27.8376905671916
-105.543555412258 0.171419649637323 7.57112771499047
88.4829845413177 3.90511189295692 -22.558908658079
36.8466248389649 -3.45815962971603 -19.1588980043823
217.629245289209 35.8713843973525 6.32395521360137
-212.006756600907 -28.3610066802113 19.9199801790347
-152.938215431317 -11.5434011993337 22.2706777984824
180.901532958994 -27.0137864117877 1.02224433814848
-219.586827840387 -51.5812957358734 8.7419765822627
-206.888442704085 34.2648981794007 4.12282073967238
-122.5725047304 6.95371363246628 12.4021315796883
-181.459719341168 18.1115626698153 22.7165698498999
64.2211285124341 -2.12242273703787 3.34081778339174
-114.322725679656 11.9468430273664 12.6050232639894
223.162694035163 -4.36947757954336 7.29985193554696
216.324607628339 7.78973405751133 -19.7667022890013
193.960734973074 21.5108700180508 -32.678550742172
181.717292881517 1.65696238432241 10.908384725625
210.568405300498 -1.42052876330911 8.12785299087468
-200.008788389758 24.6873566246904 21.7598481223318
-231.983583532483 -18.2913488144978 -10.5906325163353
-139.47762233496 2.95190283223059 -9.70394152448656
-158.698231445355 11.2328066195281 18.4902548106589
174.366343585482 23.2818197527978 9.22414722723506
-188.207877965908 -2.49805197889871 -12.4478386632752
217.948890185356 4.15875201841675 -15.0256033788404
-101.953438984782 -6.14916713023164 0.107248655259043
-231.612355999674 -22.7833726114005 -16.3208023968573
-175.058333883668 -2.90160531146926 22.3636839991375
-226.087221817164 -10.3274047916763 -6.05110764276314
230.445803411428 -31.8866482326406 21.4958150236445
192.401566256798 35.261895875316 20.7303279968716
183.624717474248 -29.0704833813087 1.67829043169777
-209.054976382496 28.5008661671599 -12.1329748255453
-135.169056189797 -3.84148921883256 -9.80658533706288
-41.3120193159701 13.5219223841339 -16.970770585754
110.834956443104 -3.99406353902689 2.58491717884605
-62.3564893649182 14.617830812815 -14.8220610844277
196.553913016328 -18.4956261767274 30.9517096163508
-174.079813588452 1.51297814146947 23.3647844437545
210.22525625117 -38.1650826186314 28.1035551643975
123.732097458821 6.10328663030042 5.57977996338775
147.36407776163 6.95579209347051 5.47978384567
-150.659483074574 -2.78951259255554 20.5467235312781
-215.654979021183 -52.3042478252743 9.73678866863951
73.5117244826676 -6.48165919922048 -0.390424176712813
-153.545012793039 13.1021998733883 16.5841688925656
76.746256502271 6.24229248141987 3.34684668640576
193.967117519172 35.4676285112761 23.9247684674162
221.533556344194 6.60328422974061 4.00112205923563
-40.1419629397914 2.38571995357329 -19.0127506533918
63.431869319432 -0.245310061153163 -20.9730545106151
-9.47522729671664 -8.48503161607625 -2.43515086799618
91.3777527641536 16.8872551751927 -4.32858693786597
165.583746187681 -17.3965496800802 4.78271407499497
-168.571984597544 -12.6389637133577 4.04540296503407
-221.107135791037 -8.22621767576945 -12.9380104684676
189.79895763647 -36.0859905698008 18.6781790367834
126.587546443265 1.35424779221507 5.01961249301047
202.106003480133 35.2690058444877 26.2795075537072
-140.97303181326 -3.24248441568513 14.1926512262137
-147.754982277608 21.5736331038015 14.0920739619121
204.302564172673 36.5835954898221 26.6215045828008
181.838032208291 3.74237611350247 11.1494622425248
-198.583275743853 37.8157077929528 -2.25353257563471
-211.705343975222 -51.3959771873582 0.117240311414448
-43.4633314318202 5.6510172635604 7.36963045690543
-214.143584254769 -14.2204204994766 10.9321092436816
78.446183299059 17.4935863921753 -11.6502602435111
218.654200244466 15.2523524837135 25.6626965203845
-61.3358843650084 5.71873454860515 -17.9824022255716
169.971851522149 -20.6432138396589 5.17686786657805
95.2246608255332 1.23305988186959 4.75058301968596
221.062612989965 30.8032807177503 -1.20865063638056
164.866585304451 15.8785234876275 7.77417033331814
204.45703965782 -19.5665562266569 -22.9228279134526
-185.932236989337 40.0877799217077 -3.0328539333068
202.215923931751 -32.266900484851 -8.1868004220878
232.061131040667 -24.37674468183 7.25662941743618
224.054376081098 -17.0246468727589 -13.9616775944232
187.900019202967 -34.1629391944499 4.21098786681696
171.028112174053 -22.5208581287974 -1.95062157441078
-224.065067613895 -47.040705608219 10.3740168114518
229.938519026705 -17.0255042951137 1.80831602270102
206.244015726357 -39.5138275695922 23.7077530356153
-3.77118826906422 -1.26374671997545 4.49405189462736
-236.977464123937 -32.8376272892387 -4.28361466677979
-142.00401971671 11.4786360569865 15.0734832705617
-63.670975545043 -2.66622550479994 -14.3781389747182
-205.8347777291 2.09327982963252 7.70889348466051
38.6777996631597 12.6884459315667 -1.04214193473952
-93.0660030147533 -2.13850216411537 4.4244647351901
125.424215042637 -9.32520531662263 -18.6744075369607
-68.59423487662 17.3322165753448 -12.1098726837059
175.469078697814 -7.66405367034826 9.53510150637556
17.3243796005507 -6.87229712846781 -16.4728440073402
-214.212050843734 22.9211016002286 19.0220927677866
-196.755770515643 -22.4326650130695 8.28927363387358
66.1192553092326 13.0042427303322 -19.3932356061112
-210.963883890995 -8.80101190519274 7.88800629447091
156.349901281232 1.19749008027831 6.13585715914015
-0.473491249241662 11.1755166065953 -19.5148339668302
202.640549124772 -16.7520379655829 -25.9977999136296
-178.10153263549 35.9726923631419 1.22608259579819
223.457104172228 -33.4618778128489 33.3692522189875
-48.553030845742 19.0513162182154 -0.354788961122818
161.708045769744 -14.4821127544523 4.86942230553601
137.190017486468 -6.18301546810218 -20.7156635568915
200.745519780425 -30.7489089927142 35.751443056291
-131.512638253969 18.3846053332186 14.5865870975847
-62.6704576128556 11.017421449358 8.92179619542688
121.950139870504 -12.2526317467556 -16.2198798180515
137.526182204728 1.69378767277842 5.03836730075879
-155.964654882729 -7.68587896574065 6.66250206564439
-165.500664004305 -15.7397686999305 24.413318641303
139.863779624513 16.7079197852957 -16.0137128249883
118.930485984299 9.19464993441729 4.69294710175042
-173.837142712598 -14.6582527921963 -2.6250290386439
-198.252661422089 -8.77461746279582 11.1750665817434
82.5040588850667 -0.0670386204800488 -21.4699618629115
-171.06780363282 27.6302812646238 12.5105878597976
146.897352876188 11.0683986734481 -22.1881644793245
78.1190992297874 3.36597256357569 -22.2013122062005
-200.101721030393 -42.5401200342177 -20.1868256859934
-128.061014348225 15.571252678225 15.4606731474337
-124.4430320361 -6.13369278018112 0.0448524820254757
-54.1328700606936 -7.73342047234121 -2.0445474191565
207.991160486252 -6.04349832518098 -22.834360118323
-226.89540014531 -31.0712592628567 -22.9919314323564
-141.608504124602 -6.48341674983602 -7.24085537152753
46.8421810986511 15.9544188920139 -4.10773933867876
185.099846572905 -30.4268228356267 1.83851263117222
219.024892210089 -7.85493759730856 -16.6358193160671
-200.078318481502 -32.0156113428142 14.5273659535324
-144.155828327979 16.0595793982323 16.9104460440318
172.492399757191 -4.6318522871202 8.46211591588568
-194.740522252491 2.74588623694842 19.5654535228249
61.0005099405392 0.541721032058865 4.55165651063433
130.961408113436 18.0447784259729 -7.23761319540482
-204.216910691558 26.1806686373924 -12.7245478932913
197.786661028747 -32.5088957783283 33.235307708657
175.990112758566 -3.22066418457604 -21.5477384009137
192.893511015151 -20.3938937748973 24.1802610421939
-219.044643254704 27.9338851769282 1.93823239294967
-171.729861407191 -10.3722113527705 22.0079294353186
67.9196012623563 9.76050334250084 -21.3231696507744
7.20168249236507 5.4333130513546 -20.7524664372984
-152.525417834898 -1.85594483984307 20.9524578643128
-213.634558905051 12.7083567339953 5.74207912072279
-188.926538810793 -10.1967226956429 -12.2783002895518
-2.22537259021537 -3.41467512052242 -18.0267653109447
-26.4799971117916 3.36790715931521 -19.8868342558723
178.694010496014 -13.3419770240401 -20.1139486084533
-188.638311915892 1.79366276441019 -13.640977981755
51.7264611384282 -4.51486392573324 -18.9663727521025
-198.047382506651 -0.691760248845054 -16.0490118265429
64.4072060874693 5.60509435069582 3.75048447360596
189.729498763251 -29.6575753268034 -7.64027136826885
213.664071444768 -41.0567645790994 13.5098667753704
-194.549065051811 -3.51806812333022 -14.1502183580291
-227.5633651381 -30.0481409539495 15.0940240759483
187.91288246249 -33.4693521528441 14.8330829238825
-132.262598059322 23.2470924374269 8.10967236078682
-120.33531286184 -3.54839629836405 5.74169206767155
-94.6052205321203 21.2403436806164 5.48994257548836
169.740136592224 -21.4461537803279 -6.77003569300936
196.125078960899 23.1424207786588 -29.9614521605164
128.743120407707 -13.9249317161066 -14.7183882043552
-98.4145628695963 4.48011372971253 9.65183905744706
-177.010757474382 15.2090230077526 -9.24957992700472
202.108148775865 -9.21144784491038 21.1425996516039
218.113519611838 39.9405465715748 23.6712737292923
-181.528287388224 9.98110783943823 -11.8450011953332
159.599652788175 1.53036351735073 -22.8064327941122
167.838544914858 -18.4651982006011 5.20106022393195
-212.960843028842 31.3562131095265 3.21378454439651
197.19375167615 -39.7518234406942 1.26845435035504
-175.685069028175 30.4919491180577 12.3901663777897
200.761900397866 9.79527369561244 -30.8047284897804
-54.2318964362976 9.85768416330061 8.40444057788136
191.586047174237 -24.4292459420352 -15.3116682866179
30.9049596117636 -0.32329639310901 4.65098027430702
145.413569658007 8.51958781847764 -23.1582200355469
205.46904087638 8.71486056068873 19.6078171971467
-192.052134029237 -30.2352777361141 -10.0065558868866
196.600566366615 -38.0750970687725 -1.10688330333773
197.57316272098 -4.5309757330715 18.3977617275906
-177.682602724692 -11.7830805542911 -8.80506461098144
120.579602917833 15.8846687515407 -0.292368709025827
75.8637255106543 -6.35880350247482 -18.5161347125064
168.734193360313 -4.85299752361384 7.59459709583986
-203.565457066524 -24.6838714321884 -24.1104436548689
-139.513247472918 23.5428410840892 -3.79493895122644
40.5084873123271 11.575995436766 -19.9286117484845
185.603939968232 -20.5115770775487 15.7555809287925
170.138094462721 -5.80748654905769 -21.3741160130518
166.101062453285 20.717755828803 -5.87083010092562
-47.6367153956398 -8.58137888223923 -3.13103806891241
-215.262289446196 -45.6082988347687 15.4434369531628
-140.88004576933 23.3355472869686 9.1023627417965
180.988636134272 5.19187445248933 10.5934606320985
107.342754046266 -4.06858149478992 2.82752303928056
180.063603500588 -20.1984765139835 -13.7680283247232
-180.208387719769 -1.77284715817935 22.1560229159771
-58.764463846205 10.1640037187235 8.92039824154056
-211.462195051267 11.6164752098826 24.8523105645432
-51.3670056251014 -3.26955898102097 -14.9848877242198
217.88751352063 -26.987035639694 -8.76234565900822
-221.158635814144 -9.08643133937443 -0.297588717458319
204.846163261403 -7.25440472927951 30.8130940315305
60.944955131324 -12.5023151750194 -12.5895998893044
201.610988588972 -1.36889114877315 -24.3110515681819
-234.145011701809 -41.7107854232206 0.928691301826976
69.4432507600258 -6.0310625051967 -18.517850303141
-198.446434928368 11.8149564004113 26.9135011503459
-140.253608983082 -6.36851479024444 2.21997462841441
-149.537991336937 1.0426775222261 18.9995369527983
-123.036292366408 3.13321250083548 11.6870347620405
-150.510430785028 -10.1067538593293 13.5188414833492
125.754907660096 17.5431456128611 -4.14799907984694
-151.901942352388 -8.38452436226511 -3.43190893730344
-89.3114788555593 13.0559644521166 -13.7857944241533
191.43157190639 -36.1884655228925 -0.437686981467882
-128.461330314112 1.47927218242187 -10.8741075963562
206.664445466564 -30.7865577429723 -8.95466680055209
202.113899634447 7.0532228676795 18.5694476683093
192.9216229927 -4.14761448978858 -23.0257395341999
210.513367227812 -20.8689067185108 -21.0426170727035
41.5641865954346 16.4863457746292 -4.74452271079771
-178.004034763219 -5.52269372152807 20.4205941228668
125.887338114073 -4.93307575780474 -20.9894368153769
174.437908630733 5.71440239386742 8.97577763478288
164.34576126754 -9.19938573305355 6.79264733130565
-216.972364456945 24.20238776757 -9.75852413758088
70.2618564056957 9.87242262696333 1.3235074705254
-211.083059908088 11.0732151314245 12.9814077162797
-186.617587002662 38.1682070744432 7.83046773821522
222.266317848809 -13.5695251379523 -16.360460369509
-190.057825483254 15.083625272318 26.4790313515859
-204.692050761709 2.89585068892415 -17.0565046875512
27.6920685019493 18.3227002431859 -13.2527708294902
230.761175568775 -32.1533775772971 18.7087673099752
-197.792257394306 -24.8106096078504 8.12852295553862
-11.8288336683432 1.05721467409508 6.29605881719147
70.9708157684021 -0.113262773774325 -21.2111268021955
-64.0287880871722 2.01274252703782 7.96102914517274
-190.913035555894 14.7231570264085 -14.6503926737209
-161.230475441478 18.8700950631771 16.6011534076954
199.305912042339 -6.85150230690747 19.3523238848776
193.264837762322 -42.3044734268832 14.1704524145696
-19.8121514737613 13.2332627357361 -17.9652529420615
196.735845813498 7.24389740215434 20.0035101903317
78.8449880220564 -12.9285024243641 -13.1439805886677
-169.904721610776 -15.7456748016383 17.3886967060737
213.366455913318 28.7936215867929 -11.9238022152316
-47.7212987380648 7.86592624297948 -18.6928012341144
186.088754070009 -29.6683971282264 10.1726234757203
-166.956523887246 -11.2066272168483 23.9822573648399
-191.678989723636 6.08345158161121 -15.2297886566102
167.139097043604 -18.0666333524469 -12.2969283935155
192.343740397804 17.5507686392915 -34.4836343095023
171.571523384227 6.09743932451016 -24.0341071473576
-233.339892056853 -29.915761605794 -16.3027319396366
189.083447336696 35.1779894437692 15.3743944179918
-90.9989851747266 1.07082225228824 -13.9927042975307
-190.846321233179 -26.0966670744896 -10.9812792619675
-190.246988674306 2.29126260329589 18.7115666359122
-142.268059634603 20.452057869573 15.1301022653338
-210.339272039401 -3.4422198180825 3.72734189580947
-194.390394263793 13.7447322369376 -17.557370460373
-208.307684076511 20.2020700649508 -16.8352110942894
171.711018994475 -13.1039223202066 10.4329647895515
223.743959020926 -31.0278373389884 1.08288363652115
-209.54715786658 6.94739613374271 3.08258632331695
-128.193661671195 18.5468936585377 -8.15883007371498
167.943454462673 -7.53591618302808 7.58296647430548
90.9328982208036 2.09636694256546 -22.3985552633939
-179.511747522659 6.04352022244595 -10.5621381571705
-209.875011193342 -49.2698469311079 -19.2618932805721
221.603722112732 7.79750950505284 -8.44672610858451
-148.011799916235 -5.66548160565329 -8.97715361908422
202.258374656794 -25.7497833339043 -16.220029292143
-17.1151197030422 -0.430620783144213 -19.20936357503
147.588266248048 -8.74078980326691 3.76222358491576
196.517179397962 -8.30291724561546 -24.4324865821297
-134.578019126372 11.9567984152803 14.3366450752081
-162.215265967225 28.0195052014055 8.08358635908767
-141.036258713015 15.739031146014 -8.90188108694344
205.317657796187 -6.10760537693826 16.0237257650143
222.974178224678 13.7945929398988 11.680782311645
201.992661872979 -39.631856206557 25.9900160454248
-224.599289282926 -30.5976879243055 -24.4834540976934
5.88741034391112 5.66467619319754 5.79947951941755
188.070593519526 -22.2989245728657 17.8112592006474
47.53611562704 -8.89670503557505 -2.50734099262665
-161.198975894777 -6.66113024067284 24.6462481504885
-195.781023303688 1.98039491609601 13.0775260075984
62.4976833657791 17.2548998509905 -6.93667121888913
-1.31578803257059 17.6855355216629 -14.8766838203515
135.67957454748 11.22529938565 -21.8076175696732
74.0192535666105 -0.21190060443625 4.2088737895388
-179.607055261495 0.791756239712688 23.2896193075033
-147.103171682265 0.574081674463627 18.6831164907543
-172.15564414516 -2.72397428270624 23.2167746619123
-196.940575718806 11.6622566283954 -19.716793241603
123.211522520498 15.2943355380737 0.608518967819264
7.74604785511388 18.0368948689064 -6.49635000211623
-206.043460977772 6.03306380798931 6.95454210744597
-212.885207410851 31.420450923422 -4.62877627780346
-23.6030553671107 8.20660153879878 -19.7477320824337
222.444983908264 -1.62414102553631 1.15801276024504
-118.194382031495 15.6728332987064 14.210051476965
224.178694504459 13.1163537631893 -5.2040130657446
52.58800926566 4.30471301652635 4.83251940568497
169.609373945144 11.1918683360001 -24.2590645893727
58.2614453173716 -0.590640265853036 -20.7021263189329
-174.820661953705 23.468322172101 17.7121833584721
129.735679211535 7.7360676342877 -23.0997075050935
196.084793329385 30.6455019703614 -8.96121568339538
128.051780949733 -8.66889700251043 -19.2617858273527
-116.407997772655 13.9993114912016 14.6252886801439
35.8443487866049 -2.23220682930588 3.74997980253877
34.6630835677131 0.882296094438327 4.57456944144739
-148.815009652455 20.4111586612171 14.8990239360173
180.345117670248 -23.1704416929734 -10.0755861018273
-142.90400879505 24.9729416361438 -1.51241742519519
-140.680197833135 24.6635166799341 -2.1924871830461
-216.007235212301 4.84068118801417 21.6573013161303
139.681994768229 -17.1436592849995 -6.84159787329895
-214.5105201873 -0.558718307929734 -5.04245172775771
-201.33529978437 1.65763293409734 10.5304343454527
103.49678034551 -3.31919091209158 3.06147267241411
-223.142434955787 -28.5284259699024 -25.0913100526746
169.745804497003 16.4712830708897 9.22927373319092
113.538225745298 4.58202894162076 5.35458200583052
18.981622369817 -1.64095005492167 -19.7078106374561
-180.848879640905 14.6191694484799 -10.168052134011
-119.659145456672 24.6492917795516 0.203804672963421
-50.4584364073291 19.7355446299577 -10.4158821794233
-182.962513436274 32.6450557019209 -7.64842253832603
-191.339372032323 10.8891699544067 -15.1845676176553
224.905817768515 36.0747176435891 16.3637786747846
28.4259663049184 11.6537765980263 -0.213399665771781
215.566477241403 5.63491881192753 7.89866913218416
-211.772053139106 -4.07788061862969 -17.0728037574591
-233.849898660456 -19.3933666797609 -1.56703079690137
-232.224491499723 -39.3420400065567 8.25083945326022
-201.54993923367 16.2074359885598 25.822197025554
165.328756904004 -0.0308155803220881 -22.2996599577036
-60.6548113188577 -6.94915992168306 -1.13551327223108
-117.237459565441 -3.23189709198197 5.57029358636547
20.4240084090966 -7.79975863778598 -1.52160300463236
-139.684648591949 -4.29637871727159 8.22383576642515
122.27231404993 17.0051288755267 -14.3695751962283
180.057178177035 21.6337429824892 -16.3322086550916
-178.334406405935 -9.35830651016311 11.7936103804068
-86.8305076459034 -8.10995547764169 -3.91826324967293
-130.804531963534 9.57438490352706 13.9368904140278
-106.79765142811 16.8261721957657 -10.22529641535
196.088831915378 34.0591290803716 27.7181246971035
-178.443953326765 -17.4373584432811 -2.23666328865478
-205.486150468916 30.5135103555911 -10.8578849645192
-209.182411647359 -10.2678088367918 10.1693327602447
183.833112475567 -19.7689767946445 -16.5065765842563
197.795912371154 6.31716152346938 18.9545180236782
168.670440386341 -16.7138321393777 -14.2343227330446
-188.523345103279 -4.73974305355244 13.9828694228457
-72.6260919684982 0.348699138350353 5.34120888890792
-131.915948623735 -4.50516055238481 5.22460262153181
148.319612479229 -17.8824827081109 -8.99988776740781
-198.60980174772 -47.4523066758954 6.45005679572127
222.374018729622 -7.27526590427958 -11.2727727812688
224.768400961154 17.1127624558499 -8.27087410078973
-186.727586163311 26.3745524882254 -9.50163539868267
