118.756149597459 -10.6995773982748 -24.5501365950278
231.68458763814 33.1779021034576 17.7134194783625
223.225866264127 6.20695214418623 -8.32109332214331
-188.420074232975 18.0362514495818 17.8926146057659
-52.2035423061475 3.70363034242303 -18.874041156099
25.8288357691597 -9.04606750117679 -25.4101613668795
-118.310749958554 7.02749199717044 -5.47484300779901
120.273126342416 2.85643194282398 -25.998403042661
-227.422984860485 -17.4267824221625 17.7025997302693
-137.741856411508 -19.2789583034177 2.48995622635001
-223.143188524409 1.63444226136831 12.3688033078068
-201.536491652526 -4.59996519916824 -7.59773163813762
108.501613187465 13.1457086687718 -13.6030446643439
-46.4026689333239 -1.44578822701975 4.42577972903342
209.106697331075 3.6565966846688 13.2306544164411
-11.6346914071132 6.70788236724646 -14.5202015160257
-193.112067141762 5.69629058030332 22.4316838545147
-223.237123033855 44.2518479007277 -12.4094799084146
-240.472927680557 -22.0710854795495 22.6102092182896
-243.688462951282 2.96228015655832 -7.3677244025364
204.307528762291 12.454457014296 -20.0293523802962
-255.027525448843 16.6425230342919 5.09038898427361
86.6527457607629 -7.02191876566295 3.5505827383809
82.153868461729 11.2398459093132 -13.66695904967
144.814386728268 6.06415105782458 -23.8819865907401
84.6357768638563 -10.2224387458406 -24.8073028722081
-226.633913107189 29.6204286326437 17.411825393351
-182.337989138519 19.5137939320864 12.0223537793457
-174.318175749383 11.9782489595932 6.40607338851491
129.475284419692 -17.9853447184335 -8.94623629332858
10.4728535856463 2.35813910625217 -0.464528668187639
163.725321028156 17.1812100067036 -12.196135080759
-178.900011641656 -14.9732366783816 24.15488171823
-77.0882669143377 -16.9308358727615 -17.5784755784586
228.289095285747 11.9913011511618 -4.92699499865568
215.742583648267 -16.4709333812582 32.7287215141487
205.373297500911 6.05484200486611 -19.9743153515714
-141.927678191679 -16.8727794991597 11.8844315505841
-233.644977898384 -14.9549048996894 7.66426085642112
158.708185834074 11.2120114232559 -20.8406980516798
-226.250460726017 -5.61166605652763 -9.57020869564509
189.732012743256 2.85947393065387 14.2663720149392
223.936896882768 -15.5057812759223 20.0780086194203
233.458015186087 24.8676280258119 3.78905445698164
233.11363140163 28.9116221772836 2.76384932241965
-224.193988744817 -30.4291498854831 -4.11061643406168
38.0135161550502 -7.34747425451318 0.92613007233611
-233.086128962457 -1.18820752927663 -5.20921520737669
135.165015048444 11.4259131722851 -20.8505118083236
173.434861347283 -18.6426731603262 -19.6553217824264
32.017762608405 8.30481301913344 -17.9786597911919
190.031772674586 37.0247221663215 11.4311907132536
-211.724568613423 -32.9135116082975 21.4449512143303
72.7453624849461 -3.02557696770723 -26.5622109406072
120.027616783555 13.2592169607696 -7.28023873422724
-231.847849646023 2.76895563786497 -12.7075996049659
-104.837714427594 -1.89294786742865 -15.7827219885968
-33.1322511137098 -7.01809018345716 1.21227898338708
197.152572380825 12.5952397204096 -21.0012569572039
-24.6396462013257 -18.2601578289641 -10.7703166956045
-41.7262549727469 1.66473706794218 1.61098918300551
-134.912251242576 -12.7984524445941 14.3365160738779
-222.343047061213 17.0933229579882 -23.0096966056774
119.113356143594 10.6669221814802 -21.1777219424747
202.032904263315 7.52279704700592 -19.245340413487
-211.337596414044 15.298732865 -10.9776901967857
34.0007365300368 9.59232299652288 -8.501498596798
202.059023522551 -22.3134491975177 -25.5370679561622
-238.910344550592 -28.4896693453017 5.44554947789733
213.804571990506 -2.16938548913016 11.8408947847716
-171.343197590534 10.272080734983 -0.0164190140319698
216.027990129109 33.2761559258382 40.5236698066341
-55.8752626795942 -2.84084741259824 4.95200958496758
182.598979302146 -12.3261023355143 14.1305930504131
-198.852987811225 -30.5831786847976 14.7841062392672
-222.97597421329 13.5397820275757 -21.7867010314128
-235.702349693616 3.20991199787609 3.30782663530638
-65.7305491556433 -16.5669304762626 -4.57392503482531
-202.629995799542 -30.3740246851234 19.9837037732347
140.442124689661 12.8351271945091 -19.3544338633569
-19.5192940836696 2.29148628936861 -23.1252193087296
205.520485405174 10.055892438459 33.2173269220998
155.929944069617 -5.05216794011671 -25.4934035158373
225.548772900818 -22.4076769450231 -9.41595285515645
203.283377850385 1.5066110624342 -20.1409497427451
-107.592786373402 -4.0068871045392 -16.2514609288122
184.2925306281 -28.7609280293631 8.18837655467754
142.126999598924 -3.83022387855651 -25.8499043444259
223.356841089158 -12.1650596482051 17.16805325014
-127.34969451648 -16.9486285381 -8.36122191303439
-151.300509385703 -4.62300591389365 -8.98134984331401
-186.632504654769 1.40195524639688 -9.10656469583547
231.609558665231 30.2979150284814 24.9940528650931
-233.578648472397 9.63740444291797 -22.3812925936968
-250.994310479065 11.9930871277868 7.37331871750717
225.758848537874 11.3622156947293 -10.6604253154163
-67.6757254544317 3.22136990402772 -1.89790191546722
-12.0482869174328 0.217953973927507 3.73482612739101
122.327958138284 4.22659475496359 -25.6481116642513
-242.426076857185 43.7858660492154 -4.87612651123445
-242.085526524791 2.92087955059524 -9.85350211898062
87.1878630213052 -11.9749549250427 -1.15111507947355
-219.032492769468 37.2705105934314 6.12354838126878
-246.146931119572 43.5599061667864 -0.112403892205609
193.331686650114 36.562356077036 3.51509254922011
50.8713823238693 -9.56750885432572 -0.685459320836302
-227.720933097534 -35.329419453358 10.458447957365
193.61780693301 15.0994373717879 20.617092220628
-48.0055982840115 -20.3425076796675 -13.7176232889415
-228.001985975261 16.5600030939648 -25.6410213361457
207.343847158012 -10.4217577196045 31.6695706909668
-171.247419916723 1.70818367391425 -8.99527610926087
-108.482570557212 -19.0645037442261 -2.51774843114138
206.789188066203 8.58783164829086 18.1859613276942
28.9992573870286 2.39877150181839 0.0281591170233295
-225.860186398381 39.8273734808572 12.2623837306529
-248.626859120379 21.5887341886535 -23.6475300195542
181.010984063831 -1.58924960272486 -20.9740789573879
1.82022506316506 7.39077561844523 -14.8035882539805
-239.706251211842 9.3641797039097 9.23232395852116
-82.33846824958 -19.0594795517818 -14.7040875729521
193.304954115359 15.8087470144095 26.4454197864173
-222.612146833426 -14.3450205911399 17.0571030619068
-230.801290927288 -7.94116689743672 -3.56936395754887
-190.78130580008 -27.2259311092153 7.26934766462348
170.649646167909 -22.3691543356587 -0.408441576734635
-171.218666522751 -19.1206314444724 17.8571708816726
-163.191632988578 8.06825652403601 16.8464922871799
-226.601618117437 14.6477071476939 -24.320968019888
-170.062679278039 2.62420069157972 -9.27278520704852
-205.971272913729 -37.7874195014704 7.08771317096718
-73.15287803896 -10.3220792645765 4.57400995325901
162.563578223168 -20.1443837918617 0.472276091557949
-47.0113722411132 4.07771408507314 -19.0388498296087
117.483404069081 -17.6633894218648 -10.8574653315534
199.793765651937 40.7110369042145 6.84239063952903
-240.735655509941 -21.3835235451517 6.94362440163118
-173.792257574654 17.0367334702895 14.6096831736383
-242.931101823369 21.5137956737589 17.6640371513414
2.16434289231875 -18.8967392904097 -17.0504512472525
156.759705325494 16.8485244797922 -11.5313572060508
170.804469648881 -17.4844436875786 -20.7166860140613
224.189916930303 -29.5233255870819 -0.795359036094997
-198.498946698709 -31.3407580832936 9.88928225410825
218.811696855449 0.506916425295145 -9.87321493807592
-131.138949865044 -1.84584205089876 12.0906244618607
-187.392250994617 -18.6447123904627 23.4281383419895
110.774954034968 7.66233035236759 -24.3072692852958
-182.040301959107 -2.32343649677989 -7.66243001557978
212.389178485004 36.9917480229188 26.9640448436381
-112.448407151142 7.71519530419964 -3.13029128669955
-110.105868612638 -1.71989781066832 -15.0016829753309
200.82736657425 -3.56189733802427 -22.7075041536482
-246.543993497689 41.6067630280802 -16.8563604005819
195.54887385676 21.0582121360098 -18.4392319491299
-200.70933472298 -11.2454775109385 27.7862793198772
184.573905770729 5.63755582731242 -20.2783426920459
-56.2674447319552 -12.6701548375053 -21.9990310334657
-232.203519381019 8.33049332721691 10.5449756303733
209.950334317197 -29.2961165540846 -10.1729462167839
109.023097251081 12.8072846100574 -15.8520313710351
41.0871286550305 -14.2764207777138 -6.74358021692728
102.577967990977 -16.765793163266 -16.2928962157039
-219.796574459136 21.562528446339 9.97523031948457
227.432827457061 23.0969051148736 32.7126911828105
-28.6720257343132 3.83809235805233 -21.3512114021843
-42.5269107816824 -2.17380746802916 -23.6990437976056
-191.331017900869 -0.761818230108752 -8.66269236326847
-236.159430766948 -22.1134404559233 27.2363124252713
-252.393800123534 9.88449928527265 -10.0987118480515
-234.993361657691 -26.367181314612 25.4597992517503
33.6526319049635 8.11424702333353 -4.6807177307366
61.7800005400666 9.50936961542381 -18.1368851096788
-81.8896460674409 -12.7467441481681 4.17128116079496
-111.968778935993 -17.7513433609161 -10.8164106494228
210.252664631507 41.9477590173198 9.25854443021528
174.691965418167 19.4842653249064 -10.415767751543
-102.902075359642 -4.73821002890825 -17.1805992876166
-23.7067801904264 -4.12819234058049 -25.1897795087465
-246.150297947314 43.7458690858221 -5.82347604269689
-143.348616423191 -13.2330759493983 -7.85377905237949
-152.808713452254 -8.66857514980898 18.9284560418428
-55.5374885527307 -11.2456993845741 -0.315494231176807
210.779709693107 39.0382930526944 24.9377302020117
198.135672272475 22.7336571484309 36.9968436501529
-35.6568924531165 -17.3386643724263 -20.551242022733
202.523542417462 -11.8822869462244 29.2191309907687
-124.419543693001 7.16617196823834 -4.591200764631
87.139016091279 -16.9278341138055 -15.5203796276296
-7.92981570465029 -3.53903085558759 4.05491606082074
216.483366594454 39.1422771415045 17.1212920141556
61.2649736133408 -10.9169965857122 -24.5334442714821
207.680905272725 0.905389307626977 14.7997533602006
220.27262000793 -31.716951129958 2.81718405954805
-101.657802471248 1.1192226044733 5.36720213245695
151.70504408169 -19.2686982259312 -10.9272252976706
-112.346578951232 -18.9815427316377 -1.26996396643079
-208.786833209711 -10.6866451669129 -9.71752964507072
221.278216289568 36.9007381078397 20.8029569198897
-172.240203310975 7.46766257287498 -7.78892159176566
-242.859596033081 -21.6576980056982 10.7581413042581
-192.386000988133 3.15859013213771 24.9708584270975
171.617946933616 21.683657862937 -1.2857174461082
-229.664033886138 2.10258573329938 9.0494453096823
-235.265239020907 37.2235189141552 16.2414157322463
58.64376376451 -2.98997150848217 -26.4022608910508
-152.449627423669 -12.7785894944125 18.5559925783997
-226.319603604664 -20.1359339614807 -11.7801067865064
50.0390701617675 5.79741728940043 -23.1445250639661
106.611222562279 -10.659552175956 1.88037354831001
233.442062176395 24.9189832127293 18.7785726054774
-214.425139686529 1.99625163062851 -9.01905687627448
92.575786596411 -9.65410080951613 1.56045548840258
-106.960572988121 1.29609575161192 6.04664897726981
-226.228471784096 -3.41960138512827 9.55199712816986
-216.887281187068 -9.3684826418235 29.759481356049
-221.466686869497 24.0370590344905 11.863100895131
-234.797579085341 12.4474749179488 -24.6867538847277
-30.6204355089604 -15.5443365110075 -6.68144265356918
82.7668827294145 -11.5081997073086 -1.03425199060704
-34.9292386481908 -1.88124753297931 4.03074149356512
-131.410718799421 -0.473774719844277 -11.1701068286817
92.3564775960639 -3.11453059350754 -26.7684853055423
-115.935202348247 -18.3062789148724 2.04870824697417
-202.980187546784 -15.7158337043132 -7.18823409754163
214.499337922322 -0.397561494029461 11.2008798979861
143.033515080628 16.0320257904765 -8.21957435915189
-185.573076356476 7.62505013460046 24.7486915075528
-235.594708396169 4.71149685536293 -15.6406671738115
193.288048875467 12.0322075463451 17.465029446619
-173.66525481517 12.3382011693523 8.19716496259631
-206.446584344788 3.74616082980847 -9.13703076232421
-223.831410055263 -25.8046299562892 -7.46402826623297
-198.004412409745 1.97629124185405 -8.46768916794305
-240.023590169181 -15.9372749021134 26.82943627528
-245.202822360769 36.7720426487363 -22.1513914083739
-237.800577314127 -15.823484972593 27.6348348092099
9.99550471240979 5.48027508567615 -21.5788620515363
-162.540886144721 -6.30073372370965 20.4639760024121
-40.9129695441866 3.21396374233808 -20.7062544465209
-202.038784134176 19.2760881941209 1.611078975574
-113.999271642233 -19.1829789972926 -7.03861784882585
45.7162274889448 -17.4120399255492 -14.5318204256436
-22.0851379060122 -19.6702968734708 -17.4845470422549
199.569668909142 -30.1608098239431 -8.61167584234184
194.14771876494 19.8008157416074 -19.0208415557922
206.488230175926 28.3859545567129 -11.2428721609091
196.094150475742 -3.12228110483924 19.0119631082885
-257.548748322203 18.0922768320298 -3.015189321035
206.894359298612 3.89139847396595 -19.0092948228453
-232.58571224678 -33.8223080266416 4.3473666750923
111.090765849873 -2.82103494310019 -26.6431034351632
219.163830674146 37.6787927562022 23.5296141424881
-133.817618511166 -16.0437586115881 -7.90363210066025
-170.141557090731 13.4663515815491 12.4712746180358
-233.50638583979 -15.4771770952101 27.6540364830779
-184.586458592186 -10.9119526667817 24.9293917491105
118.293723485902 -0.249207940610487 -26.3495117562688
-194.80333881916 -19.8003717755829 24.4624854423909
-74.8588604723826 4.6171719438933 -3.57179351820415
-171.718700173239 -14.4255781214599 -3.43430251956874
190.856862144061 -16.4388344225518 -26.5574862175762
73.1020988019198 -16.687109195311 -17.1352532535205
-33.2990256244182 1.5505397886864 -22.7555124251519
178.652869713727 12.973327719317 14.3317751387692
-210.184588592317 -37.0123543163293 15.4587118027915
-38.4415359858402 5.12162610776904 -9.29986414713489
166.301698773895 -21.1360626133818 0.28420618557063
99.6946473707373 9.4615105554505 -21.8828671931086
198.010660446182 20.193887361734 36.1947796254236
155.474517316657 -7.94359388450692 -25.4997225982212
-243.409199895478 29.9364931076131 -26.4017065960111
32.3361497854634 -9.66626622967104 -2.22013406105651
-230.005516927525 -35.1994614408478 7.46960948208371
222.449794922339 10.3954307980525 -13.9425042172338
200.654933735262 19.3852355347124 -20.4642737130865
-239.416285128809 31.5391350674176 18.0696315303001
135.614095860803 5.05002301715966 -24.6930020165254
-127.284762774797 -11.1118014973115 -12.1504527626723
84.794989853227 -16.7505975600667 -16.3697300101993
-235.77496116815 24.5448929886977 -28.490037677364
129.675926027745 14.4406997294793 -14.3263028166029
180.722061287722 15.3366390856471 -18.0492022955729
-86.1138832104967 -20.6020562714725 -9.99074055325737
-232.478418940323 -2.1863493626406 -3.06394053797101
193.72523869417 3.7814894920332 -18.9388763976961
-200.573914895661 1.20512674728617 -8.39978657217797
-248.582898778917 19.3032109190188 -23.1537573783
-232.54821317533 11.2772486636681 -23.5786733000252
215.115412627141 36.8483716607046 4.63337958807226
-200.566752849468 -20.0175527741801 25.800891197501
171.710214035688 21.910432880921 0.85236370500677
-124.360433997279 -10.9320382757461 13.0160121291445
193.480662886766 40.6016533318999 15.831433911299
4.3487609765903 4.69143347780649 -22.1516028097746
69.0658391724616 -3.10393868452467 -26.5474743967218
-186.826399819237 13.3842399756742 -0.452861835931349
16.211946632105 -5.22838398970822 2.6654170039606
-229.975347568191 4.47090640406327 9.94696454598934
190.339525789316 23.1831349071991 18.1816235618912
141.365897234695 6.93366477715786 4.97731600507463
-242.062503890846 19.7355287432473 -26.6591308464937
179.647832605602 26.3806971342341 11.179444471475
225.94931324927 24.2277540469084 -9.36146629135007
-247.918796612648 5.15897597848672 -2.71016300027755
191.02215966343 -28.6205237067713 -8.44640940227605
-228.82998223003 -7.1191935003585 -7.05932705061731
-192.234219407654 1.41160832737009 -8.78301714161248
-132.953305554218 7.79036260322751 0.502912161603046
91.1663143456437 -3.76474734800998 4.00500161000467
83.8101050586297 -6.70041364375492 3.54838336168048
164.546068015081 19.6652015721428 -2.450957545573
-249.018372423376 13.2133060779018 10.9111371600706
-247.311353442712 12.3274199071961 11.7482661507075
-86.2883641337606 4.33529056408661 -12.6019796787927
-147.997015381576 -14.0875206337451 16.6349292300963
77.8296680385001 8.33133812504081 -21.7490875527217
94.4560653956514 10.776515651948 -19.3317161282383
43.4106211678162 -17.19775998244 -12.712242850579
-249.924073000166 41.7154945917901 -8.212492641523
187.137199464676 34.4960138141182 12.256522688073
222.630431297258 -36.1866953918055 14.1321538112114
41.0650149480203 -8.49777994925197 -0.11881086862137
194.622511902941 -15.8815040641067 -27.053102298222
199.955130012822 -38.8193026603767 7.93099797547207
162.294973785257 17.6258648023833 5.75547396004658
-214.018771815515 12.558046918368 -12.2517820666408
-238.381975623423 19.4076422667128 18.5360588551773
-213.673536545834 -5.23550599053909 -9.32777521859654
14.8163208158535 7.84463897705255 -17.6945473311235
-234.482289306336 16.2267458689003 17.2112216629392
12.4786023435332 6.99278072343425 -6.68336863771431
-233.491278663799 -28.3671027823288 -3.81932335043433
-192.271168353977 -1.38402523149892 26.0856170108276
137.562837932732 -5.07157676363026 -26.0564531173632
213.6353044398 -17.6739105347672 34.5456521870411
-226.69029935281 10.3851736091803 -21.0815277634407
-16.3911800321034 3.92289054404304 -21.9377018553881
-252.683085857816 22.6099177718129 -19.8467699117665
188.564862010243 -28.1185328759281 21.5452448000905
93.9307304206275 4.2282377497024 -25.6018705482373
-180.510013059752 -21.5312005909883 0.512872903344859
25.2273488162443 6.37142183288889 -3.62431386188372
185.492246125529 22.5797330577063 15.2839069238285
114.744177633884 -2.43870485680026 -26.5266441428446
-124.932924430364 0.00511149420434659 -11.8921915837783
-110.751535248849 -19.224299533426 -2.8708019275624
61.1614872062687 9.97308638533778 -13.1852493113693
16.1657431162093 -16.6895297338997 -21.2821737892451
179.125180519841 -19.2457302206593 14.2407947304004
108.482011253777 12.0871811410847 -17.9400192849711
-82.1612808498367 -5.15326729240727 -20.130667561373
-247.825759300164 12.5014197005589 -20.4163980734347
229.331450081484 20.4538488925368 -8.1609251537871
-256.413619980083 14.9358617642144 -3.02936032761386
213.9562168622 -29.2381365510405 -8.23691866579049
-221.829707845347 -32.3028673829397 22.4771179955557
-201.738034419474 7.00100335062918 15.6246767548416
-248.872762671285 41.6933751336337 -2.72372690487989
-123.049653823731 4.39592235867005 -8.98327752783937
211.588064800487 17.1985310422544 -22.23412466442
-218.229349626604 20.182225693403 9.18392316180157
27.623080129256 -12.5269231004345 -24.1031132516202
-228.273327601341 21.2190070458219 17.8167668163218
49.3031838280572 -2.87149832568269 3.0791397233715
216.118299680414 5.36994529870165 10.7673917579908
203.352643730156 35.2992922899517 -3.19911961941152
-170.853691453372 -8.29760371521283 22.5462885514314
-238.662519823255 -11.2327276759817 17.1551506175039
223.83170662145 17.5542260056145 -15.0073061699031
-248.453204695062 42.9121347599804 0.790835442641445
211.79051080696 -28.3536032299865 -12.1806673048035
-196.337495667088 16.8746448645636 -0.376265662904138
89.6956500465802 -16.4809166431924 -7.64696362044653
33.3483504226819 3.98676692709979 -23.9243696919956
-232.844915983042 -8.37844877117065 4.04400068752184
-124.543598029236 6.01805906585853 -6.956238884631
-212.490483649577 -2.09169158724767 17.2386595508519
221.454355542709 26.460530361062 38.7516381279555
-212.388349895236 3.27596490055653 -9.51481647752409
188.578931139357 -15.7612231931752 26.7273400679565
73.4672645772392 -17.135509795093 -13.4257604189976
156.194318319964 -17.1367584778726 4.24984389475869
212.700586823029 -8.32807161671126 23.836237393965
-57.1908907898817 -20.4642310120685 -12.4297720843536
-14.5610623005293 -14.1293150316096 -23.5150128434505
-190.028867548369 15.1131047312486 3.67581760226303
182.741110422827 -27.6751884492437 8.46088675276191
-220.575306330257 14.1114854414818 -19.3623012361163
-222.789458255581 -5.94178914873518 11.1567191707419
192.509988924312 9.50617189660557 16.2465119255218
221.155552997424 -34.8480086496837 10.6181689610443
166.645471243283 -21.3044942670239 -3.17832311507145
71.6178644265693 -8.67614385666383 -25.4932831468037
96.4579238362354 3.20133051097721 -26.007981585343
-234.495290456928 29.590604986503 19.030815233924
-247.709893649959 6.96521802199273 4.55595944134292
117.631229302002 -5.97472621657217 5.38435614975201
147.473257785519 9.01077892296984 5.49689093266238
22.3652596473793 -18.3874944937583 -16.3479772091544
-224.307413282061 5.61907343378339 12.1750684225025
-20.9532609009328 3.03073408449504 -3.57453805594193
-145.703567601785 3.32811194899119 12.751237140296
-253.800267159125 18.0144737678646 8.09544781552584
193.661965254327 -37.2072217192601 9.64097627255791
-89.686006463803 -8.66188613711345 8.87326255719948
191.55342733316 -34.8100668214554 15.3849043623301
-116.010268022729 -1.48429590726617 10.0409189359651
169.734648476802 0.789338336020881 -22.797272932041
-211.354506042541 -1.4842186803804 -7.96610690931849
-59.3798452329028 -8.74764974960762 -22.7314713349852
-167.488502782782 7.12734607080307 19.7571596255144
194.029326705229 -25.8121779984043 -17.0442016527761
174.42260533877 -7.39113536017999 -24.9433772055975
61.1388054252977 -12.9986729239897 -23.2899823604324
11.6394699554807 -5.30871777656832 2.35651019120733
-216.662872768124 -5.92563812359055 27.6956742349075
170.408467446974 11.6025054357156 12.6195477088425
-79.0856203297851 -0.895523418622712 5.42548574617846
-217.800838449428 39.5834331563687 0.928724091743391
227.139359262153 14.2816479022183 -10.7796476142349
-257.676138898469 25.9856142051379 -11.0319690475115
234.025948003707 26.3750444941756 13.2920689163131
108.378973417522 -16.4467568036539 -17.3952924073568
-61.1057125629979 6.3345595580076 -8.94874723016416
-216.400869811711 29.3859224949902 -13.2687104239546
-25.4916572744749 -5.55191648010151 2.3610676642679
-143.016182582316 -13.0360647891936 16.2102620260343
7.96175655794265 5.25222689988456 -4.85039559728865
225.901689265874 25.6156000545959 34.8696247982424
-199.352320464706 -1.1677397991423 26.4730310130359
230.520781435639 33.9541979835158 22.8289984202863
165.406880375272 -7.3307727372522 9.659506350974
16.7613730709054 -1.20890992765455 3.87844366609693
222.393235126067 28.7900360381586 37.8604014491262
-197.595493617738 3.75759870711244 20.3935059563716
105.860758857073 7.96503055685967 -23.8361333572102
204.360159780306 -24.536866947954 -22.3225793044228
-73.3712683641964 -20.6559933386226 -10.3679691476785
-218.940273487306 -9.23436884577412 -10.57044509709
-203.195052374888 -27.9466199198861 22.4375110595469
-70.8397311612601 -12.1654825923248 -20.8115466799753
-134.215949035879 6.18363930183475 -6.73524050716732
-222.537941570788 24.8571274837502 -24.2509619280685
149.524761002286 -15.3701245078269 4.92109368065951
-212.576450406862 -22.3123067851797 27.9243769576912
-167.802289745422 11.1767133980086 10.0773995244508
-231.420366612974 5.93696803987004 -17.7861532763928
202.926348769998 -27.824654913998 -15.6659491135534
204.184417473942 37.6751473136489 34.517400239933
-119.845376800303 -19.2397590727875 -2.29767480413247
-61.1707498862876 -13.6634857954789 -2.04730799693833
-237.604514295421 10.6458404746762 -23.2662718052073
211.811443141073 12.5315100957783 25.3298308831252
-119.952808041172 4.83803175752833 3.8707189264174
-54.4392920169636 2.5241589160157 -0.92120099807837
184.783805856805 25.2145741351405 -6.83488318093614
185.981787272387 20.4742602798706 15.262591809511
-104.72140104901 0.0182892213509267 7.49248278060892
216.754725115936 -34.6330441592445 13.282885267282
183.248131941038 -27.8436156472609 6.61851990007557
-157.106765022739 -5.78026443770845 19.1226244488929
161.146463438165 15.7180806118468 -15.0859476375839
182.851186056262 -7.78544062496568 12.9230527401659
221.487105597289 13.9925702590633 -17.0968876539392
-190.44290683721 3.93584087379745 -8.91125819613118
-80.1146163829617 -13.6436634469512 2.34381368031609
-53.8210987452773 0.828529617163567 2.7581562972948
79.5307956258269 -4.47161782004587 3.91282774804148
-86.7897441148957 2.84040784241752 -14.3932055394493
-215.655889523175 8.89451626899601 -12.0371721837739
185.177573019748 16.8943301915746 15.115250644496
-228.113121177892 1.27012273968804 -11.3694916786865
-202.713497387091 4.74306436913431 17.0784362630919
204.781572996253 36.1471964854783 -2.11684379941555
121.169438718772 -16.7376958994744 -4.65304028228173
-29.8449188023255 -19.8178882182783 -17.1886635591385
-119.605076444661 -13.1998306702617 -12.5777530792143
112.212367233824 -5.78678130492693 5.17960173112111
2.25655580220657 7.02604557982825 -12.7907163652351
217.748130857506 -30.7893918898894 -0.480303748711227
209.969142844384 2.67562201738239 12.6008284104373
175.15409740661 -5.84128192316912 10.7648325199301
186.101055880585 17.1849351295342 -18.1643518995794
117.921447575912 -2.86719478672515 5.12603385752276
-102.805840538434 -12.994661174363 -16.0892886442208
199.803973232616 -23.7197100861181 -22.3146737295586
203.900338020479 -18.8961674720946 36.4699290653665
224.268197467006 8.51727966300149 -9.54306102809535
-188.196425122544 14.2521650569173 1.85288705157759
-231.290450194814 -29.3634737198234 -3.84323861215598
-191.268095113293 -24.6887259401734 18.3599284454101
85.0014962879769 -17.14256500688 -11.6512964563309
-107.821028566813 -10.1945368350964 -16.2175930722075
232.122695030454 22.522385588203 23.7046919684461
-122.145934954543 4.69302802569426 5.22055348957199
210.674044970554 32.027510836364 41.7532664882407
1.54123562133739 -17.9546743423747 -12.684667611972
-73.0484533903431 -12.4401354230231 2.369960889848
223.517107549216 35.3716583641268 13.5268641695429
-231.2980540415 9.568356978752 12.3416821394226
208.602222137547 38.6482912960611 26.3181811562436
180.253336253972 8.14994480194489 -20.8228680167591
-176.291756592126 8.81689446864045 -5.31668940475562
223.293518188423 22.0437558004049 -12.9292894625254
-104.305331181008 6.97780420561992 -2.21397553275643
222.253905031498 -16.7585438158754 -15.6710549417692
38.7129624841594 -14.0215152375 -6.48221951653663
174.367610759233 19.7307512526731 12.975986098525
185.10323932499 -25.2872240730688 15.8029876219504
68.7226147775281 -14.3392489843681 -21.9756443350307
175.410095576424 -16.1486501933216 -23.4415148870675
-23.1106811537674 -5.39571468167862 2.4132962856594
-175.951835040082 18.012519943804 21.5403469446097
-257.826758934398 22.3269509520881 1.1403818247115
-92.7833759691761 7.4533014385912 -4.47408029109176
185.49698727284 -7.23809361534922 -23.479889628952
-231.854687820759 -3.02731474430335 -5.09991774227341
-171.83041612834 -8.79269800642859 -5.10945839790677
-17.3786252952347 -7.2794118029526 -25.2144189459213
-241.006620875286 -17.3554124273213 12.1365524086578
56.8692423108576 -3.1261841845356 2.96981348009935
-229.239094633701 -30.7568776263083 23.3891768397909
-196.412050269913 -1.65700847271019 -8.20767408109204
-105.166407383027 3.8771142059263 2.09600341318141
55.4580310112012 -16.2848260503198 -19.9809097493756
221.932511948138 -35.3451350715412 12.4373513527581
-23.310834727663 6.11500149600169 -17.2770092606372
217.128549863278 -32.4820860288326 2.99914191203364
-251.721811429571 20.638425793034 11.6691583667461
224.523444039043 -13.032597710043 -8.68361776298864
-74.6187147555148 -2.59088363084851 -20.4382523625934
-12.7368504890715 5.3556922417153 -10.2703269027561
-184.680305829398 -11.5705405279699 -4.24327038955963
42.8850397621004 -7.33551170844714 1.29996273865057
-237.886710826639 46.0691524334297 -15.3759283955105
100.916985342811 11.2355278851806 -6.85481345196848
222.959419937204 -9.75953696706645 13.9567330947894
-24.0543001596774 -3.05653655326761 4.0439634798374
200.590557582694 40.4469061638825 22.4343182037338
-47.4986289524354 0.142544217658862 -22.3318837735727
-244.966265063056 30.6372067921042 -25.4074670279
-160.51488852491 -18.8186485553401 -1.61627818995499
196.122025863304 41.4227781442725 18.2828143152683
-67.1991540389592 -6.12990762280742 6.0969276772394
-126.103029235457 -17.0091199296507 7.60354787686721
178.517816906067 10.6703917285901 11.978761657786
212.879639218754 -27.1855406300613 -16.1712301292274
-220.810679037163 -9.36923503091862 16.4786983311933
100.407001102907 11.0393036020666 -19.3715249973332
213.383768157888 -5.00932783535382 15.423153230161
-73.0907244703038 -16.3301036192106 -3.33939785431918
-239.415084929712 -25.9751351060696 19.7066315235774
178.476072368683 -25.4375378415024 1.71304428408775
141.178020304456 -15.9686388091987 -20.1710977478477
223.318672653145 33.5457333664041 3.92014060884002
158.455546487504 -17.4431539095247 -18.9960637266932
-237.55202398625 36.8202403934771 16.1902813309887
-257.91708980207 30.5520210317705 -2.36654376760656
193.240668682879 18.2788883058078 28.7013271805536
159.950893574602 11.9290272122278 -20.2270953635857
156.762961377497 -19.3688689869691 -13.2669374828522
190.042806601868 -22.9579439608333 -20.3150850442088
179.56784725632 -7.7789445707664 -24.5136983042733
159.684352727586 17.5696117442007 -10.1155637059796
-15.771890402849 -12.0413649844294 -4.44386518350178
124.343056002531 10.1726323521181 -21.9223663317087
34.2765418966677 7.70978874882961 -19.6938609119211
213.3524787873 -15.3153304143115 33.4454663587629
-249.297721115025 31.3937804364556 13.0884616923423
223.366884345441 -27.8071442137655 -5.93578073373289
-49.6401598274804 -20.0938606641059 -15.8352712722196
-21.6921569400561 -3.61841099131744 3.94543729440055
-129.251920344076 -9.53253928660418 14.3939382192697
-238.791813552659 -24.0005553036972 -0.651755801080008
224.64624603886 -27.2784715253688 25.2386310558256
11.7568461702796 0.991283185563472 -25.258696761704
-174.357062576774 -16.3838012095981 23.1267898519681
-208.905370333676 -26.1685437338141 -3.77846894577944
-160.46595045008 9.56119140265448 6.39766829895212
188.863061485125 33.6043821829791 6.93627661498208
-212.143699013529 -4.72930885901423 28.4082077518618
199.256079170312 -37.8877980436495 17.4573381656122
-219.013958955652 35.9857045515317 -17.2500482227548
188.326352348942 -26.9093959446882 24.9319942523108
170.318978418403 -21.527794901213 -11.026084897764
173.723404792454 -22.3159732181545 -10.1516524797876
175.704622710297 23.9254747431408 6.36164900229698
113.340969407247 -16.8195009738011 -5.96548359587114
54.6865505838823 9.4166971020519 -8.67080482045237
-28.4532825943176 5.75322845611318 -18.3281602492685
-248.604207027897 15.3000530155839 -21.5414082875656
-188.005729259467 -21.456327588989 -0.722569093921178
-200.563354074518 -28.4606545752936 20.2487899916706
29.9555318790379 -0.985075584369841 3.18660873017937
204.627811806579 7.45640530955609 17.9513016299254
95.4990355903869 -16.3849597453952 -6.70151406863435
-255.423678528596 22.4070325205111 7.26274555667743
199.061313956724 3.8626332365222 18.9082263777186
-77.4697083518186 7.38686539048182 -7.90589311031123
216.70412822464 3.15105489797702 9.85940244686559
220.705034845257 -25.074453294903 31.1653736202735
146.326625136012 16.4275749360616 -6.47250203079382
211.281638704757 26.2898181204985 -13.202480435734
110.634329410886 1.62928013278761 3.53395027816953
-72.1858476885922 -14.4292937557371 -19.7935317895218
-64.339867787881 -10.1066429280263 -21.9938318682126
-214.467627718796 3.91001583457123 -9.98505229794978
-72.1201790592353 -5.88339649041303 -21.5989714207608
220.445223045687 1.31771433815058 9.38108603794638
-192.731190896905 -28.1159724325064 11.4775539099061
78.6850617108466 3.7450474155155 -25.3261507343888
131.522518676668 -8.25397728940743 6.00547961825154
-199.300492510579 17.9232437952292 2.73064344541074
-133.430819358868 3.13560494282292 -9.70685736591076
211.98797672105 41.5543857994456 10.1954677778474
112.903640360163 3.88382224659572 2.74054584529787
73.2137925572492 10.6250771455989 -13.3715558778839
152.489751417139 10.6211725510935 -21.4882131595391
105.27990964149 -17.3696916130727 -10.3205473465312
-226.808192589891 -13.3639107453644 -10.1088301540172
-214.510339981346 29.3844691683032 -6.76343094313082
-222.513430793613 -12.2122881711627 19.5323556614077
181.10807139993 18.3677955885553 -14.9175953289079
26.9654415710278 3.49239433500605 -1.31581297049535
226.178581159004 -13.0935277510259 1.35117617002901
216.132039557057 9.75694884222315 31.6044026319029
-247.088008278821 39.4053022428324 -18.6804988793721
193.171845231615 34.2929908589096 0.0930567375213412
207.571886939874 36.047978777845 0.121203409517493
-138.782902338533 -6.10463318624477 -11.2095524979639
131.549326658178 -16.6706298215505 -18.1900936300078
-242.456065307391 -24.7613528228588 10.3548199403225
193.514875880283 38.0005254931823 5.82658419707044
-178.913489076321 16.0469925767794 24.2212575494389
121.610602772478 12.4230403155765 -18.6159196988338
-236.940823805382 -24.2401561498827 25.8316140902558
211.68973301812 37.579576471235 30.1054350845733
205.965434261763 -30.5054040109973 -7.70689014980963
-212.614930035529 5.11414363830132 13.8734772852676
-147.921583480217 -19.5089163046915 -1.02537881995778
-156.337499922921 -20.3909334582311 3.48862850398574
67.6815500553593 -14.4042374098902 -5.46094769117331
-2.76606910472599 6.9502816684562 -18.5674913878064
-222.50802440342 28.1557125933189 -23.6035882083289
-108.665477928956 4.83048423434944 -9.46751921447217
217.318940476064 11.7659198753056 26.9614340004768
-165.052518228857 9.03896986979456 -6.95159911151613
-56.0848926387453 1.42729869682214 1.73181873605249
87.9391004113979 -16.9940218172458 -10.0061194511352
197.352000837438 -32.7828989513437 31.6064282385747
222.775670860211 12.1047358741725 -14.9680828804316
-178.480543304387 0.48765650213859 -9.07973962599142
17.2235443511847 8.34130344098785 -8.82261631914567
170.945491929651 -0.151351540517693 9.13727446281946
-162.832810919549 10.1931760599998 -2.08265354212806
43.1346913077722 -8.20490571904163 -25.6226192270614
197.266727195857 -11.3379539658436 25.1884510658812
-250.929924458091 15.5281608228484 -19.5252198982685
-186.031176776702 -0.731255906280368 -8.97803912648888
-51.8141456659804 -5.71164899940049 4.58623964368946
-102.462553059161 -13.8437419671875 7.81735882938722
-76.9709806104674 -9.97236815275066 5.6097745042745
188.196393142998 -24.6891455017479 -16.1621210596739
-218.543029786724 -31.46312023835 -3.58318403119957
218.107094538439 13.223706275726 22.126623123163
215.881894013757 -28.7797629880182 -8.88932750560716
168.883933252728 -19.0506904109783 8.15109625237819
147.638023392883 -10.6330848292977 7.09202610234458
-20.7985810236996 -0.805454619550719 4.12522808056706
197.131735497924 11.4641475454962 28.9684879149961
-62.9847504158375 -3.89861892500398 -22.223953688145
-28.8330825476031 -6.86702297958619 -24.890279982993
-154.703516095263 -10.9946680592281 19.6824091632522
174.728744902879 12.4436762568618 13.9389821470509
195.101490054871 13.2684604651876 21.0644922209767
27.3203496614934 -16.9901701912883 -20.219026009782
128.576210445823 -3.4226070931565 -26.1634463163033
-231.314893795535 -10.0189321911961 8.06977596327302
-15.7801171978182 -15.7611191423429 -8.39145174899379
-94.0786627238802 3.76065255173356 -12.507200751525
220.699742048473 -10.8872447392769 -15.0611363091877
138.807093480159 0.996733784628849 -25.4295936814776
-235.983361059304 -30.9882224286242 13.2716691482984
83.5143370466087 -5.8506104033774 -26.321518437357
-212.872144272464 -37.1964759065781 15.3169125943878
97.5923912361718 -13.7938011058859 -22.0037581523771
-217.807219083359 40.0374876007301 -10.4399487973192
198.680016835165 41.6016794450326 16.7923847289599
-160.365960983108 -20.6694353456098 3.47874462862538
-225.993767996663 -17.898604632261 -12.0368078165899
85.0798150669066 10.4811532135997 -8.927125215442
-213.548431663867 -18.2175366860865 -9.29363499289657
182.301404943303 25.2700571848205 13.6371767097331
35.0472923206712 -9.32293201859317 -1.58337257209535
-104.538164996671 -19.9802967149086 -8.08226782836009
-123.666088576418 3.95453756340601 7.32853681447757
-177.634924569665 -10.0541908950892 23.7710299379759
-198.56818782073 -19.9557732305649 25.3119250648272
-5.88249706767873 6.90460083928527 -17.8123310929969
217.927498854964 24.1498867007945 -13.2368539562641
-214.160862084839 20.7010068510049 6.53033254360039
24.3474314053031 7.78997262370136 -5.26276983893387
225.015180049881 -25.2828574713529 -8.7090775364658
-168.045998994466 -21.1508049761054 2.27286321042727
-195.535585932045 4.14705487283121 21.8225089607678
50.1407532883249 2.22513074291265 -0.16402906211142
67.1597572816323 -0.279504807265692 1.89937677827214
187.109348326965 -31.4647913646166 9.23863360078138
233.114392144279 21.6322622777797 18.7862230895073
186.122595003532 4.56598839112501 12.4338256668479
100.251764528782 -17.3100435448552 -10.931281055464
174.711276250314 -15.2259801483568 12.2972863636448
221.961112897027 -1.65318912304847 0.244037708756193
153.70374882453 10.3992334975459 6.54450230288985
220.801794757471 -0.844259337556328 -6.32678867881722
-204.54501948783 -29.863793307828 -0.857418945837105
-194.526231607116 4.63019384971026 22.5542102353811
177.378239550719 24.8763751571698 11.0287269776854
213.167993882112 -36.3867748195022 8.21833519777195
-234.563428985042 0.28149653420578 -0.198775863016036
-194.441809311204 -2.16751247327593 -8.33813402292528
223.090060177543 -15.8396117341345 -13.9330012119005
211.180339235095 1.49034617542567 -16.7044523365502
-253.276053447736 11.5173915041833 -11.6644820309035
-222.192325601738 29.8711856244472 -23.1798763923122
221.440172033517 -13.9557263144336 24.2889650077168
-191.01586142773 14.9013730933787 -0.483948338199832
81.5333614642203 -1.77103647902878 3.4471229263812
184.015353180274 22.5603304583249 14.8039150647905
185.74515995408 -18.2920101088985 17.936366031043
-37.8004297241717 -20.0748837784942 -13.406689739178
198.014137995051 27.0611948282665 -12.1843913774325
-84.9366298225507 -5.37004486315794 7.52391512527438
18.9889440504874 -14.8725181220563 -8.02624958908616
-164.24698049574 -19.3626531024006 14.0859242645652
-93.7624495696809 3.52593138145281 0.648283197972625
-100.495442312133 -2.79434850392806 8.5258787910487
217.507435588475 37.2920246816797 31.757336250923
-185.624703598291 -6.47184733350399 25.3717307783292
188.926301381632 23.8044181129372 16.9454752467758
72.7993763748804 10.2281929742111 -11.0987986486606
97.8597138425357 12.237538512468 -11.3495160012501
180.298605797429 22.0292361142325 -8.72261526269321
-213.337887270124 -1.40044717851566 -7.98117765524143
-212.242393770977 22.6536234230142 -9.76466675897726
-239.24579531943 46.4500412755748 4.15183069662762
-162.042388578714 5.51995484603794 -8.12155489857208
232.476036833142 17.8069783175798 16.2796138510933
-163.412072955383 -15.7787240564961 20.0493713309101
-147.834025705326 -18.103409883697 -3.50052992986863
202.343934000198 19.2928025278699 -20.4172935208562
165.683493482133 -18.3033355091593 -18.2968758959637
195.727840390858 0.594242333527135 -19.2184335672527
179.999821650268 23.3215120682877 -5.87831059608766
72.032668282719 -12.427764340421 -23.6232036601435
-219.011584218064 16.0732889880545 -18.4114056074483
50.67605899019 -14.4639770130975 -6.71188874678935
24.2915256517027 -12.6084577837559 -24.0587513636877
189.247142110339 5.56349919501261 13.6818529116056
186.934100531966 34.2155759566973 17.3597199410295
-170.060614945238 -11.3992538240356 -4.58256070763478
-221.642496386943 15.219157191476 12.4980800491178
-200.502027402773 -32.0701257786733 13.4033442574246
203.293932080356 -15.745953075147 34.6579908823398
160.009992616695 -13.7193785055535 -23.5028752939526
207.343519474876 28.3398397464114 41.8639154040391
-159.67627877639 7.73214713031224 14.325961495231
-223.687467963047 41.8957996718538 -17.0283493039273
209.605757749263 26.0161608403595 42.1972262795714
154.137041892855 15.2653845878985 -15.3452353372196
-238.929823492595 -9.10426542675437 20.4171418804788
80.2494996946032 10.7003888767753 -10.9263891281681
141.646754366304 1.25697184557263 -25.1913293212612
-249.589068667156 6.64151745895255 -7.71290452216987
189.544226678771 27.8883755422728 19.2733021386896
220.532521872217 -25.8422882028585 -14.8257160285523
-238.184703744439 -21.902858706363 2.39166909599996
201.807773791022 18.4534454005988 38.4067722650792
31.7899315997277 8.3394073881703 -5.32635952024895
26.6625165182824 5.42765030939745 -22.3924560077293
41.0739617716244 -17.2871040505807 -12.9867077060388
-61.3984468618234 -16.5668144934019 -5.10146090926576
226.054440875888 16.2495673040353 -12.9065119650505
32.6866268382132 9.77960956616276 -10.1120938955431
-39.3584765811449 1.15405588261502 2.44180341132828
-71.9528339099657 -3.90744148197741 6.32790634163933
-194.326174412215 9.42013360837571 19.165150435435
204.249786763724 -11.1641099452585 30.8605153838044
80.6281655440635 5.63010928961031 -1.33100105052553
-124.885015002005 -9.06171076700236 13.6352171907806
-219.682286368176 -38.746879619791 9.13231623867103
110.399346333302 -15.2158632480563 -20.1670256140605
-249.751317091335 24.0079456198835 13.8934326266079
188.864014520629 -18.9275650032304 -24.7958588724782
-158.942815159352 -12.9614710640765 20.3387868366194
-179.632207877558 9.836460400049 24.8686125041542
96.0632486251806 12.1965098009512 -14.1610193334606
-244.611819238121 8.62147374725957 -18.8531747172967
-226.765705003159 -1.26182513922843 9.87992914509708
-198.717001152533 -24.6958709153784 -1.22093924300478
211.04471268873 39.7527300150347 18.6406145938843
-235.559879014196 -16.173358316343 1.09144323329971
-163.209755965608 -0.604327125535467 -7.83231188367562
-180.27592412867 -20.8027022498707 18.2844701571435
198.039413966188 -18.0573938843619 34.7374308107087
-44.4059428348851 -3.4301718286257 4.51716267327317
177.951163208452 -25.6757257692097 4.34993036854941
-58.9328106451006 -13.4497964567156 -2.08105610059504
-15.6683349833783 -11.3624499315094 -24.4572014598853
198.462813481859 29.3977860160757 37.1390980923192
-203.494379073739 2.47337516549816 -8.69996869201747
-244.669917784839 27.3772386646783 -26.1795237996018
151.470416891646 1.47460663335391 -24.616964698371
-200.300555345634 -26.4865592369916 21.5745260435446
-168.143322748654 -20.7806983597072 11.4275429545162
52.7475471141036 -13.2526171485422 -23.2823054693743
41.3321713984587 9.77281626506918 -8.82715342463325
-233.304289173622 17.428002506469 -27.29395873401
-238.568006107332 2.20993907483168 -5.45558001155092
141.514960147312 -1.59759241550847 6.77435600407917
226.730553200839 34.3307631599948 17.5794046362846
197.774231961212 41.0652298635156 22.933618065374
197.879516610756 -36.8851956515995 19.7659923841321
144.18752450947 8.885496289706 4.94457597411688
-160.574308445199 9.60442038907643 -1.29865886050423
-238.764582761908 27.8452553919012 -28.0388023991807
-39.9855239745884 -10.6606803912073 -1.71487280013778
-230.061145708136 17.938395170345 -26.9393134956559
-220.834909754491 -32.0099262307511 -1.33045707896999
145.356749353178 -0.975264494422833 6.94193987873114
-112.384205891462 2.37037613849939 5.72313511453516
213.88732455445 -25.3788936060287 36.2639086075392
-251.618353498486 9.0796395256868 1.23463657401208
-226.72017474607 -11.193120573778 -9.32662211550555
128.548918157871 -16.7569332091667 -17.754071690199
209.49236716233 26.2775566258284 -13.7176457180099
-237.964611786775 47.0776912537888 -0.426561165814384
-136.345022185702 8.08438226472219 1.00475556557219
-112.532801723231 -19.3658728649791 -5.33442158453613
-236.852253638137 -18.3073812367495 3.72541336622262
-155.999590710019 -20.0471469558145 5.8172986232781
136.854506740036 13.9189844209164 -3.2666450381022
221.598543813142 -15.7917947700882 25.4569325253603
-197.240492856871 -21.0563916036625 -2.73158310961396
-197.214085269222 -15.7832614692916 -5.42923773962375
-213.940549970218 21.1021277044428 -12.6133407353406
-173.487737072176 -8.05795006316932 23.04083140982
-127.617846991875 2.97199418860459 9.38939872386446
73.3033739197137 10.0957352616114 -18.3936000110124
204.279906980009 10.4353341447571 32.336694042908
-219.961127298892 -9.15205092948178 14.1062364825432
-238.101689802409 45.8882018573759 -4.25383504622773
-258.301184684409 28.951796793659 -4.09273298389389
-209.533753884454 14.4317356044367 -10.3446271471119
165.585018937982 12.6861587054538 -19.4586718288956
-202.299924880395 -30.5342233647707 0.981300150342403
-84.3376746497024 5.48427995206598 -11.6595048411097
-142.959097983074 -0.0544669726717096 -9.4788443747725
-110.25685589235 -10.5851736864871 -15.6817310285317
219.582081623741 10.4757109293173 14.945747869314
-220.919555123828 -12.6992099803249 29.2707633280548
213.434835026714 -20.5650805779835 -25.2114641382269
35.5470860168992 -6.49018122809626 1.6773353040285
-224.290217052198 -25.7802272543771 26.731276452463
-9.07949097214298 2.29519720841583 0.982414864804811
-188.853219871535 -26.2026677976583 5.40987353653444
186.91525367234 -30.1176203056099 4.32596260896071
220.756442699899 36.9043332963339 22.7639017887107
-176.117880623743 -19.2224211557876 19.3656898691332
191.39077118607 31.4483645177505 -2.88025672450723
205.479743039329 -17.4059210447741 35.8475759250749
-228.35891939693 -8.66238745293247 -7.40901629715017
169.800844511771 12.4575405177418 -19.6743719868299
-208.471487710529 -8.95346233324275 29.8314012911729
-174.40668593151 11.20243499638 23.3999785481787
-225.075537010928 7.89343429887665 -17.6112019848873
-223.83346486613 8.65758358106013 -16.2758071959202
-243.786625397867 -17.405623731509 15.7350268139727
-204.978717139092 12.9064497400395 -8.8897359059976
190.627918541351 -12.8579068398188 22.1584609418121
221.796387308872 -1.96644105041142 2.720580503166
192.033611766784 23.055778098262 -15.172292791159
-247.934617415054 42.9251718543079 -4.49651913581169
-209.754658854111 -34.844823560924 0.0886833365025565
83.1507344474178 10.9578368642426 -11.0857917853585
221.110882416488 34.1697785678765 37.585616006644
207.389420307711 6.26666614003795 16.4944977156247
219.301729347589 26.4435654800407 -9.68991880928821
189.542155470224 -34.2379618623499 11.8071829603693
-204.420666073032 -12.9326634329122 -9.0720909754087
137.541347424392 14.9733390478071 -5.51301803279787
-219.940651884547 4.84877726933717 -11.4824045924657
-216.682939035514 31.5045962439898 0.318492691460111
62.0561628815199 -12.6510479948546 -3.62022829812227
-135.279137434598 4.62553946196964 -8.3991851310316
-123.816593798366 -1.52609586841678 10.8675537432739
-247.154565922502 35.1025310714562 -21.9281557324887
226.551303156721 18.3887527796426 31.948199910324
-220.906494262137 -6.97401338207256 12.6608537156966
-215.160868158956 -4.34045299012541 24.6188827215331
184.308127691913 18.4754916910076 -16.1503048235495
-28.247436875258 2.32847327460277 0.585711641568007
-172.334515809412 4.68283625866229 22.1046792907256
199.137222765345 36.1862868603788 -1.52832236042188
203.424279881349 40.596028387775 18.6944743732796
215.861884083579 10.9200107907734 29.4129192409707
-226.159433137839 12.627907686437 13.5268260439631
-257.525677592747 32.2633257823784 -4.77835662177068
164.044652168564 18.1867724728551 -9.78479043096412
40.2082422703511 -6.66227065901704 -25.9418096749576
8.41623709175739 6.71554312217873 -19.9597628216775
89.5912293390088 -11.3294469818832 -24.1265228741965
223.980584665603 -36.7571726188156 15.7586069109229
31.0217344947425 4.64196339578306 -1.95762220439522
-247.557049913523 43.4766573450946 4.2619331071919
65.3657965600277 7.45965095337494 -22.1954778298441
-230.273410170215 -11.2253197734843 9.95038436953127
