-194.15149474911 -6.21544573096216 -20.335647245782
-197.082260798192 -29.1030588631008 6.89331377032449
155.323071899827 20.6931712877778 11.8733759954104
143.245860509508 -13.9491610843906 20.2990928476491
162.624578463851 -23.9551682979983 -7.67706761734412
204.823286320318 -23.7791692917173 21.3995564469609
-182.61810533001 42.9029958840767 1.45222382430358
203.00135479863 -12.2432790122551 23.5830406561168
-208.131231753137 48.8101679691181 8.84277194473857
-218.488312410926 16.2092848087793 17.5048069209957
-204.470253927428 40.3686624850665 22.7441851809002
-90.0992420582781 -24.6430141669901 -1.73579129214879
170.145149005731 -5.15310032156246 -12.5561859890163
158.237396458536 -6.87415640727048 24.0394921880434
198.386107768696 43.0799600098893 -4.05327806340541
-63.0294257844017 -22.4304106175331 14.9078123089373
208.691292862781 -37.3045243475129 -20.8137920940493
85.2177931916039 3.74617610132596 0.231678069245321
-12.2863773970799 -0.967334450692939 -1.06044965900646
172.685402038535 -13.5607247000548 -17.9877993505916
193.773459004162 -36.1847950163571 -7.35467572333697
115.714855554295 -17.6697351165672 8.54624951015029
-49.2049720655569 3.77263559029709 10.8137035584797
-170.769023351367 -32.3813520565546 2.72964005510054
158.221722525839 -5.13963234884447 -9.8616059226131
191.760814580974 -23.6840463299276 21.6221692512763
193.940676355517 -2.82492875360303 22.9552003890491
212.773642160245 38.5145658058046 -30.1459815083961
-176.955089719388 -7.45768715266746 16.9506734552531
-205.060300512418 -24.9332205944359 -6.2912303866513
163.641672334181 -0.68014103882255 -9.550350094427
-178.887954438588 24.1893955233774 0.398294291722776
-175.748690031495 21.2639241345826 2.53598626497216
-208.005732142496 -20.2701431049964 -3.85049032418647
-194.427505469913 -33.0503780462571 -10.7459384143469
-174.789785521136 15.5077559082194 8.64527737180961
-197.633666205371 -0.489178215195809 -5.05688272736128
156.720076371578 -1.23957943770665 22.5020488304909
63.2303375699087 -0.929781708032158 -2.41828079679692
-198.936968446884 10.6439341699379 23.850849176747
110.844369827986 -17.6993656861475 6.06478941028424
-193.138345803427 2.44956721671143 17.1804018206678
89.9976242317461 13.7170404823945 18.0007034185267
-183.027982209814 33.7388499192947 -12.4743314639199
-184.748147915687 -15.4618863301612 -29.2852181399409
-39.0447933263696 -5.57894965472782 21.8826129498776
-182.878826816924 -36.4499096343869 -15.9133494206587
212.96081946102 30.8966617568709 -36.5223264956107
164.446832984153 -10.0415817725109 24.5355701405015
-210.176647613939 -11.3335165587092 -18.9983777988481
178.731591492758 27.2879040284558 10.9124719394116
-184.684230611125 -35.5804111686599 -3.46191125908363
-158.319394704199 -26.6651672682973 -21.3112825746406
21.12924041323 6.45995916393995 11.4527246276532
183.949930243269 13.0483684833875 19.1072984889421
-184.240948916131 -8.16015970429764 -28.2875219844858
-22.1761245939287 -2.9013210719796 -4.19546472172061
-13.4853617741555 -12.461560053745 0.0584980717833877
-208.833282969767 46.7137984356115 -4.07076043702856
189.799307737731 -15.8345001997452 28.7057565130787
201.121140799054 -10.3109286796184 24.1481159894526
-77.9518930276172 -16.9034516951953 17.2005868261054
181.543989736434 -0.245274223796572 -16.4936972294168
182.197526856306 -10.2001579986285 26.7151054960443
188.130613344251 42.4826100566064 -3.83650430856085
136.573823614859 8.47678634796173 -3.58182558724636
213.339564338533 17.1775503466807 -29.0683042726697
-181.115484665022 -3.45762619677559 -23.6765760935773
52.310963050112 -9.62350950906165 -0.54763846715648
188.372489135598 21.3354814659525 -33.2864485358498
214.795453712529 -14.2090571889997 1.51424218458915
111.82914301164 -4.24088734729991 24.0550995542136
187.445152391338 -1.73100178848624 22.8085510815282
210.823424850983 -21.3191800824922 -28.6212501393295
-10.4466079610771 -22.4627278978619 12.6899589777847
68.767201712456 11.264436511568 12.8544641483287
131.550181433017 13.4541371504866 19.0453467791846
-196.282428191529 -5.3481309855019 -21.7440817790193
-187.775019272124 26.7262649833226 24.5482941797301
110.328973381322 -8.57662610487057 -6.35574506241089
209.85373034423 -16.7261243661803 17.3473915414994
-197.809938311791 40.5595571384332 23.23432098596
-190.583213762923 -28.2532418909682 -22.0425058257253
-122.517275080934 -11.9815461617763 -19.9648924704895
132.471081722736 11.0558709573915 -1.02572438147523
197.125761524094 -36.9631622645916 -19.0802931214535
33.1189354727887 -18.4896747887701 9.6829307023962
-204.615834946257 -23.0831020309576 -15.8957075345429
-119.08080261373 -13.237343017647 -18.8955194900889
-188.581357939849 15.325415581219 22.9238285377766
-116.972587484031 -12.3017386986803 -18.945087292191
-199.748451282752 -6.3580982969862 -16.9941084417595
223.93438506614 30.1503786997021 -5.1225923487168
214.88982100737 11.309034217405 10.2461385078912
188.772512265888 -14.9985897275763 -35.0651645942083
82.3537077215455 -7.54039396662338 -3.62275526867804
-141.071995959008 8.40958769377373 -25.441377541122
153.421002261294 16.1029863626267 17.075753826366
-124.997241948579 -1.94701461589707 -16.7464150779978
-219.266310188409 39.372172600111 -2.06453267324766
128.075202938308 10.273941264302 20.0589519377898
199.017328052653 -9.49562181779098 25.0976965205741
-39.3515789537395 -2.21472323153524 -2.47820223129977
210.52973370867 7.65752693667073 -10.0880705816944
187.547788597472 31.2240523968725 10.4101428515333
-219.11372032677 23.3328540955648 -11.8501135215433
-140.848639422245 -23.726856116994 5.66238367009353
145.162386870019 -14.4170004432325 -9.27583594150192
-91.3534554677524 -25.7166305705681 1.07830818813163
169.273919333364 16.6357032679441 -13.0219601793543
181.610705212548 3.3026655254109 -16.2087869272472
-201.107484420308 47.1797478437702 -4.99002401294755
89.6472115571075 7.34841006015437 3.54272741194311
137.270480415999 -6.95524103175123 23.4898244676693
207.722702174569 -31.7870035097347 -5.43943226926415
-39.8066648321066 4.00893341103403 10.6698864246382
-197.995271026292 -17.9081856398367 -27.5083477241062
192.606554030539 2.83423307229103 20.9510503264035
221.813789720269 33.0188666214985 -22.8485316689551
-220.817178591809 37.8761375779917 0.477605427662462
-53.9874645334149 -5.17554501357393 -5.49067999651018
-146.829894845109 -21.2586411531455 -23.6182637763008
-169.624267495386 -37.2720922274643 -5.0909349424193
-203.539158671785 -10.8778673702348 -10.5748323954793
-171.608179647688 13.8442652512219 7.15810147872347
-145.36287478443 -9.67336906917832 -24.1825417710651
-205.88061190308 -23.7673797331621 2.82029329896785
-141.718068642286 -5.64093563844388 -23.1473158642718
-207.905620811644 23.6787155226137 26.9369041673623
-19.7363196466757 4.88102182443538 13.2420489099647
216.311744696659 13.7332001321323 10.0837833295628
169.560768713919 26.9352745267942 -1.33126665910075
-125.567498110999 -23.3214623072328 -12.0452334906155
169.948565108372 14.5842422508578 -12.7509627389717
209.61618863111 14.2234318459079 -28.2824286596925
19.0018592671393 -10.5475221262411 23.9543308952903
-151.202148980273 12.1643483152697 -9.70453658065224
-66.5603322137617 -3.47129330087154 17.5361589183038
-199.31624290829 -31.1437172713551 -0.325670240555878
174.468211238702 5.48645449730721 20.005544334162
86.2392196597577 -4.40036965542398 24.5030168349869
186.366366232992 37.7569427473177 1.31588515223144
66.0214816772157 -16.5347326359029 6.34214590348128
223.348160674932 30.7110792269469 -16.7902957352211
179.817488225732 -0.832718997480287 22.4250954519976
126.958448975439 9.74932614640272 -0.859412216709091
203.136212176784 41.1049081592997 -28.2638302531922
189.660170555899 45.6942409296864 -13.4094888484639
25.9700660924715 -8.56205656987413 -0.925482115350612
43.5111223392802 -2.73259212360027 -3.86984777129419
-175.808301568487 3.84831641103917 12.2228090924529
191.490367086343 -31.2060461701723 -35.2843443601269
211.93830705518 -28.5402115174616 -27.6874857990676
-76.1894724183434 -25.5717429742045 4.90097748937457
127.824832984052 -1.73358035189224 23.4007630273199
-148.07359780348 -9.30978051376533 9.67372788758667
-224.164556849007 28.2870938068952 1.78969219217341
181.194560934135 -13.1856719631799 -29.2384872499762
87.7764707231039 5.06483597973379 1.26395119728863
83.5714855158204 -9.8102052239991 -2.49176053548287
-50.1699767125327 -19.1088308757367 18.8130131601557
-205.192529790835 -24.6097148124275 -10.4583685337819
-204.872906033756 47.9102362630013 6.55021649249843
224.120667566204 32.1996948041202 -11.5747179382554
-202.262873506783 49.3426535088572 9.71803859339965
145.574485527014 1.48170033206546 -6.39564125906056
38.8995142338291 -2.94349854502561 -4.09833884744711
155.138145354688 -3.19352991392613 23.1745261195022
184.076174447761 -5.32344132482574 24.8430813568639
-130.235271272515 3.90011541583852 -9.03038764260496
-61.3029211035759 -9.66101315542286 20.6432303692053
193.749358308073 -7.27563585230753 -25.9413348477241
-165.571525379396 -34.8916894018641 -8.63484065050569
-148.941593615726 -27.3309909433464 -0.103350421035575
197.80466759823 -33.5191395376098 -23.4679323502383
-150.363317528059 0.00384125177547567 10.5591372450976
-212.417498756541 3.50658190621339 1.73189287749004
201.655612641387 -15.8271134163186 -34.3041776309282
173.647741737897 -8.48658577304401 -15.754978864195
-132.290580008205 -20.3648639884505 8.22975257292322
208.495610810895 -15.7057625469813 -28.4016740204063
-6.2407746262691 -22.2730606615471 13.1498559383614
203.331175639797 5.02671806301897 16.5995962254686
-158.024713517318 6.96733526576411 7.17880887431441
-52.8882895958389 3.76917094020243 8.93125354929517
-161.950638725618 9.38490314768711 -15.9295581919136
-191.747272356196 -8.65904606475314 -11.012550532645
-104.163675958488 -8.35099936202687 -12.9956946894831
-156.117974483632 17.0519926013294 -20.390683844363
-186.612548134465 6.49466417309006 -11.7105880905192
141.633572318249 -17.394656162677 13.6151869036141
-8.37039734813495 -15.6283018905315 3.15761395166673
182.263499210004 5.96232478207201 -15.9185722707388
172.989214833029 -24.2678058653845 9.7841991356643
144.651222301719 -1.14720893576343 22.9804087274085
62.2564753940671 -16.0862631855551 18.9429967891505
-189.57014283746 -9.00966824264688 -18.9099309121568
58.6995026135268 -17.3553809648245 9.46678715424259
-170.350024342051 -2.26903001719853 -27.4181870214857
-199.143135888985 -25.2823240198379 -21.4975374807987
-190.351831593415 -6.37370020553142 -12.1976373785367
213.086890589485 -31.5054959938466 -24.0693138507438
-63.1521561076052 -3.35319913765247 -4.88373289237951
-143.661165012866 18.0243097908035 -22.709610334074
-137.339512062603 8.9492597197987 -23.2061202863647
118.830193359379 -13.348507227209 -4.83902511675137
-189.149180376897 23.2640224770269 25.3434423622485
183.699410810563 -27.2447528905312 12.4482005256507
208.837379885168 1.22092857551955 11.0801346712006
214.95858088608 9.58736540837972 7.85521196453509
-204.151470491169 38.2491286487815 -16.9502329321691
-200.529923264873 47.2184443068021 0.00466636025128262
-104.815906730543 -18.6959986710816 -12.0748335745422
-205.4290598324 -20.9162506021065 -0.409000732394437
-125.139663235379 -24.5266906093304 4.75634772283447
80.5036558643969 5.34232300284747 22.9058994074191
208.398434586732 42.2016764472374 -13.5879377017202
110.232484661841 11.2796912665302 4.68287708532231
-158.173070202961 -30.0138071716919 -16.1939372395278
-172.774182838428 6.44360238738512 10.6923138371971
207.802312624559 -27.7748996568885 7.62654021964856
-180.140422644031 -21.2080523963609 -27.6876546401907
-187.728441356042 -20.4330487858343 -27.3933299763944
-166.650790150298 3.24254852160822 -19.4464423981903
211.817971058409 -5.90034776542968 -8.37799224532765
120.728827760041 15.1865478325613 17.9319882044735
-117.489742750272 1.70428017317331 6.16559482829245
-200.528531772221 -26.3766666286476 7.20950321487643
-85.6503657853349 -12.8412952737887 -11.4264609347771
7.05146701666563 -21.3178182272643 13.7565072010516
-207.165104859245 46.9042267361972 -3.47448087408336
-188.704623139216 30.7031241445444 24.9235215934095
199.200025339827 -33.0847616881772 -33.3942649898643
203.82344024412 -33.6749620929245 -5.82609315346468
-187.139085388552 -36.5570566304327 -7.03496802257818
-139.208732977462 1.62257275567615 -23.258540393267
-165.613093188875 9.46684823630912 -12.6847835366808
183.899713248833 -31.9034335259008 0.832034406449599
-115.756794064104 -11.2636872058125 -18.6745606580541
-173.480663816802 10.5520729135552 10.0190189975982
-202.428192976076 -27.078551050522 2.84199456506176
173.638590346557 11.6821485863687 -13.5733519546286
-55.8227831615165 -24.3094961322983 6.27895170825079
-117.118320192898 -24.9865366727648 4.58602310699787
210.912544433205 39.2286081192657 -30.5005282962867
-221.701715923995 36.4933129256069 4.58927279464763
83.9482425439242 13.6994224754583 14.8511488169988
-194.572316130129 -25.8868680706745 13.6255368044328
203.86552770114 19.0240317014435 -37.8143421507582
185.496047987117 29.8756417754456 -30.7699807061907
159.879614250845 5.64663857204488 -7.60917428911221
145.18410508081 4.69748261397789 -5.83121485828691
-152.02495605843 -28.1478464944429 -14.3587892733987
150.680621467955 19.7797541666822 12.7497956207743
-170.527013936062 -27.1976156535153 -25.1124566746982
208.857802001254 -6.01318861021591 -12.779896175629
-163.085894026462 3.17536310034899 10.524850153783
199.582929927619 -31.6916734865726 2.59956809448727
-184.149475962945 10.7154440682982 -11.4695470989633
-105.852376970118 -24.8286109271117 -4.8828095535956
86.1079659090696 13.4807451457252 12.4416131347627
-191.983620728101 48.8712417031235 6.5717373796902
-194.889667454575 -4.49020974510939 -5.82352309131667
-182.624337159881 -15.3189854424064 21.1790762362222
-138.175895997515 -23.2532763677688 6.16736452362055
19.8017534901272 7.22905301826353 17.7225288136667
-118.459181177975 -22.893906579494 -10.8689794274839
129.858527211193 4.58399461193392 21.6793429488088
-195.870307421971 -11.3586942377092 11.2757821274409
-144.111250991005 -27.3849736769252 -5.02501139290052
-198.341225353643 9.29772759577267 22.9150609179194
-200.95610145756 34.7300833912558 26.6460819952179
-151.292633281733 8.14056362648211 3.36458583676762
198.360246515524 -11.2045892347811 26.3101655462912
104.407797360916 9.37920176875368 21.3067514415404
-113.668419834154 1.76017099536361 -5.42632815391233
-220.769585560507 12.2217165411306 8.02877808974836
179.275637964914 -27.1799899926516 9.13361002501508
210.21111160039 3.56302275264544 9.71313510527772
209.048275200996 -34.3574379804035 -11.7194194060353
206.779674378305 41.0169733435286 -22.3064855666367
139.93038684156 -2.59964242423475 23.3870496235461
-128.120219738705 -1.67996201252013 -18.2195992337453
-176.711738457734 -22.5542265704974 -27.1649343021759
-198.826160216448 -30.1140029800102 2.0569853003258
175.496588211897 10.7096716811226 -13.0893252972276
65.3299484796766 -15.3859300112895 3.83575795806506
181.124430587532 -33.063766722066 -20.432589544889
-203.920069633272 -21.6403959042159 -19.2297299790746
221.987731000297 33.3740455131142 -2.3166759191431
215.506902681665 -29.3579249472172 -5.85368206204177
-215.657825638674 43.517271085377 4.12595646965837
188.906345454799 44.7720671517428 -19.0069737318254
180.332880432649 -32.3123642958902 -22.2455340829164
-53.3768424695562 -7.01132803096454 -6.13760458650263
-199.78733244473 16.699226929785 26.8701925694175
209.251577523455 13.252730565009 -25.9081848280567
218.719694584237 28.9096645917614 -29.4398258787383
191.445718359645 32.2163341631834 10.1829215042072
190.899694236698 45.2598263413235 -16.6341037030568
220.790479832429 20.7797476372558 2.70851806832919
123.647147607383 13.232346228545 19.1997139575465
-164.198121152945 -1.24039778526196 11.1799934454561
-159.058159455492 -28.3565323272389 -19.4775091874088
128.70359074069 -5.790653015288 -6.56376108223131
215.1257213755 -17.9642414526518 5.58083871626205
214.233238598165 -18.362419795989 -19.54543178857
-205.484127491124 -5.34590828099493 -16.3977664257065
-212.57741321368 46.5503985761797 1.41917380591428
199.608925469447 39.5529545390504 1.02855631156951
198.260264712762 -18.1343636677657 28.0070939055252
55.8365449266408 7.74570152888255 9.5685539625895
-189.106594832812 47.651762873625 -1.04997355256021
163.203010871555 21.9212101029674 11.4421866727291
-68.2032461774198 -15.5626631313006 -7.82860946727745
-200.553821402947 8.17960123989531 21.9860286389825
-139.459055701767 -10.6885285847042 -22.775070246483
218.506926504699 38.0620456527282 -10.2777278804851
-190.114059150239 -34.2738767454666 -2.12751344003021
-183.027382956443 -22.9044712036053 -26.6760760095059
-223.503968219529 17.7005211075882 2.89735858801106
-193.495056657754 -9.61194004488125 -11.05069819721
-132.014404567191 0.546103693677071 6.80825999725227
-169.819535479588 -20.7276032153125 12.9588914638176
167.052160967664 0.207000156167617 21.7142963125285
-190.779857109698 17.7902270618728 -17.8267390464561
190.345077461617 -6.93763256799268 25.2010820427829
208.909285132219 -29.2435298574089 1.03402284089293
-82.5178570720247 -11.9776753115569 -11.2110323517357
-188.538621828467 -32.8166345542664 -1.07821093873773
193.313949501426 -21.9462808494188 24.5906090734572
129.812307562776 -13.4369528121872 -7.31814531314593
124.208372924849 11.936435733993 2.58058568684924
189.668583520152 30.7527613917371 11.6059440111623
179.099487613914 -22.8001367993833 19.820602912979
-218.85070022576 29.4432068241069 -11.4256587661073
179.132774658987 -2.37504325877885 23.1414879243147
-191.27010336513 29.7181949424279 26.649039305015
188.779396162904 31.1182472570684 -34.9358315362621
173.851376045178 19.0424632904461 17.1783689190924
-146.961115103114 -13.677687976876 -24.8258978263621
200.056525971854 -36.5859973142016 -10.8536450912793
-129.180835959444 1.74219385544641 5.80830140442683
-192.591577299017 -9.24227255779045 -12.4584387718342
179.921915237385 26.5673178727052 -20.1009523836874
71.3447679718887 -17.1269183912123 14.0970825395409
141.635685726198 12.9632037099515 18.86232262892
220.747362959362 35.1209161428579 -25.055932749137
-195.603518249318 21.3316365465889 27.7261682367002
199.136829760795 -33.6968592504479 -27.5456236589758
29.3854578754171 -4.35171691441505 -4.72233901003888
89.5393882973023 -0.0550152044177221 -2.37790136145229
-148.854243232947 -2.14939350215425 -25.9472798704615
184.627707949098 -30.9993305310722 3.43173860946962
126.798909631406 7.89346417714725 20.773167412475
147.476191135502 -19.7919222469444 -2.11307469197538
153.239075549105 -3.720600135233 -8.73296729620598
-165.503192976865 -11.1033134408769 16.9056292692775
132.935837710705 17.0088452070403 6.69433351179132
-129.600939990924 5.82802767753287 -2.43163127796616
-171.01288510457 -38.3838687204424 -6.04946680520915
214.703786998996 38.6120819818482 -6.8821646583814
-209.485041183193 48.5271755566597 8.03453325963151
-68.1379308129492 3.17159937760917 10.1013477541603
75.8822736771699 -8.29058643429377 24.4284823191909
-106.968225951593 -1.91930457020389 10.6553080978912
-192.533391996168 -34.3076417176752 -10.3600637999591
204.547820180175 -16.4196911515544 23.5256014674319
176.278722821589 31.5028857317126 -2.17897350133851
-187.218049645657 -27.1230021085152 -23.4286380596728
-169.572422922869 -30.4640495113862 3.39846645206849
202.041292870665 -5.53908017885685 20.6656374866659
-171.550026165357 -38.0461623710161 -14.8134458793463
-174.05678490532 -35.6477460510973 -17.9415855336188
-208.479414716018 10.5070760357089 -12.9546797393431
-123.31538183724 -21.8968079437412 8.0796565679847
-177.331226686871 -33.383669022694 2.48418621524292
-164.351775065838 13.1732953543101 -9.23844035323888
-191.583485404466 -22.5714789611768 17.8295933186643
-161.340284693613 -1.63899086578095 11.8726785395126
187.680986487684 41.0999470266151 -2.27534269946761
181.906395945414 35.6970928039566 -0.612413752480804
-116.16971323958 -9.06885484444297 -17.2552300296137
-216.589306906127 42.6298808753234 5.68417726833231
113.978420956259 1.66823205706849 22.9853013961887
194.387641754321 -20.0454352259837 -37.5778925354963
-67.1613308642833 -2.65120961368608 -4.4916910379344
-19.6817680814963 -1.83843199698483 -2.66190879245684
29.5730674777378 -17.3093063681284 7.03668681987511
-198.499439308655 47.7479082747554 -3.32914701474677
-85.7431584280767 -24.1054554468632 10.3783557833569
198.040878976872 32.7611392234206 -40.3517054499243
-74.4314009308807 -3.32115321816373 -5.62404194774247
198.640463971157 17.8031703914395 19.1953065231078
208.181220106075 40.8191314529955 -26.4198386410666
220.463024945325 27.0076251652407 -24.8545634251336
132.647323751723 -18.2229501734677 1.54298496447597
-118.154753153546 -0.061300236405441 -11.1089408362568
134.701137285057 -0.383429894247026 22.9933883087102
-145.695885849834 1.50101746032333 -26.0700064760856
189.468111822246 -8.80682457523901 25.8146382444015
-20.5344923301635 -3.71774880474421 22.8997061293324
193.105017198537 -37.8058850333232 -11.6663329381982
117.197065677883 -14.7799600894047 18.5503047913205
0.424643336030066 0.963247058734412 1.18495096306562
-150.301126727995 -22.9212144997422 6.56621278610506
200.760556971729 -33.3817402316458 -1.96323600415973
165.033771163766 0.600134262162013 21.7365283335969
92.1902848005666 14.7130603916985 14.079935382022
217.313310942601 29.5960489505766 5.92410473781777
186.866257359886 -22.7321555068139 22.1711892640108
53.978796956738 10.1901198577404 15.4696450400098
165.409709088169 24.7372052102453 -1.09935426013273
69.7735892791532 5.96321614908073 5.02696780551947
-105.097234195437 1.69664939213902 -2.51848510248576
209.385613168515 -30.1227264720226 -1.38270889751798
206.136781234204 22.1429242745096 17.9354994876786
204.946076031002 41.6018834896668 -21.2192275115632
-72.6156279176175 -15.3329470490368 -8.25801923491974
-69.3385643321957 -25.2014947662393 5.15040650064069
210.682386668313 15.4604651443462 -29.5422353123595
-41.471104181014 -24.2101352950106 9.41153930011187
-216.298409659485 43.0010502678694 2.50190640397864
-12.1206117951936 2.09164268006301 20.7800674702801
-209.267208829677 26.3816060284488 26.4948082492546
-95.233680720226 -25.703397082307 0.349145185628657
-163.747995697748 -16.7273288780224 -27.4721184470316
49.9360216159629 1.57836741627705 23.908729587815
169.389860075172 -25.6802951782704 -15.4215169734342
-165.917341438347 -35.2504211612622 -14.6125757394838
187.248457236052 -30.8563265769816 4.30912766820926
-102.285924727958 -10.0172540423355 15.1235661870946
181.796537956597 -34.4031107860965 -7.96531142898089
167.178631731843 -9.46515613296637 -13.7256724959419
175.866255379343 -24.3271845949152 -23.8742325553758
-38.0739321023426 -13.0413784124068 -2.47589324111233
181.757229677691 19.0712954841205 19.0225711958557
181.893400267268 38.6670971886863 -18.1588302225012
-204.077710400647 46.5450140590803 0.590082174902811
-102.903273407995 -17.1608860973814 13.2668278096752
-204.627430982578 37.9058373846353 24.444664964239
-223.275713104771 24.1455298007227 -4.52025452273477
-135.401754562938 5.35713978068985 -9.14557780398003
152.72606240249 3.90512006856262 21.3727146905008
-66.5742077515986 -25.1582145911673 6.04268927873182
-176.067069477194 -13.5684710975713 19.8305131213302
-170.48044142639 -19.3824398485732 16.4165704931095
-202.140199942054 49.5553029209139 4.26928949207789
-178.982315238884 -8.65578789612488 -29.669926853134
-191.276190470291 -9.07107237514461 -12.5197851484656
-43.676153491264 -1.6327143812172 19.5228639929152
77.8701445092188 -4.00067087380857 24.6150689565526
-200.9202332523 -0.79876163683672 3.15505459167271
184.737202172384 8.28148181360344 18.9990068867702
-196.498670890524 -7.17184592020121 -3.8208247767568
134.795290384768 5.07243301324536 -4.59518049646429
107.612880917781 5.87869763242973 22.0195652932155
192.263379328707 43.7988105560375 -23.0153904390848
-205.892013486262 -17.1475042336381 -3.14755260929941
169.080362038025 14.9861855178506 18.1480681597114
221.118901546448 36.167196345841 -5.90222348817411
-129.870868258318 -14.6723442380602 10.6676769976353
-176.884674452638 -0.358258440337836 12.6436891343164
-190.684582134732 35.7953301924214 24.5063567678008
-166.792253344456 -33.1576726944647 -1.24483544297158
-217.874452576146 10.4914270293377 -5.98486864732601
-186.55039197375 -15.5865983249172 -29.0756739179007
-132.856680362391 -5.2548866438755 -20.2614801274507
-180.236905756247 20.280913345863 -6.0177063841692
184.632943501337 36.4242874446154 1.80927619608618
-190.087820295594 -33.2440118822541 -0.649941124181816
-199.418792173661 47.2903005634455 -5.43029759601768
-202.451762190156 23.156983861636 -20.7611783906953
163.31375526821 7.4709114735139 -7.99899917648188
108.799952475924 7.35937743748754 0.78044864445278
-129.168428673882 -26.2713129872865 -1.69274163736014
181.260649927284 -11.5115677565027 -27.6619065165024
-188.384991065416 -24.4681461718758 12.2362153424419
-56.5327736882925 -16.4271325746471 19.7925911327172
106.253359350734 -5.87168874739164 24.1008235137648
202.415029582346 -28.008861027135 10.3816900670291
217.737593134008 11.5408023001143 -1.58215891498168
-176.307709465835 -17.7092238659298 19.5694936665502
-205.021797719226 -6.91846931477187 -14.279806744272
130.438798368226 -17.7583772519652 -0.04269432985696
124.932171526676 -7.61364321877361 -6.65017742633143
211.062702799976 -19.0788919407007 -27.125298629294
-83.6417155420296 -25.128807554796 8.76066627820527
-45.8714624372041 3.69347173025551 8.43980516775714
-174.082629171637 -13.2027389168168 19.3246786595993
-153.948538510637 8.42379481870091 2.89635178488762
201.335664019128 23.1103103027128 18.2495690339358
-211.440844401575 47.3561289623946 2.6959604068083
-46.9663732239248 -24.1689238384095 7.8172808962882
-196.659972784857 40.4051426256659 -15.8879418824428
-172.48460671121 -20.613417210534 14.5040146559762
207.357028347988 -29.7894394350092 0.750527797375358
-208.09747795104 47.8970329646441 6.57658252908409
196.744471577747 -20.2730427648299 27.2906505540584
-201.271770940723 10.5517102720374 -14.8490626897557
208.078804847719 40.4410279277565 -32.1081054896229
-126.303439804624 3.61061725175051 -7.07993374121248
-160.526384394632 9.24683410524086 4.61171756216374
212.960939149436 -7.79350203728887 2.19693696888901
-184.529025867585 7.38530091205825 16.3761589872929
112.951876439113 -17.6584052983808 3.86194152123781
171.03882318929 -2.17899745284318 23.0007460451249
78.7396412597025 -1.38589852367746 24.286006436101
-182.987780640057 32.3087188058933 17.7382285860981
-126.071637005214 -3.85778723038618 -18.0827993985193
200.308523882092 -2.24936595107713 19.3150916201618
-161.044693007034 -27.2876604827898 -22.3604910753262
-159.826085509871 -21.4782471766536 -25.634357163972
95.7083941338058 12.8334327620934 19.7001242173652
18.5236751186123 5.29744841602136 20.9402504573398
207.193403109059 7.21989409331699 14.4742337100476
183.260180147363 24.8314844655561 15.7936053080774
152.269127674716 -20.3161536838449 1.68680307884848
-166.943442559867 15.4353037437519 -4.7288561238115
-126.072489612176 2.41125078703859 -13.3267243640468
86.4064926690236 -13.9751516128469 -0.231225835892573
167.383745179277 3.45583958481908 20.7885781539838
-189.611389702547 -10.0469191465926 -15.4664149703656
-116.144414701551 -3.87260879791738 10.728582277001
-196.664100466204 34.0615001904938 26.7908439089055
-164.438559444544 12.4825376167776 2.53074075318345
-171.370306725736 -9.21232129642149 -29.5602027846942
-88.9618085327075 -13.8834539486899 -11.2161164310682
36.9069714652761 -5.06123164751916 24.6446914627158
-42.9179581617698 -18.2800274644692 19.7879519323805
-110.579946202806 -23.5350049404577 7.90353003772471
-192.697535020012 -31.1554015467821 3.16105754936645
194.820228289063 15.9464328913475 19.1165796378209
213.541482458933 -12.5162554351927 -11.2281201398076
120.047136739315 -17.4040758426733 1.20378914121125
190.617650542669 20.6949126569093 20.3296560939189
-162.913671156178 -1.59686753075772 11.6723696319647
38.4907616779343 8.00484245288945 12.395276126544
180.941723981952 -31.016679469023 0.579728758789975
-46.4594321603317 -7.22787666478922 -5.78009156663495
146.589235818433 -2.31127544991473 23.1198928913057
-172.299639598958 0.0160217387256765 -21.8051836894027
173.190877421356 10.6229543418207 19.2020920179725
-220.567818835916 25.4635449564731 -9.79059941047687
154.111764893585 -0.468063065307971 22.3789296616433
88.9134624835318 7.65668167099218 22.1946792806247
-127.896337090843 -22.6490274697473 -13.6674767062718
-193.737150922774 46.2480132968474 -8.90356635962231
189.410212542177 -30.494745504486 -31.2519614591089
-213.328932746439 9.26790978736654 17.5374870685228
-119.814922312626 -15.3613621686204 -18.4403892128188
20.0729388364805 -3.85189376706085 24.3413788130695
72.2693992526639 2.32776999319973 -1.84842126318085
140.92814495817 10.4382578087645 -3.4701942055774
-110.358005413184 -21.9731873098484 9.40273095202767
-158.289840016856 3.57458221226395 -26.8787541388505
-142.234223445679 16.6639089656951 -23.8237640589195
-159.821578664924 11.7446422427223 -1.55469601852861
160.700983723415 20.6054110188383 -4.87867289370643
-201.278828946365 -29.3300004896193 -4.71419270641415
-158.486818243528 13.2292337702854 -22.3808294336902
-32.3817665718323 -1.47992598026719 20.7454570981864
-102.012952603906 -0.440387810260649 10.0346141405442
-127.365578336124 -5.87918463140991 -18.8358720278296
-44.5629413104894 -23.2577724904674 6.11943192393123
-158.680511454386 -30.6963272893601 -4.78525001185772
16.9192238023663 -11.7333980421993 23.6497164118728
181.723861740214 -15.1481016679701 -31.0649824385298
-216.277143419477 8.38309575902966 12.2867063526554
-96.1980399764064 -21.1154916197634 -8.76818760305108
210.950053957804 40.4999935199583 -20.2090450313632
215.112862720153 30.5554886782131 -34.5436803004853
-122.354668622302 -0.371557028284853 -13.7885834351415
215.325690615802 18.1531834502864 15.3735392788302
-200.543280397269 -26.4800583925528 10.8560935863354
-189.752793133839 26.3902142781125 25.7853153682861
213.005063821374 -32.0014210451646 -5.33493462857534
-209.611397315029 33.4135345292365 24.894242702197
-102.646347666511 -3.85945250417044 12.5919411535919
160.675889742285 19.7987576647352 14.1219515679763
-189.768127674765 40.3721842795701 20.7963133888958
-166.783824224687 -8.61170903026287 16.0092746644044
-144.066642867741 6.71638564795177 2.99278097939723
-194.188466148865 -15.9316174814478 16.2985376214352
154.591955773841 -13.0309059936902 21.7533959390561
186.291248010034 41.2417804826464 -21.8561574515672
184.073338715842 6.51909018733784 19.3097475277959
195.887430755711 9.85963992100701 18.0429028541874
56.9760362859043 3.68437804222034 3.84434819301814
211.988186992117 -36.4444161975549 -20.6652044025422
-130.699099374491 -2.53048955087768 8.55351991433085
-204.132554381315 46.2943336835669 -8.23723742378864
-180.403681026238 1.5073670087295 -12.9160661782163
213.597349018661 3.52101887543941 2.56422332489012
-162.816899425556 13.8361210854904 -3.01221237368219
7.42859324555334 -10.0523748610361 -0.482888093135309
-179.458368549941 37.6385682393861 0.371197100824252
162.051309797231 16.2378585685594 17.2167721886378
-171.850236910434 -10.5778831507113 18.2594013804628
-95.0414878019235 -20.4527360229257 12.6746873369952
179.559020611124 2.00870997559963 -14.8461544175484
192.578102920961 -8.26224076117265 -28.5403423514921
-192.667790712006 -2.31444553980495 15.8453375664802
-48.556159358003 -20.5811138594723 1.84527484128325
211.576548246809 -0.669880098949896 -4.28091354480133
-209.484505663161 44.8719839975372 -7.61140138106884
178.59942409041 35.5381337115613 -14.3149484836573
-115.136806333457 -17.5564839914541 -15.0255894230263
114.911148062441 -17.3418105217639 11.1096094849558
193.376535383501 40.786711816898 -28.9683703458795
184.896229193675 -25.599712341855 16.9669152795202
203.260835344961 -17.2602517649087 -34.1901239669112
-68.5267361109115 -1.74142632524698 -2.48768348740591
-72.686465948189 1.04931019811579 13.0445373415457
-187.795165079078 37.8816144677653 -14.3984818533852
-187.5487202352 -30.1738992099324 -20.5884434110429
211.246241489308 -1.54681877153151 5.03686537517778
126.283595370185 -6.97455974540511 23.598203112561
151.553699675601 -18.2414985182304 13.1776764408992
-211.933012206331 5.87475378871693 14.6186023322989
108.274642281366 3.89074088354278 22.4918782259689
218.439164623373 18.1840179759844 9.35062454748008
-118.237593788298 -2.14877892060507 9.24909728031629
117.966189720804 13.1430311055202 5.0314909065083
-48.387617490561 -8.25406200198723 21.6662238687889
180.966156362332 7.7708337301743 19.0930010914058
168.264034170066 22.6069886243006 -10.5915165391658
-120.635876504446 -17.7681809854143 10.3469887084314
-210.0626592802 2.59721975188657 9.2171257764913
213.375366324512 25.4793376617507 12.1738814649928
-182.146574977206 27.2171741080562 -3.18346463721991
-58.9339526859076 -14.0729803417306 -6.80446053765348
215.715179874922 28.0368539824722 -33.6112196368628
20.9966409168815 -20.2066418377924 14.9246065587878
201.413592330443 8.79957597216277 -14.3501703402218
-131.300563653488 -24.8954560678949 -10.4803220968341
18.3330156094684 7.36676287296475 15.4616211626378
-220.070135063228 18.4751696527448 16.3141461361007
-154.843906348195 -5.92064009903738 10.8181170019291
-170.959331230647 4.54146122550979 10.7023640761428
-153.925686350615 -11.8336340722655 10.5648460855422
-201.043217986756 -24.669607900313 11.3404719972528
209.872180410825 34.9281236623331 3.61465005059388
-58.4638842654706 -18.5934256427519 -2.59759540822663
-180.600256824462 -28.7257981653793 8.22830716215603
199.034607681793 15.1059187744609 18.7612238873103
119.154733946571 -0.737193032683134 23.4431426183725
-184.34352547075 38.9526438401969 17.3198964137054
-172.486459985873 13.5119052291698 -8.69347775992652
172.34950940333 -9.62100592547317 -15.1722347556609
-200.104583336133 -2.0705801162439 10.4175204602715
-210.573329963868 4.41554900950167 13.3923701368872
-64.395471937568 -20.5546439749617 -1.70296157549994
168.431089281636 -18.1120631608478 19.2721420547668
97.3056119213726 0.379774988488557 -2.51760112640657
-214.031770104365 13.3581475024945 -13.364564418985
-199.858096248796 18.8895099397257 27.6273196227037
-104.916315319305 1.94191719219027 7.00429372779124
132.763137960301 1.85461711665733 -5.05209465379558
3.5452097913613 6.17353626397496 17.1872775259581
148.845895625511 -4.50085799173647 23.3777418082087
-20.3783574463538 -0.90415252687587 -0.591254567963095
184.038739173471 31.5722234667217 -25.2355464483052
193.05469124109 20.0410641768963 20.0765649763786
189.417646251701 -12.6609307833973 27.3579028943827
-28.4090939566851 4.19979737773003 9.79605327910633
62.8308726887629 -14.4636633859219 2.78649304710299
-123.160275670753 0.993832199155868 6.4506681133322
-183.340799412815 29.3709160679346 18.8463785268644
214.081707099241 -11.2107108773597 -2.44140552560194
196.194577852993 -24.0065440088595 20.3872007950881
182.400896302382 36.1377557349688 -20.5364363361681
191.373827130041 41.8483549525331 -26.1741994586964
-208.469421004258 -11.761146315839 -21.3584525130652
192.461132632105 -2.86725471454963 23.1921936384772
179.794895201805 19.9726357278619 18.381128267287
-192.143173587387 -20.2805126063025 -27.1348377483345
43.5453894265074 2.24618190331399 2.66625004705126
193.12889805958 35.2653116536839 7.0012140154814
-190.067999336973 -8.82038715029057 -13.8341548700487
119.091586948014 -15.4103560516822 -2.63157281821679
142.834185411455 -5.8995313492956 23.6052011369539
-179.552205233068 16.0723078940118 -8.61261135468114
-178.947483366518 1.11585992495643 13.0906556947647
-9.39379807888383 -10.2504347383061 -1.74444917177287
212.892227519876 -10.5843697795148 -10.922961411385
-181.257642629982 -33.0785185133507 -18.8789809558947
91.3209311471143 -8.7176512988893 23.8941365703682
139.317318919703 -4.58550277034972 23.5431556129654
28.8238002013612 -18.298403675186 18.9493958600897
214.488017302017 -14.358331334216 -10.0355776348425
188.973409261851 42.6145077960835 -23.3596436254444
-215.996316523446 39.4974810690627 -8.3591042002196
-138.603260038691 9.03979537293998 -14.3347612877926
215.34514214415 -17.9064117973874 -7.80116449313796
216.267397461661 10.4007531426045 -6.13852567726669
-222.529946231715 26.1093411144727 12.6348473997612
-187.664065859923 17.9496900143228 -15.46219126588
-152.045611850238 12.0177298709837 -27.2266762863943
-124.588060284553 -8.2570175056428 11.4632782600183
-187.79664502591 28.6742757484411 24.4767088959513
67.177830480858 11.7280862853829 17.2735840883308
202.974871055826 12.0571401604893 18.3235316366351
186.599078688546 8.7507445418163 19.0945401662353
-101.74667991623 -13.1015564042348 -14.4622071158133
187.692159716529 27.0141952730713 -34.1473919470887
-206.035335219508 -26.6650786236414 0.716643870920828
-208.323395182369 4.27204017952815 -0.263037389018892
-138.248333274833 -2.83696682801423 8.39349937036444
191.813503407618 -0.951159254577148 -18.7427521139062
202.380112117644 41.4238987798969 -24.1994243629806
37.7001100629614 -17.9826494953725 18.5224096218866
-182.132446069745 -15.7389933398138 -29.5138593570491
-187.440737483671 -9.73058061068267 -28.2498754211286
174.353299639858 -29.5378961073854 -6.67392073009939
144.161708420896 -18.6237906876008 9.42224735934225
-93.6084502284787 2.77835516904996 2.06827345950986
-211.356200989714 14.5516185778833 23.0163793030789
-198.577888683044 50.3358657770496 5.42207411759627
52.0380131600938 7.69696716060409 10.0877835298433
-198.780992813526 -29.5713713416588 -13.1016020386668
210.150640454339 41.3387845108738 -14.6128247817129
-152.752546924891 17.0547986025133 -24.2068158043669
188.112684967861 -6.8762559368315 24.8494600095161
-201.986954807295 -20.3518839095284 -22.675404933358
-111.261361006398 -24.2336653342781 -7.23343017823507
182.259842781106 36.9168274801547 -3.90848795894058
-185.701475482602 35.8065206995528 -14.0786744014829
-191.050942011653 -25.0192761684543 10.7415342959313
-222.794479476312 15.4943864391689 3.2734751091896
-182.392970475925 41.8279240796787 -2.60798087954991
-62.9891640538188 -21.789592956102 0.198113269220427
11.6345853602526 -20.8932623708855 12.6416372623515
-206.206127270521 6.9892024868277 -5.6675047170538
3.33435561353058 -2.80257572519625 23.9039010318017
-135.932921831225 3.44101457267826 4.6607432997632
-185.28712524843 17.3449783763848 -11.7005858710822
-211.993439026914 3.35375313152482 8.06550402482177
-177.582081001976 -20.1080373622235 -28.2059794573215
110.003216231567 5.61149694948091 -0.985252863674706
97.836780940522 -11.1112225201579 22.6371678839889
208.447235479909 23.1800539181896 16.6803027016728
118.143467431546 -17.6595407692694 2.67734523475188
-96.6730706882618 -10.2915910611618 -12.8749923924016
-121.224478727308 -3.1085580666377 -15.3211148457332
204.175372034501 -9.11935466816201 -26.0509031203024
-60.6685194150689 -1.781792384465 17.3673170364972
118.494312097678 -16.6842062707607 -0.441569168326318
-163.05864444055 -8.07010946193228 14.6154961677541
-152.083240260966 14.5442594715284 -12.6020642720483
175.396930018877 -25.8296920396427 -22.5181990652132
-51.0024418418685 3.24616374823004 13.0889846057871
220.054444676752 15.5760554148508 -4.97387963358199
-202.581199220422 -18.2125475714837 -23.5895992032646
211.253517830426 40.211901386424 -23.6110914464452
-154.820956246777 11.9572444730671 -5.82778341399577
-197.789341626474 -31.5244946605781 -7.10914503488766
-206.703563489071 4.87697553609013 -0.990328142612454
76.5183340260202 0.763687983328022 -2.00814049555777
-185.034258849959 25.7583587035984 -9.929045278323
194.386982383732 -11.9363254792973 -33.753474156793
183.467187253055 25.3992320866975 -25.837883444732
150.415149824211 6.50354649031901 20.5274059620346
132.434807727224 -16.6284967972445 15.0288824245018
193.971144774858 38.9657658816323 2.99592092200223
-187.039955548623 0.883378798609829 -11.4770279325775
-94.536696701096 -8.78290395930139 -11.2953342354416
-208.078582385695 39.9654682844098 -14.3579754521029
68.6035186737363 -6.06275794166836 24.6774341711278
173.940485280551 1.634131013434 -12.1949632200683
188.828092723818 -36.4219881147209 -8.65616916997406
-222.392829415943 15.3707629829155 -0.669567671275202
-134.50310432427 2.71084723423169 -20.5702298226699
164.151187105914 18.9579845797537 -9.06346488477416
-111.394358334919 -8.20766914943989 -15.1823551893104
-187.125017539943 46.4243876634393 7.74755485746262
12.0404827143523 3.0852491916707 5.52968769283611
-6.45236705568757 -14.9716146686604 22.4625163879426
-75.5372809152717 -24.383547298711 1.0684440189515
-142.269830235811 6.09944846648412 2.93455353674808
-143.498603623663 8.72240655735773 -9.97584132316527
190.914478854852 -8.92578852706419 -30.8891168595874
14.5977361746281 -17.5212836269038 20.7966120355066
177.347537398589 22.5036952095909 -18.7222788834196
-203.367533325672 47.934508674251 13.0689272438325
-180.552160134252 34.6705052686457 -0.2744053274205
173.118242160247 -1.78648635833355 22.8058352143286
81.0967998207249 0.422218751117492 23.8779457373043
11.4567235670625 -10.6918597918803 23.8115194385748
188.367356146207 -34.2202568411207 -3.04399031434103
-199.186334923937 42.6742839474914 21.2965418137122
138.035356418374 4.56099174744929 -5.125355664694
-190.765941605877 7.44300450830075 -12.5664758815266
-192.046602076897 -31.7628319101834 4.14839802220679
188.63361776966 -21.8823532197146 23.9649276195228
189.222561166135 33.6779238367144 7.96130075536894
137.241946797855 17.3548936138514 15.7154139861446
-93.6201764787386 -21.9957909551157 -7.1638018342878
186.15606110274 -0.608418473087736 -19.1262341831216
196.63732331056 32.8370892410258 10.1016080008875
213.231553088078 2.44657534988205 -0.28077230229271
-173.327746053087 18.0015524882992 4.59125276581121
214.864497939094 -24.0211764024603 3.10456636613378
203.435305331478 21.6111332216195 18.7679071681835
-184.87011396828 5.27882079936159 15.8452219170229
192.094769235793 -31.3080429297333 -30.860274839733
-197.172180849448 47.4676874549001 -8.16849481792397
-173.96831746055 -30.3880466083862 5.05511346343404
-202.753493433394 6.72248435569697 20.4737695692964
181.938675844427 -15.6273801090837 27.5404042642301
-204.570853175767 49.2124719346728 7.73786246636605
-9.71748940707687 2.2340579384282 4.36853369087239
-213.152243998276 20.0013212760804 23.8630134968131
-161.051846540517 -16.6984236827715 -27.0041326444049
77.1963124989164 -16.3644730565881 16.7145091704815
-200.816563999029 44.3204598446695 19.3768183072935
-12.0776477742744 -6.67836732660377 23.7931161342702
186.875299399258 29.3832387987244 -33.0905249853231
185.463625472067 -11.045844368385 26.7414613191934
215.214409447573 -17.4233665815466 -13.7436763780025
-189.43335261538 28.5242616095341 25.5783737370335
204.908812308407 -4.34173234505424 16.9426357133544
20.4299425837393 -13.6116942940035 23.0827516394926
-200.319149276011 -19.7298171856427 10.773200961062
-188.217294923463 -3.61373808324505 -11.6999912176804
-98.4182266991342 -25.724515284435 -0.512506571463408
191.00267635551 18.6069724998686 20.3161954113398
-199.804391090966 -1.7617896663303 1.73689528732211
-182.452136061803 -33.2900253521099 -18.1572490890843
-170.442625257103 -8.66823082108288 16.6674502786246
204.573052858181 39.6625012580651 -37.207988551683
-2.21140145111918 1.01277474401625 22.3208713694196
208.373863257433 -14.5596402805267 18.5843151710753
173.82011312024 20.6590615151105 15.893840689885
-69.2074965544445 1.48522338226296 1.91957023647401
-86.1047381315526 -4.67260515793885 -8.21212709246174
-165.154303479331 -35.0015951408403 -11.8250159988208
-67.3207218084439 -6.49124782100477 18.9962500980156
-202.129749632007 42.2786728510184 21.5705386783252
-165.401763697054 3.75088939065913 -21.2062046428148
-92.2186082228421 -3.67589965387158 13.7341448214334
-213.400244999723 45.2436567275225 1.46011041330461
-42.4832876550534 -18.508469496408 1.12041107631632
171.033400450344 -25.7357926860504 1.99845608739943
189.083587373501 -0.334292151226223 21.9351010314479
-8.43295062016322 -22.0096314801976 15.7197897371383
192.595713077462 -17.2337073517487 -36.5662076685809
67.8278525774492 -7.48001783661274 -3.18713552710472
-188.378166333041 -28.0041933542122 8.37352484673866
33.8673590782389 0.89001921419847 0.158473403482413
109.643791241613 15.0183300738015 8.61268196213183
-59.1358948646973 -7.74288186221157 20.4779638481214
-134.246828045812 6.7837933019387 -20.0178639312561
-195.204142934544 -1.60273691682548 -8.39399293175623
-1.41117709002 -9.34580985421 23.8263424478083
-162.995547472765 -23.0294045802906 -25.7337012193748
-143.511145441651 -3.38382485013182 8.73853585924965
5.83644456058383 -14.2564304932001 22.8359936608267
188.889239859336 -3.17101792431415 23.1398236640454
-197.072801606557 8.63463409729063 21.9417214470172
-135.225449734715 5.71257357977764 -1.86729094624051
10.4704356698759 -0.325548510769986 23.5799520904388
-141.175264365447 12.5108443162778 -15.0577336481952
204.389408159025 -5.52711957037675 18.3629738056115
-212.740885515264 19.6999920389956 -16.7707711452752
171.573790673008 28.260367452316 -2.51860853801138
101.728292752596 -7.76863100456776 23.9145067115129
-199.10114032332 -26.7988599700543 -19.15529093072
-139.195492457297 6.98026419704456 -10.2469479848047
222.725874611654 35.4609766189175 -16.5042958929551
-198.606666968336 -32.382667324988 -4.07979900805094
124.648880565766 -1.55561146987475 -5.18350810770568
25.0026966667688 1.59596423748582 23.4691634983911
-74.7100613421654 -7.90261847168065 -8.26852942200252
-193.056182705235 -29.1107218554297 -20.5498632753638
138.669694637766 9.85076504149554 -3.28787200394375
195.575539438731 30.5390725478232 -39.6937182983977
-199.890036187506 31.7610875183861 -20.124046596949
206.146847587799 18.2939994683502 -36.7337812045887
-215.902751104515 6.83584137857812 -3.02091358040597
-208.005067100027 3.83178912065431 14.682084346672
-156.837107091538 -30.5469333691558 -7.26981688254815
173.817008911035 8.43076690464781 19.458740498247
-101.458416287144 -5.23141454905772 -10.6954647531568
120.36944804121 -8.25053494073967 -6.5590289844321
106.305099037512 -17.4991204096413 8.99927647337534
-133.859245853512 2.86214595843504 5.16851957185026
115.196983030137 14.1083541906189 6.53643961667903
-58.1931996695798 -24.1561131750879 12.5355070226287
-177.494940570616 -15.6738615330459 -29.6741178839373
-56.0097208301387 -13.8359196922265 -6.06717294889057
-55.0893333259726 -18.8339193528674 18.6266648579896
179.221178047476 -32.5518031385824 -6.83320946343116
131.125179347729 -15.5912875975376 -5.28987975705307
-11.1927238815994 5.38083641898185 14.2481023562823
-208.62493114286 -22.0015508253067 -3.72008132993699
-161.384690193676 10.3564463521253 3.27627791369481
-164.701626892307 -2.53485782691138 11.6385194722775
-197.884855959999 -11.0047678026729 7.92705057454379
-20.5698638445349 4.42148501334609 10.0503117565573
56.5778375744628 10.0049236702627 13.8145874053867
80.2997953565789 -14.0004340582923 20.7703729723734
73.2614102368217 6.01794016548906 4.55663859586861
-204.411538169095 -24.095849233254 -14.145196442442
-49.817556529274 -22.4671595392462 15.8223790579707
94.1561386647449 1.02051637784047 -2.04458429609694
154.427415866362 3.60122257158143 21.1784339146991
97.7261824551669 11.1943530195573 6.6333888138176
-107.630031205487 -3.76404309831645 -11.0303628426028
110.305646866218 -12.8497776984841 20.9667539047404
-202.019200588224 38.4545693338367 -17.1989047114802
-124.239539175933 -18.097597509988 -16.9640971925695
-173.591167184086 -25.6235835749696 -25.8259094155054
213.305546900477 21.1808290320901 15.9495414725046
-3.37168054769612 -9.88270652730206 -1.3807335446022
179.328072139479 -13.8914153709982 -27.1429054767952
166.188110485163 21.0917451668752 13.425653138144
