165.752617227825 -5.36645958964895 21.34476030945 0
159.411611246422 5.79562121826156 -13.461343389803 0
153.615320499418 -17.265923835053 -20.5759546407256 0
109.974566290497 -18.9370118480393 -3.59958836308819 0
152.991262794685 23.657362246966 -12.7736569803905 0
7.43611833974953 -22.1717875253541 18.2032208783196 0
154.736762585614 21.2143557445787 17.2419107200775 0
183.318353483314 6.02380260360718 -11.5177644498253 0
196.767453687573 8.26378879123361 -10.2320186610796 0
104.293015962124 12.7962337946995 17.9675036535041 0
-25.4261159944914 -2.92673073921348 26.1767142254724 0
155.357487077447 -26.9039886475207 -6.8047369573771 0
187.519633840911 -5.87120467991225 -30.6361572690602 0
-30.661885092376 -7.03654435386569 26.3529380715741 0
158.025891114372 -24.4944459364131 19.8509377539145 0
172.884505884638 -25.6688761740187 -38.5115705070191 0
182.112814711503 -32.3677196251507 1.11906483735398 0
169.181092271028 43.2541163213443 -31.5939042041817 0
195.581066231695 -8.29201664462165 -20.3161946519099 0
193.381601378923 1.19600346389669 -5.90062826144989 0
121.265524378583 -10.2361372544979 -11.6249515024561 0
162.787048298424 -6.29274927394669 -24.8921083308324 0
188.335682916567 -3.064001096176 15.7131393201023 0
86.1090477494465 -20.6272954005417 7.52047760296333 0
9.81343465475338 -2.79215944912336 -5.04504233713801 0
20.2346560611273 7.73084560832011 10.202822115106 0
186.559586874983 38.7472807636899 -8.02277065394501 0
152.631783183246 4.32819049056951 -11.5852648524215 0
191.353386791543 0.511565905345561 -15.1889405760296 0
160.706987134004 -14.5457324030253 -34.9377606971511 0
163.039904760059 19.0343094117618 -28.4285377818142 0
163.379863401041 -30.7609181473225 -4.85940494641686 0
139.326009477417 -0.839851344612332 -10.6108307380548 0
39.5297392036427 8.96077841888357 13.8688253749173 0
100.166220864035 -16.5218277464458 20.3741818590073 0
14.0046799936733 -12.4813610987982 1.95455351711119 0
195.283425137959 -10.5740809606567 5.74403502005219 0
27.4958810504567 5.65622992249317 3.09994945702269 0
196.585009748882 -15.3651291298131 6.31177875727086 0
201.830298801074 38.6464347106886 -3.11579615666574 0
159.839813054607 -24.2400559014143 -25.7890640270528 0
41.932350384095 4.65630503695935 -0.689224653505411 0
133.411481159695 -19.766236822391 -9.22482313129201 0
24.2302099584004 -10.164731164056 -0.517253937875985 0
34.8504716301571 -2.11791157831674 -5.88824599939221 0
-26.6037431441293 -11.1356914804857 1.50315431050243 0
-26.4044876042714 -19.1515442273612 6.54625681107559 0
162.791514856541 -30.6508782311579 -14.0641603394987 0
176.327054559453 -14.4119236973549 23.4119622105964 0
194.806550445467 -8.45388429990937 -24.1737127617015 0
1.4771580556593 -22.060408029782 11.8993927867478 0
158.474279186002 -19.6903553968399 -34.3760213926621 0
8.42986035603704 5.45643897759036 4.32604035949705 0
194.663036517998 -31.4416397583031 1.60147019790218 0
83.0259839994207 -7.41285476736796 24.0931417330075 0
16.7710868166493 -22.3368053523223 15.7864196752956 0
172.956717062651 -20.0734272615559 -39.5874426727046 0
181.195870831425 -36.0662859207843 12.823447253174 0
33.1028545517322 -9.22379504858956 -1.98427767662493 0
84.9699566869725 -5.28118707072286 -8.23846254534039 0
133.364312724092 -24.2959942264688 4.41452193692305 0
197.334473428691 27.6061460877114 -27.2539271424153 0
177.771081812546 -1.17117004479269 -21.9747763615656 0
29.2145440239657 -17.5054944759947 22.0418052257489 0
124.79575471451 -4.28866344022128 -9.96541530675877 0
162.699973672315 -6.56109485871345 -20.4396335183591 0
14.9035483722317 -7.38361750752848 26.3324721164558 0
27.3383265770165 -9.19753513828087 -1.49841281085691 0
189.104108117909 31.9349842845141 9.78371543199448 0
162.483666044487 -30.4127926468139 -8.981504311998 0
108.212268953304 -9.52076701191531 -10.559174317925 0
140.061030735839 22.1646319458398 -4.72245965353022 0
191.027884257168 -14.4853109455943 -34.8646929877386 0
200.947720126483 16.0625064607248 -14.1762462731202 0
185.575469992735 0.293808854363763 -23.7484968697581 0
165.579158642654 1.96203338890567 21.2730189858603 0
95.0608741716954 -21.4374535916303 8.84723072687693 0
88.8630382190918 13.3873682335559 5.36678316796615 0
177.105356491532 -0.438176270144297 23.447734829882 0
184.688219941518 0.227622185399681 -10.2494125118019 0
-39.4930224602417 -8.86146544573969 -0.824734013568262 0
167.176876890587 -34.0438955576266 -17.9983609496037 0
141.014491553105 18.38161461254 16.6190595705899 0
138.017490616086 -22.3066357579733 -5.65551905556997 0
159.254195633223 -27.3544883663434 16.8767680494692 0
86.5192826597677 8.01434506582788 20.7212511743284 0
120.795050998574 6.24793901275584 -5.98452066753847 0
117.780028676029 18.4656042031464 12.1485539999171 0
139.324841409781 -11.3030461247637 -14.315466937202 0
69.9115506815338 -9.1028507562898 -5.90781496731003 0
9.72825462708707 -18.6293181413059 8.01340262961763 0
203.959167002588 35.4566545389973 -13.7650409265318 0
2.23892238551369 -17.3172479529729 6.21716871421768 0
152.140769904573 7.30796066894751 -11.41488041307 0
184.175892635505 -20.1322966535654 -39.0650331286354 0
202.088423918195 32.3325491280423 8.9209326526405 0
191.987621674772 12.1510722758376 -20.240327524094 0
198.307499261224 -11.9911836420326 -17.0202382627749 0
186.916449388176 -6.12090684566764 16.911458005805 0
3.19513640947532 5.36126128272947 4.19754876189624 0
195.941280999329 -21.6926233323876 -31.1125143042627 0
133.264921828148 -24.2536488774637 10.9828289268457 0
-38.7324495627165 6.51958138730666 10.7077417077241 0
198.962017586344 -19.1300252413376 -25.3719553039976 0
166.347830721637 26.2717225288677 -30.9930942021431 0
0.480675837510297 6.72912999536313 10.9991864919782 0
155.310497034826 31.3763534425408 -8.55439897146878 0
183.095673477784 -11.9462833040385 20.9834371561454 0
6.5059271102658 6.99911860178871 13.4592168919427 0
138.217558608439 -20.3376922962115 18.8910280466739 0
62.9480618036925 11.0991573171611 10.6942628133242 0
99.9808163779739 -5.66624363159369 23.2665918500334 0
98.2148410720468 13.5962843682251 2.97380919887461 0
177.124391046168 -16.8918569142205 23.4922894065555 0
172.40396640442 -6.5546472910649 23.4774535069475 0
13.6804022539141 -22.077017142091 13.702246632784 0
46.0860827403009 -10.7969378748375 25.1422069236623 0
190.580441545122 21.4969361980714 19.2254353661184 0
-8.97679953820766 -22.7047949275491 17.6855905250859 0
182.340940329273 -26.1769742624289 -38.8479006607877 0
169.336925525218 14.1333529590472 -18.806660823139 0
148.51654663641 -22.4058957153439 18.6655463604868 0
119.143190977575 -23.2780444958957 6.43679876614087 0
77.3888679123686 6.67698717069325 -0.337872170368912 0
139.518070560635 10.5246172002963 19.8936016796241 0
180.383756601851 -30.3880032659175 14.4204883161847 0
26.7444876245194 -10.6827996446204 25.6129528154844 0
204.442925122894 25.3996664717849 -15.6713178121853 0
154.543658663507 -12.5634233160191 20.7770268676298 0
145.962690614688 10.9491432196334 -9.87207171107408 0
187.717839237307 1.22728450940402 -24.1466832506802 0
31.1479131619569 -7.12566517116616 26.0277036736532 0
173.288834480903 -2.01236321832378 24.1495478668751 0
109.468388423895 7.5900794316481 -3.94655854203059 0
159.92592590318 -8.83077895332539 -20.3580634879668 0
200.656868442188 41.7565182066247 -13.9482456526431 0
167.614258153807 -32.3815586925581 -4.52367620250039 0
167.807521117302 -30.1369401998229 15.4744028570025 0
-38.4375682408151 -0.0924855466768318 -4.92624324820516 0
182.067212268117 -31.184750024958 -33.2990498719639 0
188.961414756975 11.6073512970375 -11.5799473153076 0
201.541422386203 22.6879051720612 -21.0174399817291 0
179.593359736411 -19.4479984525116 22.9515621178059 0
106.878848686681 -22.4035912858128 8.77577282940175 0
75.3382789446296 -20.0084858563243 7.64486912621019 0
177.419508232872 9.89677175923341 24.2243252514091 0
128.609075324299 15.4609181011744 -4.00050313589836 0
175.202360619157 -26.1072006610131 23.5140086857818 0
-7.43160610265466 0.193883047403967 -5.17056837832441 0
185.795016583804 -19.4731483240017 21.2149837672715 0
198.215090493852 -31.3126185837904 -13.8923290568816 0
185.730852596983 -0.0399094606021838 -18.1913932400513 0
126.719389074896 -8.47829832823719 21.9472160823476 0
198.625252591838 -30.5424375592586 -11.9147110326153 0
-17.2417954273793 4.52493460431129 19.1878879528335 0
181.693535708006 -4.3572173016499 -30.4486141352772 0
194.266020756252 15.3206270010792 -24.1301044903384 0
12.6320732619092 4.5415709621635 1.41462811765586 0
40.5581915509938 8.86794241623063 11.1568381311645 0
118.685171354393 -1.68452668226007 -8.55384413226293 0
15.7220966176707 -6.89144775284702 -2.55727640574225 0
181.98259523246 2.5719817183881 -13.6811441032636 0
157.316943924578 2.88447425048978 21.1212283299087 0
200.870678946734 -19.6187304651424 -7.37831299557742 0
102.30010158838 2.83026247946016 -5.30344062684769 0
158.633829781688 10.3528861951042 -13.2312204442057 0
200.347340574756 -10.4472639298199 -7.67135873134615 0
24.5596913405568 -9.66924402489812 25.8900209912232 0
178.337344842695 15.6530898827178 -18.8935813437065 0
158.439554645384 -9.36196981287474 -30.4364082541752 0
172.285052439596 -28.0791063089784 -30.2385963036713 0
-34.7170274702478 -23.207377233681 17.5199991457596 0
3.89867193734179 -1.50214820017265 -5.16302057005501 0
192.154806259033 10.5334470452101 25.478020210214 0
188.590104957514 36.9858967665214 0.235079885785034 0
53.8702515729486 -8.92835055462746 -4.16603478279043 0
85.0520418780893 10.9735320557026 18.4635626990544 0
179.969486623471 40.9129903384369 -10.7105499700465 0
200.189318698389 -19.537464907254 -0.502347797780684 0
193.340793966599 35.2740199972336 2.26422364277052 0
39.2872937076208 6.76275438249675 20.6573844118085 0
-11.3889046382352 4.83673785713296 2.36421440513759 0
77.9337818929286 -20.4370162301364 11.8437344114626 0
189.108168555595 7.86326560491909 21.8664223309441 0
45.9097310563641 0.823846940195124 -4.25028456005489 0
20.1137835141477 -19.5828454512989 9.72982550574145 0
107.843731990446 14.0282781762354 17.0516547452266 0
108.095813348285 17.2820963905686 11.8424940357903 0
197.148927404019 30.3191887198049 -27.5181358044081 0
167.865791825594 40.2023356448921 -16.148874781967 0
168.726300915908 -0.820736449248663 -28.8017995426036 0
183.537106419992 -0.150975176792739 -19.3561283549033 0
200.609136493923 34.1748965650657 -22.688818121258 0
91.3380866927586 -19.5621131042754 1.96251974136661 0
174.437974320846 42.8460573971032 -17.5184870981449 0
182.436953943203 3.20166191389952 -12.0490230041756 0
138.178176354152 -2.10601670850174 -10.8738292520609 0
153.777351846542 -1.13705847890819 -13.3192929328391 0
108.716125724781 1.34507328236169 22.3293564995968 0
198.442764311396 -13.3739579032915 -24.5990608547039 0
-29.9283847103351 5.01330482557286 4.39839425778721 0
-33.4457112525351 5.90596683582799 13.4824377766811 0
188.24153183327 -8.50343364489788 -33.6183255335688 0
197.849209163211 -4.35200478529871 -4.90296737323162 0
201.400892137487 37.4215790275885 -19.3883609879532 0
135.731636561857 -1.41944352989885 -10.2348625071224 0
174.148345532994 -21.9334324751435 -39.9005358508195 0
83.9733419211651 -14.1513979732963 22.265591876955 0
174.607231509659 43.2534944251711 -19.212905918625 0
-1.80805966591361 0.979890817978959 -4.57283640524301 0
167.826240706251 -28.3076158600664 -28.3625365274844 0
161.487366437357 -22.8684764657238 22.3910739851419 0
199.578168781801 11.6518557261236 -8.08517211107606 0
192.223916713706 -3.77546588877805 -23.49757670013 0
168.905245203354 41.1791674967153 -14.6761842305141 0
139.592158995032 10.1570921799625 -8.34334978393802 0
156.625160871902 -20.65943652589 -26.7511223048972 0
129.740695725945 1.80477002121996 21.6059875087382 0
104.107519975789 -21.8474747884616 5.40815757269761 0
161.24035215578 -6.7238060909819 -25.2146284618358 0
184.652335370737 39.3978186525294 -9.86638888713621 0
60.9732740635759 -5.89912131219613 -6.73846423259766 0
145.150479494573 6.17177732663044 -9.79374553378639 0
148.016011481503 -1.34029914128223 -12.0700561103036 0
151.813633376302 -18.5078172882357 -19.3081561790751 0
150.680715842842 6.16552727978929 -10.9052430287089 0
162.658303784794 -30.6902950105313 3.052799299316 0
190.436116957891 -16.7324141924257 -36.2359442220742 0
24.7878920227268 -19.2803841184557 9.0988568636937 0
107.410263664117 -9.95198729982878 22.694085836114 0
179.598947132843 -4.84850073856197 21.3742375382998 0
152.261525889477 -16.6844889735907 21.5802648134987 0
186.557315520895 10.5407610632207 30.171834688112 0
13.5410810887666 -2.88280261893011 -5.47473241084916 0
10.4786268247676 3.22920121449738 -4.03628700338336 0
122.322749936342 -16.8515059264577 -9.68749559371629 0
198.497406110493 12.0755534800194 12.7880706324823 0
116.468554114014 -21.9601847202468 1.19821094825671 0
172.697337850767 -23.7668751921633 -39.5153900843453 0
119.035700661092 -13.9066966512626 21.5143166279404 0
98.2256039550395 -15.5191217322067 -5.97196933627781 0
36.6332730009141 -16.5993777050639 22.4702939333063 0
-44.4951246708402 -13.4109469900343 24.5726584008834 1
59.1195821304112 9.75812315398587 17.754798718162 0
175.517257662314 37.3394969658265 5.37866646935598 0
-6.22582585529648 6.38185488734705 10.2255087324779 0
173.820547081123 42.9664980767562 -20.2968317469604 0
164.192105406939 12.6217638087744 -15.5505774381874 0
188.176113090177 15.299979092927 29.8200318460091 0
162.225648026806 -30.2930611914006 -18.3148509990689 0
94.9343211402326 -3.0765408730243 23.3918423854648 0
-43.4220583383323 3.89270533548864 18.4794435875849 1
177.776447232497 -3.88775753309431 -29.600454631354 0
-23.1594099198099 -13.4342223538656 2.89432519520596 0
178.368399947484 14.0045867791738 22.8203161195369 0
167.154019771494 -9.42633426861077 24.5629128886327 0
194.10464701195 -27.1126250331906 -32.6139874242288 0
189.780119896332 1.45015643073079 -22.6509197611271 0
204.036476942262 25.0047919810052 8.32872116002125 0
52.9134620169684 4.36774114445918 22.9219419706536 0
130.681130798665 22.4018959184884 6.94788747625267 0
164.346599585284 -31.2262662445398 -2.34936629351584 0
24.0960014094541 7.83299454705581 11.3750151509565 0
194.289519054418 -31.0612197321778 8.0895393312996 0
172.140160514374 32.416993161813 -32.156985202547 0
154.744380555425 -11.2452507618645 -18.8435765910853 0
163.982221370934 -8.39947749265912 -33.3292153393179 0
157.802250196112 -8.84821232048011 21.4560213158637 0
195.69766045205 38.4627908086036 -7.39800639216588 0
120.052915940745 18.4810025126752 2.19613913222214 0
11.0273821731427 -6.80590618126289 -2.42421937777365 0
150.44833531182 18.9863998450853 17.6397136791796 0
201.88694988869 23.8759602850113 12.1941475140146 0
-9.53312796755259 -0.732315775452431 -5.41476860642116 0
26.9747675638915 7.67367749802052 16.2342898732549 0
-42.7550100477353 0.634164500995739 -4.52849347643511 1
-4.07793092712199 -2.64740614762259 26.18258528717 0
140.73563728279 21.7599414937762 -6.50179171508176 0
121.747162306366 -18.2914028528468 -7.53749541820022 0
171.406509874004 42.5762228864535 -32.1160322349099 0
142.239948695989 17.5587892175768 -9.92441690019748 0
170.239073336756 -12.9383024674176 23.7992162426956 0
205.160169558748 28.5222699388741 -0.507824015158151 0
35.5966633904809 -19.234242137558 20.7090507582661 0
172.258525263474 12.523882154349 -18.0349918216611 0
-14.7553344397429 -16.2065079467518 4.97747879086373 0
87.9615768938295 -11.1516588706512 -7.26394433069778 0
157.452888074214 0.864562921669737 20.8425406855471 0
98.9695087446116 -11.7830553507254 -8.64166728856224 0
165.525118925544 -28.3482935559528 -28.5881045963194 0
155.731285491385 -24.5621807160671 18.9933465169998 0
61.7261693921115 9.22523550322066 18.8499955595064 0
186.848713710463 -0.677523570261449 -10.2915781643254 0
88.1365292993951 -21.0071470970622 10.666978305181 0
181.172267047986 -4.32363628022972 -32.1627364644525 0
159.794190182016 -25.8083311110063 -31.7385714501049 0
160.409562354211 -19.1027682026461 -35.6364857599106 0
185.466669170074 -33.0364519594844 -9.9386845486287 0
152.776018483435 -12.7484997511942 21.375603608985 0
134.622768515735 20.6071827584405 -2.64693957622886 0
176.920684896634 29.993538206138 14.9987078294585 0
5.83822902727694 -1.62854196202891 25.9334861911044 0
131.915311677096 -4.23467330104438 -10.7338347892292 0
190.494274373229 -35.2323404799849 -29.7647986862197 0
195.064349018602 -17.7429011714969 10.712779601821 0
140.09255104306 1.4964437916352 -9.95723494858771 0
146.619095039444 -22.0236702276112 -11.5500567476453 0
180.355773319407 14.2648028797868 22.9449319079402 0
200.315034955796 17.5091596795525 -17.4414008122576 0
-28.2010874182522 4.33445920364607 18.6184462067408 0
81.4007535218964 -11.7992077687857 -5.90941439616136 0
68.1953854058007 12.0691735705814 12.9466575966173 0
118.147270631203 -17.8660658332326 -7.19497272437143 0
41.237774219658 5.31917357795419 22.1570615250784 0
167.759878090431 11.9753561736247 22.0768147244361 0
179.798003154224 17.2314503841137 30.6058340614503 0
-13.7401796969683 -14.0261281742529 3.53157978377915 0
43.524327924081 1.2265122893932 24.4769285196729 0
190.86735739026 -19.8548738911557 17.2527641311114 0
188.284814570347 -15.4717067881904 19.0063513364299 0
-5.84639277886558 -15.7144082884854 23.961663643333 0
49.9262794844265 -17.7643856014174 5.38885818168477 0
198.740543880972 38.9826508520507 -5.78509909949014 0
189.57335123188 13.7749192861016 -25.8728913205403 0
12.636158859317 7.19007777698182 8.63134288798004 0
84.4603441339774 -20.2042691942404 6.07913709999939 0
48.4643327660851 2.3396752347871 23.9950815523396 0
182.399925400128 18.7148969804425 29.3840339572672 0
85.4374161981625 -17.2949015916642 19.8611794041235 0
155.747825181495 -21.1534544481388 -20.5343436580213 0
136.936084930186 0.117109805052382 21.4057252589386 0
146.63464788806 20.8356808450692 -10.4196830487173 0
195.701668783482 34.2997827169565 -28.3313462226779 0
99.6080065719323 2.66353351463665 22.4215397475125 0
82.2014494784753 9.30821274815223 19.7888082097462 0
200.688289623399 -17.6634885973849 -5.44376964777993 0
134.724149215346 -15.7249803778964 -12.9885372914031 0
33.6486107570308 0.117955516763771 -4.42345586466856 0
41.465636590136 -1.78829195201203 -5.5328864569165 0
-3.26943877414863 -0.213846122459522 25.4664612526497 0
192.017228071258 42.5055958442596 -14.0091989346183 0
44.0287626694205 -12.2652744954382 24.749811802289 0
106.554956509756 0.864078257264126 22.4605236209161 0
33.1645581774571 -21.1642988366245 14.7402597684666 0
181.175413699506 -2.93842829500138 -26.8530885026729 0
194.945948841752 3.35466817622283 -9.61013753729986 0
171.991076809042 -30.0207311455835 17.1214221981823 0
153.500880346798 30.8070823201872 -5.5557744974792 0
-25.8965486825603 -1.64871872437807 -4.87428468612462 0
113.042595029003 -1.85432812945295 22.4740084292054 0
76.2611586595044 -15.1033551010753 21.9484909161839 0
147.068303794203 -16.710473756631 20.9688233194966 0
45.0150010318788 -20.3106616097346 14.5796441902834 0
170.60915318315 -28.8733275315188 -32.5028102501172 0
200.127603770055 -15.1790857028801 -7.48758528452053 0
141.828750492368 18.7692112611436 -8.19375200951063 0
166.689144963446 -18.8211798921289 -38.0809083706915 0
79.6071736585157 6.7490253156449 -0.524601968432077 0
165.360737976072 29.2857557991405 -30.5944314646808 0
137.785978002792 16.3995463930481 17.4333852687733 0
181.987799088865 -7.94746654735961 20.1113033853011 0
139.544765823086 3.31003519693288 -9.42720906397272 0
39.0730563232204 3.71935677787923 23.312543483664 0
158.404168910472 -28.8317301439847 2.79371568784622 0
195.29028866737 -4.46630957210673 -12.5480118259817 0
198.728701689228 41.5503644725321 -11.7235515478981 0
-2.42217924016563 -16.1605106123533 5.20944909359898 0
198.896121409896 26.2836814085184 -25.6252146226326 0
-0.433689895874137 -5.20746278689362 -2.97858552882545 0
178.041413658455 -9.42573926731408 22.2746402082162 0
-34.7027593431497 2.38839613217894 22.1281917890622 0
184.557595158903 44.7666537290308 -30.816467368059 0
193.659322362468 30.8793795875228 -30.4204444141731 0
100.507514043015 -21.2190679296412 13.6936647514635 0
193.035643178238 -4.60752331066489 -21.5909434172843 0
170.482910866105 42.5019409713629 -7.54255341363971 0
69.1128047891705 -13.0897688883561 -3.01567696997803 0
197.688428945899 -5.45207053509665 0.0773368956780652 0
84.8697876612171 -3.37971936646748 23.8501708194838 0
197.007905307667 37.2292046591764 -25.5193018611386 0
12.5329706347763 -22.4815967421578 16.5115792123319 0
200.150690978351 28.7687250275642 11.3771719915233 0
61.8297897399019 8.79507273748376 5.36242989306488 0
176.338201430835 18.9043807962996 -31.7492049927312 0
-23.3192701957874 -6.22459564732747 -1.98991054347029 0
4.03987871992534 -0.599062591638036 25.6191783544099 0
62.6482169082154 -19.3144466799598 16.7670463126526 0
128.403323772584 18.0031543975548 -2.18299077485444 0
140.111719121157 -23.2607721270079 -3.79693757678208 0
-21.1438537616082 0.570375089309576 -5.18783055578135 0
168.922027493547 -20.5649414206535 24.9165176861713 0
175.536074966595 -29.7355097065177 -29.9356374665844 0
197.113808864964 38.6600228554921 -8.75350322010054 0
156.853210944812 30.9790085694243 -12.5974831111917 0
193.251519895868 -17.5945950670976 13.6754528191107 0
164.987462691644 -5.08925796292428 -21.7511225257166 0
169.715109122724 -29.2778039674934 -24.5246764376854 0
169.062455077352 1.15244980332813 24.5854778308844 0
-38.9652715253477 -13.7019923516999 2.36346551567708 0
114.18039200012 -22.3184855579988 13.2624692079979 0
102.722586165469 -3.88474600562613 23.071935432438 0
31.3709843252817 -2.07358814910206 -5.81286084314822 0
31.7568230330657 5.40325256501434 2.19345906735496 0
79.6071855140272 -1.67815058866695 -6.02168142573145 0
51.8303575638164 -11.6608749504036 24.6949469739173 0
162.322036413062 4.66157712134511 21.253331956464 0
140.772839279585 7.02740595968374 -8.96861231106268 0
78.4170749516768 5.39224466573555 -1.61273404890003 0
190.176854629872 -18.8171363909177 -36.6995711333975 0
183.326861896497 25.427770142501 17.8925915707916 0
37.9949172506637 -18.7897704498585 8.25490791962161 0
58.9294704637823 -18.1646429368495 5.15391014887851 0
200.467488968089 -18.8517646046951 -14.6188178030839 0
130.035585055853 19.4262932849592 13.7851938292652 0
85.3386124835375 4.14021924926668 -3.12636808930613 0
28.1982906435595 -6.5421502582267 -3.57337523218835 0
195.352237955475 11.9312544295158 -19.3379849830444 0
99.733637077997 10.6024698209502 19.4233764148759 0
97.5200059214521 -5.43205972078246 -8.8801194468434 0
175.086780624008 23.4832917243347 20.2270916754456 0
154.36835714971 10.4344798487692 20.8356270418016 0
-0.402068861728616 -20.4702003885065 9.39411873628454 0
93.0000660030917 13.0948193880101 16.7020799370907 0
30.2123762971287 -0.660989197202355 -4.83720616486577 0
59.6457692518146 -11.567872909612 -2.85434072749168 0
102.298111811319 -22.0241162475439 9.37596816240688 0
-43.6036503679787 1.51412926517259 -3.37806969914231 1
186.813489840111 -23.6690138855572 -38.0411448535013 0
-26.2274241782978 -0.0118030268143619 25.1422752848312 0
189.188476004346 -21.0032401867042 -37.3267502830128 0
180.93171241712 12.3890676280664 -14.3999911123777 0
187.191198287592 46.1375113948237 -29.1367522163222 0
184.996012741394 -0.609942167867163 -14.0091496137339 0
93.7915165759587 -8.74119190063614 23.5081794134131 0
132.875172562545 2.9370631181455 21.3869599270373 0
180.251041414361 -29.8704910514448 -25.8021923666478 0
204.23773037694 27.724388791787 3.69129623606375 0
89.9342065015339 -4.56649574357449 23.7334426522521 0
146.971173171075 -20.831738341641 19.6050899437784 0
180.507386857259 -30.7695794827548 -30.9630187669234 0
64.66884171646 -3.69557236899914 -7.17521898862931 0
24.253167092097 5.56594785623423 3.11399283471362 0
73.1800558631653 -11.4065431624391 23.8216950006099 0
85.429917219014 -6.3050981472106 23.9293953849595 0
179.959832090693 9.78781092288602 -14.8071867082378 0
161.395516191381 20.7408410542375 -14.8684492609466 0
203.391590253758 19.7664732376721 -15.2646245017406 0
102.267461333453 16.851223346644 9.26348411423933 0
86.4918508778146 13.0367181641398 5.65127831355924 0
-15.0727117637981 0.550641455377018 -5.2123138561008 0
98.2163963166481 -17.0891265195284 -4.1160125850257 0
94.9684580352979 0.133817517432195 -6.11603687757692 0
179.706871412049 -4.24683870900973 -29.9785686478712 0
23.6063068130306 -20.2721010426256 10.8687388782284 0
160.933402052429 27.0164928998199 -16.2622013555587 0
204.420185163351 21.8053821945526 -13.9076915425684 0
178.249237971917 43.6605350884793 -18.1246312626141 0
-34.1747888299195 -18.0712900626479 5.38646998790579 0
93.0514893819101 -20.3200720165691 3.51774221994776 0
111.914802369228 17.1686575713112 13.3118498836918 0
187.438567214876 -35.2071281402881 7.51984923488255 0
197.626378873246 14.8741524860326 18.6422774194769 0
178.698828882582 -17.307161925358 -39.4498156300466 0
134.037353625901 -23.5440517467691 0.216509275022823 0
90.450026128036 -9.07970939994469 -8.35876612645609 0
-38.8029799432174 -22.8561776676885 9.60957313691076 0
19.2558622759711 -12.5162611692943 1.70248841400811 0
195.941775789399 -4.84454094920649 1.11407359279898 0
49.4303328200938 -19.3450295246744 19.4294349030839 0
166.437656432263 40.1911751265981 -10.0639431353312 0
165.131809930392 37.1965201109034 -20.061333266989 0
-0.220458369984712 6.70349152542726 14.2356772875321 0
53.1017247452543 1.71238418649289 24.121589766544 0
166.489601005227 40.8990999347809 -7.99930003764668 0
158.083543827467 17.2839234457686 -13.0434556840639 0
164.174372766229 38.4833000481177 -0.0736754608867051 0
162.668047035043 -24.3645145997651 21.6389632783727 0
198.607572837309 -16.6461944130092 -25.8893246472114 0
71.6771366550431 4.4543238338369 -1.86296119307685 0
-25.4186203507364 -6.25712295447132 26.4552996052142 0
124.0364986275 1.42370124293486 21.831960830345 0
22.5096783829019 -0.201871859066936 -4.65455439346256 0
147.50733694785 3.33307062587443 -10.4224288283485 0
199.329868283673 -29.145735346695 -13.4166857161317 0
151.194128471584 4.64080819377329 -11.1883784776636 0
197.608030088228 -6.53581604681127 2.63487686897583 0
170.746120468517 13.6092059386633 -27.1560569683215 0
183.044947568097 -15.8334034427012 -39.0194017014652 0
147.181577550627 -13.0774255799058 -17.4912442277959 0
35.7666239309938 -18.7271368919594 8.20609683101255 0
179.690315285591 -31.5255567339313 -24.0015246414652 0
166.993311153516 43.4937161343172 -28.2527000144002 0
166.055950363176 18.3719189270478 -18.644014706045 0
179.704112610608 -29.5398298907756 22.3941269653552 0
-5.24690035525255 -20.616559509061 9.29852850318469 0
173.076773713745 22.5174141855784 20.7123865482187 0
192.435134294215 3.76700331209686 -8.3782585566306 0
25.2332152748897 3.85949199251292 -2.126038223584 0
78.8632721302234 13.4149635600043 13.3350372709996 0
126.202999534496 -22.3273453942788 -0.801933547791336 0
116.502124645681 13.4104694475324 18.1641393509319 0
4.06849723267237 4.66043282027173 -1.25686082106004 0
178.949590386268 43.607254275352 -15.8489376331111 0
168.628089042233 16.147689938705 -19.5621676937493 0
193.08420728498 -36.0481566472765 -20.8210174409602 0
-33.1459311898054 -10.552678081989 25.8543539473871 0
-5.48104885484826 -15.8108676964575 4.95091665658097 0
37.3123429273528 -20.6526621437779 13.0609304035667 0
172.50927117946 34.6419596022611 10.3413286489058 0
197.828862137023 -31.8261969345218 -10.0728638324309 0
180.68136261484 48.7585552028153 -23.1634289348712 0
121.334954018132 3.53662007045806 -6.93016695226514 0
162.831625404076 -30.556596147235 -16.7070790016926 0
172.205376646754 47.78736534368 -29.2834004077953 0
130.688415708737 17.2578757681239 -3.67262663886878 0
201.927090278923 36.1708927695457 3.01145615425145 0
197.57259554508 -28.0787005827584 -25.2441126743733 0
174.503242659046 -34.4590619020492 -11.4977229871459 0
114.522697567661 -22.4572993878845 3.72025944998604 0
153.798620089063 19.2974879912194 -13.8254725558963 0
93.2970315429541 -19.2499697055657 0.727446146431971 0
144.520647191321 -24.798478225779 13.3317154573842 0
200.322720904478 -19.7946692036268 -3.11971535577084 0
114.045608764397 5.00434761611848 -5.58987500349409 0
186.402348359027 19.1944258687588 -30.0869754996648 0
-30.1416507928512 3.18450064335487 -1.97131460221689 0
167.598916889372 17.0893914125259 -29.7706469426676 0
36.9475488431819 6.13269540338914 3.9899121916863 0
87.6470190321464 -20.445226298042 5.88043341195066 0
198.68212534259 42.1754467902748 -14.2902176670709 0
166.269248203171 -0.202445307075083 21.316873695198 0
36.3134769418979 -6.78489724337062 25.9602171936244 0
39.848486917795 -15.876386693469 3.71210505784003 0
64.70051381373 -17.6307406952959 3.42832496850298 0
64.7714297168508 -19.1431150975059 6.45837280637153 0
1.19754178148489 -12.1652931989586 2.12726369944008 0
196.512396698748 35.9798023360957 -0.84936489206477 0
146.723325117873 -24.4840080812027 15.2088756975395 0
63.0571776555213 5.4710013040031 22.2256836042574 0
6.40778662325928 0.967348217117198 24.9208210091614 0
187.428654927183 -31.6212119760065 -2.33392728495341 0
178.820511510004 36.1243890489973 -32.3857957590385 0
-41.4726453856609 -13.4957697319521 2.10006422846853 1
199.228871030549 9.20778180217463 0.733814716504049 0
150.435998776732 -8.1063073444381 -16.499303361233 0
199.840192139395 -16.3939178338067 -11.8574892773393 0
54.2768632968928 -19.0465172860514 18.9302599315136 0
-16.7836031204277 -9.94203238136182 26.2611379622227 0
-30.2995894775883 3.04355506205091 -3.4378113215661 0
197.14606727981 40.7389991649926 -9.23727836002857 0
193.224315818765 5.35580514804527 -9.68479898961431 0
56.0045170512744 -18.5747033410603 6.34420020365322 0
160.752013809854 -8.24501293878222 21.7243145821317 0
166.869750117001 -10.0414861767524 22.2226072595461 0
185.996854472375 -36.7673808882534 -24.6997330396345 0
177.340418144611 -3.8049488446372 -34.8563973306344 0
203.667310452462 23.8152153948696 6.31992526656573 0
70.8268430258853 -19.7453449898496 15.4058723158122 0
24.6602873604582 -1.21986173994273 -5.4543084685955 0
1.7455395752202 4.70981122409174 -0.485331802747055 0
93.8304436928172 11.2116404995913 18.7277664635675 0
172.227783567262 -23.0668951960728 24.1051707684556 0
194.908247382916 27.4275556101928 13.0628516485399 0
193.139389761439 10.2170271185842 19.5747168166525 0
155.125451360201 1.62399826507732 20.8391309258607 0
-25.3403590816979 0.53279907399458 -5.16279619573876 0
-11.6383086858265 0.0671484538458693 -5.16927796089668 0
122.949629398136 16.6638969227681 -1.37089071896306 0
116.57762680364 -0.892690395928204 -8.13221498077434 0
95.1791122087452 -20.9110485150421 13.7500567428946 0
-37.2095681988601 -9.42879242066242 25.9978142272157 0
132.192180972993 -15.6797306870625 20.8735545611403 0
81.8099896134524 -18.838402336984 17.8802224865102 0
159.801087568085 -1.29395539098813 20.8339346414362 0
185.763456766139 47.6622258177162 -28.7760280213678 0
183.663785182425 15.7927223451639 -30.2383118629983 0
150.176221397501 8.08056816005314 -10.7705134553246 0
203.909652036117 38.311454535767 -9.62586115604163 0
32.1252538248376 7.42232991926603 6.72883499236086 0
195.58313675275 20.4277143412228 17.4466020813065 0
158.697895821751 -18.6093239294879 -24.3446916862748 0
104.325748176646 -21.3524592131287 3.21272119864692 0
156.531431730643 -25.6440921216386 -14.813692930249 0
105.697590106268 5.61563466339913 -4.36925033081377 0
178.797819505511 34.6119562669713 8.77798499995532 0
-8.24846513697171 5.94743641298193 7.55191379951015 0
178.933317284681 -30.0683440660437 -36.2895992026474 0
144.483303169023 27.0141798725124 -0.0150630907083711 0
11.5036758834633 5.31666468289136 20.7803908712955 0
133.246489539999 18.6679802410557 15.2778466273965 0
160.016389460904 -7.87272424072701 -31.2797264456617 0
167.596522970113 -2.19239274938687 25.8760645327955 0
153.093631566588 27.6833390108065 11.3889898676299 0
168.675701545695 44.5446690992133 -23.8244806331274 0
190.141318244108 27.0089405801739 -32.1811249483906 0
168.5566849054 -21.8702236313888 26.6360615242126 0
153.522300293645 11.077672111274 -11.7760148728399 0
168.831694234137 36.5291300570346 7.83753617585391 0
172.11905932742 43.4094108711131 -21.9507170779907 0
157.458120788903 -13.360955479627 -31.9487981357304 0
163.299678892716 -28.4524753662733 -30.0337293875056 0
180.326734875802 -10.4384139693994 -37.8022694745509 0
186.847431627998 42.4521417409356 -17.0213679920432 0
162.838296105686 -24.9685109170441 -25.5913857450173 0
41.3419533234232 -10.0729381188549 25.452328944288 0
178.738628989278 -1.36859959718915 -20.0362804549974 0
21.9020476393505 -5.88250222083197 26.3111819870848 0
82.1242225443566 -17.7426871210739 0.507276025805079 0
32.3430621501017 8.20875022881828 15.3099294187652 0
198.399244050702 36.1747169063925 -0.233491575649081 0
151.807246305761 22.8925870364822 -12.3044583350849 0
200.183855182017 -24.3880602400424 -14.4794494324504 0
29.1270439888575 -15.171302080783 3.65221607977269 0
94.2425469038212 -11.3946068318328 22.9600520697011 0
-7.58629816015539 2.93317241423025 23.1244924714278 0
-15.1233536791085 4.72482329637244 2.39684555919699 0
74.7670797851919 10.4120514612281 18.4143798453209 0
136.670737983766 -10.4083942332818 -13.6281541245976 0
197.561276636184 42.8604602483762 -16.6717261553428 0
197.802369086175 -11.0228714651212 -21.8764947296298 0
189.907870780185 -30.7882071708957 15.4452447940104 0
19.4655853808654 -6.01631794539792 26.3430275694639 0
164.627931545878 36.2076553997349 6.28118489639296 0
-29.2278234387363 2.97999824843996 21.5423187796133 0
-24.0584554005035 -15.8295729253989 23.9234383803273 0
64.4531692154395 -8.16155197107013 -5.7830178141067 0
174.955083077284 -33.6270235088147 -4.50072301144568 0
34.6271996694816 7.43686266826136 19.0727663324283 0
178.673073334368 48.2179682576044 -22.8495259391775 0
153.475142627436 6.72655347477165 -11.6265425163815 0
153.580013502366 -2.4125445644175 20.8904650575474 0
43.3772127278137 -5.11117539055231 25.7767352999266 0
119.027120345003 -1.81363524175002 22.1563999330471 0
34.3648650738367 -20.5459188614061 12.5059605439695 0
13.774773494257 -4.86474364370491 26.3669296731236 0
32.8386511097435 -9.7188738056592 25.7011286300575 0
140.708120523413 -9.53771483904504 -14.2241949737994 0
88.1354787311154 11.4920924993248 18.1585825342624 0
88.4090126701114 -20.3409891771639 14.7714734195877 0
41.6219362762845 -13.4075672425907 24.2983879092661 0
180.911543689374 17.4667918140693 22.8295257768288 0
170.826700618456 37.9108596685426 5.32332791578618 0
98.4551804306563 15.4127310879957 5.86843558595168 0
92.6128251631915 -5.03046086271406 23.6150770770701 0
179.330102574384 5.03671008269008 26.9637530305705 0
61.6062179385094 -16.3998081180759 21.4537601125875 0
192.555659366532 0.523351986107726 -17.7902254650926 0
171.187769114175 31.3060052870574 14.4077964074542 0
193.654098689445 -29.2775873682964 -32.2599831526802 0
181.222722637055 45.0862786305789 -17.039329500097 0
191.253596921725 -32.4053962829074 11.325539507016 0
133.227506491558 2.18036395522885 -8.7529361208649 0
133.086267051652 16.6857132799172 16.8794414442555 0
177.003557961463 15.2403607054566 27.1837824785051 0
132.815427490533 5.71674201692382 -7.90418144587109 0
111.270852072345 11.326846047337 -2.41195878848604 0
199.650696660026 -24.1646709500744 -21.6595950274218 0
-40.3968407108751 3.43219306331478 19.73023465331 1
112.835220592957 -16.6547742793564 -7.61641306100793 0
155.223452137483 6.02384545872605 -12.0136343721275 0
139.085075111392 -23.8564526584236 -1.09989717358619 0
47.4076804409754 -3.96860027547147 -6.39594582760287 0
172.762434471122 42.9269850194026 -13.6521381771246 0
180.048182021332 -30.3265019872851 -28.1531010246157 0
116.488353085808 -3.50545408977879 22.3786577876857 0
167.253038110384 -33.855352749651 -15.075551859644 0
74.2599914349613 -5.12327550984901 -7.65723496152397 0
-35.333628108084 -16.4873070008856 4.15483275236103 0
132.561442938082 5.76871644521904 20.996564697828 0
197.192177534114 -3.30370359918939 -8.98673793427766 0
-37.4838038050224 -7.15366340115643 26.2145625888991 0
193.65139144104 10.7467738669217 -19.0562872382768 0
169.83436922657 41.5450070271105 -1.1380321652026 0
148.726081318451 -24.1701430870965 16.7889290438459 0
167.968655594157 27.1528844037284 -29.7013692939602 0
178.547952276496 17.6454136724864 26.7394875911005 0
62.5472246235425 -14.0470036987094 23.1390806610684 0
191.452901452285 -12.1067552950008 -33.2884453508166 0
145.90103078856 -25.8976216772606 6.51821046781203 0
-11.1838496067779 -23.4913194836503 15.0534350040031 0
187.768791383778 38.4433401200765 -1.90718884355703 0
156.888346474197 -18.6674846837691 -30.5107673242906 0
190.876244479747 -5.67028261680229 -27.2057208574653 0
191.235235482223 -36.9415982586523 -17.9694433682993 0
187.537001655731 5.04603525601254 -9.44999452280183 0
188.000833940735 38.8182846737919 -4.91720455939062 0
-30.156117451799 -0.954825873419181 -5.16416024122087 0
179.462432709768 -29.8452013748923 17.7578701894231 0
158.882063255734 -27.2112123064478 -14.8854480668869 0
33.5294152497302 -12.6371791478081 1.04798017269398 0
180.818021944411 -17.263079032131 22.7606744235956 0
154.999443543664 -27.1546976729043 -3.26765612144585 0
197.033184404444 -32.0939498291117 -5.85148515419736 0
32.7346408221653 4.6607174763755 -0.0552770538027809 0
169.057512175508 -1.21044069318579 -21.0511253664818 0
91.9290703291113 -16.3605632191299 20.6066852780574 0
120.565788986172 11.6276741222546 -3.89198003211227 0
69.6165311106246 -0.845557280397494 24.3832252003659 0
33.1319600876846 4.01693800618636 23.0570483105173 0
196.163143629479 41.5835326210837 -10.9664451822062 0
160.465218189194 -21.2406590783643 -25.3356772886377 0
191.526228813966 14.6477585178669 -17.5981058140612 0
132.345354350906 19.4583035441337 -2.60203234512624 0
167.01611607873 -31.889303586641 4.48944583499639 0
197.103417115023 -10.9440379546269 4.18504765014511 0
186.197984380604 41.7604159729812 -14.8844175659974 0
168.615210480535 -31.6235348904444 8.4424927055879 0
192.327467475778 15.2394633432221 27.6070695424438 0
-15.4541090839492 -23.4961248439733 16.0725662200835 0
10.8860541414897 -5.03251257221312 26.4034829169139 0
172.627638051576 -32.82669042136 1.63821689760785 0
31.7896501823144 -12.0821720824777 25.0674674284901 0
195.871091758043 39.9026343182529 -10.8317125937983 0
16.8333177459273 5.70922575225078 4.30880166231854 0
204.467311688848 32.3985762403852 6.17429382114205 0
91.8981616673788 13.3021893238471 4.46580008475835 0
130.029408163505 4.75057819177199 -7.70694682051859 0
169.353445686224 40.7853158016656 -20.1783459053639 0
156.690153025707 23.9874192007284 -14.1645663150524 0
16.4787194142386 -14.0059656398585 24.6124099077566 0
113.49195777 17.2743335316644 3.14418055584359 0
164.36867467332 -4.91640156897423 -23.2803491514021 0
26.7526675173945 7.86164568293918 9.83280289713072 0
126.983808904065 6.95340943301333 -6.67463951452253 0
170.677449200461 41.7318940719345 -17.894665806588 0
103.086326639325 -6.91125268880554 -9.65929035960918 0
100.753079661013 -12.9519593556574 22.2374221099327 0
178.372287223407 -1.39373175879139 -32.2553831853805 0
193.140771694626 -26.8753559368426 13.6023670765208 0
155.30666496956 4.09029054762669 21.3330606687845 0
-35.7506056009778 -21.7260688051564 8.4524033169821 0
84.1587359643438 12.1470756899439 5.01529925458403 0
142.874872801536 26.0741834067317 7.06511078812364 0
-12.4371767179457 -22.8956444760878 17.4449859262601 0
34.8543808776614 -4.4167030299245 -5.20312431233298 0
157.757098461304 -1.8316308795015 20.8721535148577 0
-7.53377321700133 2.47755363948256 -4.89003717297987 0
128.310298450081 -17.3218661220287 -10.7597711754579 0
185.322789074735 -29.5767334705224 -26.6318540597731 0
119.47314789391 -22.5528881725188 2.30199504539408 0
185.466842611225 6.64227646432753 -10.4234846764809 0
113.034889096156 2.64639443246984 -6.37959270037764 0
183.708364943474 42.6436049652298 -16.1260994191516 0
172.419058546882 37.9003319633253 -32.0095931181411 0
198.198897007786 -20.444510145835 4.55002405306742 0
77.1971676804681 11.2996125249832 17.4919096934474 0
-36.9155390342409 -19.9345168591535 21.0326215008057 0
27.8288526240881 -15.636082658373 23.3210175093915 0
91.7381992162819 15.1797290433292 9.26727803261183 0
138.04211192404 24.9546300267501 3.50732016741519 0
156.293035750957 -15.2545663257809 21.9441642971529 0
101.529847577666 -19.2108507949266 -1.45890528760996 0
193.081939746673 4.29976085779961 12.6306427321137 0
175.883867542409 -33.2674642761878 -1.04603102931656 0
98.0665508082321 4.19107347765376 22.0991047306264 0
189.661350432701 0.329445654402452 -17.6259019008987 0
43.8139805851735 -9.15838111284108 25.5467580541719 0
197.590139308081 19.1412845189776 17.2683038786687 0
188.557170710809 -24.2141482511138 19.2634150340332 0
100.343819181002 8.6994603656085 20.4961378403311 0
69.1646176677652 -19.9832422562408 9.14114446704424 0
163.416932409269 32.6458452223425 -23.6738327840851 0
142.311271755174 22.2374512283459 13.591272970139 0
164.821070937095 19.5914970061281 -18.0700178178994 0
29.4639960248989 -20.2395381813808 11.2763631464647 0
111.465179911307 18.3039725897244 8.38466844771927 0
170.175349177396 0.210229636317734 22.3868876113269 0
0.78990244536205 -1.6060066690122 25.932179637228 0
200.150427158405 -22.9397650071306 -7.85850431132216 0
167.486967025791 21.4956963894029 20.462591675661 0
121.052116368137 8.87305074741074 -5.09166558814082 0
118.037153058746 -21.1284055228702 16.5382837759366 0
203.817620838312 20.9149231508081 4.36597528834782 0
158.123839786176 27.3248448194766 14.291558042994 0
42.6500466318553 -6.34350224765476 -4.67455015420199 0
-27.3294974524761 -12.4557855112698 25.4521488118411 0
64.5984473154884 6.07390699176926 0.438049426976807 0
157.840616248981 5.17528022653755 21.3182816225009 0
187.053735989877 0.674551933711083 -26.5583339816567 0
125.373950865909 14.5937031571332 17.8057972317418 0
189.250118288016 46.4927600619262 -23.8074155493557 0
-25.208039794699 3.83207818094861 -0.456483315656144 0
123.78900351172 -12.004399578925 21.8135200946845 0
148.687343832315 -20.0163365772615 20.2400628288437 0
164.839476526378 -31.4532012327396 2.92236722075993 0
160.110749528633 -8.73279864186335 -25.6784260179698 0
165.316841833476 -19.402580030414 25.1634234583805 0
-11.5296458581821 -15.8309597565106 24.0177354359313 0
54.2037024005494 -0.584575510364568 -4.83592128184524 0
134.746919667321 12.4580857732126 -6.87394999236547 0
132.719405597807 20.2334377294994 13.3381860704026 0
71.7602004383648 12.476124692539 13.5637331165802 0
115.017458586032 8.91272121878516 20.4098810284738 0
162.370415159802 -5.38297647900088 -18.9432177086062 0
201.496204506018 27.4828214536642 11.5893132146246 0
193.520772444964 -16.2670135505178 -33.48991690784 0
21.7257975108012 7.57010315636262 13.0189024297516 0
128.514520544768 -23.8599065294397 11.5836676555598 0
153.126015696799 -26.3078873196911 -4.9605606858511 0
200.701419851515 -19.9724748870318 -4.90748268211986 0
3.41521027658487 6.08304690011241 6.86990559580977 0
65.0858544695544 -3.60163353333771 24.9512302763843 0
77.7270675516955 -20.3528510050356 9.46112436652908 0
47.2250565221691 -1.55171255723571 -5.53350893479089 0
189.513487145312 -30.5546418860214 -0.27610127636684 0
122.824474225541 -2.88813898872921 -9.2783364475294 0
78.4003707056968 -16.9078818480829 -0.140622606324368 0
120.32437762053 -20.5367253799213 -3.21498939161307 0
177.030531650933 14.4990105996485 -25.7588122697145 0
198.234864976653 -10.3913004208399 0.757827166795 0
188.317292696984 14.8984565535589 -16.1252260260155 0
149.783930234773 -18.815240318906 -17.5735341145622 0
124.264241102639 -5.50719402190472 22.1206836963649 0
124.239263895664 -1.91488795026709 22.0001438302289 0
191.172163869737 -0.458311591047834 -23.2372617597583 0
61.4760153086054 5.61430504786662 -0.0687372771502759 0
8.91191713941364 6.86415342269892 15.4932169753346 0
163.846532166427 30.4208573297178 -28.9243907446801 0
176.004518900396 -0.579183958959433 -21.6806028857332 0
194.539841144754 24.0455511733332 -29.0674615524784 0
5.22182597589271 6.94003805421348 9.83073311740889 0
162.069670642475 -23.7214245309789 -24.9327266843228 0
197.083247475451 23.8934526052179 -26.5349459408399 0
164.587595430733 38.0294789874924 2.1137784978407 0
156.066601930624 16.2170000795471 19.8647577383606 0
194.581199786383 -7.2716276395901 -22.213439212226 0
161.53930666686 19.6760345196387 -24.228709326869 0
172.569533720802 -36.2251364346673 -18.5084762306939 0
-41.3121524864928 0.0726921915646267 24.3600081746242 1
170.006020043971 16.9748309118285 -20.75416682891 0
114.089775815304 11.6736153981956 19.1631457071583 0
26.8052628251362 4.5233852737632 -1.42681764864296 0
171.49299463966 9.72643567681606 -17.6272477930199 0
156.343896419943 14.8837596070317 -12.3592231301126 0
183.30010985949 -33.6460802010727 -17.3709495848529 0
47.8177453464214 7.2902573136051 5.04872769399747 0
204.144487207535 22.9063747473591 3.54930369996571 0
38.3173078751176 -11.1141348420805 -0.846474949449954 0
146.10843916904 12.2976196247687 19.7831457620079 0
187.000588432465 -2.37271815769999 -30.1622003081411 0
141.984207296525 -18.8673574694418 -13.2857817770357 0
157.921466573029 -22.0641204882887 -21.6337610384987 0
185.663757041254 -15.88829874584 -38.378850431542 0
-0.645351609842696 -1.64403366355372 -5.16789088244264 0
-38.3266998835562 6.30902591275681 8.03551339401907 0
162.455899070889 17.4158007187321 20.6686671186531 0
85.0771370454734 -19.7101987165127 16.1810317200002 0
29.641513006885 8.00738512447942 10.1930088221486 0
185.979214568256 45.8499345875711 -19.3061111149092 0
191.731272914424 29.2340668898392 -31.5765841238321 0
-33.3053468663326 -7.98810489743091 26.26828223827 0
183.569582917385 19.3471297444383 -30.5364295768045 0
177.574479351196 -3.4059526328735 22.3149483819927 0
192.643940678924 11.2364590329948 -16.9942264923906 0
132.439149117012 22.6736447233979 2.44323342265646 0
25.310572563509 6.00779542316972 20.8026600482965 0
190.982057267744 36.6464381942708 -30.4142362769521 0
81.3502856089306 -6.46340955968576 -8.01968969902858 0
170.523718857206 -23.099917054186 26.1440748584617 0
152.574325469769 5.06114352399304 21.1253282234685 0
168.494048169047 23.7222718234076 19.5465317608012 0
162.779301093995 -27.5079978794045 -32.6025008061948 0
17.8241738684241 2.75198010692656 23.8989354080745 0
167.325403905208 -32.2892676678966 -6.91889537536538 0
190.574628538878 38.2473540366558 -3.8516455876811 0
29.5103999676204 -10.0404319941663 25.7109094565849 0
199.452702972184 -13.4706818288578 -19.1267428546418 0
-34.741056462064 -14.270168179523 2.85688302180654 0
105.303291247911 4.19361292499415 21.8306367341951 0
197.963311889116 7.52915245719026 0.277960872007328 0
102.428118010126 -15.2271808740315 21.200298276167 0
106.438051967753 17.2605551591045 6.62225720078653 0
-41.3474201721815 -7.66364073771559 26.091568049189 1
100.194916601049 -14.2607514240246 -7.38124695961634 0
83.7950215993398 -16.5255453297853 -1.82679665522115 0
177.938839048262 9.05938299094131 -15.9169257838806 0
-31.1243737503203 -9.58993623635324 26.0655887067202 0
192.64853817472 38.4573748016529 -5.5703280011422 0
31.636345883417 6.85902849554197 19.9141132061417 0
198.668371580182 -7.47398453590564 -8.08971797226246 0
164.112137322078 -31.2512297898584 0.489400165932021 0
166.083339788012 35.8290050201494 -16.8591804924521 0
172.016290091874 -36.256278693641 -21.6317905006633 0
151.612724258293 29.7662523054704 -4.8395530497677 0
179.989874876772 -34.1798398231577 -8.94272017912911 0
82.0659359972747 11.6098793769911 17.5347183166158 0
34.8329468296267 2.13708764500199 -3.60387239214958 0
48.1955600219801 1.31101196303889 -4.07441256685952 0
-39.2081838063793 -8.52248788404078 26.049230319798 0
170.839038515719 -26.3563862325307 -37.3853971307365 0
