14.933920178158 3.34786812700068 3.57753371197239 0
166.988305090417 -26.1820698109883 -13.0937390408628 0
85.4690573703488 -6.08874310325844 -6.27140103560505 0
7.74177932246869 1.05710628366953 2.56258149268385 0
100.398959689717 17.052009564903 -27.2372493032538 0
72.141968415826 -9.41146714284849 -25.391886413135 0
204.099024394821 9.92642395177541 29.9130046126447 0
156.255608405863 26.4777434588877 -3.54837356275658 0
180.166953409228 -15.626024813182 24.9657933460226 0
201.495794697547 -6.31124387073187 11.1347132378827 0
178.458748198718 -30.1063516506962 -13.7851953172427 0
174.590027350041 33.0780865151333 3.77570860328314 0
203.578686412923 5.20186689054471 14.3618153972659 0
205.07639747823 -33.9131050494144 34.4165606560205 0
202.162616458639 -35.427359489816 -10.6692226247787 0
43.0340027621666 0.508890322940283 2.74855736970924 0
171.068099179146 -18.2455763980901 12.680664268092 0
214.812013285333 -43.8245815142128 15.783666115708 0
43.0537808695632 -4.66807330809808 -27.1687913482112 0
218.022348421051 -37.456935543492 6.33238642778847 0
70.2609643013315 21.1741252452795 -14.3981037390443 0
158.432007940774 -24.2616877595163 -13.0986412004353 0
185.717122122363 5.22943035733456 22.2845011488846 0
135.07728732283 18.9997949604198 -26.287860159266 0
117.510983304562 3.43484342929328 3.16390395512582 0
187.773711193052 -13.2882377558908 -27.9452199503537 0
198.69460281262 32.5420105618286 -17.1780672976402 0
140.444374413108 -20.7431685073737 -13.2393868218713 0
23.3068906650488 -0.8891785289656 1.72278644418948 0
104.225556954102 20.0714243796639 -23.6510158467642 0
211.98736721302 -0.0595012252589081 7.26072128111027 0
165.249172583169 -0.254448782540151 8.04354598449197 0
203.02940454119 20.9750906214705 39.0741432377582 0
122.617700024898 0.780297841041238 -30.7767558486502 0
206.324089038369 6.42396154968753 20.8337712325741 0
91.8432019230101 -13.0895607118306 -20.7992328495476 0
120.374279031123 21.9023631691094 -21.3761512408147 0
136.96919472433 -14.0796874519146 -1.96294939495637 0
175.139936803331 -34.9363532134206 -1.18264781673127 0
212.979370844715 32.8413320987443 25.1280492214753 0
217.142773527347 -38.1806476203072 -7.09978465717622 0
174.043570614262 34.2095920881227 9.27354422012216 0
109.045745233878 -9.70153636826356 -28.4150532843051 0
184.13169330016 35.6139834639844 26.4598468641346 0
195.090920236514 -11.352960771708 16.5984936127401 0
172.413085910045 29.9500105315622 -11.8361053913683 0
69.8401266594836 -7.38661203495499 -27.3667594456276 0
131.928747712781 -18.4303238740351 -20.2997800746801 0
205.403805432343 -26.92781448167 -17.1539231476454 0
45.532350345241 17.0376587898582 -6.83045595377614 0
201.131068684327 4.51298071532844 15.2018444554221 0
184.280706442088 26.6908815681757 40.289340990321 0
217.518596457203 -36.5054430181149 22.2856616747365 0
176.24116092832 -38.5581373160264 2.32315219775732 0
104.146588995973 1.66321274832882 1.99344227094499 0
136.628679671566 4.99439689506529 5.74082192586967 0
213.904631014051 25.6419222875902 9.24554527240315 0
177.94988448773 35.7057858625042 5.94489123954407 0
120.056865704109 1.89188762914811 2.84436160074822 0
170.40197283515 -33.5319030351175 2.86561497718 0
179.623025178904 -37.4664578801454 -4.52588693307952 0
202.641691966857 -46.7272733944604 23.8638128772494 0
123.103897766669 20.7646732994292 -23.6444359973365 0
110.427324285109 -11.8000410858894 -27.2726233926334 0
34.2238096899148 15.8811522097289 -28.7571163439237 0
178.357281308468 1.1775669397746 16.4800901196974 0
118.060860459433 2.08806676029031 -31.0638281855859 0
157.309885701674 23.8993819584128 -20.6134799024144 0
182.49786991816 16.9114677892568 37.4608954751596 0
153.384530367436 -17.9615145411094 5.00500366278163 0
208.580908753392 31.9528869598271 34.7316112420838 0
206.568132768387 19.8334264801432 35.7286764887942 0
52.3476153116217 17.2375941037919 -27.5228520383622 0
198.479810697362 -26.2222737830988 -20.1421644459115 0
70.6817429468292 13.6927948277545 -2.11108960808563 0
169.238890359051 -21.8408380640778 11.1179720364202 0
193.837083237408 -44.8782411147158 26.1756282440524 0
174.790648344844 30.9325197714912 23.514411137903 0
208.692959234018 9.8417165544985 17.90169296242 0
80.0135209163333 6.85512741747996 2.78816595370243 0
218.768410766249 -41.3006429316367 10.3003794906301 0
160.3094233287 -24.2750252997038 5.7070672011148 0
112.951856037287 20.0282195665481 -24.0782031378119 0
80.3219749694292 0.951405869255598 1.21934759506805 0
68.4196679049537 -7.50317323417069 -11.1923904641262 0
207.494666767354 -20.2166832540543 -22.2188688823782 0
216.740802767217 -34.5959809147518 -3.03604107018728 0
213.330665612493 -27.0474261993437 -18.2490886765994 0
220.785685994796 -36.1995645872005 14.5966858977638 0
161.567081550837 -9.98511256780394 8.75387484345626 0
138.603861535269 20.5910010614819 4.9646946552922 0
217.339585845471 -39.4391968656482 21.8705233234229 0
213.225746297476 -20.2546532905844 -20.1901172870014 0
178.007060905682 -3.37683479416886 15.9569508093457 0
197.848440078723 -43.1646612098201 2.43754305112278 0
141.688263369791 21.0719223696698 -24.384528348876 0
119.858689406481 23.279551956458 -10.204663199895 0
163.355175210264 19.1318628209533 17.2785085283386 0
180.458107827151 35.1753626615906 -1.53505811817979 0
21.7836355853529 12.5999324438347 -2.66443182257967 0
174.631945171127 -18.207595697956 17.9000039078451 0
190.747241602089 38.5927989423551 22.3056490591185 0
222.224526665409 -28.7442147088065 -2.59709596098478 0
211.479711454124 26.0532524182251 30.1508321946355 0
173.035840146713 34.5243047132729 11.1192375082305 0
65.8462624791016 0.83413097018398 1.09661178633022 0
101.169392884418 15.6315459264188 -0.697842471198413 0
188.321230406721 -34.0851384742834 34.079615749285 0
175.704007836359 14.6468752390702 -26.1512916301799 0
103.887005129372 19.7548696563828 -5.29439102416357 0
74.8901239982137 5.69195533597673 -31.472650618314 0
196.79829896623 -12.539908484997 32.216077883457 0
13.3175261007727 5.59457153764693 3.64414047426397 0
159.338800115565 13.2884805029525 12.4621705647932 0
207.138087367525 36.2821184684486 17.550933263403 0
50.5396543823767 19.6372542138564 -10.6162630074673 0
189.76906857859 41.5277804511216 17.0930184417447 0
88.7613093408445 -9.53065767233361 -10.805647733509 0
161.276578025169 -25.0865572436057 -12.4215645210158 0
132.494791326492 18.3277856048162 3.80246328694951 0
112.671617101288 23.0779354320702 -13.3484528983602 0
219.652436771429 -20.0448681633016 -11.1378791243153 0
176.922819852149 5.21612016193504 -21.9402102530551 0
79.6887730963271 -11.3477281309357 -22.1044531229769 0
192.496141393993 -5.51409482693328 -25.9287682322499 0
173.515094250584 16.2893498068045 28.2229456327623 0
4.44800710652591 0.0183552045560532 2.23906694591166 1
203.541981048807 31.9828288624386 -19.5912795567842 0
211.990122797153 -13.6253944006037 19.4371195308622 0
26.8614551848506 -4.74279602417863 -24.7892292278561 0
199.936823984558 -27.8584913597993 36.095837950639 0
187.589613146698 -30.5713563157443 -17.0017585921616 0
103.966631022226 -6.01178120033615 -3.8609341888465 0
203.903551519327 26.2579045191134 39.292675799324 0
200.432432810114 -13.6147384926686 -30.5215157067881 0
195.569951599465 -9.58131562048268 15.1089730479496 0
166.623959937223 -31.4273478764903 3.32587124491685 0
139.268785517642 24.771054757334 -9.4408898445647 0
205.911246479696 -19.6195019227917 -23.5490877405832 0
26.8157872577627 8.40259536186286 -30.5746964088345 0
171.243419049951 30.0564778949365 -7.11813941383729 0
211.003414431478 -18.1045586696473 26.3015636161445 0
174.54441270353 -16.7633134113211 15.8140670343942 0
169.388133348545 9.87537731562869 -25.0816774199451 0
81.9526932129077 9.76480306432604 -31.0495797982389 0
199.535877523615 0.154991349064344 9.28899607929982 0
159.754073517814 8.44984651802507 10.6691123291336 0
178.652300489416 34.7863033578012 0.152703871045168 0
213.902079150898 29.7303888335039 -7.67838710367623 0
47.6433666737975 -0.142065749486208 -30.2051192489055 0
212.944164592368 -34.4859772632822 -4.44942154765181 0
192.260846943715 36.3286278216262 33.8225351811777 0
195.699269784335 36.7849611482502 35.9900845648324 0
19.9953272991516 11.3095524932655 -1.51318383578884 0
170.337568806301 14.1352330800259 -26.0286198599603 0
68.6219409006077 15.1385977708075 -28.9313747138786 0
178.898014690712 7.10609230089592 -23.2135735765287 0
222.590501547918 -35.4365948994858 3.16652445070706 0
180.302695502455 -26.6029283351708 24.5923509992404 0
173.311559090055 -19.9295831649024 21.5781218011036 0
151.225834640239 24.3004802348594 -18.5548529853235 0
209.547437586255 -38.5851687212137 1.18336226604864 0
221.069622419994 -25.5584794342923 -16.8636692409512 0
70.6520834717266 4.60306088447105 -31.4067021798962 0
30.3134996991354 20.3514364883612 -24.2319196516126 0
135.904300345319 -7.43784326236236 1.24106780305412 0
181.415417742881 -31.441077813386 26.9743529984382 0
196.267627062048 -36.0220049823015 -12.5350000691925 0
168.246281533973 -7.38604127112125 -26.0739515034665 0
213.417651075496 22.3032686142238 -10.8966247539911 0
101.194246434496 -9.6760170496736 -8.06995310764924 0
177.410699506502 -15.8156868508591 15.3773653568596 0
209.852594181455 -0.297421407509181 8.52566150368091 0
198.504611101085 33.4204968011073 24.2713653463403 0
95.4040797698986 -10.3803076328945 -10.667530644218 0
67.1308564337921 14.2208778482149 -2.88669990177304 0
186.583911450799 -9.15182794136583 -27.387871902138 0
189.633259187737 34.8829578841394 -7.60298184903538 0
6.63621892351715 17.6565684352668 -6.64114139411224 0
106.871045621274 19.3018995216519 -4.07110051011999 0
216.896753500732 -39.255914388056 -4.7540076279203 0
198.944301241534 -14.5074287558875 -31.9782618403586 0
84.1272454308873 18.7351094769246 -25.3135376392262 0
189.150779974361 -41.4676494562162 -6.75337985847251 0
11.3676469310707 -3.67652811245539 -24.3571219848273 0
17.8691841217683 7.86952195012044 1.81713970793239 0
128.194023077862 18.3916613491803 1.9174795151365 0
182.049886813756 -10.194176907119 23.0761816967666 0
82.8822647825859 2.33540051709525 1.85885438876769 0
216.562360018051 -11.2831122731028 6.34484015423304 0
164.506269207167 -22.2793259749654 -17.8694939989182 0
32.5679152907342 20.8395143449681 -23.0807015508596 0
213.684273458805 -23.3358136526467 27.3530706466358 0
206.450172627414 33.6000766714234 -11.8019337232375 0
190.985644400828 -35.7559635812614 -13.1896496604131 0
221.911639868618 -27.3291549642359 -6.10785350349014 0
203.462851439258 -14.5022942981665 -29.9027625575787 0
174.884472891417 12.3347631061925 -25.1611475743196 0
171.112219124982 -22.5420510731268 17.9575056759467 0
176.386716246707 5.86814795916428 16.9304758044621 0
171.078916168657 23.5251534597947 20.1622851118952 0
153.728457759445 -20.527537121514 3.89497838492438 0
36.9549932238007 3.19958394838475 3.57782525436622 0
179.662951237275 -9.80571394599609 16.1160593998344 0
192.399189399341 -43.4874704341635 -2.77663634604259 0
12.0525651304799 -5.58525996806055 -18.4745703110576 0
137.071186450726 23.5674510518856 -4.09969735936478 0
161.773535134128 -27.0571079767163 0.0192042640189927 0
220.508468977193 -19.9707402931956 8.10780904844143 0
165.900322821222 19.9001516822307 -27.0191047841464 0
164.956172525435 -4.51480107033595 -26.7216944902231 0
212.090478973275 -25.1603507516882 29.3748735858457 0
203.98015814117 -34.2918487184372 -11.3708668975544 0
201.134055842366 34.3485819249451 -4.57533199084528 0
144.046786146535 20.3387047018024 7.84434575121261 0
101.744015662447 -3.64725507816261 -1.92512208158811 0
12.5962732354949 15.9219800161198 -5.13846898351589 0
171.149925182986 18.7988236124715 20.789273465181 0
150.139601393996 -20.9730905018598 -3.34387422553249 0
155.069359070432 -23.7711472723848 -12.013689423773 0
176.280836233693 -28.4611046738207 24.3160365588883 0
199.753421905193 35.7468577606719 0.643097940720346 0
177.321359272018 9.35993190347142 21.0614187333688 0
163.65296978063 15.3425107301129 15.8943139402851 0
107.034143345729 -11.7897737835263 -9.84229030571612 0
196.672846006205 -43.9948569490104 -0.389983147511529 0
210.243584517132 25.9968779275808 32.6009471320784 0
212.692492967512 -17.6313092585187 24.0832142139797 0
110.115009891695 21.0334619061902 -22.3454801222095 0
212.872952636794 -5.35798911225285 5.05802043470155 0
198.209757560798 -16.1397205075465 -32.2111803946247 0
83.4290214800319 5.60992765722878 -31.3749976080458 0
198.641051451486 4.07421727162159 17.0677798163159 0
50.6792907375136 6.68331952109537 2.85238603519424 0
81.3721421045932 8.63671127617399 2.16594258212588 0
84.5579999613764 -11.7993710440564 -22.9624911519038 0
184.011609061266 -39.8568137190011 21.8898141109972 0
97.2877130074567 0.373523018272099 -31.2237350613221 0
176.841463821311 35.982715391022 10.0270767423547 0
190.644143688139 2.93973036734789 -24.8764023527526 0
161.840030210715 -27.5322732957363 4.15139852879558 0
182.886628724062 -44.720181066558 10.0929934646259 0
88.7560754162715 -12.0893941102154 -23.9935088030134 0
61.731014415652 11.8912051391615 -1.17046583448088 0
7.4728661975374 19.0505838001905 -26.2016048133363 0
182.633541653789 27.8100277290738 -26.1998998504106 0
55.4109271578492 -0.402030501705361 2.14379911270693 0
156.192578682691 -24.3485876031729 -6.63119391813131 0
173.072902044125 -31.1555995588505 12.8212896871888 0
158.14761520447 -15.3737314150864 8.37768966058657 0
36.1700439974084 21.584064131287 -19.9550092011975 0
174.253779450453 -23.4135358469808 -18.4489520018402 0
216.802152791785 -25.5865613129204 23.2104137972721 0
195.278458719451 2.48302155350497 -24.1759749949079 0
183.985981708104 -7.898093971296 -26.8289625635404 0
14.6579878410604 15.6047009599639 -4.94082520122127 0
175.635529826423 -8.79407221533635 13.3472694906808 0
6.55776361512698 12.82233764411 -29.4923000288777 0
31.8743583047032 -6.74931915146893 -19.0343538754674 0
68.805416420693 -9.97951553293975 -22.6987689334581 0
162.466260332763 -11.6248911122242 9.90253910095967 0
209.945468768528 21.4650438433444 -17.1191811352556 0
143.386143665234 -19.4305805871578 -6.96751913385492 0
209.122301360236 -45.0614487665233 19.7917022218593 0
187.554909323991 7.52906999657637 -24.5623837433467 0
82.6463591098932 21.661959542216 -15.7670337972466 0
55.3745051438116 12.4538453951029 -30.3788600764402 0
214.952894477964 -44.5017002510324 18.3625125963131 0
152.451431151551 25.0641046944075 -15.6792408170705 0
170.815227029944 -38.8266900003745 8.07635175185933 0
198.426199785299 5.49593481779197 20.1279498729744 0
165.379665257434 -30.0840180335634 2.52452709303762 0
176.464408978375 -20.7130024584352 25.0777621212627 0
187.282034222351 30.6625164206171 -22.4367897719332 0
119.421999500173 -16.6696596492553 -21.6907130927813 0
176.352212875362 19.6545697592301 33.5349762503406 0
196.350995279395 -40.4683531762215 -7.35120967898098 0
206.320937214631 -40.5192442530967 0.724034782771376 0
209.058213564104 -32.7965409287765 -9.71038191277536 0
201.445746893868 -31.6653115852503 -15.2399233788115 0
47.5737971243271 -0.650801065183566 1.57872133760568 0
163.410108970154 -27.2026418823646 -6.97959163624063 0
186.728596074277 -45.1735778442457 23.475965779087 0
208.981142882683 11.3215229869529 14.7483975906324 0
156.165962220445 26.3900512733055 0.903261336703198 0
188.740333780192 -11.4104393620317 24.4848061536761 0
141.644152413012 -0.941883425763397 4.57294778069802 0
212.345695212822 29.2864299979665 28.3213766112432 0
212.275421070924 -8.47844922000742 12.538443114759 0
41.9845503734943 17.9838346689408 -8.01396773221954 0
173.21834726837 -33.8718388199373 11.8158571455094 0
78.1233984241351 21.3208722555864 -18.5732361108109 0
133.430361165903 -16.0034640778377 -24.4436801849734 0
166.305206988676 12.9399043284462 -26.0688625855586 0
161.541193150558 -12.3476724707872 -25.6471206961505 0
61.2369510513198 -0.832431286888093 1.42408386631172 0
212.430507348147 -33.9265019904829 -12.92306860514 0
206.149186750685 11.2920778201465 -16.9166073699336 0
177.07207544507 32.9754108495216 -4.32992290145222 0
77.3604691070135 -2.45232778285174 -1.51678887538014 0
205.505883087007 37.4576858555253 34.2454094291585 0
176.426361242361 34.3717624920633 4.25585043731027 0
211.30444844736 0.0184207362888681 2.33883388486393 0
0.187970727029567 -2.13333522447107 -4.59781368898958 1
184.789928914973 39.2688502728529 10.4922792289086 0
201.53970997174 36.4608597006686 18.7277493546685 0
81.8793433021701 -10.3954820206943 -25.4698193273712 0
184.381825621502 23.0500282100361 40.3352465029536 0
210.55963254717 20.3792042061981 29.9206793030669 0
91.9715244948673 18.5919536580768 -5.34428155726222 0
171.865749137383 -15.9064057352496 11.4076199811405 0
165.083535346332 29.5765733226552 12.3084323773092 0
162.785888559653 28.8370860464299 9.45072694693962 0
168.417936737836 27.110501597219 -18.4329225522576 0
137.579570001771 7.21389764598734 6.37587202904282 0
142.927844245976 24.8636240006465 -14.2065919819336 0
168.708853707973 4.93400876829152 12.5264368828094 0
186.171059910703 -42.6030749024783 -3.98555636539069 0
213.613347577181 14.7391025369673 3.44918354536788 0
65.1753037425174 21.348727608859 -17.3162552519018 0
33.8918842000268 -6.13907174332187 -14.3117758016446 0
209.759683690249 -23.7364312452011 31.0017660609298 0
211.649867307654 -43.8469635162732 14.3801259354595 0
222.865248792212 -31.7519499391912 0.362532867883492 0
168.039123771245 -28.5960337870897 8.31699596529356 0
156.473704586405 -9.61591956037357 -26.8817466280182 0
180.109525780051 -42.2940637493701 2.25867149688101 0
60.9795890822184 17.150495214307 -27.4398078845657 0
126.056394810888 16.9410440886111 2.91332340327727 0
104.454747003369 -12.8137207915641 -12.6017064505667 0
3.61213763056277 2.12685929792893 3.50214144827354 1
203.531416124319 -46.3619006744652 21.8276657969218 0
210.085349247692 -39.8311754269394 9.49437936502787 0
19.1881455879616 8.60722101424255 -30.3537022584797 0
206.929138054418 34.605889505959 6.09117142356838 0
146.674820269565 -21.1676650964554 -8.24740903181863 0
170.420284450669 -21.3906991905115 12.3215875193564 0
219.297989860903 -19.1313595389099 -16.5545924334711 0
124.082297958139 1.75862111573479 3.16302905980868 0
101.774461584503 0.919987097744985 1.50965072550735 0
0.565022508395317 14.2140182193276 -3.13974346265583 1
216.197897828606 -27.4513228700124 -12.7534642534664 0
15.2110815116512 5.54974422247324 -30.0368469937851 0
9.65134683533023 -2.44546911766442 0.523021584048196 0
131.084776607868 4.61551564080281 4.99222085426413 0
11.1751208159837 21.8471381884857 -13.8541461996142 0
107.440815051139 16.8523381558951 -1.081206272475 0
177.648028485324 -33.7200000711767 -7.9591548174594 0
87.8529161873353 20.7179324672106 -9.97644137954433 0
202.369174734867 -42.5831670929391 0.0927666211966399 0
62.8272434213685 13.5562302670181 -2.55537770190397 0
165.310092557748 -16.5696777882303 -23.2360984476227 0
199.82918056102 30.2210092117577 -25.1339273801977 0
2.36614622294562 13.6871845981619 -2.79861538547733 1
184.078317236372 -41.3065820409893 -5.66695125392112 0
192.832170665071 7.52423522038908 26.9155300731166 0
173.305770585152 12.3270753833243 18.5326253721625 0
161.755810316767 -27.9419529444622 2.1075618087292 0
220.34840082997 -38.1253257223729 13.1012950819516 0
174.004005139937 16.8821257498127 -26.8968437332077 0
112.069318905611 5.0604951241608 3.5853874945381 0
212.522282127492 -34.3104193576006 -15.4747986778827 0
174.671059238019 31.6214795664958 -6.73630157885027 0
206.62428246447 -41.8842695076233 18.0211385381382 0
170.244309114723 -36.716273268547 5.52053156738101 0
178.483430856729 -20.3421686103751 -22.3852596143995 0
220.419669997577 -18.8835244610292 -14.0502962476998 0
210.89890348952 -21.660989293855 -19.088554935161 0
214.221100942003 -21.5141737553399 25.1342913332112 0
167.997742224746 18.2808636946877 18.5915494612923 0
191.009391689052 28.1586937202889 42.3753576645361 0
194.9727629924 -9.93811846591321 -28.0012622779664 0
192.202479958248 1.46684847215623 18.0488737118465 0
157.807530955695 -21.9088639985565 6.5878097840335 0
73.2103125684114 1.25645375235112 -31.1623161740097 0
220.925307444738 -20.155485224748 -4.26264555751852 0
193.476018863813 -13.5053317612665 28.9634909737039 0
211.202036615172 16.1329672949722 18.4787429570088 0
178.394505835222 25.5952717401712 36.2679260330259 0
137.912701616647 24.3400918042879 -16.7276753735242 0
211.147193162695 6.29151835825976 -7.29472625072368 0
163.681675559094 -12.3918082580265 10.5690749353063 0
214.113292418992 -12.3043209562158 12.2123524150001 0
9.44448652602253 15.6875105911746 -28.6005539552165 0
120.025736234066 8.98473462303994 5.22515587222639 0
52.3253350565875 1.19341766953314 2.38926847710357 0
100.41824891973 3.54623370057144 -31.4865843829689 0
194.318503309336 36.3252102102932 33.7806852118578 0
163.595659295938 11.3271291691748 13.0039264963193 0
216.504073557895 -41.3381968962005 8.22883406679957 0
162.864216503905 28.6562497067283 12.0696771367416 0
205.258605935375 -0.235545039712403 -19.9163848522102 0
134.465154060625 18.9525817104722 4.07038310370165 0
14.8503825756192 4.88923702692344 3.83880894022433 0
136.282525627466 22.600455111116 -1.7027776391319 0
134.411400457468 21.9406507641859 -1.19402626902416 0
49.6715773020203 2.9689685014116 -30.9533987915718 0
150.974114953232 23.5250155812258 -20.5284072275922 0
12.0867210322908 -2.20129036192069 0.0356406053329635 0
166.322551356305 -14.5668211880667 -24.5133995024652 0
207.8326924994 -19.4035057543309 -26.4254886263386 0
98.5936045783142 11.3123139924961 2.1406723824158 0
38.1179419491666 8.05048499701768 0.913867618554319 0
203.813496496859 -41.7046174756946 7.10095782790293 0
202.116508821229 -42.5060570875236 5.63537036221179 0
32.6278161911855 -2.7622275865961 -5.3184610368974 0
194.818260916342 34.250064588054 -10.7393300415096 0
192.5038990625 -14.7166177560346 26.3435413990038 0
212.453315251777 -0.278142739377821 -0.465958581362744 0
96.6317948877154 3.64149016869793 -31.4396031153216 0
148.549745945375 11.4343694563071 9.06416823342986 0
173.970483890765 22.5230581641115 28.3860180532046 0
30.5786535788061 14.3320495894543 -4.31172755702296 0
17.8918035391715 13.4769317250178 -3.350229097211 0
19.8047262982973 -5.11289641220474 -23.1347227542064 0
156.647116047683 15.9583096147397 12.5094906549897 0
205.654676415925 9.00589679913573 -16.4771673613574 0
222.868181616508 -31.9837296098854 -4.8588201569383 0
209.78539092114 1.90497851261702 -12.7075017052699 0
207.714965451599 -28.6335542556512 -14.6218963573376 0
32.6795144023319 -1.74147939491002 1.15778189004493 0
199.007842402744 37.8750985095973 36.2402880979138 0
164.43629218593 -24.9319256330246 -14.1587491422097 0
66.6034714835586 18.99514960121 -25.0335973750379 0
198.133020953984 -44.6065628872232 25.5985225216151 0
119.531168838621 19.3711789821413 -25.2654122803549 0
119.317167135535 8.63708749868156 -30.9099099987328 0
140.491535924402 24.4468491761995 -6.36368407587969 0
143.716310124391 -1.50986952766982 -29.3846101558842 0
156.937616737877 7.66178676455125 -27.6276482721411 0
165.203674655836 -20.4765343971513 -19.8674456632074 0
103.214988897078 -14.5670426991891 -21.1507362082334 0
35.0124911859694 18.2218814476348 -8.32302401668795 0
211.02645814806 -12.324386530082 21.7609003406577 0
186.819842581109 39.8465784977114 12.2043356889151 0
112.810770547268 10.308495974127 4.69625051347586 0
166.144421952186 -10.8527137737879 -25.7841333721861 0
221.686022151453 -31.5250207494609 11.2127601529304 0
195.162536582639 33.6200969092924 -13.2694799642803 0
62.4764048151136 7.32179124320403 -31.2690435780937 0
211.259542645791 -45.0059865935265 21.1513039695482 0
199.474068071399 37.9554320312185 32.9292364551581 0
134.317368410118 -18.0157158960707 -9.66033355169421 0
214.432804836584 -38.5733472911483 10.1487861048314 0
212.559653373201 -3.64387500367842 7.20698747924929 0
181.002514690222 -21.9164433879604 -21.9152584042087 0
218.546701715781 -14.2432644572984 -7.0524701083413 0
219.392262267136 -38.7511433406631 16.3478648203067 0
19.1588279325743 6.11537761013825 3.05764980142759 0
3.79539196800298 10.2537686049115 -29.6963836574592 1
30.5833223924271 -1.71093224937671 1.28461394198064 0
169.257449116142 29.0349761170934 -9.62696779231063 0
201.458752756906 33.9611355357792 22.5674372438787 0
172.876911133197 -12.018653648931 12.7758485018196 0
178.803295201435 21.7354892907433 36.2834754359489 0
20.5678098227646 12.2318931476779 -30.0493966809618 0
112.433119960516 20.900055411578 -5.55530999998188 0
94.7476040563681 -1.59608187481742 -0.487643884191452 0
187.836488152328 -38.6016429934073 -10.7579234846746 0
35.7583236135902 14.9239819649807 -4.78785477566915 0
77.3030384051398 10.8555186206806 -30.8827501430183 0
216.0323526475 -41.5381616028995 21.4404825229439 0
163.629843934999 4.12697061022423 10.4833817000962 0
217.912194027257 -10.522734796592 0.257890865953774 0
176.232644889347 -42.9061042341344 8.669102287321 0
209.042852748267 23.1845521740876 -18.6613757512272 0
157.952118307058 13.1298431110877 -27.7189433412222 0
129.063389145526 0.391065666578797 3.23998725735658 0
217.26538776345 -20.5477925536202 19.5127763696308 0
204.379865683661 -13.0676284166337 29.8003033828763 0
173.001673169947 -31.2819192235073 -7.03423272826619 0
178.652512336505 -42.2431558144566 4.41905745661789 0
68.7773389437899 20.211987104882 -22.9148870935697 0
193.195940421309 -8.13639574402223 -27.2699492780317 0
214.572595217166 28.077268709768 3.11251247342026 0
26.5722784637527 17.7091584466097 -27.6247403360633 0
67.7414280554449 8.91703405999767 2.20571896898528 0
131.001814009139 15.400583350832 -28.6699563259081 0
196.634894785399 1.66602912499659 15.1022630853988 0
166.952635990186 24.2526582459925 18.4590167631242 0
9.20933575584992 17.6130703708362 -6.76109122738274 0
36.6006085627422 21.2695572347684 -14.8575924859167 0
213.548815880798 -4.72501887898738 3.02496843539 0
87.9510843188484 18.8296144533227 -6.25703312859332 0
129.084979226591 19.7580074486408 0.360695672847797 0
172.709160342019 12.6876125657868 -25.2219401280697 0
192.914475181943 36.7408412372255 29.3920810094757 0
187.819166663151 -42.7330811658837 18.8483925763702 0
79.5659124710623 20.5316957275027 -10.6896730693233 0
34.6242987216726 -2.11284380240644 0.222319867318906 0
56.5011489071283 -8.14046668460071 -15.7824788093398 0
209.109114435879 12.4263200118928 16.7233917187261 0
16.7851881181243 -0.554871371962661 2.16823430014767 0
174.76916350482 30.7434598945701 -12.7833175905994 0
221.595703768208 -21.5675054257322 -13.845363703763 0
174.89107036672 27.6016410822736 28.9164206520196 0
32.4306779551318 20.4925061067381 -12.3063482924142 0
211.78672315747 3.250581157988 -5.30889913945514 0
173.935026185393 23.5557770834107 26.052904299325 0
205.753706563357 32.726605275043 37.4693210171788 0
194.134894623287 2.76954734525297 18.4790634024442 0
19.98463837392 3.24379340316063 3.17704064024089 0
206.801681361737 -13.4234372813291 28.0040989742488 0
162.000434022148 -8.84801341904099 6.94383319035754 0
169.177531748007 -30.3388133275879 -3.41716535658525 0
115.273653960082 3.40297900999912 -31.2455468267244 0
209.629794560307 -33.9416891473045 -7.52363061054149 0
185.678394530303 -32.3772972814219 -14.9546294536208 0
187.930125967198 -29.8374470188565 34.1909109505761 0
63.3476406156618 -4.82346047498433 -6.53021778302094 0
178.768758058128 -35.0486830830141 -7.24656448779186 0
12.9685235118749 -3.40143401901173 -8.23774108244729 0
9.51842797644826 -2.91669099344581 -6.92005124286319 0
178.445220667437 29.1074284412033 35.4730629360458 0
201.295070571934 -13.3084961028344 27.0560088243076 0
163.263334414251 1.2992103754102 8.96346460143829 0
90.5276236150601 20.9369619943262 -21.1226531672732 0
200.863208069295 -21.5746341769459 -23.2775437190301 0
220.142310151846 -26.5640921653725 15.5131695880347 0
137.758386854364 22.0481647046085 0.427488210761175 0
216.287926448757 -17.4002471925996 19.1527471060926 0
184.828879657993 -36.1793259274663 -11.6626390314734 0
206.471919014944 -6.87423153535132 9.64491729550054 0
193.872392860898 -39.1337828971245 -9.24641547831909 0
104.495592599061 -10.1915301899543 -7.98553874142445 0
160.921399157445 -0.104872061614766 -27.1576618750593 0
186.602381029055 22.401473934202 -28.140571969879 0
182.471926199832 22.1184224115147 39.1730385983816 0
178.955209000785 16.8175915704814 34.8240539640317 0
198.45218831239 -31.6079122577687 -16.1567430788895 0
205.400310553566 -18.8952130106364 -25.7760669735217 0
161.252278968684 15.9156380618008 -27.2661071584211 0
80.9752039277176 4.20499130654594 2.55933203742159 0
204.087096020156 34.9963274141492 24.2717078386479 0
199.496473768513 -44.3682323517616 24.9839016627249 0
0.126490340497686 9.53155130452032 0.626080709425345 1
19.6595421032771 15.771136024331 -28.784249752267 0
86.1570039614046 -3.85699702035544 -3.6494067292772 0
162.905680238319 -23.711933437628 7.32946336138729 0
198.055157471504 -16.494408250987 -30.1121424873263 0
220.222821915015 -33.0978525080238 -13.3969039110936 0
160.975699648591 26.7495833765033 -11.9636195263236 0
64.8414304419488 15.4828485640152 -28.6698088523947 0
215.516299900986 -43.0195331467493 13.8066352854504 0
187.028928582287 -39.6931741282694 -9.87701673204745 0
158.663591397961 -13.533414187812 -25.2407258153417 0
202.102876975861 -46.1136355016802 27.0313213466899 0
24.7365889346624 21.5408766405186 -21.6631800168556 0
191.138208128815 -43.4969312125717 24.1573523183603 0
18.3273668461446 9.63214978587965 -0.0253293482142296 0
184.683864936209 39.9596998680267 13.5994962165023 0
169.979886290301 -3.3632237934188 -25.8100761878677 0
176.844780325232 18.0040419204296 -27.1450629652823 0
81.2062993672393 21.1124539969659 -19.925110610409 0
215.157009588054 23.8105919391396 0.833385694476826 0
41.8054293017297 -2.25335115336856 -0.907861211730421 0
184.239350861051 17.519092113089 38.7586082987975 0
105.359674153849 18.5008843502853 -25.8557256001152 0
156.486606225112 -21.4240712208107 6.12438752711875 0
2.8157626061754 8.18760841210577 1.86914231493549 1
104.165313298094 21.5000628859726 -20.7468686317011 0
212.663483560742 -7.66412514984245 9.67602299661115 0
213.878588301819 31.8031071035241 22.0127243509379 0
213.056093866855 -16.7801723473564 21.8920559427348 0
178.223031059387 -40.7817634606091 12.5265710887808 0
197.03617921013 -18.6119287322468 -26.3437807377702 0
200.417638408711 34.9630405800415 -2.24260792693717 0
9.67094601948686 10.1073123862834 -29.9957913164645 0
194.371060848961 35.1470186323966 -6.3569833210191 0
162.113439610258 26.2751250172035 -15.3311184127413 0
213.363505521964 15.0426774673875 -3.84424649545428 0
130.889175487968 -18.8300234971316 -13.1890882076881 0
134.367769109893 15.4550528163078 7.13214365661718 0
152.670973588544 -15.480143194043 4.80193390647688 0
40.0495738638529 -1.74953998042614 0.445306501745155 0
193.46921293328 35.2834025333908 38.6903397523785 0
31.147829889867 15.2612831234208 -29.1144069103019 0
55.2380871423091 -3.1809364187669 -2.58847440284882 0
175.682162581097 37.1812256816217 15.4692619367668 0
32.1581239128986 1.14264479170682 2.94246115166936 0
104.857260804151 -9.90770475224088 -28.2442738798161 0
43.7771518994793 13.5580612000481 -3.44312408462347 0
155.998983131706 15.4846374860255 -27.5966141936641 0
165.780790924967 -20.1623227341698 9.78251840674641 0
186.815632828003 38.0431430164394 4.50007386173504 0
209.987372254735 -35.1570168333672 -5.91097638423418 0
39.4797975569134 1.6814000719344 -30.4200398188061 0
192.29123604841 -31.1412413152486 35.7854408127437 0
40.6139129768231 15.0298336776467 -4.81682873635656 0
98.5571625516298 5.54297319197747 3.8207785932333 0
42.3077770703555 19.8519083076264 -11.1179679222424 0
67.0317946063438 21.2623602714187 -15.2654633121217 0
42.1020539415781 -5.8864331353877 -12.3497583154845 0
196.646153547302 17.6671306029852 -26.8432501888894 0
212.554826683935 18.4835011601855 17.875001940124 0
175.342693061362 16.7739002793349 31.4277374880471 0
160.532236964042 25.6385100678049 13.7466621129787 0
159.70025720332 25.6481288647472 -16.3183290408298 0
34.7177512802891 1.15139113035249 2.75588452880269 0
185.509247511406 15.2894263786063 38.107964052069 0
185.080617638035 -39.4969284528422 -9.27850123301109 0
179.682027663541 7.20721549422502 23.2027395438969 0
171.857150243696 28.3663364098733 -18.7470433991089 0
158.098099343708 -18.0266099653501 8.86064797831133 0
192.020937083881 -0.830735047863769 17.1397397589345 0
192.988211727149 -10.1507206385879 16.5144364293935 0
180.438429395525 -24.9562123090255 24.1654241352886 0
206.578159364885 -42.3617621470552 18.9282418696816 0
189.350900712972 -37.7965883407777 33.6988832171936 0
170.317718152745 -4.39673050072291 11.2341469488934 0
164.660548796742 6.53215978934053 11.4683823799391 0
145.813809645103 25.2648734699791 -9.56283362944151 0
212.249358265516 20.2988182326309 -12.5791061824434 0
40.8494503660075 -1.40660156125448 -29.3374442723327 0
148.696616602381 0.490232479953069 6.02849992441855 0
200.465025670658 30.8454073034302 41.4018933800184 0
131.37709822951 12.3848893085544 -29.7099785109944 0
184.455122462284 -18.2876643266131 28.4066597561952 0
205.655835492115 -45.1038335097437 17.0986608596175 0
174.90857485551 -17.1563273047642 14.2064936447362 0
210.153006143811 0.469442990789246 5.18821945826565 0
39.8978218341395 -2.13677955941311 -2.87217960345279 0
42.5920427758302 -4.80885948455335 -10.0600967935896 0
193.860641774836 14.0164006931149 -26.0202483782822 0
94.9682858474779 18.4343952744012 -4.69627313694419 0
171.782925259073 2.82774254104633 -24.7871953465695 0
37.1177551299981 4.70643688730833 4.0384060636216 0
0.360250331095767 9.71409789236699 -29.6225433072199 1
158.119475247022 1.12311223635797 -27.5668282961715 0
222.570235893613 -31.249309798583 4.97474237424265 0
189.556312183939 0.285315673744674 -24.6429146891286 0
201.188094041241 -41.0236079547446 -3.75005593529642 0
221.437427999164 -33.2495177637432 -11.2558835996691 0
151.065379813622 -22.696482780856 -8.50597647931715 0
214.360594037145 -29.0156681443061 -10.6457552093328 0
179.934578617589 -38.9337468230537 -2.71499051510732 0
102.402538811493 18.3943400617831 -3.55638097984736 0
55.627004782019 18.2706753471299 -8.13317048841968 0
219.453609181249 -17.8008409761654 9.80890810962512 0
200.116061546146 -35.1641121841162 -12.0568862895936 0
68.1098368864058 17.9814532731762 -6.96173759140931 0
219.065460014256 -18.2126747183511 12.9058221079089 0
28.893217015164 -6.03553257856089 -15.0340636218463 0
181.290629838602 15.4917979111784 35.9118130629722 0
174.38966049575 12.3268820428547 25.8763359074897 0
219.610162037326 -23.926221217127 16.8116753210105 0
132.391254390343 24.3584454609942 -14.9456378113124 0
173.797506784171 -26.0501800739807 23.516255092406 0
215.384080773082 -8.72673772729428 -9.94249479020335 0
221.634294761263 -33.8146921748056 11.5764530173534 0
210.009328107189 14.748588295273 16.455813273816 0
187.466395543291 -44.4043931709352 9.97767856940923 0
159.305639781297 27.0139899980358 -4.97630751652658 0
170.924462380163 -24.2824449629778 13.0271271739359 0
191.139009954661 36.2141819278472 29.0490156229356 0
148.757650771178 23.9569462846973 -19.2078473388877 0
173.635754109338 29.9677545471532 -14.5697346238534 0
185.582312305901 -6.56832961987198 -26.451142412359 0
202.139366068916 -42.188070406371 18.5716582063311 0
88.0023358019175 20.9563000048835 -20.8121581784349 0
212.15460986428 38.6985935470487 18.016197611271 0
152.071249631615 -21.2959121459792 -0.0563203353545358 0
211.533749147843 29.8833057149075 -13.1924350407877 0
221.655287049285 -31.6908961022716 -12.179097862046 0
78.5778511228977 2.01459799653162 1.78416143201966 0
196.213447620121 -21.7442376071194 -22.4724134190133 0
126.861531611808 -10.083685353168 -2.3267811278259 0
151.693155524769 -17.3068436743219 -23.0984729658465 0
171.808132665687 31.9742281968192 18.2080121740909 0
220.69841856118 -17.5791452260317 -1.82262988095122 0
161.296602149099 25.3679624411905 -18.0199614625745 0
71.3348170485281 2.10509819639182 1.85709584605031 0
176.482134345157 5.07261223567282 -23.2218180836953 0
8.89235861133452 22.2249094053348 -14.801937372442 0
134.708847206401 24.1384375543264 -17.2982181768578 0
148.966244599894 18.8966339266017 9.52500371622536 0
217.493359700702 -14.917814291081 -10.8582382602286 0
157.00852351595 3.4897532555517 -27.7531518969811 0
201.726063417017 35.8085442005567 28.9227921386207 0
142.806738137856 6.50568136653972 -29.5994357740871 0
154.234508594652 -23.2631143572882 -3.9333185720536 0
185.583420068849 -4.04494730096 18.1680423748249 0
213.449243884407 -40.6342099477756 14.7098195976905 0
187.018409096105 5.36356229169496 -23.8045098361008 0
21.4038078211462 -2.39063921071628 1.06392739289169 0
202.208277716001 -37.049963664207 -7.6281672037533 0
148.735435249079 21.2613930140535 8.24498801945659 0
168.275944671969 30.9814034264936 8.99884554057636 0
207.358525058641 15.5700356600469 -17.5276387275104 0
196.388649974254 40.8202010945301 18.8345936471521 0
185.807971291639 18.824997697896 40.0066876848459 0
138.077701159652 9.61450587234521 6.9515349657066 0
180.9524931585 36.155976795028 2.23795223860577 0
168.787298177826 16.5132069206913 17.4851580050271 0
222.448060832863 -28.1049840657481 -7.63938626943303 0
57.8889161798291 14.7547525744056 -3.9956784509631 0
205.988573778912 -31.4630759250892 -13.2471711204947 0
193.768828714749 -35.7867113604717 35.3944003341272 0
210.910443576758 -45.0079490487074 18.512812883476 0
172.137741950538 21.3136231349328 22.1005712123663 0
185.783949960215 33.9092437932734 -9.92991817591058 0
193.504581913615 4.16639032604222 23.8760317185204 0
190.848388435944 -4.21512127700416 -25.8970422958786 0
67.6761246743273 -6.25705053906544 -8.79723806623098 0
128.444081510271 17.1575370192807 -27.6181976679982 0
30.7601753437357 16.594280408337 -6.4453004017627 0
172.43386999187 -17.5830190878029 14.0693335109535 0
206.639086115214 36.6293913422353 14.7193108761873 0
98.1700343884772 -8.84492811021897 -7.62750327175711 0
184.407961114262 -22.5322286435504 30.0324851092178 0
210.734827219417 13.6966199181886 11.1823840141164 0
188.455688360272 5.72894020975538 23.6138647208508 0
31.1411084409115 21.8365456693661 -18.5060634405556 0
200.800002263142 21.2295556055694 -25.7774763922521 0
173.055538074886 -7.64906754920265 -26.149111140503 0
218.303107465593 -20.4577430543685 -18.1295577088697 0
192.860402323766 32.8345257773422 40.7570922232017 0
192.697119489604 35.9363704719882 35.9314326608215 0
2.80747994234711 3.91361035256573 -29.0279654324972 1
47.7078637414307 -7.44777587356306 -15.6254707070779 0
195.702889323222 9.7081195717659 34.1169101539748 0
212.853882645899 -19.858030869616 25.9328470702226 0
214.02283573171 24.4182681321633 21.1605545789223 0
208.832585539379 8.43821348483403 14.1283869690913 0
213.582801685008 14.8986973759198 -0.284243284691783 0
53.1569379774489 7.43724409222542 2.17523532240016 0
131.614812808697 7.0690898538559 -30.4194578344654 0
178.76850637438 -20.8463606164949 24.5162086077869 0
214.362334476913 33.0030575781092 16.0804618749886 0
179.314147356096 32.8193969551882 31.3360295550502 0
66.7548012285211 8.23397096871913 -31.2638997207402 0
172.976644120026 26.8007463269615 22.764949024378 0
191.76039516682 -43.6937998775646 10.8728202890124 0
177.832999539626 27.9990535707436 -25.2456096146337 0
156.467631992511 21.6640158982082 12.1867247048332 0
56.3754842765335 -7.30069425978388 -25.8501223345237 0
209.352241036974 11.6530559283251 -12.860059269075 0
210.273274896753 34.4524179685836 6.00886197466078 0
124.740722934216 -12.3727906243799 -27.01287434196 0
183.762722843062 13.9698307515973 36.3784003902732 0
99.7855209089466 6.99283005391164 4.07136997552335 0
69.5813508878531 -8.57269244288647 -13.3974027724721 0
196.066035350158 28.2206577806858 -28.3679611824596 0
194.183818017923 -1.63926921973308 15.0439267626972 0
204.510569726282 -45.4695805971328 28.2134520109327 0
189.297230700096 -44.590028832534 7.53029701309153 0
163.209349976093 10.9114023862178 -26.5137865448768 0
191.162840440936 3.0475097043448 21.4698578619962 0
215.171101195964 -38.1640808588412 -5.13809066509761 0
177.215645007794 32.7756265449424 -6.73924940565895 0
150.15838409663 25.5547342366548 -3.93150575826335 0
193.035744789163 33.4959588097708 -14.6133821744066 0
188.894332057827 28.0510151609006 41.8799428719387 0
173.840218980709 19.6159468599411 -27.5122657067832 0
3.27418538772864 -5.15565330617392 -19.59610096826 1
210.648316891651 -2.94523651397531 -16.4335863829255 0
64.7126095558494 9.14821147466114 1.45439419529936 0
150.699014122238 7.40367724988156 8.44027684744223 0
185.986767356943 40.4827158321996 15.5267695441106 0
133.015705235355 2.40792060879619 4.54134206080996 0
203.423320988776 -40.3160782322504 -1.98916337907751 0
204.600312549704 -41.8219316738401 0.163520329655632 0
216.456863083197 -33.093148314901 -4.98502501735456 0
192.152872708446 34.2532094814205 -11.3462005180933 0
216.613908261365 -38.7472069461227 -2.0259492574831 0
190.312392909174 39.1979243534742 8.30244987471771 0
167.233381290775 21.751100287831 18.7475902415259 0
52.0029199749103 4.91013235493783 3.43064706190654 0
207.461051088048 35.1181032187247 9.12520738996496 0
188.696296253235 -43.1514367033533 24.6418795658844 0
168.826352245628 -21.5292685867089 -19.1521522359928 0
69.1877829482892 11.785802546641 -30.5539996500747 0
125.423119583911 -18.0982169668436 -17.5146858749982 0
175.547969768181 28.6462499573535 -23.099627103808 0
135.011081547953 7.03944285568533 -30.1959803349736 0
180.001364038251 11.3511179641227 31.8327341637863 0
173.773530878042 -13.0262556011849 11.8640207546024 0
211.419941107837 -32.5272738436362 -8.30992758874829 0
204.217954310539 -1.4973421430746 8.52401337160962 0
85.988401928905 2.56365144853799 1.97413293037575 0
117.70857781305 23.3873042921487 -15.4320921373732 0
205.027616987527 12.0656342924451 31.1849762383542 0
221.240024217569 -23.8521102221173 -16.3068726063477 0
210.099358823746 29.6371892123169 -16.2821288351736 0
116.651286022262 -12.9471845074309 -26.5187832232409 0
184.615415123611 29.6165717488021 39.6242505095474 0
183.007835526533 -11.4381551488829 18.2331439849536 0
219.779238672699 -33.0966714135514 17.7898261958517 0
152.674406836257 -22.8697769874461 -13.9309575597723 0
186.266076483125 -16.7380779413784 29.4665288196102 0
183.700427203205 -33.0358028412391 -13.9495747337421 0
205.402307699154 5.53006900974832 12.8006183099757 0
212.31343134106 -22.3514721249516 28.6992814450699 0
145.846498448757 6.01765221976022 7.14281253617109 0
120.214416114658 -12.390790891018 -27.0020081028568 0
19.6290857804648 -2.28263876637891 -26.5943667855961 0
74.8795661621233 -8.18956010852124 -27.1921910873708 0
180.613642834673 -1.15129487310076 18.1686575092615 0
174.92426715533 -2.11497158365582 12.6758135487498 0
199.570836007778 27.4807436985611 -26.8890744944592 0
207.493094533964 -41.5425091120686 8.09869298756226 0
80.5048673058665 18.058817053816 -5.98730194351428 0
214.702257489362 31.1245154489924 11.9612140197082 0
170.862013712155 28.8094833277353 -14.7160578230612 0
64.4836471919651 20.9303760483829 -13.4949345117016 0
131.363406570709 15.0136064126838 6.31197094411658 0
23.8588792181828 5.76494437603346 -30.4311459182332 0
211.924130118312 -39.0990940308249 10.7394442176416 0
167.406936268782 10.2492164633171 13.2103798298682 0
209.824371367429 -39.8768793703187 6.78341655858211 0
212.800962505123 -0.820646257963103 -6.73258905351992 0
149.064574865539 -21.8264047500419 -7.56269347303761 0
199.355616448763 -46.3241719569272 22.6919561040043 0
193.557385333733 39.9776794969106 20.9551535612662 0
187.708542226919 -24.4540046948921 33.6626249966473 0
196.192027600768 -46.3275102970774 24.5885746556927 0
171.389237329047 31.8413550897921 5.9249118141959 0
213.540132545834 -3.93349815863615 8.41938323535996 0
222.052247972261 -29.5822804161379 8.8506982453128 0
198.228652353437 -13.9913698196372 31.6770205406958 0
206.952881945911 22.8621566784025 36.1293618774404 0
222.653976290265 -30.5341575291705 2.75302144750861 0
205.520674826743 -45.7992627575724 26.075113874311 0
126.574564089323 -15.164192783761 -25.0895753495395 0
175.592344346487 -11.7184750181025 14.108687504819 0
187.604480321659 7.32938428322021 26.4468340899116 0
97.8512918802469 8.55292238610639 3.34160197725461 0
196.583768847942 -6.44564098887438 13.6929934309218 0
158.750058131399 -13.1331076688308 8.85366671687567 0
71.6807124371701 19.3554701457134 -24.2939203036806 0
185.027637175695 -10.4034504336281 18.8256778811738 0
0.843389247532072 22.061826630751 -13.0122113614266 1
195.002718364135 37.6321655528278 5.17809612938446 0
201.768763109502 10.590783216928 -20.6544051799779 0
146.256953600712 -3.80539848816378 4.5104641959639 0
165.044471331329 26.6675162099027 -16.1488422341626 0
23.9862567486527 -5.75261612145038 -22.352895439239 0
146.69717456212 -20.519653667076 -18.4910566315037 0
39.5033794676745 21.3452646447975 -21.0009402394881 0
191.970695184953 21.3000862228486 42.0447445073621 0
191.677289795165 4.15958847203752 23.0809906031659 0
92.7606038548561 21.4664474166906 -19.6057738812513 0
62.323871976838 6.32240285637589 3.43673840678759 0
164.584411353954 -3.59475960657398 8.85205104587852 0
220.087841683697 -21.9835239202187 -9.42122296576503 0
173.453587124581 -35.8218802872769 2.75624411030583 0
6.81028232365576 16.0397958642532 -4.96724857531081 0
174.879234321719 -19.3697657441153 20.003002087395 0
103.018703568085 16.6067846074457 -27.6556864850759 0
172.878569228102 -34.1267983866762 0.812960937509983 0
190.593575392947 -9.32744141709031 17.3732167469545 0
7.15469636041862 -3.62124743237246 -8.82676467065271 0
188.687915820057 17.5197605990641 40.366385260762 0
101.023020359096 22.2025097745603 -12.5027719778096 0
221.911628452581 -25.9409110901403 -8.73236850138653 0
214.145290512977 23.5023965297619 7.05738808343801 0
179.260188006367 -17.0201938647067 -25.0479019274727 0
174.933896207166 1.34534610698813 -24.576349572071 0
146.749293976037 21.8974646024533 7.10301427635538 0
211.309282765483 2.37267722265543 -8.64986995098646 0
197.525384879166 -14.5488590485215 24.3820043083982 0
167.572780428666 -25.002876025824 9.57061037039981 0
173.253344605357 25.4694908757351 -27.206684475581 0
80.1344265525424 20.1431356529145 -22.8816742495902 0
170.126475223921 -9.10793834087025 12.6169172800723 0
213.927382333634 -30.2362051258535 -14.5738062009028 0
188.070401075243 -32.1490699180876 -15.7535742192634 0
137.893133609095 -11.6301215921963 0.313217888828163 0
108.481418640301 -15.446801332966 -19.210771231005 0
208.916446998322 35.2889539454915 33.0603098163126 0
205.885144137296 16.4505457006439 -19.2930572391459 0
33.0762303649127 14.4043245633107 -4.35791777586073 0
49.0194900137803 -5.53814997446706 -10.6503499442094 0
43.8246911649332 21.4013922379457 -16.9674473818893 0
213.504341957542 -12.9190359840415 14.6826857368045 0
44.6461985269655 7.09516442813402 -31.027372902252 0
3.31496581302995 19.6031732709238 -25.6166864246486 1
134.283098512945 7.48324442068505 6.09492669877814 0
196.929224213726 -38.7824901738076 -9.11725119208789 0
90.1177388570271 21.5673313060308 -18.5400830176368 0
191.695185420361 -40.4167235401653 -7.60878216797006 0
169.88281068131 -19.3143544065549 11.4680471746184 0
154.369094400187 26.2208110932302 -5.27134397777499 0
21.581751097346 6.16995967018005 2.81656949753617 0
156.940395216777 7.14540861818066 9.60894846847345 0
207.031546316156 26.5239890610904 -20.9451521064401 0
166.238163697387 -22.7880723615123 8.91507908718464 0
98.1869811746135 15.5268824614202 -0.981057799621113 0
71.5008156368826 -8.03308007082584 -11.6619734688574 0
206.116420324773 11.648335659506 28.9828150924487 0
193.193599529334 -4.33018161437798 15.4585794717785 0
218.818784943813 -15.7670127085961 9.14523855220793 0
4.78592361498031 -4.38355563216592 -22.4615826857179 1
