206.290730603581 37.2030070093232 -18.7383603346403 0
221.768417768268 -20.3645842870123 -28.2700909397908 0
12.0478571097729 -2.66938587790908 24.0965201077464 0
211.822717053885 41.4002024546374 -20.0796279532927 0
95.1778175917997 10.1864300918714 -6.36089305214237 0
218.116103082025 34.4219031106693 -11.0660901314735 0
30.8481777913204 15.5247715958768 6.76045404996173 0
134.579231766561 19.7609331924182 10.4625899369321 0
100.51756329959 2.71008506000293 26.6005918875235 0
173.072576743474 12.5254036784751 -16.1337488938587 0
195.602949342159 33.3771021522349 -37.542584785993 0
142.192825341928 14.3969441766229 22.7288198380289 0
180.301835192135 10.061708712365 -17.0708575789632 0
213.693930820886 22.6460622956461 -27.5564997539194 0
219.182035972082 -9.63857577049042 11.3933708781539 0
80.064753054654 -5.89103785443958 -3.44771731033082 0
217.114104443981 31.6884859421835 -4.04968270631069 0
4.11827485031497 -4.36111534295664 -8.43964388228064 1
200.869234722312 0.573757199871278 -17.8823832280416 0
70.7977874229681 -11.5093979894395 22.3002096313123 0
184.575013973004 8.23277599546533 -18.9622897983443 0
213.571595418815 -3.58272342032873 -11.2840259623542 0
13.4169063305944 -5.54073756982018 23.2446104065488 0
99.3665536353653 -2.83084875122344 26.3206530811969 0
156.293566869616 -13.2082629226379 -6.43871316684793 0
176.365858999791 -9.72498133151521 21.7551433285633 0
3.35283445445177 -10.4373547657535 4.35643251442438 1
202.211148558825 11.9079440994569 23.602989298901 0
218.308659294141 -4.82538341282518 6.78521371206026 0
134.602580316525 -19.7113285978462 2.19616890937375 0
129.340004109295 19.7019670953705 3.63715748403015 0
219.440134987236 -10.3734964978477 -18.9694861540905 0
26.9685552575212 -6.70684650994847 -7.15926037263057 0
109.201526551682 -11.1272625589148 22.9339854913398 0
227.851725515296 -23.0440286458187 -14.5707467425645 0
202.09992947539 35.346105477723 -36.5677894059734 0
195.368041241099 -12.1792774729745 23.6842594418426 0
226.496916634859 -37.1311406135023 -11.2520277284114 0
177.082949957987 11.308609064505 25.3667697075577 0
159.517371051054 -2.00565201887728 -8.28863608534784 0
169.079734773273 28.4176364013625 -6.09330664920366 0
204.771373116705 -29.3686055862682 15.3857475178693 0
209.857412560188 -43.0119700457341 -19.8676764658595 0
165.082037524669 -23.6911737847163 14.3171620909953 0
136.238122437376 20.4730180388199 1.42552410823055 0
31.3074363923685 12.2730352874065 1.5518943184132 0
218.674888792705 -3.06255482768961 0.311630738603244 0
164.832938451316 11.7078640645901 24.7557512453285 0
27.1824609428763 -13.7201488617442 12.5642742257961 0
196.291036177147 -45.7712085594552 -11.6466453698611 0
151.449571076394 21.4442575791602 11.7678872609016 0
188.098642891749 -22.4955843197738 -24.4106142659521 0
34.5583462326056 6.26379225951167 -5.39781038513715 0
46.2551461195901 16.1591305214775 12.3497897243324 0
219.580365308357 -6.43343966103207 -11.7831984438795 0
204.67776197618 32.1259422083409 18.7227499178856 0
209.746211548082 -34.0669389970455 9.15224038584174 0
83.854093171105 7.57823418800627 25.3855968854233 0
212.629184042938 -33.4034023052492 9.00357844613549 0
191.121794782702 35.2877656008466 3.36567933603247 0
136.002462753204 -17.681895637919 -0.846150355741267 0
182.113718870285 -38.7251036815407 -16.3672650068707 0
173.390179604353 -32.5022043926723 -0.323996101651605 0
19.8531323318517 1.23841061586602 -8.49977818610937 0
62.4904268142622 6.24465824722446 -7.89575898354301 0
214.81357373424 -10.6710711140044 17.9781326129396 0
208.481689476421 -8.97171680331674 20.686488613353 0
128.9629926552 -18.6199003147999 17.8526689528753 0
165.239005522739 -13.4294049242102 -8.86674423071812 0
38.3165455040402 -5.3991111193314 -6.04593328740207 0
59.1686335984086 13.556203009586 19.3091316199234 0
210.114583866005 40.482193775432 -21.381091686602 0
179.063723282693 -13.7792147314556 -14.6684794701819 0
185.508759936891 -26.9500541210509 -18.7429404639603 0
208.325064902249 33.2384690597129 12.5247514198668 0
154.792261516189 11.2711000442144 -10.8736019165291 0
153.700638039232 22.627541563565 -8.30925828992877 0
35.384124327603 -5.49867686773876 24.5154270135791 0
64.3658106654062 -11.4683958258272 2.59467605660983 0
169.049627812445 8.08763534874804 24.4967878633376 0
208.554140440071 32.7733343549881 15.5323918747223 0
95.6027355049777 -11.2732127905844 22.898425908267 0
203.310176655626 31.4431868232106 20.0196130112676 0
210.173631680445 31.3390862541904 -32.789377311355 0
154.055091895467 -13.6789678735574 -5.88690017734402 0
9.00603203485747 -8.4788389514223 21.3205713810562 0
174.894843282511 24.6482566253532 15.5471336922696 0
215.018029096303 34.4738077435551 4.13751348267598 0
40.2509324250962 -14.2850046961183 11.6056743270385 0
153.991884718317 -5.84066862132759 -7.10988838186249 0
94.7973280130463 -2.51506805892125 -5.37578674246712 0
157.976550782851 -17.6640218798962 -6.12357239844072 0
122.123836968661 18.9844863710608 7.41257977102179 0
193.447947258075 27.9729523770066 23.3560723587026 0
199.323554587535 21.0382720994495 28.4247996464251 0
188.328453916182 39.8269188174159 -8.6963874277863 0
89.2430875573222 -9.75834384055653 23.6725571136731 0
203.783287284503 -1.09867871993596 -13.6311047404923 0
198.523488558395 -20.534695771869 22.9593386185055 0
143.078231122472 20.4095524000656 12.2139027697668 0
205.088415395951 -34.5277334179559 10.7111707463171 0
215.992309352607 1.42002511716983 4.04472278416394 0
211.680731723956 -3.94496612239086 15.4263779129872 0
173.942701314847 -26.2147728592318 13.1021446578779 0
205.99763917096 16.3927993102318 -32.8821933530134 0
185.410359094605 4.6212408717479 -17.2566160143642 0
197.611297070106 -27.4129213371627 18.7090680594481 0
36.6041950137314 -3.81865698411717 -7.26140284437158 0
213.22756728217 14.7506364590209 -23.5022364812073 0
187.637727296793 -22.3005655478893 20.9444525211813 0
218.278664876708 18.7632001566821 -7.96800401842773 0
99.9610415999606 -0.0507411890146499 26.8997085529423 0
214.073833380856 -9.07288248664796 -25.7099785293732 0
100.922840589276 15.8024600720632 0.199960103595803 0
172.599096500574 2.25806344573833 22.5878719182731 0
191.412829305889 -27.5116507081187 -31.9598649699406 0
179.425002568048 28.3211487379589 11.8989664335283 0
212.350465434674 2.06639448232106 12.7185772545978 0
219.014576567691 -33.5707008772148 5.19205213981584 0
145.068437904689 16.7262312075544 20.6340140873054 0
161.172445618337 25.3036145916419 -0.161858199610835 0
147.185191117638 3.04595777503256 -8.76649659952689 0
177.952214052815 28.2495296996452 10.0391309619611 0
71.9388824848949 4.23131221068115 26.4286613070242 0
226.005704955791 -28.9659628301624 5.97749454730205 0
84.9026506152893 16.1971855852915 4.88949887029191 0
32.7439438947136 -11.5820163432905 19.8914533865285 0
58.748359156831 3.40580184547514 26.3461078133246 0
139.711766129127 -18.9779903995343 -1.05488859557245 0
217.549538534474 31.063850011028 1.96729767686532 0
78.8547177318776 4.44210952963213 -8.06863324749137 0
206.243084018154 11.039602025072 20.894141184883 0
152.055581410343 -14.4037810159386 20.6393765118254 0
216.09406760202 18.9163496669475 13.9957208296386 0
224.16196737919 -12.2091726464396 -2.31524819454122 0
217.175062952826 -2.09872740704449 -9.73971773831895 0
29.5769678485438 -5.98643249055868 24.0886749444723 0
177.18787884928 37.6799985477226 -15.3517955210545 0
56.9163847381635 4.84251676529643 -7.86104785718192 0
143.62978860049 -21.3030335982035 15.4687343590399 0
191.859730634996 40.6276465017201 -10.5379311796814 0
186.465084214064 -3.04392299889791 21.794209432286 0
210.215324546438 32.7344978463232 14.3980100523052 0
197.065710575915 -0.0242138050059073 21.2741712990835 0
96.2494518080568 17.1466209240431 11.5522060450034 0
1.05129037996574 0.652912504962927 24.0830475461463 1
218.706023673967 -30.3117531122632 9.37593386426787 0
9.53713693276865 0.161597317452157 24.7157871621781 0
93.4927746316731 9.05135217312171 24.6032695690647 0
79.0393104274085 3.65156372227248 26.796631134855 0
63.453576271964 -2.29711863293397 -6.6301365306041 0
208.916425306817 41.0593004790036 -28.8616153989791 0
213.859052084881 6.60404938215587 9.14453455762217 0
194.06825715624 -31.3683502492729 -34.1445043181453 0
219.939486579768 -6.29650395271242 -5.92280969918528 0
130.24767471092 17.3226973177549 17.3667303323801 0
175.322059081956 13.2648889441415 -16.8952628502194 0
30.2593958763665 -7.77850247934983 -1.39577181513773 0
208.015361745611 38.2567721858017 -16.1688668184203 0
31.1244088777448 0.867363940708292 -7.9311151565177 0
47.7761874406648 -6.85277847086302 -2.71093594587976 0
220.295840679113 -10.229493335454 -16.7597909093117 0
200.668238278134 39.9486880109057 -29.5064670355004 0
53.8728874966625 -0.394468026716313 -6.57506012976506 0
101.649917723534 -12.105444444552 0.161542102501186 0
171.259935323914 10.4873102504241 -13.0084440692457 0
110.227468784951 15.1773248505989 -3.27379935247175 0
84.8799408502775 -10.1154835327822 -0.371184099426825 0
217.947887447973 -7.70988515670392 11.2647748847505 0
202.971919775871 38.3157816125992 -6.74113168075383 0
153.782489341619 17.7179434245554 20.4494667977098 0
208.568756814062 -13.9275689960046 -34.516244126919 0
198.051323621639 -2.15202283401019 -18.5944316113607 0
103.825612410612 2.00752267623813 26.6627086586594 0
178.440752576647 9.30819674423412 24.7461300488409 0
170.733867240796 30.3451272021971 -12.1230926542706 0
206.440198020905 26.2957882926814 26.1670982243183 0
164.156161540418 25.007883009403 -11.764457859648 0
184.281105891302 -15.9985751324116 21.9949394225395 0
57.3076578410608 8.57018172350162 -3.93403209672107 0
164.987307327194 -29.6807099507506 -5.3101869951585 0
206.389691465584 28.4944864804168 24.8461002289608 0
199.0224635963 -42.1931202939059 -27.6694415431913 0
27.8186732926396 -13.5279623354132 15.7379856552348 0
217.495019453679 30.6631396468483 5.64284853690591 0
181.494486146178 10.8482217830041 -18.818173609044 0
61.9612569320937 -4.38374200865888 -5.3697321220551 0
84.7131283864455 -8.13222007142045 -2.02272387493312 0
211.499397481845 10.8772169823733 -23.6686652760006 0
197.694730269247 -41.2754819458277 4.68417158969756 0
111.049181158666 2.6375372485314 -8.00056927946513 0
4.38846010345978 4.5497833983931 -10.1507062393325 1
99.9931099319997 12.0616881371886 22.6512014867974 0
173.355759850465 5.75091865368365 -12.236749527259 0
210.825225366288 -42.6597230101787 -2.29658219997694 0
217.42508338169 28.4669570144427 1.4959519478762 0
218.613298500158 24.5841735919557 -3.97546645837307 0
210.415576948709 6.17559640460448 -14.7919304256999 0
54.0390893053634 -12.2879187641807 4.67247108697245 0
177.135760104496 25.9062900961813 14.9141051055584 0
88.2549064049483 -8.73010388404942 -1.8697547191563 0
175.283280281357 -22.1333094631123 -12.7770829837214 0
130.353624644248 -19.0597993018752 2.59712413922488 0
209.149912155561 -13.2165828986191 22.8448362067324 0
226.098773957361 -34.8829965111891 -0.2007404796841 0
215.220748361348 -33.7001046727544 7.47199969741186 0
45.7606880655199 2.0184140091353 26.3558212736486 0
189.093772623543 -25.4809111057489 18.6635290341425 0
185.437634501445 -39.7181208374264 -3.39364736758491 0
189.692325591794 -29.1095677003953 15.671245058861 0
210.730930162115 -35.6847479512079 -37.3315147262367 0
213.309518450932 4.17722905901698 -11.6175886762633 0
148.418646611663 20.3341401565431 14.4295667578567 0
175.262307214029 -24.3788676845496 15.1865258977865 0
199.847294274546 -39.5012935062237 6.72104417662353 0
195.771882059983 -14.8263950693373 -33.5011398402236 0
23.2177836026892 -2.24383279758427 -8.6065884858773 0
24.0182772134993 -2.15921619867532 25.137897533067 0
111.041153990764 -1.42100847232452 -6.32664494219001 0
127.833353963015 11.0310190125546 24.1861664687949 0
110.717115743179 -13.1269001958001 0.259512875821044 0
11.8615483832751 5.85467333647086 -5.07374819377452 0
115.91931140895 -18.7146602710167 16.3850707840925 0
217.476437794357 24.6263100514612 -18.7222241437938 0
216.56517083512 -0.409422484600204 5.16872101380464 0
132.714290047982 4.83253136322533 26.09438094732 0
205.383479908802 13.3703605448368 22.9099877271424 0
171.785206098344 -12.1676810234094 -11.2309776940415 0
203.779336409128 39.6035350501187 -13.4209467844546 0
31.2235239122887 3.73045212121862 -8.35972807393476 0
214.208668336887 32.2681923734096 -27.4370744898436 0
222.343669384055 -37.5557646884208 -12.944150048128 0
183.089825173276 20.0096078921542 27.1540149269029 0
179.935904942198 32.3895475870206 -22.7796102882991 0
178.588818712693 29.2503695911826 -22.0888900386757 0
86.2559581847699 0.517032296230665 27.06174726634 0
215.799732347855 19.8837411330293 15.1005464586149 0
8.7437152581551 6.0230670429285 23.1721720519545 0
148.784455133879 8.6603819740937 25.5134928228791 0
186.061386312412 -30.8099906056917 12.7806617793742 0
102.104880051852 11.6434036989715 -5.73651642180838 0
176.952360111435 -22.1401342587467 -13.3320340679099 0
221.776857636306 -13.140958994305 8.84632446521999 0
79.6423000236991 2.09791197224056 -7.47123978575563 0
46.8771219272548 13.0786713810485 2.21732221820933 0
3.0142344203785 11.6324797510536 0.470910162302685 1
220.581666046504 -7.68995059341925 -7.72676083316498 0
173.96721303606 19.4804257666039 22.6927932812111 0
197.325108427436 12.7375096400698 25.0890029698617 0
172.054253262318 17.6641786416939 -17.4373325791907 0
177.069779186814 30.7572930774911 -1.87209336289895 0
173.530068542324 22.2807130974359 -18.6109433013447 0
132.192530554839 0.693790308379004 -7.75304615925076 0
222.843945280386 -10.4318767434851 -7.77936269294987 0
171.862162881116 -27.2738207359373 11.3957513405357 0
203.378141105317 0.57738186819974 18.8450212987049 0
197.050775921165 38.5630721311497 -21.1184132986143 0
189.306641540373 16.7070321402582 28.0331269978645 0
217.153328337514 -29.2229418217494 11.2807136559996 0
137.134965441532 -17.9899799081959 18.7506519282256 0
145.456602183187 14.7837201026379 22.6847473410859 0
130.943503889779 7.6371194342649 25.6735518632489 0
194.806449965832 37.4155664111649 -26.465241118622 0
55.3954520638258 10.97276014601 21.9012089050906 0
164.386413583965 26.1540585046963 -1.01661479860565 0
181.995224431344 12.303925549365 -25.9245022960163 0
197.776640287504 -5.28024449617816 22.2036530511181 0
183.946729483505 37.2619444511704 -17.2693815937626 0
165.64847769443 -7.81534444355424 22.6417472096323 0
179.463658095723 -6.48734868452561 -12.1781175524539 0
114.374736927846 8.60731353979359 25.2562165218511 0
213.697886390685 12.1658230431266 -19.7215573330023 0
194.263631451966 -34.9591659996391 -33.1792968421606 0
167.452525295704 -30.6715035222656 -6.86726736988379 0
210.018284936571 -37.9398584415462 4.08981149506717 0
173.506381189388 -16.4758582318886 -14.1926078331828 0
7.14019758237426 7.16307515557607 -3.60608020507839 0
66.3691843499977 -15.693733997389 14.2608411443958 0
50.9070153070919 2.68336729973745 -7.53815390194463 0
183.86250852485 -37.1485283215981 -16.8014061331537 0
162.061620583134 22.7772235530983 12.6934560378675 0
34.2949638580724 9.52989428308856 22.1295635885693 0
163.425240618463 -28.9017301228718 -1.07060238639348 0
170.409634422554 -24.6560385859487 -10.3242160171039 0
183.608589334047 30.2398673951855 -33.5557225091363 0
167.781494761503 -8.55044775673532 22.2105266112469 0
179.540015005641 -38.2489135064381 -10.0047696328428 0
146.991165355362 22.6592434710558 -7.99433256379404 0
50.2662824405821 -10.5368632430277 21.9390796437888 0
174.748342191863 3.01470929806488 23.0817358860403 0
171.692474408639 7.65084052867143 -12.3865452582239 0
188.969617701606 10.4350391509473 -28.3605377084291 0
195.520152982509 12.5993617518459 -32.85213851907 0
222.091609707022 -36.1845809321662 -5.00492212559332 0
209.252565777219 -40.6677797306721 -37.0532484691515 0
174.859587877039 -33.8588542398184 -6.77680022081905 0
223.431555101959 -40.3237456818575 -21.7490113324483 0
183.889880377072 -26.3690331235465 -16.2041905740663 0
183.010747256753 -36.257299306731 2.0348262154545 0
194.954194313107 2.60865599893416 -20.8315579414944 0
215.877442260651 13.0769117660579 11.0669284706201 0
191.833547237098 -38.1028515778629 6.62941921916005 0
14.5955321644442 16.1642371940374 6.4796006712044 0
178.378804001159 -14.6460615780599 21.3461867688324 0
53.0858268612928 -14.3608063756967 17.199276121079 0
174.790519489741 34.7478482056379 -16.8133217823246 0
222.76460909229 -12.3079003777817 -16.427279003994 0
209.212359005885 -2.89632484611392 16.9554301264971 0
144.045393989207 21.5117574039024 6.12814190430575 0
137.69266487909 20.1430770554993 -4.71445371692974 0
196.806102079435 4.66717683750939 -21.6141923396941 0
98.8888289277607 -18.0846138320731 14.7634042453195 0
224.946170068244 -19.9574270216375 -21.7767948168354 0
98.9434220852898 10.3489843909613 23.8785989580814 0
143.543062302367 -14.1362347284345 -4.02967543382095 0
93.3620134263635 -9.15658084854178 -1.99886562348679 0
212.123798965066 -31.0732127500936 11.5268645140251 0
29.7769646013079 -12.961026949816 8.18395277654611 0
157.986023971585 9.44721956976799 25.2214041397766 0
167.653724154354 3.99995404811471 24.0603189629545 0
92.9768270960162 -11.8189183800452 22.6400211615211 0
203.423336185385 -13.936192093742 -35.3769487172209 0
204.527792146792 12.1114335393828 -30.9487915500965 0
202.376235275791 8.01857635119346 21.6419351040643 0
171.353881669276 -22.5621547992374 15.9669720605435 0
219.975493426611 -11.3311228661357 -21.015479997057 0
210.550489356431 14.8417020059407 19.5163535552382 0
91.1283498432653 -10.7061678929913 -0.539898870965382 0
201.731773014943 -38.4777332807474 7.47579864267055 0
213.297933502104 36.9177228213578 -27.2597787248357 0
35.7545929284108 16.1876511788512 14.2728934931378 0
197.81516750923 -32.3106348403098 14.2141412038274 0
223.331559802443 -10.6101249699134 -4.06781066886978 0
187.533410467694 18.5946158138227 28.8196776990466 0
29.8450402907657 16.5055992375464 14.1212937045026 0
34.602187880087 -1.80424601045714 -7.38584699182049 0
171.477487675013 -24.8063055765223 14.0359968651357 0
175.473473264841 27.7025974550929 7.95500476192849 0
130.866304473457 -21.690651847416 8.43640600432613 0
157.936093928752 23.7317106777336 6.24859015021807 0
79.8109055220511 15.6238121682968 4.19031661913477 0
160.033579226574 24.5887103077554 2.35527724310981 0
77.7997844027346 11.6774216307644 22.4031280634889 0
19.9166894970307 -9.76937274210987 20.958443683156 0
155.316124174843 -4.21022156095698 24.3567972029347 0
177.983360208401 -34.4983055766437 -1.16312001444689 0
93.4827818275461 17.0948520374159 11.0089938040645 0
209.633502685097 -43.3730743191486 -15.8089115209029 0
190.944589556384 -3.65389578290105 21.9603576941653 0
99.7565462082751 -7.40183456208939 24.6905951346908 0
186.099837844891 7.12475319128424 -20.2275918905514 0
177.236607931582 29.4403120666961 4.15373752473157 0
64.0338310440119 9.37485546024511 23.4871529051194 0
124.366751451787 -4.40062781961958 25.3497809870284 0
195.7901732715 7.44257241560258 23.2917690981026 0
143.476217513676 -18.9146583948136 18.2082917363672 0
195.855495857149 -31.096937506612 15.2849845280521 0
87.2068190448916 6.11075747936496 25.9431876040018 0
40.4220854564067 8.96899742959831 -2.69855610818879 0
192.354983613333 6.31868449900032 23.9824717898444 0
213.331497014666 -35.945017695258 5.5145825831677 0
25.157606436439 13.2067121911054 19.1030760586488 0
1.37956383293099 17.5442602071184 9.3255303492892 1
164.10374825584 -15.3275956183514 -8.8145824266463 0
209.938514958546 -41.9559796114965 -24.5022341695179 0
206.165319014622 -7.27724776986218 20.460071650571 0
10.5366163615201 -11.2835866853911 18.4324227896034 0
203.386699921119 32.5996948611374 14.4269502987131 0
131.39049683251 7.57451158988888 -9.67454060094448 0
200.977620392651 -22.9763964493117 21.2709267683533 0
197.555947637814 8.15267333036293 -23.8183959916335 0
202.02715186925 -11.1073884219027 -18.9988262394781 0
182.44037582199 33.5147921704027 -0.781542608716519 0
181.099012392369 19.8545710439993 -30.6423969652906 0
213.312827576128 -40.7970842310434 -35.4144434962856 0
150.477979924566 12.5950124123276 -10.6258857662237 0
186.929512103727 29.6950362758888 16.994917594793 0
129.476854324364 15.7629949339354 20.0069949337868 0
99.386265151175 -16.3350419988294 19.0316735995875 0
113.472619009233 17.8223999590291 12.569925074463 0
214.130959663151 34.6719925726243 -26.8137926043641 0
201.532241690079 -5.07858732715429 -16.103797711612 0
206.17703945553 38.4548342281084 -33.2148414474399 0
172.497773116445 5.77076680497345 23.5662157426653 0
174.785008563037 30.5028098167382 -16.8611129230789 0
191.053706518783 32.6586404757839 -36.3176495896609 0
213.080955790693 12.207168949836 13.5174751276443 0
186.034125269661 -43.7212557180676 -11.4404337265405 0
54.2186968586477 -13.6455576354221 7.51251543290745 0
229.191535463131 -30.3359443593765 2.62862509645484 0
0.0417329603178591 -4.98999381739906 22.9083926953647 1
169.065897168134 27.6993119455088 -13.6310261123427 0
207.944225171298 -1.17003429284798 -11.8460993585699 0
177.164839598545 -13.2418250231102 21.3962296867031 0
66.9763329766889 7.50484351201626 -7.47671247632174 0
37.1928539976793 -14.1042847910591 11.3437879619052 0
179.989411130184 -18.4322697052316 -14.8642711115053 0
139.06922564734 14.1643733416552 22.6447846392158 0
225.435256287444 -31.8994531520736 -24.9032189348737 0
141.973501462097 21.341848687696 3.48544863886289 0
129.221433402928 18.5666817641936 -2.82160501422865 0
44.1298167673709 -6.25178322197578 -4.28073923081267 0
199.654204179358 4.12851131816006 -20.0796136687279 0
163.417074089471 -24.5776823698174 -6.10297078920959 0
119.027499353722 -19.663708270299 14.5880100506867 0
212.336160585595 35.3381112995386 6.56705947324769 0
218.005811720916 -2.73160832363378 -2.16093023462953 0
218.062080486926 -23.0866165102343 16.1015509188439 0
51.352337576811 -12.6410578792762 5.70042294369764 0
27.0364127135391 9.29582245762152 22.1953458376606 0
172.85236995307 -30.3762974538071 6.45558530704878 0
211.394188337515 9.04411523276729 -22.0363167867622 0
97.1291439567898 -18.2260255257904 11.3775197136848 0
27.3955080514933 -0.967400716758688 25.5730993770117 0
216.614831398043 -39.5368005859891 -3.71517739961114 0
213.021493940542 29.8485486535782 17.9885357346575 0
45.7568373107871 10.7204654981749 21.7395467517783 0
197.643854556212 9.69562379750933 23.9604755321341 0
145.9106645667 -20.3162102354728 17.0547632927932 0
212.418893607044 -0.405363341156718 -10.8989741203331 0
169.500840037088 -10.5345320680694 21.6117968583033 0
159.584719520668 -26.8664456398341 -0.573803622284783 0
188.928497309236 25.5146836069082 24.6388294178857 0
201.895821348365 34.9717526701118 4.43419994033574 0
116.995611370647 -15.0023075146945 20.6107141486191 0
177.665823976797 -11.1348787036984 21.5072227475344 0
130.067454327635 -10.7710675558856 -3.66807223475319 0
209.811251035678 -16.0676005759883 -35.5508748709748 0
194.812557739657 39.7551843814545 -7.14647227613407 0
13.2099074726204 -6.48294979857481 -4.32714995195162 0
213.622265847565 -6.65458321685154 -11.7634520121364 0
131.927730489137 -20.8186048096469 4.86768092179127 0
204.319015841567 -25.6861168310536 18.729690345948 0
214.369558260029 10.3517351148612 10.4424192013367 0
180.952041145301 33.973517215025 -3.37818934126251 0
218.845921766868 23.6516165884319 -1.90170580396281 0
220.454889644816 -8.24174359544203 4.08321059495895 0
196.862836214718 2.14103898833399 21.3661342655827 0
210.782494385789 -6.33506442230831 18.0556148396709 0
217.814228838399 14.6301012493147 5.86873772703211 0
175.76610065295 5.20027010637229 -12.8522650136162 0
189.343943358701 -28.3597222267762 -24.4381585497794 0
218.755930312416 30.6530994954473 -11.9381060451644 0
103.647005880909 -12.4598719777483 22.312483613019 0
71.7070522592989 9.53834717062124 -4.17933656267489 0
202.003214550639 -6.40675073949733 -15.8996041659739 0
228.897905595667 -35.4791446098948 -0.893233462052128 0
159.733478767709 22.8896600175458 11.1160743882004 0
138.641417020381 20.7353571044545 6.68833566174789 0
167.827206536363 24.0363689807441 12.0600940845612 0
94.0473153962917 8.95140496051451 -7.80793961360907 0
225.503189054497 -26.6995466959078 -23.0984995741725 0
204.28608577764 -20.1802222202494 22.4847306317104 0
145.038325483065 21.9661187375799 -3.11227834940343 0
186.198649909273 -1.56767199351348 20.587276186895 0
127.77036553376 18.9650524777957 -0.425556868533492 0
215.122599380882 -24.8087883182756 -35.5426811737799 0
206.571457087451 8.94341589128875 19.2588816468818 0
193.010877839527 -45.4492481109134 -14.9477283456392 0
49.8262593923167 4.62837547477913 25.4020640505041 0
213.887959721738 -11.0016104034691 -27.4685758569953 0
136.393871677908 -8.58602069619428 -4.7667290757307 0
200.591037472769 28.6109187050624 25.0201831340067 0
203.997806481187 11.1747513486029 -29.7306952812147 0
80.272586294782 11.5062860945357 -2.97119103112361 0
4.6596260438954 17.6049753717035 10.1380224266949 1
59.8855996523798 16.3432479793773 11.4233195604576 0
221.874170920551 -10.6672636948525 -15.6588622181791 0
219.504843992957 -15.6955831424838 16.5922265112235 0
81.2152185778465 -10.6948183454216 0.329553118992234 0
191.007899473418 34.9511790862969 -35.4705715403005 0
93.4821320273002 -17.7025648527548 10.348555971841 0
107.905886230394 -4.09279463014211 -4.82271726017431 0
151.86124334464 -14.7127177048785 -5.29664886297124 0
95.6505757581822 4.32201771009639 -8.25326707196364 0
5.8389573502132 5.22278350584622 23.3363568266986 0
31.6163029570282 -13.7003889557835 15.7083496472543 0
106.533999593597 -7.95585092455338 -2.73588658878797 0
56.9196593141887 1.17037589446793 -7.05528136990018 0
213.58067069211 7.59299883154414 -14.2027424200451 0
55.2679153757441 15.8154022630091 8.1214160740395 0
165.790195593773 -4.23537858411546 23.3298388414973 0
228.761458724612 -34.0253952332363 -19.0419870432482 0
194.845537240995 32.6582512243668 14.0227752125475 0
190.495548975031 -41.4029899649872 1.6974242565036 0
187.045004564536 36.7076796544803 -22.9792145800142 0
224.6672857972 -18.0665246969797 4.61331660602483 0
213.679466668885 -34.8327846498413 -36.5145786332232 0
210.552805641953 -2.22559512783023 16.0458339129708 0
206.867894051904 33.4889282547788 6.55503043568441 0
89.4082174810802 8.84231014476604 24.7012836986996 0
17.4739545443693 -12.0253605253089 17.8637226656326 0
24.1047054119707 -8.92303013082434 0.617810955506096 0
117.616615840847 -1.57802570900288 -6.37934819340831 0
223.362139994908 -17.7763076750104 11.1881297332524 0
8.6324003850811 12.5589279998309 1.68498700199541 0
96.4396846900457 16.9651121412976 4.94224911456205 0
179.896478699676 -21.4204813938522 18.7820952861994 0
199.895356603352 34.9251737203066 5.11731178088977 0
224.914949663275 -19.9874028797331 12.6281155439554 0
221.330144386402 -28.4128089358799 -30.5069650040741 0
75.9791467171706 -15.4378715018376 8.2778367577864 0
98.4419993337422 -7.95225994780643 -2.56291946892927 0
211.49827476074 33.7955245198097 4.61944385386021 0
189.786099251787 -16.940351699272 23.3910292913001 0
144.788478596894 5.05691038457205 25.9922657198674 0
202.425740000609 -23.1089001101705 -38.2379887123874 0
217.345298447634 25.2161818427473 10.9376579923026 0
224.51909399078 -30.0343752964923 5.73473476635179 0
207.694817863255 8.51588731712096 -25.0124005808012 0
204.822162144031 39.2856990949109 -26.010528641666 0
194.246991426916 -19.7558156904777 22.885339895835 0
210.836808578647 34.0688066335963 9.98312588716288 0
179.845467583367 17.7395803096745 26.2849350975209 0
177.021287707777 -9.75729437879317 -12.2052874869864 0
29.9764004219271 5.03786799522058 -7.43439971251496 0
7.98857631800294 4.80078308889369 -7.31814027365411 0
153.311344383909 12.7814544311281 -10.886795355419 0
202.691779420826 0.735734317242901 -15.222936707659 0
193.025421556053 -12.7132120633649 -24.7695301272257 0
218.973429693677 -39.7183961222988 -8.39127491601702 0
221.296368112102 -7.53062863802215 -4.99270955748745 0
115.506866798562 -19.7306655747083 8.37516432336402 0
157.459186939902 8.32662875066363 -10.580288124357 0
182.706361024467 11.5096189087043 -20.9462494938025 0
192.990202992831 29.5471209847842 19.8228057637065 0
218.818004655473 21.455508168071 7.94956332401992 0
51.7485604184248 -14.041263575837 8.82837969527553 0
213.733111262764 34.7621567141871 -6.83936289270932 0
204.134165195722 38.3634872952747 -8.16294058921543 0
203.847613734012 -43.8893259775626 -30.8760645012473 0
211.729317570856 33.6977783412002 6.30521037952892 0
174.072978840724 -12.3722628796094 -12.1873865129486 0
70.1182529444191 11.4311077535436 -1.79377384696168 0
117.815894503147 17.131003559334 15.9708960024479 0
113.81096866731 10.7141503997312 -9.2702233284587 0
53.7664667277517 15.1677827055114 16.6740848358811 0
206.631622849659 -15.8953913969759 -36.3914720124853 0
135.675024210251 17.5424660847495 17.8323743541171 0
0.805730078767802 12.0132923571072 20.0182799225178 1
108.869504398188 1.88120402176686 26.4726057371754 0
28.2205329400925 11.8876075594759 1.13928944024594 0
171.775719744433 26.1676370508387 -17.3539201604465 0
86.1784891869612 -17.244469792504 13.4056070161825 0
218.134444030708 -3.48190673966288 -3.72470039033153 0
216.567503685317 26.7927289752023 11.764665895792 0
216.270370293048 28.3650802593115 12.8148494453293 0
123.401334033856 -20.5853137347365 7.4252534476085 0
200.074805682315 33.5356946578875 11.6259759876186 0
80.9309682385802 7.4596151627773 25.3447424915932 0
125.264041063249 19.1491319395707 8.064601462569 0
93.6107500581315 -16.3782755845614 18.3660233602 0
208.050422216997 26.057006525256 24.6137904287036 0
14.3577534584902 2.58831558053491 24.6251919822816 0
32.595903368434 -4.50429692398911 24.8305729333644 0
203.0148439833 37.3576267499176 -2.42282955132862 0
187.314638106182 -16.5133361152801 -18.9381674044215 0
46.9833570883039 -10.4828857428977 21.7779828458776 0
72.6045289669312 14.6703297231848 3.02456856928902 0
203.081247794038 35.228502636212 2.31152905116196 0
197.460065327929 -34.1727063955583 -35.8515252513475 0
197.717852357967 -38.9125618151507 -35.204670269324 0
210.077770990507 -29.5526103224182 13.7977647012832 0
202.803951457835 39.1881117542154 -27.0791764876882 0
211.408989468133 33.8643055990435 -1.06119522460762 0
182.582978337025 -18.9632196353143 -15.6432040717537 0
167.388215873494 27.6050397289679 -5.0891277056312 0
106.023316454597 -13.3302121768387 0.749620451577038 0
191.633780266333 39.0015063357904 -22.354220303973 0
55.6923245629553 6.32924147611724 -7.40347467509318 0
66.7003449109423 16.3424566456864 9.3959076762193 0
8.62679857094919 15.0239398511636 17.2333496865389 0
124.022348860007 -16.3672760409371 1.13642784165932 0
169.638727324836 -7.54758215269702 -9.08251362002786 0
189.65935465279 28.7255479646925 20.8818699258844 0
172.059301366017 13.9057130609801 -15.5286211916558 0
228.268611408371 -24.824711259453 -12.0072022617178 0
217.905789254492 -5.01272069735953 -11.0684301859815 0
218.08919178188 30.6098309465985 -17.360191323056 0
201.18823572585 34.4724019078651 7.74926821007998 0
194.571754913489 34.4899753169985 7.31888594784978 0
151.737388764032 -25.1725894104086 2.83054663732685 0
214.542059616118 5.25401267528233 7.32252420121191 0
170.092852675505 -34.1426084991884 -3.89870993689991 0
218.79869845508 25.7392495747696 -10.0469198664506 0
62.4225664759561 -8.92605819031247 23.6724882226146 0
166.425939093 26.6675933075791 -1.03150408658779 0
140.33215978096 -18.6868417699156 18.3324745535952 0
181.77170576997 18.0299067732004 27.0071608084245 0
201.121604289462 -10.2422302583641 -31.734100066911 0
13.109485046557 -11.1338642749751 5.33490795043811 0
202.387961931708 1.83890251403078 -17.1342251556202 0
198.142771058593 38.8443104650432 -34.4799085206017 0
208.132751668775 -35.0052998322976 8.59134098404003 0
200.334259556986 37.8534947792752 -24.3136024478347 0
184.352515914649 10.4937986515651 -22.7836959051447 0
212.532689993053 -24.6244176373705 -36.8188227670207 0
165.017983481029 -17.2059360813498 19.0571420377114 0
207.340815734234 -43.9487511574581 -17.543562497125 0
222.91649485886 -34.8261238748456 -1.38731933021884 0
56.5653860490342 -14.2542677587427 8.77781245795535 0
26.5478420151327 -7.13458929614276 -5.59231354266374 0
84.1503064046623 -12.6720909309025 21.9315384659374 0
100.033477215793 1.07783491174892 -7.23293466227283 0
139.73866423377 16.1809904698028 -9.74739619401545 0
89.880414065635 -1.74978000865854 26.8323383317232 0
183.661249146575 33.5038707648184 -25.3405121136668 0
171.602417343586 -30.0920385937537 -7.50314256342709 0
216.310432149868 -41.6652633604268 -15.0996747188676 0
42.2711586602119 6.25507837889624 -6.49003398228929 0
30.1172308204551 6.08202092634693 -5.61248658981158 0
133.708345292899 20.0932063319225 1.78600142225253 0
116.97169424937 -18.9129187276207 5.53024724179571 0
171.354317636174 30.5960287763663 -10.1286076501472 0
179.388857052266 27.3167771005482 14.3044226392122 0
26.8482315878848 11.2322312650658 20.8471556029537 0
21.3478681023724 -8.30588170435847 -4.53385900210851 0
155.742997323967 -21.9224176774378 15.4299484364269 0
90.1596327653372 -2.89196883973599 -5.10139952136009 0
199.678130444099 36.9041108552725 -20.87762833534 0
213.757060607808 -5.75823313355375 14.625204610949 0
110.969170471239 10.0073560675324 -9.01010883794517 0
172.567241764507 3.91219177886166 23.6570723005452 0
15.2015864146836 12.0799970981749 20.0957193695502 0
217.14334961314 -38.3072945688833 -1.87102003570151 0
64.3385729389702 12.8186485752901 0.786689745482071 0
203.536976039089 -4.91205013623668 -15.3998840090517 0
163.109744290188 4.70839988172901 -10.108804263919 0
20.6777334782918 -8.52124182341824 0.0607636535641756 0
217.02031589288 -10.2479413364152 15.4477139277286 0
200.999401635108 -42.7210004525036 1.33751146665334 0
199.951427002457 10.0993385950882 -25.2159588841673 0
183.191465740696 -24.9846616811815 17.0256879233413 0
28.9446574246238 -6.60875074683123 -4.93999852285332 0
128.284645745127 0.306003464725594 26.2254929115388 0
188.528180919928 -1.79513347330086 21.1998374115104 0
194.730166497982 27.2571478579824 27.1799358551847 0
141.081293608397 9.24783572835694 25.385109636156 0
181.585922617389 13.084621988284 26.420548265667 0
204.092794441179 -36.1665962787675 9.36589172448807 0
197.90928786542 3.44214444600642 21.3082596674714 0
188.418370450734 -30.4029452129542 13.8629436562639 0
209.749535246368 -42.9973124309298 -13.1280732351871 0
173.993830346941 -17.8050040573387 -14.8155368727738 0
199.156965997638 40.6139926401415 -12.8774434159544 0
145.428206189579 -7.26083778299405 23.8766099413986 0
209.063965482771 -40.8974290505325 1.16982340200798 0
67.7180274018393 -2.74600297584903 -5.66866222601988 0
216.444924970528 14.2932039096419 -10.3746740077591 0
49.8145133761292 0.327657060489907 26.6232688698537 0
216.493803974075 2.11948313141127 1.57579613810554 0
194.684665829141 -36.7061038172565 9.40337813949976 0
97.0251647975064 -10.1947708126336 -1.09533027533063 0
97.4607143561695 -0.159125178434118 26.940955060107 0
191.914858502949 -21.1661626733573 -32.3704219776747 0
98.8223260657645 13.7619178193069 20.9004036588637 0
166.677793236433 -21.798051402587 -10.5899884329208 0
2.03699087594425 5.36770207613246 -9.14670662314814 1
179.021387710573 -4.52159977797256 -11.8887403374818 0
26.1667783659156 -4.21572281000006 24.6293107636434 0
113.109247197024 18.1384627759763 10.2086448366233 0
169.912582104641 2.67435818463619 -10.5882223322105 0
213.405565271615 17.226584022595 17.0821361053989 0
153.824878116145 -0.783784272658858 -8.06295339459145 0
91.2466043732406 13.3981342237821 -2.05301106565801 0
5.65940613529801 16.93126718292 7.65518887676167 0
56.866701576056 6.93542221485712 -5.90875166243008 0
105.919480026402 -17.6136494351499 17.3799172318109 0
217.745139458186 -1.6422145579646 3.57002305771456 0
41.5146206020548 -3.74829979165521 25.6531006115914 0
20.5057868190665 -1.45391041512315 -8.59052077134001 0
85.0168617127081 -1.45137406979669 26.8242375311595 0
205.889181858513 2.4220170303379 17.0658201703351 0
69.9134000444651 16.200494526989 7.98842994109094 0
195.536480600037 -45.3358355887543 -7.12184404790603 0
218.764275253109 16.9580288676468 -4.60239219500716 0
101.981658492548 15.4575000406046 18.6035713213041 0
197.820141258587 13.4790216866154 -33.289736144684 0
218.743979595714 -8.51677619001107 -14.314980127933 0
126.265566466395 15.0599645502454 -7.76842965760622 0
197.299428920825 -25.6888616017811 -36.7808860687207 0
46.2080990457497 -2.73890608795097 -6.64728899025374 0
172.392594106378 -1.88231496728715 -9.89638077964935 0
186.711688256579 35.4894436318095 -0.706501628894267 0
217.650976675642 36.709536887502 -17.1242978177483 0
186.663008251327 22.2808979867248 26.7813235210154 0
210.672200366689 -18.7531406087283 22.9282619487339 0
219.13729912055 -28.6830750810369 -32.9756673442676 0
89.3307555609957 16.9760017188944 9.98927788774532 0
155.376272715333 6.20214076537025 -9.94311115144238 0
217.659539543076 16.5379939259391 -7.97736702987986 0
198.683654741834 -33.0872070313932 -36.807639336959 0
175.934272989027 7.45840936632843 -13.7347981109767 0
206.380241309149 -22.23204997388 -38.1270043770585 0
179.023514874935 11.9015625490899 -17.7008960404695 0
155.123311891324 23.4825862132642 4.70343505894414 0
1.71623616017782 -10.066374256994 19.2941962584719 1
158.864155987227 24.63014545506 0.992755698102232 0
41.4016826994933 7.18803923620522 23.8287266645487 0
107.365845473998 17.6633017312939 11.6629847974258 0
202.282035151107 9.39542603565303 -25.001686899443 0
203.499647089634 -22.6081541325705 21.1400191190586 0
116.381143127998 -12.3831744003312 -0.856193664949771 0
213.958494326277 8.98263634143371 9.92470915119789 0
226.426887655459 -22.3348636575028 3.31368933446109 0
226.286929081037 -30.5812742044246 4.5995530196092 0
179.681400247954 -1.37355104090856 21.8500169671774 0
201.730236892308 31.9521482794461 19.2035972884519 0
10.1600903766469 -10.4747442627995 4.19473913982608 0
69.592720253332 -13.2287781673479 20.5504827654871 0
204.778668724338 8.25718317442037 20.4950409655091 0
186.277523172656 -25.1703896303239 -20.2890722639499 0
72.5018873423325 16.203012836533 14.555865577157 0
129.026998286025 -8.52750045414042 23.7640109239266 0
178.365614766684 -8.21151770297505 -12.0523405472202 0
95.4204354244985 -1.94854174685452 26.6280780764857 0
143.49511148238 -16.1193508486361 19.9431016760408 0
186.542730947364 -33.1161690658191 10.0733591916546 0
183.51311596407 40.8309162417175 -12.2951024979547 0
64.261596399848 -5.77345108548429 -3.91628326110339 0
171.583159508277 21.5559830843483 19.1508016471787 0
218.084960453 -39.6805782186762 -6.18577411347687 0
16.4989502364487 -11.4139627023523 5.79360330136964 0
186.553338589866 9.65858299743156 -28.0593101185823 0
190.408300152348 -7.97852445541272 22.8523421940572 0
204.675772600232 8.23652743768704 -21.6936441260575 0
206.025102147176 5.11076622983436 -17.9094868881998 0
55.7538145532236 5.1692616196816 25.5729318986358 0
183.470392215468 -13.1004854377471 -14.8661235530594 0
64.3031247681536 3.165419353417 26.5486570845216 0
113.825478389446 -13.8675917911149 21.3917138049132 0
191.14321443954 -16.9830685514198 -30.211408170539 0
177.56051494166 14.0549351893664 25.9394301917451 0
216.555743678755 12.6420344471316 -8.84168150144551 0
198.999714316139 11.3928167593304 -29.7748289534103 0
200.807994931975 -24.4954641258896 20.0702965836569 0
27.5100496162469 15.2662906512876 6.03548836992277 0
100.984645128492 -9.20761802456205 -1.80355314298622 0
44.1917531832515 -12.2972684757892 5.63726103218647 0
177.94316331078 -36.0338189251796 -7.55849539871281 0
215.304631478427 19.1661922422063 -23.034970267986 0
15.0725262237227 5.23584989431467 -8.26203235501386 0
190.327307239166 -2.04714705127974 -19.2573995829218 0
50.5227090347742 11.1277927720169 21.5773151587149 0
225.305505725831 -31.750988737903 4.25919389734186 0
169.604410469484 -29.9166441887723 6.48504698786097 0
134.729842611812 19.0845685618612 13.5939364360666 0
205.518132218015 36.331225513786 -34.8612016669376 0
213.738518813467 10.2740334548763 -17.9003737847775 0
26.7401303429966 0.06549271272739 -8.10147213186101 0
136.227073601202 12.7413591616674 -10.0315473127706 0
183.837122572267 9.10839375201536 25.5041242705125 0
182.199266714911 -21.2371011821268 19.7858608431914 0
205.725065987978 -27.2162015255792 16.920678048922 0
37.9595440359228 -10.4950739327474 2.87112514406553 0
188.371758788215 -30.7627236726377 -23.5745164919028 0
80.6014031029858 -5.61907808968586 25.4405372370404 0
211.138859877449 -12.1696826003781 -22.0665674799592 0
170.066504185619 -32.6786537954066 -3.10526432048906 0
178.302684096943 -9.00259438560259 22.0037197978267 0
169.697504725387 -13.1028287526943 -10.8395821042658 0
94.2277003133159 6.36909966740176 25.6212943653868 0
210.214825948886 9.89427637890862 17.1070415182433 0
218.658468435983 28.1971868020576 -14.3699450024314 0
137.0906825234 -10.8570494449784 22.5757706550786 0
218.530744309713 -10.7093359311287 -15.1976393147609 0
225.829854537828 -35.9299671517395 -3.0628014138784 0
171.129213268803 29.2277419626096 -6.33495568492705 0
72.9396615347751 9.77200690679452 23.6259388358828 0
169.078226625517 -10.5165457771618 -9.67289358083667 0
226.394865792555 -19.2424175223527 0.25157789163613 0
184.569738505236 27.9241332211624 18.4836616712421 0
136.943793609283 19.7406281634784 11.8868083229334 0
45.8638173115936 -4.9581633565032 -6.3326933457636 0
203.407008699988 -9.89563088007667 -31.9121433673383 0
20.3989177884298 -13.2152103934398 15.1580024715188 0
198.948752848242 10.9119281189661 -32.546902031055 0
163.697399629238 -12.3130519043986 -7.9703817247622 0
215.146834038767 1.21841246897901 -5.84892820797559 0
2.38802980084842 -6.7222343111955 -1.86190112784837 1
187.614501584659 -10.7905073557737 22.7849153360738 0
215.1559942797 -3.90403356808025 -11.6111474474587 0
173.378329004417 16.3544973617122 -16.880288436022 0
187.035174335405 30.5529919704503 14.3095676638544 0
123.698516183071 2.67588532239689 -8.21550359219635 0
160.8128225149 9.78201271427364 25.0725934082163 0
148.698944242814 9.95377482021201 -10.2411468039643 0
204.374310471963 38.7335866998521 -10.0250727931757 0
55.3282984683989 -8.62143805201995 -0.831055207641494 0
169.872194791915 8.29727712158673 -12.1990328653222 0
212.489030599633 -8.8794552792398 -27.2647424864242 0
216.641193249104 -10.3972316105178 -13.6089142449083 0
200.902807637455 -10.2289189036208 23.7132187979793 0
49.7864420624772 6.13135988641901 -7.12301591099526 0
94.8612609975966 -14.1928782174489 21.0965791895576 0
218.037230207811 -3.98289679136508 -9.68090471655871 0
171.518683348147 6.90677586284303 23.6556513970166 0
76.3893497966238 14.6120365450226 18.3116312861063 0
157.894799004426 -23.2855889233061 -3.62158704113654 0
170.131065002456 10.9792439575174 24.9312944040903 0
182.59951476159 -36.7497905572258 -0.439237501257032 0
90.8858869330914 1.73641680171388 26.8536500845366 0
200.760299103601 10.9898833461323 -32.0181423486909 0
28.9319645638479 8.00190342408345 -3.25282188417774 0
205.700644662635 -36.931676026502 7.74939311192388 0
61.9115898771346 0.121139917374481 -6.97033004999083 0
2.61341824216517 9.21726696748431 -1.84606487843968 1
193.222596639031 -22.4775444927723 -33.9450418069916 0
205.101530452743 -43.4856753496918 -0.787192054134934 0
164.464190023585 0.715784943143571 23.9759809440726 0
229.891025230614 -29.5602218748736 -8.06842543382198 0
80.8098369501987 8.97117909035508 -7.59390744174065 0
136.247779726664 20.3825338655308 7.36036603765871 0
206.005981492009 -4.8639258076322 -14.164465508964 0
178.244672994908 -16.4392242537839 -13.646806114923 0
34.7930209721427 7.84110953187202 -3.63403432785448 0
167.665250233495 -9.6104058586209 -8.86732361284474 0
193.071961874357 41.225507679694 -12.2939447428736 0
116.484800611277 16.3154166296192 17.8991700943991 0
104.525550081003 17.2348526859409 3.27197184661956 0
125.617231140161 2.85291748197918 26.2700338795846 0
98.3956797270569 -5.3216361533595 25.5615124994371 0
100.721073092996 17.4187133850429 6.20620560415123 0
211.600799275429 33.2411524081589 2.89428304891673 0
214.510344630374 39.7602069142408 -23.5589596141786 0
133.472019907614 -15.3692336172153 -2.09596823235937 0
65.112404860543 -8.26132390909256 24.2164000484916 0
194.013984200996 1.06875302865657 -19.3708463858487 0
76.4111476559107 16.6397135638365 10.8416974029121 0
155.918570870927 -15.9354842933913 -5.99524271869166 0
129.738297285452 -20.5572987270577 14.3988569023073 0
199.080941514973 -4.35960630524172 21.5513439614636 0
131.229974068603 18.2153655316425 -5.13863110869621 0
38.37938481661 -13.3896126392757 17.65242269736 0
47.462721055052 6.07674274808639 24.6023336787205 0
226.176902567096 -16.308536252785 -2.93563127282178 0
213.163458189081 7.76640142647252 12.4370954458803 0
208.027018991496 -27.5166383056347 15.4339638771777 0
73.0506144971416 -10.1496781702456 -0.0285097064017981 0
180.172493746275 39.450473131315 -14.5787061676684 0
192.465032134859 -42.3277911181695 1.12083749620056 0
161.712577298282 18.2099525501264 20.9592826422052 0
94.8956188434322 17.2221653088771 7.44485718337176 0
137.639588202112 -0.905487843926104 -7.31653049880547 0
210.255486434367 -35.7710006475614 7.29191777002194 0
104.566722688092 -14.858688872241 2.30179506880344 0
193.95769770538 -44.7402907725959 -5.83426032392664 0
101.262749051462 13.8224520454809 -3.14454300381303 0
18.6133323345361 -13.4461939282224 12.4942120394135 0
113.37663085856 4.3437929841919 -8.56400908512934 0
107.892502002498 -12.9044903670435 0.255752714279799 0
140.557400422894 -15.8234300601981 20.1494450823432 0
10.8342455342695 4.7504402484219 -9.10350147022218 0
140.418302955874 20.7585935306028 8.656617699182 0
35.6024569610735 -0.391770596464648 26.1018858630456 0
207.292346172464 -26.1734225745443 16.8030776928834 0
219.866025995245 -12.2604069539051 12.7023499988573 0
60.3414318066959 10.2687885012804 -2.26218128839986 0
216.46499144655 30.81886716765 11.1134936231999 0
61.212911061207 -12.1533915640316 3.91158797811554 0
159.210577133186 0.766435589085973 -8.78120754630034 0
210.121276165446 -1.63107589183149 -11.3534366604738 0
193.339247799473 31.0870336222047 -37.750588634298 0
175.380549966211 23.2716102879266 -19.3967309159961 0
167.527116376298 1.79455465643873 23.5776747606885 0
57.1583681362432 -9.8571889233518 0.923978475479745 0
133.237439529955 11.6333555676776 24.0389087663825 0
186.781568698198 -38.3715545150806 2.29281654367502 0
196.26135953714 38.2911830245332 -23.3304010083706 0
122.154097882178 -10.8626860899541 22.8009358749682 0
107.147805293393 -15.1864549105799 2.33329437133023 0
197.255371957968 -3.13489210134885 21.6917897422353 0
176.636157943356 -15.3006322764518 -13.9417198516022 0
196.722923917348 -42.3551036475681 -22.9261069176601 0
221.422777152584 -15.4364278151094 -24.8581532238314 0
127.868791627981 -10.4242183666637 -3.47112864313167 0
177.376122296414 32.6858411182182 -6.2835826825355 0
11.751096421301 -4.56345250609294 -8.23579534721851 0
182.745940343888 -23.6413754724314 -15.2721970491024 0
214.681314272831 8.36714746084968 8.16442015154265 0
201.347765546483 -44.7331155344545 -7.83741809353308 0
115.226514006214 18.0609210791886 2.51209502808795 0
193.160897935165 -17.1224672822165 23.9157285923487 0
209.340378506766 38.4892337944996 -19.4154832237044 0
184.524965473057 -32.6495687974735 9.43355060053704 0
179.305964337122 -2.17167944350543 -11.9837880452219 0
139.268971922082 -4.17174613742642 -6.34524674170424 0
219.334035424372 22.39906281431 0.425946928452439 0
161.21020437539 -28.6156048399343 4.23999153457445 0
185.368148678299 -18.4968011587607 -17.060053008407 0
102.276183915809 -1.37659538176568 26.5706241537143 0
26.325113683359 15.4848802198704 16.3259743241398 0
148.437320611655 5.15438319373659 25.8742078122555 0
