21.990794202665 -3.36744116762583 -21.0578589201522 0
187.348506005443 -9.05302646866009 -15.9098092095848 0
-10.3932708134329 -6.72531524949664 -15.9105643787337 0
156.567440494347 23.3148348458139 4.48650467149738 0
-26.5862243593783 7.40189064416481 0.767692509222275 0
174.425601485465 30.5063830835599 24.7845818851656 0
111.595196389911 12.3601526293725 -17.7638194124632 0
64.7905377032471 14.3259920606264 -14.0116058159352 0
81.4621601778122 7.6567242116777 2.54106851245747 0
133.953983006444 13.1992526120335 -17.999415758075 0
108.608036672542 15.7861327263221 -10.164087455537 0
193.167111626539 29.0706604561093 21.384019144409 0
10.163830404917 15.6260773182749 -8.94533912520744 0
116.520531923827 9.60391297200587 -20.3874877827303 0
123.612202996079 9.55883543165601 -20.4269363918829 0
143.657712540234 -9.02076302165199 6.03072917055017 0
35.3132251629466 14.9127538097607 -14.3253788323834 0
-0.777015040453279 13.7397343642719 -5.64499972687961 0
195.171130679799 13.971112733208 9.05048653994042 0
178.428030241999 -36.1655645156614 18.1825201899723 0
164.745473214158 -24.9004184166666 18.0247037408971 0
174.792306730234 -12.3582540082148 26.1676594584783 0
-8.51096071248199 -0.408997440716598 -22.4211953864121 0
39.5794036199001 6.00017484374281 -23.5698952166462 0
197.773979344014 -8.86002345581692 1.51733138654122 0
29.5506001793876 -5.39485157808244 -5.31738399683819 0
78.8450149729029 -0.539258620885655 1.5939111628964 0
116.910432801073 2.92065531208659 -22.1028722816735 0
115.091187281918 -10.8130113425831 -1.14462193363146 0
62.2531047902286 12.1980465525289 -18.4853262874586 0
-28.0809326535522 16.4130341266354 -7.00050994210087 0
194.886896269205 -30.753603962482 25.4091697968316 0
175.661214240701 10.8823936593125 31.2125002816444 0
161.306394705605 26.8942017167635 11.9370736809061 0
126.876431359697 -1.63746627909997 -20.3051893354801 0
145.240223205126 2.0336223898057 8.00992982139252 0
167.869187930593 -8.87278976631634 17.9725178715872 0
-6.42729046046426 6.92778467519058 -0.271632885861161 0
180.847464175096 -30.2160444783235 35.2197174627054 0
189.963197774436 -32.7637675155559 23.8749866389702 0
174.774935163729 -7.39244429002098 -17.5832514275854 0
165.097251071687 -11.6749062184559 15.4217200331734 0
35.656495023906 13.9609571779633 -5.87131543165881 0
191.883577552521 9.80104427921544 14.1753718399521 0
196.799130947711 -29.7332209725176 19.6277612373138 0
156.194837447861 23.4172070646169 6.74347584859888 0
180.105707208388 -17.0004054007285 -15.5847553211519 0
42.7285753275112 -6.33026638220927 -6.34430565026631 0
48.8102946488049 14.9711506174293 -10.5691463066749 0
194.411256593929 25.4656197133561 20.1138740030626 0
72.5887174122271 -7.59008563041354 -5.24605045089513 0
-5.21811945262468 9.67399829456915 -23.0214604853921 0
122.695735323739 2.63674591527809 5.30223166970662 0
58.0648343500596 -7.48250192496222 -6.87616478858026 0
198.04463159635 -23.4990594086688 23.6002016492111 0
102.472920197314 -13.365898816142 -8.3567250666963 0
38.0837220217883 -6.80742162042798 -18.1763512419293 0
187.817586265485 26.9795166337554 -2.35253780867782 0
161.451879075355 -2.2634741690473 12.7265810018896 0
163.151280458938 24.354858147884 -8.18549539350307 0
191.065532839016 -13.0878706631817 26.7217818589135 0
51.208417957577 -1.75080814850053 0.751047839262737 0
-30.1454617191049 -5.79281707228942 -12.2631175854397 0
29.6249169053635 -8.00426231103782 -15.8144743149536 0
61.7605992886826 13.9309149979436 -4.88672732148183 0
154.929557762358 -14.5389498531531 -12.4090353696498 0
-5.28777679119427 3.40974638140317 1.82310564962357 0
175.235858768901 -37.0110797093961 3.77142238519481 0
189.723173879786 -18.2183521014636 32.5284275345229 0
168.90709130785 17.8196852020679 32.5660809124114 0
149.486015183084 21.0592472505987 -2.73786724647341 0
179.336185660455 -16.5494253774706 35.0449383127079 0
38.3876185533009 -8.71762508608778 -12.6929915842866 0
38.3907979381421 10.4628306916206 -2.39420703315666 0
183.798084937525 31.8904421823755 12.331518840864 0
74.781735498821 -7.37094463849105 -4.70229342115171 0
21.39948052707 15.5301589325433 -12.5109895885898 0
151.879265555628 10.1474392327978 -19.4496554290282 0
3.45835771600479 11.1035797734694 -22.0784429001632 0
193.821708552822 16.1073074563457 18.4150044788646 0
94.813508159293 -12.7375079621116 -11.3690459706717 0
161.940329658826 27.3358720879576 18.5711160306285 0
64.1256612982953 13.6025544526454 -16.0127005683359 0
164.810881647932 22.8204058838971 -13.8172449820427 0
188.432469870462 -31.5341365725971 2.4071133473745 0
-23.5299900483694 3.51915260475834 2.93014619062157 0
196.649519780677 -20.5292775006324 -5.5046090938961 0
200.586411514206 -22.4328488980055 2.12190139563568 0
7.93521507636857 -2.06405422590742 -21.7241672262484 0
-23.2771136901384 -5.26295197633249 -17.1053198881974 0
-34.317415014901 -1.93774882555364 -1.41329691173772 0
38.8345452748872 14.597025048211 -15.3084712923318 0
189.360183626211 -8.70850805945678 15.0055695663687 0
-37.5784000278755 1.02225346375758 -21.6779451278472 1
81.2033560933157 15.0941181097905 -6.92412846812341 0
16.9159032037187 3.78047574558807 -24.0249766870838 0
167.591420915253 -10.487634016178 -16.7141250497635 0
175.228034033984 -1.87362071264472 17.8819489648347 0
118.569425108743 -5.8716725247389 2.36769300919029 0
104.202992724057 -2.35743485967649 -21.1070330527224 0
170.230188582634 -11.3135649885231 22.6195114172638 0
178.961858918367 30.0699625586641 23.9778114261713 0
190.908162165797 11.3598717098437 20.0080731362338 0
156.49232023209 -21.2342544080584 -5.6067183189526 0
109.110681779812 16.1007365344054 -3.25302665373891 0
198.461560140745 -13.2839033949938 15.0357030266894 0
185.279567744586 -36.0669724137318 10.9928072625817 0
197.93238939221 -26.5090139089358 1.61389334617192 0
138.931695020687 -11.1720892004241 3.96481675847795 0
128.887551441353 15.9330789218977 5.50518184519396 0
96.7637703266422 15.6269377125366 -5.01511361363085 0
83.2090300651747 14.1923927965289 -14.6755737462986 0
59.9962287078929 0.273296896689967 1.86248853699338 0
161.315364243719 -32.3026846914986 8.47190314696281 0
134.382114304812 -17.0937403616503 -7.38920831171168 0
36.9172340482804 12.18266218726 -3.84811301097976 0
187.949596603864 -15.9773672404043 -15.0620888388315 0
200.008804933128 -23.2408420443514 18.4128219103454 0
134.092618858673 12.4766238325974 7.99082925166439 0
195.553346034219 -5.46341053844546 -0.825215732247575 0
165.344813672581 -28.0235284236665 -2.74513529205889 0
185.558333921273 9.63564822679467 27.529391865829 0
191.349659968594 -14.6720799279125 28.74279207966 0
16.2006778757497 1.80963337003466 2.23533243168287 0
110.678494583815 16.0925105534463 -8.77146758862126 0
151.020098154938 -10.1011803067072 -15.3815530575732 0
81.5962778103638 3.09300133347791 3.39025835171597 0
63.1084176502252 14.6415070818925 -7.13059574998535 0
194.522650240507 21.2825693072896 -5.83250343061171 0
121.503045973322 -11.5807991507915 -14.7981439391448 0
-4.50166932028674 5.49031696602709 0.502621390350897 0
27.3396158336478 15.1792328274866 -13.875659350656 0
64.6303507251809 14.8439375419841 -8.52934851541116 0
146.877716813476 1.5031358826532 8.24328474164982 0
41.3488657497113 3.14715755920628 2.19091956077133 0
90.9404503753214 1.14558788519827 -22.7113479515213 0
4.75394137942281 14.4842612245731 -6.72953307493939 0
138.107646454843 17.4788285228696 -11.8256057394391 0
52.2990026645163 4.20334840153172 2.07459839751625 0
156.750270850389 2.84719229870012 11.7232485583842 0
159.721882837813 -2.18527551750758 11.9259797948942 0
187.607091307537 30.8337481387122 15.2756354297224 0
185.713504065034 29.4483143065927 31.8175355645499 0
137.145642477998 13.6743397682982 8.39812124411335 0
4.08590572324378 15.8497597463944 -14.7820847063219 0
136.005858146648 7.03140162894474 7.78981531958664 0
149.858264686753 -19.215893027373 4.96760732618577 0
10.0942057517465 10.8836648394 -21.9785480368525 0
176.395248214358 -23.6866274977941 35.9631619674812 0
-41.2243489763995 5.95082290252923 3.26559113639924 1
182.078148921858 -18.3558957594312 -14.440107239809 0
180.728610834442 11.8605766157278 -19.862537497861 0
172.874980634381 -12.9070487882923 30.2507087017161 0
-23.9002095015562 10.9823718355979 -1.70556712257334 0
139.529022063551 -2.00990752876441 6.30790122122988 0
140.513810570153 -0.635580348361972 -19.6493202520169 0
191.651049458701 -32.1668489007334 11.2336708960655 0
177.105499101086 -12.5730267059543 26.7005902180801 0
101.300194588726 -1.1456461681688 -21.7786777936223 0
152.944595417087 -3.87749946102734 9.12405280949314 0
91.6822560131424 -7.14191622186168 -2.29936889101157 0
166.661840217752 -8.51392642132537 16.5081584867657 0
187.21492643276 1.0912940072336 10.1865790377591 0
157.783645685084 6.05687583758295 12.8125516661236 0
43.7055671537452 6.46409715177021 0.136959858992212 0
-34.0554052345554 -1.54744461490015 -20.1323219527814 0
156.348879010277 -5.95102746348894 10.1989204501401 0
192.089683994371 27.479075167114 6.27731008784122 0
-32.5248977966767 -2.53150647423589 -2.47556737815238 0
162.392334821801 -8.32563300369769 -16.4778453970524 0
144.201793308855 -16.8845714127918 -9.32660295583152 0
199.562308499417 -14.5276271879766 1.08504276120013 0
165.988607011654 6.79609160178748 18.6194814938767 0
98.225953788892 -4.02090003807635 -20.4067845212179 0
186.235912227543 3.09322363254313 -12.9706705572514 0
-16.9308497131129 16.1951776771478 -16.5350077292555 0
192.794352879662 -0.209630608806132 4.34250989336092 0
183.672109275835 18.8895832344203 33.7978158541684 0
-20.0944533437383 10.8123390933081 -22.6141686601703 0
46.1879312966934 14.5672850756231 -14.4482162061009 0
158.12127121708 -13.8252652347969 11.1986695955628 0
155.69356033602 -10.2730165580101 -15.3461258013661 0
79.3951847116583 -7.07951594643837 -18.8964046962651 0
73.8539026332409 14.9763108794749 -11.0278897008201 0
168.187607769924 -29.6414457089229 25.994676738394 0
169.405682500241 -15.4016206082922 29.8477375777968 0
180.247520923486 0.111189521925458 14.2294205042291 0
156.737506806082 23.6713112097112 10.2466384336328 0
148.254380623175 -20.6636701668999 -3.84422651806205 0
46.7776294854777 -2.18440676388044 0.231927300201367 0
167.643350825962 10.6614217822609 27.6141907936514 0
71.3016653847517 10.009757902332 0.15045516383933 0
4.47043979402148 6.72545971291158 -0.397004633294696 0
-33.2560957182847 5.71711318339869 -23.336055133609 0
184.782042320275 -28.373381624926 35.089275274564 0
156.747655431085 19.9949615901436 15.3447572374143 0
157.355664687422 23.9975749899736 8.1695428977511 0
182.697710031978 31.8699946620461 10.3180162826389 0
150.05465590249 19.4332322005767 -10.5423407583583 0
49.1029511336931 14.6649032923721 -7.8504905694556 0
193.486078533871 12.4553851047073 12.9271591302537 0
192.629834082623 1.50945268664229 3.09397446866263 0
90.2171979747216 -8.53516612528554 -4.34287228475906 0
84.8074495849886 -3.90642233661403 0.235222376241843 0
76.2882501781034 -6.13331493987677 -2.59698029127559 0
3.77038705961162 3.981025937782 -24.0020257412774 0
139.166298967668 14.6904415219198 8.65404145141148 0
128.005716209956 10.8970397282587 -19.5261390829472 0
142.346452663154 -3.57534034615985 -18.7094397492298 0
163.522135780274 -26.2165378610215 16.07951946926 0
116.318732488269 3.89753883894625 4.90746295075029 0
200.318410092644 -17.9339707783461 14.9371479065992 0
192.962616558732 20.0710453087286 -10.0952285690856 0
106.992493297405 -11.3084967532709 -4.31549302468502 0
174.739213665946 16.5365389976251 34.1705585579083 0
21.0666759521939 -8.23079445933119 -13.4744760173352 0
135.621884539877 18.6572148580339 -4.0535643017993 0
114.678735085356 6.34220585239033 5.29894757937868 0
165.920810862488 -12.028322417965 -15.9837090331371 0
165.265225456526 27.8769487670932 23.3529470466097 0
190.082969114614 -3.62261339626011 -11.1813422736027 0
154.093100188917 20.5027526293127 -9.82755436722866 0
194.445463272351 25.5880401440507 6.31580162326447 0
92.2966290768034 -7.56766836728632 -18.4664989646327 0
42.922197089337 -2.47126262248847 -0.229509337850751 0
114.023492481061 11.4748493678645 5.05124683308967 0
190.98686377346 14.5631645525629 -12.6828587805247 0
197.697414999604 -29.4734512432891 17.0981923913559 0
159.432145695443 19.1188276075254 -16.2603982420489 0
107.196577816446 16.1197832675678 -5.2496648396744 0
13.0510718734047 -5.04457421633969 -5.62955482676634 0
159.794029325489 21.8501293322835 17.854436486391 0
172.244146281622 -31.1139327653629 32.0127818687785 0
160.357353801955 -24.1327040138407 11.420357866555 0
111.298594035898 -9.90935821644197 -16.3532730278206 0
179.913773317559 -9.20889469467352 18.0834400902598 0
176.210478695393 7.58261552562212 -18.8657500462414 0
101.615852296607 15.449960163247 -2.41630244704249 0
-33.9847477560749 2.71270671792307 -22.7377722538873 0
152.499836760147 4.16435015160347 10.1770335218404 0
189.178826041058 25.2333757512304 30.5016605789936 0
175.98830716521 9.14244783749028 27.2188960868701 0
-37.6955960099464 16.169673361588 -17.046077464191 1
-3.43320260730958 16.7770907315388 -12.8383097902904 0
162.873411638544 -14.618986312883 -13.8512003159506 0
-23.1914626086064 17.4562347887241 -11.9041891657874 0
-41.4504039017038 15.3769069666358 -18.2917466650383 1
-4.52083268837651 -4.23601141908108 -19.2008558621069 0
187.723694700918 3.74272255570563 10.5929540639859 0
196.846518287183 -19.3461514307223 25.2320967879256 0
201.188363485292 -23.4478106073746 9.39935010534502 0
195.024451109818 24.3646598643562 0.0506733974870993 0
106.969640770315 11.8536428872126 3.54150820712323 0
52.0906180862159 2.41957973440595 -23.5469703589211 0
165.954192991804 26.6424130917048 27.3501611784832 0
-10.4630308112256 16.2923386231898 -15.6138296915175 0
93.9532524529261 -8.55493547014536 -3.76570136501899 0
174.304784701695 7.96150076317967 24.8869169848627 0
149.322563565565 16.9018391411019 -15.4525818635534 0
-7.32441084761214 13.7407278984377 -5.45419909003092 0
168.729732774852 29.4141458846723 2.45174015861395 0
138.496190339942 -2.30067207453349 -19.3955037851434 0
48.1979807981077 14.8001692678935 -13.0249188514368 0
147.815232794256 17.8283434726068 -13.466488073233 0
198.484160539381 -28.1627016936251 6.7668117383142 0
167.391863852674 -28.5440930648871 27.7737081484912 0
161.182183437185 -1.76328021140665 -17.4689386382042 0
195.717417024771 -30.1303844022883 25.078114786586 0
-8.67588589807521 16.4013724922827 -9.72579933150908 0
200.253102022426 -27.4494981279239 13.4250635110378 0
-26.7768174095865 -5.74471357275922 -15.5461360845772 0
151.206782042633 -23.1417313981371 1.97612988878397 0
183.520967869625 32.0992871535472 16.5855781080337 0
149.602765073476 13.6177971653442 11.993182812419 0
157.224317815429 -25.9349829224575 7.37973759529048 0
73.0102884294328 -0.232732275325481 -22.770649176956 0
160.261860916321 23.2190009377584 -7.73004368645485 0
165.34949712958 -29.8785866446104 -0.71258249217826 0
165.495684660169 29.1229496835415 6.96423453974362 0
132.19919427641 0.240481424250069 5.90541741204991 0
73.879668995 14.8876091023192 -7.28365299229402 0
181.919249052944 26.1598533289888 -9.16284431359842 0
191.361455649818 2.01452253401662 -5.18450083596822 0
45.8982166823014 8.09104297668652 -0.617487592321973 0
164.025218311975 -7.37121781783824 13.9250256362426 0
38.1801332025193 14.5323111494351 -6.91790763311606 0
-27.8890190539716 -1.68253555056998 -0.621813791138776 0
176.574838524766 -32.3395003246268 -3.17868165899462 0
167.724745403342 -37.4538602993309 12.761803053524 0
117.583864231429 -9.54552620510679 -16.4150382874124 0
36.5824447241113 15.1004333687321 -9.08503835946718 0
154.138652393174 21.5983729465707 -6.27819543080984 0
166.56531439835 26.4433218848546 -5.3569026079283 0
72.809583218772 14.0473776246574 -4.06388359443151 0
54.6940379695608 11.3622357430512 -19.9554432821594 0
-25.8763723773013 15.8215336008934 -17.7275742352742 0
178.803864845863 -23.5374481357844 -10.9581447609734 0
15.3165559198722 -3.14080076792886 -1.27517638566732 0
1.18966690878016 11.5415281283324 -3.51848633518032 0
139.173938264744 0.0907204413401713 6.63486842183843 0
185.482764949262 -9.5799024975162 17.5324912490152 0
93.4320998711156 9.90580671001305 -20.1138849800821 0
189.920669631605 -31.873751154799 30.3094667770581 0
-30.0027744919253 4.99684662785386 2.60810709125373 0
172.917018346238 -36.5395798803754 2.87441825501429 0
142.055852837048 -1.78374206223516 -19.2346475590885 0
196.12414622501 18.8018237374749 8.56548259476628 0
52.7694548802177 -6.85082932590777 -6.65636563776363 0
191.304248811049 29.8510301910455 12.4994083135857 0
183.742149598055 -16.9141256575804 -14.3748742677317 0
94.3496279203481 11.190954322399 -18.8374551884881 0
183.092358040135 -34.0715727058703 2.4746187854085 0
4.5800265865687 -3.18586532533462 -20.7055479610783 0
117.733100861949 -7.02320659654944 -18.0778007723526 0
-2.69670306095254 11.2338903015364 -3.16318849380457 0
112.708154093659 3.76208330030815 -22.2794700512079 0
14.37055384197 14.5716429515663 -7.01187786015679 0
102.749058293333 -7.44682200992039 -0.733555047284538 0
71.0909124501623 2.40534337907156 2.89744236481672 0
81.0127695773126 -0.0436210952965865 -22.685715521643 0
110.641579942926 2.50570276547146 -22.3376535308801 0
182.336019946096 -5.14223568608709 14.4446991794183 0
13.0921226370414 -0.942921547309957 2.14645273090206 0
164.878389153232 0.88168615135147 -16.4320261121063 0
158.146266835708 3.52048242439406 12.4207155018657 0
182.683458986361 -11.9744784843808 22.6431396274297 0
182.662592620428 32.8577593919504 14.74276781553 0
78.8154408485061 -5.8606389009758 -19.7274613891622 0
127.024215604841 17.5879245583899 -6.81130304734772 0
179.816666574892 -36.4511906028997 4.48231479754537 0
180.313628977887 -12.8663163384945 31.5859477883636 0
181.365273293002 -14.3192797991119 33.2264346334791 0
-27.4595311248147 -3.63604348100764 -18.8552666983009 0
104.604169471362 10.1562139320125 -19.8857790952329 0
175.274739033035 -37.4512899530907 5.18095632903301 0
161.401579083831 -29.097362558553 3.33405947384708 0
92.6505075923731 15.1559106935777 -3.72474669465852 0
160.767211255938 10.8898517531578 16.1944362233146 0
8.68785725434702 -4.72306134345916 -19.2291819812003 0
200.456670619498 -19.6696674088635 16.0949841631036 0
178.634220224829 31.6732214425528 5.48750810991847 0
192.375370302845 6.16054241204103 -1.91102400484647 0
162.296756397367 -25.3807225372173 14.1812406539157 0
130.867134468334 17.6509081183728 -8.81333680315193 0
162.961917266128 23.7329208212769 24.1556230642201 0
178.247528949671 -33.1462846240344 32.3270119107631 0
125.786465929864 -11.4773401918494 -14.8121291667477 0
175.889525796754 -0.700204208887199 -17.3276621475844 0
183.325231638935 -33.7742136895502 31.3566011330125 0
34.2445735598644 14.8215423218912 -7.89942032640352 0
200.704354506775 -15.5080510633832 7.45369515476911 0
176.102526079325 -22.6363870912686 -11.911899865636 0
-16.9908003018013 12.3348120263984 -3.34675275684617 0
173.918790071513 -38.0092251840408 8.97171079674573 0
70.9511055731504 -2.5249789934596 0.27360672544599 0
185.051197266072 21.6857335119096 33.5914567732913 0
95.8963793109909 11.9840923575948 -17.8655209665855 0
-23.3887008199378 16.2483086428466 -7.48550104129813 0
106.651103752006 16.0703316557433 -7.4175357463962 0
179.491724262 -31.1261585128276 34.3157096361573 0
37.3389186779282 13.1519198087585 -18.5721000299665 0
-39.2791591629459 13.9183645281642 -20.2736447985536 1
149.988282431424 8.43549098041673 -19.4748126184026 0
148.162570803894 -19.3189739341337 4.10403584970997 0
37.2176895137061 -7.96709035653067 -10.1397286247416 0
85.1564076424621 0.35697909026415 2.05587663123263 0
177.58154717928 -29.0531433158026 -6.27915211779003 0
185.195555301052 -22.6912801786358 -9.97811055208848 0
110.869670258877 -13.1062868188499 -13.0803627711066 0
1.57490005748454 -6.91226402802772 -11.1280626374742 0
8.71819330399993 16.1125853623767 -13.0377398667343 0
182.473320676712 28.5360468974056 -0.512135638871977 0
5.62289262888633 8.4251346266744 -1.42645902963414 0
103.910843153305 1.3543521812576 3.27991709222695 0
58.8143151947956 -9.5091571973404 -11.0208066818671 0
71.4073168062033 -10.516509195776 -10.6523993349245 0
183.103310557141 -34.6557676754902 25.3774760553796 0
102.071010902729 15.794738718139 -9.11500549123929 0
130.493669642 15.2740241381014 6.47404623172196 0
74.1034411952243 1.19878681965736 2.34747286010624 0
175.886997254138 17.3543613298194 -22.4860089710352 0
166.603116788673 -5.75435743977248 16.3593327899413 0
182.612221018516 -24.076739844229 -9.40665846000818 0
92.3889111585022 -1.08079169708314 1.94840507936566 0
153.651560447399 14.2076733727493 14.0076811081958 0
22.3604612206289 13.5070269738498 -18.7517142168374 0
116.139137329932 -8.66729446912809 0.670968497616671 0
123.802542062257 -15.7417816641265 -6.13529158638595 0
168.942453965085 -25.5779486037957 31.4897493349412 0
133.768659536618 -1.87171810276354 -19.9073247604107 0
188.078645079156 -26.4249849375262 34.1945161316033 0
111.425472327073 13.875506340151 -15.6019954449964 0
50.4141232780422 14.8648803869872 -12.2128910074374 0
17.8190708543049 -4.24868142471807 -3.62374270605485 0
10.2772873008365 6.44676952818799 -23.820924087911 0
188.4146843542 -3.59101243834697 11.1033877779931 0
181.240927356044 -24.8401339074286 36.3549388615634 0
108.182167559966 15.2451201202776 -12.1546769383936 0
179.031477195794 1.21545765765118 -16.3414087389171 0
73.0241893067719 14.7110795292881 -12.5927598553912 0
109.028867422004 -14.0262619955607 -7.70926514928514 0
174.866500062205 -32.8306569159582 -3.01796558109076 0
122.748241828421 17.2502072441853 -3.72158263957769 0
153.104248461663 22.1084655893464 8.71615158078561 0
89.1954428491994 2.63973014264055 3.20608546006332 0
119.885527587259 -14.8602682617998 -5.4674018149995 0
-13.4390547892196 5.52527450326404 0.908022760208537 0
185.066125134998 7.78710670817907 24.9810052895064 0
183.001181181227 1.23189267723139 12.0185578268166 0
177.638251389909 23.9655730566751 -16.7568195039462 0
87.2195134570704 14.3640540520099 -2.71376575423643 0
78.9315963178355 9.92522836558829 -20.5786418932355 0
57.3569004233959 7.90973059356746 0.288940784617234 0
146.978777428367 13.4829423218743 -18.4074545290388 0
-0.256063415686254 -4.52045703373513 -18.9656081731749 0
174.905344594689 -25.7077933584144 -9.09538940133423 0
173.724963988461 -32.2346597337306 31.9056315987729 0
118.182914982353 10.3691687908734 5.9883109462479 0
200.504514172419 -16.2933040291507 4.07123772472922 0
152.247036481421 -1.49510340809402 9.0063540551468 0
139.694152504885 9.49042984230804 -20.1530189409299 0
167.717897986123 -12.251890114899 21.6237137272681 0
156.462378816221 23.2594230967254 2.67567051129153 0
120.042542249783 -12.2372606567376 -1.31850234279079 0
172.869402272405 -16.3717260465226 33.0784147354117 0
124.514440032792 6.95026967487279 -21.4104933423341 0
157.664272443287 -10.8039850586264 -15.0571890062211 0
170.928787853677 20.8191744910516 -20.2558253316865 0
-2.41515811314424 -5.424346682373 -7.24014962948718 0
127.688546650181 7.12494170112276 -21.2213325483629 0
180.88269444011 -29.6375702538074 -4.71636735338105 0
149.19783961738 10.1739211122809 -19.538948537703 0
172.093593917351 -37.4659467816849 17.1637628338999 0
-24.7262819454604 17.5344898830737 -13.0916814350743 0
178.827620639017 -12.8671512018406 26.072620418546 0
159.790104535224 17.0490350497043 18.1673740532596 0
122.414841776546 -15.6021168198374 -6.95162071054575 0
176.84014605183 3.8704593350267 19.4768368683428 0
134.510953869301 -6.22637951574025 -17.9319414796252 0
12.7576434553312 -6.21108189383156 -8.14250452525323 0
134.367661865729 10.268187088273 8.02423597132198 0
-10.7665952978742 -5.01029807005831 -6.65037475358389 0
176.922006064837 33.5063215610411 16.6938422051941 0
131.171077928813 6.97881492972693 7.16214014428308 0
-40.8367408980164 8.3106237571167 -22.8370280073082 1
191.45462512122 4.9649730971976 8.40120005953428 0
74.3698494484956 4.22712763316678 -23.2203174399815 0
127.851617604833 -16.0020300787049 -3.67556264571913 0
163.163279331675 29.3632738823216 18.4417830369744 0
176.569447038438 32.9733252856985 9.10735929895706 0
127.314283344933 -13.918111169742 -0.504980877260386 0
120.065503879202 14.286217025924 -15.8001804326041 0
182.790126067763 -4.21291479641484 13.5562957216892 0
112.584130638032 15.4732652306631 -11.9657823879922 0
200.737331125322 -23.9301422845026 3.53468499290974 0
-0.965273783885455 2.77610037965065 2.0592999635057 0
126.179263547097 -4.10671102739323 -19.249022115143 0
171.0631332621 29.651793760247 2.25558605554264 0
106.779645013728 8.51773393915236 -21.0159934654824 0
-37.038860960661 8.3463720589379 1.3300578134676 1
130.465536071411 0.593865575715912 -20.8747382545139 0
163.642178314684 -18.6916580684699 -10.9510855088247 0
4.93162375336179 6.0760415332274 -23.900891691038 0
196.092605846806 19.6237135058747 -0.219979136837555 0
176.806243942436 26.3146305772132 -9.53489157568375 0
178.96954980105 21.5185172841125 -21.511142283007 0
182.330265711417 -31.2469041031258 34.4891348223122 0
129.528985945263 9.90627803162718 7.36894823120241 0
166.567434399344 -34.600285324958 4.62593267583633 0
133.595186491423 -16.018558718889 -9.59161657347761 0
180.127585338887 -5.8581920587463 15.5132461028736 0
184.397840561296 22.7982705400591 -18.283353525003 0
80.4454740916149 -4.2504180828372 -0.42304141679775 0
106.107949659567 -9.58264376245294 -2.27288662698519 0
182.550423613806 5.57085009500461 17.3829476514067 0
161.391878329283 -12.6209852703466 13.2499741720639 0
-21.3491772426759 8.61891728564693 -0.344588372262563 0
131.499049044531 -1.09828872906252 -20.297863805974 0
139.422717908044 8.14175560016789 8.47402150782835 0
115.826928252413 -5.2015267705906 -19.1878486354737 0
143.284582150209 -17.9023753829225 -7.7658379361299 0
152.02973160894 14.0866956425533 -18.6926589028659 0
67.3883995856625 12.8299901781516 -2.79624424880468 0
-36.4308183972586 8.042384206338 -23.0929594475572 0
188.503075822094 30.7278249358762 21.2534568373798 0
42.4837985628204 14.9018014539342 -12.8935487100784 0
171.529628431474 -20.1832033334095 33.3254878071208 0
-14.3946153163259 -6.78001649887941 -14.8981551719185 0
156.052027663259 -2.58742752378274 -17.9162795035702 0
154.450460498902 12.5447630500582 13.974011418315 0
-36.6656441063598 -4.26658647609467 -6.47717556274593 0
96.9929186576327 14.0282852723423 -0.394603374617226 0
190.276512881321 -29.9609618197924 2.02556433782051 0
195.635360437244 23.0570345420538 5.68298544060243 0
-19.4442560301843 17.099952889115 -10.6086675007443 0
16.0000444774183 1.96727879069089 -23.82880380578 0
152.939390817897 19.6683616605463 -11.2863829184266 0
-41.4997366852357 18.222300161505 -12.7962536695132 1
169.567407215767 -33.9418454239731 23.2095135216295 0
12.8539495990431 -3.14196114524063 -1.1842852849825 0
156.016685380172 18.9690926179126 -14.3047079815006 0
-15.8470060019414 -0.0794399969652019 2.18850839670679 0
178.856140054625 -14.3701911040019 33.4640914586372 0
64.3420061734815 -5.68384239742133 -3.57667762782706 0
185.955788372641 27.1614238533448 -3.51197776451748 0
0.969739125913423 15.2562094455238 -16.7545278208447 0
175.958112991409 -35.2250106372878 0.000904316358021634 0
79.6509071709995 15.1727906680204 -8.68168882420809 0
184.623170192077 -34.6347928415803 15.9499774325105 0
166.419092113645 18.1238497331746 -20.8449582516596 0
105.518782044548 -0.753000113739182 -21.7910217363773 0
172.517972861097 -27.5235865273607 33.8287388545442 0
144.375024062862 -3.16539637678351 -18.6747124252769 0
139.6142774722 -11.4887397778084 -14.6780827666711 0
40.7631528608377 -8.81738801621723 -14.317103919026 0
196.417833479923 -13.9649332009725 21.0990784112747 0
78.1991306232352 2.34160923541143 -23.1802430552886 0
164.663476548588 20.1961665507187 -18.8254198731199 0
181.582145797104 -3.39612912864125 13.2081666291946 0
176.095309044116 -20.7255921790836 -13.5376143611249 0
-17.8171941456259 2.16812085121627 2.88706210949854 0
158.365808914576 23.3455475032803 -4.13094799239049 0
183.091439954937 -34.4082927040469 22.6981817740649 0
86.9319046251164 15.3464790923809 -7.54625394112528 0
174.924838195069 -4.8617796525728 17.8435218785759 0
158.260490341941 6.67086186843452 -18.0860486774888 0
169.676232638523 16.795444216064 -21.448578652046 0
160.823467079428 14.8504492812552 18.4373189884241 0
122.399577598182 14.021537949406 5.0477399031881 0
-1.39429184020207 -3.33179942924873 -1.9932297624682 0
137.802767220255 18.2439602755986 -9.19494687679119 0
154.707136533854 -5.10091436823014 9.68818342624989 0
188.387105814436 -34.4901567347768 11.8508048276986 0
121.345894123812 15.6424050527599 2.83975800332611 0
76.862889887118 -5.51418289186972 -19.97998529454 0
18.5200818932312 -2.06198890589588 1.00846755959243 0
145.214642135666 -7.06951876405734 -16.9793238460257 0
170.205656965498 -36.7739157798656 4.99881207955771 0
-37.6056926037932 13.7029178842758 -20.5063360817193 1
121.638981078925 17.0234125088864 -1.95155933449421 0
165.815467872792 -6.19849923561785 -17.1989789620217 0
190.99296295183 11.3598452163901 -10.8769494961028 0
163.025909414784 3.44526457188122 -16.9652947529507 0
139.032021820453 17.9741156304226 6.33212515426045 0
97.9608552659696 2.22073483615814 -22.7070083829938 0
174.323464717651 -25.1549870679604 35.2511927356658 0
121.713922600655 16.9275263255854 -8.31333119166661 0
140.982773544678 -17.8470055238795 1.60083625461124 0
7.60084789605147 15.6451166614752 -15.0048148013047 0
-7.0420853327225 9.89093302328628 -1.98076259999559 0
176.22147860639 -20.7465861618922 35.7605781423277 0
183.51634563845 11.5598206674047 -18.4002882183759 0
148.697051005269 1.94470398942745 8.72273173386619 0
191.633427491388 10.8687488560155 -9.20771061964444 0
182.844926191467 29.7457998362219 2.79105294315828 0
106.970076851519 16.0024614163537 -3.54245910396074 0
-20.2805847325454 16.5472429303135 -15.7942476917124 0
-32.7653822750095 1.29003459675496 2.71658751015092 0
175.905405398089 31.9506873769533 6.00559464892675 0
46.1565983444393 0.898356578975903 2.63748676204394 0
127.018240169669 -15.9895102140874 -8.27335997269727 0
145.034549328131 14.8918394485636 10.2313209005667 0
69.0200701357886 -8.90073749936619 -17.177141458184 0
-21.9074078483794 17.2134552222401 -10.4525009589535 0
169.069744091385 -27.7725890448404 30.9948912513011 0
177.537036128462 -34.6904267009593 23.8271046125642 0
178.406188538502 -9.11641309092679 -18.4920471482003 0
171.399103911826 -9.40482851193756 20.3362531242901 0
107.754201479931 14.5117516488861 -14.010460310001 0
56.9183457237729 7.8826306564453 -22.6127498790568 0
181.293560956751 -36.1808228726796 4.33497238045593 0
56.4717508163517 12.5059485934901 -3.23189612466671 0
179.586304675415 -28.4505302566092 35.7577840530487 0
31.242888763796 0.242274037596911 2.3398222089535 0
183.111376381063 14.2622629137788 -19.8099607268569 0
129.210184355835 -16.6092090948591 -5.34930753815845 0
182.443215524951 30.2496524425492 31.6023076155737 0
51.2686937727966 12.4478973886303 -3.46220922330527 0
170.373060972724 -11.7756627011124 -16.9008119671436 0
91.2614590948011 -3.19982896902372 -21.1061070033168 0
124.865697363847 2.64766285918864 5.53730431275328 0
168.542076195866 33.0234938749729 17.6609015227015 0
179.435373596667 -7.34431163219995 -18.462645734934 0
177.110968049037 -13.3250499377277 32.2284026678565 0
195.173901022825 -19.9495438457793 -7.71741203571773 0
28.2617486980056 -3.76114979344602 -20.9304237195904 0
158.970201146641 15.9387334615891 17.3473724995406 0
53.1734933732317 14.6748829029096 -12.9615982761791 0
156.410777164024 -24.6436977696618 7.40869917891553 0
-23.2445133865433 -4.60404084655848 -6.54416379764439 0
130.767550717701 6.69354023254745 -21.1200408658939 0
198.461625801945 -9.54801563845814 6.82618565538631 0
33.6294655500329 -4.76530868680677 -20.1934658214888 0
83.8837584095328 -8.7403631250433 -5.49615905244731 0
54.6821050391651 -9.44077053867587 -13.8573319187597 0
43.5431590762586 2.86664005753558 -23.6899243617869 0
4.4041065812813 16.3369633460986 -12.8694198345569 0
67.377494808951 -8.75426122991105 -7.57075210003322 0
21.1975617131125 3.18323088238866 -23.9430036804131 0
165.240955760228 12.0750611466026 26.3155913501519 0
201.211606416502 -20.6034455158084 12.3819582177165 0
142.437797133673 -19.5376908892795 -3.77393098370917 0
155.999726334194 -19.9644002026104 -7.08146621460923 0
191.589702156377 2.98639261780547 6.74806526079616 0
75.8099397130572 -9.40653455160471 -16.800996222498 0
38.472752816877 11.9993808968478 -20.1427330580881 0
130.698366756464 -11.8687223229054 1.89331947332463 0
158.13732476573 24.3708060323966 11.9327158844335 0
166.918736866362 -27.69829447922 -4.46330918558196 0
170.508895971149 -33.9856700943559 -0.951259063999677 0
21.0243826306446 14.207123850235 -17.5212525877583 0
192.206777491546 29.9683304912287 22.2411558433786 0
109.970195316389 -3.21084829036906 -20.5094761415101 0
185.218582386018 -31.095241713896 -0.54970500951365 0
201.034214112276 -22.172423800306 4.99159948692294 0
195.274730342385 18.7708508187965 13.7977499423767 0
23.6063888659914 -8.31945736687269 -13.7107815855211 0
102.028691729025 12.4922811629858 -17.353697035281 0
-3.68339754874202 -6.67166779510997 -16.6125870166746 0
168.237169024655 27.5552619907108 28.2138429617423 0
135.317574479679 4.64971419797214 -20.9065395356024 0
-25.412209602617 12.9554220257145 -3.0560838092642 0
163.999041350117 24.8360672972658 26.400178984798 0
55.6507984610232 14.2680203185772 -14.4912557141261 0
95.002276245595 4.20005048857517 4.01353883903419 0
149.756330128233 -11.9563333005094 -14.2328634934772 0
17.4426630784942 13.3357871361809 -19.2671297316502 0
62.8302054269918 -3.40089349120365 -0.916407053784458 0
-22.4584239556326 15.1619986391233 -18.7447394452344 0
109.685317901496 -11.8164855832846 -14.6765524616365 0
138.386711059279 -9.05379995296973 4.53616474734707 0
166.735127960956 -14.9815940133785 24.6708021082551 0
149.256597297143 -8.51291024513957 7.957064818737 0
175.527062947518 19.6073917115994 -22.8002050515128 0
159.049297581925 -9.58674632286066 -15.9346254700225 0
96.6907580391815 7.49315838417508 -21.6478214140367 0
23.8842350174571 15.1224420825984 -14.7214166071867 0
-27.533851454623 5.9365998218067 -23.5598734517838 0
197.293879503063 -8.7461595953525 9.45084816260693 0
101.389343065337 -5.64208631923143 0.504918829522411 0
110.4205875389 13.2782583483628 2.83833513653858 0
168.484054442063 14.4118228056662 31.1008935342004 0
104.117990644752 -10.0941517100649 -16.337430828848 0
-4.50343732178134 -0.820690055588132 -22.2865585053271 0
138.814588157848 -14.7031000616867 2.6539500497659 0
-38.3100806721227 2.37768407456309 3.44651543082276 1
176.112877071219 -36.9728564586024 3.78651686962125 0
-31.7064556101252 7.28717284617887 -23.3429653670955 0
164.763289051624 16.5389523294303 28.6950815054059 0
181.611460434535 -35.3306989105494 3.03524367843845 0
132.840543444639 18.2604962304542 -4.73110952900075 0
130.236126385109 -13.6386373435556 0.922133241486579 0
155.951176460372 21.0229741937479 13.843584736024 0
-13.7269150761567 -3.50695530787345 -3.49331418920665 0
157.512108229625 9.16623831948554 -19.0687257339351 0
183.022794946122 -34.6723243385071 27.2960397600591 0
78.3610546275114 11.4288739569203 -19.0553873464398 0
194.330407797242 28.6426474809514 14.375307945733 0
125.696387788347 4.75071889161437 6.08810032574557 0
187.941876382006 6.42103912870224 -12.0461666348502 0
93.357648878987 1.82315303755467 -22.7976275690259 0
158.707068203153 4.73429233042303 12.9771640407637 0
194.768256714814 14.4072131358275 11.3319967265786 0
166.16352793317 4.76828459069191 17.8396411620587 0
197.085202590918 -22.2734590317454 -3.95461770730243 0
-3.05182777042514 -2.64609211556201 -20.7999507293339 0
193.298254285781 -32.1242965998272 25.790343627613 0
77.8548622294846 4.58345163148456 -23.0809423061343 0
158.443033251024 2.55011353553046 -17.076109942473 0
184.735255271237 6.18833632386067 17.0939365380676 0
154.525537866321 -1.73592007112988 -18.1402523823344 0
-3.43367766834357 16.2035374300512 -15.0336680368541 0
181.334867359257 -34.1101669127318 31.0425881556197 0
6.40580773606344 11.6651149738827 -21.5947906646221 0
190.452989751488 -33.341909818428 22.6023542508581 0
71.0473467613994 12.5233769517283 -17.800964420494 0
-26.7294933492283 -2.61441265705576 -2.38165925968642 0
95.7481310580921 -9.92559199309031 -5.08797311152449 0
143.764488055669 17.248040624556 -13.4902595094706 0
157.430147121362 0.785735570442662 11.4945756020882 0
4.45262966847059 12.8887326771734 -4.90671836936466 0
122.872778776803 -15.4545255131122 -9.18253859642677 0
133.728824774986 -17.3965188036462 -5.57527485777666 0
157.615145030601 23.8231081457761 5.29861263397424 0
54.9376196128235 13.5757865573003 -4.64866623601671 0
174.444049252363 9.72676115908022 28.7324307468151 0
-39.2175334076358 -0.506126489524676 0.642734620808306 1
84.6351362160227 -8.50581671628525 -17.8727870165383 0
170.680264247168 -29.4074030930454 -5.12884440360958 0
188.447793344833 29.7045678708264 9.31077552001929 0
152.254159790859 -6.15712080333486 8.66268405814506 0
167.390492158988 24.9332458487286 -10.7309030958589 0
-6.81049301887401 -1.30565523816804 1.43665763925027 0
185.088762834356 -10.8651887122521 19.9126639741803 0
184.955571316597 15.5541542766093 32.1386080313842 0
183.424948313159 -27.7644945710063 -5.39241750318691 0
183.119808945773 8.10974477521082 22.6671005689882 0
125.076209282644 14.7762046177528 5.17335793695258 0
89.4322137172818 -9.96721775856723 -6.2166388760313 0
139.919232448852 -3.39754602207974 -18.9366663236727 0
124.15387878856 4.20837930071453 5.8086450346776 0
123.268543708005 -7.29667490670039 2.27719542940352 0
135.563851764869 18.0673635116483 -8.95363234260473 0
173.145095297511 3.70232298734288 -16.6935700332088 0
-10.1153321747177 7.70795808275401 -23.6132508733569 0
146.490770318471 -17.9733443763111 -8.05745919261112 0
152.529963254195 -23.7845164617341 3.69225732906539 0
126.56743988197 17.5966708402419 -2.1255470178239 0
165.943896505939 -23.2100267106924 26.5796024380326 0
34.0528209777999 -7.25060114844949 -8.66434997968342 0
182.448709359151 8.32704351297354 24.2006960581787 0
196.704329789153 -29.8502838677233 22.9336170292801 0
197.439891320424 -22.0822414586048 -2.67907861875797 0
160.91665182145 6.28411113453016 -16.9645777117098 0
137.041403893624 18.6383082822342 -6.79744556674431 0
39.2401812642688 3.47968474156786 -23.8022972972618 0
172.47991268832 -29.3179211187595 -5.76316326269634 0
-6.90627097290527 15.4178267398057 -17.2374671878539 0
97.2646306090617 -0.244565845835965 2.45948518998748 0
120.588410846269 -4.86597428831919 -19.1066453319189 0
157.378489679258 -0.663821350814155 11.1786059390765 0
192.998786608597 -24.0289003642386 30.9129190972498 0
157.908539806393 11.6364216049835 -19.4587140313319 0
167.48232546364 29.0710735870637 23.7861045511572 0
143.447022361046 -6.69183711111342 -17.2108783257559 0
80.7265951400796 12.4283630953855 -0.841899413480921 0
148.868899790885 12.3365638082103 -19.0956871155164 0
172.393313829749 -20.0601607850213 -13.4519272567944 0
200.306155411884 -16.5607409401407 13.3338938989545 0
60.6522628688018 14.8028671855574 -11.6104295191325 0
30.3700595740013 -6.86975769871055 -8.05902767021386 0
-32.1600533062538 -3.60019942871063 -4.63274056789217 0
125.371891535451 9.4823738828297 6.82469588781935 0
136.613855786219 13.3474243168578 -17.9988687255149 0
92.8600444884265 11.9770706450645 -17.9210060599829 0
164.616486625324 26.3173948593093 -3.34732683147457 0
169.046374479812 24.7308488360024 32.0559638759519 0
53.893618144095 12.6692940752605 -18.1853590388206 0
157.835302813576 18.821205186615 -15.6506349685661 0
180.040002584989 -35.837767522574 2.8577425786844 0
194.427265820125 17.1949812061813 -6.80913662786191 0
193.64013788384 -31.7073600769488 23.5280791905806 0
105.452403532671 -0.393162960050464 2.92643579197451 0
194.405344370396 -5.25863648301475 -5.08387023913528 0
79.2428432281073 0.932564696203618 -22.9630970966334 0
164.076712416185 -18.6874061125471 15.369719662578 0
163.356789040535 15.9622200081611 23.3990926487126 0
-12.5767456096958 -2.44695956313337 -1.31837915237058 0
22.757201470698 -1.62391887076837 -22.344537264625 0
139.89202874797 17.0299920792341 -13.3318346915764 0
-12.3755302393025 -6.77449819198205 -15.3397567996841 0
180.987275576974 -34.7119214828556 25.3346397762227 0
42.1739655728733 7.98874160314795 -0.792737670320057 0
31.0466434397888 -1.74984991133397 1.16347356220991 0
147.549065665925 19.5454958245927 -9.34338586518669 0
164.02284605928 27.7317247052042 6.09667091629771 0
130.808429799858 16.997422784096 4.79280995201505 0
179.558660568906 22.6983316938265 -19.5216027155369 0
104.989568263223 15.9317612105524 -3.75639067846096 0
166.596737850015 27.8066463314502 -0.901751367113391 0
162.635311143719 9.2140331669924 -18.8405986977268 0
67.9353200433653 -10.2269637346364 -14.5638196657861 0
146.011787593563 -15.8485428139277 4.72066292641679 0
23.1462948662565 15.5953667818775 -10.5989117288342 0
51.3343310617816 -8.85798151845711 -10.8656722611872 0
74.711663098173 9.41202202563615 -21.1148791577963 0
170.17958920392 29.9581021789396 3.73427118608826 0
5.10273915347496 10.1887398805578 -2.55356713635321 0
180.953844843916 29.8046294110143 22.6401523782285 0
142.689023972879 19.3824052397241 -7.17275392696017 0
196.241373088132 -27.4951503505156 3.43213376629495 0
3.35635491322675 -1.48563521289235 -22.0941287656357 0
46.0645782793946 10.4919284985105 -2.07425487251401 0
195.244730088132 24.5326254872666 14.4281487900697 0
150.151849139014 20.9449493378269 -5.07165381128204 0
185.681905136109 18.8462423223874 32.8143576161938 0
189.840663587584 9.80606425521305 -11.7098511127863 0
107.730887649554 -10.5221484197088 -15.945435510707 0
162.50741775482 21.2276026013052 23.5120121957895 0
65.4069208418738 -8.79874423738071 -7.96284942382307 0
15.3596211350844 15.5689472438511 -9.12544746537877 0
181.125248831238 3.85986231968971 16.3548777060051 0
171.583724499653 5.42904808954175 -17.4205358454669 0
176.841945027088 -30.7334556187755 34.0430469096816 0
152.330325356298 -2.45024262820102 -18.2065613102061 0
154.813408248169 19.6322670991289 13.7974880357565 0
191.820777415679 19.4985682656474 -12.2945032830134 0
182.988165248576 -16.060851522006 -15.940839599416 0
-24.86307881103 0.835364845267674 -22.4190144584356 0
190.147184020876 15.4584094526413 -14.231906293423 0
125.553365938131 -6.45321299277025 2.9281145546425 0
199.651403984117 -12.9304064038036 4.03681031001246 0
127.686783649338 -12.8394083662313 0.84473553574602 0
137.409038120057 -7.04099838639164 4.87724798822777 0
40.7926707521425 11.3039332080889 -20.8063012020774 0
176.672840276361 14.3189464538532 33.5564207668726 0
179.316714180932 -37.5737688602488 5.33122358959553 0
194.482993009351 -30.9448427542795 24.0339029037167 0
193.122992190451 10.1926008934136 11.821199045225 0
160.965273014906 -20.2761953767944 -8.45647732415841 0
15.6554628041082 0.115976073980734 -23.1646651691441 0
17.2433168068706 -6.06449946083387 -7.34872274047349 0
133.052291106031 -7.86233204049609 -17.0297143072297 0
61.1701259705554 -7.47138902278884 -18.4001427789714 0
126.661903298481 -15.1694145859271 -10.4467880051089 0
16.9728030700303 -7.66604122435412 -11.5971685144328 0
127.507466908771 13.3228149672496 -17.5414920377293 0
179.636676444278 -3.22354994974355 -16.956091148701 0
110.655355309746 -13.5903695877375 -6.17226978072177 0
183.757298527651 -0.114004219474748 -14.808623223907 0
124.277668534878 -6.80149463789677 -17.9180806527097 0
183.43724458205 6.95173293348953 19.1124779459743 0
183.173201983169 -34.9161848950511 3.68016823190861 0
184.606603579859 19.8943247065446 -19.7310652927188 0
173.450029732003 4.34646444429321 20.5775307684308 0
152.87353283813 -17.7050927039432 -9.03330008018792 0
193.710073891036 17.0768900241099 20.7107158220435 0
52.1030428596895 -5.74503263622618 -5.0306806324794 0
83.3900568340177 -6.82635446400673 -19.0900063804555 0
161.060838165622 21.1345306135179 -13.9386927087995 0
167.598311287634 -26.9397817492999 29.4787425720575 0
14.5330916723615 -4.04268032951927 -3.28820851609511 0
130.615613630949 -4.46421787700117 4.43488950031004 0
99.3863855764248 -3.70006530155154 1.44496343270593 0
189.217247739964 -13.955796769992 -16.3316252634236 0
146.97427670661 -14.7734814283924 -11.7835320026099 0
165.14884893396 9.39626127632808 -19.0395967129683 0
165.527700236512 -32.8785494309137 3.04068853159369 0
174.885022296206 -38.0179821652075 10.7302065792033 0
161.964326585372 0.365962631372193 13.5201092537674 0
3.9266563334361 -6.95514817096578 -10.8785635688862 0
-16.0982866523171 1.65413378264325 2.81172335697726 0
177.233170978263 -27.8731563627154 35.5775543163086 0
112.978995261296 -11.2211121507835 -2.38858402484672 0
188.911300984048 -32.0459689715685 29.8650453347878 0
118.667477477759 13.1648553587638 -17.1804795768055 0
173.244382412019 6.09649782673194 -17.8861267943643 0
185.881628759297 -2.46582798095145 11.6114833554889 0
153.16916643176 21.1193588052497 11.265110823304 0
16.9185723949383 8.0355128824594 -23.2678395557875 0
69.0808682513026 14.0335262682867 -4.54950429836911 0
150.110084137857 17.9301210697377 -13.9971566269143 0
166.852634003983 -25.9842991284227 21.7825522566546 0
106.629583172498 13.2299087062867 -16.4481595653616 0
160.024010297251 -23.7252212069056 -3.85908707719614 0
121.255959852957 -11.7516090348406 -0.381596332241006 0
194.743107055941 12.2211789649406 7.29978885568784 0
18.5392800471278 12.721095394256 -4.91592938964686 0
90.3330665111265 11.6699527715827 -18.3494411714478 0
154.644844207992 -6.04292454980638 -17.1371006583681 0
143.030050150988 5.87821694007393 8.56731791564387 0
191.224547631824 19.2460752333777 27.6200344748661 0
45.2618021000656 14.9857664415315 -10.2912263068288 0
123.549442106841 -13.4288034641466 -1.53368633273017 0
37.3123814731086 14.828329022596 -14.633781598713 0
64.3559434761212 6.65950782277837 -22.9826502841219 0
129.252171116758 -5.1589597249225 3.96085195305037 0
149.347128556144 17.7077481680278 11.3051764412457 0
83.6062872057135 -10.5530434096704 -7.89635316695067 0
170.888577424439 32.7246610135579 11.2577198035584 0
191.867341878379 12.6078835125943 -9.93295716049909 0
153.753881290899 15.1527235757379 -18.2837594939393 0
173.899719355049 -36.8462030752346 18.8396262073041 0
61.26540611902 7.41653791697529 -22.6942164344796 0
77.1807751486861 13.89273827782 -3.25399154335894 0
132.69111506237 9.17110424876162 7.68070016603269 0
143.189208806744 -2.89905621999597 6.69742889583849 0
101.456880164044 -10.2727312925012 -4.41016388384038 0
58.3800100851079 -7.83461568496135 -17.9546907933484 0
184.795850354623 -36.1851560919779 7.21551949082248 0
165.485994616364 -26.6765365286594 -4.31226505187154 0
6.94247305380492 16.1928629082205 -10.7720119134443 0
183.790855281142 -8.59673887275884 -16.9994820962818 0
192.755930961515 -18.0414332125183 29.896346158871 0
152.542299980315 -21.1417808270546 -4.48943418782358 0
-5.37631198613737 -2.90636018818371 -20.4597436104699 0
142.137134418195 -16.8573028739554 -9.15467333914053 0
79.2857829814841 -3.82425838545425 -21.0045097719235 0
157.666097177153 -18.508187506395 10.4950780231588 0
-32.1809718399706 -5.53568393186848 -11.0966567972679 0
118.490242385367 15.5506573351799 -12.929218836691 0
197.635240022553 -18.3817550433101 23.2439035087132 0
-5.1447137865737 -1.76288109545666 0.794491646137723 0
4.9685211795574 -7.44686114923439 -15.060414390231 0
80.5001189106802 11.066681591005 -19.3986130738848 0
197.959372829257 -22.2131089085279 -1.34839623334127 0
160.108784524836 5.43870669467658 -17.0112321686519 0
136.561235834346 1.98534279931946 6.70070969118004 0
139.972351471765 3.32163067290061 7.45862879186285 0
-12.8895091149842 -6.80348054830562 -12.9707269194005 0
