-34.5053056800509 7.46309152191956 -19.0168251692728 0
162.395950986529 -11.1269339291976 16.8783156170439 0
141.611765029648 -13.1081974760578 8.74786319355996 0
155.815565508669 27.4487141710827 4.2416771303054 0
42.4621086673949 -8.5148913842642 -13.3423267217932 0
181.090018255448 -11.3098046629578 6.25432061272602 0
177.543233349704 -2.09566079225098 -12.0512983513051 0
177.125474878623 27.8275384526923 8.99626531043369 0
61.0263362649966 2.45092270902943 3.86458289550239 0
181.581234147043 -16.8786823566113 18.8431131738992 0
51.5395716862654 -8.63340098437052 -6.15409784776329 0
71.903878679971 8.69033824796652 -18.8801171855538 0
175.835750084386 -16.4037415711683 19.9703567058937 0
150.165512748181 -31.8313861711435 4.10937636921343 0
76.2003596465661 -0.0858545944028444 -20.0711065481702 0
107.816564189625 -4.25997765475304 3.80533070008716 0
115.225862361874 -10.8756644500325 -16.2480627446236 0
-26.2832641417819 -6.17282558580582 -11.0999721246141 0
42.4336052684243 -0.643803861358111 3.09763139812282 0
21.9724165152921 -3.64299681125846 -17.9885139361888 0
177.305910525419 22.3512637482241 30.7512584531893 0
-79.891431356979 10.5724918854301 -15.4290499800168 1
-14.6869540736289 3.97683831120181 -19.828400898761 0
97.8664803470119 -12.2887566845531 -2.71436108948717 0
126.396032970386 -3.17354873003535 6.17690807624067 0
163.523788095289 -36.8568242723812 19.6292644303678 0
133.234868315993 12.2949855988475 10.2804446565173 0
155.236664403664 -19.5075446450714 -17.1524157007967 0
174.597366487698 5.34820806619504 15.0414980804394 0
18.6905830127879 14.9830642195535 -12.4829510551931 0
128.040243163055 -9.80997153795779 5.20259119989954 0
144.013616382197 19.5306671602766 -10.3821076359372 0
110.944354999838 -15.4881959157202 -11.1524576782451 0
183.683739668841 17.4417957630424 16.9560316771895 0
-38.384769673071 13.7932604304736 -1.17453667054143 0
-63.7400210729891 -4.41806756488899 -8.68532420905515 0
163.562240101897 21.7191809986798 -18.9998542005737 0
177.671345045359 -15.7939963924024 18.1262212994987 0
-75.330547838703 -2.559302266847 1.22740474507905 0
160.105203600351 -26.150684300619 20.1171635370792 0
59.7489439946488 -1.86992538085113 -19.5467051679187 0
152.771161086262 -35.5555322205601 6.73681046370285 0
112.393415115928 3.95094131046469 5.85140114821823 0
94.7157415516944 -3.98538328602697 2.8764819043218 0
183.16277040209 -36.5270883123703 24.8324461034969 0
170.131861553947 -37.9270282416402 16.9667066238167 0
170.44226017653 -37.7256338723906 26.5139356137764 0
-80.3003957814959 15.2684305796483 4.11007081820277 1
62.8018026742074 -1.35570241667611 3.02904165495271 0
59.7004243254054 12.6442160750558 -1.96531710381835 0
122.361263185539 -12.2671516632337 3.30015764251533 0
34.1048443401641 -7.92728095922882 -7.03649049564007 0
131.109626690112 -3.50872145131037 6.61839570783602 0
167.926626939976 -7.87578130823841 13.3407168720855 0
84.1092634480546 -9.1852371101588 -16.1610501463441 0
90.0057138591388 -13.0888222930615 -5.72126269560578 0
-48.4260460312329 8.48887925412115 5.65759346415355 0
159.640724979033 30.5938137886808 10.9422573788306 0
-44.4076158679734 0.190703803690806 3.91792260043676 0
132.902649975201 -19.7117856268623 1.81799469268622 0
153.745029449683 -13.5252875903107 -18.0082284178935 0
96.9796597964998 8.05167795113336 -18.4932118885885 0
104.943186390309 -2.77304860605904 -18.8916119183692 0
75.1619604551908 -6.39119670961208 0.595853269715921 0
100.089834168577 -10.2866208279312 -16.081984507788 0
26.9285078194738 7.45434228414921 0.98162225833032 0
166.225401685344 16.8651630407666 -22.2385419554346 0
171.442695128826 3.90555250406353 -15.2109123113287 0
-66.7036638965424 -4.37575766523289 -4.07737408085139 0
-71.5774990388424 -2.58833484846943 -12.4933342376484 0
139.13708187797 -14.621842245217 -15.0719385545803 0
183.46533836296 19.3106761206876 20.742615911283 0
-10.1787428088803 11.3197597171797 -0.834423522342385 0
132.549300404098 18.1165101628083 1.43390620546692 0
61.9462477531358 -9.10503796795334 -14.5070312885017 0
144.752665694211 15.9228603764084 14.3506918984562 0
149.809821560625 -17.8130319490404 10.8053956114889 0
121.541537619484 -16.3274379646801 -0.127670645771803 0
-44.4863951341173 -4.63221850604911 -3.79589066555601 0
153.864872702974 -13.7876004623506 11.7706392960376 0
-29.3582939137411 -4.76257722809521 -14.0767513300561 0
163.102435565082 -39.3645457024551 14.4414345565421 0
20.3563345147134 7.67533879692229 0.781307133025078 0
96.4313147002108 -2.88138860657524 3.42302563424817 0
173.598391008554 27.5252874049727 15.5383457432244 0
185.073367854113 -10.4326934103019 5.23151475632413 0
127.458876858456 -16.7870103298273 -12.166972543901 0
156.535383189369 -12.0705561383129 13.9020815328116 0
0.604528208331513 -6.25860749196146 -14.5423208758449 0
73.5406169129311 8.34402621388123 2.99222005967093 0
155.736915172723 -8.65073623616284 13.3605787372977 0
46.3556730058644 13.3670649815259 -3.85290783111699 0
99.2166195687605 -13.7137008607079 -4.0394547360246 0
182.394168997015 -22.7326127441376 29.2472211828893 0
167.298216982572 24.0815003610209 -12.8431033754056 0
67.531790896151 15.001159728543 -9.14975091700692 0
179.69405558793 -6.55383677749672 5.90088857008306 0
164.701367523933 -35.1719423461333 25.3631187103662 0
186.051035850555 -30.2158939801152 26.8762100899597 0
87.7279113473434 -0.34531176114736 3.79209780292514 0
180.153757134938 18.2484065115229 26.407821045058 0
138.824501609874 -11.124280119061 -16.0662640257071 0
178.002234684672 4.92206864752732 12.1699982616986 0
-58.5885232423314 5.6309268338353 7.01022824269016 0
88.8469676239967 0.739115901400389 4.07517324858228 0
66.296881381237 -7.81518613655034 -2.83230651224235 0
-28.5006043597871 15.8360426018847 -6.1683737010916 0
-3.7396627472521 9.2526659113547 -18.853712752015 0
159.352979599208 31.1161161405757 13.9675119122462 0
151.191926745506 -10.7997427759622 -17.1372777642007 0
172.190317143187 -21.7575763275357 -15.7525726596039 0
169.53633036146 -37.9088789380162 5.37314998575703 0
-11.2612166765268 -1.62720311372555 -18.1466826028941 0
55.18508371821 -0.333155814235729 3.21820988750211 0
159.046468150149 16.4068223965472 -20.3422725940177 0
4.23755916613559 10.8910793940822 -18.0455457506009 0
172.032195458605 -11.573116164732 12.7986321590986 0
160.461563868502 30.1691871548561 18.2027257500865 0
17.2797389151178 8.73998510447926 0.305830681355854 0
100.119315642226 15.6314359036475 -4.23781495515108 0
152.682569080406 -35.3410588898604 10.827060489604 0
141.289958399013 20.4306389069145 2.04667923539999 0
155.386537307765 -26.7275805692709 14.4665417535401 0
-74.3972321519126 10.8779857810459 7.98081570268563 0
-68.4328816789668 -3.34686549948392 -0.805356005252334 0
42.2656384827843 13.2909179535155 -15.7273818944156 0
107.648489522825 10.5022799184358 5.65672187740591 0
113.213267981488 -10.1194981078639 2.69070550979628 0
160.117603456854 29.4601906066532 6.61299572704394 0
125.212966439492 -18.6119122456516 -2.43348759618716 0
178.93909496615 8.32926720144946 -9.31680878144467 0
168.655422068593 -15.4459378202919 -19.6875379690992 0
183.140247155818 -13.4147000991046 7.35787875927933 0
-43.2284340764007 -1.37259593207483 -16.6189606165283 0
139.995688723189 -16.9743708805196 -13.8582006394014 0
147.812920755826 22.806107896657 1.12610905392485 0
102.446762024431 -2.33788962707352 -19.0590809580609 0
-5.56142384308045 -2.36739808462826 -17.8388271792821 0
10.9963683618802 10.8736172066129 -18.0517709174008 0
147.551969774671 22.1268153294376 -2.76224726476771 0
178.810545585998 -32.6074456595937 -1.7216469789362 0
102.433470338173 13.7448133751457 -14.4555791898874 0
154.746441503757 0.109215761033018 13.9136361424342 0
90.7467078701384 -11.5400298742319 -3.33431110509802 0
66.7740083450797 -7.70856345463896 -16.4480775404021 0
25.0339634538723 11.2954211861609 -1.46445863326624 0
177.481212623122 -28.353700920186 -7.93422639427506 0
24.3179107685489 14.3263536410954 -14.1428422430802 0
-21.8590189148122 15.5493279723859 -12.333543537992 0
159.005728223938 -34.0139150927386 -3.62777857524992 0
170.056321930998 25.9829560375837 -4.71687292883928 0
180.988886423728 -14.3601446455282 -19.2709974752882 0
-66.0580884563609 -4.32932722964385 -8.44806713371201 0
28.3822081824755 1.14107483501356 3.46751134433986 0
141.1083576713 0.97042820963335 9.02418870007996 0
144.830624985263 7.12378667835697 -15.3062661115525 0
149.83183310491 -1.00866489115588 -14.2261758579549 0
166.683881559953 15.6213510498605 -21.8201398213335 0
150.8712008991 24.9983490321718 15.9996108665987 0
89.2467756071448 -0.847091313197525 -19.7472723417538 0
180.550334883643 19.7186366152894 -10.7766953154565 0
56.7529801840237 -5.71988283213333 -17.5738118111709 0
169.746826004628 -13.4652402813487 16.7604641534314 0
-77.658409959369 12.9655866110899 -14.1704977901382 1
165.592422617906 -7.25046170667328 -17.9941424188056 0
141.596278025235 -20.6761261790249 7.12113332777888 0
89.6176820625305 -9.32723461557454 -16.2778083527631 0
40.2319093760493 6.25845434237513 1.9771871745193 0
34.8482279602685 2.86081688048733 -20.4451652701011 0
10.7544531911507 -6.51094670294169 -5.29541244831809 0
20.7765920241633 10.6071164701046 -18.3282350766347 0
181.65878655774 28.7996037228202 13.9670346999239 0
123.052524433371 -18.4494521196413 -7.30124170028704 0
6.62967816645315 11.2224870574681 -1.2748257936713 0
-45.0966159992413 11.3287287885704 2.03556853348111 0
162.276136697002 -39.2760091998327 12.5775490050214 0
150.965646440897 3.15127968252162 -14.3910881022402 0
144.819723958879 20.1295393748944 -9.16826651689329 0
-33.7701374877051 16.4703899532 -8.73369948209887 0
121.307967617923 -0.745872560499111 6.01259615039854 0
192.802121879111 -22.3722250904847 2.47304204551392 0
112.311870744128 -3.79565575106931 -18.3990863983409 0
175.564444315828 -11.5535509357354 10.810532840725 0
119.626123510114 15.196039277155 -12.7552043038639 0
156.716337155363 28.6471986522572 6.67724253834597 0
-18.1809809902553 16.0659290884398 -9.00000329288206 0
147.66521626555 15.2463962494899 16.1867724748915 0
119.196894658274 13.3958624091925 -15.106763254491 0
127.038223131685 -11.5701716699777 -15.8968149730205 0
170.947865263554 21.7658433983412 33.4117502248612 0
136.810972422483 12.4392414563684 11.2785289909675 0
167.706265554717 19.1646263831906 -22.3931864605192 0
-22.5800335966768 15.3840775804903 -5.68713365107476 0
157.998436835309 23.9882008111994 -12.6000048558977 0
159.332364644155 10.0644715842938 -18.402449954982 0
176.993320070466 27.9652284815674 14.4761222820754 0
187.713478860311 -15.0320386619704 9.73212303359817 0
132.539556513554 -11.0116787763854 6.17002983614636 0
157.47539542078 19.2704697436136 29.8495213442272 0
183.908530904293 21.5950483467019 20.3592205409413 0
-79.558293922399 8.58772065601912 -16.2035669060829 1
184.599851665897 -34.4504787163319 8.73103731054878 0
181.198177843817 29.8688415285511 19.5944382848782 0
95.6950282826394 -6.31491011342657 1.83134917446157 0
136.003422195563 -18.9409767337298 -11.1942712410216 0
89.9506295407889 4.63676488327231 -19.6977203856722 0
135.504562685392 17.8452587029722 6.88154240440617 0
108.404614283732 15.3805028620342 -11.6880420238529 0
182.575861158474 -20.5069489221408 27.7108701514046 0
13.6228419902992 9.82065111913923 -18.7107476007135 0
25.7661015731046 2.73057426304925 3.59919633324463 0
185.475917794476 -29.6623899297643 -2.10703113105282 0
113.426867021538 7.29637181373921 6.60991706199749 0
63.3822260988813 1.79399846464878 3.80215319026054 0
71.7256280982661 10.1371757877136 1.77582043927372 0
149.571730166626 -25.0972501157988 -8.81986553935999 0
141.39753986662 -24.9307958725747 -2.9810203613803 0
176.520951601514 -36.3831435777554 9.11756619869342 0
27.4533985486737 5.35945190462393 2.25915091603584 0
147.2598991313 3.83386207988409 -14.5664360889768 0
166.893660764352 -15.211006858968 -19.5666562623922 0
159.21772977605 -8.52987199088389 -17.5122613168325 0
62.8594298538714 -10.6613082375197 -9.96719825120964 0
168.231335878162 -28.8965950811848 31.5760840254981 0
177.043766544566 -37.762965332119 27.2626845544785 0
184.816015634973 -28.2164627263953 28.4731837959157 0
65.2449205873494 1.52222133515544 -20.3235296280734 0
56.2333748050086 13.66866043073 -14.7251715592038 0
-64.2634110288219 15.9786568272371 -0.249117179435534 0
-60.4642209091165 8.37664543302231 7.32104945741924 0
140.546257270725 -8.95120683852213 -16.3763790302727 0
158.380375186941 -6.45431852538904 -16.3069858716404 0
72.3104177981648 15.0061416020876 -10.6598405932261 0
174.18233484654 27.2975579749038 17.3451569906645 0
-55.8310501886509 13.1736144038649 -15.0830981382315 0
-2.083117541884 6.07140530096612 2.57167418882563 0
100.758980895214 0.121024350529767 4.37689739756276 0
-74.8764113572623 16.0029989723322 1.89371862067523 0
151.698595517306 -20.8808963016746 -14.3791379470636 0
-45.4897839757344 -3.6209928281686 -14.070660665267 0
169.14089698685 -19.1721987700633 29.9767720550693 0
25.5017206392174 -7.05310790138862 -14.7761638616206 0
159.042053647854 12.322338432448 -19.2241123794793 0
-64.6214209814334 11.1364940983931 6.0928897884992 0
139.222120197618 -4.91916215428056 7.60506887773411 0
155.11352065943 12.1529927682869 25.5015935072078 0
151.855778474473 26.8663898026204 12.3787178594662 0
168.57264274664 17.1355988928042 32.6723614281712 0
192.876570224913 -29.9258778910132 11.4001379621217 0
33.1915382402398 -8.17980203936922 -13.2310220108002 0
121.083614928539 12.6512083525209 7.25790929557194 0
116.42148561717 -3.67357343401285 -18.1259321845779 0
181.580288773294 -30.8332592017554 -2.36833858332699 0
-74.1723212520708 18.0976315125567 -2.15418361247367 0
163.364123508204 -28.2559529501102 -10.4823396254869 0
63.1114922587947 14.0225773633313 -13.8505840745053 0
122.158367553685 8.37485266339039 7.78317407576448 0
45.8354160762819 14.1447908192337 -5.27396313244892 0
175.090427263092 -27.1441304075395 -10.0909071005946 0
-58.6743451626408 -4.4338294278818 -9.85831875153567 0
166.768636206253 -36.4232417162823 24.7581925826004 0
107.928763712452 3.43351910721438 5.38500881831884 0
161.474352476485 12.3660069875183 -20.2386962344156 0
157.858271482855 5.64195973358373 -15.7800841215129 0
-27.2504199541248 3.88260343222488 4.96224431661684 0
87.9097354734358 -11.973039843 -4.45152179833203 0
186.484396745741 -27.4077899164874 -5.36972941178039 0
183.99986586135 19.0686768535482 5.3706752087168 0
-11.1882833404778 10.5493302016006 -18.1316481321848 0
13.7745371512128 14.4346006860713 -14.0489029153544 0
149.458850861532 -10.5226280608901 -16.9030051123763 0
122.989181139629 17.1402959120941 -5.36827743856232 0
-70.8753648844798 0.476697941851012 -15.742422833929 0
171.400030819888 -15.5036069655959 20.0512132685753 0
105.603578981822 6.28953952372506 5.9006118752373 0
-52.3891989119559 1.95527969510769 -18.0889115738716 0
145.365793354142 -2.76296557554617 9.29224445731561 0
56.5688461777638 7.98484785865643 -19.373502221014 0
125.498661985574 -1.13286544085713 6.40277229225091 0
147.19102609405 -14.0235459877537 -16.4213386178163 0
102.093527807105 -8.35436787921995 -17.2652367588686 0
11.6417356353087 3.72510862391848 3.54359761586657 0
-77.7383598469852 -1.15874334230587 3.80729517807909 1
16.2772897367387 -2.98404245287852 -18.2407630931964 0
148.543716441603 -20.9610040715566 9.5739830873599 0
176.0952173245 27.9293672132193 18.674706246279 0
190.497425228157 -30.08775960627 19.8184107448148 0
-2.45663359107891 14.5919747402028 -13.9938997174554 0
136.304777983198 -16.9365495210866 6.42113090692289 0
52.1077777435324 -8.68626301198755 -14.1396544462888 0
21.1403759693537 -8.10227355064139 -11.129189077373 0
47.8357809240046 5.63107122065702 2.50826578171786 0
-12.4231894975328 15.7105362939852 -11.1930571978753 0
175.414724492045 8.74381816703342 27.1890556079575 0
126.41191167841 -8.81948583052208 -16.8601623451524 0
179.564827721154 26.3478557850611 6.71326484853101 0
-62.9518804058171 9.99579985043482 -16.7768036103565 0
86.4648534029882 7.87080591882795 -19.0473622386195 0
154.575944435084 -33.5708122955567 13.267433324162 0
45.7774970026464 -2.60377317098015 2.26279750074325 0
170.420762464482 -17.0047330732299 -19.1689647941601 0
-37.9052154547779 -5.2426702447118 -12.2153538119232 0
9.85018427362221 -7.71606221309826 -10.0291248613886 0
147.769091554683 1.07725599523379 10.9665796592004 0
161.812859146355 -13.9308376226397 18.3897169454787 0
41.4794972447122 12.5359455869489 -16.5838581182177 0
169.798044242322 -15.0464576923717 27.6001017820043 0
20.2151124068292 -2.28722116176065 1.69304647077403 0
162.60319809787 14.7308839132022 31.1255706688739 0
92.3702018656806 4.57822679483318 -19.5720693939823 0
117.688401890134 8.64607860381003 7.24135472501485 0
183.075181530144 21.3519854485716 -5.36469035481263 0
145.330523600177 2.81112109185037 -14.7478215360397 0
-24.9285958556229 16.1958288841009 -8.11362111480257 0
40.2773462287321 9.09623923305271 0.579657068446457 0
160.545623160519 16.0317828722692 30.9243211393014 0
-72.5103096355942 12.6770641761751 -14.654055824875 0
106.978959801186 -14.4749946362012 -3.01805207571781 0
179.858002364743 -32.3985111303344 30.9185571616124 0
149.61520759082 24.0382695875803 3.41405287349326 0
166.666972264823 -30.4070856126578 -8.34455331300738 0
170.20962869703 -29.1546304138319 32.3284098441317 0
178.892204050829 -20.2934507785755 29.9897104118322 0
157.33108865862 -33.6596069631239 -3.27997094854068 0
72.8194564272734 3.62737936948148 -20.1668069161637 0
154.30851987159 12.6942688314964 24.3017953622213 0
152.322376670354 20.6595053969993 22.7817388859468 0
161.938268285821 18.4337049379624 -21.7594814764994 0
4.89631154022277 1.84348726512434 -19.9512055076198 0
143.138562861473 19.9671657448805 -6.27540357695453 0
138.480610563588 -22.474563554253 3.03506680665435 0
132.729958004817 -1.02528626330969 -16.4755380527377 0
2.96723220160166 -5.79489247109962 -15.2955672160577 0
155.377459559492 27.8402063937411 6.0109649482172 0
152.123908459787 25.888749351817 4.66308544404227 0
16.8602855144601 10.4125932161146 -18.401051505961 0
147.950549303945 -2.83650238076171 -14.9309230288358 0
-14.7494094516671 15.3279453153579 -12.557343200888 0
10.0808143834467 -4.81828144674117 -2.21742731323876 0
136.802611632314 6.31966962306459 -16.1282865956968 0
128.968822419287 12.9463936581354 9.0179773729922 0
11.6103642422768 0.130280790463179 -19.6029081887039 0
-67.0235017523403 1.11228915281249 -16.516461465884 0
33.0191994309087 11.2024430330414 -17.9126443804932 0
177.883291911116 27.7905987227263 12.8033866316684 0
122.572314562813 14.5827331702298 -13.8804778567016 0
132.016051211299 18.2603244091914 -0.42155771136005 0
63.3045593887156 -10.3600169363521 -7.73806566908065 0
-75.3031229063868 13.6111178606955 -13.8180131535065 0
113.033211312277 -2.04549932740022 4.90009966453307 0
154.137069167149 27.028069506646 18.7615270941009 0
-34.5292270573785 9.94485308006414 -18.0993360339863 0
169.68103115744 -32.404988460646 -5.64901013766718 0
-37.541511374518 12.0617188302587 0.435615406985608 0
166.985475190026 13.9046207264158 31.4421905250527 0
187.340004721549 -17.5798290116271 15.0659994650236 0
-75.8746686287652 18.501850212587 -4.84482369903929 0
90.0051093745127 14.123493828325 -1.55197431945046 0
91.5924465718202 12.9197053690059 0.826130881427825 0
133.827530827846 15.1087364090135 -14.3820540335131 0
175.376432923735 -37.3426971841425 16.4441363173006 0
17.3511128457359 2.67124401059261 3.67465232443023 0
180.562949792096 2.95110063036932 2.48411204739329 0
122.389726024086 -10.3168156273602 3.84596096330888 0
32.5071553451216 8.24214671166673 -19.5578820837612 0
153.081362891312 -4.09517764200051 12.2689402086437 0
28.8763927005795 7.68051397036594 0.931526100645178 0
-67.5877373861348 17.74390858074 -3.29791581922278 0
165.780908547842 -15.7800981542832 22.2383330884815 0
-2.38438070031596 14.3329596040861 -4.98057412173225 0
25.2083645175752 11.1696609399758 -17.9489983313577 0
180.813151788913 -16.5611776133786 24.1145845425045 0
156.488728775226 -27.7958384187545 -9.27876648576534 0
57.2892495936335 14.7981236204047 -7.34728044670307 0
181.605068561173 23.9170719621126 1.31469136332829 0
94.5251477013679 5.88624772187998 -19.1846202893967 0
183.221129713581 -31.4889699730906 0.361207583769313 0
149.012311093425 -8.43117879287187 -16.4084269068043 0
22.5240506760128 7.45963365819123 0.922537262135432 0
174.413113304642 29.7267698165675 27.3491789051512 0
110.50855695517 -15.7202378951817 -4.04278109620516 0
167.571538229782 28.1507134735811 1.75231920896152 0
-73.8571038712049 -0.0824013119911376 -14.996711551483 0
79.5732893620016 -11.8719508009507 -11.9370490112582 0
-55.3670847449113 4.7752757793125 -18.4122533324046 0
-55.2493680494763 7.28743927473567 6.83988828476651 0
89.007797981899 15.2178011577688 -10.8843509972939 0
180.449336169117 22.3190949195722 -9.89492477900609 0
66.4550428612217 14.9637440932363 -8.12103421996401 0
182.610532081356 14.52007450046 17.658412253363 0
172.865376693561 13.2973693754207 30.3607233813118 0
189.251767608027 -34.3502948125643 18.3710422285361 0
48.1283317125525 -5.43226713865686 -17.6111245133619 0
-73.9306749918102 11.3712827209856 -15.4253754574023 0
86.6885452364191 2.63380359587929 4.4637708836308 0
173.619002528038 19.5279350315283 -19.13497201098 0
-79.6383260523028 17.9155589343898 -7.82703504690252 1
71.1579024913457 -5.63195967206942 -18.057815681562 0
34.0109533768734 -2.39613522834713 1.7163241823647 0
180.962086861358 -1.24409898705205 4.36028088735088 0
-12.3151223814539 -4.55892713354394 -2.86918187535737 0
-77.859042211153 18.5297442944164 -5.53564423708713 1
160.425064780717 -16.0963211585135 -19.2845232428592 0
127.095817585964 17.6451017530665 -4.60392074627418 0
15.5524991223398 6.59260397833711 -19.9892004692093 0
-53.525147158015 0.351492463007599 -17.1270084322387 0
183.127671844014 -11.9510634249162 -15.6106556923601 0
146.600008026843 -25.4904164899945 -6.60033379103907 0
164.756607100928 -1.869431980203 14.845641071389 0
125.807626130263 4.01262894222395 -17.3079548891123 0
166.462466381347 -16.2221536577106 25.4205043819722 0
193.085768154654 -27.1688798953609 10.4662594632146 0
157.837617034376 29.52540281407 8.57496073076184 0
101.500541637576 -4.87482118419023 3.08260987179368 0
156.486810323465 -27.3518872093918 15.7288326614828 0
7.87853935343687 15.5493986981045 -10.8442068792659 0
175.371492763697 -14.8379550445228 27.4364221242715 0
142.207025460458 8.40099406936118 11.2694718977963 0
-70.221362018622 0.202791146877089 4.92946122035755 0
-63.7312535412924 15.6913523385432 -12.0914451768995 0
176.033185680642 -13.9013489111059 13.8629159106003 0
5.08806200942222 -6.74865515223646 -13.9327012794378 0
149.326903474526 1.58917234866961 11.6899257783402 0
127.457486906771 4.77500588668134 -17.1364642251991 0
174.815549217905 7.56556321510042 -13.7043952827432 0
159.816386935946 19.8708592610384 -19.6682886826801 0
92.5832057114193 4.64324394407085 5.10079587964992 0
150.202310415336 -30.7761537882942 7.07311031375553 0
161.218000975913 31.1148098675488 15.1993588964215 0
2.15017456217985 0.265124949550389 -19.4252689333585 0
164.91950469107 -30.7211434830251 29.2625894865643 0
-52.4715580132331 -3.55239715206564 -13.3089491589128 0
118.657863326584 16.4647446145836 -0.544416293929146 0
1.3977867747324 -2.28453596060865 1.22660620892681 0
172.411710173492 -15.1486274771592 18.4702701632872 0
115.998909787936 -12.2727707782548 -15.5252161578833 0
46.1788035708386 9.20574514193134 -18.9675973354413 0
118.078724038748 4.44376222188772 -18.0324264231503 0
19.409023247352 3.37662211161678 -20.4449545779676 0
153.556269373092 28.0527670760899 11.6404563439023 0
24.4958044527941 6.92987999799392 1.19843549435669 0
-46.9059231809693 -5.07448628145545 -5.30482020139635 0
185.519458608175 -35.9868066178528 14.2890734926407 0
152.199841832943 -32.8013775031267 -0.0636457905526884 0
-78.0513623680156 15.0584306413633 3.95781946543421 1
-24.214659741595 -4.12339412904256 -15.2673867734462 0
143.054973172405 16.7025965482268 -15.6504273855163 0
142.597922548093 10.1821244634678 12.5090640510897 0
192.150329623495 -19.7844524263636 0.586835153124047 0
181.166963441044 26.8346366770365 8.49762101376845 0
137.528859584647 9.73994966776585 10.809722438268 0
107.586791449848 -14.3676589710548 -12.4411748712627 0
143.033489010937 -11.6080989285309 8.86559855055779 0
60.6359187446427 6.71795275161457 2.71084435387444 0
174.648094131929 -19.4510011660853 -17.0907926522986 0
168.683603784203 9.9597642823097 -19.1834428603572 0
-10.5268276003856 -6.41895183368032 -13.0515915459803 0
39.3400347585548 2.50070668784797 3.60776246981718 0
159.692767027176 -21.263810293619 -17.2136586211763 0
140.970586581963 -11.3970421236154 8.40732688402075 0
126.540758679772 7.94508668925804 8.24851014446294 0
177.787106784614 -34.0186160613471 0.233865296868166 0
159.626136747134 23.2604105227157 -14.7317328370614 0
-54.1962162100114 17.4024187834145 -7.00728973583818 0
129.691160946427 9.2738409601927 8.98433696213181 0
-53.2541464387295 13.4668629792531 1.10736234046413 0
166.447605118404 -15.8340174972356 27.0426725212265 0
155.095482782957 29.9940532365203 14.8324798760239 0
58.244524880693 15.0085319382047 -9.32637489926912 0
142.263082284398 18.8787555292059 -10.4412709533291 0
24.2171032708304 -1.20153446676204 2.81260812690358 0
65.8261348208725 11.3549752691777 0.140291545550124 0
156.735069601385 7.81994869763637 -16.3276636099059 0
34.9788807223086 -6.56026602882669 -16.0253001621863 0
-49.1126701911646 17.1761391725972 -7.87808972899632 0
109.387557122946 4.05646151378151 5.61350837587948 0
12.546363296746 15.5570009925681 -10.4086501676684 0
182.469445079229 -37.1231278701784 19.195941987649 0
154.863753267243 -29.8682660128175 -5.99797982162 0
156.136218688922 13.9044885529031 -18.6736827110676 0
171.898947275456 -37.5827815116026 18.7439659331022 0
142.844489414949 -17.0750366560157 8.46160526674129 0
-41.89924999903 15.2463957861305 -2.71494725065398 0
175.163724552319 27.5840876854379 15.7088853847256 0
183.540903243826 -10.499228800351 -13.8141591721411 0
154.29612025488 -29.3508659936505 12.9817008160885 0
88.8433615814925 9.19623945716101 -18.3746211844157 0
143.494025791461 20.5134097791044 10.2748760775054 0
53.200885686905 13.7997924006727 -4.43218952756498 0
-34.824700346516 12.531448197803 -0.260840761549702 0
-25.1570078271305 -6.0432390392146 -6.5581482833249 0
142.804457115649 14.7758831370478 13.311739983048 0
102.630980435971 15.7801983803238 -4.69473001527545 0
137.807668935262 1.83569648030563 -15.6355930662373 0
80.5902563285505 6.10022937762399 4.36783631795508 0
-63.5955975862131 12.6499828290663 -15.1133371792393 0
112.594590648428 -16.0218242547548 -3.80372138564982 0
146.67928953678 8.92721416184022 -15.9152563351768 0
140.50220817954 -24.5539177787449 0.395739627098488 0
78.5052916047793 0.476753918505027 -20.1132789167863 0
155.98109099858 29.9502477162138 12.6784923355659 0
-42.5148846379335 11.5279625983379 -16.9042402828 0
-21.85256539635 11.5679867596673 -0.42426570063626 0
-59.0317778200869 17.1942309094118 -8.9655130989708 0
21.5235477373442 14.8949204143676 -12.6201251923315 0
178.564787516833 -14.1457682135897 12.1829390882188 0
178.598957943506 -36.5355135107256 28.3417580241925 0
172.007303778544 -4.69911047164287 9.30674515208646 0
68.5688088991903 1.9790118493949 -20.3339979356617 0
190.023145733947 -30.3583216753396 1.56655108658925 0
83.6722785242298 -3.05053852042148 -19.3616360256921 0
152.336076547601 -13.5897261128836 11.2048865774328 0
179.291574737431 -1.56220208604184 5.6507423190369 0
75.3158485732702 12.8003753498304 -0.834152123853787 0
109.769260674015 16.2970977064429 -7.15581962247965 0
34.8384180984982 -4.95585166695633 -17.5161790040453 0
-68.069947146196 8.87984321872774 8.11478461078477 0
137.782701100889 -13.9647774060313 7.52893507813915 0
126.789720685311 -18.2417481993318 -9.90023184009632 0
136.998760564103 -22.4616736901987 0.203174525682796 0
155.878966341886 -31.1318726385964 -5.13592177902602 0
192.779619051628 -25.7319690663373 12.0446785969316 0
38.6373115583806 7.40732255876418 -19.7655635849965 0
159.135687321292 18.2889490408299 30.8001696337449 0
158.067884775356 -1.46573961926488 -14.459532478108 0
137.266123590581 19.1207792850992 5.3259732407017 0
181.199244810894 -36.7929507745981 26.4074579342656 0
81.1393840265786 -12.4170018563216 -7.61638061043411 0
132.915246999025 10.0684991516199 9.90064378314088 0
110.126965456567 15.4859031489437 -0.325967010688189 0
163.628696039472 30.5684756416505 15.8832942096819 0
117.320500348158 12.503576373196 -15.7849565485799 0
124.326565481736 16.5376245110977 -9.83951240771034 0
160.907212726838 24.5260685609848 -11.8363773922404 0
87.4617206798224 6.44567183795121 4.76008237394394 0
142.515377645107 -19.6438837799849 -12.2311430857346 0
132.337936257631 -9.06953780071408 6.2514321479576 0
2.39741403427561 -7.17530741899159 -8.25591964697609 0
-13.6887773340266 13.3481598514115 -2.78169518618464 0
171.279142221327 28.7465048886299 5.45704146055534 0
94.4433679381813 -13.9385445557153 -6.21511883702768 0
162.292077903306 -5.76013881074773 15.8863034907452 0
147.041604202722 20.3815432043873 -12.1152355489479 0
117.346236174365 15.9332904338985 0.810629990128697 0
120.800082101486 -1.99051001275901 -17.8539735657056 0
139.181201994552 6.33931261111794 -15.7633067575457 0
-74.4906908305881 9.43466855752543 -16.2829600611477 0
172.50756935943 -6.46245598552812 9.5789492046937 0
5.80393876876454 -5.91245150476332 -4.37192425361518 0
45.9822908585191 -8.55819365366497 -13.577023927557 0
-52.2674417429381 3.99391525826312 6.10455355260188 0
148.945253564212 24.090719397361 5.07203021998362 0
-75.989840859684 4.5104223442817 7.81000468628266 0
190.404500894622 -24.6464967829002 -6.0835748361805 0
152.71093643216 -26.8050739286345 11.4428146866735 0
184.424652405382 -9.09758734070866 4.71205867148098 0
-56.9629475831566 0.979057899872255 -17.2599785618529 0
6.43356619307229 9.282809333749 0.120917217380584 0
128.082547658232 -19.3409498742427 -7.68754800455947 0
-57.5553772637425 -1.35220662005901 -15.3996598099511 0
177.292691903103 24.1094811836811 -4.62477377946449 0
21.9251412373876 5.18292463260088 2.50818440101912 0
178.528133566738 -36.9717530534624 14.5009711358746 0
162.227107034312 -30.3865792872717 22.3339401755694 0
156.295075263427 -0.371095021857246 14.8634780796418 0
167.191619211027 -7.85116737047983 -18.5913576386881 0
-49.3424076409296 -5.28168822049514 -7.1258919751066 0
18.4640703403122 12.3422630909906 -16.9047895669642 0
1.75277671176005 12.0277234234158 -17.1780773046076 0
171.568869232496 -37.3871079495399 5.71678628369966 0
104.741201101694 8.59851436527748 -18.0886215027814 0
66.9787144037881 -5.14885646240021 0.99846853081024 0
68.792294227299 14.183604506963 -4.28332981661767 0
-77.9710274178693 1.14249789700011 6.382736565955 1
171.945714659378 -18.595253861992 30.3604337787695 0
134.390241086866 -9.12411126689268 6.45311920131111 0
-66.7381429082191 10.5745488350884 6.99331432133317 0
-80.6789625348724 13.6320007356587 6.55641072139394 1
-80.5020739874799 -1.25774044269455 3.88026199093187 1
71.1586047672136 10.5843310916957 -17.8681758157206 0
144.401475278468 2.02075429993066 10.2466054227487 0
57.5844223972984 12.5100132826139 -1.93310534631897 0
10.1567292544172 13.4247004751166 -3.73747124745684 0
114.26644944417 16.3718746844895 -2.53496974528044 0
117.839231157696 -15.5563106257892 -0.874345566459282 0
58.9116812508596 -2.7003683536866 2.40407865375431 0
77.9668682252225 -5.0331974636891 1.67078652907598 0
152.01292543863 -24.8854122764374 11.3128967976404 0
-75.8127204107716 15.7939706101562 -11.6272872731502 0
128.974499525165 16.9525314690672 3.44261963943893 0
34.6707345417469 15.0002730537375 -8.32722871720645 0
171.662918878014 24.8106159177692 -8.13086018432191 0
45.3322152330063 -9.15237368736568 -9.01333074803195 0
89.2963273816848 10.110526559944 3.35251056158642 0
-72.4736214017365 16.2921291337467 0.972031498370241 0
82.0704825467353 3.7653095036065 4.76912193211839 0
147.651213261092 23.2114878179885 5.04209307483961 0
150.900451604528 -32.0636710688862 0.864127296006513 0
-19.5400834088498 11.6873038363839 -0.690689113803662 0
155.778570757407 23.6663254600906 -12.1115156555537 0
67.3595227901036 4.93003971282345 -20.0998991409883 0
162.129568746816 28.0807413927042 1.85611263902075 0
154.763302286438 14.750759097641 -18.6894428981801 0
178.481962919559 -36.0026672164086 8.28624006065212 0
103.980103081616 -5.65212815250364 3.03349119142922 0
181.502451727099 6.82720276905074 2.9495720399369 0
153.459776821661 22.7464087503864 -13.0603135664718 0
165.843788106381 -23.4753764412886 -15.5475250115356 0
49.2637404829006 11.6092072404019 -17.3045729255249 0
-54.9486430366388 12.4662570809266 2.45077169485882 0
-23.4740586004661 -2.46849265209733 -16.9507863543972 0
183.56387736379 18.8585825299036 -3.03161573827857 0
170.95148574811 15.4040285651787 -20.1169928234406 0
145.083385940697 22.4287252540297 7.37031688713327 0
-9.83848449631654 14.2745399728034 -4.32165300749133 0
74.1023686263096 11.333049500178 0.839015204317445 0
165.379322978709 7.72468450637451 25.9411032752393 0
176.541364103482 -30.3416877341571 32.4662290666346 0
129.430565319584 16.2167142337452 -11.7290991549126 0
120.236561598921 15.2385295873551 4.02699268215516 0
135.525052523993 8.73274898105238 10.0941448091648 0
180.764437833422 29.2739643838686 16.9239679875367 0
165.584574576378 -9.293310646188 -18.560974250736 0
173.380456228151 -7.12882507461711 -17.8632688302763 0
-50.7959018598119 7.19778894150278 -18.3530629770779 0
155.886974322454 3.96319290741613 15.9632988937713 0
155.567186383265 12.6314039083862 -17.9795878319447 0
111.935221599943 -4.8434894344177 4.07045614690039 0
157.103516179382 -19.0053740176166 15.4907236921949 0
182.280704897541 14.8996682503167 -5.86678061997837 0
135.956745438881 0.22602265043634 7.96983332466294 0
-55.8508015892819 11.5829077059404 -16.3671280463072 0
150.322079395157 -3.81208352135809 -15.0921228226449 0
190.461434836906 -20.95182913142 -6.09007827122156 0
175.754291160835 -37.7113239501958 23.1873355840384 0
119.025018389831 4.82565297773519 6.81884730457773 0
127.837507801325 17.6918112222646 -1.88014968787111 0
74.1221743495134 -7.04029980923709 -0.657110895852559 0
54.6444693541128 2.96086252020237 3.8812690679086 0
177.174788370047 -21.3843912605484 31.1593858572931 0
103.614030281184 4.02172855339607 5.23810839982411 0
154.335453064591 29.0669193842226 12.9434412780467 0
180.971924087876 0.746048614981777 3.58297045726013 0
6.98218700164439 3.52906264710697 3.73612372063202 0
151.409791605093 11.6242571449708 17.8012479622681 0
-52.6144082740498 7.48223379449925 6.4812108105984 0
158.639076361065 20.8761641693124 -18.3516131037041 0
102.395376463663 -6.70944093479601 2.37799914419866 0
165.252647005934 30.328996163706 17.1514281173802 0
164.272416329096 24.5140679512417 31.7855623412572 0
-46.4807558895079 0.227916685306996 3.95601889418525 0
172.386463173394 8.84180194307713 29.0173306770736 0
173.574968986727 -14.7301008215136 27.8887504890291 0
173.425831439199 7.30443361590524 -14.8101482174779 0
-25.1904081268723 10.8728180928309 0.362099036124458 0
124.40861250732 16.9135759624823 -8.26599343164638 0
168.462134862286 8.77539844101744 29.3949448341629 0
146.956448513172 22.1461326491489 -0.578899706080354 0
188.987367958523 -18.0097411643729 12.8158573365383 0
184.610367005754 -36.6698235480936 17.9467744533428 0
183.958013474934 15.2635704305217 4.99145515691451 0
22.6562158556059 12.6768056771429 -2.88813702792881 0
168.004027706741 23.7007742795427 -14.3683704391551 0
142.405464553887 -13.4191827361401 -15.8196089049861 0
27.5693977798851 13.6377915503997 -4.32635781911192 0
108.05846638277 -5.29030426371356 -18.2978084690719 0
69.7072915976509 -4.21988593996552 -18.7542830409991 0
171.579630113043 -12.6375395866482 -20.8855812293061 0
175.19904792934 6.33901734100972 17.218768148988 0
140.261868103907 8.03370945750574 10.7236799865805 0
117.609439692292 7.43611099290221 -17.805864391414 0
83.290589654059 -0.0736528697743214 3.76380253969812 0
169.160442266616 -36.4930069405126 29.0974100324556 0
82.2596706594078 7.33598166209836 4.10189077608231 0
151.091078459952 6.16740650813531 -14.9054429828596 0
169.563661535539 -13.8387249938415 -20.2738055991111 0
161.079271035965 17.8315244444124 31.6061226561035 0
183.865800199976 -32.8614499597123 3.70436577895439 0
108.465787637822 -15.6300635538006 -4.69540543401414 0
83.8688085197944 -2.44617560704354 3.04956387683264 0
129.530731378325 -5.565091347783 -17.1326194732362 0
75.9942294576046 -11.9388360507868 -8.43220208092928 0
110.546957504802 13.4321278488667 3.5525526801092 0
182.193819003495 8.19415449575637 6.98485073083913 0
178.360290181324 -15.1078531529168 25.8368215465253 0
129.863273185211 -16.6019602244278 -12.6640782059698 0
165.059636016675 -19.4331534839453 28.2189180660464 0
-64.9850351509916 -1.43742656171524 -14.6329601025978 0
184.124323016785 17.4081083697693 2.25779171400873 0
-35.320904731946 -1.88730762201415 1.31397950107774 0
-26.5628970643002 -0.342926765174564 3.37657191660255 0
114.661243478848 -16.5103507478059 -3.98401759929756 0
-79.6952001268697 18.6775588279801 -4.85908883517902 1
184.646029175263 -7.67313242234267 2.7749768336181 0
130.36124089603 -14.7755957049111 -14.2638265380286 0
172.390826507525 -8.27014674339995 10.2618010252328 0
70.7771600592449 -0.237148309137113 3.48376518603862 0
101.397219140138 10.1424117960747 4.75544172286454 0
154.897538011114 10.928375295751 -17.1300158068902 0
27.7316363695473 -0.0783055929860895 -19.9198147218507 0
20.4597760488985 7.31932885712237 -19.8522336765036 0
-27.1845620662525 11.6361873387724 -0.0914531946558565 0
56.4031364825135 -10.0651171712135 -10.4703282957196 0
9.81315856606499 -7.22922155101639 -7.39462902497936 0
149.914716974595 23.7127984944405 15.2879696995454 0
29.5739565698841 11.3693146289628 -1.51159084040068 0
-31.0290381102017 -5.02764328183425 -4.12100420632123 0
85.8650480179749 7.4463773706497 4.32363094289897 0
53.7677924631207 1.19560810108589 3.49457083909256 0
160.76541961803 -22.5596462892004 -16.2539934536696 0
-35.5177736367878 -3.40579695511612 -1.27173872305576 0
77.3209239983471 5.29627194935934 4.35543121869364 0
-39.9335428067936 -4.2598617293296 -13.6882736448064 0
36.0642286028234 5.19407437670866 2.60518324668523 0
94.7759802249594 -14.098243916624 -9.42304565250243 0
120.684084308767 3.69840517688461 6.83005579838105 0
-37.6344536660156 -5.44359574564757 -5.64272893621992 0
-16.4992499176057 -6.69971262803768 -9.24759939695104 0
168.693379271071 -22.5052862266275 -15.8073345920537 0
85.1918215454922 -12.810065270185 -10.5618550659423 0
147.924330303406 14.481015649317 -17.4334280287655 0
-28.4490588581487 -5.89554536064249 -11.8887600797446 0
163.289874941557 30.3162025767198 18.5316551373679 0
52.888206765395 -9.42299427604093 -12.5160272402474 0
187.619949158528 -12.1957124354091 -7.10943122332664 0
164.101442915256 22.7638000852912 -16.9879386523833 0
182.376037965991 -12.2922358819317 6.39103720537681 0
151.94799473989 13.9792821190687 19.7540267036696 0
177.743361304805 0.986065204918847 -10.1304955444907 0
-57.3947429606835 2.73671442591952 -18.0068870989921 0
139.541705237662 9.29011212473435 -16.4068927947492 0
147.349730638192 -11.2914415456078 9.44945602676777 0
174.460518658104 6.93111086545682 19.3176834338256 0
14.4679381614282 15.5256810850816 -9.80940350437942 0
176.752274282484 4.55772109823084 -10.9065301148572 0
61.9777224042145 12.3923548455309 -1.39886498526134 0
152.322181123312 8.83521614799472 16.4108756597322 0
125.997054450778 15.6272378878696 -12.447816301374 0
147.320533780753 17.6460036306337 15.9843307053037 0
116.82379112914 16.5918538744142 -7.5634568708332 0
119.297195311638 -12.6711863918351 -15.3419313261542 0
163.294270443401 -20.5875202669433 27.0701103288833 0
74.6010100605742 -11.2234199359013 -12.3892531612994 0
172.683607752128 28.7877663110254 25.3996274920931 0
185.507744190072 -35.2672904498882 24.2185421573475 0
158.783113546847 22.0670938801176 -16.8734753779039 0
193.024788720427 -26.2269241201799 3.05131792436547 0
-27.5335855805345 11.2582981620391 -17.5675880477088 0
177.790742220834 -16.2876760535416 21.0391103114935 0
176.198930392089 4.32581631487701 12.0709371401794 0
152.729646669282 25.406536974577 2.07788127434728 0
-33.3900865074765 -5.34018912572401 -12.6685039439836 0
122.647452343191 -14.9863564043423 -13.5986290813734 0
67.0427860828579 2.9234114072645 -20.3185150086251 0
131.153548306963 7.08801966296954 -16.8199078043622 0
-64.8353800645688 1.59620058916708 5.80713580148324 0
76.9433250076743 8.33977070056571 3.23500207102695 0
162.099803730504 -26.1073569822439 26.7978411638921 0
51.4964039852876 14.8126699009333 -7.17634573339804 0
136.174030611868 16.4620917178604 -13.0459014689801 0
160.765276399737 1.28536040099174 -14.7999939017049 0
34.7255741811292 10.9120199486869 -18.0698246175669 0
177.709665494416 12.5696909175018 -13.4556733609714 0
41.9602308464804 -2.56037411185017 2.17765293359783 0
-34.3726061890452 -4.01294272683294 -14.6412747064883 0
-34.9063514641377 -1.46239971976279 -17.0550355090899 0
-15.5624374112362 2.19486240484991 4.35130289430359 0
178.596410813765 24.7715073930376 0.682947078485091 0
142.91068615685 4.40796911420659 -15.1913693059891 0
43.8403557136288 9.57073073374712 -18.7974401593002 0
184.083480724301 -21.1678898647086 -13.0000471854547 0
188.529019385509 -24.9049106770372 -7.59547089682916 0
152.294386301083 -8.58947340869162 -16.7017277977419 0
185.301091310453 -15.2441679394544 10.3888042361347 0
182.666826755762 14.1540342741437 -4.29842442999034 0
123.366793861474 -12.7868306284974 -15.3103730713385 0
-10.5198877626161 14.366806087826 -14.5195377605158 0
64.8945530305934 -5.96928642076202 -17.6566662981124 0
-66.7528699988133 16.8925532799849 -1.31015093336027 0
2.82713247676377 14.5893751137872 -14.031654378438 0
-76.6265309201117 17.2175937650598 0.472629028006013 0
162.881073087872 -11.2063199657245 -18.9181801172593 0
157.442750018412 13.2989066753025 28.3007983579343 0
127.84780306746 11.3636694599501 8.78208699807832 0
65.1433304870855 -9.02199198865399 -14.8902315959676 0
-8.98118503814851 -2.03547153954389 1.11839564205469 0
160.59021273984 -10.3379521176294 -18.380947570923 0
-25.9038121990881 -3.1325226518695 -0.722404044181877 0
135.922609963413 13.2839113694025 -15.9334557118858 0
162.185038183494 -7.72670108437201 -17.5198276571958 0
180.610703788027 -36.7542479338206 15.0168070866455 0
44.1234284322476 -7.40317496528807 -4.77392504611038 0
-43.5294175602177 -5.50846319102732 -9.19092253338056 0
159.247240146034 28.0807185506853 2.91105389065445 0
167.161152123782 -21.3107841875352 -16.9736419144218 0
172.605811705293 -27.1718830774936 -10.8120308494295 0
-13.5381272436487 1.03946093104955 4.05369383218549 0
102.304212243596 2.14887604940696 -19.1689316790556 0
154.069831053312 16.647255257904 26.0329596974352 0
162.710791623736 -31.5683803500125 23.7508872780041 0
89.6882915959882 2.08686631176456 -19.9000038492792 0
178.560003116514 -18.1434584838346 -17.5539020820572 0
148.926081843818 5.74118830552335 12.9549739755243 0
35.9867160872968 -8.45617676908122 -12.6485110839803 0
85.7839797097363 -13.094471925982 -8.0130344388815 0
127.719654203425 -19.4609710198372 -2.46661828076555 0
121.684711475621 13.0839189835694 -15.4150990158169 0
2.54781117615331 14.8920255790973 -6.54749189286212 0
162.205448115773 20.7739398468718 -19.8363507255804 0
3.87654194844545 -4.23257999877547 -16.8233751772164 0
168.513350072577 27.2993246743407 -0.0794001360180931 0
18.0045937578317 10.963819902978 -1.18406929181043 0
128.260050669621 14.6669454150716 7.98445697874283 0
163.418210029 -29.5708649042933 28.1164432596059 0
14.480026062596 4.50885519183957 -20.3201314607075 0
151.634456266441 -33.6396933441578 5.26975707189167 0
170.891567985349 23.472778778082 -14.9446104471652 0
178.972451749691 -36.2854809477669 10.4996800876685 0
165.32360564169 26.3507873387439 25.5701310545558 0
159.734772610481 -21.3236942436506 21.7785132585977 0
165.112260931363 18.1251686633954 -22.408088605874 0
-36.9640923386469 -2.41999697652233 -16.1041451978641 0
138.325109624612 -22.2635702275665 -6.85753941597696 0
182.253970545276 11.3051449473717 13.2743858947705 0
62.996830321784 14.9701043619253 -8.57845731982722 0
134.830939172606 9.52825167044656 -16.5513552965696 0
168.031384967853 -31.67761766154 -6.77849703352337 0
169.737078341182 22.5515506194717 -18.8297087857781 0
104.147119492973 -12.0677473566589 -14.8737975539247 0
185.516698630884 -9.39217667524399 3.27115368870863 0
33.8657658726797 13.9516234130436 -14.7002111599754 0
62.860656938244 -2.95929411766315 2.49022170914294 0
174.607061114769 19.9383305467536 31.9054334504161 0
150.805480505677 5.36064767704706 13.2292083736896 0
170.640479236868 -15.8543644727682 22.3971233986548 0
146.712215690342 -28.2678463686477 -1.2652055988234 0
34.7359233998211 14.2640600756868 -5.71447722952385 0
178.684180976843 -21.6848713662001 -14.2766492075968 0
171.946216957708 29.7582643880428 10.1847483108317 0
161.342527116781 -39.1280873227601 8.28463645075354 0
161.312664633431 16.8654394744223 -21.7560727464917 0
-21.0161893335213 -6.23019493880988 -12.0047671007451 0
158.936720020562 -30.4460066435646 -7.2324159035005 0
184.257345382803 22.3455052235628 13.8721222254932 0
91.3669447180543 8.82315141154753 -18.464357752432 0
154.477369120296 26.4484989096659 2.41708070978397 0
176.134600905364 0.171561606651019 7.95684285290362 0
183.800903309276 15.2307825041085 -1.09131496585257 0
-44.8956195829495 17.0244935444916 -7.99968369165811 0
50.5535344756587 3.28708622091567 3.71921876824006 0
5.82856087653826 15.2439884903431 -12.3847038551047 0
152.097767710879 -26.1380447146611 -8.89635363587615 0
134.522118106099 -20.41247986586 2.22430744157933 0
-39.6921241117084 7.62818823952465 4.73806623398673 0
186.862540926523 -33.4585071242646 24.7547077098306 0
180.847895813372 -1.92500928507288 -7.27725783413971 0
53.8274023949621 14.5745682822613 -6.36881087257124 0
119.019915327449 16.7729947504815 -2.85524483134858 0
170.974426901793 -37.2997389776429 21.269383374073 0
103.078862054658 2.4169194712821 4.82002837033345 0
94.9232609563689 0.884418713356283 4.23644934759294 0
74.108852367503 -11.2134873716379 -6.79582617341573 0
147.013849085369 -26.2835584959855 6.25695254240273 0
-30.924186600635 7.525865806975 3.36610927125979 0
88.9375776310973 2.69837515950117 4.53843135979211 0
-71.0900112398456 -1.4188718175897 -14.1393796294553 0
172.75402219553 17.3941454563172 -19.4258645179726 0
40.3397304739817 -7.75304415531302 -14.6306711366704 0
152.135356263595 18.3778099764628 22.3238697821519 0
168.965481797639 28.4288108749477 20.5521594090012 0
98.1522274813921 -2.95993675200131 -19.0659941492248 0
151.402426110534 -30.5244882921714 9.59762600843325 0
159.129517803143 -26.6206088326858 18.5930583023258 0
-31.3674101287894 15.7119857252269 -5.36042687221503 0
113.574917571584 13.5461041670217 4.31658618537053 0
-49.1438404902255 4.87755047730617 5.89692282367198 0
144.773216905083 9.3606836213782 12.9721663035111 0
141.340000994717 -0.529658813715238 8.40046029466376 0
147.98714107389 -27.7833318981479 -3.97571292032905 0
-57.4796709536329 12.1988905450872 3.21772373297645 0
191.015454181087 -27.9510256788312 18.7626800592524 0
180.056865889862 -13.074365876512 9.01250289799505 0
162.06574588077 6.86225791705414 -17.9049705886231 0
122.818861683838 -16.7868376284626 -11.5281566190893 0
121.334276001522 6.93819731155748 7.47216137550985 0
159.604684868569 25.3578586397551 27.6160426740626 0
25.220003518015 -4.84642056794561 -1.66984241430918 0
17.0942318858649 4.97374893941515 -20.3087934960293 0
183.079324415356 -16.5890287352151 14.5484442173297 0
2.12168319439682 2.12492206251577 3.83248846734014 0
