48.5471892831775 -8.00099541962962 -17.5138933169236 0
-129.981399693241 22.7605777971955 1.49522678749075 0
126.19446658715 -12.836515328255 0.77350374661639 0
-233.665511193953 -12.9795051478972 11.1476273290252 0
-229.264036204271 10.995408650609 1.74878849284809 0
137.27805908783 15.8830016555576 -8.59814297379446 0
-111.74275174256 -3.60534071955309 -0.303194848682488 0
143.127594761349 -19.9595045245472 -7.0661436280271 1
97.7616937670068 15.3485108604932 -1.52345258287207 0
-199.47489495132 -18.4692117189354 7.84601638744498 0
-212.120848339912 17.7602704128228 23.582650384177 0
-170.132787143904 -10.3681673394139 12.922880183074 0
61.648488680117 15.1578045751284 -2.84774292290148 0
-224.574616228738 2.60297459609279 -1.79934243129108 0
138.599285951642 15.452871842151 -10.0713912730319 0
-139.94414602217 2.82874795983197 -11.2122482120372 0
-78.3011279860316 4.69158349960302 7.75056640462908 0
-44.4548556451118 -1.31104297319083 -18.8844477706275 0
3.78046813818508 -2.68523811358699 3.55889707485002 0
-144.160315304977 23.1710699764372 3.24880592001836 0
-147.299362290769 -4.24593244042222 10.1409661548245 0
-200.511724184145 12.6450268879975 -9.75493129370975 0
-182.384753969205 -1.06714166704058 24.2549465805711 0
-204.394071122361 9.17995208732103 26.6121996869847 0
-223.669337475688 -9.11079248595707 8.89702140815943 0
124.175124115761 -18.3122643817374 -6.6806865978268 0
-187.737803357944 24.4483504189298 16.4808664590801 0
-176.040614169109 -9.28610774989509 25.156841043988 0
-169.373660915661 24.7119480378742 4.71052580267366 0
29.405886194479 7.34937247009669 -22.0716023817769 0
9.81964315276158 15.845641776352 -3.64409084601797 0
-135.967343430505 17.6759590425642 13.1327740149996 0
140.768611702286 0.194519180495277 -18.7600616027875 1
-145.556223486702 -4.49130720807103 8.13706578685759 0
-201.800939731131 11.0320512059282 27.2176193209928 0
-127.028821696507 -3.62907470065109 -5.44455243205555 0
-197.838733002562 -8.26954472208869 -8.39344590188182 0
57.9013808885868 -4.56855378637313 2.49713988295396 0
-223.842605809498 6.86535920775145 -6.20293422890448 0
-183.498507429958 11.5856009356551 -7.59637045579937 0
-93.3126240497537 0.758939481327747 6.54962836179311 0
-114.998472673163 7.38766394975923 12.2118206062655 0
-225.905313320567 -4.70531903126364 -9.88445523162183 0
43.0286999252926 -7.85929315784688 -5.60368951411397 0
5.00724598250748 -4.62765893849233 -17.7609594275533 0
-157.236638537744 12.146389800943 -9.33163574172708 0
134.333378511102 14.2656925552487 6.16922058427603 0
-226.670816311273 8.48694421870711 21.4893520358903 0
102.393402602453 -15.1589133158015 -5.63591515685855 0
-183.209487664491 17.0305579753947 -6.93547594752748 0
-233.934012247826 -45.0981777838401 4.67461888748763 0
34.0175232009436 -8.94041612665928 -13.6988202619304 0
-110.888292105695 14.3777209978322 10.0005562132966 0
-233.920378760287 -9.07473379039387 -16.6548800353735 0
133.146929457681 15.8423950226256 -8.183826108069 0
26.4246307607274 -5.31124029371625 -1.82596110047166 0
-183.05230762436 -9.58245715930979 25.8222166491334 0
13.5132936142193 -5.66335378289813 -4.36371152699118 0
17.4096240814487 -3.6454451916826 2.44469006211357 0
11.2171307376579 3.15943751105671 -22.4196847787998 0
44.8758010060996 3.93362933175885 3.75410866091237 0
103.435749022416 -7.07438638201549 -18.1445880701154 0
-233.274262268144 -43.0147839794621 9.30684737334237 0
51.1365246892098 5.60603726256988 3.38485771453121 0
137.744929775061 15.5464775968646 4.11670405124701 0
-216.305123737484 -10.5599399870152 10.7590088465678 0
-137.910703417557 8.1909101778645 -12.5521235953185 0
-206.045900042354 22.2054918579817 -9.34910369415423 0
141.492410578621 7.87994716507428 -18.0400352422333 1
-132.795993300175 15.7763682119117 13.3908791550362 0
-95.140156246115 17.7218209692724 -15.1935727535224 0
141.109450306732 16.4917832399632 -6.02124441066524 1
60.5623881982542 4.78027452939557 -21.5712305915098 0
-167.562505236612 14.4560562546097 23.0068925423414 0
-243.371157641954 -31.0199396731955 11.997419272931 0
-169.906811287194 -10.1602382830028 15.1592170616246 0
87.5916030658465 11.4835802459929 3.80377495079943 0
69.2495293246449 15.4657761778952 -3.72407201772668 0
-150.702434812682 -0.372950831403718 -8.53096569383833 0
69.4715786049028 -7.21127523495642 -18.6359180669892 0
-215.663704614659 10.7674714160797 8.22729334843418 0
134.269231664791 -1.23627361458718 -18.6143644885197 0
-243.367644100202 -38.6725489377677 -14.3115407907924 0
46.996846920989 5.23293409108777 3.28876470185806 0
-165.968586987024 -1.61324973518892 -6.63016662649025 0
-210.070217296827 32.4819864975299 1.80108235272586 0
141.644058401971 -16.0067258775749 0.378313829439104 1
138.622633590011 -0.674744182271097 -18.6505605813884 0
-85.4148752483133 13.5389211547126 -18.5107446072196 0
-186.853341598607 -5.19139114658353 24.4749771748256 0
-9.23258728681298 15.0315987563288 -2.69785452998626 0
124.064737760366 12.8508570973377 6.42951781363293 0
-214.380823708242 -11.2968179728967 -13.1169838389352 0
-193.000608370531 29.6288373364976 6.9348176030167 0
38.2833581703905 -9.55892930593992 -11.4633225817183 0
-7.06161479166467 17.6075437564837 -5.34011328727061 0
-209.57602061986 16.6573701737429 24.312979611321 0
-32.4461586960994 20.8767879779513 -12.4079750006965 0
-151.48532541367 9.90986808110961 18.5620404909276 0
108.413794959724 7.02543516056497 -19.2114438600772 0
-178.031673333026 15.413198781177 -7.08409353435912 0
-98.6071878139996 -3.36829284908156 -9.33242057365883 0
-209.132759703187 -22.0521425196194 -8.33770181397554 0
72.2505133108801 -7.34979711924461 -18.5709486907038 0
-11.7073563772173 -4.74639310472908 -15.7190592113588 0
-45.2361716301567 6.76994530138313 4.20063381927431 0
89.2436186616853 -3.63290747875861 4.94554307167102 0
-90.8669088257483 21.5607415504329 -10.9569511250263 0
-211.142206423452 7.28215132275904 11.6600215775506 0
-228.074727154434 -13.2582957763813 10.1425367504996 0
-214.734424218624 2.97878508728827 7.63642872396892 0
107.348168923438 15.7491296737134 -6.47292255045144 0
-163.038720588128 8.88937340736843 20.5944798571271 0
-124.238514901291 -2.01977421569624 6.7627463667712 0
-247.580753802588 -38.379226523125 -5.36844377905979 0
61.4525459092819 13.2077022302704 0.0661855818052019 0
40.3275943210479 9.08868163919829 -21.2912367694665 0
-191.534665839635 -16.6769864402094 12.998626500742 0
-178.603650254563 -10.2979837578464 25.8810507930754 0
-224.2317046225 16.8272637270826 -7.6735313391986 0
134.711209119976 -18.1170409156767 -3.08718740441558 0
50.3896245855293 -1.60154614516506 5.46213692408099 0
14.8507391319915 16.6782361962824 -4.88607064395971 0
32.6061142319045 5.30889563451717 2.58781450752332 0
-225.270792350402 7.94305263654013 -2.23894861223444 0
-220.261287123976 7.37883391116759 20.8349295531934 0
-165.88151681514 16.6477178759002 20.7461017829892 0
88.5141799348534 -6.8274006457291 1.76635082474657 0
62.9439740020026 -11.9502610192163 -13.1882290859181 0
-224.762785894997 -2.87207535455023 1.42223830276595 0
-212.341529770286 30.616662575116 9.58639367645529 0
99.5523591726248 15.6654050368083 -3.18951151598913 0
-116.499194799949 11.2128368668788 -15.3577158685325 0
-178.990851992179 9.33596481175792 -7.31984691168 0
109.794041432415 15.8224909196199 -5.55094632250769 0
107.278296914869 5.71336948464701 8.32564035583079 0
13.8752268653175 5.72430431954226 1.90731504230298 0
-250.724541159625 -30.2147004237567 -8.27528760344351 0
-27.3155835911711 1.82566548654633 -21.6362832921356 0
-8.10912461963589 1.32569096186868 -21.9395527598958 0
-212.739982671687 9.07021888775863 -14.7905507776648 0
-110.177269819849 -0.967584682851195 -12.5996080855892 0
-95.2108273228647 10.0719652725532 9.36199823330988 0
-207.289555234637 -4.63415802730965 -11.2412897827129 0
-209.387416132451 -22.7409290439941 5.0165147459012 0
-249.381953409971 -20.1057694360605 3.07521148066827 0
-172.975015137144 -13.3436840805955 19.2195026289708 0
110.160851739664 14.5931887492554 2.26943885919204 0
127.846675985342 12.6408669221053 -14.7323228742135 0
-68.4171994711782 -2.42198321164774 -15.5194850639038 0
110.273728229631 8.18956258377531 -18.6628456913751 0
-164.191124187759 -5.38680572186348 -1.66180203777027 0
45.3100154577845 15.347418967862 -15.620523324443 0
33.4523780346414 16.7340433019371 -6.10368721286086 0
-69.3785997132155 22.103009548714 -6.78272704028019 0
-231.919061387105 -7.5992386816358 -0.865662711800495 0
-218.320879370435 -30.9640931250804 -17.1121005191629 0
-232.605196144646 -43.2201866525331 -2.40063233257215 0
-230.356653211097 -37.2469813387466 14.4434087276597 0
49.8251482800858 16.6136485900758 -7.97908877248801 0
-26.724677144279 12.9702044415525 -0.965913001180016 0
-151.544778698506 20.4047385316907 13.6538726258579 0
-109.255695644737 11.6284773333181 11.1319223741112 0
-222.419821554209 25.1187075846371 -1.15121158607318 0
-226.649756629155 -46.4504193062414 -5.11080518910791 0
-38.1822456751463 21.2684970873886 -11.0731619903957 0
140.151206106691 2.28744871092153 -18.9082757292997 1
-217.432200388218 -9.78958562581184 -13.7828133904833 0
-207.851621169387 20.4859779040475 22.780578168732 0
-237.207781381138 -21.7397418701422 15.4625777740453 0
-70.9559066168022 7.3137460628641 7.07855517509358 0
24.7320801507848 -7.92340337926015 -14.3056043077053 0
-227.234893390525 12.7027296448117 22.6612642553998 0
-212.15399502874 -35.2491887341237 -6.85693487855426 0
34.1179205940773 17.0687344223663 -12.6700677860138 0
-246.987376031595 -28.3669827744591 8.93572537547547 0
-31.3230420135152 20.7999659460863 -9.01253891219913 0
-163.219279011643 -8.75265068540724 8.85952181155736 0
-231.639294311686 -45.4067305847717 4.55554174659351 0
-154.441341632949 -4.12855698066543 -3.52530465455098 0
-42.4089205488522 -0.111202679536083 -19.9497001458734 0
-83.8448485149466 4.98490039838172 8.15464748657099 0
-11.8614788370883 15.8392312914748 -3.26728218886251 0
-178.77706647271 -2.72013569386469 24.0445907719194 0
-208.716930279328 1.52219766316797 13.7310465650423 0
19.5144164907649 12.6290438418156 -20.4639322224842 0
116.940973557873 13.4886516664532 -13.4979106703801 0
-72.9879700717199 21.0384955517264 -12.9905450270075 0
-129.882413491145 8.2963115742273 14.7816601731166 0
-74.8780021077485 8.13271240607486 7.03084762780254 0
-103.023979348978 2.86083579205706 -16.1329366376617 0
50.8073068149488 -6.16907306339171 -19.0375867012049 0
-205.02103101087 -13.1111903424776 -9.1389501977014 0
-136.232594601486 -2.34085676233856 -8.24698312367974 0
95.3073028469383 -2.81031306166581 -19.555617397163 0
116.902642207087 3.60144346536703 -19.7079769544972 0
-200.786246607895 -14.4485475786569 12.1403761205309 0
-221.791535532747 6.14360041238429 -8.92068244781952 0
-14.8206631428933 6.91835238390914 -22.7153573793455 0
-52.4577349738696 -4.20069865066496 -11.481230895148 0
-30.6867300402085 -2.83079562813079 -1.06879631481867 0
-194.630398015193 17.9257241030841 -7.54124919720724 0
-148.682722559209 0.111558650716726 15.2767853985976 0
-213.063955009038 -32.7361479795648 -12.2432984969346 0
-149.961743917867 -4.72578449567302 -1.19575870130824 0
54.8977188885199 -11.0519057855462 -13.5016486961007 0
-188.75478418241 26.4468862537344 12.8033252885911 0
-237.312191262467 -5.96744106764479 -6.76257101553363 0
-207.331369246872 12.3471500472274 25.9282069150658 0
75.2299150776138 3.01431343318195 -21.1841494377437 0
63.0001121976292 -8.98691326539592 -17.4805202789683 0
-138.039168218169 -3.95461072123473 -4.13483807103819 0
143.924355960027 10.6329224287336 -16.6496076780318 1
44.7315068506483 13.1813001615681 -18.4901535072874 0
-145.455368253614 1.45717029174592 -9.8789095254945 0
83.27021295997 6.50696432636083 -20.5519359980909 0
18.8340031495911 -4.36161588988941 -19.1609418207613 0
-196.285471438849 -9.28798474296062 16.6053208176004 0
-250.892244321439 -27.4844141343802 -8.46526913045825 0
-167.197592073746 15.491893590523 -7.49456930780385 0
69.5673414152496 14.8538554121404 -13.8297564891707 0
42.5572879227223 9.8528467400176 -20.890428831474 0
-197.264407028735 -17.8187539358228 8.86677030582971 0
40.3261944784115 -9.79344250149309 -12.4980855962788 0
-54.8738739152398 -1.44974303027666 1.79948897612229 0
-191.017197575858 13.3837885537983 -7.96436208214415 0
-53.1809581626099 21.7043138461173 -9.38308160815057 0
-226.506234531182 -5.55754975190526 -12.1761430120261 0
42.0409732799979 -9.26195377759828 -14.9074080228414 0
-218.43044308158 -32.6294626110892 -18.2620602450276 0
-182.599842671961 -10.8916883416527 3.1881852866315 0
-46.2148237712555 20.8260829003329 -6.75966663771032 0
61.7312359233388 15.4042486409785 -13.5537120160889 0
51.0795860264363 8.97233893435592 -20.9510866624165 0
22.3798092700581 -6.44515941392519 -16.7490793942979 0
-110.445995693632 13.1059576085838 10.6708109729652 0
105.076309902377 15.7797324854553 -5.96522511166064 0
124.388990610096 -16.8037594735377 -12.4050915366802 0
-189.697477100839 28.7209666987266 5.93793004532585 0
-194.103824271614 1.82008904076313 23.6597882447437 0
-60.2877214821659 -4.25175869559327 -10.570791680045 0
-36.3733734000168 -3.37951810194849 -16.494371034665 0
-52.2781570422003 7.52073934145631 -21.7492640666089 0
61.7016738337089 -3.05684159228112 -20.2728113763791 0
-230.514167478077 20.0035695436731 13.6275109473729 0
-228.643456601717 22.9643185416622 10.831303861654 0
-231.525393257701 -15.7091272426094 14.6550841507823 0
66.4546535236094 2.48077873128318 5.68159151557158 0
-174.346890779489 -0.708931059381683 -7.12755311957889 0
-107.487401240919 8.60158416035136 11.6307407404836 0
-195.656382732774 -0.221874760209434 20.7243149800091 0
24.3020135678127 7.96224316056153 -22.104071422974 0
-178.719107016428 -8.58792336198243 -1.13995292261151 0
-204.246996754625 17.5591704023423 -9.1154924126952 0
38.862481583031 -5.5448521425042 -19.139031739498 0
-200.08187674022 -2.5785641297799 -11.0454249754819 0
-207.676632593151 -2.69345658389017 13.5461936768079 0
-213.081979078397 10.8258305556028 24.5227387639695 0
135.945057652232 -6.88657311223127 -17.1560320165046 0
-196.615116886256 27.2063116847419 16.4153147628905 0
109.727850312765 11.0340680048024 -16.7359747506929 0
-165.056580395211 0.0209557254105424 19.9577788628203 0
-17.5789531294921 2.71826520624148 4.37256290785184 0
-187.678504741262 -12.836235844389 4.5568301955968 0
-74.9691230897897 1.45724697803501 6.3820351761939 0
42.2841966407366 15.6569306342425 -15.3882088017301 0
141.085550282754 14.4953993820807 -12.4006601281108 1
-77.3873031094217 12.3140944583175 3.93946861537034 0
-189.72705601911 22.2558252889587 20.0708233767393 0
-143.195077589341 1.51385996049508 14.5406048444175 0
-235.014099415885 -39.7493705861581 11.9807117149387 0
-76.5526033250028 21.062497755988 -12.8248984492523 0
102.912239835897 9.9934146820701 6.32126244027793 0
-221.454070520983 9.53847806948575 13.1609296422638 0
-161.498940384562 1.50244306544429 -8.38017968568636 0
-218.096191248489 28.5973757114021 9.65383992073654 0
125.088778019977 16.0288715116798 -1.08673645172029 0
131.511619293607 -17.7013972371051 -3.15495834191522 0
-48.6197749317918 21.6509371518151 -10.7547927035753 0
138.768909171462 -18.5053646047138 -2.72962333709277 0
-219.182335399051 -27.5782136499606 -19.3457420969656 0
-2.02563837733078 9.9925469774127 -0.224054875552323 0
-197.849406143678 32.2152937745477 1.81834103624442 0
-12.8192218668002 5.04615796487422 2.3993993034101 0
-248.911274041647 -36.3661696850626 -4.33634248324219 0
-220.463260532677 11.2580138418874 23.1208137825051 0
-178.419097763502 20.9258366954344 -5.31601011413669 0
-57.1055168850267 11.3353610052375 -21.2624974536429 0
-112.274574616853 -1.00668074143271 6.23037501588825 0
-227.106470299074 17.5378508599308 -0.901673228659312 0
-19.5674588997463 13.02407179234 -1.26080912004708 0
-248.698418767575 -17.23456572872 1.84006933677067 0
30.9800782623299 -8.11547047417547 -15.0335378765975 0
-32.9736735838914 7.18535076667158 -22.3986624939251 0
-214.00985199665 -37.2821118262646 -10.1385688185686 0
107.88783800414 -15.9052600892789 -5.57667448485826 0
51.118757535101 15.0075299797322 -15.6001789260264 0
15.9429714669775 4.10661320750694 -22.4653714836026 0
-225.758104396841 -13.3692530763214 12.1906423733744 0
-173.011792249502 -8.35919475044858 2.2671031109411 0
-115.834396490245 17.6250527719846 8.88185871482889 0
-231.127390744556 -36.6087219485702 -21.9276501927775 0
-103.351694185052 20.2425992117935 -11.6532977209179 0
-188.873116662291 -17.4034700679071 13.704657971923 0
-158.468890979461 17.6120832643781 17.2815758909899 0
-174.026705042648 -8.6953471187702 0.685198557048537 0
-83.6038866779241 21.4557333100409 -3.0821110695394 0
-222.825842992484 25.0745680402461 13.020833349952 0
-117.805899983904 -3.80920167549225 -0.278999931347026 0
55.5081877670992 7.21714760639061 3.05576671769886 0
-131.47007613963 -2.36000198870875 -8.52504840824774 0
-186.981939950907 -2.00200646375466 24.2746820815137 0
-212.641983287377 10.666576503534 11.1338624395634 0
-155.262394085897 23.0561050164567 8.9020619260074 0
-121.564974371908 -3.08180489089994 -7.95897947726912 0
7.34269983393637 17.7594894172776 -6.37314778685914 0
-234.988626809786 10.3956203868107 14.2624376343265 0
-192.770278011883 -17.0923479498132 10.6069738192678 0
-0.340468074654494 7.55055909411026 0.87534404278393 0
-209.680788049812 -2.71058929064095 -12.1379555275455 0
27.1649575089006 1.89040016305012 4.24445939899416 0
-219.288297611752 -43.7649545909718 -2.02571895789207 0
-223.855502576455 -3.22233675788165 3.44332546253086 0
-218.716906028376 -42.9901021131882 -7.7224798404323 0
-129.847106743619 16.6960914263468 -11.0973469429052 0
65.7259130625062 -5.26015123580455 -19.4791683585468 0
-161.89111503703 -3.07245195855733 -5.48975301436275 0
-115.924695362605 4.49870322827579 -15.0832227642279 0
-11.2987437170329 -3.28325441805797 -18.3670722716858 0
-235.879802015024 -13.8025398267122 12.0751289950516 0
78.3271583194804 -3.5374482490178 4.75887337966801 0
-86.2874605721212 20.0912614759941 -0.598678008243956 0
37.523760588207 -7.92417238834715 -6.6195560273886 0
114.629730230601 -7.11151618934082 -17.8305229747201 0
-202.436639575874 23.7934156579243 20.7626792172521 0
-178.042161133304 -18.1737031109576 18.8523962549211 0
-201.39315217065 -5.82759064905066 -9.98872110319374 0
33.9939110055021 13.707394962265 -1.58501128561512 0
-156.52814850871 16.8726999283874 -7.83272819707904 0
-238.530850926924 -42.4770529909187 -13.4933193830119 0
-39.9668716924451 12.4689193270696 -0.0832161207144195 0
-205.633672904801 33.3743907869049 5.81680902366281 0
8.17861347643347 -6.14346209541824 -14.7650134776187 0
-118.673413906504 14.9287493868198 -13.6860130736316 0
-159.560631938365 -4.18612781020397 16.3977722023666 0
-157.158403428485 9.37622602291944 19.6055807275772 0
-195.523604910761 -6.13751059861748 18.4466207964294 0
-138.276938760664 4.17252639727273 -11.986288701505 0
-219.839969820782 12.9893725827097 -11.7867051631311 0
-211.14440057668 6.65425105055947 14.7260033610544 0
54.2937465865682 -9.21939335046379 -16.6082957807661 0
-217.988565171613 -14.9182245077002 11.4642609481081 0
90.8173214150604 -12.5291746610319 -4.60326056518771 0
-225.754362714347 5.85500567769146 15.6209877827062 0
-214.060086682403 6.9025484791317 -14.2432263820752 0
135.811074230579 -19.3866294098065 -7.55789656253454 0
124.505149717331 -18.0885160195057 -10.2882636819215 0
-174.958679439656 1.609318726281 22.8783677421667 0
-191.294409399317 8.15520105434521 -8.75277177719621 0
71.0916979044511 -4.301197111917 3.82155469251614 0
-200.294092167721 17.6704361447972 25.4378928713856 0
-218.982932469048 -9.00688097931504 -14.0332954157248 0
-157.820362785408 3.85026960331966 -9.43431882496433 0
-107.506926420882 10.0425430792309 -16.8004813137995 0
-98.8960267621849 12.0549162587946 8.64143188319724 0
-106.607269814328 -3.41385350799322 -7.11993926135597 0
-126.206246413798 11.9067440715577 13.6458422334347 0
67.3325088233479 -10.6969682729521 -6.23529529169432 0
-242.043942172728 -14.106494250506 9.59709584840757 0
-198.446487363956 -3.22699653274565 17.6263179038536 0
-162.121809893429 -5.40135140762314 -1.06345577844159 0
70.6424823592468 -1.93344480549816 5.5290796562941 0
1.367886101524 -2.35439162443538 3.80370480124958 0
-107.649603789758 7.00541906221329 11.025840877558 0
-82.49996445848 19.5068028343248 -0.563545592976572 0
127.860146112211 -9.18318566993538 3.73507877352026 0
-222.156228385841 9.88845603147364 5.6726224037494 0
-18.2237786286633 20.1556994979137 -12.5196366080839 0
-224.85243664763 24.7292066655796 11.5888589671408 0
-164.926754374395 -9.03723073283499 9.5226191096807 0
-121.463693275952 15.8703335230946 -12.7994775188305 0
-216.080532672131 -18.3086307598495 11.2284686297316 0
-177.484324628587 -10.5439006007056 7.91362350458338 0
-21.1186944575829 3.83826413257059 3.76760190613161 0
-190.387310533723 -11.1528736276317 21.2225291391156 0
-36.2094386896032 -4.49467194798655 -9.20926716791587 0
-192.672042384019 -15.2838554748962 4.47730167889189 0
-216.371601250868 -35.4121142433327 9.69435688834108 0
-116.418887578911 22.3872738297442 0.0329461818645572 0
-233.785394837173 -38.0141943733316 -20.704958962748 0
83.2913973841311 15.8364413276523 -5.95230928557323 0
-6.93265730184756 5.19764823290663 -22.6938092187656 0
-174.792902841844 -13.5538908635146 15.1023511650604 0
-204.07947767591 -20.9381568450704 4.29565146974356 0
-187.480878105044 8.95622001342019 24.5643975217996 0
-161.966438949154 13.1117384746565 20.7236614315756 0
107.373516581744 -11.7073871442406 -16.1249947331026 0
-110.03405272999 -2.40866435478356 -10.7448191332318 0
98.877379307622 -16.0443600255749 -10.2392172276768 0
-90.1505653293237 -1.25055905528737 3.45579222536305 0
-73.0722430817573 19.4504862651022 -15.4380455425519 0
137.525712743969 -7.21776296000037 6.06458712633886 0
-229.268264610156 -42.3293717297871 -16.7943979776671 0
133.218795914073 16.3451824385649 -3.99641209107055 0
-55.8084172652224 3.50262030410517 6.63427467008699 0
-52.4120319899151 17.952422669334 -2.73867718046511 0
-57.1139161310343 -3.51395421027815 -5.2125545344745 0
-87.3260545466257 -0.0651202229457676 5.22015197058494 0
37.5895176376324 16.1177503000655 -4.7288820127977 0
-108.013707076806 12.992621979739 10.0411930384126 0
-75.415865785494 9.42236144386142 -20.2984108022425 0
-205.691562311099 14.4958995020384 -10.2194904660603 0
-236.280858615486 -30.3381232341291 -23.641684664084 0
62.5074219395291 7.87392685346514 -20.9661255923878 0
-196.937475448463 31.8862937178077 5.72174323391525 0
93.8298955755316 -15.5938635541032 -9.06476008835195 0
-185.063008096529 23.9760417475028 -4.01719417097166 0
-173.153492464978 -10.6993096127618 10.6513513026315 0
-72.0075211366841 10.9271602108799 3.94566895884645 0
36.0921495676239 11.4662534355287 -20.255481004908 0
-206.051117670683 -14.901527427154 10.747529858886 0
-1.72437170687619 3.2729426392936 -22.4847932778917 0
90.8917471497139 3.90369781994791 7.07770788053232 0
-205.220074539496 1.57892990247078 17.3431884477759 0
-208.525697460219 -13.3927779215997 -10.6956595070757 0
-230.631919562878 10.0554336466576 4.45665346197811 0
-122.328247100754 22.5720688940384 -4.44485969929479 0
-97.63136726694 22.6375892850731 -4.76324942667016 0
-164.928714044934 -8.6297575260672 11.7358812780531 0
105.588730040018 -1.77750889660558 6.39903017484466 0
-27.1917188119599 -4.76515953003878 -9.55767601147301 0
-247.085201841758 -19.3794191167092 7.05543958527894 0
-229.335486564316 -24.3289150794846 -25.1462657099765 0
-212.684500486191 -34.2492348347461 -8.49899399763212 0
130.768783785239 10.78895476736 8.97664018666037 0
117.938769875236 -6.51001769691993 4.85326285915375 0
60.142537464817 15.9272374872271 -5.21356055381427 0
-245.673402348099 -40.8154513098296 -1.05226595490685 0
118.040823269955 14.9911176970623 2.32643520524055 0
-85.0545745384458 4.43061271424299 -18.8999698574487 0
-28.3840614149629 15.3825155502382 -2.35287971143183 0
-139.153934466784 12.5081033920663 15.6974251253568 0
-180.023506431985 4.28197585499595 -7.81621346690302 0
-148.561679381828 -1.19169182375048 -8.28181943703446 0
-213.438068404211 -29.9372166183423 3.15236457135939 0
31.509490200586 17.2301604731381 -7.84082608438965 0
131.854606445438 -5.75515801482015 6.36077808635979 0
-198.493952168762 8.18341617793672 26.148763038051 0
-205.122629725928 -1.03529102676207 -11.6851569556592 0
-159.603670353375 8.63070425067697 19.7856440789248 0
-249.901616267305 -34.3122596418528 -4.04658343102496 0
-100.538041715713 18.746469235279 -13.7217618024164 0
-219.523886457948 27.4123570129507 4.57251416587993 0
-215.450655359177 30.9377356172084 1.47835042508866 0
119.111062055346 5.01698410923423 -19.4041200723183 0
-209.364911581198 -19.4218089720111 8.55769606548487 0
-87.5085932097493 4.13789524356008 -18.530305147155 0
9.7213599035269 -3.19199014282176 3.02200193369804 0
-217.206795411365 -18.5070374879932 -16.9924446109724 0
-76.8849539058614 -2.13088167705056 0.558781262861578 0
-214.312218350537 -24.1657783647438 8.43899958229656 0
-100.492071658986 22.4576203711862 -7.10139252790937 0
120.928410994099 -16.5688680188694 -3.83124130030751 0
-191.100334345991 28.9953307871819 7.2527896387035 0
-218.603049165073 7.57426585031728 16.3513885831415 0
-232.394896330999 5.58710656674501 17.2626368016607 0
-129.357957063192 0.683050932788948 11.4658232345869 0
-196.304749606739 2.58478481941714 23.5472012654283 0
-222.332187712594 4.81296977058538 -7.99357651819865 0
-18.5499283621255 18.3697893089406 -17.1158360924093 0
-180.752288815229 7.21451949425859 -7.56976748139102 0
-22.9697218916003 -1.27433582237525 -20.0497083421668 0
-119.416061986862 0.56533826212289 -12.5922124281766 0
-239.308675449818 -32.5872881367682 14.1155023575773 0
-74.5430763871177 15.7031775884159 1.34748566515386 0
-208.60225333369 -20.8986582044106 6.97575939094927 0
-92.5248675524657 -2.11724292487019 1.84026367434675 0
-17.5847312583749 4.42773509662025 3.1249786253461 0
73.7420223734335 7.88375024450558 4.43016193721499 0
70.0706274210915 14.8187266344974 -1.7899919137869 0
114.563653614822 2.85041873320545 8.50304235612412 0
-114.505322591696 22.7399268962811 -2.28407356639686 0
-215.039533571556 -39.5415378728097 -0.525424755632798 0
24.011103041943 2.60774214328107 -22.1462715143988 0
-69.5324404474994 0.227150381027768 4.95552840109142 0
-197.396851783842 -14.6054942339367 13.0096961268292 0
-249.003768869762 -34.4299702156775 -9.44917392158485 0
-240.486069473961 -42.5576278472165 -5.80958157904933 0
-232.450368566599 -45.8861380868184 -8.23540063437981 0
-104.309797131321 14.590932756706 -15.9080564859106 0
-133.170191567719 22.4100654749149 -3.97690493823389 0
125.104848028031 10.7032110163644 8.32516034717111 0
134.107287377801 4.00445449951934 9.75020746399217 0
-162.60420477179 7.11142192294535 -9.09715267504994 0
84.1784931090427 12.8233671851239 2.24357002755721 0
37.3912327071019 10.1145697414366 0.677125607127999 0
-221.735312195162 -29.6698219347307 -21.9549580914068 0
-196.759567923736 6.06061140371845 -11.031152926546 0
-214.679320549679 23.620909347495 19.1066916506037 0
-94.114961198869 -3.77454427969238 -6.70135697908111 0
-207.438212930411 -21.5248211150843 -6.05001185291335 0
85.8166747681222 11.2128457282794 3.81421703498156 0
-226.559220905631 -12.3978799573349 10.9718564423465 0
-191.75699578087 -11.5389845247752 19.5152282058782 0
71.6500112852515 15.9833362777784 -6.4800655108219 0
-185.862254737113 25.5595385391757 -2.37580293336129 0
-26.5729229380672 20.5752062882749 -12.504194971024 0
-240.333692856236 -35.3743630408314 -19.7773071424088 0
-52.9454165429507 7.90670239797592 4.05686819203193 0
92.5677611628773 12.4770393035835 3.48565364316115 0
-194.132329839556 -13.1173473541993 -3.18360799468427 0
-198.274873852167 17.590024818512 25.2094924541572 0
-158.925871564245 3.30348905786932 18.5304286590728 0
-172.177246009041 -11.0746381899689 12.4588461326962 0
-85.3957314183485 22.4366394128693 -5.41897030858915 0
-245.839888095589 -33.4190526596369 8.54283947882483 0
-235.197651251365 -44.491280351137 5.93364250697677 0
-212.566745949047 22.7419014180565 -8.76289028853452 0
-235.584402898005 -42.9769701234805 -0.420048634520839 0
-189.633425727075 14.6814554434648 -7.6134956945387 0
75.0964216206535 -5.30986090025639 -19.3399358875336 0
-204.873098815939 23.9406131476201 20.6032277725715 0
-38.405296809533 19.5467480254546 -16.0450662498829 0
-216.122550395383 6.44834868419491 -13.2703799927122 0
-81.520894803169 10.9247751853092 5.71503191903562 0
106.60024217188 -12.9615445854285 -2.53990721663208 0
-33.4829845247895 7.58333726119814 2.13144241653522 0
139.22830488164 13.5244820018267 -13.7644054231273 0
-143.849877540827 10.2472153992664 17.3066102596996 0
-214.52098700888 9.52921568999683 -14.2910192140267 0
-170.688180873757 22.551969321711 -3.07396453399949 0
-217.620412066462 6.14052653018729 -11.2122553764653 0
-8.82267507531546 19.6334473412506 -10.091279059786 0
-226.206536235137 -19.8669315140151 16.3929343261167 0
0.468773372018046 -5.67173796171405 -14.7160465484 0
-233.059434368023 -37.422402658168 14.1258901341127 0
-102.069951734967 6.90939372873645 10.3084851316993 0
-220.603594167175 -35.8633982910844 -19.4377745750478 0
-2.54075398329685 -4.18900894677145 -2.18340786091832 0
-227.537399475921 -9.56469464627812 6.53711767816972 0
-65.6570428979438 0.446267680846841 5.10231419779491 0
-57.5536747881264 2.50245128077324 6.23362171112382 0
-238.718077124199 -37.1839686675078 -19.5708088524762 0
132.620788179858 -12.1365563362871 -15.5537642919774 0
-2.23247402202883 17.0268911994361 -17.8499014007259 0
-211.217978277398 -23.0374315497741 -10.0880259435749 0
-178.704391815596 11.2363588845835 23.4832256919925 0
-205.009356920895 -19.9402019988315 6.94416165503573 0
-161.849608905978 15.2165486718408 20.1430582329799 0
-51.1232715783776 -3.08791939391757 -15.8670309154299 0
-158.883527788849 9.60157464955916 -9.38459903537711 0
-161.250986819276 15.0484442866156 -8.1150717164539 0
60.6254019059729 -5.08750240998422 -19.5798974497543 0
122.521433776365 -15.1850060679697 -1.95638173737931 0
-234.55219099784 -12.6480075862236 -20.0060523260539 0
79.9139535260682 6.9656619177801 5.44602101340863 0
74.3542571432733 -10.1688721934597 -4.43015954507 0
-46.6166519689378 -3.46670268041445 -15.4851992706091 0
43.3032191962653 16.8194293805975 -7.93137855607255 0
-120.070397467898 2.50917287953184 -13.6319436271489 0
15.3114968792259 14.6697432054294 -2.58175341732237 0
141.327152813953 -19.4537115242345 -3.79663188351587 1
-242.265989015603 -27.0890273380131 13.5363946174287 0
-13.188503829657 -5.24059742502655 -13.7032449146684 0
-218.514421679313 2.76181385173433 -10.7775516489245 0
-200.258067127866 -12.8090410899223 13.1839263425636 0
-97.042429051528 0.537874239646173 -15.5233546908014 0
36.6899512097097 13.870333249746 -1.63902751008467 0
47.2467835720248 -4.18405342887675 -20.0006588482905 0
18.1809043065038 -4.49776767977053 -0.113555732356585 0
-223.756326301474 23.6540062897993 1.30829366656032 0
-171.321779231399 5.71284114658085 -8.19858713458788 0
67.4689478768437 -0.625877477931185 5.94379031495526 0
46.1844458035251 16.2093376738627 -13.4835942812356 0
-232.400136665519 18.4599941561005 4.70785555669448 0
-171.545561385653 -8.05945889384486 3.79183914132221 0
-216.837543597148 1.83401188851606 -12.6969730466579 0
-84.3939317549623 22.5975631069455 -7.83778470185498 0
-19.3904624831474 -2.60613473693486 1.07690419897991 0
-227.964293082246 19.9275507963565 16.7668974963412 0
-157.768566650096 -3.97787185573968 -4.07029473318079 0
-214.005419873958 -21.2115204988867 -13.9020513210526 0
-117.651665668307 10.5812728805706 12.8780696239296 0
24.5235064058222 -6.06187196223306 -4.03746688393864 0
80.6874884812106 -0.686353719771545 -20.4661802326635 0
-248.535446167157 -20.4292442488829 5.25859855080824 0
-224.161420237921 0.172528914234374 -7.32474210037315 0
-114.831175348901 2.01243199760829 10.0186028971463 0
-237.289543077063 -38.959145074296 11.722319948887 0
47.4510635424779 -2.21963599274193 5.14936094428757 0
-105.527193477956 12.8741102847021 9.6176754688887 0
-134.571023586571 16.9238435288527 -10.2167092454001 0
-176.166984346683 6.42082490013924 23.0461146248032 0
-235.772712050455 -21.9375919827799 -23.9305238144767 0
-4.78039439280105 11.8671590768299 -21.6585313490619 0
-216.763556794861 -26.1581112877936 -17.4522545026446 0
-194.65044866348 30.4314510887907 2.87533818530415 0
-230.267682280339 -45.2159097630472 -11.9511048072419 0
-173.957860614732 -14.7090307343942 20.5067010962257 0
135.285115998727 -3.56504463742477 -17.9891369413951 0
-223.66399679566 -11.4093447255733 -17.532130500442 0
104.377961380687 8.23868975925523 -18.8908806779728 0
-195.017403042312 6.44457210424146 25.0189378537026 0
122.550014349038 10.3387741246991 -16.9675052615596 0
-150.072272470417 23.3981879525224 4.05535286774161 0
-184.423784085415 19.0542149978871 -6.48080831890727 0
-214.221048693079 -25.5118230029545 -14.1841383747915 0
135.569930230086 -16.1399825024506 -13.2991985493899 0
-231.41443132433 14.9352117182152 17.6007252133887 0
-47.744602621582 9.94818100235959 -21.8619581144373 0
-229.633768093441 22.4488575122713 8.1375073883154 0
-217.579508185972 -34.8570094519637 11.0740734498266 0
-133.363648043956 12.1331945154047 14.7105612467941 0
122.14968067838 14.4442153493933 -11.6804018753219 0
-145.732531286378 17.751132242757 -8.30280243275426 0
-110.199521580161 22.0407568248912 -7.46843745874209 0
-18.0629221186982 16.1633355197137 -19.4324735430166 0
-232.559053764902 10.8752478190166 5.02851021871364 0
-205.042023668482 -16.6850820569318 -6.82982723232528 0
-71.3701317252615 -4.08083048037899 -10.756605996706 0
-129.029641413351 13.5889798827669 -12.7194102147545 0
61.7277139940435 0.490382019649296 5.9249383679991 0
-216.744267968122 29.6473546402915 7.95429187156343 0
-147.49363313914 20.576052748427 12.6584853731215 0
-193.403503568971 28.7112705090158 -2.09696174063027 0
-42.8579870274661 -2.61420775878454 -1.14450350439101 0
107.135250433551 3.39084239591499 8.23194750625089 0
-200.617181413882 24.8874308917505 19.5176271218362 0
127.202348289679 -16.2121700391507 -2.16991735830067 0
-134.202614046473 19.6200620961132 -8.3163960630223 0
-235.199209084449 12.8413434591564 12.7000184547463 0
-60.4490988239141 20.1779576371824 -4.01909683735385 0
64.5185837405832 0.598289932943344 5.97927352074263 0
94.9371720025356 -4.67821665472822 4.50412043836188 0
10.3107731988469 4.57402250761234 2.48307641676729 0
-26.8556282639572 16.5943637169205 -3.26580305068653 0
-191.529720104227 14.4893725166227 25.0541241005522 0
-66.9677743120289 -3.38558763823502 -13.8290346775927 0
9.24261673244781 9.93709000128523 -0.0580378944707764 0
59.3143206817488 16.2923933920176 -10.6897475183724 0
124.939647411323 14.3106645559312 -12.0452963454087 0
-89.8142189046337 22.4806204682019 -8.50413816132132 0
-95.6057894243763 11.5693620893685 -17.9897513340431 0
-218.650538557523 8.61976316909374 -11.5280030082286 0
-219.865965648574 -26.6053880991264 -20.3667765939365 0
-64.4273548186188 9.55978378271439 -21.0688651016832 0
-191.67083373196 25.3635026966909 16.6440438581555 0
-160.193468894474 -5.08386841815112 -1.46154012740032 0
-223.625311189689 -24.4060805577781 16.1788525961481 0
-185.570469386905 16.3798066411612 23.7604673628818 0
121.156165173554 -16.0953367137579 -13.0885153717722 0
-180.989901297585 -5.92330405132825 -5.33076541867009 0
-108.574948403905 19.3395749885402 -12.0241292810826 0
-213.890323839901 -16.7373004940534 -12.9913611003401 0
40.2036799174357 5.15312142398778 2.95983174529043 0
-193.036585723004 29.0735279286163 8.75419265517696 0
-229.799069823008 -43.8408575428645 -14.6416803777155 0
-205.799702291868 -8.34545769380718 -10.2573831065109 0
36.5808305110952 -5.94421422920662 -2.50346554419775 0
-75.0041209188073 21.9630455121596 -10.9505212537812 0
-133.189780085656 18.2270816943825 12.2560726420421 0
10.3223543664795 1.86489217668329 4.18532956142596 0
-199.793638650119 31.0027739892716 -3.67855973360771 0
9.7836313310066 -1.90359176713923 4.54304783492804 0
-241.034323427822 -17.6504130897837 -20.059132547688 0
5.49645907048982 -1.25974092263265 4.65330216178673 0
-203.063398559591 -3.76143720845384 14.8396785174306 0
125.7867725397 15.4720023915639 2.19776918208548 0
-187.505733163271 22.9228898438896 18.7021130259268 0
-216.213867363779 -37.2835707387531 7.78470175603402 0
27.2188633080514 5.75028923546867 2.19344036159457 0
-211.48767081727 0.103942246862506 11.6380245957563 0
-74.988717389209 15.2513189629017 -18.668325339172 0
-215.845908544469 -22.704905882928 -17.228281197931 0
-196.543706568952 30.5402065255881 9.11093727343813 0
-192.834325016754 17.2114515057055 -7.17177117865816 0
-171.759752251344 -9.79984324225986 9.11005602177319 0
-164.480907068726 22.5744290092679 12.3149063342425 0
-209.894979287281 9.23254595922658 24.352329613771 0
21.2847803899396 6.90614213320493 1.51264823897749 0
-103.454453455889 16.5870228969505 -14.9501134574329 0
-54.2085564112808 14.3890937635395 -20.3747292189389 0
-250.226123210033 -22.8138423005739 2.58180586676568 0
-189.361432462651 11.6198340975287 -8.05581392269619 0
-226.150466083143 -45.6016281693529 -10.1184252799589 0
-223.252370543939 17.2083618536572 22.0162065026526 0
-143.286079736307 7.21237132605382 16.5695681412644 0
-28.9303801210126 1.3040732543477 4.75128898603309 0
-219.582789469231 15.2625162464832 -11.5666298534841 0
-197.893318042344 9.78983660991967 26.5629545940095 0
-141.043188336038 21.072708337363 10.3636612473871 0
-221.657107510687 -17.5197320873832 13.4128260903225 0
12.2306422889823 17.1847435694454 -16.2501882480286 0
39.1016292245862 -9.22617549948315 -14.3641029414917 0
-211.946633558306 -3.19391112636088 11.1973494032191 0
-184.574271101876 -18.5325770021335 19.9095115708361 0
-241.472927624784 -38.5012035955008 -16.5574197733292 0
-159.253791173708 16.3887320625307 -7.82957206748635 0
112.718952012515 0.442505518306794 -19.7737534499867 0
-82.3051069375488 5.95133071987792 -19.5447995366447 0
-28.4404535946759 19.1795087643058 -5.87460156272934 0
103.343180955595 15.5197884263663 -8.60519698663648 0
84.8272134200136 14.4942354564576 -0.162788018189256 0
-89.0322229660479 0.852381013029225 6.45437216709362 0
-245.567021129198 -39.1857637192577 3.53280354481451 0
-228.079006111349 21.1759576492454 15.147621841837 0
-76.1312871052646 -3.92851181128227 -7.16246359367362 0
-93.7926341638666 -1.86573441972889 -13.3754001515804 0
-181.825490361513 12.5710601154777 23.9601274653865 0
-169.243237352598 2.53651279786881 21.2282084315013 0
6.32973669429654 11.4240282120707 -0.74741497022777 0
-234.614611609351 -44.2953386136915 1.19677221118194 0
-87.3607210268339 2.02062369646178 7.34596775601223 0
-202.008055415536 33.4339193536621 0.13653500652231 0
-49.9751102395026 -4.0330098795704 -13.01823683025 0
-232.970206594792 -7.71385049590805 -10.332736105102 0
-28.3816431478233 20.5688008283613 -12.997778044891 0
-243.904872834146 -40.8182402432657 -9.23793195702245 0
-215.043297709906 -15.8808293491184 -13.8350343018749 0
-186.852226210936 20.4892208527499 21.2907156293357 0
-45.5373628135532 3.2200112431291 5.9284155662353 0
-92.9312183358369 22.194941017296 -3.16209333551756 0
86.8266122596724 14.8439985768388 -12.1709539805261 0
-223.915179008957 -20.8316259336173 16.0900474845254 0
-96.2813740398533 2.86147393076985 -17.0000653764287 0
-231.173494291024 -11.0247813374012 -19.0070080880628 0
2.67800696824502 5.40113613529723 -22.6704118649715 0
133.6625303351 -8.98416845558665 -16.6283050025538 0
104.634005208477 0.784817026468632 7.42185664511471 0
76.3547698547336 -13.2581633642199 -13.2647604337847 0
-29.2545907396081 20.8732759364801 -11.3149704141547 0
-44.5637257495597 9.29090263162174 2.07352776250833 0
-110.197385150193 18.9309248766322 5.62165824748317 0
-165.140849323665 0.58747259161872 -7.87635160841738 0
-208.072714735395 -6.53864281644744 12.1236207631597 0
-206.877318768092 -5.55731502740916 -9.82235593898589 0
-57.4081247842702 7.04436559815444 5.65622653793859 0
138.927376384856 14.5190123877861 -12.2856058816146 0
123.486417331371 -12.4928636272532 -15.4800136611245 0
-248.162374375988 -15.8316160247048 -8.2608369679499 0
-226.527640091372 10.1541401363975 -0.0146685014449569 0
-23.9062814901314 -4.29880248916921 -15.5429682720467 0
-191.278769486836 -2.10935574682737 -8.9347999052288 0
-203.500176573708 -20.2321684681467 -0.857559450888884 0
-187.555878060474 -5.94012846332355 -7.41413481843433 0
129.927147911335 10.3610470526444 -16.8499821034441 0
-246.122657126948 -13.6046234550266 -10.3147932764853 0
-27.1170288814304 -4.20658447538748 -6.28147894502236 0
-95.6595264495061 13.2869669308327 -17.5272776631979 0
-49.2891536497591 -4.08428999342377 -8.05507094699352 0
-128.736905645999 11.4759116280509 14.2586931979552 0
-226.054638434742 10.1209986890841 4.93483787403393 0
-203.179819244489 -7.5056516565271 -9.87707058929072 0
-106.117201526022 20.8835691975849 1.84258646922287 0
-250.927213323597 -31.2961414913179 -4.78715066066435 0
-203.798602884537 -3.07081902039453 -10.9815259412352 0
-232.484140883048 -31.3982935149536 16.5776077288603 0
113.004768047787 15.5137832696912 -0.24484708193964 0
14.3037740051273 -6.70061539455773 -7.96418577521978 0
-183.247253226143 9.41739831910946 -7.53076624653636 0
-226.386525909558 -20.1424362901344 -23.8769718072406 0
-24.2426060480881 18.6223418537822 -5.40095243087523 0
-147.45741682135 -1.27211736119248 14.0748224548964 0
-6.48951396528535 -3.42137322101458 -0.111834210362531 0
118.055343729748 -8.81144161905373 2.86225440057873 0
-143.200197784381 -2.35638714864077 11.8959460158761 0
-190.825907418071 -5.27211263254736 22.2017125244867 0
-55.5307604455211 17.5572058749006 -18.1606591125732 0
-219.819490990938 -7.32961361674636 -14.1171900663121 0
-207.35081414237 3.73263778429395 18.7185641853397 0
-14.2207663630261 -0.820312983734408 -20.6045448389646 0
137.021034604202 16.2254308821646 -6.83956490158318 0
-218.725181337045 28.3642822139133 3.25478586682114 0
-188.138623071237 -17.7026062994763 16.8796798453275 0
-58.2897523827657 5.91137889887143 6.73089100985836 0
-149.397286687933 -5.2731353720492 5.096560376144 0
-212.73338944026 -11.2296478252484 -11.341664643256 0
-219.60033083592 7.6190666151919 4.36928093792962 0
-140.019742517722 10.124657393304 16.621646844478 0
93.8598256363752 -15.2820002812709 -11.9575109686725 0
-173.632587895149 10.0480667656126 -7.78808804393534 0
-229.800593120452 5.23097876233549 14.0983729196879 0
-145.581929530585 22.8601278109803 -1.13323542884637 0
-104.51334340381 -3.35288890873317 -0.19589087679538 0
-240.91153841076 -25.4681814673314 14.3952733294967 0
-46.8026012388079 -4.21810201786816 -8.91882029053702 0
-43.5810545438087 0.000590840977581379 4.08786485745177 0
-214.26190819422 29.5572933515966 11.0899807229585 0
-219.206696494046 10.4063438984195 -11.8469093929092 0
-191.482700113754 6.72003065896769 24.82098256561 0
2.52688815282335 5.17535847213494 2.0768504179309 0
-157.691224843797 14.7346681487819 -8.56538372513857 0
-177.259412780809 23.8073809903287 -2.24569967025267 0
-156.169116393244 -5.65035595311647 3.79332041408458 0
-174.940433787665 -12.5481209406338 13.4080686758192 0
-205.005970676187 28.2131043655329 -6.52947558357862 0
136.099742179225 -9.71740352924599 4.37531133107735 0
-164.334823874548 17.3786614817327 19.5838785579641 0
115.049846551513 9.73276839573687 7.7366880361319 0
-200.161382603491 1.30460068348112 18.0003258907879 0
-126.484532924245 21.7799200691327 -6.24504634718734 0
-15.3768794209842 3.16854609050194 3.96401727402712 0
-173.380834763824 -11.8680452263073 13.1937944324626 0
-124.336890376506 4.54877148151302 12.6262012798396 0
3.65277229015575 9.21935869414683 -22.2998460983989 0
-1.92426591186794 -0.733147122538146 -21.0975913499641 0
-201.267446793361 29.8746545082342 12.8966960201506 0
131.66290384033 -0.854964212138179 -18.7849524079755 0
140.639077983113 13.1102926361703 -14.3685465756608 1
13.3654921003125 -2.18474424468391 4.40664433968413 0
135.960316188048 6.03872964152382 10.3465300249865 0
-223.885378408088 -11.9299170457092 11.0047201798295 0
35.9696886308337 13.6629349631844 -18.6094328472098 0
-4.91406316032859 2.94989723030508 3.74810121987642 0
-230.880721353567 -18.6570720990579 -23.9493893492728 0
-140.720735773956 5.62033238518207 -12.0567085996233 0
17.6610746777267 15.1505622372328 -18.5407803238824 0
49.2062752123914 16.5075289812251 -11.4154828041063 0
-177.787084299074 2.45160796940718 23.2593898198542 0
-107.547162846048 15.4534921562323 -15.053150585507 0
-70.9243398181193 21.7008938355165 -11.6692191694989 0
-138.042628035237 -1.61957734724671 11.1401334748863 0
-180.786297626664 -14.9559825737618 12.9411314456885 0
63.8977759842252 7.03777599767642 3.81464392098301 0
31.8140578169432 8.19935002338175 -21.8054705036545 0
40.0649460181134 -5.11599258788627 -0.364616636749881 0
-233.734009777054 13.1448779999564 7.05388928902963 0
-133.07960405438 -2.62038888012271 7.924628768094 0
-132.877485215161 19.9769225231462 10.0622964596597 0
142.663203803333 -18.7194944676928 -2.18103109260028 1
90.9611563536557 1.58667105360896 -20.5816699602647 0
142.922759560752 -3.43566081111649 8.03824188209627 1
-127.250998093331 6.46524050942411 -14.0162108811127 0
-64.7721469826559 20.5378357939175 -3.95414215009665 0
-122.677680125117 3.31104264561285 11.750647195064 0
-231.213794556912 -44.3905952581615 -1.82493417210399 0
-5.07766336306459 -1.13367660160764 -20.6929830622133 0
-19.4529125084259 19.3818908968088 -7.20736358314071 0
-38.5072310794392 17.073921802277 -3.06119045963024 0
-176.504622430126 18.8348843191911 22.1041098588245 0
-135.864805099801 11.51916223151 15.4240361011612 0
106.879854418029 -16.8657173348284 -10.2626883802503 0
-212.103222621114 9.2326602118312 11.3072798611486 0
-122.696555781684 -1.65023925715091 -10.3908598534294 0
-176.451767601593 -15.242137222986 24.1230978995868 0
-184.489402065127 -1.0562099892527 24.2293961745715 0
-218.534601585806 -8.6189706642427 10.7060360239453 0
-127.451638013073 16.0183588608664 12.4980293509211 0
-20.4431454600963 20.1679740193004 -13.1819138615889 0
105.521676865127 -15.0577178627939 -4.89582928150739 0
-23.2539382430427 20.497881954184 -10.7106290090446 0
13.9894804916356 1.46016106024359 -22.1055726490681 0
-100.936238098516 2.68435321318723 8.7251096347971 0
118.328461539684 2.21472986667439 -19.7352785857564 0
-224.171993340495 3.25981637908585 -4.59013529805077 0
-34.6526573841552 21.0357283147945 -9.559065842138 0
-209.350829370606 5.91394132625374 22.0319164009555 0
-188.97403120561 -12.8354063495587 22.6118543168423 0
-218.18235263566 -7.2868803347301 -13.8062452998186 0
-205.168891805443 0.982059295452463 -12.2453617337393 0
-223.297574676793 8.44776141023708 -7.66729669873587 0
70.3798763313236 13.3227506834336 0.480090392859423 0
2.15626907644437 -3.66955288845983 1.26473624803278 0
-24.2937427935334 -3.30050107514223 -17.716749442718 0
102.187647806954 11.8569279394337 -16.3360403865371 0
89.5257723651671 -1.18183490189854 6.19516263051431 0
-58.8108775611212 18.2882796487836 -17.3709277757 0
-18.8462122210745 10.3901677308818 -0.051133489681621 0
-207.636306176486 24.2484061382748 -9.07187347562061 0
-116.309651681848 9.35885893374417 12.8542154535188 0
60.0825007377736 -11.733150120579 -13.0714051908456 0
-195.890570827089 -17.5986238273196 7.27333596301059 0
-161.33759160051 23.8601411766546 7.07963118469998 0
-17.9375934051742 -3.06639597463658 -18.4550839597369 0
-213.60886721253 12.7748158267157 24.6315530520593 0
-48.5558066368548 17.283623151511 -18.6623570296003 0
-234.148280568911 15.4444059517643 7.58219049245996 0
-223.886410684016 -27.1015720977167 -23.543723425727 0
-50.0013324750328 2.18872931885468 -20.749740647191 0
47.949172249147 -7.91681519111267 -5.02702496515616 0
1.64539299515339 -6.20311347454141 -12.1405648849075 0
