216.261341145408 31.5006376103232 -3.34134441512654 0
160.585924488559 -21.4114047101054 -0.139050916778213 0
206.616544136591 15.2949977488726 -22.81361850142 0
193.877869321654 1.2938287571462 -9.16901453073225 0
192.098302446611 10.9498727439303 -14.1690592022734 0
212.072906349344 18.3254579494113 5.80858021626942 0
166.084441661281 -15.3096044929819 -14.2609033940207 0
169.210919238787 6.33843065324594 20.3006660069218 0
55.1077431263575 -9.8611839335117 23.068409223677 0
142.086020359361 8.90762280740175 -2.6266771954237 0
184.675342057853 11.2075975497352 21.2527149866448 0
196.006394006032 -35.7565207739549 -7.02693370291233 0
39.4666763577943 4.62712828992173 21.8239520878006 0
170.579182946249 24.3242944918534 -8.12847504386617 0
214.766958626057 33.1201473354149 -22.9114112396976 0
162.301734957256 6.83555076467484 -7.72019446744134 0
43.8276119286238 -16.3124738079312 17.0753920601123 0
50.2632147418278 -2.44792987479252 -2.69389296465963 0
184.665230923399 39.5660866439489 2.62900416333643 0
195.595012200072 16.3770361031997 -18.3995169590516 0
14.8336376771835 6.82644133568908 16.7395252015829 0
175.285474572639 33.5470125389152 -15.2390721341056 0
34.1356105756625 -16.9096243970854 11.5726436658546 0
127.432359016064 -11.2559290713111 22.2698759714113 0
191.232224374768 -9.71294350498859 -27.8846398637891 0
8.65198141547341 -6.1959203540922 -0.538759871441188 0
75.5250014624419 11.1439821420079 13.8108310569934 0
206.610547395196 14.2478173144697 14.6768976560535 0
80.2916882125712 -3.34695778936154 -3.41054640586607 0
192.203525240558 -25.661884560712 16.9717297253081 0
197.050899670166 -6.85729196849589 -21.5190437953824 0
188.243821666817 14.431115095792 20.996780092559 0
211.995803099103 14.3509826741483 -12.6370005386221 0
77.8440527689722 7.43015930836598 5.35012377200585 0
205.178574986869 20.4305146268384 -31.5160983786291 0
179.893236394331 -27.2896418056697 11.7783753386758 0
66.8558685097225 -15.1927681834093 7.91567173119576 0
202.040017746059 24.3018145118751 13.0194627312408 0
208.321051115401 16.100340560936 13.4466947091842 0
202.430261194075 14.9546760153496 -26.1068162765145 0
129.803480858415 2.50855604376506 -4.2221512605145 0
212.96362623312 19.9155705444655 4.42542823657977 0
149.766149894193 19.1748266938222 4.93175694409568 0
30.1363044295082 -12.2964484126083 3.68780914741921 0
174.742631062905 30.4806952851955 -13.2943709694436 0
2.32574842420021 -18.7641267202452 16.0513234792286 1
154.747711248495 -19.6969545130948 2.77553145857933 0
176.841847190335 25.3330998682387 -21.7886382699578 0
179.209390544603 30.5257071062942 9.08648065529716 0
180.316164487088 45.254660703903 -11.1876484594556 0
175.458162851575 43.135483186356 -8.62375447133585 0
179.730021865752 44.422120971264 -7.60640668039521 0
193.496565228107 36.1796716406219 5.27320712343111 0
12.7555172463537 -14.4113610287101 5.15398455316597 0
173.580600041424 22.8600233326793 14.5589858416812 0
178.463167998697 -34.5351721711298 -4.43861345880719 0
80.4477203866113 -15.0452660441002 7.29829596103215 0
21.6365673457518 -14.9601281612591 6.08653524477759 0
152.432793653571 -19.2865966831254 5.24152309595369 0
195.388174346604 -25.6163019652208 18.0359794763334 0
194.897262124574 -34.5048339612391 -14.7961337242357 0
30.6758090841545 6.45501901392319 19.683813540173 0
36.1805324340578 5.0359999077872 5.51714830277706 0
126.344591366147 -14.5336183367348 18.241816357784 0
190.689556852431 4.72849166121785 21.259055715901 0
138.284580310517 15.6377979383128 5.43263211133481 0
48.2267350931007 -13.505908441388 4.86112182713186 0
163.023096857904 5.4923213638549 21.074057593806 0
180.356074081094 -31.7049793921574 3.06510375494307 0
200.89101704334 39.6380678377738 -2.51845023180837 0
172.580045510629 17.8709828755999 -11.4779472064937 0
111.53135240141 4.54722305468054 -1.00159189273168 0
208.071973530314 -31.6496207541482 -19.3534160998924 0
163.47397004706 -20.290053807669 -11.2405397809298 0
195.194502727663 -13.5910295175259 24.6283583497213 0
49.5508558846645 8.5688665617183 12.3056697906379 0
213.530807739861 36.3043600031115 -23.5499087811251 0
174.381102134777 1.05701633618262 20.1779411479603 0
193.206582819367 -19.1300281375561 26.8800506035687 0
100.961735329241 -3.32364801413478 -5.57123784366661 0
3.9037448917533 2.00038801440858 2.34240695290529 1
182.44068944333 -1.94854544542216 -19.2825397078691 0
63.4298083674425 5.20826406787908 3.89966159148434 0
208.491647423318 -15.7937279879712 5.46973016580351 0
145.796048115957 8.37657042445023 -3.65758968843186 0
108.620461272037 -6.22544881390452 -4.37495121999256 0
21.3138360807618 3.85915482604285 4.70179914052409 0
161.077719207271 3.84448694986723 21.3769205181287 0
121.971755379885 -12.8786638095274 -0.422651495751966 0
196.468248146438 40.1284854445979 -0.237990238751785 0
135.815309710365 12.8971509243241 18.1710224566623 0
152.773241188336 -7.82834354644309 -8.19799349946282 0
177.505065495685 -34.3565914742078 -16.6149680232017 0
204.427392903769 -2.20022048670244 -3.86393028263923 0
129.014710485154 -1.68925810884828 -5.48170573381818 0
70.5999122737015 10.1164036543411 17.5810177682674 0
165.4703439185 -6.52779785148021 -10.8385468764378 0
33.981594087857 -12.6149351561316 3.97394870989549 0
113.99981730213 5.08531900473371 -0.896576106456325 0
58.7533626914048 -15.8416211134503 14.7979879855275 0
41.8920968257747 -3.9548666161154 -2.02411400100328 0
44.9811864419436 -13.6110580716585 20.9923826050572 0
191.961017668086 42.466545661943 -21.5372282719287 0
203.366795862166 -4.70340132189488 10.9212595939027 0
208.092745297329 -25.7630852545574 -21.2761399322301 0
210.871078831224 17.6011908861831 -22.9318309936065 0
176.612468258143 -23.6521488687313 20.4419097215108 0
18.6537568795699 5.16949028764035 20.5171089370674 0
16.9453492633015 -3.80543364232166 -2.11854635013738 0
192.803573890791 -28.4596972141885 9.70476646753936 0
30.1696216240555 -10.8241718743062 23.1220646445641 0
58.7790242897296 8.7296203464137 18.7829598234505 0
166.595380941521 16.2832671238124 17.6326780491312 0
160.208033235604 7.41784522325344 20.4729316188772 0
114.593320392933 12.343027336329 17.3753338168028 0
150.061953641662 -18.1730411784772 12.7726117092833 0
112.751195556211 8.40916375389579 20.3895836587841 0
139.606749342489 12.0091119497562 -0.436174473473366 0
60.0308527410969 4.21220821228289 22.3357121363245 0
120.664207555424 -14.1826181628571 18.3037775393556 0
136.718018456835 10.4974904199972 19.5705558751519 0
155.290543523773 20.8722475025754 2.69127539334582 0
206.174349319309 -35.1997733061723 -15.2977924781966 0
193.108194914545 5.87583033933207 -11.6537215893861 0
65.5854196509344 2.47271649824669 23.136391104301 0
164.539999216111 24.750763614525 6.56241886014802 0
173.396499894507 -2.0664092053981 -13.1078003173262 0
136.173995510193 -4.10768310414015 -5.91223646745064 0
169.232787002898 20.6943829431286 -8.67953675464001 0
207.85948676593 -30.0785270093207 -20.7160863014581 0
208.641586736967 -16.411905525152 -5.92520835686334 0
190.283686862572 44.4400366345181 -11.1241953956991 0
175.691833844562 38.2649645728765 -4.20589778126745 0
205.061640183547 -35.6704411826886 -22.0972036962499 0
81.2608040164725 -15.2721678605339 14.0229505775064 0
206.912728793721 40.3020258376537 -25.7670233124687 0
78.6537646232005 9.04837651755648 19.532219847709 0
128.451066923476 13.3670239814892 5.36277325882552 0
183.714984115795 -0.820441844896991 -18.1254165320251 0
173.07611380548 -29.7385936423584 -3.2829254274043 0
33.1812176517631 7.91432701403377 15.4170839398219 0
18.754422105442 -13.6071157237478 21.9302980489677 0
109.133144813213 -8.95057051223511 23.3828589604715 0
176.838936030683 -7.4201528398866 -18.6079749049882 0
192.138703580901 -34.0289432622151 -20.7841352743619 0
101.86324490176 0.534243595491208 -4.69491652569336 0
117.838521619442 12.8648428463657 7.53575352138615 0
209.287238303025 -29.344112492276 -7.97934250814909 0
190.849971594597 19.2503595640075 -30.0787854733276 0
177.038741142521 -4.47970652741249 24.1846444616394 0
171.571954117091 -3.54486857909249 -12.4029300662211 0
198.688178666627 30.5146175410964 8.92264489568159 0
73.0646767365433 -5.8904285413623 -1.35015101292472 0
18.0662662287795 -14.715351944403 5.6547682667844 0
35.3425753969129 -7.76808094196142 24.0801758321674 0
186.158246573011 41.5482717618535 -23.8664136093381 0
68.9284819163072 -14.3803990254036 17.9755282072108 0
174.690385917054 -25.9823477492411 -25.3692628388676 0
133.751574888389 1.7444898379932 -4.77943824506358 0
12.497227748804 6.15017541404245 10.492843646032 0
149.838106205346 -12.2091977473105 22.5430107310091 0
174.693843248108 8.33016760765405 20.2030860064626 0
143.236378957383 -6.9476905171482 24.1643339020148 0
100.845958589989 11.7047104916451 17.3351969024527 0
55.2055787133149 -4.80024032004535 -1.47534959538823 0
194.477255356382 27.679936969631 12.5185486799769 0
32.3417397788219 5.91557483067284 7.72747970102559 0
152.261310397766 -12.9538761437565 22.1519442486323 0
202.929097718504 -8.10331381329033 13.8776017275624 0
203.890112550976 -7.63695231048423 11.8834622248669 0
193.641697770915 -8.37462291661774 -24.1513134254958 0
202.96525155979 -20.6511505714512 -27.7329463690135 0
134.862125448499 -12.5168000383688 21.658738282124 0
178.117874203355 -14.3231752556085 28.5147938054286 0
187.277095791149 -37.9659646980509 -11.7119874438471 0
181.749833652926 -27.4752715541521 11.8392361862718 0
211.396398604674 31.4860037455149 2.29827520868693 0
147.81661380437 -8.24017362252426 -7.32324881277078 0
175.424242480733 17.676455214605 -13.6847734364089 0
195.45648141324 -19.3748212616933 -33.0276776091117 0
158.602321172525 2.83749083747428 -7.47010942564564 0
170.225109969792 11.5356039124624 -10.4244350278516 0
195.78162226929 14.1157488819394 22.1735367636684 0
158.671358838095 -5.24453189021111 23.1097094058074 0
154.574069794153 -19.8177079918023 5.1201713726174 0
157.35424632845 4.46309989292613 21.493158056419 0
158.687572411203 -3.72615414246885 -8.63734762496826 0
109.991483074943 9.41238850545768 4.07847187003841 0
175.62594907663 19.6805156895174 -14.1741245858837 0
188.255373130149 -31.8992276701783 -31.5383955675186 0
191.58873479527 18.0812123404982 -28.7638714834517 0
164.559042882029 15.2610383066954 17.8568641761573 0
20.6064173182936 6.49880820070654 18.5957499456918 0
190.174149995564 29.4915583329561 -34.1366234558897 0
167.277425022785 -25.1313154501132 -2.84641502317262 0
166.543028251126 -15.9953638576364 23.4333953326471 0
189.44009467049 -24.5158352057168 21.7082118102978 0
85.0015255994564 -14.7027194614725 6.10978702833359 0
15.542488314509 -18.1290687853904 15.9916412614426 0
154.021251862497 10.6714213418076 -4.70061249575301 0
208.529413317965 -30.7756066517696 -17.410543598457 0
170.761435943296 -26.5351653202093 -15.3179323386539 0
186.444075575046 -31.132663906587 -27.1128215346646 0
189.058788768809 -36.127092418806 -4.23074332915734 0
162.376766357891 16.7091612206556 16.5204562428685 0
178.842515875893 40.6290818186909 -17.541459816492 0
171.770612872848 26.1669906941777 10.3219298605814 0
209.496028208377 -23.5605802532271 -14.6119968115572 0
168.487895987215 -9.64185105312938 24.5982908869996 0
213.283273760753 30.1314853840769 -26.3639579219137 0
176.728595068271 40.013482411369 -4.51160064208673 0
192.33636112409 24.5336946487831 15.1372226932135 0
205.317311481431 36.6852012576453 -1.38390041601281 0
129.456687873047 5.87406812710128 -2.36656618208703 0
204.414218511409 35.2711708305642 1.89507354297321 0
172.575922714267 -0.662854020561415 -12.3376375721084 0
149.201765455997 16.2633318122326 -0.194527929350548 0
175.63533681219 25.0341760899447 -14.7838050722209 0
178.551196274559 -6.67719202120889 -24.4132541514538 0
89.3014796259081 -8.51134487818126 23.3756064469138 0
167.757703092369 27.1983367998117 1.98283648288598 0
205.424496340708 -25.3480046460325 10.1891053869125 0
138.394771995765 -16.6823696404512 3.23630527684992 0
140.671968467819 -15.7740157372151 17.7828061609263 0
140.523175202981 0.256088227101057 -5.84887195080644 0
210.781132049231 16.9169438910081 9.14765457202149 0
190.240694727224 -29.5794762013211 -33.9078982486796 0
181.955192935419 18.0260218258792 19.5150167820471 0
178.163462427378 -6.22135046469244 -22.673381038602 0
180.873662440464 27.3624519294238 -28.8637736453859 0
117.684110280993 -16.0287849912289 9.02710025354753 0
189.793278969762 -5.56572951356125 -20.4540999730033 0
192.132478031426 -6.3856915715527 22.6055953807365 0
56.0749952269055 -15.8762716072399 10.4061751213122 0
30.3173647774441 3.15608655595915 22.4896098161578 0
16.7654275613155 -17.8139659363187 11.0657812897511 0
208.293772430108 10.4502185639694 -8.12239148352728 0
172.870705497292 29.0906983322331 7.12635526780833 0
174.726765590523 0.722062728533218 -13.3628548697352 0
203.101122871656 41.0049427793 -26.9104604660055 0
29.6275861339805 -5.25657669246417 -0.881427702030216 0
198.146181794297 -17.0613024711062 23.4595620995406 0
172.968937841467 41.1178762836146 -9.79141961245586 0
203.79494293719 23.5077580982393 13.0474448022427 0
31.3512595878457 -9.88418419783032 2.0920508605984 0
79.1043708030466 6.37970254004953 21.4532162192705 0
202.53866626018 36.5345474420307 1.39671876894894 0
117.324033528831 5.70541789324776 21.6032128208853 0
163.301604683094 -13.9216408383873 23.3324624758678 0
190.408206789825 33.8887757355996 -33.8182018338364 0
163.411098859366 24.4750016547623 3.86903999905003 0
144.385812670293 17.5916679697542 12.4007963443481 0
158.204817689921 -8.43985131663871 -9.29768108743849 0
193.271384059185 41.7858206931361 -27.9049765227008 0
111.371476189207 8.1868977808003 2.4663271961387 0
198.828316547551 -4.97642597153017 -14.5746846331433 0
194.909306576216 -36.8908936905513 -10.3351356905249 0
119.376365347614 -1.64141889502871 24.4221669494649 0
146.125333893744 17.0978675076357 3.39153479272695 0
180.383270190041 40.6540534501559 -19.1543004818014 0
63.4470467611383 -10.5674571371098 2.21026613728494 0
204.259521795334 41.0400389370087 -8.66978903893935 0
173.758548811916 -9.83117115920963 -16.8173774473026 0
92.7741120144338 1.12395370331527 -3.36627370475727 0
18.3098852168573 0.332830054003004 -1.38783157355637 0
21.1052212290465 -3.36944091024541 -2.25119105790137 0
171.964792459808 -17.4097392664028 -20.8907128499835 0
206.460918410937 -17.4878266416734 -20.6899978473459 0
160.879502263539 -19.0246938949482 16.2789503484459 0
205.067696790679 1.26575808034567 2.84670749853578 0
68.306432257562 -9.5382115496307 1.26794209174126 0
145.785193615617 0.387625258762002 -6.38084220155984 0
151.313441487664 18.540437971513 1.76401470140093 0
77.9513622039478 -15.3735663123213 8.93784023291968 0
182.714058344539 -0.379308437768743 23.0190977365639 0
181.548522379909 3.35781202264725 20.2815528039925 0
38.8682267647788 6.31648407459224 7.87996249313311 0
194.240973527697 -36.4492986426817 -7.22178451410209 0
154.182797333865 20.6894846937288 4.98382988107466 0
43.9626076898066 -9.75125910570604 23.3105891810121 0
172.221383340526 -23.7112818601695 -20.7774571146058 0
193.008761391643 15.3347901562125 21.3287619310993 0
154.436823323287 -16.8770154597581 -7.03332524106519 0
174.39358791882 4.49523589479253 -12.8485663638804 0
88.0947457481376 3.27252752322969 -0.0815234532107148 0
176.540910389136 -35.6727386951443 -14.1478032303322 0
90.4154616349917 -15.2058032928498 13.5713417083986 0
176.636760326893 -31.1821474471057 1.22202284244688 0
182.481705628871 20.3527802991705 18.2967663987921 0
124.312391952518 0.448913052922552 23.7723790667523 0
159.315986306796 12.3259021313683 -6.02080139056771 0
176.243724901854 35.3803136339113 -17.4400446292384 0
111.858896764673 -0.779798831141545 24.3033422436922 0
150.081089413975 14.9316647645991 -1.31260004444826 0
118.100348098946 -12.7742987695619 20.3314299465367 0
170.758033014405 6.42298338748529 -10.2521722795537 0
182.860832004666 11.1839282073293 20.9705279321743 0
171.324081796692 -30.4729367568216 -14.4177823076377 0
191.959951869577 17.2783793965561 -19.7623904285028 0
205.804134424659 33.7112584424018 2.74297340777568 0
174.043444018807 -12.2364309420875 -23.4783112499675 0
184.713776219682 -26.0767668316593 16.9667694179104 0
200.526923179042 -8.84553399230094 17.6646939985554 0
189.356053667483 5.37985798054544 -14.4101812528062 0
199.904700080872 37.8341401744865 0.869850512387321 0
182.807185387758 -31.3784401457176 4.07844466874276 0
199.241276541872 12.7100036969599 20.3545226450065 0
177.338938997708 39.267923381358 -2.62984805884814 0
182.07191720176 22.1350640539526 -28.2843458182795 0
0.792842125178858 -16.5158862254536 19.916453022678 1
174.673110340496 -8.10297216241006 25.5426190319489 0
188.726107388043 -37.8084571915771 -14.9282281558852 0
165.68910731014 -21.6453136258522 -12.35116137039 0
23.3672319649617 5.1833072646766 6.97781325136404 0
172.650502222293 -14.6912621790734 -19.8792370861589 0
147.201315630591 16.495287078083 0.999632774408225 0
202.270126923004 14.9150159169587 18.2572824889792 0
164.904121491699 7.15890986094423 20.7112140925945 0
185.81593138551 -25.0363887625435 20.3930121212184 0
4.0402651299479 -12.7581038546029 22.5827651689079 1
196.388803953405 -3.02065063877078 -12.1846258979815 0
31.4254882154258 -3.97344051046481 -1.95003426765166 0
197.0029334076 -24.4536592839115 21.5465341096387 0
169.515723991244 26.5102117417868 8.15863159776531 0
168.198650783471 21.9657115771477 -6.92275574618658 0
199.55678756223 -5.31885814094614 -17.0604263367971 0
144.010843859177 -17.6109990537567 12.6961757439711 0
54.3600528120519 -1.37779548420948 -2.73317573149026 0
182.282881614137 13.9772843330131 -18.2286715011425 0
186.822073028583 -22.8522895912529 27.7522250679119 0
199.037854385596 16.4719462217763 -20.0969620790064 0
187.526831006228 18.4908590332659 -27.2778511751154 0
157.848660870876 7.85358994278364 20.4536627857801 0
198.578059143727 19.8560085145764 -32.8724716182935 0
109.516349492238 13.5238375951108 13.458710306356 0
194.477001445004 22.0045380049309 16.414910905146 0
194.251803131013 -1.34937707780315 -12.1247590994502 0
166.630884055588 12.0605575285178 19.4384220537502 0
0.345929140965168 -12.0593102188546 2.58183832541946 1
170.410288882181 19.854250964418 -9.72805183344213 0
65.3353268062971 10.2300106503808 13.4538971212755 0
56.0107688711714 -2.7822725673093 -2.69901465776044 0
142.980945336185 4.70774409777912 21.9679502256542 0
197.896844814926 42.2289910102125 -3.56240995555641 0
204.285124699893 -19.4898147269645 16.096557850456 0
164.355351880416 11.8420857981322 19.3491558019673 0
189.603588751524 31.4971160251067 10.4207687291391 0
194.927418036916 20.0581732763908 -32.7018232900627 0
138.805897724465 -9.60554460458181 -5.86719682715731 0
205.334062607164 -18.2540430021722 14.5067174282417 0
202.498599974336 19.3941329068394 -31.8951238565603 0
119.730009489571 3.40993413512485 -2.94253420646978 0
185.52945219274 37.5512109666616 -30.3407504484116 0
194.258574048062 41.6954003515661 -29.5622593843873 0
15.5415238775953 -17.1749914111358 18.5339128859966 0
26.1256389457936 -10.0278353292859 2.12468652932312 0
201.905216722342 18.6516750020929 16.9608831848674 0
204.431966973706 10.1371801609889 15.2903497211678 0
120.542734959716 14.573490439041 11.8184004930223 0
178.898973424743 -26.7054642747892 -31.0938876424869 0
213.470519146623 15.7205584973297 -0.177393779932829 0
19.4348459100631 6.94375629691819 17.4287385932439 0
188.409104894616 25.5295674531058 14.6651164190791 0
169.559680803317 -0.528278521362427 21.3310095343324 0
96.4497563757192 8.49507893455416 4.61545665934217 0
172.661642135067 27.1599070270508 -9.59971567013559 0
171.240160448487 7.01164517388213 20.3405016145198 0
178.968012590615 -33.2533622674659 -1.05030317674472 0
209.438224779055 -29.8749112503909 -10.2590960637875 0
132.0355735087 3.97381114226234 22.3568939227875 0
45.6917786267713 -16.6926034404126 13.7388238057264 0
147.366773199622 -14.4669564568905 -6.09218195931897 0
184.433604534911 38.6061388709452 -28.0259132929093 0
28.8279991575692 -9.28618177352 1.72004603903492 0
30.7027210595243 -1.58139347677592 -2.32427048757861 0
209.430492402308 -19.4522937269749 2.25839555434186 0
195.887143915434 -26.5093681619979 12.8314797797097 0
207.184565015367 -30.9647267247731 -5.67411264047315 0
167.131999152249 -1.14903764549433 -10.4624853663786 0
175.104176138117 21.1366036590258 -13.468195907027 0
188.895970229293 18.878144949988 -23.3524618930188 0
170.665939224858 17.713577032672 -10.5929263537715 0
201.888704463157 -5.11534244258017 -14.5125857474382 0
118.616072326697 -9.99661430802074 -2.78497937413523 0
158.860552222477 21.610532430948 -0.322807336208155 0
186.337541358011 15.6365535422316 -19.0807583018976 0
3.61705646280422 4.74730470038111 7.81785432437835 1
164.35034306297 19.2018198557283 -6.17810818890184 0
165.891844161649 19.4321908053532 -7.04826156506825 0
185.532197983008 45.3549551283265 -13.2280099343218 0
195.005869986983 -30.8483227710191 -33.1807680199147 0
176.071080500792 -32.7682318736982 -4.14670090636182 0
130.190202097207 10.5419339153273 1.1087017291196 0
176.991648817752 -32.4047465682265 -1.63581496882296 0
19.7602011911008 -17.9764229581135 12.6872711854076 0
193.672878758028 -16.3269254914791 26.2580089760534 0
200.111985720818 10.6726977138464 -12.0808125614319 0
110.718659596494 -15.7635762548605 9.63338169824763 0
105.577759869318 -13.0595100105984 1.70904282608349 0
198.117320446744 35.6266922886112 4.14809014584631 0
70.1493299317607 -11.4614915383847 2.66654765451786 0
181.51553211481 -36.2659928414107 -6.14112049409052 0
150.431499786065 -17.5955328376087 15.1135173345785 0
188.002568860314 -17.1207871752865 28.138716206634 0
216.927845182279 24.9294271265092 -7.33758445417889 0
30.4589760941182 4.66186786046867 5.32369274335944 0
83.1300506852739 -15.5184124962247 10.8672710177533 0
159.692967331674 -17.5684504467224 18.2964623120346 0
114.285197890434 -15.9054906056849 10.8881370488527 0
11.3776384194243 -17.7911167274856 10.1038252600608 0
140.850652530342 -17.0028552542127 3.11284344835298 0
198.269119311959 32.7670043827508 6.97075223120273 0
150.546543380256 19.7049312831051 8.73511709377409 0
168.10511188508 18.8653786825363 16.1809732350511 0
206.61833968331 -32.9428074824695 -9.06527459854042 0
186.692577470272 37.2050709305066 4.70100524373091 0
102.656990361574 3.51102442765652 22.5491511416549 0
20.0083728145901 -9.22660794300364 23.8627953440527 0
27.6443204344918 -4.62434777751097 -1.46794079638029 0
180.869811764227 6.47793053738328 20.3210996665279 0
207.139904885465 11.46322676678 -11.2941286415664 0
205.613589281966 -5.22014230926241 4.13040815139465 0
189.049139629204 41.3957004756033 -28.5580340427739 0
49.0111850057798 3.36537019835071 2.23047690812227 0
176.459525576191 -2.73370182601974 -15.2166591192683 0
109.911089054103 3.74606552513873 -1.60571934466213 0
170.519483137924 25.8662789767172 -6.55972532166999 0
127.000736088824 14.2902811361174 7.4512817325247 0
72.4102439933719 10.8045572547779 13.2224483301805 0
201.816453291299 -8.03042570904208 15.6141639869324 0
126.34730174735 -13.3118098219328 -0.737966003216452 0
210.057116452915 39.1421104955201 -18.4111222326346 0
164.470356668388 25.099187188486 0.555432468073869 0
201.488538701353 -2.10874376054821 12.7689840029758 0
170.122770405629 29.3603835049529 -0.21843900457716 0
195.249767542286 -35.3995969568499 -5.39656326498071 0
196.419573186824 -33.8562903411861 -20.2268604833572 0
174.408330223936 -22.2708213210095 21.5519523368459 0
197.268022217466 41.7204899194414 -26.3808281864263 0
207.566527778943 27.537478279985 -31.7972287825523 0
171.11278355992 -20.8216883115976 -19.1861363952606 0
185.564370269495 -30.6710170003133 -28.1819131651424 0
190.341302708534 22.3837033752157 -33.1380430025987 0
158.393924435304 -19.0969411246505 -6.95242064530493 0
124.795225975975 -15.9495135566714 14.343538110413 0
169.387481615147 25.1602995523289 10.1903093677046 0
174.195893322661 -30.8968790682852 -20.8772877305616 0
201.530516670976 -6.36608964730007 -19.2848312472364 0
216.881057722627 22.4827702385578 -11.7077794781842 0
158.187519429154 -20.8298238541568 6.64607632410197 0
216.104473633455 26.6366535540446 0.00132200355845115 0
13.1743357236317 -7.93885561514383 24.1550050768772 0
42.7061159460202 0.988190173817837 -1.15875560426913 0
179.563451326717 -28.8572361701958 6.77143084177673 0
189.31473628591 -27.6749342196617 12.74447509942 0
61.5774590141939 10.0441789041852 14.8079676895508 0
186.900694134799 33.0188986434399 9.01017331378363 0
206.291129320039 4.55358613031049 -3.633279818094 0
203.494850900907 14.4634370771956 -24.3556828929163 0
188.960510588523 6.04826063303747 22.3349318426091 0
108.663283445974 3.30530916607738 22.6369621774883 0
188.777967245954 44.4741676855788 -8.23526595408261 0
127.80395458158 10.8871915570461 2.32397493745215 0
199.30107571233 10.8392960063187 19.7400332721176 0
89.4914674644382 -11.1415897764052 21.5587957341004 0
84.0637022691458 8.70924853060708 19.999985899566 0
26.8836177053361 -12.6587888351729 3.9302982611717 0
35.8609507852481 3.72988380572023 3.29762823120803 0
77.5783407065976 5.64070960349593 3.30538273125265 0
76.1383863558412 -11.1987875134329 21.7350477295759 0
187.66902708571 40.4385256766856 1.34864020953614 0
203.584578806483 -32.8792098415004 -28.0060371536448 0
198.646812987547 -36.0899199271745 -22.5201329167362 0
176.341803463848 41.87310139263 -6.31579917918721 0
188.223344481156 34.2311238004847 -32.9139254781767 0
60.4582731248943 2.86536374177386 0.948517581928055 0
22.5035059730571 -17.8728664323734 14.9762121836879 0
20.5242137103994 -11.6605227900243 3.03166510364737 0
177.557584660328 34.3442511547273 -19.2002262876765 0
187.107929811613 18.7046678701506 -23.2388703145366 0
83.4926682361703 5.81339299591448 2.96787282305687 0
63.2949392996975 -4.55319913649764 -1.68147829013328 0
190.554468000558 13.8820299931398 22.0033608452431 0
14.7744177085449 2.28250541722443 2.39824275638644 0
215.074108862591 33.2584788382476 -4.33524905346621 0
9.27286860215682 -17.0470400259958 8.46354624711332 0
114.737085303018 13.9885528075399 12.7836580601056 0
170.100054247661 -21.6803744251543 -17.3064074527471 0
189.868423655284 43.9902644207936 -16.7299869189302 0
205.121085888575 40.2594279156287 -28.6496791732324 0
206.384541761216 25.3774325240033 -32.2840373553862 0
137.928121343296 -2.59670221760897 -6.13453302251859 0
188.10321883551 -1.95128181307142 -17.2922494959233 0
191.784157346819 41.6776416602672 -26.9497886881845 0
208.81209074581 9.90063894981146 6.79466661218308 0
161.005725338439 -20.7937756070593 -6.69681266404951 0
170.63486758613 29.1073743311437 -5.48599902460545 0
205.990026638838 31.6635043404855 -32.9804560185641 0
70.6170247632566 8.85396012886415 8.66389276140438 0
54.2379499174032 9.38078292271067 15.4499323348855 0
44.1589345580588 -1.06922765853202 -2.36943399148837 0
187.421225455043 -36.7984828058392 -17.2288180175111 0
186.400586906843 -15.0423132840507 27.9970433253924 0
16.0615420655236 -0.888769695372114 -2.16837012533701 0
39.3243791100706 8.20614621413081 16.5989063620499 0
166.475395533866 -24.5788750078831 -0.647547447459215 0
187.07582056082 42.9657112716971 -21.2580170778367 0
45.6156807661543 -7.39675099670646 24.0155854839843 0
167.331313327682 -11.0857728614528 -12.4805592816323 0
177.912709625883 43.1441630355048 -13.0838087784135 0
209.301605929995 -31.1903613649211 -11.8304994578904 0
156.480623046306 21.4510290208713 4.72033492278067 0
154.280244111226 -16.6724474300084 18.2628186429828 0
208.031233741312 -15.7719418487852 -12.0414575191778 0
204.409529425632 -27.3808149150876 -27.771827488518 0
90.7492303489733 -15.3233703930293 8.02062272779582 0
74.7196909488163 -7.22744334865419 23.9364466071607 0
143.01549326848 -3.23647851037655 23.9866509944233 0
198.4430835312 -34.9379309299261 -20.7919088907404 0
194.845501218894 18.5974720453014 -30.7580122860574 0
65.7099659611304 -3.47301631257372 -2.48354865214336 0
140.067514926057 6.81893180454645 -3.3802297461751 0
160.950568411989 21.1837728801425 -2.3031630390812 0
210.87383616692 11.2283903254651 2.02336888245481 0
186.575241950932 -26.7584138091324 -34.4942082898764 0
189.386802980961 -4.2673116592096 22.6040912242418 0
59.7368156788956 1.70567993726258 23.3955323952353 0
217.045529967428 24.9098515166841 -12.6789296064408 0
11.298295784222 5.74301184435107 18.9855383269366 0
51.9246480765493 -11.5915039187156 22.1547347295398 0
189.397504413218 36.1131712410229 -33.0685590159837 0
180.942862581184 -28.0007875109431 8.7140331415758 0
173.40622405828 -13.4086492965116 -21.6326847452461 0
187.463569184191 12.2139606623922 -16.5444875721656 0
192.453032049521 -34.1671189254174 -0.980958947385651 0
207.221250397806 -31.8476564742672 -22.1324974148398 0
162.298931357021 -16.5218194550909 -12.3717271753245 0
51.5321569016777 8.82154062734875 17.3516776892568 0
23.3407327414074 -9.03351625788787 1.48224682429603 0
86.7091152376125 -14.616926061067 15.8771128794636 0
14.9041496840147 5.4369975373356 19.8787654080784 0
155.034987658816 20.0261264236585 11.1058879634052 0
180.494520098792 -31.0931131024 -25.9591088516376 0
207.66602492832 6.87387454497693 4.21741063234068 0
173.489530259604 18.9841230720126 -11.8471203906293 0
103.182583452228 -4.90368409608668 -4.63528780392768 0
49.5130721941063 -15.8697547126688 9.41269798386838 0
179.982329594377 42.3152292572423 -3.08296725756756 0
215.297404965448 35.6897069084236 -19.4507615542932 0
62.1177937226117 9.38282554385684 11.4332590720135 0
121.89525868112 0.182384276226158 23.8816104470947 0
184.924872162783 -30.2944454621238 -29.9343375399416 0
190.494947294293 -37.8834401732679 -10.2543240080927 0
158.912219671828 -20.218504898347 11.5378333636078 0
85.393145326219 3.34561596347326 0.182700791499311 0
29.5476604821236 -7.02152144386688 24.2106313620591 0
192.800621374736 41.1070247537433 -31.2987367748185 0
190.662798944122 10.8999730648097 23.6114782449197 0
210.580544895104 18.6227248648322 -25.2755195855836 0
8.19515700155483 -18.1492710717781 10.6162113402265 0
171.93761249909 2.85557216537579 20.3901585959679 0
185.599075612771 13.7014991103111 -17.7556674438092 0
81.0179753665351 -11.0975635442804 21.7385841798307 0
73.1126740067386 -10.9671560347835 2.10252508102055 0
104.503751619741 10.0604296404886 5.61913257294593 0
80.269956974585 10.5163873718385 17.7606353992419 0
196.860004778848 -29.3986550888072 5.34876071096599 0
75.4733738956423 -12.3355744215513 20.6284376381265 0
124.909289192201 -16.3396787803095 8.29524150232849 0
26.2723369411707 -14.5160813865395 21.1346796494221 0
214.525643263124 15.686025306603 -6.75492338471551 0
168.067500975192 15.2240289611123 18.4513935660103 0
215.767325360557 35.907439256783 -12.7477942625944 0
127.764308704758 3.7367404427259 -3.48912860879401 0
143.947042645983 2.56914878313065 22.7446927605952 0
181.023923583171 2.03612430370571 21.0054843100712 0
120.003502821057 11.5889805739877 18.4725542492786 0
128.050617581118 -15.5767654157686 16.2076950129491 0
188.456185762612 3.99307545380928 22.1037574296266 0
177.662534734908 12.0499588964375 20.2612266892394 0
185.149296547255 13.1609361696866 21.194655528711 0
208.301132806236 -32.5896549830567 -10.4759172821827 0
45.139759774081 -0.406058139165581 23.9585771495042 0
38.6456778712948 5.18536866457566 5.55781466398556 0
125.408546182187 14.7409223170359 9.29801758644005 0
141.191043233642 -17.6301634410995 8.41024440860188 0
192.441919051173 -7.90880900556899 23.4379434716639 0
1.14504312853492 2.92221669269211 4.50051481028408 1
199.747926935833 41.3929883011013 -23.9650400796712 0
177.138551307418 20.9425285464845 -20.8480585507882 0
4.82892901758078 -9.90995162412094 1.56200722526814 1
152.529751593081 1.71558234627094 -6.83476133885746 0
28.0729748879917 -1.93937582283038 24.2306545458915 0
104.083534206639 -14.7549113982586 4.98627036561588 0
10.7768033794187 -13.0780703690344 3.77837606770296 0
133.525995864774 -1.37261870811484 -5.58706642834112 0
215.736180369064 22.9774278403416 -18.7734768280812 0
78.7255887760619 11.1867435327465 12.5034112544791 0
156.125068088946 12.4643233524354 18.6522152349721 0
189.514875206127 33.4780733896073 8.40396198363091 0
12.6737698027171 4.73445765405427 7.02734876967931 0
115.791071521939 -13.7170571741256 1.61757114199992 0
183.237420215406 7.08285279528994 -16.1138735513362 0
174.510834353634 -10.7238768188979 -18.6775109940909 0
144.61964405279 13.2544773348682 -0.718475169313712 0
21.6488562355742 5.29323456175017 20.5711658509257 0
172.766678719286 -23.7698992269996 16.115388451088 0
173.675333572247 -25.1101914869678 -23.7899519710353 0
97.5088106711648 6.37811156805917 2.25286410282968 0
205.98907889976 -28.6002887364795 -0.883296910366739 0
181.287578655292 26.4810868842576 13.5848803209464 0
183.080464515663 -29.5306229080692 -29.7117753190846 0
59.5664243004439 -12.0198887318349 21.542662343717 0
207.527244256285 28.4999045051854 7.85473513591212 0
136.659329197833 -17.1090600421083 12.244870692587 0
172.439989032245 36.367230733524 -7.23635021892189 0
185.468061073437 -31.4468027322894 -25.6313890998727 0
206.477828866254 38.768274518491 -29.8218837486502 0
61.3853894706596 -13.5018056488818 4.97406316255359 0
19.8420240310663 -6.48290402353136 -0.120899890935086 0
113.621274272022 12.9629796234686 8.98818749651768 0
164.381568988453 -21.637044996628 -10.9278059240847 0
191.527675732038 -37.3613389598404 -12.8418757180598 0
42.9684286610356 1.89940288815781 23.179648172219 0
162.044537070768 15.5135318933089 -6.67456011970519 0
118.136796629379 3.03878090219028 22.7799512713671 0
179.8150810864 36.1133010065984 -21.4164340266721 0
65.8645571735809 -10.6838193952137 22.3081316801031 0
102.404064226375 -15.306191912521 13.2297042009895 0
181.10326013304 18.1168268727138 -24.3307916434408 0
143.647793666184 -10.0300285211834 23.4758286586541 0
191.52534183356 -9.06049363485405 -25.1815495976292 0
32.925567957135 1.38782044056992 23.3103485365795 0
187.496749886341 -31.762237277253 -28.8911135634316 0
201.011750521447 -6.53291613637519 15.7032307499247 0
173.993742923825 1.44775052702059 -12.6787194405552 0
47.9576345242226 -13.204938801449 21.1327809539865 0
60.960483248973 8.12387996168284 8.83306484046574 0
119.69360836847 -12.1301622917517 -0.960574090130349 0
120.12884653434 -2.56377437459059 -5.23074664359722 0
173.372698948063 -14.2809784011374 -23.9934489194308 0
177.620736721848 -6.94627541557423 -20.3773665571882 0
64.7821801121089 -12.4858723081694 3.81945655886364 0
42.4205383838531 -12.0412515661292 3.55577159102591 0
83.62387082503 -15.3884938775751 13.0348764742453 0
185.934941483919 40.2538859696048 -27.4239526411223 0
192.729754443437 -24.60943166706 22.524565498627 0
208.758491112054 -17.9458316974991 5.56926875914907 0
61.6777904317519 -15.3877375678775 8.51875739231593 0
54.7527333247804 -15.909647418133 15.305685882375 0
131.735862718627 14.2987245736219 5.84508343434203 0
184.393305169412 44.3155592762196 -18.11347587586 0
180.90562668501 -0.953547660678401 -18.2858075506664 0
194.558975428508 -33.7465291611379 -17.0869914821755 0
201.000437125995 -27.9232776298446 -31.0385092852969 0
122.640145507189 2.70287876408428 22.9200528032486 0
47.2603248241006 -3.64403791395916 -2.30669039121723 0
175.237100266729 35.094465926728 -1.36333315882406 0
25.5523783146015 -0.517139726883108 -1.98416161626931 0
198.652713300344 28.9116345314378 10.2460147528236 0
202.051762598451 8.45599866051641 16.4288027706003 0
182.786032740061 45.582537996916 -11.8703611528039 0
170.543716467369 22.447011465634 13.8922613215114 0
161.590388821486 0.192548387721483 21.8706566906264 0
172.350502130256 -8.68556143371199 -15.2096646604736 0
199.652467433896 7.42591293647668 17.7013034901524 0
137.362423553907 6.84734341583151 -2.95247500067256 0
142.80679221199 -17.7700175325298 10.4322785005214 0
183.394256598648 3.91860599462748 21.1236562901909 0
192.204156491848 0.455975653313257 -12.8026363139021 0
82.6185385105627 -11.4115934850021 1.83621053848005 0
114.34655018006 -3.07572645791577 24.7437859737779 0
108.027439395047 -1.72881167959873 -5.54394082388116 0
171.741766067054 -6.4173033072595 23.8585906044639 0
176.263949381973 -10.1251858839659 -26.070219037614 0
55.6081982515726 6.85983181329638 20.6506782339889 0
50.4433823817542 4.4077062263247 3.70993241930969 0
183.416301880949 34.6920721100108 -30.1705475321549 0
206.345115865397 39.6934527956695 -8.30095705879459 0
55.876670696973 7.45199191506401 8.21451384159993 0
207.554842082286 -21.7424540336615 -21.6843183647399 0
63.0644789552286 -0.0732012011287589 -2.73670828935011 0
28.0620576190519 6.79796179994723 18.7439972349092 0
180.827161925368 42.5295714727424 -17.8929975334251 0
197.653318543283 -27.9496115039841 -32.7811545075402 0
189.356197803118 -7.86664928535411 -23.8451512041291 0
207.226183612376 18.0085724316886 -28.1333694962106 0
20.4905905723164 -13.3866607668323 4.36611493552598 0
66.8391666083306 1.2221564203401 -1.75861892345701 0
202.634232703614 12.4384385315772 18.3299876723627 0
198.710621483514 20.0396510852828 16.7580800631992 0
97.8105819492994 -7.04005404632093 -2.36011554420975 0
169.664757232185 9.82491633536569 -9.63382977152763 0
181.450775594936 -27.8100935067636 9.82615029998854 0
202.038447544977 20.7843623415234 -32.9613955542101 0
170.406733877669 -25.0036916766229 -15.67434130512 0
201.661083978458 -19.1358384371555 -28.6428366096422 0
197.559891152782 11.9756833335265 20.9760756227386 0
166.795992364333 -23.6372570757718 -11.8059693400519 0
178.719627266776 -31.7032049977844 2.16390021013278 0
24.7483724906221 -7.48857946702113 0.574401057653878 0
160.65944513494 -5.8200077774871 -9.54122231388842 0
216.981021214316 33.3878857595475 -10.9958853607399 0
189.663941254521 23.2750551890312 16.3346689100991 0
208.469352395658 7.52144158477285 1.74000175644769 0
153.365017717307 -18.44019299895 13.7026615085165 0
214.59749049167 37.0552529862771 -18.9050568978474 0
183.955989636215 8.3161706953631 20.5464652829935 0
194.352043312951 33.4966545394432 8.00033828106467 0
171.04580256374 -27.1361990715841 3.10634988476129 0
126.839497981583 12.2990768454235 4.3421156459506 0
170.437982265452 -17.3118162906322 24.8443408569606 0
82.9354248624282 10.5839598443522 17.8458818583582 0
180.860564695317 43.53683922693 -4.19026533873126 0
0.650323486715833 6.22220570652711 13.874105107917 1
24.479152142931 1.16773848466493 23.3420752135502 0
178.786941606621 -24.6556932216385 19.374286187703 0
26.4784684840502 -16.5813412905389 18.8208036053389 0
174.513026797461 19.1802515947832 -12.9395716982865 0
55.8938440404843 -7.71757001025315 0.572637377717728 0
93.3525108372123 -14.0177148058474 17.2074670705645 0
137.647439489486 -9.73861674522704 23.5338355768758 0
172.057460133539 -17.1181952846096 26.0611714615735 0
204.126256781962 12.7460236507521 16.9822749233563 0
176.55514866019 22.7947875556626 -19.7733105148349 0
207.829971800723 7.93935247319253 -4.91507062057764 0
184.768349393706 -22.6496800184116 27.4013234710713 0
191.960119786378 -33.1523807093653 1.01088890046231 0
175.03358571772 -35.3035667680947 -11.036374053865 0
196.105496229604 38.3397973370636 2.1402983508351 0
3.81173695598997 -16.2455288708749 6.93145528519295 1
98.4540597886039 -11.8059031917558 20.8111173277399 0
184.013068200079 41.0216908272146 0.454898027418735 0
8.09429981540838 -9.93829164208696 1.67078131756428 0
86.1905218946001 4.31161160138215 22.4022757666043 0
212.680652095088 15.397258576904 2.17880450720965 0
123.358064233381 -10.2118593121733 -3.65863081382113 0
160.313823844847 -6.80789878409463 23.4087524261397 0
181.299250710704 -37.5055900564693 -10.1066483368372 0
208.995594828512 -21.7800628891207 2.30339924501844 0
195.26995722663 -21.8804175451262 -33.601861766191 0
160.956737005572 -20.9777038166498 10.7679526396265 0
46.1200749604111 8.60652408235179 13.4979652627685 0
179.554734193807 -18.2638091101806 -31.9176776080434 0
202.718090276831 -31.0325117068164 -29.4735077168808 0
1.66512702850978 -1.02892452076141 23.9083573307391 1
187.74546455076 1.7372920854353 22.0697609308486 0
216.215796057677 22.1881494049109 -5.62741423427537 0
28.6061927497717 -14.3035348624446 5.48321252510178 0
184.228739683848 18.9168296970642 19.1804901808028 0
174.56329076801 10.8842484255959 20.1815871978453 0
70.5051973400531 9.93026649334327 10.8890921341402 0
166.172366873643 -24.6064708418935 -6.53345355316569 0
214.502663238435 16.9906115535649 -2.60000227269607 0
77.8701121487331 -10.2581943872987 22.4486582847689 0
177.998396091447 -32.0901747341452 0.469851482547697 0
205.041197949161 -21.2556330807973 -25.4807890650622 0
203.273904586792 -1.85624016810294 -5.70116272806924 0
195.226233954345 41.7831377990514 -27.9669298989178 0
95.2994932663811 12.1076393733173 15.9845992199934 0
211.222777981487 32.386805664143 -28.8158558740793 0
199.960632833418 41.185814807876 -30.1603290965509 0
145.703462658053 -15.6948534481816 -4.79750895538913 0
176.204380216521 -7.20937146240804 -17.238920773211 0
88.2172738471457 -11.5697360547506 1.53050319569265 0
210.354214147501 11.6072412181888 4.9896896723852 0
184.257134531727 -19.2727298480777 29.6658875818145 0
178.528518850932 44.2770452035865 -11.6740815798055 0
165.671297346409 20.2142594827384 14.1768157284439 0
66.4448806868857 10.496578071317 14.7790868954208 0
189.633431458621 40.9853269371073 0.857988778866987 0
84.2331748139648 -7.10227341647947 -1.21688786970788 0
208.968735332475 -14.8864650839273 -0.296850979359794 0
196.542763339397 32.5546829951165 -35.0731719770373 0
147.336335333016 18.8990141368242 8.19994178562201 0
193.181900150961 -34.1584845289282 -31.0242772585089 0
153.503651733824 -14.9652951231337 -8.13554914921405 0
159.253204077859 4.19543150352854 21.4192668839508 0
195.957610186681 17.6446747046926 -20.9184211045968 0
152.898653431686 13.3680964153073 -3.07769119326122 0
170.132723774721 -19.6678436860899 22.1072627602586 0
16.7803657663456 -0.441117368007913 23.9222877169405 0
183.445070814764 -27.502351856433 12.3516743677852 0
190.643961192314 -37.4472144387747 -8.38523791601971 0
195.218145112639 15.8042614815246 20.8482260360799 0
193.007714852064 33.7035164029422 -34.5103336771667 0
143.173576382554 10.169519783315 19.6542319942866 0
194.97657400772 18.7806087763663 -26.4914760288316 0
211.401495059061 11.5538222690761 -2.46460709906772 0
157.507000096442 -20.6241722076232 3.69966431849064 0
217.324093565211 31.7081866059114 -9.8544756202974 0
146.135426305478 14.7639185948343 -0.2170174741515 0
27.7549238360064 -7.40378155247782 0.559345553221472 0
36.2218660067056 -1.72727794083778 24.2151130666646 0
178.075207299616 -30.5047858463781 3.65825715547173 0
201.282582841737 12.6713321192501 -13.1204237297045 0
186.810202234778 28.4246897179938 12.2544621893519 0
186.038711858411 -28.5464132725272 10.780188641612 0
129.55686919103 11.9809690248605 3.17962230201142 0
195.950912395774 12.8554900441568 -13.8672077516772 0
179.890544961129 17.1008317929228 19.6186908961236 0
209.593532935119 22.2424209270078 -29.0077935612251 0
122.640707343689 -2.97193435222089 -5.27728933128359 0
165.217119766216 6.44678855152504 -8.49778176197543 0
202.947083458544 38.4080797720761 -32.1196684800135 0
45.5084217168914 7.66875432496839 10.3808752307282 0
199.524223310689 6.08099548877808 -8.98480661023914 0
179.554613659649 -36.6552365603277 -9.05093377643714 0
49.1004520132189 -16.4528333135927 14.8012266912955 0
145.798884841017 -17.1253915209726 -0.645462395958061 0
179.698199350336 -10.4022968086188 27.1233807932442 0
33.2882001719924 -15.320308126017 20.0204541031776 0
173.05298252956 -27.5534978629225 -20.7330239267223 0
121.94136632251 -12.2108638757317 21.1596308504906 0
165.647135866545 -23.1703212695356 -10.5896805654198 0
206.287307980534 -6.25250730233155 1.83457958705492 0
39.5704437647736 3.70756912218496 3.01794842342849 0
17.4085176891041 -18.2379599636089 14.0594327793264 0
183.626672316631 -24.8375460187776 20.8857974249412 0
39.9099009342494 -13.2555202531325 21.5009511712113 0
169.454368037417 -13.6832696190075 -15.718064237476 0
125.58012873117 15.1882249274478 11.7007750581075 0
138.06051590191 -7.86730734667945 -5.93347495209904 0
178.734439614596 -4.57377663314933 -18.6486353705394 0
170.830491608924 -23.8089730294501 -17.5195337097721 0
96.8285596685216 -13.7479298905464 3.33686199935234 0
203.207000657729 -34.0043033232864 -11.4120111230879 0
174.125167279283 34.7942493587215 -11.151376105192 0
199.671029516282 -6.71920260065703 -22.2580975561063 0
126.40385619491 -15.4340139814641 3.45198573911451 0
182.836331235907 -5.56477747051089 -24.4374305272317 0
155.997668162345 3.00203303520119 21.8786780693791 0
200.769264087313 -25.4395090713459 -31.1170331895874 0
214.658378089912 16.0594194710708 -10.1903785200917 0
201.21912058549 -32.0869509765105 -4.47684629335049 0
197.790266757606 14.3109175305184 -15.0066028227951 0
189.230023816764 43.7293644131936 -2.92922616007559 0
207.78395630372 -34.1471926958645 -19.2228381482077 0
170.852023656391 -25.5533423051702 8.33368367764849 0
146.901634369764 -17.6374610406055 1.19425237180009 0
159.867765847209 12.2941182426983 18.9235664471293 0
201.938133830529 10.6332458322197 -11.5790260284408 0
197.939368886895 17.2978249186193 -22.1944182907079 0
90.1942390737337 0.945330154056011 -3.5260527256258 0
209.852748915668 39.4046156297582 -22.6709477269422 0
205.236871530479 -28.6046283956309 -26.6633015920989 0
37.588825352852 5.95954654150889 20.7574753360445 0
203.878440585972 -17.1348781302563 -24.5254001603019 0
179.867292966966 32.9377136342291 -26.5564371454175 0
188.019519667276 -8.07557903293955 24.871942791254 0
176.067666598516 23.2892500626322 -15.5400006597571 0
191.822707414758 13.4869307469315 23.1102629312418 0
44.4885520860683 2.44352824749395 0.761769697694813 0
198.837200286329 -9.92092549426689 -25.6533678155235 0
184.291156585033 -13.3225620530732 -31.543728619751 0
203.173951898362 2.19277756249511 10.3394669091257 0
53.5063528588561 -12.5613138195407 3.93374333562997 0
122.137779193068 7.84503205422191 0.25887512385919 0
100.676987567766 11.1305788099518 7.91099245009597 0
81.6377865413555 -9.14996187081818 23.1028701398611 0
205.750897435786 -9.96008722333729 9.48373284212296 0
91.6264531686507 -14.36224351111 4.81774882121661 0
19.1858085675705 6.67556677472784 11.3924068946678 0
95.8652002775087 0.891167323470315 -4.01476065000075 0
205.44808887062 -4.89556816089737 -3.4790590302045 0
143.225531016432 16.5179755768575 4.16968112153818 0
72.6780193705259 1.66438650756692 -1.43770396680446 0
208.935688572146 -27.3860930292674 -18.0447565169745 0
4.20154332321378 -16.2893934288778 20.0361063759663 1
121.080933444805 -15.2349173265865 15.9728947545992 0
199.855876965839 18.7916816315959 17.5433835767214 0
174.286774088004 -18.6551611520039 -27.5938442770447 0
164.365204491089 -18.7518569224246 19.0647480382564 0
205.452489176218 -7.92120123667537 8.34445547516535 0
163.771184794337 -0.0655022933786489 -9.2297452376876 0
40.5608837210337 -16.8865083660475 13.4850820593637 0
209.621448849054 14.123336032387 -15.5135499459813 0
202.482674454703 -6.14536610824785 13.5130218323522 0
209.783974244539 14.3502716023883 10.0275322373316 0
180.610988744112 38.7511146273337 1.01573690822252 0
110.492316737089 8.95894889490285 20.0391157753436 0
199.70623612508 -36.7631594847577 -25.4493639017391 0
138.350576230959 -15.1004976657318 18.7721006547138 0
32.0553487781083 5.02094916895627 21.318901506081 0
189.282188320636 -29.3744268458371 8.69577938416646 0
157.924003143507 14.4052922484741 17.6906110239592 0
204.268210158057 -9.53691634426304 -16.1025496540163 0
10.852242156066 -0.484984933764516 23.8940356404598 0
176.849116028454 43.5150125412844 -7.81761041266315 0
11.3468084670393 0.519838348062124 -0.804523994969112 0
140.654547081706 11.3774208638472 19.1631822778636 0
191.397652339184 16.1783980516249 20.3713606805628 0
188.887050384937 39.2847829517953 2.78271194369016 0
