-130.325964007422 16.1233916995785 -11.3177218830129 0
-99.7805679989976 10.0326070098873 5.65483949340986 0
-212.994319839518 -0.986000302445804 28.8616637496836 0
-3.24178397219901 18.8458469200278 -18.5657296082439 0
-228.444140320009 3.51701030677352 -8.81695779524718 0
-240.220576925271 -2.31087197879331 -11.4690360822602 0
-261.782203469629 -42.8358355051161 -2.54415603201859 0
-243.99500045498 -0.316692735786656 32.3813637823608 0
-163.413505502952 6.94349151750193 16.6351284966395 0
21.671055818226 16.017748435588 -20.4308086795 0
-1.99929454306286 -2.34366794146026 0.271426367801515 0
-34.4604374703627 8.81175251474959 -25.6999855841448 0
18.2959116372009 17.4141775203172 -5.45736807958287 0
-183.887454242409 -22.3716393242175 2.41196798285307 0
-262.337221766023 -41.9705799237129 -14.6019662417929 0
-7.43609877582888 -5.18727501486772 -10.8949634448413 0
-108.273252335944 -1.25878673078814 -16.4497594739435 0
-215.858562196083 22.3476103431139 27.2365115324001 0
92.7931262469488 -8.29010311063306 -19.2438133262756 0
98.2740042952898 -10.7695630739743 -15.6721788700267 1
18.96415677425 -6.00250140068493 -13.8429982858272 0
45.3952207866659 16.2215238340743 -2.97145468765977 0
-271.526535008361 -15.2689740967303 12.6235812116616 0
-177.152533721775 17.5823565770156 -0.837831273293483 0
-187.687151279278 -17.272184829353 1.41921246187343 0
-261.57206371483 -0.452040639081736 2.65461218867502 0
-149.046687099414 -5.55138368056724 -6.48713168145339 0
-107.838898491386 19.1269140508416 -3.81264078686928 0
-235.725313325079 -28.5513181451938 -2.59418849940893 0
-203.893625248744 -19.000630363703 6.67160048680898 0
56.8213389723432 17.5976396332762 -5.45098981451522 0
-138.064570504504 -6.13018156943297 2.20926937688885 0
-208.836689998725 -10.1331659524824 18.329619826234 0
-237.376788740458 -14.5431238916743 13.3839084348862 0
-51.8085862483464 -5.23916285266163 -9.49109526023275 0
-256.893284069277 -0.998624781388116 0.305267093314154 0
-120.834940195134 12.770458552303 -17.0058384041447 0
27.4859878916527 12.7700918533709 -22.8107161036614 0
8.72186918632384 0.645328263974322 -25.1728207179782 0
61.2071744018082 18.283833243906 -9.36000685991368 0
46.869137973383 18.3548607741114 -8.14162604849755 0
-237.019436151774 -20.2112556734901 -13.0174737497934 0
-118.740364092884 6.83184415274688 -19.213072825927 0
-222.819513674549 -1.46185650056262 -7.99924137259277 0
31.7729077761003 16.2856588587591 -3.53764762247162 0
-239.734438778797 2.60043380729962 23.5515954345817 0
-40.3482116940339 -5.2688921905844 -12.2708884722801 0
13.0983734659427 16.3868339946407 -20.5479531558051 0
-215.156591397393 17.218841202748 29.69827616366 0
-257.442637938044 -44.7830506124065 1.70937429482639 0
-96.3520442015525 19.9817680979996 -8.24265233182381 0
-182.203417194697 -14.9510308388087 13.972050311861 0
2.91641338650964 8.68290568211388 -25.5501648680224 0
-87.693623713254 16.4034643156597 -19.820671183565 0
-212.217286266907 11.9444666345534 29.5487863100257 0
-19.9345307075527 8.86694835378017 -25.794108857646 0
23.2882241148926 2.06465463915264 -25.308027617288 0
-211.793304969976 15.1610829455397 -2.35801545368186 0
-73.8861238647085 20.2704389286923 -14.857152281296 0
13.5438239128246 9.74023996572222 1.65852213766709 0
-235.611515890275 -26.8227466681375 6.5140422362933 0
-156.196459111057 15.9128180507487 -6.00956658745339 0
-229.524474311354 -12.4231697693561 13.1167174457013 0
-149.10990533819 -4.06607616784537 8.42015866977625 0
-180.064358135357 -9.2166563409037 15.5244660862824 0
-45.6101122719602 12.807536756184 -24.1708769280843 0
61.2921552964161 4.37519468890147 5.12574062691422 0
-260.485838031658 0.396272390181799 -10.0053329093353 0
-0.425463179811042 5.45122940961941 -26.1113101513877 0
-210.225233217973 24.7955082292129 2.9420797232357 0
34.8168149812858 -3.2983695332559 -0.262492823539738 0
93.6199470605201 16.2342238115187 -14.5314594320759 0
-251.06198937126 5.5217102359068 2.48257649272654 0
-166.509997463655 9.15321495779001 -10.1605207545348 0
-10.7760014126624 3.96608096382958 -26.0769699616088 0
-250.877725381841 -14.6238257676434 -24.3435075234903 0
-214.909654062388 -6.03077832495136 26.783035835833 0
-225.9332239491 -13.6346622092048 12.7212570716357 0
-37.9559893207393 11.8560737176768 -24.687141260505 0
-187.619531509568 -23.4201461337852 9.42134210680745 0
31.6225644802753 17.0109265222124 -18.5258831263968 0
-144.958233132952 18.7577794756768 -1.92474866037421 0
-228.191494758773 30.2627035458116 10.7963681219442 0
-72.7059544192054 6.15930960048055 -24.1605503540415 0
-255.031593441379 -0.169435715737271 1.06849168969131 0
-218.65858135104 1.74318152447637 -7.59994492632955 0
-231.776819025442 -8.14810098501707 -10.2583475707031 0
-84.9483674342837 19.5616046295032 -7.11387110003341 0
62.7598151328047 1.77413816454603 -23.7552625917441 0
-228.540798961954 -1.9116718378536 -9.31977610153516 0
-265.352519831907 -10.9266115387931 14.4076034968567 0
-167.858362582141 15.9191243496096 12.2728909632418 0
-69.0772574702615 9.58341916367673 -24.1347874172006 0
72.9008137758185 7.44783538963573 4.95143597602562 0
-18.9296477897074 5.75676551435507 3.72180966896531 0
-27.1869004686682 17.28732478581 -21.2348909860944 0
98.3396830957274 -5.13399840758449 3.45078070160282 1
-123.864150101892 8.14844725533919 10.8609145145389 0
19.3199761826818 -5.57934120768808 -19.1438915894367 0
-203.374389334521 3.6336676333718 -6.36031330443469 0
-219.681656081694 27.942195169264 24.8070217913181 0
-236.455149353513 -2.2011807648573 -11.4252930022688 0
72.5661594828408 -6.06182971983189 0.0430385188649354 0
-132.408572464484 19.2302551303509 -3.66703391402876 0
-139.268611797707 -1.53450926025383 8.67875725951074 0
-82.3649725695793 11.6902596771447 -22.6047471720135 0
-201.445325554543 -7.21208498186098 22.0989059574932 0
-43.2547177367049 1.23221467472644 5.69751417104252 0
9.03809492761513 7.61499249124556 -25.6705277290285 0
50.7655366095673 18.5113378148387 -9.33251669508226 0
-54.4749206045423 7.11029697278291 -25.3125489374027 0
-167.617467000048 -8.19300280735642 0.992800098276699 0
-94.6317545059318 13.9740962723522 1.66422446461387 0
-136.127201793768 13.7944973583229 8.72429478496002 0
-228.133826082105 -22.4874263339445 -0.743357004382416 0
-252.20310702217 6.31263337709979 29.7639567359593 0
-86.6570761628092 4.87813693363674 7.38454114614159 0
-255.801983336878 -40.2859587501863 -17.9592807914521 0
-16.0923932579228 20.5544197006707 -12.8069985709303 0
93.6092712149966 -9.82373748387596 -9.11331204290528 0
68.8349011117728 -5.93804553338092 -0.244887252312936 0
12.6666040440489 13.6097897474931 -22.8192263837443 0
-188.092854956486 9.48507897832928 22.1352649658104 0
5.06503806314418 6.46577933739961 -25.9454526054643 0
-247.426324592707 -16.2084354823701 15.5233931168298 0
-216.870751722008 -16.5039257364114 10.1045595887286 0
-34.8335046751911 -1.63087279227238 -21.3361959654156 0
32.8146030718875 0.856311978047905 5.23744930858612 0
17.3155021086393 2.91151150954599 4.68594793014866 0
-161.360522449938 9.93558297032935 15.9329557872069 0
-113.537350363447 -5.87875379905993 -9.59956367136959 0
-268.608667728053 -33.0046565566447 12.8981062781149 0
-36.4529107144633 -1.04681430161723 3.73251632549211 0
-28.2437866519189 6.54614132581339 -26.0684437317251 0
46.1722918883765 -2.32463718802157 -23.5242777761266 0
-248.621253538437 -39.0305542220402 11.2900998616729 0
-85.2402030002333 1.68470708805395 6.05722065191837 0
95.5351472284393 16.899648073143 -12.4839188483972 0
-23.8157631946778 12.695623863196 -1.18138505202651 0
-27.4189869114006 -5.15704100804102 -11.3220765489027 0
-10.3518546801964 6.67033992407264 -26.1572188876567 0
-228.538618729796 -21.8057640894922 7.42653976273774 0
-101.14439221242 3.10587604426112 8.0118838826394 0
-6.53181817516172 12.2053230580061 -0.504238009714867 0
-72.0436198608815 -3.80149723349041 -1.32364812565892 0
5.54162561432209 12.9616895289501 -0.845054445526146 0
3.92947791171272 -5.63934511373049 -16.4953243188482 0
94.9325998504314 -9.91720085928263 -17.3100875370545 0
-121.741129395886 18.4384975508167 -0.306550779192149 0
-238.20394889206 7.60248060312389 33.8143481536253 0
79.2371555827845 11.2794213260491 3.43619189990079 0
-181.694518253721 3.50979465291868 -8.47047492202304 0
-277.177259760889 -25.0620543989874 -12.6739484560119 0
-255.760492448397 -42.5306466492061 8.28813886907576 0
-271.738372334361 -27.1238000036125 13.0581277715461 0
-55.0651062738026 17.1083074580225 -21.282073838121 0
-81.1039831788026 12.4084621637468 1.47969157710981 0
50.7309700560754 11.7688480155349 1.7941782765505 0
-26.3650254310597 15.6190325543712 -22.4677139841457 0
-207.395355440538 -11.9883974713047 -0.185148044671846 0
-240.476248711751 23.5989211023093 23.9913361910155 0
-230.96385150944 -8.7145614529922 14.2796613122257 0
-61.8079051860771 -2.16359715581265 -19.0470816006612 0
49.381700769027 -1.50719559607432 3.60395181509445 0
-234.492052121081 0.566461287100714 16.0188856418167 0
-256.863858919819 -14.0817900714211 15.3812441363605 0
-134.489033856003 11.7562089254192 10.127524360982 0
-238.849536722833 -17.1059017616061 13.2531276804736 0
-243.1132737876 -26.4862184097458 -21.8358360142732 0
28.5618593879508 14.8987449426141 -21.0922694280083 0
-125.666070635958 -6.92480133277272 -2.45156438946242 0
-256.845867341331 -13.0498904583699 -24.4243279448237 0
-26.8089378328292 11.061936095932 -25.1179418338706 0
-3.09498777403869 -1.30492750462394 -23.4914781414953 0
35.2079207010149 -5.78089105636586 -9.39829411162638 0
-82.671529139707 3.0387868546187 6.98439261639157 0
-245.042631057887 -28.1218703600409 16.517858301037 0
7.92655630687573 -4.4686563614799 -20.3327999686011 0
81.389115843581 9.76559918928691 -21.9938631413058 0
-178.556508155394 8.7917429454214 -8.49667939338158 0
-39.1721208119696 15.7045047470124 -3.91585827376125 0
-33.2186942399301 -2.04655597596162 0.819902563667744 0
-245.217848066686 -27.8503806229462 -22.9752867345579 0
5.8794777324755 7.55376912495078 2.68937829287941 0
-93.1205783011402 20.0478625119392 -11.1023365502921 0
-106.397022982842 14.3408246759164 2.87645177979387 0
-57.0433498016827 20.3251633892915 -16.4458958715818 0
-52.4350849278364 1.33417773064591 5.84531987677039 0
-139.304111826501 -3.57627272241633 6.77080215398086 0
-246.293371090959 12.8247038607524 -1.96061302574197 0
-234.630286348482 28.7498806863 8.06396199441951 0
-28.2614791334954 4.028322457258 4.87053387371266 0
0.79161726222469 18.6534789798034 -18.5988745288553 0
-60.6104914257458 17.4839552426772 -20.7381125792622 0
66.0275628014399 12.8155753161265 1.76090128806391 0
-219.370746686296 25.5934943831563 26.6714147021937 0
-260.854076709144 -42.7051206202278 -9.03399072474948 0
18.5658033634749 10.6517004673372 1.25560300456146 0
-41.3200588707329 5.02948879472547 -25.6464600678695 0
-156.42823062132 9.90898638361293 -11.445656307071 0
-254.52175170612 -11.3762906481746 -23.5880512436929 0
-220.000633314839 -2.15438368831331 30.6066598294849 0
31.5614215156418 -6.70929115687602 -16.1956251693544 0
8.37795816354875 -5.30249751158494 -10.2431888333359 0
-20.3157043766575 16.112458992366 -4.62596729482371 0
-26.206952417752 19.8024319503662 -18.1105216210369 0
-66.7217614238057 20.0503119523416 -9.87190992993784 0
-165.79048533286 -9.1854153741225 6.35313673676045 0
-247.685638005003 -11.9906978070405 -22.1506464286523 0
-47.6545013874317 -2.59287442172546 0.0672193556721345 0
-51.0937136588824 -3.83980153721171 -17.2485229376621 0
48.6414317595241 -5.30718949025607 -3.89060813334714 0
-24.3087489122578 -2.10383742274893 -21.4861553922332 0
-9.82317662966829 14.6133125547279 -22.9140225026263 0
-165.087416370983 6.5931713958363 -11.2883905102454 0
-208.340239411923 -3.03057160204906 26.4906070525843 0
-233.429285184881 4.81159707177901 15.5122306169835 0
-49.6734546778015 -4.51855541110931 -5.52562451762008 0
-168.95241969782 17.7732754891418 8.40437841206126 0
-196.595807169461 -15.0059108395509 2.42566818338965 0
-263.619702793355 -19.3011905000501 18.5480357538697 0
5.43897024505871 -4.57021458503564 -6.62997699993581 0
-7.43425779800904 10.6051347689361 0.717208253642626 0
-36.082455667687 10.8200853671647 -25.0894813319019 0
-113.498048972468 14.3414990053564 4.0317774150338 0
-246.165333872616 -30.5980209326878 -22.5866194668088 0
-256.662290147554 -7.53031316864167 7.41908073511335 0
59.3542656797885 -4.53130524181723 -22.0512701015919 0
-32.4666463855124 20.6384271172159 -13.1758132965941 0
-30.7051379337838 16.2591421071799 -22.0734493574682 0
-264.467132167293 -29.9416933456293 16.8987540701805 0
-249.347245743902 6.42898027383661 30.8779553887298 0
-135.645264821585 -5.56532869197857 3.02838691375134 0
-196.423079467534 14.7647112442627 21.9679409553846 0
94.518730556608 -8.8976447271392 -18.6830128732236 0
-97.5552811261398 18.032268458894 -2.44239164396122 0
-206.085232092908 24.7432530690015 5.65183418971667 0
-268.824609158869 -14.1990754415738 14.4829498214715 0
-242.952352811785 -3.65679484543949 28.9718201421791 0
-121.095214101276 7.67439772700851 10.7499376287304 0
-13.4690092927235 15.8592700303081 -22.1413834473318 0
-226.034359378856 -8.06586687028439 -8.75849186725863 0
-176.273390069183 11.8404183578524 17.9309000134516 0
-203.616170216555 -18.9589825861768 4.51162091382312 0
-239.131046613029 8.36112470398356 18.3284212797566 0
-183.069643785116 -9.47383282932616 16.2218196026068 0
40.3845988966829 9.39749315655457 2.76249410736177 0
-49.7189176233341 -5.04045698169431 -7.94419538602194 0
-103.413724783736 12.9738181871112 3.70931012496407 0
30.4667805090171 4.73198201809761 4.22706408726638 0
-232.748698870404 -20.5496378560951 -7.61088101862475 0
99.5658477795996 -7.95680299767997 -0.508156139674251 1
-45.5256493949432 17.6830752064155 -20.9153427571482 0
-12.2955319650532 -5.33406901837012 -13.1313271722286 0
-41.0610839931264 9.50594630061575 1.47039152505434 0
-249.951424399882 -10.4263347071933 -21.5896300580284 0
-161.000655187054 -2.34339648038263 13.3028256505525 0
-91.4095689014104 19.7008389926243 -13.8107394431196 0
-276.290170561408 -18.3122286835133 7.36426200467355 0
-9.99459357681111 -2.169782955666 0.208348292023351 0
-70.4003920228171 -2.74972648824762 -17.6712477928523 0
-272.006957408417 -37.5111560844047 -9.24244075042463 0
-277.518352034796 -13.4496144460134 -2.46336766803742 0
-98.9646947322831 3.8890527963326 -21.3161898182087 0
-258.573013871299 12.4221896651319 21.4960114136226 0
51.0484697743076 7.64895352374697 -23.944983717374 0
-27.4836785443185 13.7558278595895 -23.7794464719904 0
-174.605101685192 18.4357195148583 1.33927922459897 0
-254.152991781063 -45.0910575486115 -8.0992679453637 0
96.5050539914389 13.4642699397237 -18.3637731167331 0
13.9182144591886 -4.98249662802754 -8.2482154115119 0
-179.329865359541 3.63828281187298 19.7540248474592 0
-195.235577070217 9.22718386577867 23.9991619717026 0
27.8740117542189 -4.6600621106138 -21.5197063681124 0
-151.569743403492 1.10638018215727 -12.5780882304997 0
-1.60474296809347 19.7222220613544 -9.95939819571577 0
-153.174711741973 10.6531896696903 14.079349441698 0
-14.5220055688174 -4.93550642484425 -9.22787922714793 0
47.1752915878945 18.6966370168308 -10.6718549849429 0
-4.53748214386581 16.6218850874573 -4.73083270624392 0
-212.649512019143 -8.73236752905428 22.4025737279948 0
-74.3682639713645 5.39515253778353 6.10971759916715 0
-230.407130399692 -2.94925499148497 29.2429941966246 0
-93.529029362791 13.3974042655036 -20.9956624682047 0
76.2607930778259 17.5128594520693 -13.2264214422213 0
-76.7198196133827 7.80450140560027 4.6023747088791 0
-36.3130329647856 10.4569501699849 0.687699225531788 0
-141.1676597687 -4.8311158978103 5.01190153448942 0
-224.151574851184 30.2248968744243 21.767066408844 0
-17.4251443889406 0.977558883786335 -24.7967003170853 0
-68.6444644189702 16.8336688091494 -3.72997918971797 0
-58.467233711892 -0.588658898166599 3.91446982547373 0
-66.8686023133351 19.261330011094 -18.3693431849479 0
-250.78087448993 -28.1807939202238 -24.7358499302089 0
85.0486881342606 -9.02605608853215 -18.3595956065256 0
-248.270898340959 4.65461670103324 7.01046278975901 0
-21.3929975436853 -1.68095588862536 -22.1539032838864 0
90.0700960772296 -10.1088977539103 -10.8417945417413 0
-180.624062325787 -20.1071081823404 2.77400497194221 0
-146.649762946957 -4.19346563011556 -8.88926334669385 0
-228.866957950797 24.3808872470102 1.35711567395749 0
93.5737868922212 -8.51579766981457 -4.3062135409739 0
-236.495258072883 -29.1094344483662 3.47617807695317 0
-139.898762792424 2.77139527476008 11.4500457905036 0
-253.416394796084 -2.73408728807428 -16.4924099436187 0
-15.9472136232692 2.58863345300592 -25.6651235147724 0
-246.94014014602 -24.9803506936646 18.1012434067548 0
-253.965896955992 -43.1934757329717 -13.5242216261254 0
-206.168905373062 -18.7360508562952 6.27816859455455 0
-165.14616713483 12.3145990940889 -8.37124268712504 0
-215.474361875396 -0.887700584124633 29.7884051376291 0
-234.629316819863 -25.5345007527381 -6.7386096863747 0
12.0190230067799 16.8501328233457 -4.7452858582412 0
38.7289113030685 3.40660725764818 4.87491732800336 0
-160.991738080906 7.18624235687163 16.1733342785199 0
0.945093096405276 -5.52396390219427 -16.7241173516137 0
-18.4958052603879 -2.57418183333638 -0.655286104122157 0
12.562916669584 19.7203581980118 -12.9201781130218 0
12.3293445402567 5.69617979260565 -25.7955739062809 0
87.5655394175953 16.1002878490372 -1.7087261621704 0
-26.9806394227623 14.2147676630957 -2.67848032622547 0
-196.502805416919 -20.5312026296727 8.4247794583147 0
-134.618542682999 18.7774907027234 -5.11478492906214 0
-66.447162766511 0.660621013388068 -21.7324162884919 0
35.5900696591705 16.5747225223371 -18.8493591004454 0
86.4686154778931 17.7638759265679 -10.0509319974475 0
-136.282024222445 5.8193267474694 12.2339341423202 0
-276.082067170554 -24.7827570820444 8.27845952884647 0
-258.758440251715 -42.6243143035687 -15.0969159003825 0
-140.122909265334 -3.22727761931776 -10.77096745471 0
94.5095979775706 17.603029060396 -5.99797364071991 0
-120.342099331493 -5.25315781308736 -10.2612984553825 0
-194.343600146677 4.45748248649722 23.5925088736323 0
10.2030615116912 -5.42362374247613 -18.7112627277418 0
-91.3934909173667 17.3603754551202 -18.4816817952576 0
-230.594933255869 -23.7953444810746 -1.9113534584226 0
-15.0620830018421 10.6301276945199 -25.2845980835337 0
-145.754719280511 13.940185332593 -10.5298832575836 0
-82.0223571130306 6.08315890296719 6.35964670830165 0
-168.772113999797 -5.02162410727117 -4.54526441818949 0
-62.4522541797091 -0.570936134786217 4.15869904494344 0
-149.569191946972 3.03962620188719 -13.861849145115 0
-172.469633903047 -4.10029306962782 15.519867583471 0
-221.788726727883 23.8081101998038 1.3688629177913 0
-268.329269190488 -40.7809168640724 2.52188712814721 0
-5.20827756624404 -4.01673750748063 -4.46440999758108 0
-244.105574538542 -0.358556498057932 -10.3796858871525 0
53.3781358434191 -7.18493265833955 -19.2185215028362 0
-206.385822047953 -8.01820338126316 22.7100330102226 0
-224.987754050947 -1.89923712643304 30.8997850078348 0
29.8762907315099 16.174619274583 -19.7434861259014 0
-103.442726401572 18.9073242568543 -13.1586922695649 0
-254.826812725498 -2.86215097780009 4.14806892440452 0
-151.955881908058 -6.16796399315152 5.50888943887822 0
-30.371759982249 -5.16555018270601 -14.0915499761386 0
-233.98697340505 2.38912128354873 21.8549837196134 0
-259.546174258021 -9.82491504378643 -22.6011881393375 0
-11.1250840145869 -3.97816067185595 -19.76339194097 0
-161.204979152942 -6.77564639671278 9.7604937324959 0
-262.792778360375 -42.3493381189389 -13.0601118845455 0
-252.933915919946 2.1286836160189 29.2386456709929 0
-4.98935801822465 -1.97517280362149 0.860786948713904 0
-239.435100852675 29.6568221862613 13.2599276871987 0
-29.3350037391865 17.9782678370243 -20.6542916127446 0
15.9975582715929 15.7269785571935 -21.0236378078255 0
-254.817618225312 -14.6298540362388 15.7907855635925 0
-207.264133843609 -14.3312053443356 13.1561065812566 0
-123.882821127157 5.05609819268032 -18.3626714932172 0
17.0922051236176 13.7496383345149 -22.5594024854171 0
-224.676284706781 -12.590025961602 -7.07822494697258 0
-148.167694065085 7.37686634043804 13.8069414251046 0
-245.320739877085 7.82345155121496 13.90957922359 0
98.6208920555028 -2.76320476233635 5.07852620071181 1
-225.839422639434 9.75358079091667 -7.28546370449978 0
74.8214575020008 15.1580918516379 -0.405971301284035 0
-240.709346488358 -37.5127748915806 -6.40001264856083 0
-64.1605665074462 20.0901318549836 -10.0437644190457 0
-225.95725682414 30.2256589215952 21.1960130480142 0
-245.200926444764 -40.6192627800881 -11.3672225690275 0
-249.511761945216 -3.48416573059061 27.235668301139 0
-254.074869690806 6.24800251561989 18.8675122534661 0
19.1617692501975 -3.73074724082636 -22.0651880735708 0
3.88484164010678 12.7704704041549 -23.80115144891 0
-31.2173178933303 19.3289342081631 -8.91165630116254 0
-32.2577170638369 20.1484221527682 -10.7704228946717 0
95.8664228357014 -10.8580940002184 -13.6946399107816 0
99.3709720334805 -10.2800456805908 -8.60156903609959 1
-75.8425602512008 20.1150106471408 -9.7229059790869 0
-78.0616147864828 15.7255267938471 -1.60745664023901 0
-6.46587308207661 20.2012410611264 -11.5893789001011 0
-176.016662964988 -0.462382683381232 -8.22461310262303 0
-229.03936319845 1.9963799436639 32.4768098175153 0
55.6617020150046 16.6609680970199 -17.2783041440204 0
-211.201757512515 19.7918529728638 0.709388571190609 0
-195.053531465559 -13.8965751962784 15.9440117147202 0
-91.1273040532806 -1.87580864850371 3.76723036854144 0
20.1075092706663 11.9891614860333 -23.663492898006 0
-187.435163218617 -16.9230731317968 14.2994408084669 0
-233.938862719125 24.2641994172787 0.629930879948316 0
-234.055860133858 15.3262435412328 32.6006368811446 0
-242.631339207953 -40.703310645255 -0.365658647027509 0
-76.5683029403893 3.47386890067084 -23.1123943922289 0
-181.193745336848 10.7028133973159 19.8298308052512 0
-240.443041922626 -35.960702984976 -11.7946763921753 0
-33.0626392894471 0.490506435943725 5.57025323231957 0
-251.406830282821 -34.5126189981526 15.9510135117543 0
-15.4329071732858 8.0211627791017 -25.9805057063515 0
-149.590469119584 18.6859578502329 1.38045884049597 0
-246.233311959757 2.87550767542331 20.8856017389096 0
-7.6598245151621 8.48271954250968 2.10100542845257 0
-87.8742760951007 0.985998921426401 -20.3275967839267 0
-35.0915415446984 -4.98012047982613 -9.90606860661581 0
44.8237776606342 -4.55332284065271 -22.2720084983778 0
-57.7152810859886 2.24843905143047 6.04028624111335 0
-231.907874385471 -17.8241974298885 -8.03671821763974 0
38.4643043325939 -4.69872331849889 -3.82292510677662 0
-257.100150198633 -11.0087798751865 12.2356603272218 0
-49.6777488711701 -5.26936897566342 -10.8507990916573 0
-213.121901153304 -6.6356173810978 25.673272106699 0
-35.4909912443803 3.34851947426273 5.43832194958716 0
6.26138383447342 19.5822121527733 -15.8418269882239 0
-239.820144922678 -2.99669575885637 24.88601409917 0
-134.039804356216 18.0632132279381 -6.91328735823658 0
56.1196638553899 16.6976287595381 -3.427485176068 0
-239.965527852646 -33.330335162841 -14.5733648697826 0
46.3405301039782 1.5063131505094 -24.3228356669339 0
-116.277213496318 -5.60438563895041 0.250725564114794 0
-53.2695891290912 -2.55653249688426 -19.0282673120265 0
-230.246713547257 -1.25153375543274 17.7029962529897 0
-153.030804662579 -0.526615776259542 -11.3440412890894 0
67.2519564315984 8.31011130164169 -23.242452437377 0
-245.973294842995 -14.5658633254045 14.352231908035 0
-234.545409256561 27.8929466523384 18.2724886301551 0
-243.096865651734 -40.407596453986 -9.05831477269139 0
-225.620152773697 -21.272537151909 5.71408546445921 0
-275.764982947742 -31.8189838137093 -10.7210363338124 0
-218.626248683829 15.2805980446564 30.820044104529 0
-39.8287106401122 -1.29197184229073 3.10038449824495 0
55.1436799873465 18.078731991737 -7.05588298980642 0
-162.550103045684 -3.55175504591888 -7.67603144703192 0
-102.764991431206 -5.76625414945092 -2.44981006976194 0
81.3578032191003 15.5946764087414 -0.986740613718887 0
-265.795983257853 -39.7860951175357 -15.168522181327 0
-241.323224341407 -32.7256613444227 9.98417094398779 0
-156.196001216873 18.2624095991549 -1.27085244790777 0
-142.025621967012 -1.31399167309174 -12.2632878424907 0
-188.154299820005 0.321471446264514 21.4340821902656 0
-247.057838245361 -1.98566799127709 -11.6739996991845 0
-214.437795862634 -8.11191691402899 23.78691032245 0
-189.409570191877 -6.9865868497861 19.1461750059583 0
-48.8040747530576 12.1826573767478 -24.3101434676874 0
32.3379039586923 -3.64265861748708 -1.41071714221372 0
-180.072853137888 18.9111138098727 4.31711985602058 0
-208.785721414688 -4.74684539515437 -5.94788298876269 0
96.5322846508369 -7.46941838200933 -0.0501994124090525 0
24.6419089911653 1.53394090840509 5.16060761978722 0
-217.57717887608 31.82427646924 13.9823850382937 0
-80.4626056797251 16.9980677893241 -20.0087573702106 0
-203.617361879569 -6.24778512481649 23.2549788522738 0
-240.519548818901 -30.2576209965767 -17.8313916939649 0
84.2606026498738 -1.04707402229187 -22.5903535035333 0
-172.224961710838 10.482191350227 17.7221503458959 0
-97.6440433159478 -6.04254804779959 -9.83902533030981 0
-258.698931364618 7.26190478873567 21.497598885073 0
-258.120990189228 -0.206380183415499 -12.3284233996174 0
-124.311170426422 16.5934116892958 3.37124772413889 0
41.9023710134116 4.81357255056055 -24.6268790446238 0
8.81059806989806 -1.93209193566825 1.78461352740609 0
83.7803033674816 -10.0412714763548 -15.776395717312 0
-219.386711087116 19.3515601117077 -0.143373723746987 0
-153.698221042627 -6.73547198122146 -2.0875081678994 0
-237.551937464093 25.3145774559481 23.6486505322648 0
-127.317649510446 -3.50292514586202 4.40729587997021 0
-221.737912064453 -10.3047920267182 15.2191063191085 0
-216.41133203972 -7.79496993035927 18.9480855261323 0
-205.641617259332 20.9802350559716 1.34715679412498 0
-222.408706073405 14.4205944541009 32.0685960824386 0
-21.9907140625612 6.1534275579415 -26.1169988100186 0
-275.265698415466 -33.3025768336795 3.54023705021999 0
-57.3976034146542 -2.30435799643058 1.31651896665636 0
-250.128171772088 10.3360792795715 14.8261963566724 0
-20.5994492064877 9.52208279485017 1.48248061666607 0
-249.222398124117 -2.43735374360043 29.0884228747924 0
17.6541557678424 11.9281556633967 -23.7912170492119 0
-47.5739647712901 13.9570631432567 -2.023703618063 0
-222.911263506317 28.0399814184258 4.90586147009192 0
-106.315705059198 -2.27068170141163 -15.6383166510349 0
-245.186934821221 10.9137800999008 -5.40393410280222 0
-110.569806904058 -6.01635199140676 -9.42707282219884 0
-120.817800725524 16.6558576657736 -13.020164137123 0
-243.692166359071 -16.9560722003902 -20.6172670667892 0
82.0616542793201 -6.86979507765339 -1.02172519659915 0
-200.778647721817 5.43544652727266 -6.06670797838078 0
-228.474323264737 10.7822258880627 -7.63211442785873 0
55.62601725376 17.7443348403664 -15.1612906841218 0
-237.077117545071 10.8444941829106 -8.36369661157958 0
34.9803704569095 18.0712655523771 -6.99892606329219 0
-232.34481972365 0.102286356185876 31.7788994469517 0
-28.0592046046634 19.2130253759904 -19.1429016312769 0
-82.0769056766269 19.5222666459793 -7.19484711475071 0
-175.933250047103 17.6791021491434 10.5244837168834 0
-258.804886265305 -2.38452597320151 -15.5059738676014 0
-206.468568783993 25.2028342191736 10.9584265843318 0
-188.309275789819 -21.5424280725728 11.0954403290577 0
0.205966961256736 3.10346034342489 4.63508777056769 0
-235.357006464192 30.349908790632 13.0438913794435 0
-198.484353714288 16.3877561166461 -1.74596527849543 0
-129.02660639442 -5.6615658122787 -8.59849936454806 0
-241.938819504569 -39.0314184408272 -4.38598355789554 0
-189.276466859912 -24.7579900329479 5.06142373522905 0
-56.4490474157197 -5.12048902494153 -13.1501828773399 0
-248.162698035639 -32.9435533053594 15.8270798726234 0
29.5263702347886 17.537051891801 -5.69278097559484 0
-51.9538225245741 -4.53197433901171 -5.27067789884222 0
-46.0646273480013 -4.71296301636912 -15.5470922283641 0
-179.626769094147 -12.4268399101878 14.1684206327262 0
100.751811679333 17.3417620774306 -4.86506709643437 1
-107.313519180683 17.3931656430807 -0.455552298097821 0
-168.67005766393 -2.50024681710659 -7.6602875291421 0
71.6931179977349 5.21253405984296 5.53313727205679 0
-142.754263600598 -3.84970501907455 7.02630894176618 0
-52.0514719688094 4.51423101527294 -25.1387616151297 0
-195.047066085438 -21.5555730602608 1.91957835055631 0
-245.67967864819 14.6335776159604 -1.67169165891478 0
-193.530171365958 -17.586888704923 13.3754734584753 0
-218.254454866032 -13.0189460017834 -4.60701875593112 0
-36.8094969223794 7.48240561045199 2.98266011634576 0
-275.296978824277 -22.678043066229 -16.2114502024627 0
-275.386134500639 -26.7748331419755 -15.4274142302476 0
-220.006609732195 0.37347537364165 -7.83669558654198 0
-235.81976302902 21.6000495319856 -2.37129525315274 0
-278.948194233051 -18.6894351957979 -6.33681139393142 0
-219.811688107645 16.9183440059955 30.5131268023145 0
31.6567968270686 18.0907093532038 -16.6552075669604 0
-146.119013681905 6.5473236570319 -14.7194498012298 0
-81.2670806134239 -5.7499541620168 -8.9221454492964 0
-109.772761316136 13.6713373720149 4.06501100433874 0
100.046703090256 -3.95576532427747 -21.0742737245819 1
-48.5636652890083 -3.3329540437515 -18.2222444520952 0
95.8988379759787 -1.57486984106236 -21.8878441092578 0
-266.210477858974 -6.87357842473121 -17.3895038295522 0
62.7283300841948 -3.0459448736121 2.58861912996162 0
-138.393001980619 4.69037782292575 12.0999020706018 0
-86.438926182265 -0.167340066373007 4.88772935367374 0
-14.3004024606459 -5.33173320433364 -13.7527645106103 0
-244.169897564299 -30.482142223988 15.2188685944958 0
98.6135920789246 -7.25719492617535 -19.7218559064393 1
19.4267127749489 15.822480273784 -20.749358464392 0
-135.297037077564 -4.31150966267066 4.65505152489656 0
-38.4602058930135 -4.23708846573118 -5.68375909935578 0
-78.2629324858713 -2.43912997476296 2.20416552991809 0
-53.048259176421 -0.436176119255663 -21.4740635355349 0
-256.224406891029 -5.67600049575832 -19.4880168206276 0
-155.214618119991 18.5510137272288 2.13148755319332 0
-26.2800664229655 20.0446017393142 -10.5788777739381 0
-19.3785105589661 -5.20252279515631 -14.8992222254438 0
-256.93797139407 -33.2830139532604 -23.4090077267588 0
-202.92892658362 22.4820544127193 15.2898931949443 0
-85.7491142502928 -2.43756957089166 -17.1089531252858 0
-0.00833320454881294 16.6021883977208 -4.62228268320089 0
-157.008280380239 17.4099523776195 -3.39302637677221 0
-265.02328919659 -35.8983012149834 -19.8321463925441 0
-226.417474183055 19.7250306543519 -1.132677919878 0
-251.17348310285 -1.79591057775567 27.9063102080973 0
-2.11707810346267 7.37954662431154 -25.9310590563796 0
-198.161058851433 -7.57910926118677 -1.39184782925475 0
93.6745444876626 -6.91570263001903 -20.0681386556055 0
-204.10415320432 24.1904282112309 6.64768650206957 0
-238.85444698687 -11.6467633407084 -12.6590407901522 0
-116.711733044126 19.4605490657169 -4.27194763741278 0
-182.186607926415 4.08789059434995 20.5280017405691 0
-225.612491838061 -10.2443639996259 -8.25618082758453 0
92.1277189919236 -9.13886791300339 -7.19755460061557 0
-221.426601599927 3.31715074860031 -7.70675468472601 0
-205.645504301649 17.1132681725279 24.3991844538318 0
-265.175818293744 -40.9650986335656 6.84069835507728 0
16.7329954769478 18.5681012131557 -17.3218394927242 0
-221.652454527622 30.7547795063094 21.4469384861978 0
-279.051124318227 -21.1510304735224 -7.43985578791767 0
-274.321698502568 -33.6406331692079 -11.410900525778 0
-247.226254930772 -41.3912042975857 7.06778972977323 0
-231.91393468474 17.6923643727578 -5.0296982177193 0
-251.814084576442 4.80040978086222 -4.1671522807584 0
-224.976142917337 -5.44257126572223 18.3028608678343 0
94.6389070075319 8.45465630926168 5.99454725948256 0
-248.357638014576 8.02699667982449 -5.66478867025189 0
48.4829024179282 14.9310815348156 -19.93849495374 0
-223.370806274694 31.1477582493514 20.1697096445222 0
-245.675488969091 7.44341001540691 -7.07187115994481 0
60.7258499916587 14.3888891191615 -19.7473962175599 0
-178.879090602449 18.6003833075755 8.16626870090979 0
-31.20355645005 18.6308707275564 -19.9025393657264 0
-154.263495051927 -5.14239375769666 8.74567062553469 0
-50.9428195396267 20.4938960449313 -16.2207397060236 0
-33.8406801035173 -4.13054469381203 -5.48852945284614 0
-230.041956963051 -5.10605856417618 24.5136049134976 0
86.4799856020642 -6.53364510558193 0.316563352519447 0
-165.474030292346 15.6231968750819 -5.08323500414147 0
-53.4560685343431 2.82990980120376 6.07449690039997 0
-70.4086296747087 -5.46699284551246 -10.0337918213457 0
-59.2588351154723 1.96796637503488 5.85469182959166 0
-55.0485738675428 20.039510512906 -9.88197763108702 0
-259.040192615144 -43.6754786741839 4.65050562978422 0
-240.648036766274 -12.787144273713 -15.6855329414413 0
-96.839805094664 0.878137402824264 -19.5696159664752 0
-278.582681583671 -25.969922139182 -8.59963329169066 0
-230.359638109319 -1.30452067862466 -9.45635003872927 0
-264.519905934793 -14.4053237471476 16.5921063446175 0
-245.617901132589 8.16161165560894 10.6501010173659 0
-23.9761574058988 20.2534354562789 -17.09067630146 0
-235.918597440068 1.14686265108145 13.8896815415066 0
-158.116996705134 -1.59692333860994 12.91880008846 0
68.3982165602325 -8.93698479092839 -13.4823251835788 0
-246.943903928246 6.93763785752429 31.4321047436162 0
-29.4715618648225 15.6082373181018 -4.13911639154777 0
-108.893238211947 15.9769439362127 1.52431495897745 0
-241.480461163696 -9.20059284051962 13.4174961370382 0
-209.637383963004 -18.4385520997053 4.33363658392241 0
-73.3037273215472 20.3807090864943 -11.9110385292416 0
-88.4326969593764 -3.00793057830101 2.16759768716301 0
-131.439790803517 8.10381470498367 -16.9639628561861 0
-255.434904553266 16.3664131866617 16.3471577316472 0
-42.0053333576498 14.2309264113017 -23.5052367336645 0
-29.9570930843567 14.1528591221379 -23.5209962549741 0
-26.3782586905754 7.09402556202951 3.16980586705274 0
-22.1046123601357 13.1035948762155 -24.1774846222825 0
99.4608150620737 3.80228357932532 8.16245919236762 1
46.6447660408715 5.86107958401415 4.49205074936706 0
-151.470330403221 7.00820868841788 -13.590826054598 0
-138.467233620172 -5.23861776960462 -8.34472057369937 0
93.1973827536061 -4.79669948280537 -21.0634009311322 0
-240.541563034786 27.87542269448 5.62277109772601 0
-154.320817948674 -7.65135591348963 0.609395051223306 0
-253.047404765557 -2.97826912540899 5.24142100379181 0
-7.85631169158173 4.66658273964954 -26.1625931756514 0
-217.760035460256 29.3234391503537 21.2087731197964 0
-229.961552292184 0.781241863740353 -9.3069294562736 0
-32.9835331085184 -3.24295307527928 -19.4649660583111 0
-237.769776542251 27.9662810249274 16.3758875856941 0
-202.313811821799 -11.5871700828186 17.3910691756699 0
64.7057762812196 17.3949857387737 -14.9472543970474 0
-118.782510799791 -6.85708165412933 -4.7926297754019 0
-105.556099194848 18.8930773770185 -3.41343369221332 0
-242.889379286215 -22.7539166939165 15.0816615121918 0
-75.8818830832719 18.5149298190365 -18.7567307635291 0
-211.62480200407 17.6425343150754 -0.61871188384236 0
-55.9467528704571 -0.679779185434221 3.78823018470113 0
-162.405326067724 -7.89241151952795 8.10067652893229 0
-172.102386726807 9.5982039972691 -9.09817106341991 0
-191.011073623209 -12.9293233042716 16.4396965182091 0
-157.25897286088 -6.40963381374859 7.43512122012805 0
-215.076327266261 30.0761018850676 13.4558659101445 0
-257.585555858707 -12.8959236300265 13.65593917771 0
-106.434457576907 -2.40725121296801 4.08375684255434 0
-265.963882435119 -20.7974046637212 17.7202293931992 0
96.0492974264038 -9.85637814465146 -8.47735574424583 0
-246.79291025797 -2.27940833402423 8.943605244006 0
-221.03100306855 -11.0804755598861 -6.46382566326816 0
-156.198645515945 10.613641337364 14.6561113859363 0
-185.045040968394 -15.8352017913187 2.2539553892018 0
-234.348470863058 -0.87226116783332 -10.6279039938032 0
-200.383577270905 -15.1321866870093 14.2653364840646 0
-242.425202387241 -40.253139714122 -2.19117890097132 0
39.0376664302841 2.48467661992976 -24.7009565326578 0
-7.07285420380456 -2.232059988298 0.143430744992059 0
-105.896875555533 15.2183024108472 -18.3077301661588 0
-216.136773800546 -14.4968276453423 -2.66402509180759 0
-270.298125434269 -33.3508096811273 -17.7205120339156 0
-80.9357013075853 -5.33175058814056 -12.0229903082384 0
30.024554658514 14.1125865250351 -21.6523349152374 0
26.4745004645033 17.9910680460005 -6.55619989485012 0
-161.327908796034 17.3721588217382 -2.73407000827746 0
-16.7801026818239 -3.53838656086229 -3.23862963535349 0
-7.57009621002376 16.7257493236116 -4.935690246733 0
-199.90197193118 22.0995527182824 12.0618176136098 0
-272.411835058466 -37.818053642656 2.14040375804829 0
-247.516453332942 -6.91700507843609 -17.646173596432 0
-202.549500188662 20.5122017257879 1.29448911939319 0
-215.888983717089 -13.0073564929896 13.6373930104776 0
-26.9485220633845 20.5245398175791 -15.873726010127 0
-212.936365593915 1.21234691240944 29.2944129260867 0
-162.98676081094 4.53043829602665 -11.8056586891772 0
-78.1217296337963 0.144253465616522 4.80006566981381 0
-146.08497468299 15.0857292389783 9.14680911556748 0
-51.8565060654545 -5.20240241825718 -12.5872709221593 0
-272.701915441657 -34.9269032387041 -12.8507793543521 0
82.7565763981868 13.3255909685555 2.1069006654565 0
-241.802535834487 7.54776675207303 33.129609228422 0
-252.903497335661 1.61078296105329 -3.63511325474239 0
-263.986652277938 -14.011743026456 -23.3750007263672 0
23.5348119405661 18.4018053702239 -7.3499783070521 0
-36.2450075279705 -4.95719668958628 -15.1179606167445 0
-234.957127678963 -4.13258125183385 25.184120110009 0
-12.7252744222905 18.1980149687827 -20.0934328169392 0
-118.534531800575 -4.90309912600151 1.87447962339958 0
-60.9526130433198 12.3772900638539 0.0201320400480495 0
-232.192059749311 28.8735045586913 8.54279854464471 0
-229.471728376557 -5.01086429021917 22.8186890294538 0
-42.3638712987523 -3.70413707414151 -3.58715774912325 0
-244.339570989704 24.0694675048206 17.1021157088285 0
-250.679730885349 7.45531263730702 -1.12959929934463 0
52.4703875192543 18.5953761455824 -11.504020801534 0
-249.500736965037 24.177568569065 6.89491484852975 0
-226.548488814888 22.2396271648096 0.603184157753846 0
-273.786987782508 -30.565516189323 -15.7548030229472 0
7.77218982825243 14.2401901700767 -1.89753955938553 0
-276.462533398002 -21.4841540058196 7.82201535432445 0
-165.56360391313 18.3058321116947 5.42946351057973 0
-123.683679651574 8.20587863674528 -18.2414265739367 0
-223.040538964348 -16.3857263323016 -4.91640075370139 0
-207.590909646473 11.9756652749933 -4.01467472673783 0
-249.895765487041 -0.474803058982922 -11.9405114022071 0
-235.401744185648 -2.67406178345875 29.6516228924708 0
-147.474997389838 -1.59622424067689 -11.250744525703 0
-243.955395355683 7.05861578459487 -8.76683082251706 0
-217.570128881389 31.3525810932152 18.2239393357595 0
-25.8659980459809 18.5369549652339 -7.68066457895119 0
-107.304936737971 -3.99793364854558 2.23677838726551 0
-261.864689649923 -25.2811362373592 -25.290557658378 0
-242.477145993135 -15.4686640344525 -19.9820871835169 0
-227.402790579582 30.5168277358561 19.2210948646039 0
-85.1478448668135 20.0822110920007 -9.39247601978671 0
91.8370420933036 -7.54137259491798 -1.05159508446994 0
89.9016231899508 -10.5336360540098 -15.0307781816579 0
-122.63139748716 18.9333859806028 -7.93906695514633 0
-147.797029813726 13.1271144022418 11.3253561190865 0
-29.6980499716342 8.51492559261236 2.26396887287402 0
-112.679968062578 -2.89396230374736 3.94951376701391 0
-248.239447711767 -41.2032426890665 -14.5643095544046 0
65.4991594590031 -5.96988799378376 -1.29209211978028 0
-253.27081626559 -9.32095280703811 10.36564122699 0
-73.1215571558511 19.9883670062436 -9.28515197776913 0
77.0636486460979 -4.75252578365852 2.15539525169839 0
-275.674792298987 -24.4047850813546 -15.5849527887272 0
-17.2200297651755 19.0411293078676 -8.30655797317856 0
-54.8584131522404 -2.08395047552711 1.70770947018587 0
-131.022945391792 1.37869530907635 -15.7411128337354 0
-240.813789087105 -22.5210660557935 -18.4625835251619 0
-223.942904754074 26.6240343421827 3.43059203654211 0
-89.5223548219705 8.42720836173145 5.57562929282593 0
-242.495784883809 14.0601153986733 -4.88039395945928 0
52.0965299427496 -5.72165261524938 -4.87700608715959 0
-185.07321673509 8.07971475628237 21.503085268805 0
-191.776677942467 11.1182841306003 22.4814951249565 0
-266.929834306921 -39.3361806417477 -13.8303350639882 0
-51.8338611888221 13.6144271104065 -1.53823699313871 0
-28.4511062729121 6.25271377297342 3.67315579002117 0
-272.139626170381 -33.5445516833883 -15.4621422420446 0
-277.672392724647 -29.1960289816479 1.62034765804865 0
-184.949222373344 19.0986887383458 2.69916535840963 0
-21.225662413995 -4.86184980130686 -9.02925716942312 0
-252.903469990696 17.4352777100097 22.0084445298711 0
85.918977192241 2.8495484094194 -22.9926333315812 0
-112.75179126879 3.6985074802176 -19.5590287276805 0
-128.362202083197 0.13652458486453 -15.262654867585 0
-219.214689257918 20.9470169525211 29.4334966919456 0
22.6240923782975 4.63261040600669 4.1695787795966 0
2.92446890246176 0.955384051195086 -25.2768415413945 0
-107.89729261344 2.09310205511828 7.74965687797319 0
-220.519711925949 25.8322604155875 2.07969769931509 0
-22.2611295439417 -1.22612694771619 2.68744944641987 0
-247.575086606537 6.54014538394803 -7.04097328808719 0
-121.100090102153 5.27421657445757 -18.8278004392235 0
42.0641341927536 18.021802597991 -6.85509842313659 0
33.6033277225243 -6.6664194245911 -17.747258704757 0
-237.322431781216 -8.74569364126924 -11.3174612461742 0
-132.06549172341 17.9447247819037 -7.64883416265514 0
-100.038197396228 -6.12528870730864 -4.45604480476854 0
93.9076854245099 0.611589549881057 -22.4221165173329 0
98.1455815291039 14.9633313799721 0.774912189070409 1
-195.266955558776 -8.60876646685813 0.0992956077068573 0
-98.2648291982342 15.8807423239599 -18.9573145547035 0
48.793326501511 13.9779840699981 -0.0471807010712705 0
88.4179191800379 12.005514489245 -20.2319992009662 0
-209.910595573599 -17.235068345458 2.50372054255668 0
66.2814189032354 4.50623338737557 -23.7466314151422 0
-219.782413493878 -15.5329221051645 -3.81817468545344 0
-59.5380378702274 20.337885796106 -11.2016039177997 0
-253.677969231444 15.6359257221424 23.491465514436 0
-257.227986142219 -35.8179255389457 -21.9686571550479 0
-181.17529493081 14.7208051043772 16.6992234183266 0
-188.860218031941 0.263373280115577 -7.06944899005737 0
-232.562651347421 -12.1384284799147 -9.51694429565075 0
-240.467163926643 -36.8878248310758 -3.89279440056584 0
-93.16820598642 -5.59353711356999 -3.53684889256739 0
-110.589850586697 -3.41401452311587 3.26497342160674 0
81.2533785273012 -9.63222548124877 -11.6800977479173 0
71.1844575485472 0.0461020444322422 5.48461595216025 0
-92.6350305469136 7.4129335090269 6.67667051216488 0
-9.18209515213828 -4.5180651747106 -6.96214142307513 0
-232.933689341745 -2.26771340183356 29.8872757972288 0
-245.250797310496 -4.99486323052997 -13.3872631810598 0
67.7227223710013 -4.70620133803445 1.47661814329229 0
-163.879178115324 10.6689310281573 16.126870905737 0
-118.95535576152 12.8050421242608 6.36891389650394 0
-276.272102649645 -11.1442018008413 -5.39754119957417 0
-257.027654812835 -8.89200736865481 9.6247327111195 0
-234.3050117344 -12.4765633480569 -10.2628185737237 0
-225.282104707415 28.6966175864071 23.5078537459636 0
-53.1312449925056 9.47640584267802 -24.9894449927725 0
-229.55484280504 -9.05254473195515 -9.68822491375219 0
-13.7003307029624 12.117217335187 -24.6837664448082 0
-88.7381206410423 -5.88622402819057 -6.14534009378995 0
-232.278130879769 30.835108716932 16.0444052113359 0
-102.015217185657 19.8321049092713 -7.12743056676567 0
51.9733937096651 13.802499181609 0.288328752534235 0
24.3232904766891 -2.6937593629972 1.08155203256575 0
4.47035727795866 18.6464524970366 -7.34591139604703 0
-252.255944919274 0.553927363910977 -4.46664288737842 0
10.3838842512743 14.4227850402757 -22.3098495701331 0
39.6471088784898 17.8138172501024 -6.29799600691824 0
-221.674693309621 16.0517130031121 30.9860604435718 0
-184.155435633673 -19.2169324063236 0.338727142705412 0
83.0198341950154 17.0928669317812 -13.8969085495204 0
-72.4265494351243 0.408043141677319 5.2358735732688 0
-7.74570516779626 16.0616314617837 -21.8466206013629 0
-202.228617540109 1.31203753342024 25.6427625164628 0
-30.342328135138 10.6989487567096 0.539925300849278 0
-28.5192481153663 -4.89871366248634 -15.7617385890567 0
-79.5975899871236 -1.31246857599043 3.63906753918211 0
-251.353592854243 -40.8429375532199 10.1531571161647 0
-20.8445968514494 13.9251240245516 -23.5713342489856 0
4.64472127293224 10.906232513751 0.665285433403523 0
-250.026823182514 -11.2659080353481 12.3491112376934 0
-248.643621445957 -26.2731560002309 -24.6397757319278 0
-260.873420133249 -1.56353781528282 -13.5683742454507 0
57.7504264941866 13.3365725208394 1.00168141572208 0
-242.561771955233 -39.200165737541 -1.29471029111935 0
-181.908383376612 15.8822096240026 -3.3040527167317 0
-128.621786494278 13.2286863478141 7.77796881964237 0
52.1131285075187 4.30285114835368 4.83093925300529 0
-214.642278060619 30.3427558489304 8.77732449259545 0
-28.849028289681 1.99169200457047 5.81086301098279 0
-198.226914767645 -12.3056461240256 17.2559686114835 0
27.4927510669009 -0.565547452068023 4.62099971033068 0
-94.3636323055541 19.5438114122027 -13.70552777907 0
-238.24359076914 -32.0673936958524 4.20608836207345 0
-262.41818563763 -12.5645208543895 15.7447716715135 0
65.2798389900754 -4.96415215982841 0.928511869183187 0
-120.131773803274 2.82393194415987 -18.2004655137711 0
-274.198203193288 -15.3032800973957 -15.8173059198256 0
-21.7731373373698 6.68570168612892 3.27848245778014 0
-40.6088320530442 -2.99925327120127 -19.2124441526599 0
49.8923679850701 2.53926020502745 -24.2485075690167 0
6.86380500282953 -2.13331472149663 1.25079343205153 0
-76.1684139089298 3.77923918323174 6.87803012348313 0
-136.517706380833 18.0662377469468 2.85729779485413 0
10.0445028586458 4.92088624318703 -25.899817391401 0
93.6203303875108 13.8236102399288 -18.1716456709888 0
26.6316864359861 15.6895679254849 -20.4512691956417 0
-258.78363539398 -9.43742293169409 11.6520384821396 0
10.3581031290412 -1.03930473130483 -24.1926736154662 0
-113.262028359231 19.4812669949136 -8.29721999035289 0
-254.894340804649 -35.4152393064411 15.912884738116 0
80.9106156991247 12.4800635862825 2.73698838844982 0
-45.8309319332939 -5.17518858328215 -13.3937368281549 0
-262.793700487046 -31.716581769 -23.0797439021878 0
-34.7327483914846 -5.19591348575506 -12.7893159894815 0
91.6428367253556 -6.58920452895426 -20.2949465832992 0
-215.761495123214 18.9872113519719 29.5858479063258 0
-73.8601435817381 9.00224337524819 3.41542900260229 0
-85.329547780666 17.7822336494665 -18.7413015019601 0
-141.475655662953 18.8150892617171 -2.80276136951417 0
-252.906541981367 21.9722773229741 12.8553860837923 0
-222.174789431381 17.0936531895632 -2.30724867101614 0
-42.3148796339935 -5.13642961906722 -9.73027104667623 0
-40.3539375264464 19.5879662359177 -18.4151020171271 0
50.1408377253363 0.554258174277174 5.23206463176447 0
-85.0005974515968 17.1020641670754 -2.55927080343472 0
98.4637301678387 11.5726829722047 -19.9556387122341 1
-177.716810559572 -4.23638432319051 -4.44989637171471 0
5.97115984723762 -1.18994078370907 2.98822177109584 0
-138.005383495315 12.0081456406856 10.506446889558 0
-245.941884400176 26.8380176507607 11.224571963755 0
-217.197431010221 15.2574062609378 30.5123362456087 0
53.0401708587165 4.74396035946562 -24.1689100112578 0
-84.7418819479188 15.743407828157 -20.6033129535405 0
-249.462620921355 11.679142236003 10.4938421610462 0
-253.920734934359 2.29365515492868 -8.85159779097056 0
