-68.5643584499059 4.44327892882968 -20.2053351132493 0
58.7114984904043 -3.30789762102127 -23.7866701866 0
-89.9282518193976 17.230102188251 9.21871014972743 0
-78.2407818828194 -1.64626876892975 7.91095671333529 0
-109.306290955787 22.1284809624832 -1.77217834935157 0
-111.479090170098 9.61603997799861 11.3543119948947 0
-177.119975023347 34.8986953999259 -0.0545326420586972 0
6.14690141082213 -1.50872185182163 5.24564142167718 0
68.8523946897062 -4.41393957295584 1.59237624374928 0
80.8380807180785 9.33294915230649 -25.06590979061 0
69.9729151631349 -2.4578094128946 3.61551503503194 0
-79.9630490506872 19.1375946547726 6.52958467058545 0
-11.6073668059869 4.25791611066896 -23.292343249049 0
-177.868571397745 -17.9753893194993 3.73237670441861 0
59.7894647558335 17.5861471890495 -6.81385905100983 0
-21.2993322385507 14.3012251012705 -0.972302581885598 0
78.7375152997994 18.2799172838666 -5.50725886977395 0
-66.2181618112975 -1.0401587500314 -17.3456707656426 0
60.9012634217339 6.98944087463361 5.63079457685198 0
-230.904154880891 -35.6187939110021 10.8616147956339 0
-228.803123102644 -4.60517015824274 2.33075279986001 0
-222.196884078626 -44.1525161416889 -1.87994015996363 0
-209.90462619944 21.3182782430399 -4.80298001589623 0
-163.413332407386 28.6278614624412 13.4744694861537 0
-230.010718350477 -30.6156761785006 15.043439172421 0
-75.2969918763098 -1.7176667841759 7.59613159391694 0
-188.665229532018 29.9216830023142 -6.65409450045937 0
-202.380521785491 34.0951046276054 11.481269358858 0
-205.418063176952 24.9024634586859 -6.76738913925104 0
-223.84732727431 -26.619021740107 -23.8232939244259 0
-112.187161597014 -7.56101614457104 0.192341879914076 0
-100.254827970415 17.5053964215034 -9.76332307672452 0
-224.537030785141 -43.3535240868828 -6.6946852103544 0
-158.346607255693 13.4002166943459 20.5184930033688 0
84.5245202971621 16.0464464728881 0.0178636953730183 0
16.5020310128972 -7.63246660112693 -8.59116990927742 0
45.788368482142 -8.39012083718801 -6.29476093891436 0
-34.6704863095646 18.6787464669402 -5.24209253195285 0
-149.553332156144 3.4272599297481 17.3202195356285 0
-25.474995204791 12.5338075519136 0.770264597170287 0
-86.637528156641 19.6755591412151 -6.23086523007483 0
1.66087030409488 -6.35299919846705 -3.17735104244494 0
-79.8874107835934 -3.45846814421136 6.44528914597421 0
16.1393866898891 -4.31938282416011 3.02984899882552 0
-129.900326681792 -6.36841723081072 -8.06048218947527 0
41.7200476820149 -1.92325510226652 4.11681407811521 0
-124.574190764168 12.5404171255857 12.7209217660048 0
-180.043843232107 -12.1421313601031 -8.70417406060146 0
-227.613685751086 -22.0203875479344 18.3223568837008 0
-221.560715016005 -1.40260555452372 -7.23138714742423 0
-44.8303304124223 8.37756680411714 6.92957804016719 0
-229.263305151258 -19.0858761815436 -20.4797130018648 0
-204.623402038959 33.1544818773765 12.4637792072179 0
-175.297818822184 -2.90171419897212 17.7146625341039 0
-140.017520009745 15.4047150645849 16.3454263407923 0
-206.765632695838 -6.91191507893004 -18.2775107140324 0
-201.171387303204 -38.5937812009524 -12.8306292899453 0
-62.5705946539381 4.92418589221478 -20.8276596755092 0
-167.80673156066 -20.5351135047096 10.0169515011461 0
-210.038387819902 -10.6281745088333 17.829291423749 0
-231.769490847798 -21.2392090732045 -18.4270904843073 0
-222.109414711786 -43.7838875777957 -9.68310598757452 0
-116.341684905976 5.3668988061696 12.5587022276573 0
74.2522185651536 3.44946273722393 5.35517507978348 0
-171.220572190601 -6.90281585574889 18.297996633089 0
-183.448743360985 -9.88631410198637 11.932583981323 0
-212.231178409471 -4.49701682014244 7.73852556467583 0
-114.637228197824 3.38473085485135 11.9543828082086 0
-108.074780389483 -6.17918295600277 4.84582639296945 0
-190.320263200563 12.015822002388 -12.1815876052286 0
-72.5846915106759 -1.34737544124379 7.7174599155299 0
-104.670715551614 23.4232125583006 1.83321066513756 0
6.20248554235237 -6.26682880284069 -16.4540774818546 0
-199.010169169213 -34.1674051891511 -15.1446688233761 0
-208.110408710169 6.24310710666756 4.3255495843308 0
-207.829317270446 21.9361050346569 24.8027895861496 0
50.7006420253703 12.7436612023569 0.281621756545431 0
-145.431797777658 24.4368761821918 12.5928403950754 0
-164.974594019504 -17.9594297435712 5.64681941924985 0
-55.2583368197498 19.4158072433147 -8.35384077698001 0
55.8778801961859 -7.96058060235713 -4.11815999588399 0
-225.073495562484 -25.5677361135743 19.8047387166026 0
-195.931977698136 36.0444868058349 11.318089630567 0
-132.602781649731 18.4266783624325 13.3715360203392 0
-234.384413213689 -35.42239976776 -8.22767609204391 0
-221.414592101649 -3.39287155078779 1.26094436394692 0
-97.5851768261379 9.44690590239208 -16.1796493193356 0
-206.980727963273 -42.5148587671341 -12.4801180450446 0
-226.296180987245 -9.64233307452304 14.4471023901444 0
-229.259738974826 -6.96383355377565 -12.061928587981 0
-222.742060127923 -39.5864415531847 13.8479206706278 0
-174.99856751425 -4.78707309600293 -11.5310834707519 0
-198.441712161181 -6.23560877934622 -13.2674700990013 0
-69.246995279647 14.6287894796101 -15.9525191604818 0
-9.46180987043864 15.545729994984 -17.5713925471263 0
-210.125152928904 -4.74898807565329 8.21174731412784 0
-123.404416959285 5.27242286786461 13.2676108667933 0
-149.946273740924 9.21612230225891 -9.2523148291748 0
-187.922794386412 -4.90333103852168 -12.2630435282332 0
-181.815070013045 4.67837382244825 -11.4333242933108 0
-101.54500398973 -5.05595825324219 5.76321428662934 0
-213.698347376668 -42.5188989897532 -15.186628471899 0
-172.533383011098 14.7160864045497 -8.03203477768295 0
76.3149669773192 13.2377579316053 2.0722033015222 0
-202.786497843582 -32.5839178217725 -20.2191001821014 0
-196.784355370718 -33.4655563694275 -12.8871373189811 0
-206.58970300915 1.4949471306703 7.16653511139575 0
-204.657158029548 -33.7030358658709 -20.4796475217869 0
34.079841633693 3.83141844375081 6.09843825597012 0
-43.0620301457055 12.7163965798325 3.28218509374929 0
-139.421286561121 24.0320166997575 11.3961512827008 0
-54.0418003128918 9.45751935765951 7.62189355096381 0
-204.356146560645 -38.4745412816266 -16.364588312617 0
63.8654883467134 -3.3226794431511 3.03331913736839 0
6.6481328379951 17.1079140055125 -5.83529661959561 0
-176.357498820062 26.3647442091625 -5.44786044939268 0
-200.769071786891 20.6003388741483 -12.6023801924435 0
-218.155646601812 -1.22413152319816 -10.0113654090317 0
-77.2221427150559 19.6970290531112 5.12127454312043 0
-212.221256756766 0.952477825670531 -0.6954083851681 0
47.8185174573683 12.3482749974401 -21.6877777595781 0
-107.330837656253 -7.38050784296718 -2.05557286435882 0
-30.0632515334129 12.6111585648657 1.24092603062716 0
-205.778372143985 22.6734381616255 -8.20102041623707 0
-158.65877199677 19.8749286350009 -6.37213143822575 0
38.4977894376125 8.27212420671191 2.96077356671074 0
-204.917037569807 -11.7330952277474 -21.1835366174719 0
-120.071110938394 -0.320933708718329 11.5641261076376 0
-167.57096341219 -4.49765264861307 20.1593659701145 0
-167.47822437609 -9.24587761963266 -7.34433405406222 0
-165.819700952568 -20.4848858508844 8.68297674409611 0
-233.569589798874 -13.2928264708537 -12.8388508748231 0
36.5729131196927 17.4136465551657 -6.92188975515297 0
-199.695729582595 -34.1767301489017 14.3414541514755 0
-125.33727234265 23.4883277584481 -0.0936436910583308 0
-159.970206176763 0.232037495928932 19.8227033148186 0
-212.910452911079 -12.3483275906458 20.0728793139417 0
-170.868275725664 -11.6539878106571 15.8233743878192 0
-131.298549682461 12.9245777633239 -10.3852702191454 0
-59.0164584202876 -0.453090732780713 -18.4988526889471 0
50.7296265229605 1.01285837116951 -25.1556046855095 0
-11.5885180725171 -4.91417093446691 -17.3307924748067 0
-170.520438092535 -4.6883464916973 19.0661126514957 0
-126.08899692322 -0.664581162001295 12.0820995119795 0
-91.1376744463721 5.71101123859449 -17.6943971572018 0
-36.6958737978518 5.82905069877649 7.82106072916344 0
-181.201712661298 15.7608735149186 -9.49201881987025 0
-194.568137937946 15.1362433681002 12.0745014116776 0
-100.711343695328 22.4246308409449 -0.397770410212081 0
-98.6980840279586 21.7654939419395 -1.85669042161741 0
-161.257674400729 -9.8566865615375 -5.46311541903402 0
-163.06390948079 -7.2844021683167 -8.32424527461296 0
-197.462536023789 -13.2610319912668 12.5062386358906 0
-208.361634708268 -43.3499717984902 8.26504943446117 0
67.6692956173572 9.20747516320523 4.55469092711551 0
-19.4919319105532 -3.20698161467539 -18.9995267096181 0
52.8036085657085 13.5115923998718 -20.6851998643131 0
53.6427106971834 11.0900355577611 -22.7996208144579 0
-214.233449238625 19.3787827123631 7.53736734956281 0
-145.381269602801 -10.8840240262254 1.33203144177809 0
-94.9171345549429 -0.712127233654398 -14.6583510941095 0
-201.858584552548 13.4633602617775 21.9976768148148 0
-206.00635044838 -41.1899421242005 -14.0654422084102 0
-73.2380426362167 -0.151979171203113 8.33256891980367 0
10.6760829986611 -7.00394968519409 -5.84631380047239 0
-145.908114714901 6.98853846907599 17.1948196555494 0
-201.356049408998 -10.9164399703354 -16.9239147911179 0
13.4252184472425 3.94407163690495 -24.0876332532444 0
-57.5158721762846 -2.50738067800786 6.79205016541623 0
-200.548190610048 16.9869661509384 -14.8164270705636 0
-209.632619355531 -44.6094182968883 5.50421815476664 0
-238.335297903126 -25.6198433237306 2.02458097803196 0
-78.5841161701432 0.469702265076889 -17.4321659797272 0
-136.137671919294 25.0296772912589 9.01869816696499 0
-235.791068435034 -22.9709828819968 9.65631263224327 0
-173.551611079425 24.9437686169701 22.8103784146436 0
8.23740594494775 13.6864974243679 -19.6549277844764 0
44.7527416673833 -2.9054887532995 -23.2251300951321 0
-87.142209519358 8.76913415350228 10.6869490602715 0
-120.444062966316 -5.6336002058056 7.83219514008218 0
-186.197000850705 -0.843888868429638 -12.8036084426266 0
83.7670945266258 -11.9108859269149 -8.73823373699156 0
-208.931394418581 -3.63344820811689 9.7838424850839 0
-188.39292905497 27.2053031979567 23.9581753567805 0
-182.003649582507 -12.306235014259 -9.14255724299199 0
-146.873077192824 -12.916482394134 3.79734928557593 0
-200.37160186862 26.9011641965977 -6.19339120148572 0
-229.196196708621 -37.6471836908888 11.0029504930254 0
-206.57448873654 29.87600463497 16.9850591683382 0
90.8462945786131 13.3220108116522 -22.5921997242549 1
-126.77743526254 13.8454683209264 12.8553090288437 0
-65.6946401575981 -1.47937848298691 7.47156792047816 0
30.5292431955883 -2.30113914414402 4.43034053180364 0
-161.43350677479 12.9930317712059 -7.91495682828429 0
-38.607051547171 19.3036241477118 -7.14835485983398 0
-135.420525871993 2.30438617009387 14.2467983826582 0
-37.2767908091891 15.2635657556586 0.0927432546960883 0
-132.76244706175 16.7657918620649 -8.4388340773871 0
-44.0741202043845 -2.212366996948 5.74207001240024 0
-162.935613714267 -3.73097975536834 -10.2004281088367 0
-207.944140791436 17.5137515449074 -9.17105861772269 0
-179.09586079898 2.53724147745155 -11.3362070740991 0
-203.42439607667 -1.29349643684583 11.6771760067264 0
-220.215200399924 -40.6080622907223 13.7381106530758 0
-81.2483430102546 -7.20940491241776 -4.12839624968412 0
-215.671372629928 -42.4239607877338 6.82095291079228 0
-142.410999304463 24.3578343540889 11.7494113185528 0
-122.093492021544 9.50002215986244 -12.7972502595627 0
-109.950825333357 20.3214567455414 10.2322539609722 0
-206.969178323874 17.7563427063209 -10.8378999442332 0
-167.661894535133 -10.4890102393615 -6.18701278221109 0
-69.7703681809581 2.11617618185983 8.84452999341294 0
-139.193360019432 25.7172903879543 7.03811735199308 0
40.493416107103 -8.75316593550657 -9.60174035844159 0
-102.372436562292 2.32161516908955 -15.4391836439867 0
36.7108435715061 -6.42557249012162 -2.66042639853226 0
75.7727340875577 6.47980135790157 5.94129932005887 0
-190.284941209992 -14.5903299843659 9.5992241781266 0
-189.272155797771 35.6056497396732 -1.18339823898557 0
-217.561122222151 -41.8244697497191 -16.0352715451935 0
-159.133126621305 -10.5008449348142 -3.89707928015853 0
-42.4821462460688 3.6912906058291 8.68977336189945 0
-105.581106209742 10.8600321127496 -14.5873765898214 0
-188.597423992667 1.39330379164362 -12.8713102440277 0
-212.56277733099 20.5877345660577 21.0079333505557 0
17.90553411207 -4.23772982953387 -20.3768017357321 0
79.3202804515658 12.5305676733776 3.06805293703103 0
7.55409727610407 8.03775936527089 -23.1076241625989 0
-219.935289260869 -31.0859969277757 20.3969221760057 0
-206.671682218684 -9.00119608892888 -19.9545676618439 0
38.7192622061204 -5.59619741102084 -20.2856913590735 0
-226.781390674295 -34.098909407913 15.8894831872852 0
-198.139186741252 28.7141810839472 21.7863199219397 0
-195.872162762365 -35.2795051490602 2.25681871112079 0
-141.474600618425 21.0374814768377 -5.01467260604607 0
73.6452800399244 3.08746759621978 -26.3707309661025 0
-197.791132151727 23.0621810708447 25.6626464910758 0
-198.048745990058 -34.9749781731112 11.1428256563797 0
-226.021604041675 -8.21792018050211 12.670378959722 0
-120.946446348356 15.0239683675805 11.4883383995276 0
-82.1076136351161 12.241887529762 -16.7330110336188 0
-175.631151466672 0.0695699355968687 19.4261880793509 0
-228.664118251866 -27.7406498800369 17.0439336174173 0
-51.4994011580528 16.2071908127741 -15.3810444700194 0
-189.641208425319 20.5359066835837 26.6606982187905 0
-211.163729808666 23.8235503414636 19.5774629524571 0
-41.5272155973762 -4.29917940324805 2.64252598356715 0
-182.371848892673 5.97332304709281 19.9811795234864 0
-215.831508199379 25.413634352376 6.43316177416281 0
-197.638375026513 18.4805840947489 26.3675728058971 0
-170.090781873658 32.8563234260179 6.16030361909845 0
-6.44495024411092 -6.76572539301916 -4.40359774592324 0
-212.257693856044 0.638787705084446 -2.65191454163556 0
-112.635856015881 -1.31035682962596 -12.6410929049193 0
-154.557392257901 24.3932203867432 -2.14889305884762 0
-229.515292799094 -4.47860947282703 -3.05290269033783 0
-224.385535614506 -42.1599205652406 -11.9534633338881 0
-201.643406399554 11.3551000196354 8.39604456260533 0
-215.656149778999 -17.3681686445418 21.5445701416367 0
-214.983867839264 -20.7212783031601 22.0983120245435 0
-1.76360790304062 -4.36689402341445 -18.8138252468315 0
-159.007309890234 -21.5977315265498 7.9935951971368 0
-9.40760717184298 -4.79549478042454 1.34829171003858 0
-19.762796644581 16.0377159006905 -16.8758866909287 0
-80.9738484075021 9.1311469931499 -18.3403548779619 0
27.7960796389904 10.2221948841797 1.10066652025636 0
-166.122334577154 21.657730226939 21.2180632211484 0
-50.757210788925 -2.43121118656753 6.40023472812027 0
-212.928525249146 -43.4286185252589 -13.5844895487667 0
-66.2515641728527 -6.63341112828112 0.0929435355213467 0
28.7013146326693 -1.27608307365232 5.16427165222043 0
-185.12187478024 18.1440729485061 27.476276505433 0
-92.8715383062492 -4.08181206794171 6.35690064033545 0
-119.866916907577 4.58487644883455 -13.7967178223117 0
-192.378357942801 17.1073426091898 -11.9885777719856 0
-192.286345950458 10.407472912777 16.2640106858377 0
-128.458226432814 14.4243349822293 -10.0386392345886 0
-213.652013173336 -45.8384437892975 0.684596574619684 0
-166.662242859567 12.1502210720245 -7.96816221169227 0
-194.247324742532 -9.55157094580981 12.2473031019238 0
-169.925632072485 -5.63523961298408 19.4486627936396 0
-129.789226522501 25.2544079809729 6.27296098253828 0
-226.241257056822 -39.3587209372062 -14.851114947292 0
-184.461926218013 31.0273781619412 21.2014154255316 0
25.5591722629948 8.22472653421736 2.6386814558577 0
45.2154534079385 -8.2683329534983 -16.6495008356103 0
-188.813973178405 38.8262503885677 6.4157317622371 0
-194.110404652415 35.6564614702457 13.0458622640916 0
-55.0282433659168 5.85384522594725 -21.3040175549029 0
-127.170483396575 19.5350831234567 11.7972939062656 0
-138.372216046127 20.9845182440255 -4.91269054426048 0
82.4180065884305 -2.9062383384785 3.79230871413875 0
-120.481776188125 22.7311172060658 10.0932944914128 0
43.8350688084474 -6.94886345424422 -18.948122670693 0
-215.562445029972 -34.8492806888652 19.4212429442155 0
-78.3783444886986 20.802458581855 2.49396440290052 0
-201.551588356468 -34.7196404016455 -17.9745468603256 0
-206.716152435795 14.8181584788035 6.8947173158659 0
-215.094780342504 21.3087721818261 11.4266988232706 0
-237.029191382492 -30.1898604614815 3.17355535470918 0
-12.384657415556 -7.02520447832586 -11.6271571948923 0
-2.4321807497689 15.6179127743767 -3.34818501072071 0
47.7181332217329 7.66545471782973 -24.4902471549864 0
-215.123671297372 -37.3525163567909 17.8789813433971 0
31.6997394182326 8.3763641268004 -23.6482396549176 0
-44.1088271937477 17.1645348333659 -14.4109836820182 0
-197.151475902805 -3.28864822945434 13.0423105024494 0
-63.4033724140373 15.5367253377448 5.55597892765531 0
-232.414064426884 -36.9040979972375 6.75147658994158 0
11.2431243076244 7.27583782821452 -23.4486910021458 0
-175.540721444389 26.6702047820974 22.491981655414 0
63.7738926807286 12.0772390293156 -22.4522528481067 0
-65.0792915936437 18.3212549295939 -10.8968740291026 0
10.9643841862632 -4.9142406410453 1.52636535237923 0
-63.912871063639 -0.493568588422749 -18.0256853120193 0
-118.448084888602 4.23753239850672 12.5379474734748 0
-208.252213187573 15.8132360903357 9.91028476822616 0
-196.500841295901 32.5553059023024 17.5958721088002 0
71.5934890160794 5.08893372195635 -26.1317238750388 0
-197.847949317068 -37.7388980803979 -9.0884818141143 0
-233.013144214901 -11.3363714575462 -11.8724889580448 0
-225.333025484147 -20.0392579878098 -23.2015293972492 0
-210.899552248181 5.56144800313611 -2.89477564863337 0
-229.751674067711 -13.6814835819324 14.2607074899538 0
-119.188936114927 15.6807711761084 -10.1082033729487 0
-194.055172005004 12.9367031210321 -13.2695690499995 0
-208.252408542953 15.6728023748726 -6.13199616196408 0
-181.197694014599 7.57880074227662 -10.3758709995358 0
-193.199275707443 28.1035874525459 22.8162572061193 0
-186.587786492583 -20.2826510824845 3.71182605001461 0
-156.283129793303 23.0017040355604 -4.19578723003287 0
-165.7344255508 14.0808299374669 22.6128454856209 0
-215.879341931491 -43.1408086691602 11.0302941385301 0
-202.262208362936 -41.3080338865429 -9.4781437277858 0
-167.88716151317 15.0566615360407 -7.639077487312 0
-109.484751775835 -7.40537275022315 -1.92531860589335 0
-163.160350045885 -8.79487515590568 20.4826713004507 0
-237.462685337379 -29.7799141812419 1.28191667754135 0
-135.536332503988 18.4379408674858 14.1294872341077 0
-146.93591397579 -17.5497656144934 9.66615598299511 0
18.0678603378113 -0.659220915489406 5.60504132000761 0
-232.549384559772 -8.78493519315709 5.19895833906093 0
-209.76603669177 5.61862071702101 2.16725002043768 0
-236.075359851579 -31.2915915148973 5.02882376558513 0
-209.145623971912 -8.40910332147955 15.457246613629 0
-16.1902380711139 15.0964066274158 -17.8486406720935 0
-212.961042612759 -41.3927500493297 -16.640531465291 0
-201.251820717447 -33.0810811155404 16.4237450709105 0
-144.436788389807 4.91129182671804 16.6744986621987 0
-228.447687335771 -30.3261723462705 16.4735285645434 0
-184.12627378342 14.7363945755372 27.2697203575928 0
-84.0343487595184 5.15066605461537 10.3807781892039 0
-169.988616406114 -14.1813326043521 16.2252003223524 0
12.4243011262392 5.37949868283528 5.48157445655053 0
50.248732928326 -9.15028394265269 -14.4013119831962 0
29.3224210023243 -7.53229801759785 -5.74764135807669 0
-0.390237642772059 0.633299533472974 6.12013841941461 0
-15.4622889379769 0.0735550355176991 -22.2930676757073 0
-10.622911076051 17.1738419095322 -4.92386049968219 0
-124.381726721441 9.17485820261177 -12.5903089668703 0
-122.608049863959 -5.83178896580703 8.03985021117475 0
-169.84277724151 22.890972471269 22.2237320998324 0
-94.6921084036789 -7.26349688222304 -2.55152209779865 0
-149.384418455436 -19.9140907647567 11.2391053990576 0
-12.9204399435821 17.8190294271494 -5.95002455654156 0
-193.519776998446 4.15410961583823 -13.3266915230186 0
-131.83627457958 9.45318022408253 -11.5502649464557 0
-131.221721648937 25.1421730800358 4.88997688157653 0
-86.4794799317467 4.69007307547719 -18.2085126752627 0
53.661175601162 17.872081995117 -9.98368381127961 0
-20.856033805004 3.06170484633163 -22.8980890566575 0
-166.378497801639 21.6638205698944 -6.03630662014914 0
-118.822600290629 24.6175643178811 4.03123598804788 0
-109.199196593937 -5.55385182484128 -8.52817897858215 0
-199.87476653688 -41.1395886500042 0.0219794068380083 0
-237.271364872449 -27.3427724300475 5.09259889274979 0
-235.301065409347 -15.5495938784021 -11.1804898969494 0
-137.395522559248 25.0619385457646 3.20885963931601 0
-188.935076269308 17.8894606748314 -10.5566820523829 0
-101.017181010064 13.1884044177285 9.74176281655323 0
-194.187625894613 35.5691928248108 0.0746604772580311 0
-109.150797931264 -5.50343795255107 6.31902503711882 0
69.8746217097545 18.0601595987645 -12.7896589187919 0
-170.17901755709 -11.0568174269617 -6.33141142899111 0
-129.279734661157 -7.20562720585861 -4.19678183150436 0
-229.01252837753 -41.4017664870438 0.495032774958822 0
-90.1869090603964 -6.39621012706501 2.88064895290722 0
-206.719918752535 32.9186731655131 1.62670340056384 0
-147.565763327748 4.03313426770073 -10.9026358320131 0
53.2370651803742 -5.07257570469305 0.366678016785481 0
90.7760005433582 6.75699031176819 -26.2810901533194 1
-199.484430326667 -40.0776379976722 -5.97532222719697 0
-182.665973001495 7.30672856100167 21.9111473586216 0
-222.030174171981 -41.9996868711504 -0.872713791585114 0
78.8146152671891 -10.0805429442878 -4.80950570301873 0
-122.645112238959 24.711390575411 8.40989973898893 0
-135.131177141939 6.27014924559695 15.1362869170199 0
-237.510820098632 -24.0567256472793 5.94444043469203 0
-217.622181155703 -2.40396358619471 -1.3205268965636 0
-237.836510460611 -27.345060259013 -6.97899075903657 0
81.5137646591773 -2.91092006082777 -25.479615008968 0
-206.000675625019 15.8930747314342 25.6643061676865 0
-52.548138389335 -4.20827770382806 4.49834607084787 0
-237.044110678078 -31.7258458071712 -3.36545141620249 0
-195.930516006327 14.4600894502687 10.8072995876545 0
-139.213780953273 -10.5114351520638 5.80520421495462 0
24.0404125046477 17.3767339014652 -14.2333647409754 0
-236.275171224952 -27.3667935168214 7.90210735764832 0
57.3939372373024 13.6812093772688 -0.158519924766005 0
85.101638949826 5.14956470775499 -26.4818971985048 0
-159.989576525258 14.654688504681 -7.62275832285137 0
-55.835727589393 -6.90835772544016 -8.34090238173051 0
-158.339655865294 13.1135931700922 -7.93895732953765 0
-0.783668438828712 16.7032202418586 -16.2845313259105 0
-18.5208674122077 0.12837969885777 -22.2054099314863 0
-128.067840224179 -8.72044179702065 2.1880295799654 0
-95.5340677969869 20.2989825992641 -4.84057886898748 0
-122.717601426502 9.02540288958348 13.4279624842915 0
-205.466156571139 -40.6261596331546 11.1628742716741 0
-114.887631250469 15.5869195575084 -10.5907204648484 0
-186.554253317763 9.47544812524043 -11.9647131862297 0
-161.520976415148 -16.1170482146432 3.673055958329 0
-176.976417542251 4.54078203347767 21.98969991877 0
21.654904951872 -5.18526540176464 -0.643785465045231 0
-109.027078905056 18.5093233495138 -7.71375347225068 0
-224.409336550761 -3.94754308225916 -13.3645231944076 0
-55.7846947194608 7.27013263919964 9.22454186362862 0
-107.63628481808 14.5590365300305 10.2849107716275 0
-230.214941763488 -9.54392673665141 -14.2877992599579 0
-46.7495422428152 -3.37175049905566 -16.4719161841747 0
62.0410710077055 0.89637601292714 4.58265225047428 0
-44.1025156193646 5.96773019415737 8.47899266981338 0
-183.57332672582 0.905740826758001 -12.7086731222605 0
-163.740501300196 22.7611333117173 19.687578363273 0
-161.753339626398 3.33937369200623 -10.2132798610462 0
32.7091605778569 16.3055444235566 -4.60038536859249 0
-159.334299094558 23.5917587717518 -4.04578468507981 0
3.94977943105725 -5.18879890658076 -18.0907881992714 0
-143.875441956632 -10.1928487760385 0.185482446892446 0
9.23441689483344 5.49545988808027 5.08413260499677 0
-211.721719326443 -6.21519383753943 -19.8186445405852 0
-208.825031411628 22.8500133179219 -5.40830662696601 0
-97.9212178418761 -1.81321039834239 8.61827261185328 0
-175.621534351302 3.03033148875692 21.3305844039196 0
-173.20799380483 33.8164647779805 12.2012406200664 0
-223.286638935089 -16.6295828369347 -23.3976425944484 0
-30.4311581315648 -4.48857755570467 1.42071912623671 0
-83.6821693709055 9.01003118429708 10.2910226062567 0
-187.769547137614 34.021154721795 16.619312574651 0
-212.16704866603 -45.3088064799303 -8.70051802546313 0
-106.68632589355 16.9210591047713 -9.99922857957336 0
-106.280872168862 23.9094063465293 4.44194072224471 0
-124.147715736011 -6.7575625471228 6.85854630337471 0
3.52258202052394 5.85005271605791 4.60945343475532 0
-172.992581151084 29.6806024998855 -2.58830949352108 0
61.772774125135 -4.17398294212159 -23.4287650373044 0
-203.37945217146 -20.1125429665083 -23.2901808098395 0
-144.504952232749 -6.67799412309143 -8.12647788177025 0
-194.382448611795 14.9007939138369 14.5537371566593 0
-210.10010935168 7.2055615921205 -0.491295120084713 0
-211.398407800296 0.513103746342741 2.56095992894097 0
-41.3576030662762 -7.07350753595843 -8.57903768192422 0
-210.267030572004 14.7094293972941 -2.03475362842412 0
-136.302758928078 -9.16546496225883 3.07256993413612 0
-211.924798163172 18.3541951460275 23.518769487238 0
78.1367187688036 -11.6798674574763 -12.911454607662 0
41.3112541568629 2.72836849842997 -25.0223071311289 0
-118.36017653583 9.1001966462374 -13.396164371573 0
17.0054993746489 14.0600187967902 -2.17304685567285 0
-23.583647277591 11.6921573965579 -20.3523026399888 0
82.8459391426006 6.9617141772838 -26.0402828417928 0
-209.535134081069 19.934490962192 24.9158855032878 0
-134.675711406138 2.89375365962122 -12.0648227936948 0
-178.004499075517 23.6189568714011 24.7999082249969 0
-154.266734071964 15.5963998232159 -7.55591095514823 0
-140.71982381119 25.3489494569129 9.38029759395898 0
-202.897630383007 14.7960294581544 19.5286337711761 0
-160.82605848892 -21.5481211081761 8.40449851307363 0
14.8276417180783 -6.36291967044233 -16.9086914784109 0
-194.475978627537 -31.388720808009 -8.66782361040457 0
-169.849021708063 32.4323194067461 4.72513750160973 0
-111.080207145109 14.7162196402815 -11.7033880036225 0
-215.588760219222 -6.05060014986595 7.91762670453647 0
-34.857784698547 15.7596000783724 -16.6139606226727 0
-161.34704807918 2.1726043929485 20.2765526270039 0
-47.7608102918529 16.4395747119865 -15.2422867425094 0
-227.115445818854 -30.6418710386416 -20.8996136705566 0
-78.5445528578065 -6.39010655361797 1.88897542101274 0
-166.011849313427 -7.20023253651312 19.9804728463459 0
-174.236822966142 21.8741164016399 -6.71963822989558 0
-232.439207957086 -33.6110091004612 10.4221694453474 0
-180.478047149689 39.5857483490727 6.82888870823165 0
-160.729274672129 12.5206837007825 21.2112965257045 0
69.074886061311 17.6028456179424 -5.24783918263136 0
63.950529162944 6.9179667614948 5.84986898017378 0
-145.01519737856 -14.5183828245645 7.51287407198546 0
-59.2670160946727 3.10318218814929 8.97997673723777 0
-162.890441703431 -21.0094617982406 8.57340179732406 0
-92.9353489448229 21.4977051537814 -2.13357943256083 0
-205.356906057789 16.5840833355671 -12.5044941143696 0
-81.9853482088262 12.176219206403 9.2861975538125 0
44.3650154776687 14.9267086675795 -18.7981185110073 0
-24.4784689147308 15.8434246234711 -16.9473391361837 0
-209.226683609065 13.9506131113259 25.5333192557419 0
-197.510273235492 -32.6948819389621 5.1131788543843 0
-200.910120485958 35.5712322681292 2.18373596192479 0
-0.727276824751489 -6.18543668795862 -15.9891934444397 0
-185.787202343154 35.7174509258337 -3.15839657355421 0
-168.266392479576 -1.49306051621669 -11.1021790271802 0
20.1661473532413 13.507607970647 -20.0161203364442 0
-197.704819815507 -0.6979018374023 -13.9122723851293 0
66.5205472060431 17.5663566763233 -5.48877025632071 0
-197.134744191322 -5.52367914211229 -13.3447558659876 0
-209.800282463611 10.5869927466507 -1.8233112341785 0
27.0704656552832 9.19829801632336 -23.1646464094612 0
-116.532385885122 -0.705997637324594 -12.5884680286111 0
-122.684556605942 16.4423970840276 11.8182259378585 0
-214.248587610249 -0.0262654957623693 -5.51988593111348 0
-160.629763040468 21.0535413526242 -5.89593567688634 0
-51.4974484479906 0.0871142499140789 7.58598229041207 0
-120.322565076577 18.6011416532366 10.9770649377993 0
-22.6688022345867 -0.133435169420412 6.34749323248767 0
-145.120038063756 -0.260948078555674 -10.6538682821845 0
-220.292111768298 -42.7104365591749 10.1054706036808 0
-157.301648458559 -19.5653226270116 18.0874991582512 0
-14.1706778443524 13.2880698531521 -19.5559821271106 0
70.7578041137462 -10.4983571228426 -8.3758308036614 0
-137.391511936712 -9.01682352626311 9.45973757948225 0
-194.009707861255 21.3300262046542 -10.2373502075005 0
-206.360724297876 12.093038533263 -9.22417770384525 0
-20.7961919147148 -4.3355562412995 -17.4584330543739 0
-209.433870640488 -15.4714794118903 -24.2279380244478 0
-228.002598292264 -5.43787949144503 -11.2925081994052 0
-208.252181547875 14.8616970292764 5.53667587500876 0
45.5463077271622 13.3475737900547 -20.7000030759911 0
-198.119525490384 16.5499333303592 -14.8756506500683 0
-201.532044011649 -42.4677685167067 0.998255085369562 0
-167.404035507225 5.08768219883478 21.911484482504 0
-0.248664966644877 -4.57358906762902 2.05290000664721 0
-156.091508237508 28.1663683165684 6.58108601129143 0
-42.0983508208471 3.06514091098414 -21.9115133317276 0
24.4121822503042 -0.910756855106182 5.38524953659867 0
-56.9995602433055 -5.81235864110836 -11.6958598590687 0
-5.48975260424734 0.248835476604064 5.86723897371093 0
-107.262766478654 23.1208345226141 0.570586656656389 0
-34.1615797997262 3.42030152387341 8.373701274117 0
-200.53229146462 29.8538203968669 -4.71837887130283 0
-165.416823273148 -3.71934352405842 20.4568890714788 0
-198.960937016562 12.9285869522595 9.4403456086953 0
-193.047506532496 -24.5755821021128 1.99251318739641 0
-172.803649398276 -5.08115227096857 18.0047605130381 0
-238.626890476383 -22.2276102542728 -2.88813189947936 0
-60.060155277763 -1.69691476459035 7.29379159679238 0
-116.414143625386 -6.54676438038066 -6.54227265500634 0
-192.320542402082 -24.7385989441109 -3.59925318543818 0
-26.5655151826782 2.87480674981871 -22.6510362789902 0
-52.366521969077 19.6518809284702 -6.54865751366229 0
63.3321041515822 -9.97146259847594 -14.9932625529518 0
-89.4942084381311 12.3857689467211 9.60924322921884 0
-179.626208714634 31.8000483152871 20.1485371573377 0
-198.104401290818 -13.1354244798849 -15.0818759451709 0
-43.5565947176747 -1.2254694193123 6.90744798663648 0
-99.0747465278289 15.1089675366883 9.50593768306642 0
8.53095670498089 17.9644738124078 -7.79312107777813 0
-198.633969235263 17.779136128473 13.9927735312723 0
21.1161077372374 3.77362847145426 -24.3674846475266 0
-218.463466273896 -28.9208066510045 21.3516683136425 0
-108.793820533014 -7.29955169012849 2.11151752302912 0
-74.6935854508881 19.5954328651392 -6.90196406830489 0
-233.607865535517 -31.8002124582632 10.1026964265453 0
-34.7302327908979 9.27003852161196 -21.1874775018332 0
-130.966604522907 -6.94552978443274 -6.1600813034345 0
-188.412989553139 39.2833377452427 4.31751794748987 0
-211.520648975179 -38.2708388908699 -19.5914595946318 0
-119.430656109012 -7.36532831466091 -3.24313281628413 0
-215.764236987812 -28.0366061239684 21.8823744110838 0
-124.896316755599 -8.36840844025394 0.671191024625577 0
-152.195096934858 16.3722188583225 -7.51124088392299 0
84.4777216578871 18.1140091696446 -3.71760085914763 0
-170.247282841348 6.11265561643913 -9.44927880581961 0
-91.7014846624284 14.5748176767376 -14.0286775758006 0
-192.803662927468 22.5590623197427 -9.63834892886913 0
31.8128589379003 13.5490034607258 -20.1885727109246 0
77.6532630724781 10.5761249853527 4.44123808098869 0
-13.9759118751386 -7.35267508046931 -8.90710255355357 0
-150.295738424588 11.4088688866517 -8.75217200433639 0
-126.690976645664 -8.50605416213337 0.828980910024289 0
11.9356429421286 -6.3070488558145 -3.33464164057185 0
-91.3517428901799 7.27005467763417 10.869846976364 0
-167.373551618837 -20.4658006242557 13.5496802881636 0
-186.6133826248 -18.7122627892624 5.89378801040181 0
-124.640907633085 -6.81807088990391 -5.90656891757402 0
-62.3279708840928 17.5937057429339 3.16316971949675 0
-141.302445322637 -11.1245134139086 5.13586883747925 0
-220.603943290702 -9.20538079758332 16.3768243558093 0
-182.902369503462 10.9840995667875 25.9696104156314 0
4.62601659860369 -6.52079982747378 -4.08564914612297 0
-37.0693397872285 -2.77070752536964 -18.195854117366 0
-191.118986544913 4.73057529607666 -12.9920904379511 0
-43.7277366862593 -7.16369408744371 -7.6946550858051 0
-205.637532320524 -42.27894273524 8.38775521599871 0
-173.532849189776 -9.67644048532396 -8.75662016140094 0
-189.495997830491 -2.40740118783252 -12.4254673732751 0
-71.8226672070899 9.07089092892084 -19.26899147195 0
74.2452747894114 -11.1773486827998 -10.2595222619031 0
-198.344972136261 36.6675134555479 7.28265912668037 0
-29.8007679422298 17.2443350201939 -3.19043580160995 0
-126.680934570249 -2.90882731470812 -10.9119846970506 0
-41.0643484669432 2.08566623668744 8.14297388013085 0
-21.5472353031894 17.4731776072828 -15.0425934407286 0
-77.3267317465948 -7.09777341448247 -5.73131056111357 0
-237.523116279 -16.3256839905556 0.566210541872829 0
-128.877974693995 21.3613483249905 11.5397367232001 0
-123.328492759943 -1.31434545434379 -11.7690415041733 0
-179.991151958506 29.7871953704092 -5.54089534020797 0
-185.916621147061 0.0944411932482112 13.9104724180169 0
-35.2251956171408 0.731990682858607 -21.5053312700615 0
-68.4394025887181 0.629479941704255 8.3744350194968 0
-147.999835154181 18.46089116018 17.3043266531017 0
7.68494963096277 14.1666876123832 -2.29927755831342 0
-195.773483952192 -36.982560970378 -5.02782755577221 0
-22.3431612817927 -7.51744642651764 -6.82720243561927 0
-214.667711698972 27.0066732890251 7.65213872742753 0
-55.1460545925418 19.7148630694953 -5.16296708625733 0
74.1799920381834 -8.67707923912636 -20.4932098549808 0
-181.090865038533 32.8085921824775 19.0045753531847 0
-155.953320260486 9.1659312076086 -8.82729354900767 0
-103.218127025593 22.6264438017257 -0.240093916793814 0
-214.223894853471 -8.11987279050634 14.9532086928981 0
-198.235370417258 -39.2368112245191 1.55064927737229 0
-222.775713479737 -5.51865539603097 9.65768802677914 0
-71.0006492006185 6.03187047273556 -20.0242325357666 0
-222.067965514431 -44.9806486778967 -2.94572600301728 0
37.4276488476056 14.5896358624804 -2.2849555059789 0
-177.040737192234 -12.9345741313332 11.8063741140432 0
-6.97948810861793 7.47159516197087 3.41817146286008 0
-15.989380107227 -4.44419539762776 -17.6400327185781 0
-226.325505508616 -11.5615911884148 -19.5571955532043 0
-173.719896893751 7.89449399053581 23.7446659540508 0
-200.350101849353 4.38741638592043 -14.2204237975926 0
-208.014275429329 -45.5052504913835 -5.16312827619952 0
-234.426639622069 -28.6342203110913 10.57474930261 0
-46.6536705705722 6.46841464391977 8.55035781330285 0
13.2857057504949 3.65624292637292 6.77083532038312 0
-201.416495784607 -41.6278233806436 -6.28775657364456 0
-156.944791142288 9.94012243482569 19.9393446050841 0
-210.883074165178 4.03859452035011 -2.33972326040681 0
-180.196805094372 -9.86738473949555 -10.065680006905 0
-155.79069253539 24.6641103582001 15.4134758209463 0
-204.427670422724 -18.9011616214341 19.3665806473468 0
12.9308322550912 -7.64677187673768 -11.6162636850157 0
80.9894180384665 5.12519549532998 5.84625730068266 0
65.5582641402631 17.6596558290441 -13.9805594925247 0
21.5685497067775 -4.14369104448145 3.06363097773284 0
-17.0001272345491 2.60430006337386 -22.9759289654929 0
-209.713771753052 30.1251557219058 10.0724653745122 0
50.9684167261784 9.4199149206133 -23.7670251985441 0
-58.1258247437738 10.4370494798102 -19.6099206197104 0
-227.718000711528 -40.9803099025528 -10.3033324812832 0
-197.568451582279 16.1916969570215 19.0233962274092 0
-174.086848806691 35.6056389933582 7.84776571206381 0
-190.813920688893 -23.5851629284547 0.54514680840149 0
56.6111641880983 16.5268619415041 -16.4227851305609 0
-113.57106151971 23.7178595108601 1.60403612927412 0
-94.3435230501197 22.431398057522 0.500124913944095 0
-182.069326776413 38.340745812111 10.9940963368681 0
-112.723459142357 -3.77787930819776 -11.1050121864279 0
-217.171140203764 -41.101331861067 6.59733802146286 0
-61.6146240144657 8.66060323150805 -20.2099320507951 0
-114.867880545338 13.9077609976721 10.9136451691961 0
-229.862361818723 -5.12813732797499 -5.79409623106102 0
-210.59270990143 7.15362366904067 -3.16193492486483 0
-47.7607224048777 5.31929456940695 -21.7113056313749 0
-216.566962501416 -12.6704288352328 20.203842673093 0
-192.423588824695 33.6254052847098 -1.49013770620136 0
50.4989615233295 -5.49934570819699 -0.51280489477416 0
-231.980766146205 -32.9679008982058 -15.2465929493631 0
-222.271391987553 -31.0477377115442 19.6768481326951 0
52.6562028896577 17.5750905032317 -13.2231871370352 0
-169.178813122881 -14.448388814695 -2.37906703050057 0
42.5917324030197 3.28689027758245 5.95345367957287 0
-18.796099383935 18.5095936897018 -7.1326855979343 0
-163.908314370711 -19.5113584090734 7.23224443025208 0
-193.563216906935 31.9516078122547 -2.50245029446122 0
-115.512091545458 5.10594401533605 -14.35245457338 0
61.5452073308726 17.7254690847753 -13.4262755935783 0
53.8623454759115 15.1750499752714 -18.5687555931193 0
-2.10111031260739 8.28301883722035 -22.7492730408041 0
-7.52525916965133 -6.3243822552105 -2.62018404073043 0
5.15640582351535 18.3679728300686 -12.9150126279456 0
-156.55783831728 -9.47012820502466 19.4226851653122 0
-129.350072292312 21.8942004858619 -3.12444940648916 0
-216.282580492454 23.1825592740187 8.83610649766492 0
-184.216431349573 20.1708660954938 27.2486296180701 0
-161.150801396126 -5.61450315720386 -9.07972812285252 0
-197.401853696616 30.1082271475287 -3.98475964444389 0
-191.524171888807 15.638956809948 26.5781427450474 0
-172.39163647387 7.27660641951352 -9.18082289463847 0
-114.78920209692 11.9822041981385 11.3288590617334 0
-104.124759361016 -5.17710920538992 5.9689817531878 0
-162.398850294023 29.3663620857753 10.9521051941428 0
-199.079489181953 16.2857801446538 25.9142608178834 0
-178.579431147512 27.2901222029012 -5.61819515091583 0
23.2578506092684 12.912404672528 -20.6363165523648 0
-61.9945285153299 12.1806636153801 -18.3766976361001 0
-126.413455097674 6.72389856728941 -12.892683168036 0
-219.000067262722 -14.4168559256879 -24.0294772325034 0
-202.965686947412 -27.5933422192472 19.2378502472875 0
51.215269902915 7.82816399056847 3.98687470308812 0
-155.568482216035 -15.2231300104867 3.92607838740675 0
-86.6793133661995 19.505551553076 7.73931526148107 0
-165.210538109478 -12.5474306780552 19.901926939321 0
-195.965819243698 -30.6305598561236 1.1946693062269 0
-213.600668771014 23.7603345108222 0.33406130430321 0
-71.3410797639462 11.0467060648064 -18.413242350212 0
-201.177494286587 21.8358744117857 26.0356005712658 0
80.6049701792945 7.54953867525303 6.18035995096899 0
-84.9046809408485 21.2242556468164 4.66032577336568 0
-199.252171927794 36.0884704341149 4.73937311211875 0
-95.5794875200299 5.31028111641039 -17.0819639393542 0
-226.022681514406 -25.0692171571214 -22.9200246042901 0
-186.632376724869 21.5963448056549 -8.68208206647078 0
-139.004153177867 24.3929320196159 0.746517047299778 0
81.7639670767859 13.5146080096045 -22.1125971476925 0
-199.546059025065 12.0441858525889 -14.5756300122379 0
-194.890101192177 20.6655436909656 26.2875087623897 0
-219.14202927866 -11.9938564670344 -22.9727449672701 0
-170.27808996807 -1.83947783023347 20.3408902279396 0
-194.182179254465 11.6624558938841 21.9506915037288 0
-208.344090348401 -7.77077685420507 -19.9182945560209 0
-220.628814911725 -3.65681082029821 -16.3099350435943 0
89.5751706244856 19.3038587903534 -6.69556759526552 1
-218.05420685174 -43.0036079667812 10.6344969905553 0
-75.8584303306297 -5.1307593122881 4.56229600832172 0
-143.092302321463 20.0276187594207 15.3076261005081 0
14.3168139945672 -0.812040475500715 5.75003724039225 0
-149.060111326287 -15.2805870684261 4.67721017072457 0
57.7220307654387 17.7500204373994 -12.858807694558 0
-89.8481545064955 -7.18756314443766 -1.24628221828437 0
-129.864948740477 -4.51800636318903 -10.0121108864853 0
-181.36317629644 -16.1121003369953 7.98668313636544 0
-74.6629432619581 15.2928266575983 -14.9168929214745 0
-90.6243656345122 -7.00090610339188 0.714376907513772 0
-209.457915812141 26.1128445336299 -3.46627876143526 0
-235.345183091606 -26.9085803224297 9.88185921629442 0
-103.799124887897 21.4443940125471 -2.83827469650329 0
-137.035923337478 4.49774702493218 -11.8511106433289 0
87.0737014356326 14.9483396537585 -20.7712468919259 1
-197.420734896657 -26.7177489563876 -15.0445278990699 0
-209.771911397889 11.2975634915751 22.6659681837087 0
-62.8754605587924 17.972686195973 -11.759876734725 0
-103.81694090443 11.4213256434693 -14.571596844628 0
-148.683106860576 3.00642766455772 16.6103764544209 0
-186.978960355299 0.870813956898159 -12.9286707131463 0
-73.1331504693732 -6.22553686761267 1.97488434999568 0
-150.221918448802 0.380157916566308 -10.7231833310888 0
-178.168384023404 25.7165316788151 23.834721961625 0
56.9396631178746 17.6287890417877 -7.47139621295871 0
-200.787022382137 23.2731770789504 -9.79139693201328 0
-82.0105758213078 6.39111231269746 -18.8372851357346 0
-196.487012267137 -37.4769549739254 1.71082156824359 0
-218.59599313995 -40.045414552349 2.52511001512935 0
-196.113695245911 -22.4198948724695 7.32823516316772 0
-132.234507449973 -0.295392252628883 13.1316617117768 0
-199.702577294226 -0.0484902170541951 -14.4818950901534 0
-158.71019690362 -15.3876318518333 20.1259700324043 0
-225.310657971237 -6.12962003486792 -15.5172928100452 0
89.3638465807174 18.0271043638974 -15.957804125511 1
-60.8281792140468 -7.23045096729424 -3.67364249674247 0
-36.5844731900369 -7.11178782768594 -8.47682319585843 0
-202.970233787453 -13.3367327551315 -20.5850329517469 0
-189.896965128242 33.8758878007245 -2.27480705461783 0
-202.810931824672 6.14260027846135 8.18148589942108 0
-80.4758220852036 -6.56262715378472 -7.91117200088782 0
-192.601433491726 -10.3466639641464 -12.610433581827 0
3.9553393095717 14.7052556591966 -2.69573922949459 0
-128.73800170981 -2.98356234449749 11.59993668542 0
-210.205737176561 3.52311427217707 2.23246356450063 0
-97.2937698514384 -7.2944902748285 -1.27076217162577 0
-109.837794403294 12.6014558267621 -13.1612285518203 0
-162.971430066617 -21.4347957502929 15.1871485240477 0
-214.098266336741 -25.219727564612 22.2648065980518 0
-196.739679430482 16.4975700084563 26.1836525372906 0
-234.730914452002 -13.5313957478795 7.37041684049905 0
-173.560499809932 -16.032607435349 -1.92771266319418 0
-54.139689223466 -6.37788858169007 -10.5455921374337 0
-191.87168907661 -21.556829780915 4.97498604109481 0
45.1739663726161 12.2005623648593 0.454049322791993 0
-21.649884765442 16.4943197801209 -3.13232087189436 0
-203.357764945874 -15.2876292470199 -21.916420802344 0
-101.308902632064 -7.25796131091033 0.323339325234754 0
30.9274315536965 -3.73163065380323 2.09666224775796 0
-149.605082222291 -16.1648814997888 15.3822630888683 0
-38.4791710159029 -5.21028275694153 -14.5259515930798 0
-233.422133791094 -36.4187897011401 4.83631063987323 0
-26.84382167246 -7.19775558261727 -10.2959683291141 0
-174.444736283682 11.0759817731542 -8.62508122381957 0
-189.311493786473 -18.5159233011614 -8.64628192281421 0
45.295349217694 2.60674687781636 -25.1791046809986 0
-159.94789155638 26.6115282020357 -0.451702958699176 0
-220.412069199769 -24.3295280099506 21.5940336827268 0
-214.696887470055 23.3644688691969 1.74343736765234 0
-219.085322289915 -40.5246725047995 5.72859983653609 0
-50.2692192793345 2.85336794776951 -21.3479105671024 0
-107.949413299257 20.800088985766 9.93429187022128 0
-152.309209409368 24.7374926313072 -1.02873108397226 0
-210.342677410658 -45.9668152197095 -4.94192056671818 0
-179.9928324881 -5.78735726139586 14.3853347452872 0
65.7777692541467 -2.18033505380119 -24.8118631278786 0
-237.298487269984 -23.363316677902 -9.44070028108164 0
-173.649796103585 -17.046391402518 7.79190939070449 0
-128.513248074005 9.85884688256552 -11.8498838189617 0
33.6654348932834 14.3969944771429 -2.17422668240916 0
-178.153983739868 20.5444428395587 -7.3832887587838 0
-111.278365038271 -5.34317248785525 -8.96747438152052 0
15.4731304611611 15.8811923214246 -17.1564091354965 0
-234.660418081046 -28.8889787907403 -13.9031652295869 0
-202.663098121199 5.46850833133646 -13.6333010292972 0
-144.818058950958 -0.257625321606783 15.7655687225002 0
-61.0816281986792 13.5710278255485 -17.4183605190834 0
-189.611267579762 -6.40065027576811 -12.4511492871278 0
-204.436642980839 25.0051576800606 24.0061214628721 0
-235.377525666778 -12.8317551326251 4.74305859674476 0
-182.003714984682 20.442996385094 26.9543635688248 0
-47.9653580203482 -6.91726794747259 -9.18205646622689 0
-209.216032140153 -41.8684072010657 11.4260778921062 0
70.7790392163969 5.20642773998333 5.62374415960137 0
-140.519815716208 -4.49387647114014 -9.32448380663523 0
-101.106859547071 17.3516603789829 9.87574155547746 0
-201.086525512707 1.03855739170975 -14.4783059002652 0
-32.5180063410402 -6.33799599819162 -12.4050341288057 0
24.2571583609573 -7.90879142077973 -8.17445659891015 0
-8.83231237663028 -0.112010989874408 5.70556350403016 0
-167.671702353802 24.0417636181229 20.6067652124099 0
-182.883187186671 13.195109079382 27.0122234440965 0
-182.285159299484 -10.0746369122019 -10.4083977498659 0
-161.030357608562 16.0453621905248 21.0524038297333 0
-216.232493166961 -23.426497603315 22.2715035742739 0
-72.646106622409 18.5268149829529 -9.80202596542281 0
-231.662900970528 -36.8169196381024 8.37428864102521 0
-186.372757911154 -11.1328299743571 -10.9567313638976 0
18.6384652484466 -6.05296051633836 -2.51871295260685 0
50.5468950017279 -9.02226358395491 -8.06374451872654 0
-118.441824858246 24.7388692800054 7.02772059770177 0
-151.826950099324 3.07831399926629 17.9313804891899 0
72.3497711819012 10.7699700086266 -23.8562897188635 0
-8.38517382513882 -0.278619712117838 -22.428904757747 0
-11.3871089270373 5.99384129659312 5.04162985494245 0
-195.411149228266 14.5546465019361 25.4217669261583 0
-210.61220998486 -32.3792215149537 20.3967683730507 0
-205.806247867886 32.3038164976546 13.8120436030949 0
72.4585807085305 -10.0215011207432 -5.93017604539781 0
-114.157403348217 -7.11566497496415 4.47545746461719 0
-212.340574898689 14.8751945732574 16.6768134263344 0
-46.2423772577177 13.1428986473808 3.50148996475761 0
-62.6574957746627 7.3575335323378 -20.5373090304457 0
-62.6473061961984 13.0026326627651 7.03720967499804 0
-212.888479211649 -31.4006198488754 -24.157426216471 0
-67.4058107915717 6.30873879472092 -20.3655485119365 0
-210.179474879175 -12.33080524873 19.4774736709432 0
-4.86262043359199 -1.30245529100218 -21.9390635553976 0
-204.693572448898 13.0932407914085 21.4339116522477 0
-6.58991871806771 1.78495470293122 -23.2395180083785 0
-210.993819255689 -2.77154869045972 6.76972909347202 0
-218.496216224961 -33.16080770463 19.9190296840467 0
-201.761044347974 34.7225954401359 9.11145038714442 0
-111.932925309162 18.8509058482019 -7.14385299512555 0
-216.41769847877 -1.30589967553061 -5.4505270572975 0
-99.7164190143714 0.701913687661043 9.74147745755008 0
-104.777607659134 -4.19281883017462 -10.8429697423461 0
0.768980175709312 4.26240292106494 6.31717521329603 0
55.1114871015585 8.2654143425053 3.91884981542803 0
-219.597735158502 -4.17834729396627 1.89014184204137 0
70.2296987590893 12.1148110945029 -22.7772093380124 0
-195.187323193998 -5.40466149876564 12.8023403266681 0
40.3240729795562 7.06792139398497 3.91278451180855 0
40.0447955197403 -8.43222784763413 -15.0152364236078 0
-200.097547761241 35.5482509075115 6.36797512890986 0
-220.07158052436 -39.0636339484778 15.5449819389252 0
