147.738601150333 -24.1849727402426 0.501659598066225 0
9.83079900416894 2.6549474608464 -20.7180847397036 0
174.530564615578 36.5694917779704 4.77504451213884 0
172.909454438554 21.3887111172994 25.5954140657854 0
170.716204455541 34.1704579442587 15.7424501947383 0
161.042396200868 29.8397977711516 6.69421490333297 0
29.960992681031 12.4833200333315 -12.9498743492628 0
170.688142736865 26.489493681049 -10.4903113144285 0
136.038522235095 9.84538944106857 5.51978583570416 0
58.0945382163634 -4.25490852107453 1.33224217054544 0
168.781677407494 -19.5598473343006 23.3158879796667 0
103.945714355198 13.5174241144262 -13.0845875307125 0
85.0301986920224 -12.4890680038004 -4.22399704698112 0
194.958852598836 5.59578674752509 -7.26147344112942 0
182.418531379713 4.15453176822216 -22.8742698032704 0
25.1873661139238 -8.8418025864059 -3.48310165686809 0
22.9462924670535 -4.38007737529126 0.915715878680854 0
17.7771320514395 -8.09889203547803 -16.9807969260283 0
181.979750234944 -9.72974068542198 24.1475243691241 0
131.793481137262 13.5114173658226 -16.4478713661976 0
28.9311130738316 -7.82077408326006 -2.63886136864919 0
177.590362041245 -35.6401524879879 17.4977380167647 0
163.755601234317 -0.182632468272999 10.8836452797969 0
171.037023275943 -26.5177053476782 28.5593468529196 0
168.289325848867 -34.8094372871241 13.0144884801573 0
176.868102422674 -36.2840273297477 9.89557901876663 0
179.457336998894 30.2225791045627 26.6250248609157 0
183.408365620028 -32.0756672759509 -1.51448342394585 0
132.737585934139 12.3806870872109 -18.0630328300295 0
168.057052320588 7.20264706467452 13.8892994538618 0
144.326720634205 0.271073153405306 -20.2452965179532 0
79.4116193119931 0.648055072468077 -21.4481345114295 0
63.2496538094385 -12.5315139225961 -6.20571635139941 0
188.837260663514 -33.8828420268862 18.9713737835955 0
177.225638974556 -7.54734430381721 26.5619421050489 0
185.829097621712 -30.8570154537754 32.4009718156979 0
18.0499371687885 -8.50422375858232 -3.29545447501073 0
180.487672986644 19.4719216166437 -24.7473032312416 0
3.23365359089939 9.71984427198 -18.300585543584 1
172.172394313879 34.949978478881 2.577432934152 0
179.26445530843 -30.5457546389615 30.0067695167254 0
94.2058984201221 -15.1963374670461 -9.41249948287281 0
178.279134462939 -35.1733098120298 3.84742604328854 0
196.295871570924 -9.43414557578466 20.1621194727328 0
163.480810062954 16.0259996140051 -22.5027909117689 0
152.775212768316 -12.8577655386868 12.2229199241308 0
179.379778685507 -34.5010312038831 16.9971480451412 0
164.667880887671 17.9638145958743 -21.1490291810225 0
138.247938533167 0.985033586837463 -20.824251475894 0
171.55976823499 -27.2700485596232 31.4718160546552 0
190.183351079081 -34.1425750649291 16.0717569948106 0
188.430023735672 -18.3038546760108 -17.9284565117105 0
113.930628392037 -16.8019791934505 -5.69084938321395 0
169.362329603516 -35.6981002110755 12.1796040254915 0
183.883809202738 -24.5547139239441 -12.230055709287 0
194.733687319127 28.1236395680729 19.3756453675202 0
198.842491491127 28.0571526672683 8.94356062744302 0
136.593316743332 7.02429529125456 5.42948182465394 0
164.04933815984 12.499731666601 -23.4607980622708 0
196.402903638676 -8.17739093195721 -6.83829340315259 0
158.074501560017 -28.267719693484 7.5874956707011 0
79.0298608849462 1.92557427411506 3.48375233940799 0
175.178751047903 -35.7283833529484 5.92858064534128 0
151.488652464573 23.5065243875482 1.24897928935753 0
183.136348537191 3.83437100610369 10.4676218987865 0
23.2370320630553 11.6427237626581 -3.68139969072376 0
197.392222498044 26.0808936546023 -3.27307344549877 0
40.6259119557054 -12.4084943594128 -8.96613555703154 0
68.7641985023095 2.60418348932799 -21.3817795452679 0
134.689898922241 -8.53209646423546 -17.1958021090723 0
146.487744321948 19.5214741755715 -6.90663743924201 0
25.3038964694329 6.56369111176646 2.38589235425647 0
88.1791257412034 13.3698434258921 -12.2984547959123 0
164.092902778691 -7.15456942785013 -17.0236300871322 0
105.440721871599 -1.40785208336412 -21.1490984569434 0
132.477803098079 18.7667968821264 1.25624737518093 0
42.2565398634533 -3.36015513238064 2.21092084745006 0
200.877411439855 -23.6346845394671 -5.18759700194312 0
10.7981809614282 12.0261174018143 -4.46263504610664 0
202.545436467027 -21.1175432449435 0.738896445446155 0
189.559083781036 35.8478292596967 13.7751530834562 0
143.320908393972 10.6139711915561 6.48379047115577 0
171.708074485763 -1.94013873716426 14.3250986920115 0
53.4123712776813 -8.56843630917075 -2.5385306867713 0
175.94888615077 -7.93021362067568 -16.7688815591932 0
134.681065811791 -19.3642120967528 1.5643140062923 0
156.413061467478 -27.1020129808446 10.7415819155024 0
191.306141956466 17.3123881363909 -23.4111743925869 0
166.790537428487 26.2140168692299 -8.64131243642112 0
176.063974815321 -32.7364009852563 26.6749994003324 0
175.296395402885 13.9996484897203 21.5644754225571 0
8.80865522087259 12.47207793403 -14.137168333513 0
89.1496281067421 14.451605341853 -7.03781891352894 0
141.586937571752 -20.2718484726359 -7.35353318765691 0
121.696513362347 10.2856342004684 4.53171877192455 0
94.9517301660552 -0.625234828585485 3.35180258431184 0
46.543275241062 -11.3764471058892 -5.87752607888087 0
18.8740030157899 12.5739514104794 -13.1050753846796 0
11.0117213837848 -11.434180443092 -11.957117952843 0
159.31097252017 -11.0108725635015 13.1374307718802 0
137.60172206753 17.5776174477835 -8.29664854400214 0
7.51683766449993 -9.55587323327665 -15.2439474911266 0
184.330029017818 -4.23820979901638 -17.0266408971399 0
151.296489780297 -24.8430883011754 7.5363502790038 0
167.699289591161 -28.0911615563288 21.6488827436804 0
33.2263444590952 -12.275744484208 -9.68750685606092 0
143.350112341259 20.5336077379442 -0.90756798280061 0
98.2320831898322 1.76389739050503 3.58645592022457 0
190.508428405518 -8.43217752841724 24.9217613607981 0
197.840499021973 11.7867966138354 -7.12350144830195 0
170.919234569955 10.3817469693375 -24.8808313311912 0
194.800710224749 -14.8031659835418 33.7480531672125 0
158.909403452319 21.2911848246278 -11.7617944607489 0
60.0756300150694 7.88958638769926 1.94374571979668 0
162.161778693815 -22.794265863517 -11.4639819547028 0
23.0883059844237 -11.2043368314936 -7.24416368877352 0
172.938808066482 35.5902944983069 13.2139802556608 0
135.481061142383 -2.37707746241709 5.4837976563242 0
39.6660369748502 6.75420774724358 2.53444027130848 0
155.879203231716 14.3900722416751 -20.1481480182353 0
147.484029215758 -12.5314656316857 10.3753487223463 0
179.404850497563 35.5589268111252 3.12499700741879 0
162.998233305472 -18.2220984180878 17.425491289707 0
39.2792005108303 -12.3994380160368 -11.0852446079804 0
178.211330961447 17.3557571041158 -27.5182092410129 0
176.36437523199 12.2864726359866 -27.9366751421688 0
172.23501376314 -5.04043110047167 15.7290626405018 0
151.275760196882 -4.90571984764682 9.02143791758237 0
174.313388296867 7.40966952566102 -25.1640144294684 0
189.484134211705 5.43767989351694 -19.0107897115278 0
165.38894187453 -16.399967607414 18.9287433681425 0
154.782775545836 13.1159012407188 9.26028145242372 0
138.359594128103 -1.23794236437822 -20.2565705927048 0
39.6298749693113 11.0387281382852 -16.2408036981155 0
83.3385526025934 -10.9568924571092 -2.72613328413318 0
134.867266210356 18.570568101449 3.23670709419471 0
102.831173743046 9.49008637317186 3.95210827724574 0
184.727942579065 -34.9286706569708 16.8084750481693 0
29.3470201865908 -1.42885319350303 4.09197267706666 0
197.183204758709 33.1276992679989 11.8853830069104 0
11.3511798641682 -5.7624388015306 -0.992248867834241 0
154.942591296561 -17.2083729913144 -13.4323595159787 0
174.730946173617 35.30672141451 1.96724652638897 0
159.611482839198 19.3215280582879 -15.8156620927105 0
154.480684423769 -20.0652011148042 -11.0241782286867 0
131.089466034532 -17.7669052868594 1.54112001612881 0
197.354114262843 17.6873604088808 -15.0773242766278 0
174.649871821694 -31.7858534921198 -4.04706375491605 0
16.2879553161745 4.40575307784002 4.27905393239737 0
167.521724749683 -10.5410413980418 15.8643343463497 0
203.889907097581 -24.4475734674522 4.18895271285301 0
183.050444824812 -34.2310923778089 3.69959452680354 0
111.531420723465 -5.23589708167699 -19.5815272369297 0
198.494925949646 25.3484334952141 10.4193455000433 0
183.520075023879 5.50581970606999 -23.5491652726489 0
137.85099039188 10.4512644811333 5.6985032154205 0
97.5054078306845 -12.1376076735784 -2.25869241500245 0
178.986981319612 -9.80114897986669 -17.652964964958 0
29.9501865885462 12.9508978705425 -9.91560587114991 0
196.210018454188 32.8640677543341 7.96172165752673 0
159.305984282719 -4.89756263509243 10.689508179422 0
181.215649584308 -30.3115008763973 31.1015479973391 0
193.622109556758 14.7168453776299 14.0967245295773 0
154.1450977304 -26.9405739576111 2.05454273606502 0
145.279080773539 -8.02445933980348 8.11831021912293 0
181.536171956621 11.3215250983593 16.13297632495 0
190.610055445909 23.7080831370686 -14.8650957903245 0
201.799748471879 -13.2649320389886 18.6921124025756 0
23.4380980871948 0.765858542291705 -20.7545233849014 0
18.3025090305004 -11.5701909864037 -11.7633815640214 0
153.296289310762 12.6725668008302 -20.6596325382787 0
32.7820399704968 -10.3627429764238 -15.0982924495672 0
189.907431342782 -33.6806625871881 7.77518393317693 0
52.8572590510364 -12.6450270287606 -11.9626766508631 0
151.975515874333 -17.9330647124992 11.9334773951768 0
51.7981896601511 4.96320133061989 4.11071909290395 0
178.094156400695 -19.0198340002647 37.2617985007949 0
9.88315130432074 -4.05154949533232 -19.5104425891669 0
164.739910698525 -8.55434992791875 13.4765829962395 0
73.0836692773969 12.5925548740636 -13.756565443387 0
76.3051946545487 7.72270595187822 3.08196222310188 0
191.954166189465 8.99427745199579 -19.5333028739125 0
174.000369542246 -32.805298943489 -2.26397298934615 0
197.415050823533 10.7812297692092 -3.88130228243575 0
164.089077435786 -32.4831876474799 9.70126920994155 0
176.5253820139 -25.5598715143289 36.6286836234841 0
23.0274141710349 -9.79002655583471 -15.3871559772598 0
15.9639616105694 5.19418040648172 -20.2821516074372 0
158.584503861439 -5.35408805759359 -17.1355910414475 0
100.294988922359 -5.28638062801455 -19.5125622468769 0
177.822034493261 -13.0702681719951 -17.1972423888382 0
168.362593807105 -11.9971156056181 21.8613839897852 0
63.6051583849664 -6.044600737959 0.239646487660226 0
107.834049629131 10.0545074416002 4.04815611280867 0
29.4071406658213 7.11783695539785 -19.6664415818062 0
66.0342520365372 13.3819699270416 -5.09277669440539 0
26.7681537487711 -11.9248026128633 -8.94933203444339 0
171.576301345627 -30.2984505862553 27.3038126612021 0
123.681928031808 7.58863179110274 -20.6542271536182 0
174.252594613095 10.6298496997656 17.5259032750086 0
176.821347924226 17.7036202109324 -26.2247579070785 0
164.850991125069 -34.0728631150362 7.33357120097096 0
60.4090418218002 -9.26175675579045 -2.86989465054218 0
170.47311773837 -29.8473398687194 25.6403325220694 0
190.970020727298 6.75654040959753 -18.70373959003 0
172.521331354104 27.3004222267825 -10.0054539210225 0
165.336100171692 -29.3650674438815 -4.56429839552956 0
178.726019093598 1.05276423732147 -21.7990807074143 0
141.031686699943 2.21094885146389 5.74589554556638 0
57.4533968996021 13.0748236661212 -10.1288701803218 0
171.248930436942 -21.4457205305867 32.9294196443606 0
180.055406269039 35.3169547862781 13.6330425305039 0
199.298446597459 -8.52692126240273 6.06832731180338 0
189.928127077407 8.64009414996646 13.0368731590909 0
203.137349579603 -27.464297504806 2.36746509084133 0
180.665210882378 -32.7451026851588 -1.46064223140149 0
169.976550285143 -10.733114654175 26.2178985167806 0
188.340628783228 -34.4404693106793 16.6119787967175 0
162.025728402118 25.4945225716391 -6.12809745984047 0
124.760866102389 10.378125365884 4.68237025667796 0
194.768166183456 20.9529642903045 -17.5902699610605 0
80.401492680802 3.81415488151407 -21.2564728973554 0
115.607162052079 0.425602462091903 -21.454880905176 0
152.387714318859 18.3212226211401 -12.9832690907163 0
179.913038009035 27.8293631701767 -10.2303698783349 0
193.358795435736 11.8846311833058 11.2131445393208 0
1.3012252112981 -1.70061864952063 4.08264682080908 1
160.87099177702 20.390853180285 -14.7677302843974 0
1.45527622557663 8.21956238612197 0.973023722078575 1
193.439492219681 -0.565370082222977 3.9537312661453 0
73.5130123186189 12.9450633876373 -2.17867995766982 0
189.997286253625 -30.9231258089903 -0.300845457522788 0
182.243368782016 14.2788008738876 20.7492739394768 0
197.97265166021 -29.314469463109 1.85525349412998 0
188.297878454258 -31.4051266394801 -0.753369139058609 0
58.2589944400459 11.6232448590137 -1.60570970308881 0
195.416156020562 -32.4403168984556 16.8809172662022 0
171.894764916981 -27.7543087297054 29.7066760274049 0
194.010246688364 34.123994663719 10.329606011607 0
186.022284076634 34.5733892574501 10.8370883246566 0
190.918325335613 7.93158446504405 -19.8903995981958 0
159.794398159879 -26.6689082299025 14.8935702020748 0
90.1023154760923 -14.5266844287706 -11.3217219405355 0
164.813504579548 -17.6008261385012 -15.4221880572252 0
152.319871470339 -25.5611045590755 -1.02101082104065 0
198.884111540796 16.6273192379843 0.211465344703557 0
161.66953788744 13.7111698742062 11.4490049283942 0
144.781638307403 12.4785221373459 -19.1382713022345 0
148.162936333752 12.2093351107036 -19.8836658565058 0
53.9854737962023 -11.647845077422 -5.82149856925438 0
181.46126206747 -12.0593545584861 -18.4315191686367 0
179.81927889763 -33.4531056813737 25.1008004169724 0
102.208631823808 11.0076632498693 3.18140708617137 0
95.6632793628915 -14.2919449479409 -5.22562546531366 0
81.7630580507768 9.09344770116124 -18.8214167789186 0
199.678269346072 -30.6473293732545 24.794721680531 0
150.664207115447 -12.2394629902721 11.3064306192981 0
67.4754818372214 -8.53038511534158 -1.87873212520948 0
159.471066089962 25.0442761871804 -4.41034302050898 0
160.607920528351 -21.4040486827422 16.2532493242836 0
193.992771874885 22.3561223806029 19.3970611105018 0
7.68971736885676 3.72714461999337 -20.5707414372421 0
193.522239214626 0.632175537358075 -6.30463172831294 0
183.315581313561 32.9467412942525 -1.33979559833105 0
165.606919234149 29.0924768563534 -3.17225690519756 0
79.3397385533768 13.2434526984358 -1.87242496627009 0
9.32909569421058 2.29744808722226 4.35582810489582 0
119.311686414159 -17.2345510936911 -3.82269326326929 0
190.320412332671 -5.69473426397741 -12.4905454467382 0
127.771973781161 10.3922194529477 -19.3720200300437 0
111.596966829102 13.8995202300744 -12.9929825566315 0
170.755223952454 -24.4416553289045 -13.1515034526886 0
183.045455499957 1.03546324718117 -19.7039562883683 0
93.4806837283284 11.4084573204096 -16.5138850523811 0
80.0472591752372 -12.0199058018426 -4.18866240645674 0
164.763542841735 -23.828888351661 19.6653964312233 0
59.5059470931168 13.1642928492846 -9.86192324107071 0
190.574012879508 16.3208964587002 20.6433862091134 0
202.379073121937 -31.1472699671898 17.4453133636013 0
53.7912220876713 -8.4863995073145 -17.4389785663043 0
125.595060766233 11.3732398190864 -18.4089631512156 0
169.971762855699 12.4743789885272 18.1114971556997 0
129.443049672452 15.4656375654436 4.39095491998454 0
94.2861276724301 -5.58589303281954 -19.3462059990036 0
179.204057728023 -22.2509768328701 -14.8019435346318 0
170.773309980388 -35.1002611779857 3.28364526617212 0
75.7339450548212 -8.38306132849542 -0.961547407930594 0
121.832995727802 -17.264248907059 -9.39097482656062 0
131.169898198291 17.6800924683853 -4.63141714932257 0
42.9247315429968 7.21038046540114 1.88682056643734 0
188.229293335747 36.9562061306853 17.6697387232428 0
198.080743221845 -16.4765129911763 -9.580134848239 0
176.355657447926 12.0322759052842 18.5723110523428 0
126.843703675492 15.4719345648761 -11.4011202562448 0
33.4956059561662 -0.117317541545937 4.27964013463659 0
177.856276039424 -8.30422886486858 25.160209747065 0
35.6598104355978 -8.66378870050806 -3.19025179148807 0
172.542655448433 19.1192420544865 24.7193440879164 0
168.594024391996 30.8750753978834 -2.75306676861828 0
178.080386203041 -4.14971457257092 -19.4196381734102 0
186.236602203165 35.247202924251 15.8301853117722 0
189.580009623633 -29.1079762526392 -4.31421705765297 0
179.608575461778 14.5159227810464 21.1843089650392 0
45.0469320777131 -5.10862468727687 -0.0436382153720134 0
191.811331520184 24.929518976265 -11.5088264911464 0
179.662465209638 -31.9324543960988 -3.14054591558292 0
73.135550010083 9.17332977198942 1.95174903444268 0
118.576688529075 13.4936268060514 -14.7785856556306 0
8.20931458070495 -6.84414100556041 -17.8952940386517 0
141.997773076242 -3.57560055782043 -19.3200477065213 0
148.601289147743 8.35701380609991 -21.300300953006 0
184.209355107334 -10.186709683968 20.7593973264794 0
165.868239574625 -25.3245606706485 -10.5097300382075 0
40.8360841179379 12.3375422354271 -13.553265824153 0
161.498813563223 -19.8481677297603 16.8706034559463 0
37.4956870273467 -7.15339058372084 -18.0768841810954 0
14.6663682186956 12.9670319090992 -8.57832575934406 0
181.576792550177 0.76255679453042 11.3333857625959 0
178.839014245564 30.7598205785561 -6.13194742864647 0
171.094953018827 -7.1681122386698 16.7162608592457 0
159.522251917058 17.1881752405467 -19.027994976424 0
87.7097581794152 0.550837964081911 3.33473115039622 0
188.734514368839 -10.8999738961522 34.1579953215954 0
150.896598615753 7.7063093482843 7.16881787744789 0
186.811306137935 3.77968163029579 -19.6515438864935 0
104.903859677125 -11.5771947288973 -0.57722907311255 0
7.37890276093252 -3.42052333586909 -19.7478249336954 0
27.4923596559152 -11.9680160105212 -11.0073504138657 0
107.341773448438 -6.60765281690098 -18.7712002394726 0
134.926648943993 15.9405244550217 -12.016775219438 0
116.121233346344 -13.4978195584339 -14.2421049972776 0
199.409301619389 -25.8679675088755 31.1624599968096 0
137.681714824599 -0.827495726224268 5.51803144036536 0
146.182807611534 8.33306201276715 -21.1588072352751 0
161.87823282387 -15.30669884006 -15.3858357743311 0
193.217145282827 -33.3209271196316 11.7641598271487 0
106.188644510181 13.0923700546236 -14.2683969846926 0
204.768217595052 -27.2055918081387 7.14752139134181 0
60.3678115833192 11.9984710130084 -14.2308188988006 0
140.901881433708 -20.294409266619 4.72154452270354 0
197.211833024735 -8.02706627408903 10.9261733185217 0
166.601926162415 19.34394162995 -20.5064699582157 0
0.272678005306524 -4.57994433592707 -19.1955931877553 1
148.781356260103 19.9069429104429 -7.41010966774524 0
66.8863849141018 -3.89278633745289 2.25553907430958 0
144.929608588268 -7.94541760970172 -17.3450286140008 0
199.172241195994 17.1793717497088 -8.75611175983225 0
148.563808960018 -22.6070340259578 -5.32925623622939 0
110.153038629769 10.6424172176691 4.00266780747722 0
161.365531040322 -29.8985871448466 10.5968824189169 0
39.4306432840454 2.90318315732492 -20.8751338501916 0
170.079552193921 -24.0055713702123 28.9578837884298 0
88.7996347497947 -4.86017625190528 -19.7931070949332 0
125.026059847686 2.19901008564245 -21.4497205264772 0
158.172398425437 9.37445138813736 9.08443935952016 0
163.984119764751 2.61523844511773 -20.3430225779811 0
191.775314752242 -29.899097587301 -1.62085895567072 0
124.215392045871 14.6343898557391 -13.2000323306186 0
172.771515893334 33.1141635807134 19.9770887593808 0
5.84757287660451 -6.56730971597567 -18.0873271676562 0
45.3011797359254 -9.52616972335415 -3.5874502410082 0
187.03855964086 5.24477712926551 -21.2405203052241 0
156.119460950423 22.8282343206748 -6.03930168539691 0
31.0334603174788 -5.78313603530756 -0.897246252847327 0
191.906136702634 35.957387912802 15.1869066329022 0
157.568492199288 -12.170388445633 13.457346103314 0
198.391467531552 21.6356913074239 -4.30386167206344 0
177.385401290423 -9.11278309472952 -16.8644434896133 0
169.468709141714 9.00928801442962 14.7795764768444 0
182.769225583613 -8.09792698093496 27.4129804492574 0
173.275458317915 24.271481046232 26.1005762125717 0
155.990038747169 23.9034143630738 -3.51183742358933 0
189.765292298304 7.83388351439166 -21.1721682907668 0
178.358942581409 28.4516409264701 -9.26097380849124 0
36.8920372275527 6.61896638628306 -19.9271446041512 0
153.78274191619 23.3518875134608 6.59172353481967 0
97.4253864687567 -4.57125017775811 -19.8467646035835 0
162.890763770738 18.1440326697777 -19.9029236288825 0
157.703883422807 -15.3897878850926 -14.7816126127413 0
183.038385406307 -21.6345883741796 -14.8023629440134 0
116.072513872637 15.9949810501697 -1.42384287755518 0
195.947081606516 13.6470048364876 7.18099205457918 0
191.218537816186 32.5057832813077 3.49160198473805 0
87.2492562182144 -9.36720983195676 -1.0131871337816 0
127.91668834253 -10.0180612598997 -16.448975083407 0
190.368993133869 -20.1231351849107 -15.2942005201206 0
106.159978773797 4.90264356072967 -21.4250680930946 0
171.124118991167 -36.0826310240421 9.70562440821481 0
171.201104536697 2.39931715104734 13.5232754770862 0
86.4685479543306 4.65814177707667 3.69665543218658 0
198.389850445485 27.2424785245928 11.402585992981 0
118.466967960531 15.9893105546115 0.140924304331417 0
183.311187035669 -34.8885684143811 5.76736704597704 0
194.570484372183 -31.8271999142303 5.40265504700397 0
197.204428220076 -21.9375943537323 33.7919903447406 0
201.110662548856 -14.9331145227075 25.2242523829667 0
43.914844531738 12.4836986894771 -12.9846792594796 0
145.672731962339 -6.04671137514866 -18.1798515464804 0
191.636453118636 -32.8682920407599 6.79115201319666 0
130.056694145852 6.36192535874733 4.94199555006692 0
176.097031278809 15.0902854272738 22.9638479516063 0
169.823219905032 28.6093583883485 -7.12266683926237 0
137.200359767184 17.9877814175281 4.25170917000194 0
179.541280762768 8.72367808465284 14.7855088601352 0
172.801145805032 3.88259168337311 13.6686562766528 0
127.220291290324 -18.0035337808478 -8.63599721471777 0
166.322572349882 -34.827685587393 5.34630194007443 0
103.875147810522 -9.47701847283794 -16.9465270589042 0
196.080999689248 -18.4003325343334 -12.7479024895349 0
144.824758087115 19.7485799929913 -5.08359566320173 0
175.468124484165 -35.5462598824238 19.0023021858506 0
52.9230965358308 -10.4383545141509 -4.20582435965753 0
161.506911728289 -23.1892671689311 17.0263478511369 0
96.3217970626415 -6.72716171416545 -18.7115837327861 0
23.7719689575267 10.446961016702 -17.2723112005484 0
193.956832276833 -9.4059086622517 28.32367462582 0
172.08955153347 -8.37171058467854 18.8058868858469 0
176.390721974295 36.7087994567251 11.1330056685642 0
164.878517857321 -14.9093622854673 17.6293558716941 0
87.8053548370512 -12.2971615104575 -3.65888438318867 0
19.3724948129529 1.74381362561204 -20.7005123647449 0
172.995937536256 -9.98749910998947 -16.527637595676 0
191.84705934461 -5.5989672486342 -10.9131908981876 0
166.900335253762 12.9851632758522 -24.551881986993 0
116.341912143509 -16.9848185602737 -4.82673247026531 0
162.856021746106 4.07708094320175 -20.5837328768876 0
188.787928761481 -32.7119436754895 3.14683733612442 0
32.548495561972 -2.79777345386226 -20.1240176039187 0
98.7589389468766 -6.93818764336802 1.60775314941965 0
169.874811917671 21.6915256604416 -18.5375305115771 0
166.693623540565 -18.3119227622754 -15.656511347485 0
104.179456882917 5.15764141992755 -21.3396292013215 0
76.5971164442912 13.9073935997136 -8.40616580608635 0
63.7014737554606 5.51203937904783 4.14395153187852 0
178.29748183082 34.8397850838857 2.15138568041022 0
178.8626575495 -20.8871948490945 -15.5589794571429 0
49.0960827057124 11.2593757949206 -1.76826005968877 0
22.5341637900832 -8.87845315275633 -3.561815138754 0
178.100408478163 -29.676120227628 35.0569595968352 0
33.3019614245999 2.51162582646028 4.15099951858944 0
169.977960098158 -13.8873901981744 -16.2883463474837 0
197.524175000037 -8.86134755670757 13.4926243090724 0
50.1146397845189 12.3866502352292 -3.61855013278407 0
35.1007859998348 -1.6873134757337 -20.4508337973658 0
137.890947908027 15.7241609952511 -13.0872346546672 0
197.925005541065 14.1724679700477 -11.514729551701 0
97.6072646435205 0.624124163452363 -21.3621959975635 0
94.2324586934939 -13.1466025461005 -3.84057071599864 0
1.53800581933613 13.1217324793938 -10.0485065107882 1
180.888538779084 -29.838489875395 33.2581563007973 0
170.371954271516 -35.5157442962576 5.27841075647672 0
165.548547405156 0.1194348666623 11.9918415551943 0
153.829164971037 1.93399946325891 7.93673683448868 0
159.927194563432 22.047128743017 11.9611753578788 0
67.5084817943873 13.1210410588837 -11.3811307180295 0
101.250997771182 14.051137362097 0.155504240820656 0
83.0502310747285 9.20311656568213 2.51937799635109 0
64.7542026052687 13.131114040665 -10.8318040865017 0
188.409836494706 -15.7728209115625 -17.9985728507776 0
180.333873603108 -33.5041767384302 0.492911394784562 0
168.152590513033 -10.0218447182835 -16.5194981671632 0
109.969885934441 -10.3261614042972 -16.3489450196987 0
197.071597261948 11.7986797525959 -12.2157399251192 0
156.257361222785 -27.706094877926 0.190258085562869 0
161.16573173933 28.9840311763244 1.42875659047884 0
63.5170614787241 -11.0721704743196 -4.46223433134773 0
181.974271641816 -31.4309361746103 27.8809520686091 0
175.783893619757 21.3932193539176 -21.0846023678502 0
164.18039333788 2.1346202838617 11.223457752865 0
134.007918639828 -1.20719898036752 -20.4314750737676 0
161.640591048806 21.1744433221368 12.7044602835353 0
199.195075255022 -31.0885576898953 12.095853413575 0
171.785415787666 0.0532168530546408 13.8249072996092 0
203.749255145118 -15.0200418936136 11.8418564277833 0
192.519116159238 27.2624516248111 -6.27355143089256 0
58.8166118659476 12.7952444274235 -3.88688578875815 0
136.346987387093 19.0798655098958 2.95622229219566 0
111.89016339103 -0.150131862051153 3.87040781182295 0
3.34937595698669 12.8328504386647 -7.60939256466532 1
146.632419359595 -21.7534487788398 -6.14650447352245 0
125.414073903958 -9.95317226153883 -16.5100463616116 0
153.38293208462 4.33782145309772 -20.2758493044934 0
167.734531409036 5.92292938100287 -22.0180918656771 0
164.489049325324 30.5153591593143 0.430002958012847 0
30.9406514544686 5.28522879353805 -20.3573013744836 0
170.866622290571 24.5637500541921 -13.2525142115792 0
180.050801484286 12.2334977782659 -28.2752379736328 0
173.399863748396 -0.802432366075901 14.129014602457 0
184.470603388628 15.613142405121 23.2399284914183 0
153.260505123092 -26.3281409444433 0.521117402964218 0
57.6501958777912 2.97349352605775 3.91092470652345 0
199.193671633491 -31.1418966264907 13.9769543613936 0
166.042753456603 -19.7589265029155 20.5565575039486 0
100.63552545512 6.15049261096157 -20.9515988537479 0
20.0441519449644 -4.59302233322961 0.651511036932337 0
175.122099511879 34.62001047268 0.656620201551142 0
97.151671327472 9.4585076779146 -18.9944156523332 0
184.498809404102 31.7392762686297 -2.8277198533792 0
136.053126559016 15.0634548505217 5.29289685733055 0
159.821865094489 -6.77900208434221 11.8532976319977 0
189.216217609286 -8.95558114255399 24.6126574899905 0
69.8498350337438 -10.2490765429042 -16.3133179841171 0
166.798247962613 -3.04296695983747 12.9758563133391 0
31.6876008378604 10.1935319205976 -1.12097133003337 0
181.477574638149 16.1966379932144 -29.064701386377 0
191.669803006328 12.8273062702512 16.2283739385301 0
138.395326267591 -11.9482529636397 -15.2692740261701 0
190.372047088927 -3.85137471190648 -11.715079727578 0
141.386530342324 -18.5521360646171 -9.98118169195368 0
23.0223493383752 6.71285677279615 -19.8039438852331 0
202.710301796035 -18.7876041290612 0.972790211409076 0
191.139024248164 -33.6608385380114 9.61386618266064 0
198.140230494165 -31.5132289985266 16.2905896387919 0
200.312131926979 -29.5427162514129 4.80952155235049 0
48.4402168317915 10.744777855433 -16.6886451282734 0
183.285590581189 21.0991865109611 -21.7836216106284 0
162.475520387397 -30.636197073604 12.096186005211 0
126.112603462837 -5.15682638121549 4.77221517446893 0
107.415489139568 6.51656842865133 -21.0442150386633 0
19.2211474561741 11.8145163427696 -15.4320806604128 0
138.611493127493 17.0920264619557 4.99550464476283 0
107.058663370642 -10.8622978451458 0.318630825567049 0
129.239280241512 17.1946519155297 3.19953698527772 0
174.055712528964 -29.0688251231055 33.016072174975 0
116.229967773633 7.98239209404642 4.29710249817579 0
195.180781031261 -10.8043846462872 29.7383507488915 0
79.2344032692263 -8.77083632872819 -17.3476525654881 0
195.912331542419 7.3192130681816 -3.15784824145712 0
13.7204517933838 11.4949357644383 -16.1744808447885 0
90.3259001108597 -13.9085584260336 -5.47871093680649 0
23.9679075488235 -1.87558165265005 -20.3100555201268 0
31.8278871447651 -11.8715820161262 -8.13616909066988 0
83.1458302958878 11.5653156612653 1.00119737627368 0
157.964791280435 -10.1062572781 12.6174448207524 0
178.088133997754 34.0724536269277 18.6179709056772 0
84.8055293519476 9.58009047283937 2.45038862801279 0
189.882268555613 -31.231354809658 30.0040664979895 0
161.08880277605 23.8940917122279 12.5730328345402 0
172.814205167839 -2.9711949428444 -18.664523248338 0
172.156228082562 -18.8933998740337 -16.5203972953945 0
196.428431417294 14.7429367341264 -16.6023239285752 0
166.365276544288 -5.66392432584822 -17.2491348052817 0
193.981771742091 -26.8684076840295 -5.32362404408548 0
133.39399288033 18.3073403170091 3.28849100154772 0
173.232688318516 15.4954641961754 -26.7359436856523 0
177.634264834893 -29.6829431685763 33.5117857496219 0
191.842508744761 -24.8061267030483 37.0526726204169 0
53.5604989001652 -13.1460356208561 -9.71796272073941 0
163.790136373867 -31.9635378867113 1.54900506356668 0
163.238534203863 -28.9210900940996 19.0996097291144 0
167.337869481469 15.7657278318476 -24.6243960270972 0
183.903913481022 18.0703858068997 -27.2534739260412 0
156.359954044899 24.6124077705322 7.70975161091737 0
172.389417454483 22.2107253700737 -18.8174815506174 0
200.056483936631 -10.4788767995885 13.3727862856824 0
21.8253370716123 -2.86221350056921 3.1140520080494 0
199.075062339414 -18.0151795432728 -8.10647914890316 0
161.893758524956 29.8175433532416 8.86516840004115 0
165.973671460391 11.9039037214851 -23.7312592430496 0
29.3886477022804 3.55302213088193 4.2533189524311 0
167.311708239398 20.8044738563653 -18.7224438621794 0
81.3255784946837 9.38987386831968 2.33878090437154 0
198.126358939664 -11.6190966473961 26.5315443968061 0
167.479873991746 -26.6166691053099 21.1042630226164 0
185.657370785048 33.3638486445835 24.9016282781564 0
46.0795971920529 -1.13273775427404 3.65183223320859 0
107.110164225627 1.57691401917143 3.7486698415851 0
175.650498155162 37.0386872482162 7.70716958190601 0
158.638591210361 18.2625822506603 -16.8864814099005 0
44.9872037307321 -7.14693940463477 -1.72509132687645 0
137.91551998685 -19.6527205374397 3.38779918476597 0
166.347602443588 28.0860397293544 19.9877439400847 0
121.522643209807 16.0366677259499 1.39214646010361 0
126.186967484564 -5.54488799135085 -18.9437935043839 0
147.554330012977 -11.6764735779145 -15.4628007319328 0
1.49763365716481 1.38087797122175 4.53911280509027 1
161.92058956726 17.8396734574415 12.5625839711938 0
176.483880076512 -36.0540698101314 14.4630924309069 0
76.366209583673 -13.5443969773447 -6.9129002749678 0
124.314332911573 16.8289147693789 -4.59232418564978 0
155.955638996912 3.16328758266836 8.35481613490446 0
152.625942319062 8.19216585327873 -21.1775821444522 0
172.922062471444 -10.7337945748403 30.4905884821861 0
48.6486792280424 12.8892507432734 -5.48824876358584 0
22.2622455843034 -8.20618527190601 -17.0019054742619 0
166.908474488012 -34.3072905822278 15.2339358605155 0
108.918126206438 -7.0800939299325 2.68716258411919 0
192.782137850748 1.30693396394976 3.73065604602037 0
88.743128623375 -14.8952301295529 -8.5711081090231 0
155.737445427011 -24.5912859708565 -5.97955374048488 0
90.0943361795798 2.95532286676988 3.56208899343757 0
162.022489914624 6.28998653017568 -21.2565125653911 0
37.8752422371193 -2.85014086776288 2.79635539709634 0
197.510609623914 -13.9341063354212 -9.63711838083024 0
134.91258955537 17.1853241543325 -8.45486781914857 0
144.227646007003 21.0640708045223 2.03558660534999 0
107.337317764446 -15.3436799086574 -4.26548508644012 0
177.533676832434 31.3989224691045 25.9053561214874 0
136.637462605149 -20.8275035723746 -2.52628592791148 0
142.640427934363 15.779471605623 -13.9985088016519 0
196.127800048231 -30.5801848389025 29.3511064917372 0
48.6631770607321 -12.8460027714517 -10.1671983676284 0
140.868149481893 14.9290508811842 -15.2759300298037 0
195.904884517075 -27.4457159716387 -3.35425740286624 0
32.332976216158 10.5486459433399 -16.8120537845985 0
51.389212419792 12.9511994633508 -5.41669038369151 0
74.23493385418 -12.3347586112063 -5.20194700357942 0
145.69648248098 -22.7207742153387 -3.65355901197658 0
152.132793799578 -20.2080809187096 -10.153389465825 0
34.5294318159879 10.3336386072535 -1.21047113580876 0
201.3789069071 -24.3446421002191 -4.02945017398523 0
170.543804333912 -3.86977449240053 14.6594666219471 0
185.318136446036 -29.5448524795773 35.8131760654858 0
171.337768111487 28.4983143370924 24.8431869555767 0
138.986450934695 19.067391735167 3.68108669237035 0
116.377996176963 -4.16147300304122 4.06786556482784 0
7.76809513938928 1.16024581092978 -20.6280561367197 0
91.0797139659125 -5.0104150339988 -19.6765991621514 0
140.581159613192 18.7341184323676 4.3993160513654 0
116.158432105688 15.6237865691525 -7.58019603842041 0
7.4658274492523 10.1128275540835 -1.08351739072196 0
130.598556336946 11.6828155319593 5.07415315213932 0
85.4518596866696 14.2438754147651 -4.65404177852317 0
105.73513617052 11.0046939852065 -17.8945076863015 0
127.420266985859 17.4340638174763 -2.63780742877432 0
157.897582390615 -7.29397350450213 11.575998216237 0
188.441099772146 20.0839061805178 -23.3586738261945 0
165.839465119613 -33.3698447706029 13.6718770241376 0
113.003141771154 8.81462318662403 4.21972459813204 0
181.721023011308 30.8042274305536 -5.44224291074811 0
194.117426734402 30.98363731088 19.7529772216123 0
66.6132732666946 12.5376406851296 -13.1875568839565 0
193.526690472351 -14.0395155155124 -14.5260586811622 0
163.763590085537 5.76718474573384 -21.2330973297227 0
127.231104527567 -18.6237680211312 -3.34576000472787 0
48.9957806777272 -0.924542058090502 -20.8213229321642 0
104.665876545246 4.54579466574517 3.7918093858725 0
173.571436937216 36.7262463742506 6.40550950742064 0
151.213705012066 -25.5399726939037 1.50080133495979 0
189.035225752296 -34.6780168980661 14.5145621203135 0
187.692442690653 25.7626313775732 -11.7787400174094 0
129.405050348557 -16.533833228976 2.03461798382992 0
91.9671609720519 13.4565620575405 -0.271995973774282 0
191.121642922981 -10.4307041206375 16.1889960291475 0
78.4876200182159 10.1348185118906 -17.7068067273396 0
185.407465640556 29.6378328887563 -5.48346785583776 0
164.452991954907 10.9283277870287 11.7434649089286 0
91.1586579481719 -2.97299176901038 3.00340570743316 0
180.301145994674 -10.4688678099549 34.4487477918337 0
71.2605066620597 -7.58506696949882 -18.1687244994528 0
68.2340118347734 11.1003292801388 -0.133208553550278 0
120.675636964421 16.2139796200675 -6.30245393061089 0
168.712418359764 35.0375834110178 8.41535392721861 0
101.504185575404 -12.898006755409 -2.36876229057378 0
185.399237407849 8.12328173952102 -24.751474764664 0
137.817478537874 -21.1701825888062 -0.521882307982843 0
26.2751943361189 4.65862270265447 4.16948901027032 0
21.0914541366052 -11.8272467448673 -10.9425021149839 0
50.0433000818866 13.1429270070702 -7.83392406211338 0
134.954128707625 -13.8728398814584 -14.0055839811244 0
182.275896197278 -29.9499798732354 -6.02916251526301 0
196.914114509998 -30.9814983069984 26.3444365487829 0
123.574506050207 16.842559754341 -0.219019555557135 0
119.47482793602 15.6777406046168 -8.33792127577183 0
168.099134193191 -11.7254411568223 19.33261093648 0
7.07309987222953 -10.5051120508985 -13.6410070127901 0
148.393006335114 7.59283006431749 6.70543386190736 0
166.413870165753 7.73903162407712 12.8032278280671 0
141.961905524711 9.14031143655286 -20.8124464393376 0
70.5030983343851 -13.8160439083232 -10.653876197706 0
156.701632683304 -2.09140882392302 -18.9388993523743 0
25.2493515220253 2.46396401404133 4.25460005277511 0
111.621325041529 -1.86271848722882 -21.0521900892908 0
143.776857455381 4.33239077527387 -21.093083395962 0
158.614802246689 -8.29144876542377 12.2659933989132 0
171.205574760609 11.0493337809691 16.8143099467231 0
181.568871626662 -29.0931028452158 -7.27162311797602 0
175.963200865681 -4.42637384549325 15.4569944557308 0
190.908573433241 35.837657460912 14.3084344871867 0
201.756846361922 -29.5894247466245 6.00811491663616 0
187.965922355229 34.880328343356 12.4658957425685 0
189.306861062955 6.40167544034924 -20.2525376544395 0
145.063201449311 -15.7495027418907 9.03454768534327 0
188.665939211815 -22.600045052697 38.273509892039 0
109.707639839807 6.70852534969998 -20.9412481341229 0
122.137062669035 7.25811847508871 4.52529973429063 0
63.4879803135885 0.102806173690356 3.45353274369003 0
189.5350643316 -8.6660809779491 12.8439907531922 0
39.4962136041221 6.68195199452316 -19.9754624079544 0
141.283152446762 16.972167891976 5.6516554455635 0
133.489148338367 -17.5181926557745 -10.4641366374115 0
13.4354018807506 -2.57667900390836 3.56992665839026 0
182.336741407903 -18.1920540331639 -17.1938942328314 0
196.545813753903 -23.1049904790895 -8.9163200108227 0
193.205195395556 3.93241166633809 -10.9872685383914 0
53.8263349799985 13.0368377473318 -5.54617726238055 0
197.774482008159 -10.1325560480381 21.3300774251878 0
203.165948966761 -23.1039892207302 2.14970404789555 0
182.44261741066 -9.79749388896204 19.6707168187451 0
24.8268619327863 12.7446239379331 -7.1752027620434 0
11.8572640912501 -8.70658993189774 -3.6700482413854 0
93.5635620719687 13.9770870684663 -10.9075100891969 0
8.11913420780356 -11.4248694747649 -9.5109550818779 0
79.0540387032457 13.8512927536372 -3.98110474419787 0
142.70051528371 2.41121731597374 -20.8554526561936 0
156.150246353984 -19.6071421706122 -11.9657103074377 0
163.980797201259 9.47955102317039 11.3234783471785 0
166.158056950114 -1.72868863874478 12.4601443878378 0
149.421073089897 -22.3681743387652 8.75027646473646 0
196.084835558207 34.0352271584772 13.3341759109693 0
162.322488222904 -13.6269696865556 -15.7508393933563 0
41.4480882442726 -10.9021704474107 -5.30156480108636 0
43.2462690084979 -11.1595178878371 -5.65806919825492 0
130.300188355218 -8.14458994324551 -17.4509541836708 0
197.215898740933 -31.2346263175661 21.7145754983723 0
113.539388211721 13.6434671890648 2.63158848071596 0
154.111809439285 -21.0744485872553 12.3171297946982 0
167.059562319469 -28.4090783929207 -7.24694813859914 0
165.021110853927 6.82899791781557 10.9788259358976 0
151.858461509307 -10.9232969066947 11.3103871640392 0
191.959064861104 -26.8868531529747 36.1902650699485 0
136.213512672475 -16.5340638241149 -11.7727253297074 0
182.202781821845 -30.0631948121277 34.381418084912 0
173.368695529975 -35.5953325132254 19.0990472905214 0
189.118405815187 -9.96923149470125 16.9613250501772 0
174.803032937707 -8.093428173663 19.1891904231283 0
157.956602352932 -23.6739930735892 13.9297206908852 0
136.255301382619 -1.21257661497119 -20.3598387341936 0
175.251306372127 -2.08163271500117 14.4821310181981 0
186.929573772032 26.599235760724 -10.6372284094561 0
2.33084248884053 5.35599215489481 3.987506398534 1
193.949745612406 15.7877318430252 -20.6798657223569 0
179.295028976126 -0.252009854560074 12.8418968369533 0
171.995458409032 12.4115473183143 19.5487972979616 0
151.601949432361 -3.52068099923371 -18.7634259936533 0
174.427512721794 -29.6032762916905 -7.47914545114724 0
168.366807031445 -20.6815409624749 21.6247921910672 0
88.6110847702576 -2.34701623620175 -20.7663223871744 0
162.94155597545 -18.2990941604694 -14.7570229292257 0
170.179608386631 -19.9071603317955 31.525976219773 0
197.419920039439 -18.2148108193537 -10.9179289354752 0
193.870113068205 24.439560825163 -11.628272415917 0
171.135229437031 -12.3674066631453 29.7861474827125 0
200.476672616908 -12.5579049558483 22.082864495331 0
162.30623367564 29.0178350367213 -0.20534157892777 0
193.450978872133 -28.7423945845823 -2.43779823452682 0
173.374180744295 21.1481946114888 -21.1169030770966 0
173.454785485954 2.53939313782966 -22.5152355011568 0
186.422629050693 -4.64004444660144 -15.334957081726 0
157.189552992647 -22.0203492823345 13.7697026756012 0
109.302039989397 -12.7405178023167 -14.7275827387953 0
34.0360756328092 0.933186018694393 -20.8569711046696 0
187.057236158411 13.5027087748853 20.3979312361804 0
60.6741241074527 -11.0983551594284 -4.71951786558911 0
167.755893434859 20.4493687479504 22.8450409545565 0
142.848923302576 -20.6441103010679 5.40935071386396 0
183.191685314022 -14.6051708464669 -18.8717978938165 0
61.9766927397641 -4.9321906385753 1.18374419731371 0
74.6100685360863 7.41713289887981 3.22402300483103 0
76.6998809089612 -9.86351940979912 -16.5897171551062 0
176.544469186744 -8.8751106759334 20.5765330013637 0
126.597550952003 -15.8494774177973 1.6563020356305 0
166.395559899529 2.38589587819568 12.3012634672411 0
189.701228594252 -24.3650758681349 -10.5384993542715 0
203.331884982026 -15.3139505215605 17.2857701744008 0
15.5494318411415 -1.70027959480234 -20.2359112877256 0
17.210153409419 12.9697299988306 -10.0419956424172 0
149.441266421035 -5.26223117449121 -18.1954727994082 0
154.682829097451 5.96568155039581 -20.8386874273163 0
161.205898744372 15.0605028435043 -22.0565538064586 0
171.509204951299 -33.5834470505784 -0.3857049903475 0
56.868232901706 5.22314261764105 4.04547062045944 0
103.166941271975 -15.6847287593198 -6.45438464298573 0
187.053069092776 -29.6260041543194 35.5527329284507 0
94.4262096973482 -5.54602406555679 2.11654721102964 0
130.832883800199 17.0565556407535 3.77827705472681 0
41.7821277406025 12.9888816675914 -8.5183433740803 0
185.605499204079 18.2563060460988 -26.5718922720325 0
60.4740431544009 -10.8336477265788 -15.3989211301761 0
149.313354865246 5.92750993405925 6.84092191412709 0
111.307354912999 -11.9014168196342 -15.3483738790693 0
187.632817433581 19.14711024311 24.5151731990461 0
172.092552811798 -35.8632854699348 13.6787049918864 0
163.486521166436 -32.8937753332623 7.63129209213074 0
17.1370553025657 1.89519076558311 4.25793397921995 0
163.029273611461 19.5625421694946 -17.7777281728147 0
180.01981441969 12.747104200552 18.0655682421545 0
56.2266990684527 13.2899882378954 -7.59408792802782 0
195.204212298948 -20.5189004240756 35.3036453028369 0
71.29188910393 -8.18489340667441 -1.12858230669286 0
83.2362589029984 -14.6219228875127 -9.14270270714678 0
5.30225852325129 12.4104922526597 -5.7009698477398 0
158.014380527387 11.1915040520784 9.0983988380324 0
91.5143403948134 10.2614437264557 2.65644210274249 0
140.033356216792 19.4045243588629 -2.9727583933765 0
170.534770326525 30.8232745672959 -4.1140166236141 0
168.163960010696 13.8313555683329 -25.4043912531508 0
145.200831794157 -20.4273329196491 -7.97711176314158 0
167.969582264339 22.169084473277 -16.4853103487539 0
196.900697438252 -6.9949274358493 9.13533589617407 0
177.940419461916 -35.6271693550872 14.5971231277154 0
167.472638069684 25.5566250818707 22.8680667072863 0
77.4378527295759 -13.0127931494151 -13.1567206112653 0
187.310176775256 7.98991085313394 -23.4762268369813 0
73.2990094710244 -7.03887997957576 0.32883549253561 0
200.838777192364 -31.2724964731515 20.6044151810893 0
15.4058583859803 8.55952767027799 -18.9598532608161 0
83.7586765385262 -8.75679132711883 -17.3754964286599 0
42.2013579371477 12.7911543811101 -5.87726112947372 0
175.178993519656 -17.3592019958517 -16.4501430498389 0
23.1473806055613 9.74384024584362 -0.75473149915366 0
171.269364823235 -17.6893186824396 32.4085299860279 0
183.830586251634 17.1974526294023 24.5587129808182 0
182.423390049627 2.3765999489144 10.5674375609455 0
174.892542702798 -36.2507703447418 11.4340928817212 0
133.465182713265 10.9440311225542 -19.4293760116155 0
63.0265733994088 13.3442431967939 -5.621487965858 0
168.378509834301 -25.2503124243705 21.6075832442661 0
198.886393680416 -31.345018188535 19.5446489693499 0
170.660401375266 34.9320087213984 9.97631818054016 0
105.028332241557 7.08956400119735 -20.8517422397138 0
197.861979758077 -31.4099895171777 10.0544682991091 0
91.827696329865 0.123201659626404 -21.2878829072916 0
181.679830522336 -25.6661481034113 38.3058199565684 0
165.241234979254 -29.1924340438154 19.6782822184907 0
188.922446509647 9.69092664527401 15.2715412008312 0
125.936650827276 12.3262027216899 4.73109363516104 0
49.2216440861147 -5.47774716596015 -19.2409912521537 0
78.6651024279141 12.8041819969597 -13.3287984787976 0
179.18266524768 -7.9569184292692 30.1673773240485 0
187.090241910776 -25.6736967197551 38.3623469348913 0
156.368386042378 7.38289009881052 8.37542893356513 0
35.1426948785845 -11.9737411489608 -12.1956516860613 0
78.8310466955395 8.59115228194286 -19.2204453927067 0
194.098144677329 3.44990772825344 -6.38215158413429 0
178.8949713099 -35.8297637886996 6.99717997670657 0
158.318766531535 -25.2637483120291 -6.71077581560872 0
192.235604197066 -33.5062838348668 17.4161931620099 0
36.3055311010976 4.8470832876779 4.08379870536917 0
1.89290422603285 4.53343388049617 -20.426903714479 1
123.237697924624 -6.06669699869135 4.47404355777645 0
195.733933297731 31.3791812306958 3.7178144762659 0
198.725613585185 -20.9887356736849 -8.73981988360099 0
192.566782156675 32.6690642379666 4.711646113629 0
161.474693280319 -29.4794663980808 -1.87585477916028 0
124.681501474302 7.53173836625778 4.67764827534975 0
195.861344258283 7.51199369383614 -7.97566584747461 0
121.467187721471 5.86950456443055 -21.2244689594745 0
5.15782316616693 -11.3697794919247 -10.0847862794773 0
195.063169601012 16.861910196949 -19.2733473937169 0
124.853751290006 14.5425679433615 4.33536598492399 0
159.794340103043 20.7372805027736 -13.3601117905964 0
160.045257001938 -18.113700705116 15.4299466291321 0
67.9913343903375 6.84264319406692 3.64949855876469 0
185.769149436987 18.0326210786592 24.698924436189 0
159.96580365374 -23.4624521667857 15.3880730114391 0
184.937396813206 12.2582586807323 17.0770641520303 0
124.546269347365 -13.8004624404845 -13.9584575929684 0
145.750077404268 -23.3645918151833 -1.05799537512055 0
178.913968790188 -29.0419454033309 36.0457468774199 0
154.508522055438 -25.873565902292 -2.60080619744091 0
197.384237571815 11.3638066182658 -10.0136444243181 0
176.140744674826 22.6266685513636 -19.2862929818079 0
183.729529496976 -29.2600377177858 35.8306704066758 0
16.3685860823269 -6.36897200366 -18.3357942680496 0
154.850247907314 24.9766823046603 5.3030962864263 0
159.526110434626 -27.9670710995493 13.8954650495743 0
173.171624077388 11.6537811324697 18.5395014877292 0
35.9426726741803 -4.27907845882111 0.899861089182677 0
154.393058850292 -7.6149806584101 11.0177954836609 0
167.701401815437 29.8387086724855 -3.67226277154747 0
198.905607318138 25.0616488368028 8.23611365788907 0
198.002059551523 -19.4966893826508 32.8256262749309 0
201.510809445194 -28.8327219095721 3.5080929731784 0
162.326601207576 11.0946183942192 -22.8209822049206 0
102.105184289158 1.44617158128153 -21.5556371555147 0
169.270433888153 -8.50674049626032 -16.6469831569113 0
181.610515416978 17.7215240030835 -27.8747913248199 0
132.027773052111 16.7443101491623 -8.77142088318493 0
169.385820905686 -34.0924976958298 1.39652667780134 0
70.5256290731738 -1.47059017964477 -20.8937680628162 0
150.513680838415 18.7882026894835 -11.0936747086333 0
113.908146640854 14.8084586875207 -10.5371770190144 0
150.793710846641 9.01884515029395 -21.3332693675997 0
115.36307739428 13.3740450545474 -14.6158857069501 0
18.79474851825 -5.66701898493314 -18.7799138895904 0
93.924543435665 6.60012398264232 3.85128486740506 0
201.92434179994 -12.2794918446647 12.2978186176342 0
198.786659445019 -23.5072628994782 32.2282126438775 0
134.002687464358 14.4406800039387 5.15212223946074 0
174.22656406109 -19.1015652058357 -16.4267642150432 0
97.6180238431934 -3.61382095863459 3.05274404443704 0
