-184.751812557682 -16.2080011261927 -7.5512721085387 0
-223.471511425452 -7.23968667962753 17.4565642473198 0
-46.1163819277476 9.82084766400009 2.60133610540732 0
-71.4823105823868 4.11399126784265 -7.39844917615003 0
-189.579010249647 -19.5982467021631 2.56417055585219 0
-180.334908857827 -13.6589275857559 4.92853889961828 0
-235.780057036425 -30.4707350690139 -15.0393813373342 0
-70.795259650355 -3.14589615399553 -2.43835520438332 0
-208.533990161139 33.8633366630661 2.7128383493595 0
-214.564617457021 -1.71660203075219 -8.58277122077394 0
-105.410303214365 -7.94925177168985 -0.556969229146803 0
-156.023427025277 -14.377298289319 -21.1397436719147 0
-114.327196845782 -6.57244782148532 -4.40896397005144 0
-132.850017744179 20.1017615676042 1.00848860014937 0
-243.934070581379 -30.6454737472488 0.897582501773271 0
-205.984539548292 -43.7265298864133 -5.84972688864146 0
-196.701319646638 -25.0926106893635 1.74370738690454 0
-214.32921712482 31.2359892025052 6.80096612262007 0
-172.404782542064 -11.1606909741123 5.6309361542324 0
-159.600390350557 -8.38389301666189 -30.4530265936163 0
-189.765882034515 38.0643899874186 -0.570065821348773 0
-125.26721843893 10.9168283783581 -14.8945538767473 0
-129.320593382883 9.5729374354958 -15.8696889292984 0
-228.608424152067 -10.7524216871179 19.8391908638727 0
-100.738132563576 12.7396529639633 12.6451528684819 0
-200.160292388481 -3.08751231993363 13.8405150619123 0
-180.065172536701 0.723607453244019 -26.1976311603442 0
-89.5849907262708 16.6722541949739 2.99290463687801 0
-212.438343537319 9.51365422857207 15.9895546392454 0
-199.147707187874 8.65677749457259 -26.2693718868872 0
-202.713146784857 8.77208242854317 -25.2080233619063 0
-169.586036948378 -10.3102033105365 -25.38474981817 0
-189.474477765518 7.83874538428138 -28.4416761100069 0
-232.720458345652 -44.8072830897966 11.5696554979973 0
-118.112435420932 8.56522716871471 13.8387890786201 0
-82.1459844875399 -9.89753351072854 13.5034549970306 0
-155.376390911763 22.9365575046252 -4.05774662934543 0
-139.41549971997 19.9729231922982 -10.3436577677466 0
-219.495902362794 -8.8666991475505 19.3301827497336 0
-116.889895631093 -7.19157489041066 -3.78420095074085 0
-210.059626273759 -19.36529860524 -14.0166937380412 0
-152.822567948274 22.4022577380764 -9.73695031922418 0
-220.303689360278 7.1508516693337 -19.1676117363385 0
-209.281599304617 -44.4771924761424 -9.09425596773815 0
-192.526637685995 -13.3010925928922 8.77256021976816 0
-225.391830236039 16.7103730699736 -5.71395908030634 0
-65.9383063400225 -1.15561374431674 -3.78815082600933 0
-96.6388563756959 16.2165722774055 8.49600085177176 0
-190.204496955625 20.6327616479421 -26.8428702051185 0
-129.580672820757 19.4368868604875 -8.08301010297093 0
-165.299076457773 -15.6177388120119 -20.2859594864609 0
-176.183846285847 -5.8695409067725 -22.1491620526616 0
-173.689434664256 -6.2078938661093 -24.0006555936312 0
-90.7300199326932 15.3681627399432 -3.41746257025658 0
-138.932345538088 13.9276092512858 -17.8037442949734 0
-229.965014025065 -29.3556137752622 24.5466094011762 0
-229.718700281724 -7.61107426337482 16.1097838532334 0
-37.5829406753213 6.20422661894434 -3.53763064630457 0
-147.82392333062 -7.20582788189007 5.00341975187734 0
-133.507092006696 -1.87361997998905 12.1972847173267 0
-212.848002931925 -29.7157447526842 25.0617823729608 0
-181.971229147579 26.4372614580142 5.32605902892561 0
-119.770322284431 -2.97824861006951 -9.85286592880595 0
-223.393925041223 31.4419665817774 -0.488014865669686 0
-127.292505083548 11.2120479240879 11.1616760795292 0
-204.146175032152 -18.9586489409614 -11.3604026893035 0
-91.1759603724286 -9.17688136063394 3.44292194398658 0
-225.780925909415 -5.86021413802503 7.6647428302038 0
-183.449829078556 23.8083275607492 -23.463995433636 0
-193.958450793281 5.48802042874778 -26.4459953377467 0
-149.397669087731 18.6759476936807 -18.6142986697444 0
-76.8085560597283 -9.61567787942613 15.7528486353661 0
-103.812206020643 16.4060776095539 7.8255978765058 0
-177.040981633257 1.00800079165948 -27.2385346464443 0
-69.9642966829666 12.0494741009286 -1.74194960922779 0
-98.8441073166066 4.61589052337491 -10.4316644652559 0
-50.3194261999694 9.55438721831422 0.729140585582752 0
-138.355361374787 19.7939432043305 2.59442064965718 0
-181.281074434358 11.3223301446884 -27.9279143552596 0
-216.585494740155 2.56462980523203 1.66182898044319 0
-16.162174412166 -9.20858089505562 5.6847930122285 0
-75.749921713594 15.6346152912501 7.00835697623464 0
-200.407218402409 -31.7905479149159 2.81893607894349 0
-182.48262707596 -0.936193295625175 11.2835010737825 0
-213.95328126726 12.0290929737944 -10.9572359673558 0
-214.936762040937 36.988294432354 0.965980033858776 0
-210.348725504063 12.8568452991606 -12.9487900277902 0
-210.778147964389 8.12983185911639 15.9918426920658 0
-119.901019556204 18.8609427592633 3.05510243908052 0
-166.973861988833 24.5279746534473 -12.9255873156261 0
-47.6795901830982 8.93566556795033 0.45080672043414 0
-192.652463908919 -6.45004950972779 10.7191867371668 0
-194.904576823994 -8.0072426929229 -14.1851459370312 0
-77.1862120543648 -7.14948510699921 18.8266931596706 0
-189.919540579171 -15.2487627029325 7.35373229923302 0
-227.487918782614 18.6631288741555 -10.0021148415118 0
-202.69178471947 -37.3046612686517 -6.29122309701442 0
-233.102645349565 -18.6743395408578 21.8219914820472 0
-202.512324584441 6.59937402190747 -19.273154605859 0
-16.2871849926592 7.75156804487961 23.2941293431719 0
-228.466411383999 -7.0772813268116 -9.60939585053844 0
-32.8897793778712 -13.4087250732831 12.8753654759633 0
-237.154121132517 -42.476585296574 -1.08531834847248 0
-145.668533157653 17.0733819621619 5.98705898378769 0
-212.387198619188 -1.02299657384113 13.4061514270348 0
-178.704528816167 2.62043128947104 -27.5009811871619 0
-123.945628070077 15.9621932729773 7.67179533870111 0
-67.4714194854188 12.8738230490233 15.2873507678427 0
-173.293369097027 -1.07724066349297 -27.4458071658208 0
-10.5207277057857 -2.5863925651155 26.8495926456085 0
-177.727996364921 6.49830649894623 9.77525227866462 0
-74.915442721201 12.0423670939795 -3.75252488583056 0
-150.998603649075 -7.86872526744835 -26.417099113879 0
-199.085039780881 0.0252927029000453 -15.8365310742421 0
-15.7609782518536 -4.86664285964 26.2753598692897 0
-60.6247010440748 8.59480519570814 20.0893189387694 0
-226.204135552659 -10.2710037778333 20.8459341476963 0
-50.4314224100717 -3.90869453872946 -0.589508047026805 0
-233.243500353102 -26.0207637924951 23.0714395449534 0
-99.2412851944912 -4.44891736684514 -4.70242094393812 0
-216.446447155825 16.4684180813921 16.4486655215522 0
-199.874803890207 -35.8150747423406 3.48117339184937 0
-92.5587606232332 10.3942342972275 15.4626259985907 0
-227.992087110203 -9.04312690469379 18.9065978829695 0
-151.244602773189 -4.51664938450947 8.23022949407348 0
-196.572289226106 20.9483744614173 10.8382137511694 0
-7.47688807786811 -10.1628284564811 6.93259599138593 0
-235.608911946152 -36.9479365435038 18.1687148122514 0
-113.106544535158 6.4906805181641 -12.8350927993952 0
-217.950858993081 11.6884281524667 1.5044773559384 0
-86.0025445674096 -10.2603651654737 7.88029160436887 0
-189.222011850649 6.48052575571974 13.6706579196216 0
-175.976338276912 -11.4092596440623 -15.2993036770817 0
-38.7239393784086 8.35694106783215 1.92304390749758 0
-216.045978982547 23.7394010091671 11.0607180587748 0
-79.0456968620122 4.07485206016765 -8.16077896487611 0
-153.18187478741 4.1680274534679 10.5614887206712 0
-190.142520006143 20.7918718882925 9.09548449198635 0
-204.104181087319 -41.3783055075427 11.6578780998148 0
-110.018281697685 -7.86764753947118 -1.18768499986879 0
-97.5865494011793 2.02282844475748 -9.85017715501972 0
-108.582326098872 -8.56663671666206 1.21803883449977 0
-227.541563059103 -11.8187553493171 21.1690349554865 0
-163.075561333985 22.9380044172023 -0.051115457239237 0
-101.0883356076 8.56104195187614 -11.742515707752 0
-184.589559945606 2.10180147833301 -23.4571089062868 0
-214.732358015212 -17.8010758622145 -16.417573889995 0
-20.1045779018311 5.16165603194552 -4.02923087980314 0
-225.867626266733 20.523742918645 -12.1419985609609 0
-204.396953728808 10.1734745469033 -17.1206102227054 0
-93.6501793930021 -5.42678288886032 -2.68951903999331 0
-238.621291310508 -10.3310272676318 2.27121387821225 0
-156.303381997022 14.1161619046942 -21.4248828326044 0
-141.108497752508 9.60013119812236 -18.0429505966014 0
-70.6478124730475 -7.39300693174108 1.73493954304636 0
-152.684579594831 8.71343144351557 -21.8700032541343 0
-161.274045779612 24.0391682878114 -7.65966023804092 0
-95.7687117852948 1.88709642789744 -9.64400184105444 0
-236.688989562783 -23.6494163774323 -14.3602416172248 0
-36.8702453560759 9.5463425427045 20.7820539859124 0
-201.704171020158 -41.0027261221351 6.58091819476519 0
-118.219057858226 4.00369738465647 -13.329327723907 0
-222.967815399393 30.7457897312539 3.3197817011139 0
-115.348838766392 -2.88793346218357 14.8839671012331 0
-199.4797836639 -31.4317862538965 4.30606066936441 0
-130.215583101532 17.7141345362282 5.4761072267352 0
-232.256867509825 -5.47298001939984 4.50910619905837 0
-208.802230784343 14.0040682180442 18.1646258555441 0
-115.517136289311 -5.11169901443866 -6.73491641598495 0
-212.586563696878 29.5845028498582 -13.0241694799984 0
-82.9522013461536 1.79180534979258 -7.34726815980161 0
-75.3716151346921 -7.92853016886495 2.06557421602287 0
-199.255938927725 -25.9661999548065 8.34584631597459 0
-201.290618936371 24.1597451726758 17.5001628430456 0
-137.275201523948 -7.55746021230206 -8.5335110106297 0
-12.4895007591157 -3.13070691213434 -0.627666330625494 0
-216.446740755458 -24.424055759351 -20.8909967232452 0
-182.502793047286 -14.6682428370456 4.33145789619117 0
-17.2070161204688 -2.36923009548486 -1.44821215196667 0
-162.759543232356 10.235262399668 9.0520764100265 0
-235.591459346173 -26.3690931028994 -15.5703550040761 0
-155.292014852198 3.09597269442659 -25.4426077074251 0
-125.714948255367 14.8877398946695 8.6035694214441 0
-88.2598805618719 -9.47207890885126 12.8284916390271 0
-10.0791090481607 -7.14607863809594 25.9340415923252 0
-62.9498705377565 -5.17217754325529 0.0220364438391117 0
-130.170845120253 16.5714724720026 -11.9761015849899 0
-38.3982622535268 -10.9420058700035 7.54467090719338 0
-108.207001915372 13.6509046751774 11.1699316041989 0
-193.259499084229 35.2351148484269 -10.1635225303345 0
-11.9004502720735 -1.27264266458607 -2.80532197315032 0
-227.095426213331 19.6840471915852 -8.02588467211011 0
-111.960014802381 18.6053126483646 2.14682310813974 0
-66.9007412362962 1.00882248107112 22.3966428760953 0
-221.868412367655 -40.9489709756751 -16.4660974923217 0
-114.220226693557 -2.76720886731718 -8.80783990124651 0
-194.337540410106 -17.1806216945041 -9.92505927065731 0
-158.749811735147 19.5202265585785 -21.8204967403378 0
-204.422303159905 15.0810836404374 14.0177137233332 0
-52.4099149725681 -1.79374288153558 23.8031114052227 0
-177.131889317098 -14.628347111787 -1.6136546341538 0
-239.478362937358 -40.8454570359442 -3.95114859138203 0
-201.086845583086 30.3789537516704 -17.054121846958 0
-90.96564911028 10.8690577980829 -7.74692978076896 0
-240.381275126124 -13.5388611759327 -1.48218518863988 0
-27.1250881285561 3.61920709378917 -5.37926860272019 0
-130.997993482923 9.17519225224387 12.0661747350609 0
-163.633042862184 14.3087956067216 7.44584402904518 0
-179.82551515163 6.91748226937161 10.0238311518511 0
-224.972793470512 -21.0908399804904 -19.8865470067762 0
-14.6451892985036 3.33401431560471 -5.14407789412555 0
-46.2723067573307 -6.20065188200418 1.7485490978422 0
-211.369606435145 -46.5339642055192 -7.63796364853405 0
-242.88805514483 -22.0258996886391 -4.19178537321316 0
-200.748766276716 7.26825132861412 -24.6542288975593 0
-207.844982321011 11.6311716900847 -14.0970864544413 0
-120.551070654304 9.862418905513 -14.4470072838798 0
-0.302727410870333 6.47857188503787 24.7757986247437 1
-145.836933400645 -1.55042573953837 -22.0496815499189 0
-217.11304298833 8.85065590679771 -16.1406776975826 0
-142.900475338401 -7.97724525854086 -9.03344247068182 0
-133.578315950691 11.8175553119153 10.1665777080505 0
-216.758635671131 -49.9659369036535 -2.36163854858729 0
-233.050751716888 -42.7042115035979 -9.74387601029902 0
-167.207192569011 -14.7199906670303 -21.634343411655 0
-189.310802028119 -5.4165627281032 -16.8098533659641 0
-83.5686820085872 9.29198786978324 -9.03759647481519 0
-237.848982558436 -42.1522468628171 -3.85867925461081 0
-207.137586326045 32.5581674471699 -15.1510410750667 0
-124.246332981641 -1.91120451642161 -12.3647379894595 0
-40.641378104589 -8.69503282464948 23.0448859205869 0
-230.713881819462 -39.2059383702578 20.3829479798682 0
-73.3637638140501 -3.11389804424494 21.4344252105647 0
-153.531060935937 -3.3090750189156 8.85599192936621 0
-139.630763998252 1.19813864286923 -18.8356343406716 0
-213.738390542622 -45.1126575604698 -11.2573879193517 0
-210.075765053556 33.1905202744849 4.33600833891496 0
-217.204473512998 -12.2592410876057 22.3167532309787 0
-200.876636263495 -40.3472392479669 4.39067823501671 0
-90.6465240581669 9.69294899773296 -8.96357739717578 0
-59.9421001145502 -2.54300330904182 23.1184898803353 0
-131.450331164039 20.2840680931879 -6.39052984096408 0
-68.8049173981106 4.26277054160734 -7.27841458458903 0
-146.67773534052 20.070679570768 2.22198117639791 0
-210.964009574124 -0.614404775515756 -10.9427605191746 0
-102.352473705781 -1.78870734503608 17.614846739744 0
-104.251385207792 5.39109492126504 17.1692154852903 0
-216.64618123852 12.722481633073 -2.43790786637751 0
-204.464481193553 9.53566074114127 -18.8405652274119 0
-205.850202186375 21.2121366859437 19.0966641615877 0
-144.254294937354 2.46098735983621 -20.8348203158992 0
-196.040896607079 32.7184955248271 -14.6707550831661 0
-191.528074145936 37.3722327131131 -1.63667293790953 0
-243.889196673814 -21.1593324036255 3.93800488591315 0
-23.026401336393 4.00811639092178 -5.17624111640313 0
-9.96769508047644 -2.20340667914424 -1.66140885631309 0
-179.674372538819 11.9773984011032 9.38280830699896 0
-193.833043382051 28.767408464238 10.9631080314423 0
-182.54693354177 2.92375404835925 11.0658432970786 0
-226.763115031227 -26.8762431391282 25.9549244438717 0
-201.438430403496 5.07237094643458 -16.3235828000714 0
-218.890852999503 -24.0442969049976 -20.6904437499484 0
-42.6326162107951 -6.62312884781674 23.8177849614657 0
-70.122651554199 14.3785498866057 3.88365220911611 0
-172.702479843077 20.3670094147131 -22.8816637238714 0
-208.946827036842 -47.1383286072776 -3.33381315763954 0
-217.524690454798 -45.0732465060344 17.90233640544 0
-75.5076589833264 -4.87312038751393 20.4960075998132 0
-244.058974355776 -22.2184087080001 1.55083439498231 0
-197.671581055479 28.7501933290965 11.0082820555625 0
-231.833826972182 -16.5760492196124 21.808706831647 0
-222.169136333799 -6.49878230128027 14.7816768764133 0
-49.879487681737 12.8059792528057 7.28775897512759 0
-2.19877399729924 2.91642922014516 -5.08991508149248 1
-169.651021196974 8.57297278724846 9.43551734895052 0
-207.136512978616 -8.04855901234878 -13.5960159878622 0
-208.565007123488 34.9550950120052 -7.97585510949601 0
-216.582015302339 4.29172792287391 5.07359352566503 0
-231.305940114853 -8.91607861500749 15.7603259430653 0
-239.273331144305 -11.6724336886708 -0.642200580842505 0
-243.770675435562 -28.8780878984152 -1.78903595661134 0
-215.745640488018 -11.4971273284406 -14.5247870945084 0
-197.152642498027 31.0883136832192 8.05779016603548 0
-147.939301230001 5.08673334518449 -21.362072010835 0
-183.423903183747 27.8939352706223 -19.2109102171096 0
-170.381464650548 -12.8209475193296 -4.01739810236006 0
-181.60419120127 -7.04781060443307 -18.1002274451894 0
-152.819513111792 2.14538211218401 10.6504135601925 0
-183.091875000551 -15.4454586651926 -8.59305362172831 0
-165.333865893779 23.392630135649 -0.037627970154273 0
-97.2361664005723 8.42885699348332 16.3351093866467 0
-208.775028181973 7.39815094954876 16.9146899682637 0
-218.204035497129 -1.53181747548145 1.60587458106979 0
-225.282704453704 -46.2047062079455 -2.0845228289948 0
-21.1223998130258 -0.146172555126103 -3.53607953617293 0
-155.223070831908 -9.84489071596488 0.762972031760825 0
-29.5371148267121 9.45523673254923 5.33135207561864 0
-114.958941861547 13.8122280305992 10.3662407090152 0
-226.397804721315 20.4503483601976 -6.80348948338603 0
-224.809643730525 -47.2870100038197 -9.8458059788894 0
-157.150723784804 23.3868256488412 -6.78998158909177 0
-223.203080108072 -38.9704612292047 -17.6475034405064 0
-153.362126381803 0.720335396871962 -25.9557074337842 0
-54.7238590618889 1.07385441448943 -5.07881538682292 0
-209.306959965614 31.3341088168352 -19.6599571454965 0
-215.9299154443 -46.7124901377459 -9.85328100963619 0
-151.759623511992 12.4129475726137 -20.6008552396782 0
-209.31385656979 27.4327616803197 10.2300520502429 0
-202.630410231308 -32.4425572021576 -4.68306984932269 0
-143.664102728634 -0.532807654888586 -20.8749324030649 0
-215.618062689521 -31.1179307947485 -20.2128244837366 0
-215.370361218099 5.69564578601361 0.685567858671618 0
-197.832264768802 -21.9762208076794 -7.1382158985931 0
-222.286554612544 -6.92554051178999 -9.0637038547616 0
-132.239610867627 19.3098843213885 3.16688827657268 0
-202.692288131143 -13.535547313159 -12.5850577785219 0
-228.350494240185 -41.726771423296 -14.0081122235313 0
-216.233483721828 -15.8194346691915 -16.8331496417648 0
-200.332240403514 26.0101108482032 16.144419015958 0
-236.161317404457 -7.80933871377601 6.14805748925815 0
-4.46164716462543 -3.42271921833093 27.1121963429838 1
-222.573398646856 -49.8084265318447 -1.85000943911312 0
-200.939637001554 -11.7217062757775 12.7195423057619 0
-57.1609777507945 -11.5536194767913 9.52048979618548 0
-219.350720757071 9.86970043493794 -13.0226453661056 0
-229.322687251803 -4.81239007740658 8.59265787218805 0
-24.4020333989236 -5.62732421018128 1.84974541210347 0
-160.597042363748 21.2258075087054 2.20906693174271 0
-179.57156893886 26.8796474028457 3.3417514336567 0
-83.8511851288554 -6.25889107556493 -0.758109364370939 0
-210.864980340708 -30.6683074598686 -19.2824137395637 0
-135.261176281157 17.1667630805222 5.97572623575248 0
-133.172848987837 8.36502626598059 -16.6060106948497 0
-26.6290554044539 11.67667215779 10.7812542848124 0
-204.652427553253 -6.73134468832667 14.8601630524234 0
-14.1568194270526 -6.99254405685818 3.57410530702521 0
-205.486998266151 -33.2857025581204 -9.40789667099943 0
-218.527176610532 -49.56688419025 -3.90716065237565 0
-166.351393855653 25.2298188110755 -6.77762568494495 0
-236.601009615726 -7.92202993401757 3.92939624175236 0
-158.664118340905 -4.91957529621012 -29.6824253626738 0
-198.969420736005 2.95860721584273 -16.2731129086744 0
-200.657974223017 -29.097822984225 11.7770303242016 0
-138.699767726649 16.5667411779357 -15.5524526021352 0
-177.61231048436 26.7987361123766 -16.2588897795557 0
-189.591211053313 -5.47782557441463 10.5693779972106 0
-147.946062482581 -7.53412980551197 -15.1669099638829 0
-145.874795751433 -5.29439419412997 -19.6192691386927 0
-228.192289553707 -46.1488165230502 0.463689494359787 0
-194.951439581121 32.172630831861 7.21622305174138 0
-78.2329152685093 1.51989507530344 21.0632888848715 0
-205.510257600014 11.1882521584807 -16.6940113490525 0
-212.155676938464 33.238089824021 5.11571996467435 0
-238.860217718737 -29.8813980176858 -11.9083849225961 0
-232.105934531974 -13.8667973892418 19.9293774979919 0
-227.044470903317 -18.4568726141831 24.4355885216479 0
-102.32468057505 10.013967830934 14.7251821175112 0
-229.470501085341 -9.02424284867697 17.8267622328288 0
-209.199800236545 -45.5077758808124 -7.30159617110644 0
-171.553687662943 -11.8558229164002 -18.1978855094791 0
-157.381413254733 -10.9087609733181 -0.385696979296401 0
-153.818295223193 -5.19355514222509 7.70784986423102 0
-175.021480850067 -1.85212044280529 -26.0892414803617 0
-185.337688183635 3.87620649066509 -27.1168931491661 0
-97.8710620959322 9.7969497003844 -10.2497710251431 0
-1.15936746813101 3.06362184412882 26.5953662524328 1
-65.4598693779481 -1.36877893103022 22.5898713237265 0
-208.31084369957 9.32275889119972 -20.3326401889869 0
-79.7307673112736 7.75916306544407 -8.68204926690261 0
-92.272034828838 2.07392203621711 -9.12391678334819 0
-207.69031753868 -0.0653933389244308 14.9121583425457 0
-203.270470161683 31.3858180030309 -16.4551200523386 0
-147.202039400803 18.4444640009814 -17.5589711202336 0
-156.683914400788 23.0210569297724 -9.77702993284324 0
-156.983665509236 1.83333770613174 -26.6713075717879 0
-143.007428268778 11.26841805373 9.95918910950042 0
-172.799906315037 25.495756615655 0.140231454205955 0
-35.6928815573293 -13.5844120434232 16.0324207813671 0
-159.406548090601 17.9233917950273 -21.5277695473148 0
-232.993115509089 -46.1160183278086 -3.60541986560393 0
-200.143652486235 -1.02302636027791 -14.9760686258886 0
-31.0236421682501 -9.62255166598309 23.3368476439722 0
-136.820878838499 -7.74593782034022 -4.83294510637649 0
-208.211959708689 -47.3243180566802 -0.577108784557764 0
-159.512624008817 23.438024305966 -10.3980774471394 0
-172.448723850866 21.4948974945195 4.78392921109803 0
-125.166767174537 -2.52904586260887 13.2983804093039 0
-130.541380083609 7.26531766165843 13.0420618243872 0
-169.32460186036 -13.2341381574161 -1.01658124719518 0
-154.858705741254 -13.7770764308004 -23.4267125037163 0
-211.112399432839 1.88813138750499 -9.85823475250697 0
-227.445791671647 -44.2693450167439 17.3911256300824 0
-177.101557893134 -7.86978849014534 8.00635790757706 0
-209.500695202183 -44.0877655965798 15.0169753654416 0
-1.40471216371349 10.7331148187039 19.2828269069109 1
-53.9499429885723 13.6515115113422 8.87383117781312 0
-113.74562612718 19.0116725297731 -3.83182930518766 0
-221.841031666445 -51.1423840362071 4.19978792906349 0
-171.659981453476 -13.6339075090322 -1.52594107093924 0
-159.413937540111 22.1737433702164 -18.6758376252381 0
-17.1439855951879 -9.09770552168164 24.6549098977883 0
-139.266187711828 -7.55669940693909 3.91204995864444 0
-186.658068210807 -7.22836531204587 -16.1996494941805 0
-197.937459960206 34.9507174186388 2.46348763214912 0
-209.590364301757 29.811353704995 -18.9744091201997 0
-189.001729627447 -15.9184292412334 -10.1879044410416 0
-103.479859820986 12.0978786660989 12.9861797469602 0
-215.367667860901 -11.4664504100108 21.2109374784474 0
-151.335004181909 -9.07285744689503 -16.3980363202727 0
-117.902202668127 14.4128667113759 -9.96287303550418 0
-9.93590081478099 2.19155384448151 26.5568060268726 0
-33.4963075679528 2.8448337336558 24.9833938452092 0
-159.969318076431 -8.6938528681319 -10.3665096853066 0
-107.981868105269 13.4557999247184 -8.76281896338845 0
-222.480188408575 -50.4730673676473 2.39445000765234 0
-164.112842684091 22.3591572894812 -20.6647138836744 0
-80.2317892150157 -5.69532982209279 -0.995779096432892 0
-25.2232786703742 6.66506184972306 0.41224983285346 0
-213.996800633927 8.32027540447996 -1.54114996115763 0
-218.436773273019 -29.7083116004791 26.4206349582072 0
-194.829259430698 29.8427230175776 -19.6531189316812 0
-43.8279417441031 -12.278479047197 18.4337059610281 0
-182.896551960296 18.7734856895114 7.99170016382948 0
-70.3984930372336 9.06529399522969 18.7216206511385 0
-227.478578712291 27.0658010329236 -6.43372959260894 0
-235.680013907615 -41.8738546682354 -8.79906771112789 0
-164.761673032297 18.3457008280157 -22.5888558198404 0
-191.338384912534 -0.486402291729451 -20.2124406871864 0
-14.9436138811708 0.685444642296258 -4.55631854013996 0
-183.139299628592 30.4077410214599 -12.3083946266743 0
-221.772503544377 -37.3336730184259 24.1045587434659 0
-116.072710558654 4.48405437574 15.7917547241709 0
-233.719789423219 -5.9929022249635 3.13072441079958 0
-37.9206792982285 4.51461770673291 -6.03961838080263 0
-211.517508323196 -7.71405483162413 16.9530764539489 0
-212.951180735415 -49.3920822683164 -1.57885992596469 0
-220.971840394318 29.1336704872304 -9.9107804490168 0
-202.976156168176 -34.0136673937818 14.9758980425846 0
-48.1715653376886 6.44321333363294 22.6263731804588 0
-228.031864048203 -7.57891310611728 17.3933189654785 0
-218.293386335297 13.9441105701567 11.9057619794607 0
-202.323624857913 20.4269343878409 12.902631073653 0
-103.465126253701 -9.12505388075805 3.87513098441794 0
-200.448651259536 -32.3319034873426 10.8358195174089 0
-219.403697922166 8.90525442617287 -14.1510624149801 0
-38.2249617428045 12.7614751145833 12.7591449688356 0
-215.032286930014 -28.2139376942106 25.8899682988816 0
-98.3907925171411 -9.37261543931192 8.93433559604363 0
-145.147729895877 -8.10700834978043 -2.36997938635486 0
-135.03535427897 20.9335766896979 -4.44903901537178 0
-175.996773172607 -6.09703793581336 9.14275351994819 0
-159.50628817977 23.7537126560948 -6.65998315729991 0
-206.805134726867 -43.1147029285314 13.368303979414 0
-182.619238339203 24.5941201013339 6.1729188765563 0
-218.429597246774 -8.53889322920829 -12.1957427670066 0
-216.838207178312 35.5692415597489 -5.04849518880618 0
-172.367686419944 13.776745522572 8.16185683678023 0
-170.209527974951 25.4018268023738 -1.46860646271765 0
-114.393067812491 5.5437065102005 15.7446751467561 0
-22.2230570608896 -5.25530608965115 1.56707755010766 0
-169.020361358504 25.2885469449039 -11.7808256465283 0
-216.764893188869 7.23068047139174 -23.317963283418 0
-163.321720901731 5.85059604700247 -25.9437800937254 0
-155.120111761355 18.9514372415357 4.24457292263891 0
-226.006304128237 -48.5551588602559 9.19051216819969 0
-174.680442538259 -12.0085157583162 5.47200707497335 0
-184.941019162696 -2.70859450010874 -20.4080171449245 0
-188.617538047878 7.88795490979119 12.7817070117219 0
-154.803921081036 22.7830764015489 -9.77764771149672 0
-224.931754456216 -8.83661128207887 -13.3987550558093 0
-235.187794609655 -6.88553843182495 4.10790182432511 0
-100.149010128052 5.51206380995889 17.59735303589 0
-188.302542723117 26.983792834987 -22.9839947937473 0
-207.651908944189 10.8724444945692 -12.7159281831684 0
-166.04879990435 21.6288111308476 -21.1849827193246 0
-210.343658761562 -48.6504491376809 0.363912175544576 0
-205.404318590377 -42.0911548067279 -7.54941350963661 0
-220.27240753379 12.5276577689971 -23.8590960453507 0
-183.125260532849 -16.2399233328398 -4.57330776513651 0
-159.20654497838 -10.0621773981244 -13.9075592992032 0
-235.219929187505 -11.440220316776 14.5065072466837 0
-218.160176021397 -29.3538600008421 -20.7788257480994 0
-185.613202045116 34.8968921209841 -8.04668104213783 0
-215.863888842 19.2049760567801 -25.6325572529394 0
-11.0900659168946 4.5138586247034 -4.39747339381811 0
-204.620548985396 26.4136725152592 14.4344617222716 0
-217.027284721215 33.34456523898 4.487672868243 0
-184.517929157666 34.2260964905431 1.82643802375163 0
-157.909223634044 2.76315410703399 10.1912897709084 0
-223.995660663178 16.1790836749974 -2.3095559588509 0
-203.447005952462 8.23509989457358 -17.4409114698951 0
-189.72657637646 36.4787536891518 -6.85399794784778 0
-232.746554850984 -5.65849955179364 6.71688513195447 0
-121.699780619193 15.5677567025949 8.17623071225018 0
-222.417927712509 -45.0994019186108 -13.277801204577 0
-136.707464652083 15.1540422484978 7.73740771341456 0
-163.520680138111 -11.6159821183851 -15.2843005037238 0
-197.726903366263 29.1508824772892 -19.9554125969138 0
-144.355406507696 -5.60499816497007 7.68189224287812 0
-209.844296479582 6.44122490290121 15.0530415774698 0
-84.4892688658038 -9.98424751816302 5.95605463090952 0
-228.416972320167 -15.586330495226 -16.8281989694355 0
-131.525247274244 -0.499038908896539 13.0508107473766 0
-228.886821626916 -46.0042873744405 -1.57582087078424 0
-201.711965505358 -34.8008193971934 -3.29754528827269 0
-59.5639452052435 -11.9489983992602 12.2793918241739 0
-107.954557554638 7.52858242731308 -12.3430612260422 0
-112.416250234124 -0.946311606212913 -10.0442089668969 0
-240.946093195623 -14.9792449110403 8.48388300814198 0
-178.09492690191 20.0516423423613 6.74926886655417 0
-123.657807426174 19.6274292529586 0.776843999248637 0
-199.146840250487 2.66458813741266 -17.3816624067111 0
-198.586354213325 32.2342512945821 6.41400445267604 0
-78.6335474944109 14.9565144235144 2.01176325567897 0
-215.151571210613 18.0325304940432 20.6505010501816 0
-124.984390264787 20.1035559780685 -4.91746694606069 0
-223.000056084411 -42.9611455555372 -14.8060394778201 0
-135.842239790461 -6.67149835410942 -10.6176505088301 0
-205.940911656077 -28.0041382297588 20.8086992682198 0
-198.029043261874 25.481698588485 15.8891158115623 0
-224.567088215485 -49.2475590150836 9.75391606224913 0
-153.888130343638 -8.10461452584726 -7.31428681511537 0
-164.304645557625 -1.02495888997462 9.06234130878052 0
-209.849523981446 -42.1903097672898 17.5784021312116 0
-175.774039556392 25.117834308253 -18.7045197745103 0
-192.76773656217 1.07024205760746 -21.3139466468365 0
-165.602183748114 -9.80725954083658 5.24981688154947 0
-170.364947465894 -7.23784631616513 -26.1641998649327 0
-119.336104108374 2.26317690721565 15.5171101203732 0
-212.230235843018 5.06987510978708 -4.37476845382625 0
-100.763825395008 17.5343034290811 -1.64708430512529 0
-41.7328182349923 6.57868403961505 -3.20246753765845 0
-162.615895891287 -4.83761498509738 7.86882714842383 0
-228.86175661204 -32.2803825297815 24.3125081685898 0
-24.9953842280508 6.13319520993257 24.1045494118204 0
-224.382554605902 -6.22951119226421 15.3386428561646 0
-127.916278485859 14.5549613363092 -12.8961756305163 0
-21.4203283044617 -3.23387006475477 -0.468765344575031 0
-135.022584176256 -8.08145409596171 -0.704954579155877 0
-187.806018431332 37.0024797165029 -5.43724837302864 0
-223.767964587985 -46.3506587149051 14.7248506102006 0
-239.475654101272 -40.0744005500506 -6.10273495049775 0
-68.2084031646661 2.73248614638948 22.0088460807618 0
-32.6366062898566 1.7281788016595 -5.50592171997334 0
-221.915425022118 -41.9043406508087 21.1787833723357 0
-72.7458077895352 -2.0861434839409 -3.51665322114443 0
-172.368392968034 26.0576315791813 -12.805408361858 0
-192.551156838974 -17.0371657236741 7.19079410020365 0
-43.0657815305573 13.0144803030971 12.2817757762281 0
-134.126798705369 3.47345164601474 13.2243044692035 0
-147.40859193609 21.7661682608347 -8.38282177889317 0
-141.023534655956 2.00451955491971 12.0856436733539 0
-153.742209698104 -9.83609106364828 -15.9628376865042 0
-202.920422476394 -27.3762283775324 -6.70698382278501 0
-135.657537865574 -5.07704833743374 -12.5847951542428 0
-161.169341559379 3.05221256246117 9.99562900005142 0
-236.329741441213 -40.7263292831907 14.1189626848709 0
-207.322537237214 -41.0457158144756 16.562975794031 0
-234.21076945774 -42.8656275827738 13.9901208259096 0
-202.27226288953 21.4943781555311 -25.5581304826464 0
-184.264965188047 32.5525943607206 -5.64371100127016 0
-202.201758032982 -42.1208651863578 3.42195978316883 0
-139.945178375147 16.1456631705667 6.87269196082296 0
-212.252321406347 24.6213647569682 12.1291733507704 0
-202.947313941982 -1.31112793043135 15.0231453433354 0
-206.829573402106 -7.99359286837898 15.8470074339403 0
-0.245035374849085 4.59766478477514 -4.00454951674328 1
-106.243628011613 14.6913520351685 -8.11708715295836 0
-87.833061766512 -8.59565683221479 2.23199675016263 0
-77.7386955477686 12.6895903414148 -3.64516462964842 0
-200.969402879468 34.8938835365483 -0.0271389261821139 0
-209.050334915509 1.90945402123588 14.4919608121595 0
-22.6992323088928 11.3103492999806 10.4303212788037 0
-242.733524242365 -19.0118061326817 8.07174872840553 0
-51.5899667543436 -4.30996728575582 23.6394936787146 0
-15.0171132171589 8.10019212979326 5.17717584601156 0
-128.000237847067 -6.06768186691156 -8.08728290632231 0
-227.55093212465 -5.13090815145279 11.7950862104442 0
-228.611801538639 -8.25274303966026 -11.8433485456886 0
-241.881429578922 -25.6070379854714 13.6755968035472 0
-216.132873075019 9.49710985084056 12.7416917324924 0
-185.171975496654 35.5716750718158 0.548750121201223 0
-38.8888440913161 12.2866629478875 16.4146773683566 0
-13.5380946536153 -9.28634853496823 5.84097681764651 0
-160.36396075091 21.8959562932007 -20.3823024134348 0
-100.377845402178 12.7660538545353 -8.1026315725255 0
-158.898261071981 -11.40632772735 0.688678746299854 0
-228.221457896402 -47.7824300373705 5.31051998644997 0
-161.673260428582 -15.4693025193586 -23.8726702923054 0
-121.921255562234 -2.25111247376759 -11.5280149292516 0
-221.874842635971 18.0836163667129 3.6204763080537 0
-207.201955002137 10.2393645372933 18.5760731238121 0
-214.214871307438 9.71582260829425 -23.817732436585 0
-217.825378630839 -6.77072953472233 -10.5097351063059 0
-54.264521262062 13.7309748136369 11.8324277433257 0
-208.76375937353 -22.4400058975235 22.2992269232968 0
-123.144195212544 -7.75267446431933 6.47106528622971 0
-225.146979632847 -47.1843752655545 5.51064439294953 0
-198.373138379912 -26.8180258215746 -1.55470434234613 0
-142.693646918192 3.9215735729988 -19.8814449417177 0
-157.959593978061 13.7871809400325 7.76661272474975 0
-152.434802384098 -10.691758254079 -18.1452718691945 0
-210.975292992145 6.71028567001549 -5.58662202680931 0
-48.1990199770828 -0.192979075581528 -3.65858298136752 0
-216.667929499604 -0.1315371776529 -3.00639640406038 0
-16.6202288160386 1.8528523808431 -5.23649075232752 0
-237.848552059064 -9.31365996699192 3.38447074861647 0
-194.244018434401 36.372080619902 -0.53946936836934 0
-212.309271030983 11.5813238270285 -17.3341667870702 0
-190.154034829567 32.3868847364621 -14.5266307343699 0
-140.674861342516 8.48645361349313 11.4236282648956 0
-144.795678615286 15.6125041331922 -19.2220751157996 0
-217.348235782107 0.654126352224898 1.70891312529316 0
-136.813847098012 14.7478839134198 -17.111146565766 0
-210.717489409937 -26.6872457389539 24.0875386538776 0
-219.129235691596 23.7411382606113 7.78580730873287 0
-5.73441583143883 7.96296225294775 5.58840987717391 0
-47.5095597585328 5.34407443087276 -5.94826155624577 0
-97.3794144728361 7.73722586017522 -11.0886428456297 0
-224.054994792615 -7.48785381343994 -9.68070951760224 0
-46.9039638214127 -11.5616199503729 19.2621454266811 0
-154.938575758569 -11.2525643582158 -27.7921153257221 0
-203.247265240329 -42.9064694292098 6.02010544624457 0
-211.016463632986 -13.6215540674396 -14.2367953925585 0
-165.120199951755 -13.1573125467195 2.92628346360182 0
-198.472292694548 3.77300994944191 17.5048922217182 0
-18.8232393707998 8.74547296685504 5.88791715072628 0
-109.764996213033 15.3861861218251 9.04777628427147 0
-71.2068260544736 0.259975221393629 -5.09202476260154 0
-185.526469154956 18.6655416713633 -26.755162759665 0
-141.082698130598 -7.47274797916018 4.05810670304481 0
-159.337645017093 4.54418509462914 9.99258987930131 0
-194.961135438595 24.6348641174184 -24.1678965318604 0
-26.717384713453 10.06715900729 7.03809755743977 0
-220.593545016681 32.539014190613 0.609866915711221 0
-20.4303435639334 3.83993492180818 25.4846889060185 0
-183.492844396598 -1.83672883303428 -22.0404833462278 0
-46.6645947098431 -3.32533129549448 24.2096090841017 0
-11.8812621336358 -13.8911732907658 12.1379672177202 0
-89.5174658018372 -9.97556591905749 9.92338028754619 0
-204.153423765642 33.3475442821814 -15.6548923199169 0
-138.341161824984 -8.06668924910526 -1.50171499187015 0
-88.2490395034595 -6.80969810121353 17.1857845181449 0
-149.232059371201 0.868682353337084 10.8700870382731 0
-22.7044091224703 5.37918852499828 -3.56240135476277 0
-173.857176630742 27.2858361255155 -9.86234641970513 0
-39.4674823103707 1.96230654815319 -5.78316682588031 0
-130.378064885063 -7.84653668039853 -3.53772690342641 0
-142.813253821223 7.72970912989485 -18.2510918184962 0
-206.205067761379 35.2809425640379 -8.48854544125189 0
-185.063838149491 31.1938781559616 8.28508248547578 0
-178.544903028271 29.0937365340809 -9.71948149191693 0
-153.689227693964 -9.41246734508582 -1.72773537724838 0
-138.12359364071 8.52486446677764 -17.4227723241883 0
-65.206770263504 -11.3439365656736 14.382786307497 0
-81.2914830576638 0.711543385636077 20.7466304592008 0
-240.492742165143 -40.0355954194574 0.933896881911365 0
-220.718434395356 -50.9385924449429 2.00666320826462 0
-189.286037120985 22.9498015350379 9.77427046813245 0
-61.6616352238243 4.59427768078408 -6.43033100068562 0
-190.024298485662 -17.6486986780643 -8.17350926551456 0
-171.117603212882 6.11635225090849 8.5059463098418 0
-207.705325916435 -32.0381367980078 21.7354063753428 0
-243.108403804819 -23.5239711791007 10.2985387765052 0
-214.430154312352 -20.6773195704725 -16.8637704682154 0
-119.343910575573 -0.91547499848373 -11.6719622250361 0
-195.987496081523 -4.46639801592776 11.8206204835095 0
-92.7592795214289 2.18291219570913 19.3341491800865 0
-225.685882333262 -32.9967264912655 25.1400392802642 0
-216.631008774333 28.9588255742487 5.70109090860274 0
-227.15111874831 24.9401384685484 -8.0113119053736 0
-186.847066305181 -14.9237559823205 -10.991582409571 0
-200.622078208255 -32.2672153302742 -0.499096551729393 0
-208.38022548653 10.8277511971089 -10.9665180829513 0
-218.597894555264 13.104627781386 -2.60484245666773 0
-126.759246723869 16.4691841057569 -10.9820336621212 0
-132.734666856919 18.0794067231042 4.98584291146052 0
-199.281410996916 20.9228889272448 16.6620959943074 0
-48.5768593047381 10.5293112742906 19.1589356322804 0
-42.5543037712025 -12.0315447633829 9.78350313314434 0
-99.0990137214333 8.00178667408227 -11.4363155451022 0
-177.692154891254 -13.7679028744321 -7.62763314129318 0
-221.1451099962 14.9558592250984 1.79640600976547 0
-198.522991639213 20.1420337819237 10.9406337495056 0
-18.1059491596695 -6.96401164475494 3.39211783334985 0
-220.714028208157 22.53079599485 6.35573359486543 0
-56.5047254795956 -8.6082533863255 3.93243783633857 0
-200.895260855269 -39.55766063308 -0.224112907481983 0
-214.628953346933 -49.2438242168729 -4.05532458597909 0
-40.2499160913874 -1.54270813202544 -2.32081276783145 0
-224.248037767848 -5.93641142717841 9.03547427120696 0
-199.289976971066 37.6834764541302 -8.35521872745049 0
-227.08574352584 -7.70338503633986 -11.1371297197235 0
-217.520665081927 8.94980624835541 -24.4506954188582 0
-163.620406567624 24.1613303798317 -11.1250845644206 0
-198.58273694412 36.7957123170734 -4.78386977295136 0
-169.819925095433 23.4155770214041 -18.9562743658784 0
-153.383338714023 4.09945340445915 -24.1695193244621 0
-201.64167740356 14.2028495518062 12.9234258246025 0
-185.09497858323 -4.70750170850451 -18.6200582363248 0
-88.1241266978174 13.7597747831879 12.630058979838 0
-20.4921865055223 7.83542940394344 3.81343033683046 0
-229.00600236622 -28.0239590384131 -19.4134409711251 0
-203.564088474882 -36.8004909987966 -8.2266793571696 0
-220.047928736508 20.4575036372025 14.4793477380576 0
-220.45986718837 -49.8996236147711 -3.0978203652886 0
-34.1679188878633 12.4244227721455 12.0685927132287 0
-222.285880853358 8.4340048699847 -16.5490766664896 0
-163.892938075608 23.1708137361396 -18.0938713649834 0
-208.134364418442 -28.2294560755318 22.5185068966227 0
-97.1366919099234 -0.918732359507777 -7.69333987664856 0
-123.642600797978 0.740738809620078 -13.2411853750336 0
-172.055634652639 0.89803119860994 -27.8779965333607 0
-122.947727439037 15.1958352949275 -10.7529957210724 0
-165.842005747564 1.41399965983418 9.61498286040211 0
-138.254382275271 -5.85707625025807 -12.3641342801956 0
-194.278323740852 37.0875644580916 -7.85027364743071 0
-126.663574492082 20.4583498192205 -2.90917319965098 0
-149.678200735792 1.70337321357504 -23.4833897661741 0
-226.974539477559 -45.7846172973303 -1.94888664889847 0
-95.2698129605745 3.66342741106489 18.810114091161 0
-3.4994245194051 -10.7308727458812 24.4924726295202 1
-229.79838882435 -25.86334705176 24.9154299946254 0
-198.123839435631 20.1616116463232 12.1646704904626 0
-29.5494862934354 11.5749665111319 17.9569775280873 0
-217.73215640497 -0.861887340608761 -0.682283790724128 0
-91.365892900413 -5.5552724318788 17.6329355927656 0
-205.64233941562 -0.678397314430107 15.0905753414805 0
-137.65734160645 12.8231614579907 -17.4566717912501 0
-218.932057516923 -16.6174476589575 24.4946559876899 0
-211.335928476668 4.61875297462628 13.450207883328 0
-204.885408651166 29.5700526546945 -19.3588869538557 0
-213.363874825816 -4.30722455924632 -11.2674781912325 0
-89.563628233017 13.8567211040226 -5.84305160909495 0
-211.281968528972 32.9349491264941 -10.6897610946375 0
-174.204538044293 18.3444369772919 -24.2466250103102 0
-45.3601437787678 4.48870536051241 -6.08841673690102 0
-30.677623703325 8.6924948799288 21.8868540984237 0
-196.623547367851 35.4964695979256 -11.9892642866727 0
-81.7113060985817 2.88870610174998 -8.10938269220107 0
-183.920647722964 26.281398195707 7.15922040599209 0
-24.2168021267866 -3.51987863253001 25.9038662593641 0
-124.171533995363 -8.31055113760846 2.08747030076893 0
-207.071428803144 18.1312838297969 -26.7959543424898 0
-220.964339117965 24.7239709964359 -15.353968785583 0
-219.342328617287 -13.7768398298539 23.689356381521 0
-215.795502979909 -0.341188496481761 10.6460300627812 0
-215.922620240413 -21.6460084347543 -19.379114164469 0
-222.367550936854 27.3748386693467 -10.307586213911 0
-12.9289757700762 5.05377320924564 -3.744651142087 0
-98.5744510913415 15.5291783125248 -6.07246643528399 0
-104.64417964977 -5.83550149665516 14.6838896911446 0
-221.214824645233 20.1466352102683 5.75167038786429 0
-2.66909227093329 6.87036484601528 3.5977415382029 1
-116.713676343723 2.50414766596281 -12.542830725969 0
-230.362247627917 -19.2301290553838 23.5045094365332 0
-167.324781080204 10.2770072104497 9.09611658618887 0
-144.983904637137 10.4750470707068 10.2244828523311 0
-209.587584686036 26.5161700814566 -23.2996201542955 0
-222.166991247092 27.2836475476655 5.6341410509581 0
-223.483505764312 21.7517054580929 1.88339380325049 0
-224.391837152312 21.0735755957951 -0.493958155769982 0
-82.9760700308142 4.33411082890631 19.9541835042262 0
-101.897461666347 -7.65293810323332 -0.687617138725991 0
-191.617190318624 32.3900054033553 8.0910296890691 0
-212.290014598988 -25.4438409439388 -16.1921807707013 0
-6.81055667055301 -1.65649522457896 27.0805241110939 0
-224.577367815367 -48.0324605990197 11.0681138851883 0
-243.669355697741 -21.8536234870906 7.25520271462793 0
-125.514436076724 2.3113335950501 -14.2766276467318 0
-170.894340726966 -1.3144037126645 9.08053841069088 0
-88.815502023374 4.99857040480611 19.0733542839229 0
-16.5074683030219 5.66689405159652 -1.58012000517724 0
-190.038438113719 -17.7915278604873 5.21540773630698 0
-216.514491533818 -7.72431335877399 16.924504404884 0
-236.310420235293 -43.4350596317469 -4.23705272508217 0
-221.568699056359 25.8672751610714 -13.4334540783836 0
-199.648414331627 -29.7250629823474 7.27660290589601 0
-81.1875373508084 -10.5308543348291 8.6420601076966 0
-200.957914421316 30.8651882952147 -15.5502813312327 0
-42.7079254147984 -13.1142468292616 15.7938129967711 0
-223.010997937085 -18.3551352291195 -19.2362640777782 0
-213.247159778422 -47.8982588114929 -6.59418742360761 0
-125.277568338893 8.43412953653782 -14.9276682260106 0
-215.067186288122 -15.939345328409 22.9763911555575 0
-165.800233370559 -11.6726303995024 5.3752077967387 0
-221.895652995453 30.5669059237717 -7.60930328786706 0
-215.111255100379 -19.5721705006193 -17.4020135242494 0
-132.361154397025 20.7535270024326 -3.82726780427071 0
-194.52998301439 26.7720231014137 -22.8167309910387 0
-88.7300328796091 4.8248808327012 -9.4472727201622 0
-148.321918856567 -5.57663874514683 -22.8211736740219 0
-56.2943668317249 -10.20115406082 19.4466633698924 0
-228.167706869548 -34.5824933978169 -18.3837876288719 0
-148.965655172405 -5.5100820670508 7.53328106165373 0
-46.4684695906077 9.20280453818821 20.7688196667989 0
-34.1969527391079 -13.07923358018 18.6363560047744 0
-159.053960213031 23.2608063302835 -2.65585261873375 0
-126.930597959049 7.45982799457253 -15.1919381834432 0
-239.170000738764 -20.2445785512143 16.5019518815327 0
-199.807471717694 -20.5108687022345 -9.14992284413323 0
-221.680680651002 17.035531549612 -21.1684812261597 0
-105.019899344019 6.84336547668211 -12.0347437917943 0
-227.288119290797 25.0395503971377 -5.79626100901975 0
-186.425499216732 31.1706940114581 9.62545322103277 0
-162.822790899624 22.8149967497451 -16.2165614183926 0
-10.7153498435648 4.88993827160956 25.5189251229579 0
-120.879960686767 19.8637586721195 -1.50081442739888 0
-184.7086752218 15.1272491232071 9.24733338953257 0
-188.119968819177 18.2718933643027 -27.5787434898963 0
-198.167426730144 1.91002395873467 -18.5934532963488 0
-201.661313975329 -36.7348179897252 12.0826531527029 0
-17.6656483717014 7.72203561173043 4.03669570602611 0
-135.845435314726 12.118894506269 9.83437020690588 0
-217.066662432016 28.9514794367575 -11.6137699849869 0
-146.973762164667 9.81758517443641 -19.720288267674 0
-199.414672605685 12.5643758099792 -27.8013826024579 0
-82.4576370938311 8.44697197841406 18.0111235856456 0
-198.253477265402 -25.7002740111048 5.89188564031599 0
-217.551364450906 16.3715653256887 -25.1660916463552 0
-216.489182742105 22.575700796465 16.3079109223885 0
-211.894481591868 -9.91955710435543 18.4295297413891 0
-118.877902784216 11.2559821352562 -12.6274489080685 0
-156.340948655332 21.6874004784535 -16.7623643474002 0
-118.440448761565 18.5950287860013 -6.97200713086938 0
-108.506938575647 -8.91155885947027 6.14531442466955 0
-144.319389623886 15.5921088273987 7.17439072180241 0
-204.420803663778 7.97422055096278 -20.1800207600496 0
-140.368213394912 12.4127030489611 -17.9572710453826 0
-0.361285205781075 -6.06999693055821 26.7890202217396 1
-87.2326234832071 1.12756097071527 -7.62601185697182 0
-177.167348930013 28.8545873587747 -8.01562412629941 0
-34.2168417263245 0.35414308452383 -4.41032657440335 0
-105.646786461361 4.902565033857 -11.1050003572763 0
-175.72945619916 5.05935422686977 9.66638406920228 0
-135.556995201033 20.4855002552073 0.320838790116049 0
-212.304333217009 13.0333173726188 17.7305584154162 0
-233.983805950439 -34.3728120468046 -15.2109652661712 0
-172.910282197029 -9.51320325614218 -21.3614815380385 0
-203.547365589759 6.59268402241884 -23.2716040915506 0
-223.873305694644 24.3512048061192 -12.5322566449448 0
-152.837876714412 15.6279041166166 6.95898703555785 0
-174.48244874006 18.0368234745248 6.9430457998505 0
-75.8579617665174 8.32016233634053 18.7558157488464 0
-107.653806098219 0.819397773192651 17.2278144402574 0
-156.040113803899 -1.7001883263451 9.41283982755823 0
-104.809719024418 9.50557766740777 14.8385320559384 0
-205.950623738761 34.8165829664582 -11.221077157239 0
-124.188970312684 18.8029424864284 3.71546303234515 0
-80.1866100085311 -3.96148949392879 -2.681250208068 0
-26.5095548394637 12.1799406916232 14.0264217560909 0
-202.367379131433 15.7800192335912 -27.1102372337882 0
-143.191429407357 21.1373611960849 -0.8361042170383 0
-79.3066179371391 11.2262253357544 16.2479308595061 0
-165.980711744434 12.5389620768193 8.13435549079478 0
-237.085585491148 -17.1591211448711 -11.4667889127327 0
-215.026646335797 9.40097112931186 0.430454033919367 0
-116.934840428288 12.1919172895826 -11.1915463817846 0
-199.652138083693 24.7674039048941 -23.3994254846084 0
-238.969370036492 -10.7846823389597 0.828141317334428 0
-150.269546199831 20.0220013369087 -16.9503980208471 0
-119.790920839678 12.4031811966349 11.1197951365565 0
-172.755130172887 25.2718235803625 -15.5625200508047 0
-18.7871495135075 -5.72693071074848 25.8690155618313 0
-28.9780202045193 10.8456172426923 8.16429448663837 0
-187.864777161866 32.9207242664875 -12.9951090207194 0
-179.979330790182 16.9776081660364 -26.3069942339345 0
-217.045048163445 10.8096249189382 -25.368407956211 0
-26.7920026275586 -5.39234941590656 1.56091166364425 0
-206.310562604824 -45.9614445112766 4.69536730982595 0
-239.314472887407 -26.5056480381561 17.6596989323417 0
-212.354398267183 -39.9846146559467 -15.5979572991558 0
-178.287723203159 -13.5064963953678 4.86714020828253 0
-196.755342915467 -11.5255055795541 -12.6126445836078 0
-213.436241682728 28.3705187397845 -15.439509895517 0
-217.281247487183 -17.8422474637677 -19.0464925475099 0
