142.429413129447 1.28837683889971 -20.0248665309647 0
124.727281508513 16.9728452013372 -14.8989356488164 0
128.559260521052 4.33018537823397 7.92662270504694 0
174.243628431086 -34.4771105559998 6.08570086154424 0
207.056758123475 31.508793912716 -0.763868710108592 0
200.084802995455 32.8479376469931 -1.67269566948702 0
8.43846517720884 17.7521953339328 -6.48934780955498 0
-2.44306391655339 12.5591957386744 -22.3841266403188 0
214.829535471292 -36.0875520937129 3.12459855237016 0
-59.0518039347372 16.8016254975243 -18.6119815856388 0
76.3496187116089 -7.55335398350663 -1.50212918387699 0
182.899642253514 17.604278543539 -30.1003870119798 0
56.0085756883422 -2.35140937850026 3.20157883053559 0
126.074608174641 -5.20587047524881 -18.1294060387514 0
168.322327544027 9.07015962301404 -24.6699958825445 0
113.147346253382 -14.8706636917278 -4.21700476904191 0
-30.7137582369151 -5.33168044268376 -8.42709638583415 0
169.912375334426 -28.6737274371446 -2.13846565642276 0
177.144696862138 -31.3742511487021 18.2603846195808 0
177.951137644533 20.6941815887444 22.178683549142 0
212.147888222178 21.0378084619791 25.5246920871416 0
134.102875127817 12.162844802312 -19.8360885308893 0
67.8645765563 -2.54109532080499 -19.6351321373059 0
178.94877993046 -14.0855623966094 15.2926606603666 0
192.529236055665 -38.5271471232512 -3.64154594889414 0
197.961833508078 -41.3798940797807 2.11543515323031 0
115.379917507576 0.871386339907749 6.56320525849528 0
91.9240999885033 -2.72003772925046 4.0418996829525 0
184.935198389538 -0.613269402928687 -23.0849173851965 0
211.09959748503 -5.26041605561724 -7.54593888496929 0
-2.68091395302621 0.958968857539968 -22.8381053170455 0
202.525131208648 -15.4393647357645 22.5453067975832 0
-74.5448313099595 -4.72015114148987 -10.3010933849399 0
29.3996590900279 11.0623836600873 2.03952943360374 0
-52.6511409689662 11.731990752703 6.97305850169086 0
-46.1358908339881 18.3930700479812 -1.77062972493757 0
206.70882769962 -24.8939544650826 -18.863065049222 0
-55.3121644666016 18.1661410361211 -17.694292836845 0
16.2992053364008 18.0307226294541 -7.4737624777616 0
10.1478128945227 6.59889636547656 5.61190486148064 0
154.122372935445 -6.02060472617388 -18.8381750155164 0
168.481847646211 -4.42915686444264 -19.5929404368304 0
165.632422036104 -18.1105530706178 11.3085119409591 0
125.174418232498 11.9311047899363 -19.5419234565839 0
5.2296631057402 18.8895847489655 -17.374760530721 0
189.316498033397 6.20913048428739 -26.2904830995212 0
-58.2085520338536 -4.61721167131801 -12.5492654328522 0
-14.7692730476979 -1.91852650581665 -21.1684389908468 0
110.406897936795 0.0858221695061862 -19.6924592171662 0
179.148904582629 25.3876870609566 23.8068594911037 0
19.7188295553351 16.053780807011 -3.51785792773524 0
-60.9305319439879 -5.46797937216287 -6.6814513269194 0
206.722262218612 32.4286081791513 1.89395033984032 0
198.977884239805 -3.82238651183317 7.42784040500387 0
164.95125279882 15.0820872395855 -23.0829470090618 0
137.974260433788 20.2346986668194 -3.11520013422753 0
204.92926646932 7.41879757961413 26.5310242821661 0
204.054683925399 -13.362735858267 13.5302860351893 0
152.893387428075 -10.4659778160049 -17.7266661550999 0
21.6092537812547 8.15595601756683 3.80472725458052 0
189.187300905141 27.7654711635299 34.1156204207946 0
168.175480269756 -27.0818918226213 -3.97883984271484 0
197.847825123412 -44.3256246170758 13.0656385317175 0
161.69900091436 -4.38002191022032 8.82665914997799 0
-92.4800626668393 6.24051598761851 8.31559025022868 1
150.018441182092 21.2507217830041 -5.74848029389067 0
93.6080260195181 7.83940563527288 -21.2215956096731 0
36.5145183533856 11.836385373308 -21.1608957638633 0
-12.8117967262306 10.5361254786786 -22.9824187652502 0
163.090649000013 -10.45928290352 -18.5267914760493 0
179.721181281264 -25.0815716848847 -16.6095182643676 0
212.642123214571 26.4575903755717 -5.3240746561079 0
-73.904803233474 -0.697097472571194 -15.1620410822956 0
195.662090414612 -42.7391112801012 24.4105022012164 0
176.446471396538 18.7644356167758 19.9289456029855 0
181.236024538229 29.6959412997895 -4.12344038161979 0
111.247962178653 5.61196008764209 -20.8857337464326 0
-74.8808935987794 13.7919407823154 -18.9991789822073 0
51.6471408366342 -3.08694993300313 1.78046406195647 0
204.074852390306 30.2807054508321 -6.17297398931369 0
193.381503178533 -40.216678461013 -0.758547533561709 0
168.434790156903 20.7387939553313 -19.296093939508 0
44.9230026821476 16.3768305169462 -3.44999311432953 0
82.0823162223882 -11.1915772313393 -8.35172613182038 0
41.9142948718993 -0.0838187780660339 5.58805149306378 0
203.530725964136 35.0941243884097 17.1293778543855 0
177.988202336345 -39.0955391858511 16.9122600369046 0
183.587512653566 -3.5528859504463 -20.3847748936132 0
179.856638308994 20.2736639426969 27.3610173708159 0
59.0966847441195 -6.91954814065869 -17.4217459176202 0
147.254303464227 1.52106326358984 -20.0770249825912 0
209.312198607473 35.48344434682 11.9543305156528 0
184.794989515559 -14.7681795767052 18.8266964360605 0
200.978167284213 -24.7902473019205 -19.8028727723605 0
185.698645801561 -46.1568554667242 18.5515974575604 0
190.432892008745 37.2625525657859 8.35450605745964 0
82.5643421793794 6.65489673019152 -21.0061963245009 0
173.332760109018 -32.8685899396416 2.58601274688571 0
165.356510197925 -6.79936859401792 -19.0882710109551 0
213.441415296052 -28.0121620698976 -11.7519150843944 0
125.434355927799 -11.8428368148903 -15.4303484782556 0
-49.6501555348046 14.5616750138392 3.58156005171609 0
118.311060776804 -13.8102053926987 -13.0970502554363 0
191.427484946777 15.7402747343517 -30.7033867889622 0
189.04243378975 0.121416143266916 17.2350002280172 0
17.1260275526325 9.60155690854673 -22.4722951362599 0
42.3609799787969 -2.19043084499896 2.47952901266165 0
-85.5091575766855 10.1890180785003 -18.8433184222753 0
170.766494713947 2.59288400440934 -21.4832479573453 0
203.177028680868 35.7900979951609 26.4197595359092 0
114.495658543184 13.7273221344081 -18.0872377046939 0
-43.863013587504 15.0831126654935 2.27813993135378 0
-92.0014058984411 2.90549073236288 -16.8857638790953 1
196.078996279116 -14.3815416476142 -25.9808941585698 0
-9.57704212860677 17.3173858053035 -4.29880197151908 0
38.0848051654547 -7.92552568796726 -14.3637438756853 0
153.076211080558 20.1365695077222 6.33934648187391 0
203.069604766927 -14.7738559384709 15.9656180305115 0
201.28212709769 -13.5160339298926 29.6189319215432 0
3.4682667449482 19.6715559105247 -11.8509580218522 0
206.032491191169 26.56397355232 -19.4310541186447 0
197.318981645406 27.6083159060246 -19.2518978985641 0
189.384228332455 14.0206723759026 -30.0175585383589 0
204.153141190972 -3.31404731647717 5.5035747558965 0
203.410772757377 -25.0321067453547 -18.1508867663798 0
26.0872870650198 -6.81870653125237 -15.6160497261539 0
197.536167832618 0.617622326776555 12.935835561954 0
159.845880685585 -23.0906320760246 3.5357452322871 0
142.406482525267 -0.349611739022921 7.57653224281795 0
156.169782563911 -4.74795603231351 8.07966024377844 0
197.469403247257 10.2082348519081 -26.4286783653828 0
171.634506387039 25.3207010662554 -9.29430469984238 0
204.557405021084 -0.767038666829368 4.61839695338373 0
-76.0072176953437 2.73909524162453 4.91667832567886 0
185.978369226857 -2.84525677860008 -22.8765317128696 0
179.53255182431 -30.015478777344 -10.6141986330865 0
198.431575693634 8.43456188718548 24.6893100784504 0
118.904828496286 14.2480720213149 -17.8010657043909 0
206.515934657002 -29.5345994887185 37.1077819509281 0
60.9807624257661 -2.30080405352254 -19.9161971633152 0
-44.7106224593207 10.4645381612251 7.10902541082567 0
48.2169491675699 7.49030061293013 4.85311812756043 0
185.066709950538 17.7765283458708 32.2363835041948 0
128.586194641183 13.2091034146824 7.97953890299094 0
-26.9395590863708 -2.32107412212237 -2.50194571940465 0
7.5347354846208 -0.690081677097959 0.752437634161125 0
55.0111463888431 14.0432530471854 -18.7068148780147 0
189.192861047003 -24.6641795944602 -20.0660122949253 0
174.171688879137 -34.4679318285679 9.13448734520695 0
140.113271332562 1.43262278441242 7.73942571862026 0
220.100777993647 -28.583916713077 17.0603430016509 0
21.4083150542625 14.9091087521834 -1.71957609111061 0
168.756558460078 24.4338836952636 -8.41923527619251 0
-76.9423676678501 17.9229461927192 -15.963113934956 0
156.774865672041 -3.96886910165893 -19.1282654259164 0
130.349587883873 -0.756341457399287 -19.447496457089 0
178.828064692319 -2.21549255320492 13.9320866986903 0
85.0141800133539 -3.6843708212685 2.96505501084459 0
166.373616273457 16.6391002910546 -22.7722638627291 0
-79.7560266759111 -0.69615150432837 2.15873351950428 0
25.498546138613 -3.14442602961422 -1.01228301387403 0
152.206142802553 -4.27224056506264 -19.0675145177466 0
72.422539679828 -9.55760128808439 -14.2819270711836 0
161.337840262364 -24.8895512761347 -1.99904740738415 0
191.667934739146 -45.6551732862959 13.7734666281345 0
87.6273613911016 11.1542811644002 5.59225687728186 0
151.329659892146 -17.1605524986707 -13.694035765562 0
198.177503780075 -29.4189143136356 -13.979334014965 0
178.748518962985 15.5270993983282 -29.2587799301253 0
15.7869901871844 -6.80789254602415 -12.7471697369549 0
67.9838060949778 17.2520213077955 -13.0728789656599 0
33.1852789499832 15.9815324401612 -3.12604371328579 0
168.363873845181 -23.0608547833317 -11.1140626119281 0
193.07950081366 -8.46651822173662 -23.3519821682678 0
-51.2793732429489 19.9270053148911 -3.67044656402978 0
6.17300230807965 18.4072641711472 -7.88436454959662 0
110.890386829896 17.0846746436146 -13.9133775205526 0
171.197869438223 24.292607511756 -13.8770278219155 0
214.318988362831 -24.1631518320198 30.1964463891104 0
178.364078743388 29.6699312769079 1.54673613091743 0
205.062737209071 6.01544374544544 8.97528875025999 0
-73.869730402856 11.4057822900719 -19.8398578011025 0
213.675968125307 -39.8939300479146 15.7525113523899 0
-55.1463753179909 20.8310865134175 -5.28510252028021 0
185.772274731186 -40.7188813567455 26.0765625279082 0
180.172163863178 21.3886881420228 -26.0630571188046 0
167.591176274748 -6.75812946622166 10.4579760811634 0
146.618460541623 20.8762921570154 -1.68065845031876 0
174.187495089641 5.83471202847106 -24.0490094352572 0
215.318693863842 -14.5941910983443 -7.50005920746124 0
161.870333553126 13.7330017429955 12.4954831341105 0
-76.5412767559825 22.1403424573474 -6.41520394045815 0
98.3580236136108 18.3330393534776 -1.30152629142606 0
199.375100675402 -11.7030058777431 12.4808034022502 0
106.954943654488 18.3339375630449 -10.4351878450562 0
155.307731429336 21.8628386711414 0.955008839259243 0
51.9509796991368 5.79762688697128 -21.5513806082545 0
206.431049593496 -22.4679537740518 -20.5689244869106 0
176.183357791025 -38.0374007386112 8.0240195993938 0
35.6345566448402 -6.75711297234623 -6.4992203111925 0
161.173502891889 -19.0120112888967 -13.1008246145143 0
-41.81336799558 16.5581859651013 -19.932986866927 0
-11.9024549232572 9.76492697899443 4.01088579398709 0
-78.7250989503037 2.71886575083605 -18.6546448288649 0
56.5266018321212 6.9643665005962 -21.4475597813443 0
214.622237593252 34.3674439488783 18.8638954866039 0
140.937050650455 -4.32833563488649 -18.7456166205417 0
113.624282341793 7.02679459940079 -20.8981608584578 0
193.843263639721 3.68738237723506 -23.8477525372813 0
-45.0160978464408 12.8025304740845 -21.7969133180287 0
188.566355274277 9.54590220201436 -27.9323035864816 0
-17.0712806409459 -5.84284475497027 -10.9964173661189 0
215.024273041849 27.4239677226841 20.2777668294467 0
156.486573614074 21.8600356185107 3.12389528698862 0
89.0581919501791 15.0967710292866 3.1564932010699 0
204.753472568882 34.2678346439789 4.77621986078123 0
123.727809796094 8.5045408842154 8.60327818330856 0
207.250217699954 35.4668374123742 10.7050574951996 0
201.25477001083 -3.44754901492839 5.82517968227289 0
163.880367752501 22.6988004209217 -10.7757684508615 0
193.022397698838 -41.3290616936857 35.7041458371854 0
28.1381067546302 -3.89288270766407 -1.77665741306238 0
-17.3015496676538 6.56427493056433 6.29614956519847 0
54.8459464755458 -5.74475227821439 -18.3795836479778 0
210.95990514483 -25.601764551063 -16.358650748068 0
152.41833423551 10.7601844866164 10.3755546930062 0
-32.8291137013309 9.97658689459041 5.55884773142101 0
204.241524093556 28.7328864655263 -12.4994965118143 0
-16.4591919955631 14.424975440269 0.0527945895933915 0
-82.4401033495066 22.1778248145807 -7.75244599030818 0
93.4286336769161 -0.481798256722573 5.38508115178598 0
171.159665171022 -25.9932990746237 -9.38221457800772 0
129.668869573536 -13.7359976105992 1.15071856324655 0
206.786188733918 1.97255998671587 -13.6017160345721 0
184.295721495217 -20.3144819958291 29.0085972523146 0
192.821853842516 35.3254729280298 1.1760752233809 0
-89.2929356940162 -4.10668683067412 -0.765695292375946 1
104.544371877199 16.6002058014972 -14.5217004856591 0
206.056420120682 6.88449884636047 24.6809291083148 0
126.91400233463 -13.2412401074719 1.04683082882401 0
2.2042659241028 16.5283498699115 -3.95798429411013 0
183.196561358953 -41.596704718803 22.113081424329 0
209.3611739673 -41.4314978886175 21.2704843348173 0
-80.8338920638094 13.3521058670363 8.53907960423019 0
-39.6694060076142 -5.59982340612675 -9.37454067101787 0
-85.6058002938373 -2.22804461788028 1.13895214184565 0
160.195013387422 -24.2252133074535 -3.81829651600584 0
195.529841183608 37.4550526399793 7.7009529869366 0
207.226913361206 -31.4523266946031 -8.73056345683576 0
198.767757184433 -35.644604695505 -5.01429196381793 0
-56.2999425107388 0.263540080826973 -19.2831331379469 0
187.655605680709 -16.9648506403816 23.9477086394516 0
214.602320055776 17.9964137402667 8.86177476004818 0
200.81260780213 -43.8178365631108 10.8671174570831 0
-13.7603285930046 8.2158856910934 5.58435322980366 0
208.216551557491 7.55088964553056 -14.835122483395 0
186.904643932779 -44.8250975840294 21.9498667803498 0
117.69439902855 12.9056248678192 7.21639629325708 0
202.182231742172 -42.4136212148429 25.9153835832115 0
157.632122271555 -9.8354282335524 8.06138356938393 0
220.22039925597 -32.9846916424702 15.8882658081965 0
108.647877373885 -1.83277649202383 -19.1445375459541 0
198.551853020504 14.9274323538088 -28.3623887562566 0
32.9644350959932 -3.14025641839157 -20.5382992101842 0
195.601065109851 -16.2699678127433 -26.1961694253701 0
185.129326523248 -4.84805376858739 -20.332082915663 0
115.14044882134 -12.3872093717343 -0.0167917589486873 0
179.695392221228 -26.4780647102248 22.5196749467515 0
197.293115740444 14.3330692983589 34.234057730139 0
154.797913325101 18.6241964728696 -16.7834211279581 0
93.0037850252265 0.0043867706329274 -19.9890938255371 0
189.338885470783 -12.5346519054043 19.0430365947073 0
175.182705327865 28.3861392925038 3.39920717409546 0
189.582896349396 -3.35486405696052 16.1941255394668 0
170.35516432812 -22.4427948413785 -13.1333744598371 0
212.444091559133 -7.94464234420481 -7.86576249798746 0
190.909187513455 6.15137464966555 23.8151348208463 0
17.4452100587482 -0.197662388977314 1.35451627792993 0
192.729674130159 -33.3589208378269 -10.060355809157 0
29.11273932342 10.8756523710996 -21.7960104609059 0
-47.9735033615222 -1.50326251381208 -18.1234700585635 0
139.993887907527 -18.116848810703 -0.812953073155442 0
28.155448299058 14.821802681593 -1.44162011211058 0
-51.4223597241357 16.6995000282072 1.64939872576438 0
20.3913588253197 15.3100655345183 -20.1069342715043 0
-43.5863695436625 -5.33912810398937 -7.63838618906516 0
-21.6275050760875 11.6509352470563 -22.7687514463009 0
183.644321931243 29.8256924488617 -9.1732771024636 0
217.404216222154 -29.5851645018826 25.6975993802928 0
30.0985526232663 -3.56218223180439 -20.304085399219 0
202.718165491867 -20.6023427023182 -23.8279513098365 0
173.157638800398 -28.5105281957559 12.8082173865464 0
172.942663743028 -32.7006966049411 7.34181501241262 0
198.004912658564 33.0858370406484 -1.68454788723991 0
58.6247344668284 11.4824220428627 3.14468758306217 0
164.710982302419 22.5501621719772 -12.5711465323527 0
195.888743346244 7.52016380444753 -25.5657743780948 0
171.67764146656 28.3113425346936 10.3021547112108 0
-83.701930509901 16.0972803796863 7.18577056302566 0
73.1395141094135 -10.2466521060212 -10.948811553994 0
-88.2644163699937 2.2406055332764 5.68185029613704 1
-81.9041157285586 -2.40185814710055 0.522755134318478 0
79.3351229829735 12.1928918823837 -19.2849090853879 0
164.571495908594 -9.3740140633319 10.180585629421 0
200.936047506179 34.3418727211359 25.0205116576698 0
195.46441908738 -45.7360749644482 6.27786573591903 0
165.073020874137 12.3711528450762 12.5586804028787 0
172.551169599988 -23.3237156160806 13.7943082078704 0
188.783462352697 6.79585877289248 26.603140937045 0
65.233687732922 15.9892939164563 -0.919715365333041 0
193.432155423339 24.3866529176537 -27.1938855634125 0
188.44471997648 0.123470018035481 -23.3426062857877 0
194.787260768677 34.713780335746 22.012493977122 0
60.0459251256169 -8.93792770933694 -7.56502074444528 0
134.66365149634 15.0492634875085 7.68986848054216 0
-85.7297497207372 4.47764841532219 7.17351636719688 0
24.2054988689865 8.64961701958508 3.51926466359342 0
-71.1682540296451 21.6345644851971 -4.29985584151444 0
-44.0503159532983 13.5694044467868 3.73280272528816 0
167.659284079658 23.8787131370401 12.6035771745778 0
-82.1160087479518 -4.52758327262741 -9.42119829436814 0
141.800051120573 -7.51181102346605 -17.9463021814898 0
82.7904953032349 15.5709837312879 -16.0927787091437 0
68.8345882124298 0.73841324759375 5.29096316300679 0
190.695083916742 3.15617940985723 19.7743910517874 0
87.9074887283666 17.1895232834433 -12.7639296245327 0
-10.0250133147346 20.1611925882066 -12.5864551917169 0
190.040359789741 -44.4243828323835 21.9199241205607 0
132.683372686981 -9.17968522306069 4.33169818881651 0
203.56076838213 12.1940922652453 -23.7828140644236 0
149.908823305229 -6.13973006339109 7.26704305512336 0
-3.35245281750582 17.3860093220229 -19.7113006952824 0
160.93494983112 14.1170732936619 -22.3000338001709 0
191.15552830532 -16.6523568941843 24.5900294911032 0
134.533660239471 -2.87519442619075 6.58793420781312 0
144.190704052621 16.9558934572686 -17.250966510116 0
179.646612711913 -4.22615515671342 -20.1492643870438 0
212.089957469305 12.1009234461911 18.3922776298425 0
181.935397242848 -3.56867800677241 -20.2571700124327 0
-34.0038629417201 -1.24231883543433 -20.4753501359281 0
207.707380117125 37.0204414744573 25.8612670045137 0
192.248222793848 -29.6497805373222 -14.4134627135204 0
-20.3804660806455 -5.79160849796477 -12.9429846685093 0
189.127715810407 -7.61496501798383 -23.6470883001069 0
158.189114944228 22.1331206699238 -6.03100683643386 0
-68.2145178189977 21.7596756008717 -6.47767915555167 0
-9.92014988602744 -6.10605515294609 -11.0244638111878 0
157.394397835065 -9.5115381237716 -18.2721378814167 0
-9.19242629112853 16.4033926135795 -20.7596022172536 0
103.440604816325 -12.1463327806876 -2.24221068861888 0
46.2860683187621 -3.0523092499848 -20.1120486225008 0
200.569748861693 8.30038064709168 22.3802351344596 0
217.192304306291 -14.6972426188549 -1.45444015962553 0
176.03487755216 -36.9582675949706 6.49578313158276 0
201.701802652937 8.54262829963753 27.8371010619274 0
-54.1248575913427 17.1223363913695 1.59619335629268 0
180.173315869182 -15.6035484314026 -21.5091438098265 0
193.374073965766 -2.72867645455876 15.0125853367897 0
178.80086536194 0.0490752582932232 14.3150533326265 0
158.293099090359 -16.6134277314771 8.14727533426029 0
215.925640808611 -37.2617722424311 26.9161825992369 0
218.309855220486 -33.474009246794 23.1883573115339 0
210.11983411345 -2.0343912887469 -6.97875567791829 0
213.054465312096 -15.8638179694549 24.1812028215389 0
45.8704387212346 -6.50874016430214 -4.18597570865043 0
164.667235513969 23.9563372733407 3.92654622206477 0
159.990109754057 8.07892945736124 10.6863256660727 0
99.4233188575369 -5.22825780215893 -18.1876756973577 0
101.308854945918 -6.44888651253411 2.51442393484411 0
155.203616686441 -14.08592003189 7.31883878839019 0
187.651658686779 -45.7706640922677 6.31594166528787 0
208.92252263306 -1.42166629292956 2.77271356933073 0
188.546392111399 4.99602898735939 22.3760886602414 0
211.574111108188 -38.7324907693641 32.053036175103 0
175.838471498598 -5.13516875730026 -20.038883749267 0
157.901310828972 -18.5349779761317 7.49343435422331 0
191.610574637751 -27.222417074989 -17.4542878923663 0
211.715976998879 35.1601665980816 24.3198158676783 0
197.639752267952 25.6537603786687 35.7235342475784 0
53.5148898402597 1.75960293074471 -21.1287372248559 0
1.32797886804574 -5.98908973417221 -9.78337459913439 0
198.826553788848 35.3649127770009 30.1406018405751 0
113.126133352791 16.4462918909409 -15.0460356270763 0
123.718927275904 -6.70961996255471 4.37227708078309 0
12.4147065141116 -5.46264073705628 -6.35481811541262 0
166.353497798488 -26.0292872156485 6.53649347596067 0
-59.290381904765 18.7740840700409 0.232654470079261 0
193.537130304157 12.3404955826181 -28.9640838334967 0
179.177982702061 19.6717493411434 -27.5405824198183 0
-86.613113660875 1.05915821925342 4.52006534992578 0
83.315776391497 -11.4793964838701 -10.8058741443448 0
205.224980286536 0.739515400080679 -15.0331278649152 0
-71.0432947995206 11.807114272907 8.9315647079738 0
115.239588722002 -0.42814483473431 -19.5307021335707 0
-45.1845240266355 1.01969976425296 -21.2428823920923 0
154.88268428929 21.8520594043215 -1.73836410095279 0
-85.5969492196976 -4.92160325389767 -2.23251050881007 0
147.00312785529 -5.55245721560633 7.08305336878554 0
190.166634259203 -30.0050133391651 -13.9736829628592 0
179.737650066758 24.8462566516198 -19.9095758725294 0
63.7605664705008 17.7775203550142 -7.11614048778197 0
173.374403339683 23.7336263175352 -17.4504108733695 0
107.164971591368 5.15172850007988 7.2519440833534 0
159.853681124698 22.1801786023639 -8.76480281441262 0
95.0786967861329 12.2121593540956 -19.2485398252961 0
192.271992059555 38.7835351261295 14.192897085493 0
163.8942236828 -3.78331754888746 9.14571049932325 0
205.60132774327 6.31617113917499 10.3779873810733 0
49.8137374644613 -4.10410107275826 -0.239177997479957 0
66.8076082227189 -4.59185738254263 -18.9793888906359 0
195.660907307278 -38.9085323752184 -2.3186970042965 0
187.189806225306 5.85673987404817 23.5930106279786 0
170.754923493335 -7.88155034811319 11.9072614332993 0
145.275684476598 20.7981699166381 -4.36160670032656 0
180.958765771901 2.42916399060198 -22.8368530592968 0
135.549264145522 20.0613350572773 -5.60020469748494 0
-70.373335494786 -2.31601525865457 -13.2646389112788 0
202.181385139638 -26.3566463288292 -17.5806213551232 0
43.7549870647193 1.43149612313635 5.82783740586402 0
-64.4056875958237 21.7009390173231 -8.30951543917685 0
190.413002983731 -15.4805998159145 29.5068020419765 0
-32.5601987702063 3.13046755116816 4.44672848991008 0
-81.1076451973571 22.3223478066757 -4.68306180980463 0
216.020976125052 -32.4116555878185 -3.63437434989194 0
116.098353546506 9.34883978426323 -20.3372441442135 0
-5.28453475660612 9.21349888674391 4.15626078597447 0
57.9296622555719 -2.64291142080431 2.86111051301507 0
180.257249413894 14.1101302316262 26.5814635796849 0
34.4685329200026 -7.65578072132984 -14.7240697432706 0
213.09710485526 32.5090133178829 4.39668108453703 0
205.728410850254 -15.5780412062902 -22.8331312237646 0
161.301347574764 -10.9347463917765 9.16406911826592 0
-63.0992615711868 0.968466566093158 2.24080706069974 0
209.24393506379 -37.8001767279849 5.24056866377147 0
182.427216421041 -40.2298649361699 -0.541374139582151 0
184.196445130132 -34.2417530107438 27.5384235366772 0
205.824278127208 -4.07939449323335 5.72586902139769 0
175.215173200187 -18.8541840792843 -18.9599648439356 0
-11.293704241568 16.8572720629129 -20.607603081712 0
158.002409058506 -22.2286110628798 3.21768351684843 0
171.637036167206 27.2953550432084 5.64640431966861 0
212.050405599535 7.59377669421283 -2.94859152582976 0
175.811638551112 16.8900869757243 18.8778148152678 0
-30.3365698086046 -2.83602639547637 -3.37731076533589 0
-58.4122074976587 7.55759948987279 -21.7718821269309 0
212.763734252901 25.2246047935999 25.2111529429519 0
133.709442903474 18.593526745933 -12.850123521271 0
199.663673610781 26.4603143468371 -24.2351429471193 0
48.999540396653 -6.03747856079722 -2.98095542881763 0
86.1465120465152 15.7956928026206 1.98730064447906 0
199.333581272248 12.5632921084535 -26.9574825999853 0
150.747792263884 1.86209890775681 8.50522426655905 0
184.79569910666 35.3247065089281 16.17272859581 0
-13.3345468727636 17.6775237626167 -4.72158036618895 0
184.22312618671 -40.2724459519108 -1.04840785349069 0
30.0805967627519 14.7100711588481 -1.20152834653759 0
-14.9937454841044 19.6605318258501 -16.6504324197219 0
155.942037774731 -0.595852812778416 8.45146055648594 0
169.823832848233 -15.0235759418827 -18.6323681190566 0
146.450404182429 -7.42055358127759 -18.2570111495259 0
123.745741412121 8.65600879584864 -20.5039745309101 0
151.214315723754 21.1707912261378 -7.39364950412901 0
154.103069600027 -10.5236634509144 7.45954966857496 0
0.414425706266132 -3.55331082921984 -3.83271110130295 0
-0.672020144313185 7.07941237092517 6.11665839213611 0
192.188560311918 32.9443698512135 25.2440866453413 0
179.43529745028 -39.008935265969 18.8539427597177 0
109.05131870034 13.0296680317215 -18.4198294724689 0
193.900029782314 -27.6297116576012 38.1991020587671 0
169.885297958471 2.37556433308403 11.587628163578 0
207.430174729721 24.5982153581218 31.3399764441456 0
-70.413876769072 14.5786013236161 -19.0557849048164 0
89.5165918557911 5.04494222496306 -21.007145213515 0
12.5211219075417 1.46053118510287 -22.5632594442813 0
-18.1110227427564 -0.134260671080063 -22.208283350124 0
175.522910890333 18.7220087333675 -26.7039335836256 0
79.8634118110676 -3.16066100866669 3.08014682448711 0
198.546030351166 8.94538003669247 29.8686921309944 0
-29.0874824364015 14.5158362057766 1.16914013383812 0
60.8807691048342 16.903687785616 -14.0745031498832 0
189.999304102374 -27.5460921318394 36.4795140735266 0
181.52858985392 -8.40726332797333 14.5926945771883 0
179.375888066598 -6.64493473199651 13.3551991627275 0
86.9609620854633 -2.29437707038321 4.15232118597934 0
163.562731309002 -11.4538410604945 10.1140150895964 0
69.6785040739824 -5.43744231305281 -18.5766977180635 0
146.567397099495 -13.7426264520998 -15.7805258549426 0
199.263587236338 19.3400983189629 35.3540242179927 0
175.268110711068 -17.361443037764 14.5693997197581 0
195.042666438167 -22.884123319845 37.5366011451925 0
-25.1220943452868 17.977262711026 -4.1749815510866 0
0.875471440344205 17.3884485232135 -19.5053981098674 0
218.217368697682 -16.6758865146826 0.20654589573665 0
207.445376643015 2.89073922081863 5.05468449024112 0
184.987026762632 -8.0908592295527 -21.0162577903796 0
-35.4788503747411 1.99938418053103 -22.340631945618 0
211.695754208153 6.03097063555924 -0.980415822089202 0
66.8796361998675 -4.11411755743672 1.25729322486754 0
119.76705603521 -9.17724853886782 2.8361712335224 0
174.02664460035 29.368543641465 8.78188755547161 0
180.420150030067 -2.33515052732693 14.8709209669974 0
108.614581657188 -10.8590522220043 -15.4279737911623 0
174.745381395665 14.3562349341486 -28.2773840217663 0
192.472427740654 13.5905784819403 33.7165192182961 0
137.903505039529 20.1375316036191 -6.47106496070586 0
167.533407323354 -1.42310345835135 -18.9225858572266 0
143.920254916187 20.2799506019064 -9.09881079851918 0
-27.1366431155486 -2.27473909373549 -20.098591620002 0
156.214519822907 -21.4546976558542 3.08120326947134 0
187.378850750345 -11.6651332434763 -21.8520168962158 0
168.655410547652 -28.3349940793141 6.4503230072884 0
196.263623287017 28.9202030288767 35.4093849805368 0
85.5232878027252 6.22585415110904 -21.0188471179526 0
190.864839080957 -21.0713088096783 -22.1032417364021 0
190.737534148629 21.8140711564558 35.4168302709012 0
26.0562970305478 -4.2975563577798 -2.67410094774868 0
211.893050509649 24.0166295040767 -12.9374712906021 0
178.323900979227 -40.6840931833748 4.96213645146611 0
-34.7719131213702 7.53813284053941 -22.955924524779 0
211.17096314339 -3.95411909488145 -0.6204049824878 0
166.40516902694 20.4620647806733 -18.5151471580301 0
125.784038944944 9.83329588652461 8.76256496659767 0
157.175057322895 3.71044895247272 9.42467910508897 0
154.663012468134 16.0392071700681 -19.8190276471712 0
78.8642080624144 16.7280160309367 -0.692038330322699 0
92.5613970566097 13.9077875394209 -17.6912330391847 0
203.941565877303 29.795521475985 -9.21480518598478 0
24.9436754990806 -1.68535795472982 0.785495492472618 0
139.740207455361 -6.57699070788249 -18.1176456537606 0
206.897259774368 33.9846336017925 5.80680169966066 0
-26.0334538541483 -5.21920706039325 -8.30488506839519 0
185.495087318043 12.0500674823648 -28.3287277290486 0
141.844004073021 -2.05280063320055 7.30459302142768 0
154.988506915048 -8.73633629987051 -18.3322885308046 0
-78.1061614899567 8.63916998202961 -19.859130978963 0
-66.8447995301741 -4.53557109797488 -4.37499436924455 0
171.672379381184 1.42941083325671 11.9653893058225 0
205.834661347028 22.3371269940998 32.4369559777981 0
169.074342293904 19.5811947261883 -21.2207669413133 0
26.5998344328939 6.33755668995141 -22.4105734205713 0
177.241385261543 -35.6157555794202 -0.28384974322475 0
180.261809696015 23.0690962962834 27.730760311406 0
181.932991972459 29.2833862405324 -9.79430046204279 0
181.77715256459 8.535835920323 21.2034781784057 0
176.259007528288 1.94782684118967 -22.2783733868381 0
-36.1708144635123 20.7346382947771 -13.9255716774643 0
43.6515931461489 -7.54632942665557 -6.97372004321433 0
197.589423186195 -43.7773802384218 18.286795134856 0
179.957530360162 0.96641665954473 15.2779927014663 0
-3.80664855845516 -1.71708193860557 -21.6759404100501 0
166.426878444504 10.8669606571737 -24.507719031482 0
-1.46420675244397 18.0523252075143 -18.9042293420404 0
214.60535801552 29.3984109811207 22.1389927575155 0
97.5009095634345 16.885788363061 -13.8282954348342 0
206.604911429598 5.03425762011729 7.65394754078807 0
196.756132505977 26.2937943878116 -23.9138336759791 0
148.776923001474 -8.29965907040534 -18.1585844446405 0
151.758813121475 -19.7918324123262 2.53264570894867 0
214.298841891522 34.723447525511 10.6798389997741 0
39.8072976773324 3.03361247445912 6.07838158029205 0
198.347047269109 17.1152431290822 -29.1192904081118 0
70.2982958828132 2.4559486552316 5.46227533621098 0
122.34297467096 -9.22307188128465 3.10269855547006 0
205.112266849514 -41.3618167432429 19.0989793007853 0
175.516905144571 -31.173469058318 -5.32576763810836 0
24.4042592276593 -5.39877581687168 -18.4718935892883 0
-35.0111817487937 -2.58315967710174 -18.3480663074577 0
205.049538917579 19.4189370374243 32.8216487552386 0
-58.9051162827174 5.98617999975387 6.47633847268079 0
204.227803034736 29.7728339890547 -7.73247210615372 0
137.374084731071 -16.731045026723 0.300735059311784 0
168.751495392681 -27.0127664943197 8.41381099570268 0
185.64057718919 -38.0390034627043 31.040077050635 0
-11.8971718517523 -5.62649335515428 -9.29396298765332 0
-32.7024575501972 -2.75711260353274 -3.27636162733608 0
-4.77890678902916 4.24219697710822 -23.23295508971 0
195.930893926103 -12.5210922131042 15.4425541759107 0
133.470072353007 -6.89521679738232 5.28012567471941 0
93.1250983674528 -2.31618832162735 -19.2368968599748 0
175.9262699297 -26.0475570090616 -13.1436854577759 0
206.338974259699 -34.0317583629705 -4.170645395252 0
184.446506515754 -24.1092526014683 -19.8057617930141 0
140.922565775753 -18.9864717641812 -2.53236084693255 0
218.106736364934 -30.9047347402049 -3.50660068657742 0
200.985570906464 -42.7836858978519 29.8777175779765 0
179.966460618451 13.3590518500579 24.4159855125869 0
181.890080523946 28.6748319552714 -12.0522301595192 0
-52.6631811173835 4.83583027176475 -21.9617616097551 0
128.65446075472 18.5517358263213 3.37979070488349 0
202.789305989877 35.8397925924581 11.5230919126738 0
215.128937529448 31.0001392572898 5.169881902449 0
176.973529295808 -18.6865782118426 -19.7724633113892 0
179.58378590265 -32.7311125403425 20.4484082104321 0
200.215228530369 10.8550674410179 31.3907838703476 0
48.5543789616088 10.6456319899881 3.07931845730165 0
186.328060683503 25.1661795486698 -23.1807006157255 0
196.966449087807 -20.0737133984063 36.6575748931045 0
-64.0865065221705 -5.40475008867103 -6.33754028636759 0
-54.2947237195347 -3.32739620991121 -14.6386123901455 0
189.645099165676 -44.8948010264293 5.0120689744296 0
139.260994001965 11.2776972735395 9.31838435276383 0
-73.2764690280972 20.6286475143086 -12.5308798087583 0
54.8957514815635 16.0508831238094 -16.1548641922999 0
58.5436669022665 5.78105963948135 5.7269758718685 0
181.466725143628 14.7643409570646 -28.9322536197345 0
-32.0201912175977 7.89902032527837 -23.094368434713 0
195.641722396373 -41.4544454259463 1.22776021669214 0
181.320951891756 29.4708026324094 -6.72400253669041 0
214.30019979473 -11.1990776148102 8.82029583614591 0
180.642931458373 17.4395663090856 28.3024998963073 0
189.953385418733 3.05255084417973 -24.5055242073681 0
189.00427686067 25.889360356894 -22.700617507152 0
210.268173027609 -27.0026787302318 34.8980151088192 0
97.7058297837592 -3.38923657016373 -18.8973275161798 0
-34.8968489072932 -5.42832366847492 -11.5992928831857 0
82.9712007234312 13.6595409665757 3.68280358346301 0
178.071465114131 28.388854706642 -5.31337117837598 0
-42.8443485573077 8.97451415873157 7.49105900591399 0
192.469027749177 31.0454070234853 -9.01024666924251 0
30.3602625159946 0.666559859643335 -21.7955219422202 0
31.0241444262131 18.3396911249044 -13.1370082630995 0
173.698347734993 -25.9968577181645 -11.4412807070082 0
214.554340322828 -24.4493276522505 -13.6100431758796 0
208.688274439881 30.1568883437247 -3.96013879657867 0
89.9737804350111 -1.63835479555877 -19.4829634082524 0
186.415993986342 8.96513613547952 -27.1395529524565 0
144.808488038236 19.7768964208443 -11.7098091736903 0
209.940235746815 2.69277707062628 -8.08265964878662 0
172.302673088129 -31.7222608254355 2.57932381673371 0
185.977518752404 -11.4118099712464 -21.8962902873956 0
86.7784834076326 14.3900541869224 -17.3214795014107 0
182.994183563528 29.9291841131707 26.2285706120412 0
85.0621299765327 -8.82258519616646 -16.2910281003945 0
171.637253859417 -20.9300415694556 -15.3096076039607 0
-22.8746716195961 20.3348870027282 -10.9719281014417 0
212.254372442989 -14.7753291076337 18.2287911344939 0
31.5312052166628 -3.98896580080914 -1.58849303186294 0
79.5341954270613 14.191848240881 2.90320855602272 0
195.052579333425 -44.3550732742502 19.4505765135773 0
-83.247069861624 4.61526392819775 7.06819017260614 0
136.066139680521 -15.0620559542081 1.64707654926762 0
209.467542750135 -19.2835937921431 -20.9083831612822 0
73.5292038830876 4.43692100469634 -20.9494130718298 0
216.226108668496 27.9113452924963 13.7289128378363 0
-84.1103748135784 9.61908975187282 8.96184911519871 0
188.546353148749 31.0059574614133 -6.47383462848831 0
19.0952876301498 -2.95547731949602 -20.881271050059 0
152.928263881156 17.4780992945439 9.79473263857966 0
12.0585778622246 -5.43901107859283 -17.7756580088342 0
28.912489468378 6.44014203064851 -22.3563309348339 0
141.92747962374 6.02519407344753 -20.9793191953983 0
206.070310907214 -9.88638831968405 9.52921597791448 0
-28.0766689916407 6.9779955841831 6.38621966136564 0
18.8367717136601 18.655006500535 -15.3005549456183 0
187.42149536469 -16.327754491165 -23.0469268677923 0
195.056062448047 -30.7821104245381 -12.917058607152 0
160.058747866372 -1.01716138181823 8.79492841045643 0
6.87957112987829 16.6524874433715 -4.36503941856326 0
213.734917355001 -8.38721927331755 1.48097793047816 0
139.627430010076 -12.4984542881005 4.2123882870746 0
137.073965722101 -3.19317682627921 -18.9454276347968 0
9.42262151563692 -2.52100553228576 -21.1980159813134 0
158.438301319486 22.2982336742755 1.53086525980428 0
44.6562863726707 -3.74231091632823 -0.225712398948044 0
182.379487119511 -22.2125880305012 27.7389499170088 0
149.13980605153 -16.4359663907559 -14.041212497705 0
159.357201893174 20.1908846495512 -15.3666147671903 0
-25.5857762393906 11.5319260411099 -22.7789450458299 0
135.764557223208 17.9041566672962 -14.6974366329066 0
168.950699424723 -23.0434708247867 11.4072364511376 0
-38.2941481690536 20.2605104698092 -15.6005599382992 0
37.6552411727903 5.13596104335128 -22.0696844976094 0
-17.6176264714532 15.1252060373516 -21.8070149495957 0
213.055691975076 -34.8191611889425 -0.240067419871296 0
166.639332489137 18.0600229388936 -21.6146325249107 0
174.6408847866 -34.6566365734419 3.75100276995804 0
-58.362885932726 20.2402996855895 -2.94171830158463 0
-51.2997200181629 5.2217725041018 6.0166668866013 0
184.36986869543 -28.7738170983535 32.362349341046 0
159.27920018462 2.20073929375965 -20.5481886114705 0
57.6134829909512 0.424817267888413 -20.6601553975193 0
189.074571977838 -17.3734034417485 -23.1086407992555 0
149.532333151631 -18.4228953663966 3.20673062222602 0
196.236729133861 35.2682641509335 19.6655200024436 0
76.5840533841462 12.5557561855908 3.86173298479492 0
168.831310998528 -1.7757541000277 -18.83466631427 0
211.640782949676 17.3546144841816 -15.3875542532394 0
140.281330974829 20.118352187156 -8.51465622621241 0
14.9530902546799 -5.25146482818011 -18.2071276003901 0
188.13516030158 24.1955440974398 -25.4555911600726 0
205.892194869289 35.3351522568872 17.4818446817844 0
141.622577132024 8.78162278056212 -20.9862276318043 0
207.073813448163 6.55931748365534 22.7387143848409 0
-90.169921898129 8.25833243458886 -18.4285601279953 1
68.3144024754453 -9.62028041178355 -7.43775635454932 0
211.572971895314 -38.2786935110971 8.63525831188343 0
61.834250529546 10.9011913074219 3.70985772052227 0
168.651778813363 -2.88115486971366 -19.6975777761604 0
30.5741598459057 13.0610801727039 0.474821098432558 0
164.700734086303 0.393834772815255 -20.139838433206 0
149.306740802222 17.182559927994 9.09675352183382 0
177.125555662375 -34.5706420887108 -1.73787797721725 0
1.03978622266262 -4.86357866934694 -18.1387593803363 0
211.472275614674 -41.0887928629677 20.856134965908 0
124.218061780295 -14.3126456208525 -0.314832001125041 0
169.750776957314 -11.8983393221665 10.8274859069954 0
111.568912060387 -9.35241202873481 1.84280050682598 0
144.643425103813 -4.48112718284792 7.09344074364199 0
212.788327089706 35.8171738429835 12.7633667749113 0
139.736215707877 5.89746009783421 -20.9315196910273 0
38.3753169166222 4.61920330492313 6.36097716558182 0
-68.7109709542902 7.69969431992002 -20.7972754973218 0
95.345410890544 -12.3037686416432 -12.4822411128661 0
144.268760565789 3.04525171058624 -20.4402595875612 0
-44.9467625939297 21.1718287983973 -13.2040536291689 0
52.6391967565875 -8.83376223569686 -12.6669338248863 0
210.035096111678 -6.67695441881313 5.73444830233288 0
101.014185796682 13.76581149293 5.3950252299038 0
177.986983052501 31.1406079091198 6.07412531149808 0
128.106225747393 10.3619811976383 8.83962654183247 0
211.438890227806 11.2886282719384 -11.5220674882098 0
-79.7108287076231 22.2118059063939 -6.9882741981785 0
170.960765776085 -24.8461586344355 12.3114698773895 0
-47.9258051280418 21.1417421094554 -12.8326336490973 0
198.69896370906 30.3783836315962 -10.554601663827 0
214.187041599144 19.4386681535934 21.7821060093669 0
147.009191093677 -18.5403787866706 1.77224477815071 0
133.112589468286 -13.2436419716511 -15.0137236779009 0
18.1994124227911 -2.77841956563288 -1.29309549045085 0
32.4283577498523 -7.69958263089887 -11.607828887547 0
214.570093327259 14.3377400674789 0.926364286965626 0
91.2054127550102 16.9081258712501 -13.4659047897414 0
211.151275384944 -37.7221674728445 6.6405611964636 0
199.756407313552 -27.9425200921923 38.7241173432008 0
201.756144109899 -14.6917742895139 28.2605153018119 0
-18.057189604028 13.387583582002 1.36427815193969 0
204.037126676596 -35.6477854193143 37.8384066287449 0
-71.7245977752392 19.7847158007032 -14.1102090376784 0
192.301487607752 10.2248365093447 31.625971158608 0
213.740402951851 -31.4827664219203 31.5730452983384 0
91.2392060258468 -11.7475433695774 -12.9999905859415 0
19.6368009301779 8.87407860791015 3.39457431975584 0
-44.2464107576032 -1.15452022441754 -1.1159921676373 0
-34.446629551853 17.791075113854 -2.73862003990865 0
-19.9741610061487 18.9750467185085 -18.5315790595373 0
13.9306120311454 -0.351038408845472 2.06377838621747 0
153.039959739825 -22.2798708274636 -3.73073824690258 0
200.241320977404 -42.0161854916976 35.0257125425855 0
14.5539138437283 -6.27463186534093 -15.748218805167 0
28.6067499796823 18.405447067623 -9.04544662802056 0
-68.3469428335356 3.69968773883173 5.71108829185055 0
176.777787158702 22.4539361086233 20.0738062028407 0
-3.73495876126797 1.51301138547566 3.30290496008961 0
213.327553846023 15.1345113483315 19.6206420605504 0
197.09792754836 35.8754680919202 2.58004503782011 0
142.830520572797 17.8705527245016 6.55463433582493 0
-6.9669285314102 -5.1411608466789 -16.1808948335226 0
-37.0562405235059 2.81863234589784 4.04696994471975 0
119.004170350615 18.1561568222631 -11.9326007560734 0
205.626466066503 20.3950561294479 -23.8234418616319 0
182.952645094234 -30.04974815113 -12.6396851739943 0
-14.1554660486753 -5.33158538578807 -8.56566069554305 0
60.0050492746139 -7.19887722180913 -3.17894263328534 0
1.1380297221403 5.22016802237966 6.44047558673353 0
173.300402617782 -4.96268892885619 -19.9639067792016 0
206.627673839991 35.4348470009637 15.625426675264 0
133.436455060111 -11.4806058397201 -16.0799065373891 0
90.0241246160813 15.8237768087656 -15.4405017160569 0
113.884289332128 18.8989486939224 -0.0817045188978668 0
203.910500451439 -26.41516722044 -16.8046119234378 0
202.393275963024 2.42168993879664 7.91440607424849 0
165.883789329044 -21.0113606359009 -12.3317040061859 0
208.836737173406 18.7347959345598 -20.2332353020778 0
165.936348568514 -10.8600926116187 -18.8220008929395 0
193.802002185834 -45.6248429299465 8.04378388249089 0
-20.3751862941258 1.28505244757419 2.03493583020282 0
163.458211859487 17.3571503272582 -20.8912871173699 0
163.582725222833 -2.70151924879092 -19.474141242352 0
182.294708336366 -6.64024681472637 -20.7306725004683 0
211.428594550364 -23.0547940434625 33.166355498549 0
213.007341718974 -26.054078627065 -14.3754879858662 0
120.061549481648 12.5058986727716 -19.0771219386317 0
180.135742076732 27.4324975054744 24.794272314041 0
-67.2448168181627 11.2708184726438 8.58717851666476 0
202.948549167701 15.9718446687808 -25.8664802776121 0
164.20385092025 -1.67610994485908 9.31987879907212 0
-28.7526019342127 -0.79275624169835 -0.454048459738949 0
159.312391798303 9.57300304408526 -22.6223304096758 0
99.7062279790264 6.54238359785273 7.19291167678744 0
19.3368904786634 -0.474035688373624 1.26973060710906 0
26.6322784357349 -6.14803864835166 -6.44612786247392 0
-32.2920703734388 16.4848939959733 -0.941020368768157 0
173.997931303395 31.3823045200593 11.460482571159 0
208.705966257443 -29.9174737376861 35.935059219852 0
159.126041394336 4.80296184509652 -21.4034504699576 0
178.240685111627 -40.8021551299976 7.19109466989087 0
42.464336915734 13.2212730704675 0.877297559759025 0
-76.4578492335001 20.7617404445141 0.173806260218079 0
182.273860610342 -1.43724719047577 16.1963676966115 0
209.02547776877 -14.242078686288 24.335663565981 0
86.9874222465521 -5.96134136967145 -17.9508153446278 0
210.594048206698 5.38476461301733 -7.63388599996248 0
165.604619065043 24.5162633863653 6.69840831561313 0
152.972877414901 21.1594296265111 -8.7065302820202 0
101.941403863961 -8.66291087038769 -16.694516996905 0
-27.6580394555698 20.3197107903364 -9.67494357484872 0
-67.3836325212637 -5.57447856238444 -8.7615142386329 0
208.959779478572 1.93287408770764 -10.1470570254232 0
118.637935010521 -15.0026574045801 -11.165262971987 0
125.013097758802 -16.1722443378185 -10.0831652658414 0
3.06428712022815 1.1668407510968 -22.7443865454255 0
-60.491351006409 -2.33052904545559 -14.9277253490284 0
12.2141670407259 7.0208624638672 -22.7738962774256 0
186.291154316799 22.4685945901772 -27.4815954377171 0
206.97539244564 -2.43789051022425 -13.0000050715845 0
-87.0692430347575 -3.70307115496808 -0.422940619485313 0
171.256926739513 8.48529369423234 -25.0966630779676 0
215.339252660768 19.676030593385 17.0435543837991 0
210.332856294505 19.1265268113571 -18.1568318424364 0
213.543921643301 20.854545805129 23.36485988346 0
202.288896198732 8.13184690362535 19.9742597935079 0
71.5739438684917 -2.29561964834865 3.87577065548999 0
-53.2324819836682 -2.02406746131354 -2.16010034706978 0
176.629558319041 -37.6315867906252 4.47295449849592 0
17.325798511931 0.0318693409309201 3.52721394836124 0
206.78133209032 -33.2752750822979 36.8644965569151 0
75.2359107897059 17.5986782837454 -4.2128392444094 0
8.3810040396283 -2.52670933198706 -1.70396877271963 0
52.9161200937738 -7.60886914106048 -16.2157275163088 0
177.453389318025 10.4888596992765 -26.7584313506953 0
209.361645913948 18.1135332559906 28.6455760029073 0
110.899293558388 2.44915589567678 6.80885172051855 0
204.160930273609 -11.4197212855029 11.5359367511591 0
205.234157592975 35.5440594314493 9.6592340836526 0
-45.9638706165565 20.2516683382125 -5.73108843885271 0
186.754038165276 -12.8766154631057 -21.7280864849562 0
114.150006306671 1.5855830537477 -20.1241020256408 0
172.84469125267 -32.6033791376666 4.77166546308754 0
202.766707418692 10.2508629674785 30.0722677540382 0
153.515747436653 20.593467362638 -11.8620480395045 0
212.030639573386 9.8713726426915 14.8462858968117 0
-51.5317302247582 8.48366725824503 7.59963097702414 0
-30.8967368595701 20.7118154358433 -13.0798192318041 0
210.251801496604 8.42315468043664 20.6622310595082 0
-79.9567016322519 -3.90623955443131 -10.561971444208 0
207.95238086271 36.826379311821 22.2200877312187 0
213.6587658223 -21.3266022152299 29.5924152544235 0
166.00070730296 -5.14801240567855 9.24436401793326 0
-26.7566158163135 8.6620132323415 -23.1155655598127 0
175.280197366068 -31.9582003177177 14.9954606660328 0
11.5590776617435 -1.27070884729714 0.139593709706203 0
43.324020930505 17.2217057902185 -5.54097337132093 0
157.685264070419 -22.1229058098212 -8.00859139744213 0
166.140885801046 -0.490583802517196 -18.8230037967296 0
-44.4193044947574 20.3034048146656 -15.7898480991984 0
202.680139654223 -0.915945155155756 -16.9715741454526 0
26.138908122521 3.10434118755494 6.07334376695414 0
10.5185268454795 16.8453054394322 -4.72123215877214 0
178.077797727837 -32.5224562668082 -5.88918022804228 0
113.369822263315 5.30028922660461 7.66382024966483 0
186.397840326934 3.39722766749898 19.4491715916744 0
179.88675884696 -23.1238247205344 23.2173016156743 0
-85.1426905172845 22.3124365040464 -7.71629264193204 0
-4.24523939219847 4.86719073276592 6.28385978287396 0
195.212904802772 26.2722850151789 -22.6433032817063 0
194.580079647777 -42.2727650007567 27.1671459043221 0
63.7708802138659 -2.58501088577292 3.15370749765038 0
207.805435640324 -37.2440464577551 3.77749717991955 0
-26.9851668847908 14.2908891413182 1.15833629216671 0
5.41711777740159 6.44798772221139 6.1153329925577 0
15.1471099131421 6.72503078870548 -22.7170340774715 0
145.097928364712 0.551127369765963 7.87262896775062 0
133.937791442779 19.3907789647995 -10.2050797198238 0
207.368875931301 34.8741396697675 7.99933744968584 0
14.116361096425 0.858043143789729 4.52231777926916 0
67.8652308564328 -2.97383420072272 3.06540260308371 0
116.634376767972 14.435455414587 -17.5448641639861 0
193.725932663022 -37.4147145154938 -5.22387111475444 0
202.763260635565 -12.8222433699196 30.6554772066644 0
209.970281102335 -13.7020687834322 11.8576152879245 0
203.720603041258 33.6799086001843 2.4002034117507 0
107.659137853977 -3.74645915131053 -18.5742404722426 0
200.168719878774 -4.49508235747303 6.39462711822667 0
189.673128761127 -16.8695750739682 26.7047935491427 0
100.021707237377 16.8758495775301 -13.8697039173974 0
100.740876011893 -2.73062734166419 4.3599801100607 0
65.3208203564828 11.1065198385215 3.82662130919311 0
192.541400268448 10.8635575649417 -28.2843589150891 0
184.169117395542 22.228750903373 -26.1254754574575 0
219.399981462409 -19.241421130168 2.68663785207117 0
