-206.311625499735 48.2946367367011 -9.1011514416515 0
-19.3142776507425 0.815034859026794 6.40301785180267 0
-117.422658169241 0.830026503012961 -10.4011936455097 0
-107.374371459051 5.8617633545048 -3.48540396230096 0
-223.040883910674 -2.37676104204157 23.1375017042818 0
139.80753325655 -8.03914675566758 -24.2276872252677 1
137.799657061042 10.6889449652987 7.06733291879048 1
-192.578361666956 1.6502004798752 20.1651464803836 0
-205.333089179592 27.7609723483408 5.76838019660877 0
130.228190753599 -5.19413286558269 -24.1064584645791 0
-226.848338799182 16.0264685774423 -26.777192640435 0
-46.2778784744566 -24.0563778277866 -7.94852878750407 0
140.294244098979 -20.3819585627576 9.43676012895691 1
-170.978067858173 -28.6043529703312 8.73716908677592 0
-207.726930493602 -37.3374140372788 0.559675847803588 0
66.7584041814003 -11.1798994941075 -21.1722501205956 0
-211.679314466422 28.8229445529808 11.8030566709695 0
89.9165392754397 10.4233062050947 -0.949317209996595 0
-78.0344070569508 1.28184315743361 -15.1358534622382 0
10.2787373202077 1.93422958099853 -21.394322517626 0
-185.960589868058 17.4760673228628 9.14698214177933 0
-196.492869933474 3.80778123849153 15.7260848880308 0
-124.656152238535 2.68223812014615 -8.43034837226032 0
4.71091053598836 -1.50356509779514 -22.4582348276764 0
90.0320824283509 -20.2502462953877 -10.2728538317246 0
137.057156195863 -3.38555527116879 -24.2334764497803 1
77.1740840134363 9.19884080585237 -0.834576381879635 0
-135.512979744147 6.39218018478321 -3.69704020852759 0
8.82756421957896 7.13372701650292 -4.45705237357861 0
18.4513634075042 -17.9294609600782 -17.5168850174612 0
46.8678006024054 -5.26557993500778 -21.8896129722337 0
-21.446069117011 -7.97866699013663 -22.2452437497616 0
-212.490458660585 -20.2812557172183 -14.8272447001521 0
-202.728153970661 -39.8877191170343 4.70814932415185 0
-83.9693458735482 -8.63588298012754 13.2045052102705 0
71.781507988454 -4.33958752392258 7.27358400366393 0
-207.665599013851 -7.56029329667821 17.9856436074743 0
-85.9956152438851 -21.5150908888449 8.16509012106489 0
-220.314504223338 -6.58300411289632 2.01692277451366 0
-224.185432598553 -0.948717854193893 -10.2531307678743 0
137.961962382988 21.2067457287319 -2.52464324499065 1
109.531036112604 -21.0830320105425 -5.56775377666632 0
9.88678222804351 8.9070587772871 -13.0589104668539 0
-22.3666483936045 -10.8199509169563 -21.0905607523881 0
133.944428707415 8.28464937485721 -21.6464422950355 0
-188.387519760002 -25.5536115261108 23.9989982405881 0
118.590190609216 5.49661360129033 6.68413202255017 0
-193.43239721201 23.6207899385138 -1.17513223040443 0
-149.136604884897 -21.3416769561851 17.9900280871785 0
99.8502038430931 13.9797578500278 -6.30633602570338 0
-231.752400143033 7.06949510601321 -12.1901508297407 0
117.280040771216 -7.71905679561914 -23.5173051002711 0
123.622047413936 -0.013344573720323 -23.6849409211713 0
79.5630326973243 -0.485666699716404 -22.5113339973135 0
108.953135613464 14.3420059976164 -15.8848708786007 0
-145.609859367909 -1.17405645223924 -10.4296170255261 0
138.157678414267 -10.9058985830758 -23.4187128083335 1
112.725794543646 -2.3792590480345 -23.6410062578561 0
-50.7332758084269 -16.7562909751588 -17.2987278885634 0
138.22278440362 -16.4667801276761 -19.8931384961472 1
-155.058533586247 -22.4057784083856 16.9435314508422 0
-42.771517831275 5.73756283473788 -4.01093715796177 0
-221.307771371219 -25.3758623805961 -9.24837259048448 0
73.0803788498913 -19.5265928613182 -3.03901107820329 0
85.9417389316878 -20.2776394925916 -4.5019759890021 0
-221.3385791688 52.0866811513138 3.68894269779233 0
-185.736784764945 14.639542152451 -7.46813057405063 0
50.7289935587078 -16.6462586277309 0.53478164380365 0
59.9159318725402 2.18391987523168 5.61077421485863 0
-195.925884638721 21.0289209024488 6.40942818505591 0
-184.81290299588 6.71209248786885 -11.5907049982556 0
-221.884174816978 -11.8759894395676 0.593286377396836 0
-223.791105726039 35.5086151219303 16.8403036038196 0
-207.388175595053 43.8595113668 -20.3529102606084 0
-40.1639292857202 -6.73338103892251 10.8528754216521 0
-203.523295587553 -37.4529161201829 15.7806570988179 0
87.1360388669463 12.7157158700708 -15.9385569503609 0
-76.6252099625419 -24.083454315907 0.223475281626535 0
-213.999544819563 -19.5491427660063 -14.6013890569031 0
-159.827361781747 -15.2686572522999 21.8252233356938 0
-220.111275655056 25.4986912106896 16.7026766116251 0
-203.872263387248 -35.5662696329361 -2.69697106681831 0
-131.165843086549 5.3252936355981 -4.90576817691431 0
36.5036348601073 -8.71683988539166 7.50903980704992 0
-223.732336353642 9.67730535617364 -21.9974163483585 0
-79.0011601535931 -10.7635643143197 -18.9939790808633 0
-241.189646173887 44.7713800871322 -13.67972983865 0
-10.3061961586512 -8.1244133407317 -22.1323033327014 0
94.5344572700691 13.9584033886371 -9.70502598037416 0
-14.8433177752116 5.44969831041595 -1.98601636482263 0
-9.06674382545558 -0.9337751405352 7.75464678968433 0
133.166812678673 14.5243373098908 -17.9664588300494 0
11.2305675597374 -17.0017995377442 -18.4505202889215 0
-134.424316976055 -7.16655155390271 -11.9997885088778 0
-66.2299663181003 6.28303743284863 -4.51687169214373 0
-195.263889889832 11.3094283274073 12.7316085667628 0
-196.965194557924 25.8785483670481 0.0154865869690964 0
107.005009432184 -6.3738682924408 8.14643724261583 0
59.5369987448859 -20.3184626433273 -11.6942360463142 0
-226.220661395174 4.12493159072331 -13.1773874032348 0
-205.072137818156 -33.3842044914437 -4.69370290271388 0
-139.043246429096 -25.3501051006016 3.26871980817951 0
-190.265041808938 -38.0337976068473 5.20580252902117 0
-26.8586012676495 -7.20403932934105 -22.4879068506835 0
-222.143371128489 19.8519386455659 14.8917800126913 0
-240.710941328282 19.6543474372702 6.09819190997774 0
-172.795451319011 4.0987063276948 -11.3869378576259 0
-211.326556964433 6.18699772876121 -18.6556665920064 0
92.0464220235292 8.27497310979749 -20.6627314875843 0
93.5378907216446 3.51152881152371 5.9310723745178 0
3.73191690488701 4.71440183527171 -19.5118977226062 0
-172.386309132825 -23.6625422786236 -6.33089916847983 0
-223.78086589527 27.4141558462513 17.4451188059408 0
63.0565980948711 -19.054781466443 -2.37764092352387 0
-79.7820310667885 -24.2642868270715 -2.37777813193785 0
-13.6959430819006 7.01668197646836 -7.00806099449345 0
-230.530713376874 6.78774691739393 -8.48127401329846 0
-237.524941561313 32.0922972746659 -26.1810683369798 0
82.2366464430578 1.63780505071754 6.15610453659631 0
22.0343812851562 5.04968074268374 -20.2156689135353 0
-159.145066497867 9.2163573194687 -1.60830839771851 0
135.669578289693 -22.4653157524942 -1.179021226376 0
-108.473338602581 -5.38973798811791 -14.4264270771782 0
-139.195881099096 -4.8843261242606 -11.3946631016947 0
-195.008512399642 -2.70698355046935 24.228475359165 0
84.8376130828663 12.9520004423295 -13.8197042891103 0
10.527493707846 -7.93901664303304 -21.9921571455616 0
15.4179837528682 9.26260056922427 -10.6689156225633 0
-183.234927895298 -8.70547290260591 -11.2403092398639 0
-15.6876902348723 6.40564458454454 -4.90514543892678 0
42.2200238720359 1.90002415600407 -21.8201463362372 0
-94.1145008102503 -15.7193414451574 13.0817542821798 0
-221.030473067318 44.0142755496044 13.0982966211963 0
-114.513465416686 1.81710950814406 -10.1117691819414 0
-245.482910215357 32.3209141385285 2.09326618308601 0
36.3464583340437 -15.9869720129031 1.01312369663418 0
11.7642560080211 2.1143183936243 6.17284846892436 0
-90.2561646278522 1.41566715803461 8.95833583993476 0
-2.33276255857193 1.2123119533823 6.68396527279603 0
-134.086424177007 -24.4635887672018 -1.32010082048946 0
41.9089876514536 0.334420105307946 6.08201261704163 0
-41.5747390384061 -9.34164076004492 10.6702223698532 0
-231.021903001021 7.36810136331239 -5.94366015652033 0
-184.811284184576 -32.2588130673818 -1.79591337695409 0
-42.6059197410133 0.0846673529633952 7.94165907955558 0
76.9469358496074 -18.0389918459016 0.285477771722674 0
-10.4263717226166 -13.953701727626 -19.9165185104733 0
-162.977402897385 -8.08061806746476 22.1739262483484 0
-201.428262956479 -38.6125636232965 14.4992594691192 0
-220.283128815647 -11.3191230775745 8.97971988911029 0
-208.354171871408 -39.5491127896143 6.81227910774607 0
-142.904307340571 -10.7745185472987 18.9791379972607 0
103.736405121349 -4.40953255921436 -23.4110314524399 0
-150.473546651892 6.57630425018755 -4.99361314612997 0
130.036709547161 -9.14964828647972 8.99452608534569 0
-220.754323690656 -10.9627529372048 12.084462401458 0
-2.49159659931608 -20.2929373841587 -3.81283807377944 0
-43.4809834322723 -15.7101710150642 -18.1456512591445 0
-155.496199298624 -3.31913380368181 20.0290177348799 0
-193.978498726204 -26.7872022204006 25.6752626678435 0
93.5772503153625 -0.987900965434568 -22.973213987503 0
-188.951878378105 2.73640379595243 20.7312724262908 0
-223.154022123732 -3.1243285678821 -10.9224670951194 0
-215.667060316004 17.9548243176982 -26.353110644214 0
-202.777653826867 -31.1651817753045 22.9260365804146 0
-196.084734338622 13.7781969716848 -13.0620295748166 0
-201.694986499155 1.30398726659505 16.3519056042572 0
-206.476469754952 14.9572110812664 -18.4713395737562 0
-234.315185366957 25.7381834346641 -28.0099041447395 0
-95.9130496791457 -13.5150240093385 15.2242732254477 0
-218.347658687669 8.10830500551216 10.2045722496881 0
-53.8674446206764 5.33617664893722 -14.4800230620801 0
34.9395133229176 9.70879800263554 -14.2753023150144 0
-232.392458878212 -16.1474963330008 0.678893912007883 0
-94.087700500965 -14.0143999936644 14.2453699745087 0
-196.136613036991 8.95270056606952 13.9658606256526 0
-119.540083369716 -6.86170526900445 -13.5053155260661 0
132.948576693521 -7.15310927268279 -24.0191232735056 0
134.554135880931 19.4512665949832 -11.1395289323791 0
-226.601858361502 53.005054311914 -0.365177344293603 0
-68.5695036241126 5.25427191365313 -2.11958670279331 0
-240.457207867355 21.3556761665702 7.48718777527488 0
-161.751165134054 6.49275162316281 -7.27907623439449 0
-192.059993359938 -25.0016700234213 26.9885891131548 0
80.1403593147587 -3.06721717518631 7.10789009722409 0
-187.890082717399 -17.0098271668915 -10.3512532842206 0
-201.579852768061 -0.82578783298509 17.9058205855271 0
104.662021686922 -17.5121576018278 -17.218224103777 0
138.061624226051 -19.7308451678607 9.25172416065222 1
-226.336835908821 31.1413953680898 17.2094803699986 0
-202.594707545049 -22.3132319630129 -11.008325227785 0
-192.568189923222 -16.9862532967545 29.866594288157 0
-188.841523029246 -17.6731096193308 28.0497040949841 0
-206.328698524784 -35.9365882001273 -1.28692055656259 0
-219.239116956914 37.6833608861532 -30.2573934682015 0
123.110416503638 -21.2907165831809 -7.71964706660659 0
-228.568049976811 5.56158196061943 -12.8875900489483 0
123.070694962426 2.66575803032335 7.42699176026933 0
-241.622099194555 20.3729148518744 -19.4974070298466 0
-179.199746513214 -10.818639932237 -10.7265951286368 0
-100.088823010668 4.07574281978638 5.43050346701448 0
-11.9038226084492 4.71186402543711 -18.8210070190644 0
-54.9642121976301 -3.52945166770545 -20.7967995695899 0
110.461012698748 -9.77362886135043 -22.7850525855978 0
-156.475126538546 12.5237648413742 8.21782282287265 0
24.9466956143822 9.12468104382221 -9.13314818657636 0
-141.645327319793 -25.3818752827277 6.72281073361225 0
-184.848752260083 3.71306915330012 21.513718514661 0
-212.555455309486 15.1321858327227 -23.8466108483912 0
-50.4589974507861 -22.6767390571306 -0.571330388204219 0
-207.293238362593 -33.6804510707152 20.0593855190609 0
-104.019504906898 -21.068220605365 12.0886299699922 0
-106.425051161278 -13.8764816585259 -15.5703729825217 0
140.703476375865 -20.1504763127991 -14.6616786734129 1
-112.327519671991 2.00592972863519 10.1140012121677 0
108.142884314365 14.5456502840296 -3.64182221167298 0
37.2308240944628 3.85237844370611 5.22583202219387 0
-33.3853762507185 -9.8569532544484 9.59487510565524 0
-240.477193948414 12.7379554777433 -7.73394574837079 0
53.526175330636 6.86772123577533 -20.0355350485046 0
11.5103446909133 -5.23920026164288 8.30660957209234 0
-128.051735225296 -25.1154422974002 3.32374742076642 0
-222.890291079281 0.0598618987532924 0.400656269198716 0
-4.33470390920413 7.07705066116822 -17.0810986741391 0
-71.4190853309366 -0.152946631870106 -16.7497303606901 0
-9.89106361154031 6.94155318003869 -16.9209956392741 0
69.80784278865 -5.46949758741497 7.48446836500392 0
-173.624576866605 14.1344298615148 2.41873154562797 0
-170.562552956381 -17.7201936288357 23.0376085160654 0
95.4023671675087 8.86232636378874 2.44323285657977 0
-187.066450397924 -35.7614036025105 3.50022381434436 0
110.306611823417 -0.493080980014699 -23.4808483191654 0
135.271113142849 -19.7801290376303 8.99170895825004 0
-69.5942531375426 -23.1754597230698 1.37476188774995 0
-224.481184870505 19.5300688728387 14.4760642872313 0
3.77137540057715 -21.9974889647908 -8.36644858582076 0
17.9409390094498 1.36322842765684 -21.7675796332746 0
6.09544943136711 5.23437821367934 -0.139672960873601 0
-47.303511633834 -21.6587760715375 0.501319874521839 0
-58.1836858787868 -21.3524657576736 -13.1785644027869 0
21.9397018956072 -2.25499668936952 7.16210718442033 0
-38.5487489849799 -19.8031596709978 -15.7585495008124 0
88.2462847939546 8.86594593358699 1.37421504405541 0
99.1975859009889 7.02651112386814 -21.2130507621192 0
-230.771093000909 22.1045430813882 15.0762432456641 0
-46.561981893994 -21.6833960487786 -13.3018220849362 0
-215.31950869864 -27.9287352575344 25.5988683299478 0
-217.108607327916 -10.0529611632397 7.98364013257902 0
-80.7424492913558 -6.37099166033627 12.0096165588067 0
-213.988475107343 18.2498053328082 -26.8034882888851 0
61.7500127562819 2.23735887876185 -22.105156914892 0
-211.730124791488 -16.0640287900956 -16.5833463499496 0
-150.6334167484 -19.7106988799174 19.4928380396094 0
-233.99015205149 -21.8143907618197 11.719334579364 0
-221.438587695595 -23.0537538657155 26.9782336170254 0
-77.1028830295445 -23.1780294820272 3.29213989966696 0
60.4015837146591 10.4149190141882 -5.73186801800808 0
-208.857409625791 42.5992924276988 7.87089801871783 0
-199.842002854582 -19.8845361953628 -11.5098103154336 0
128.301755605271 -21.6987998470947 -6.75733185287652 0
-113.61962208669 5.86289939143751 -2.56609707522174 0
87.2385306853292 11.0790339930749 -2.98349450351758 0
-153.898186700791 9.23132546367232 18.5447798192377 0
-244.953473410799 30.1584056521295 -17.3358472319282 0
88.4331682151819 -20.4387136707901 -5.47629121817446 0
-138.443876846642 3.74822086640403 -7.31807800036118 0
-119.332947423092 -22.6475545325982 -6.94226452818144 0
-135.32306373431 -9.59719468168921 18.0333942209475 0
-140.798398326327 7.69607163474769 5.88095207693171 0
64.4991250770704 -12.1377412501474 5.61684132035762 0
-99.123102184266 -24.2819805974652 6.12028710847989 0
-184.708851378766 -31.594588890051 14.7898824552334 0
-65.0708008135314 -16.7314183153971 8.37058214310362 0
-222.689866819226 -20.4288980758451 27.2729321462486 0
-205.879040801257 -31.0041478949951 23.3625780947475 0
-86.0105864345845 -6.53208775952444 12.5726065083373 0
-189.183885070023 9.08993724798521 15.8429980250171 0
106.733683498611 2.30054986754024 7.12256558846831 0
-150.451874019639 -25.5678975995507 4.53533238685317 0
-152.950908958168 -9.18888306743616 20.112999886071 0
-236.066646732966 50.0174017884072 -1.27010555356749 0
130.355578513001 10.5925180171722 -20.3758178244232 0
-124.011694726299 4.5693325711836 -6.06944489451281 0
-221.5356323224 -3.96317358445057 0.560830350913461 0
83.4815596844928 -15.9204806274244 3.74525470776716 0
108.533011045513 4.35168082164689 -22.3970551913805 0
-230.001404599518 -5.98673669339045 16.0098659122982 0
-193.761628604633 -26.323467452871 -7.49103760035138 0
95.0993853239093 -12.0776314304271 8.19052763754843 0
-217.731532636415 -5.00656057515245 4.62111520163098 0
-47.0116904338715 -23.0492325099556 -1.99187280620238 0
-140.083149542411 5.96763331710528 -5.09780594814798 0
-227.483894441194 -8.32017645067573 25.6920859636778 0
-175.624369916982 -21.0586853698551 -7.93278362600615 0
80.1128788579649 8.37951715257839 0.976563021129737 0
-96.3174628447551 -7.42639985550578 13.883460884967 0
-237.604615423875 24.4509211522425 11.5487074891997 0
-226.946939830027 -31.2960055215409 9.8575841668896 0
-96.8881323869988 4.59836752958417 3.37694279496335 0
32.0489240841105 -15.6711349754646 -19.2643315720892 0
8.66776025413263 3.76095864195272 3.08625948553019 0
25.4031650724272 2.16765500224729 5.22980693933512 0
-191.359226892279 4.63880323452631 -13.0822124942199 0
3.67607933685059 -19.3360415566499 -2.56446937179492 0
-204.221269468288 30.9567238855659 -18.2616675684328 0
-140.259072546647 6.19730580237764 10.8673218669955 0
-195.649256834821 -3.59027580180991 23.2833989401945 0
-90.3968409188327 -5.95517373538249 12.8068863311518 0
-180.521416909142 -5.0543319181805 -11.6634428202769 0
14.5543812030012 4.20364736462895 2.48970661923808 0
141.37888573412 2.27997731272467 -23.5037654758235 1
-237.63286554988 46.8184550675732 2.80740661834986 0
-68.3952770643389 -2.07764530888495 10.3871585845775 0
-96.3466655940465 -4.17768956272112 -15.4485573909362 0
-37.7574295095907 -23.762527912571 -7.19529484969077 0
-230.299231289288 47.2586034424458 8.54240281931978 0
-74.6306254263 -13.8312023879246 11.1405505460548 0
-90.8613219859725 -8.61894730831938 13.9324952691683 0
-170.433073373372 7.97138075693844 -8.55720158106996 0
-227.000110897097 -6.37748864610391 25.5500229983375 0
-150.942317599876 -4.11573048763503 18.9421909806777 0
-242.740737828273 16.5108402057918 -12.0875670556669 0
-31.8369108204869 -4.46075886923184 -22.5327202100973 0
-246.134265425583 37.1047381907086 -11.0712924602913 0
112.10206145689 -21.0528365761736 -7.13160512047286 0
-201.460827349065 -16.7709762151517 30.8414121676647 0
-25.7631768485573 -5.88077006427683 9.93888556601077 0
-186.848551405728 9.5167962605582 16.4843743570715 0
-238.232716247314 24.7051586877146 -25.1217194774407 0
-41.6271569043469 4.46559015507841 -0.151135911702298 0
-207.399375830467 0.891935927577909 -16.6427093873747 0
-204.533359960598 -4.22053540083822 20.741649088501 0
-205.483492014529 45.8996963779687 -14.7958012763331 0
137.024463708082 -22.5807154215994 4.84226202452352 1
-207.627712719767 34.340207144849 -25.6005940046291 0
24.4322083132816 9.26611608829923 -14.5904169724872 0
-156.273063764296 -21.80906755645 -7.01955517722824 0
-201.774715668556 33.3887080924647 -11.5664198685994 0
-224.681220927152 -3.31761860945442 24.5028334253602 0
-213.388347459841 -14.6587209120312 30.5510115232312 0
-34.0263971625267 -0.439140613720742 8.03487331211151 0
-192.129809791237 -37.7386062300378 -0.91117327014644 0
-113.211004970812 -16.0980066694622 -13.7258115865191 0
91.2979895868022 5.05790466705617 5.21209413926355 0
-225.669573738789 37.7061380059248 16.010411499699 0
60.6772782288175 4.41765873566968 -21.6617141780209 0
-38.9353045975105 3.42495049423174 2.23646387803932 0
-216.765138956143 -31.4342559602088 20.49955376153 0
-163.372246556819 -24.9219393000705 -4.41130736351719 0
-177.186111424287 -16.765037623489 24.7536499069927 0
-213.549978312043 29.63646694657 13.4505944177936 0
-212.61735472663 -7.84120030760703 12.8323823578271 0
-83.5068830976372 -5.74638033008477 -18.4283719394795 0
-202.114317358831 -35.0111931274369 19.4006393423143 0
34.7616902107722 -6.64914677091545 -21.8488595544557 0
47.5423598475075 2.98347076786598 5.83877388877421 0
-61.4592597563392 -6.59849275205907 -20.8209183246095 0
-79.1011468257964 5.61803768767485 -10.7612309412187 0
-197.480801806812 -20.144362196805 29.89472532962 0
-160.918059738713 12.3046181878027 6.11346768020452 0
101.100893761112 1.97804659767113 -22.7257932095236 0
68.8929925810763 -9.58405991101315 7.93036471933674 0
101.918207066812 2.24837686187847 6.97430465829541 0
-40.4386390463946 2.14751607208422 -18.3332480893509 0
-181.038420893631 7.30707035757761 23.0662047778143 0
-178.994290943138 18.3173513001794 13.2963738970694 0
73.9512976140404 -8.25075999701677 7.95499760037951 0
-167.022785103095 -20.7164216756585 20.7490996893271 0
75.3040557263914 -4.48526337645181 -22.4122546054499 0
-223.02722947901 -11.4031020148469 10.2306895634364 0
97.2103051299595 13.6611467045865 -15.4256312639149 0
-43.6631627853494 2.33510800768444 4.00691482235671 0
-193.156372537355 -33.0496445671448 18.02995257425 0
-202.307485175522 4.26725496524757 14.521234512376 0
-198.260799244014 16.6313173856584 9.62806771364681 0
-223.21425238661 53.6364681119328 -2.68630459330246 0
-168.677944542412 12.3919897709334 1.08093253525163 0
-228.749924774801 -11.2970074209023 10.0193261675656 0
-117.579534698075 5.04944055818578 -5.49060980856912 0
-231.89166297451 -11.0789736388368 12.2664353641485 0
-234.160761918367 -22.0278663556396 0.86591740235029 0
13.9477463125036 6.17511729757938 -1.67476279929176 0
-184.396808364898 -22.8308691506717 -7.82727857114358 0
-223.141936864187 3.95333512592407 1.84522202065924 0
-151.993686655157 -10.5355918616325 -10.6941633488637 0
-176.097878332306 -27.8245787319662 14.8292359527182 0
-205.593591182956 -19.0587648628289 29.9506755098318 0
19.2363360296932 5.66934262812313 -19.6793150094323 0
-32.6102716270994 -21.5492129111687 -2.00890111097519 0
-83.0341562277445 -0.440358875942924 10.2475795272116 0
-211.412574916694 -23.1243788114407 -12.890342745814 0
-211.654891957163 -24.0976637287608 28.5272868344878 0
-45.967271786526 -7.38828928620926 -21.6109096540529 0
42.1962803340468 -17.3997114567287 -17.6076395153914 0
-151.692855879536 -16.7943717878548 20.577686249597 0
-134.002467617928 7.31652475162537 5.09307655791481 0
-216.559958345342 -7.89725380397212 28.119906723734 0
47.7044308087087 -15.9041770329243 1.28947040550663 0
26.4852669882949 9.07327946305522 -16.0306064289196 0
17.5492292797611 1.27782690798829 5.93210161239833 0
26.9062288763234 7.47893783332633 -2.82617268113149 0
-234.780873472958 32.7571278912044 14.1196723005586 0
-227.546490628091 33.9552620005556 -30.6937705573919 0
-219.037898763224 -6.88740198646834 19.3230522519448 0
-232.393041937365 45.9883127896016 -20.2974933785108 0
-206.497879668258 -5.45040279310938 18.9196365968595 0
-124.020175824221 -24.9634100759443 -0.223728051911478 0
-136.601955186658 -24.5464798237211 -1.39374452443945 0
-39.0431595309905 -16.9543435333898 3.90478235995714 0
77.9174736892482 2.3586801021389 5.87027522961997 0
-220.266009834071 29.2163815370479 -31.5763812702974 0
-53.2662859674106 3.48502921547168 -16.0090487223137 0
73.7822666810387 1.96663267459497 -22.0507693476698 0
-228.625177785648 46.1839179833525 10.3332074478843 0
92.7721191263351 -18.8853294843098 -14.2946433573859 0
-78.8246618381373 -7.18453924833023 11.9063872133469 0
-32.4054827963547 4.17738373437991 0.715640302384625 0
31.3249655931463 -6.94496386329519 8.00195451141516 0
97.2557178419397 -19.8142113823776 -12.3097409648092 0
114.920965487765 -20.7550528797534 0.159379596415549 0
13.9768754309564 3.28972175111705 4.30539389913965 0
-173.477871938366 15.422374548957 4.23324212327348 0
-19.05512899896 5.69138272926537 -2.96137053404562 0
-12.6739089615254 -21.3538130011479 -15.0521875774478 0
37.0439832178261 -20.7743155459555 -10.6304124861166 0
-154.446748503184 -10.7569463501794 -10.5813519094011 0
-160.637043688196 -7.91631808216809 21.6876377310255 0
95.4349085012621 -14.1180831386058 6.89455440503222 0
61.7249935787341 -16.7426867233688 0.997182883847466 0
140.814859571211 -14.1994256033451 9.75627827591975 1
-148.392408091416 -12.079202022681 19.9410318163154 0
-146.483557530102 8.57879407182493 9.23997335251654 0
-166.167952638972 -14.9185241517699 22.4904342176638 0
-113.279232360343 -4.96973529888502 -13.6451360711589 0
-137.310018543299 6.24489930247694 8.62331920871383 0
105.326747676885 5.20743861169331 -21.9683047529597 0
44.8087229268908 2.23528558261497 5.84680398154781 0
-239.675563615253 14.7315265821474 3.12682645827733 0
-214.129441818457 -9.21947923656701 28.9786715923083 0
-166.613327968742 20.3147509928821 21.8158688054255 0
-190.057377945954 18.1732697653006 -7.15617005254837 0
-206.870452986363 -38.6672203989152 2.81968817307598 0
-4.04555943035348 -14.3635739159758 3.5451931188106 0
-6.60419576522492 -12.130024516423 5.70903486256441 0
117.17171233814 13.6660983870669 -17.5711682159338 0
136.438727459807 -17.5542974557884 -18.481496490787 0
-227.798535036041 47.904978875678 8.95904185335656 0
25.580380388239 5.12817918936577 1.30949679253327 0
-150.870068173992 -21.3985893831992 -7.35070778717427 0
-193.501214606857 -0.14571345312998 22.0803466153765 0
-26.9500245236827 -12.0108521759868 -20.4990909644192 0
-100.98174384709 -24.9811485788409 1.99868425611848 0
-125.405515476995 -0.225554342612589 -10.4677680041964 0
-149.710356875035 -6.30861293126689 19.0497448465669 0
84.4343533079675 4.8068169744519 4.85181562666965 0
-227.721186985959 -27.4256195329009 -1.82900016338845 0
-38.3349917170675 7.52636795120046 -11.495056542513 0
-224.399781979587 1.70306957693045 -13.3211666035997 0
-207.750830620872 34.2824644995391 4.42159183608836 0
108.445792381124 11.4477175648871 1.47727832393038 0
-221.656394519493 1.01187027276941 3.34516187966177 0
-19.5623759662323 -10.246852477436 7.53845943380955 0
-203.788215527558 -30.0309248667315 24.2693609412294 0
-72.0107996988673 -7.49379302785007 12.3871252813076 0
-216.077820592525 -5.38236765614326 6.15726695242142 0
110.850064078128 15.4554758487667 -14.1250312601373 0
-197.658601966038 -26.7629409636755 -8.15286920219335 0
27.1338368941555 -10.2090324344932 6.15992983410659 0
-84.539484333552 -3.35076527888127 11.3236913838244 0
-2.83828160618005 -12.6705702782366 -20.4962193470665 0
-181.615683076496 11.2751875627957 -8.42988775960488 0
86.8215918443082 -18.3214205294378 0.965379664382386 0
120.542331805712 11.5256498566014 4.09369977148564 0
-210.37047538394 -11.9640108889079 19.8271135382245 0
69.8012232175029 8.13164031186925 -20.1050188206213 0
-171.113546609024 7.57924932133308 23.8428771040016 0
-224.943225865218 3.34494176619851 -3.88701113557256 0
-137.072578696145 5.55007152345064 -5.26338278214818 0
-186.904675137197 -2.55047962213191 -13.4137722805267 0
-216.572204699194 46.9951704228667 9.67981698080587 0
68.1954708797339 -20.4151598723085 -9.94655974483929 0
-182.472207115094 -33.109882288049 5.17267438658023 0
-197.982101475883 -30.4563609407365 -6.96418415919643 0
-180.695160120197 -12.5078467878224 -10.703517902927 0
-65.0079847518983 4.52665009949367 -0.862048133975001 0
-168.558896902631 21.0840331214514 11.9924678647995 0
-225.084927980516 6.51017951293214 1.87627284725457 0
96.3966256876011 7.0857921168175 -21.2207730967278 0
-100.8422422862 -18.8356766793104 -12.7694305792364 0
-123.375838386703 1.11408792819298 11.5071652760294 0
-158.339097611908 4.02942779660592 20.6155659326002 0
-150.496248049393 -1.06071794353895 -10.4876131926073 0
-192.942990459451 6.94947990079315 16.0631480587517 0
-210.047073842324 38.9785013892357 -26.0762625355347 0
-243.801674765033 35.3692613862383 4.56197925814783 0
-225.304119087041 -5.04943276155059 26.0180588729899 0
-151.991644690583 0.0621437972211079 18.6267256417285 0
-220.788928611421 -6.84915149530342 -12.4332405887554 0
63.4941481032722 -14.6982392818159 3.22155353329127 0
-28.0074082858127 -22.9629006264785 -5.96166062234434 0
19.8419182910491 -5.93044005914857 8.19107702714553 0
-230.448157121315 50.0308745199361 -15.2332275552146 0
-87.7807110114785 -21.6817732214919 -10.87604028635 0
-217.94450289912 2.99231936863364 9.85729067458006 0
111.556934809589 -14.1256121335849 -20.3473856250386 0
-7.46185131289894 -14.2453324537853 -19.7761443680472 0
-214.192471528512 12.0392760914325 -22.1403775848102 0
-191.790172038806 -9.65255812465681 -13.8368841337452 0
-185.381847364085 5.9994923021869 21.1315943527119 0
-189.423272555181 -37.3912572461346 7.86487969761255 0
-68.568232980191 -22.5621345537485 -10.4996840945208 0
-192.269971293311 -24.5072381454446 -8.25325827230868 0
-217.715874738272 19.292812607181 -28.3116984424356 0
-158.358411295423 5.85164675186631 -7.83652622097882 0
-62.1018981291783 5.75006056853271 -3.45294425613035 0
77.40588199378 -20.4023243227486 -6.63991620933029 0
-95.0126965129314 5.08621194437348 0.850715185116146 0
-214.217277733867 52.8157315017475 -5.41278916353782 0
-24.2337247626804 -21.1467021836626 -2.72714825354095 0
87.4727332072485 -8.12882665518639 -22.2369353012835 0
-5.46434411587236 2.88422262674843 3.65467006128008 0
-20.4887082683458 -13.9974846876236 -19.7427358357731 0
-91.8256848526273 -14.898358774537 -16.1779359903609 0
-23.1715734169976 -14.4626211764932 4.41235934613401 0
103.107850778651 14.4384533824987 -5.82121528901764 0
-40.3364590617369 -13.3849166981288 6.96238883165145 0
-93.9497097474456 -5.50316696538565 12.9973686696277 0
-132.247020219523 -19.2111832216686 -9.92551510235224 0
-141.995777389786 8.24222630229309 0.930251129614035 0
-137.926306564308 -16.0948793366916 19.4282319296277 0
-53.6380049420298 -19.4130196712162 -15.4706537931268 0
-31.0657286757782 -15.4258251304749 -18.8419176485093 0
-211.20067080307 -29.0159571975323 25.3415097482288 0
-14.6042343909706 2.55074745928504 3.9769722057445 0
-205.592297739902 -3.04877327837823 16.6880136955062 0
-24.6995479467595 5.68140065470441 -3.18769712779919 0
64.4005691348918 1.43602519854002 -22.0808578685336 0
-209.208537821514 -1.39300599722214 -17.0822447609461 0
-203.235054751344 -23.4894144523505 28.3459745432262 0
-153.982143790612 -25.5496802551011 9.90540512964149 0
-171.53746575867 -23.6209327385345 19.552077222814 0
-239.465300092475 46.1838826069003 0.982285476713245 0
-240.844204450449 44.41905166739 1.41203732500793 0
8.14155584451717 -21.3063766749781 -12.949610196954 0
132.901571091268 -22.111913954901 -0.0924912347158076 0
-10.6254122051652 -5.16658794616677 9.09598879022311 0
-23.8347877028992 4.16374623050556 0.613236313575959 0
-208.872597607609 -28.8620699932342 -9.20637352766472 0
138.590020179842 -20.2985631257156 -13.8992142353036 1
-71.100596257426 -16.0742504224387 -16.8552318302464 0
-210.651191209873 -18.8393652226099 -16.3456338965912 0
-186.644205013548 -0.435715117148152 -13.5455561864795 0
37.3048123207305 -4.38207187216837 7.27034328904953 0
-202.501996881663 26.6827637094798 4.09789519890096 0
104.92774833733 13.5167902466347 -16.5613763052869 0
-214.148525501657 -15.9604806685232 -15.6089405170267 0
135.597681864929 20.0611654663642 -1.26223706456491 0
-142.110013409472 8.01640125054222 3.98735450262056 0
131.914559623525 -10.8220648463853 9.18333511236823 0
-209.972802860776 -32.806690790965 20.6839102678505 0
119.914491560139 16.8432372405527 -13.23243047131 0
89.3363078101297 13.1098287199399 -14.4658008728449 0
-37.7908620796354 1.35870855628241 -19.2084409965238 0
14.369496493005 1.91877927006683 5.99949052806243 0
-215.247926476645 50.9162490169305 3.61130079019011 0
-242.9770586286 24.2102498189655 5.65805270394269 0
15.5222165930523 -7.23658580631579 -22.1927748566564 0
45.1529172736255 -15.1612897404909 2.02624659251219 0
135.139319565969 -22.2115825639028 1.82299113294409 0
-69.1409729474081 -2.69887534448535 -18.5408995928962 0
-190.181086798239 -29.9551235467085 -5.4822027532424 0
-230.463985209776 25.5505803283315 15.9897028011651 0
-235.783726625777 47.7956824814868 3.64258540010564 0
139.216054063949 -22.8881835251954 3.58934066086699 1
-34.6371512910063 -19.0592388020773 -16.4236599593454 0
-224.525415515305 -20.3155013047699 -10.2077432201916 0
-222.666996032424 8.6207312586521 8.08188429285944 0
121.663247755419 -6.63290668346227 -23.8129699125342 0
-122.787061227725 0.590814990344681 -10.1839437688457 0
-122.485285239434 -10.4930853806379 -13.63012883877 0
135.519343102521 -11.3087296342878 9.36107119856504 0
-53.870208305672 1.45690784110908 -17.2947719496734 0
-31.8216934052582 7.12160449684831 -8.79986412204315 0
-229.296559379269 31.9077527305962 -30.5105378838698 0
-17.17932227251 4.90741998365325 -0.658596937679738 0
-164.606284216397 10.8136572800089 -1.37025164881437 0
-237.862315599739 48.6296159301517 -10.0447462400216 0
-56.2527854813784 -24.2580619669726 -5.5318199255564 0
-216.00314666005 3.23269224622879 -18.330664029777 0
108.714363293631 -20.9018699041566 -2.96221410957966 0
-66.2584764212406 -20.4732723881635 5.03584514818444 0
-72.716565637263 -2.61157633555903 -18.0266965764959 0
-73.9409024956524 -22.2388266970091 -10.8377220125257 0
85.6964140280504 -4.57696129268148 7.52403190309069 0
-213.884843313686 -0.162292811372343 -18.4809239008502 0
-107.737918050785 -11.7781347959022 -15.7711965220256 0
54.7808314469965 -2.15449171505161 6.63681992854219 0
-228.38005915208 47.1323040315838 -21.4338309727608 0
-44.6934592149453 -23.0538602162265 -11.4684078673127 0
-158.862259836 -21.3051714843987 18.8742345219946 0
-163.386755369946 -1.99568668341942 -10.9772046000125 0
-92.0236876166374 -3.71798641752717 12.0711913308274 0
128.622425921211 -21.9453400065913 -4.027034227229 0
-43.0470486126066 5.45375323282169 -15.7855553357445 0
-206.042841538556 -18.9994402325248 -14.6367741914101 0
-219.953080337356 8.84721128398271 9.72873513871914 0
-218.290747141888 44.9353683638421 -26.1259815242622 0
-227.360020014026 11.1154877745537 6.28491831149977 0
-168.35194704774 21.3852719108502 19.598767996377 0
-243.457283610579 29.1690719051591 -19.8309892691595 0
-117.261430994896 -19.2902715672921 -11.1792698202694 0
24.2509155599935 -2.74961447511741 -22.5239886729549 0
-119.675801092319 -23.6062053754429 -4.20891214646801 0
-222.339597340352 -9.83341312580194 -9.43348555625325 0
94.0396837977477 8.81235067157163 -20.4289368948723 0
-67.7406475880551 -23.6587473355367 -0.212298960449159 0
-163.580973147804 12.3332827263977 23.6614461707294 0
141.328264703826 -4.47394500745024 -24.4317286367141 1
-238.498946639266 47.7524540528913 -0.536474921712135 0
16.1894557858245 0.423080818860638 -22.05911514378 0
41.0043391638311 -6.15152298908326 -21.8177708598948 0
88.2909291790091 -20.4004855170747 -9.05370455579255 0
-220.681282407211 -15.6783644556685 -11.5196126544948 0
-143.946086817267 7.91772114559964 8.47999436755461 0
-230.811698083052 30.0586047721346 16.0371538246821 0
-153.948529999834 -20.261527603252 -8.18847997204002 0
-152.75043756461 9.1297877742775 3.07187124898189 0
-242.337730535768 20.2269558434792 4.05001179181496 0
-45.0736337555988 5.78097476465605 -4.13370644394715 0
-207.776650632123 5.29318870457822 -17.8429132853788 0
-17.2398217304313 0.00909841213770828 7.43770096202277 0
-164.980622229156 11.098701587617 0.58596813594936 0
-196.839151443741 2.18888617323379 17.4485524435656 0
-147.728983837202 -24.4730697980214 -2.59751728709324 0
-205.37969526864 -39.7768042289017 8.98906714471882 0
71.8584930902883 -10.5187905918127 7.5628912737228 0
-106.146279780012 3.28558683450385 8.47067272366785 0
-197.934895197556 -3.50938996792784 -14.888012751373 0
14.1296937099496 -18.8720015388707 -2.39601821439806 0
134.439390386823 18.1137680196163 -13.9119173649787 0
106.015126628746 9.58889404634471 -20.0470334877505 0
-160.464685521917 1.73006043530695 21.1635674128804 0
101.744610581333 -16.0423590435396 6.1075923036803 0
-180.021661064048 -0.714962560325396 25.465619316808 0
-205.71337967971 -6.04358228842962 -16.4728375104009 0
-93.6379684858743 3.6291331356319 5.63660421102868 0
-21.2534059356109 1.90708796751319 4.96862120666029 0
89.9700370236319 -15.060011245071 5.3776370366683 0
-206.466433213753 35.535730799752 -23.8708209574715 0
-86.1952599796378 -24.4004090879951 -1.57869335721193 0
-146.513456637761 7.68322975840154 -2.48061235775347 0
-110.459844415856 -18.4964095440685 -12.3359102230598 0
-187.898577295758 -6.5300360820309 -12.8657222738356 0
-156.642023760554 -11.722594396557 -10.474524873031 0
-138.477176911881 7.04522034444273 -3.16465561158623 0
17.1295700604845 4.4210231018259 2.21237852306988 0
-24.8533373823097 -19.4695151316211 -0.45014365637034 0
99.5112687567149 1.45398372263775 6.97236489415618 0
-195.309023713483 24.9222520963973 -0.537803660753638 0
35.8850553496314 7.67470704239642 -18.7415197826388 0
-233.057732087195 -19.3020970826055 -0.980746779969131 0
62.4139567553425 11.0767059648536 -14.855446431804 0
-223.788068247029 5.19131512330871 3.42641667655814 0
-1.71086292844385 -5.74616648788727 -22.5750498938049 0
-92.0284785172572 -16.6973363018324 12.6262533834641 0
-70.5361819523336 -17.7702276478213 8.63174376389504 0
73.8751489265748 12.450253403364 -12.1083923726289 0
-231.153313003303 11.4403913890446 2.93208792690149 0
-80.1464210909935 3.6109303243669 -13.0537559905407 0
-16.2069855001401 -16.9451510439173 1.66224452159526 0
43.0573748654085 -15.0280279010087 -19.579450379899 0
-244.678641333166 36.3269219434661 2.31821524099717 0
130.648388795871 -14.9502984961848 -20.5411291220104 0
-245.698497536933 21.7912961346163 -10.186488506958 0
98.93354460055 -0.704530826884884 -23.0536101490144 0
-206.653803010404 26.6058641402188 -24.1558751032795 0
6.09951770468406 -14.3158718136921 3.22518769929139 0
134.01502854718 20.2983989873695 -7.83730912419745 0
-100.166057593001 -9.02744046544668 15.286995247262 0
-90.2507166264496 4.0330567894224 -11.2658953298537 0
-237.980267108214 45.113711358916 -18.0913945158573 0
-230.455302406844 8.15745250181173 -17.685707056578 0
-98.0915095258821 2.78661248995115 7.94455292542798 0
-187.047731917905 -34.3088506501151 11.2435422840472 0
-55.936547567023 -23.9679987212061 -8.0283320690659 0
-128.896967937332 6.82815496396987 5.21265473466546 0
100.323008003383 3.69821362825533 6.2722589143717 0
-178.040588726584 12.208942855573 22.256104012768 0
-162.177783820178 -19.6204067995441 20.9540892224081 0
30.0299120262962 4.80402280958764 -20.7206456496643 0
57.9655139978477 -9.4405764889296 -21.4866498299766 0
-219.112150382436 -10.2123919798362 29.1882221971953 0
88.7911553998484 -5.45793016973206 7.7832082592331 0
-243.948574381992 35.0146841963964 -18.2486253235091 0
-10.2892259843551 -15.2289221249971 2.98937030110029 0
-203.427854897893 1.47490638828765 -15.572547709385 0
115.522918862187 15.4919824248719 -2.78608976447865 0
124.454505145713 3.98697018183679 -22.900902539844 0
-228.771855186381 -13.0005126934167 8.18506410712708 0
-222.365136956363 30.4351452324904 -31.65785983276 0
13.9672689416102 -17.1809629109368 0.126323754811685 0
-72.1574863611584 6.87913190337207 -8.22501578758904 0
55.4964870221886 -0.721270381315307 -22.387100897061 0
-78.535162807594 -20.9527914049652 -12.3056674341203 0
-183.675007694527 2.44562510093404 24.8123600892221 0
-31.5518990541267 -22.6785285306511 -4.34070700663301 0
-73.0368135245216 -24.3584503194381 -3.80786471521124 0
-3.59070947861117 2.10818360922004 5.12895975131259 0
125.250069955287 -18.6957739545643 -15.7956718083116 0
-155.643962885028 8.51175697868901 -2.35693385903481 0
10.8330859373426 8.93790113868625 -10.1053218817882 0
73.7393903278398 0.468704655364525 6.28684308075064 0
-175.490425921258 16.516464448614 21.5421086360946 0
-113.375397075164 -3.35264700589385 13.3568404876647 0
-9.47492359668378 4.53041228528968 -18.9784875036179 0
80.9287074372651 -7.37051239365117 7.87568636425959 0
-169.409693998802 -19.6645227424675 21.7938406058482 0
-168.038651574571 -1.49946019166718 23.4612427053726 0
-178.826613671604 10.156022283797 22.9201777032148 0
-228.491488254541 -7.01815512299879 14.5534262088723 0
84.0869375490782 5.63960126024094 -21.3833443564383 0
-134.552043310421 -25.3241588042485 8.0957393541258 0
-92.1753471274309 -5.90753274476821 -17.2102647652251 0
-235.394595456494 48.1036456217189 -12.5706238632629 0
-54.4608397661529 1.14912302808475 6.60420863199878 0
-76.9589505012284 4.5671107679579 -12.5424110590178 0
-246.17056152705 37.8188208862923 -4.97083191084553 0
64.4599673639341 10.7225834145974 -16.8971579466871 0
99.4101639693441 5.49856067650706 5.51498308140711 0
8.03429114950425 0.903104907292283 -21.6864665453325 0
19.9254663579489 7.65369701388086 -4.75519836280444 0
-42.0245920600734 6.5244191816126 -6.70923710064006 0
-194.595518673637 -31.0496892903733 22.4831611136521 0
109.976047889753 -4.20486903362376 8.06699205520007 0
-172.635097843959 19.5398969222962 11.327420590342 0
-139.594466220567 -25.4245310270025 4.98516138219151 0
-12.4219682927936 -10.6486801774243 6.79906493154505 0
-27.4551031524955 -5.88116624581808 9.95655323261217 0
-191.105234171923 8.79605848197089 -12.2704675717637 0
-103.416007627045 -14.4492372534077 -15.5950350482809 0
127.026731574766 18.9844619970225 -8.55901304052638 0
83.457308574031 -18.5118281936961 0.260599454868769 0
-182.570821811828 8.20527520825348 -10.8256512956715 0
-186.825498844766 -15.1042867969421 -10.7143174725803 0
-158.110470875258 0.589910118800847 -10.6663431682794 0
-127.301522080372 -23.5558982767079 11.7161013847008 0
46.4364993830198 -13.2795249299056 3.81751066315625 0
-239.523884518529 34.5217417743293 10.2810685007382 0
-224.897656461777 44.1124506277475 12.8723630932442 0
102.443544188058 -20.0689733174427 -12.3671419693396 0
-207.972759557392 49.0716573018714 -2.99905066266921 0
-227.661538593588 44.471058405006 12.0678085707061 0
-214.492156226974 16.1337154404335 -25.4546955352798 0
-98.4366310483784 -24.8849116015467 2.91318533587023 0
91.3224446357476 -13.0137781782801 -20.5532862851198 0
-219.659839680247 1.60406773075568 -16.7693847469766 0
-157.513149171664 0.54071155906123 20.2932485816013 0
-193.109776224393 12.8662607374149 12.1325550894413 0
107.922379436221 15.6632921521073 -12.3608547039496 0
-26.1245325904279 5.00925580656646 -1.2798381269597 0
-232.239106533955 35.3690927331105 -28.9053718167385 0
-6.72303944623965 -21.7265669952378 -14.1277152579017 0
-183.917281823007 5.20698867972849 22.5075968162058 0
-100.714161438774 -16.3835566883551 13.6859279534371 0
-199.781926513973 -38.0758595004786 15.4929010793691 0
-189.38069891033 5.58060038078386 18.8247377184755 0
-205.011719637013 46.4195964622713 -6.3369962536087 0
121.643844488025 9.84134916583024 -20.4254822078994 0
70.57543941937 10.737775312203 -5.05528192948496 0
-70.368156834823 4.21651256162445 0.163578569124071 0
-205.574710401485 15.522104315299 11.1346309352962 0
-12.5411416333072 -22.8399951628881 -8.67017079904374 0
-243.392778021702 42.0839688300534 -1.19733174064678 0
-216.141579626902 -10.5144088289787 19.2311840491009 0
133.39132706588 10.3847621670763 -20.6370583867416 0
-222.081211666741 50.6356944131764 6.33913824085711 0
75.2706586374475 6.00984569802867 3.60881536709933 0
-228.898743994478 6.02017710218352 -7.89194209150633 0
112.834682264942 16.367792516231 -6.97164219865446 0
-206.88650548336 31.4094892413779 -24.9571967080126 0
-216.4067606679 -10.7979304166222 9.48349066775389 0
53.2116731945514 -14.1367300509955 -19.9601740546695 0
-140.333669863045 -2.15991665868813 -10.6974328928688 0
-219.802282779599 -13.6737897284088 29.7225804916569 0
-197.423289808119 14.866384449411 10.5655418596974 0
-16.3193281313126 -15.302700102293 3.25101787555007 0
-224.354497772044 -26.897885251179 -5.41127309004891 0
-220.246522191577 37.2669651864015 16.2220877708756 0
-162.569804929328 14.8209918299726 23.3882586822615 0
-193.217343965153 4.64523564197775 -13.3199787413368 0
-164.940623722043 -12.3754313424645 22.4915047039493 0
-224.311228506814 -2.93643824480262 18.5671108031699 0
-168.918131616493 -16.7022031802829 -9.48652026443892 0
-118.88494421564 -22.218476640937 12.8073123259837 0
-133.869662240852 -24.9906934616497 0.777486763543032 0
5.46531860404389 0.330357993608294 -21.8499087228613 0
-212.577628076083 -34.0057731532719 -2.98378921379736 0
-231.519948689288 39.0789120822623 13.9175269570988 0
140.286104552975 -22.5066079138953 8.8814883075683 1
-80.4276120380871 -0.335212590357744 -15.7813364772351 0
116.991622855099 -17.8590291009065 6.98265683788394 0
-202.398035789241 13.2852426690416 11.4065578752546 0
102.009016548991 -0.122298631084226 -23.1029000018189 0
-190.773973257991 -33.9987294244646 15.2972747374979 0
-122.635158062463 -14.1676538589124 18.8461289251182 0
-214.617370340814 -13.5959241684493 -15.6495216092419 0
-169.207487028372 -7.78656931727713 23.4846080914996 0
-232.333401724387 -6.0161204346976 17.2357162638662 0
-85.9858862366074 -8.58541237623226 13.2554930285291 0
-190.272881254073 20.6918849544015 5.0166835737674 0
-205.661416471774 -9.38021715995646 -17.1585420950075 0
10.7417778125227 -2.80360098746554 7.78665826445253 0
-11.1087161944296 -1.14716997527704 7.83172515682271 0
-164.080252510852 -18.7867874680187 -8.79784361084629 0
-229.7473051897 -22.228524124151 19.9465558492742 0
-2.35963201314527 -8.78718196685063 8.37979085199524 0
-185.314122104784 1.80702348118088 25.0570458676446 0
-166.857248974043 -25.1506452101262 -4.68505000896184 0
-105.532871524899 -24.5831811360598 5.95557073109665 0
-88.6168805405533 -8.37405785603745 13.5290579895606 0
-154.369213905637 -16.0796243635916 20.7823961927277 0
-187.403674803264 -12.7269781074701 -11.5414653122918 0
-100.086205584189 -14.402245463008 14.9474393162053 0
23.6575716689253 -20.2333655718501 -5.38464136733746 0
-208.940993599875 46.5565792965479 4.69783697134955 0
-236.886156676136 26.581617365894 12.5473928116813 0
3.28718796328255 -13.0515571433865 4.50362166440979 0
-58.0880563721871 4.84236685540353 -1.76654979688043 0
121.257453720661 5.2430703115018 6.87902721676797 0
5.14686461644363 3.4092011753786 -20.485860727152 0
1.24345170801697 0.999298050949823 -21.5907267992294 0
-244.587657877069 31.5412684750539 4.12854856348976 0
-151.036154416459 11.2182933258142 12.3346126385436 0
138.487397603095 -5.47316361131878 -24.3566422713087 1
-213.643572653839 -14.5695233155246 16.3838251222627 0
-4.61919400492251 -22.4416427546864 -8.47188892777235 0
98.6106231108839 -13.075191105313 7.99564758431627 0
72.9944766147182 -20.2798360964017 -9.87387413119958 0
-129.587508857441 -23.1958114191732 -5.32979831250132 0
-210.821207479797 -13.7891112127377 17.9188663107568 0
-228.426739323765 25.4060061663699 16.5375817986096 0
-92.9006762958051 -12.0935342150107 -17.6776361655356 0
-100.379675977505 -5.11183692666162 13.4856595332698 0
-204.721313982814 36.5812047244812 -1.70115177516764 0
-156.883489228595 -17.1045117059093 -9.58965870708013 0
-234.153298067249 -10.7158355550803 15.411014766763 0
-139.871594424229 -9.94139361348724 18.5307201447945 0
105.390485759096 6.702418384857 5.35770845734616 0
-238.390443310035 13.4620169272439 2.82388818267816 0
-204.338141488889 45.0790896022075 -12.213037647305 0
118.289343951549 -12.0449433642182 8.9108600633194 0
20.070515285765 1.56179928891871 5.5219216065025 0
70.3521415998548 12.2490019254448 -11.956746707289 0
-195.975757391802 -6.63930107316915 -15.2037020917155 0
-137.399568289761 -21.7857758069496 -7.3373810987552 0
-223.602222975008 -28.9907619576801 -3.32324901452953 0
78.9607273810217 -5.87542665839272 7.58882885210893 0
44.5215106867621 9.75196035227173 -7.71730905496479 0
-208.864320321697 -35.2725925515327 17.5859854454133 0
-211.124664151954 33.8027800923645 11.0693584216432 0
-235.028429482861 8.56025015718115 -8.8416860725914 0
4.08362961640591 -0.444497241815588 7.27820706939419 0
62.2859182604002 -1.70949916635874 6.57959354445592 0
-21.3153370011538 -4.9443097821724 9.4753420675067 0
-220.732009961203 34.2839670390435 16.9545824281003 0
120.923717694611 -18.842113364951 6.41269202289501 0
-10.6792855309834 -11.8465928356804 5.88757511071294 0
-205.292302467416 30.9556391279648 -21.4378896336422 0
78.5305342513177 12.644276445931 -14.1855240598752 0
-227.933578421429 -2.37649191135501 21.9693907742197 0
-54.2911098345723 -17.0509447628407 6.38894238290308 0
-136.910283575052 3.3349754486838 13.1532152778896 0
-84.5111922503518 -8.83440701450452 -18.9493858627385 0
-120.759720328097 -24.6442480472647 -1.2171993319751 0
-186.237032723223 -16.2788572805087 27.5214590660514 0
66.5095521927588 0.975986905594727 5.84828382938183 0
81.4935674537955 -18.5995893860459 -15.0305844683151 0
-2.24828516738143 -13.2450263897548 4.47355551101547 0
-8.64821574046802 0.701983855173729 -21.4732837336055 0
63.2922800007208 1.13898608384395 5.80980567051187 0
