-218.4643655509 21.5784578857537 -13.6817729214547 0
-140.642671375978 15.9331682258537 5.73873685930978 0
-197.519809329177 -8.80504741865059 7.44480723772249 0
-233.005239827653 -7.40512407447229 -1.30662711070408 0
-193.755207726402 22.2389910065831 6.09639903301716 0
-70.6794370840679 -2.04289362410925 -1.27358982859611 0
-169.965270374583 -15.7345468172619 -15.2132594723304 0
-38.0689785280485 11.3520644422171 21.6700562996818 0
-209.220073682838 -20.7530414971283 14.4927523616965 0
-152.096837185215 -1.15881742526253 -16.622422002969 0
-191.586090848376 28.6384584673334 -16.9530737937944 0
-115.765647858788 10.288394674715 -12.3196329827663 0
-219.90354775486 -42.4997049066875 -6.16020002456715 0
-220.634558122623 -20.7249303821167 -19.7184284689604 0
-223.591021421433 -30.143295826669 -18.1776196209164 0
-208.419412012853 -13.6278883229713 -13.7461443645246 0
-14.984443414329 14.9062443423305 15.1298131851769 0
-78.5905835425442 4.04795016516989 -7.21908363943527 0
-55.0420052492052 3.2624692974789 23.1178859505475 0
-84.480746626632 -1.69270658099878 -3.14486232201491 0
-40.3353865726004 -7.03143670470759 16.395637534505 0
-88.8770504024793 -5.0208300985653 11.502531899093 0
-113.767819122413 -4.09933007306016 -2.98132172590156 0
-36.332742679394 -7.19440222519758 15.9973264316639 0
-13.8313372555467 5.71102146070066 24.9947990414104 0
-55.2165333620215 -5.36448644733473 19.1229393115606 0
-85.5399472716131 1.56931502370546 19.7598072637676 0
-18.456769528121 11.2757207751783 4.23812337927388 0
-135.301564677557 -3.17174613134802 -8.66216616759025 0
-197.822944198036 25.5004458796986 4.41557969273357 0
-87.475814325217 10.117855324829 -8.14248894396049 0
-168.716194490513 -6.77121237566467 -3.12260232710632 0
-213.48248232516 -18.6214943829717 17.6996737990398 0
-223.221491272973 -36.7411079596904 14.3925968156483 0
-208.579108171065 -2.05669707325691 9.59172695887589 0
-63.8210941272627 15.9186218925797 5.33665682540023 0
-217.593740137421 -13.4102089546114 17.3506935385719 0
-185.029402741964 -6.04877029152641 6.03997581029769 0
-218.688328405939 -14.5764916311525 18.1931028570567 0
-57.5223461649863 6.92296030034317 -4.64472203685211 0
-227.203014140858 -37.32869510152 1.3446007145946 0
-78.9477556126444 -5.48056296902539 11.3789728351012 0
-218.513384457981 -33.6413652226447 -16.7045963845525 0
-210.908239808229 13.3645846691064 -9.76708653109953 0
-192.984060629812 8.87177819474102 8.67482689886856 0
-156.759694221875 -7.13572036533517 -18.5395013735451 0
-179.246644426576 -7.79264169471354 -15.552769756148 0
-115.684175915316 -3.84026582326267 7.34160811600281 0
-214.301964274177 14.9764366600698 -7.96721664728578 0
-234.107478168989 -35.1771285936841 8.72496824172852 0
-194.374926186818 0.390295838531547 7.8518110047792 0
-190.673251747356 9.03585486587245 8.42445922779712 0
-57.6727084180798 -5.32785142069805 18.7486163394864 0
-202.90570110391 -18.5251130215409 7.6475889966946 0
-196.866251614004 -18.7315523383973 1.9221828019745 0
-203.812978707128 30.040337279204 -10.3913930610801 0
-217.154164594445 19.7470886406388 -18.4525377229267 0
-219.214201648827 -29.2275082860015 19.1283555037394 0
-161.974656584014 -9.75887748508299 -21.9976834465227 0
-130.639184295074 20.4683574508979 -7.12453810144949 0
-90.4025066725262 17.8143262135004 5.0125899592517 0
-187.381341074303 -13.9607198137933 -3.58565826610014 0
-195.626403665302 8.58164634403544 8.97456345507289 0
-208.383974141016 -33.591746915904 -11.3332870271334 0
-27.1253486755796 11.3685512499752 3.76786682496016 0
-194.573172670198 6.71414829682113 8.4925589398825 0
-63.7966685058124 6.00308249737389 22.0073665329043 0
-48.9410140755788 14.9902162172775 6.83110798520473 0
-170.843619998187 10.2468364331405 -21.1242266423387 0
-171.247988294712 23.7372114604876 -15.0548029935169 0
-206.272643085725 -10.3027678049804 -12.9436040864121 0
-215.016139351084 23.3879224750603 -3.52096347264169 0
-225.777532296371 -39.7080338457918 -5.67021351446409 0
-108.965316539772 16.147771516446 -8.12790464169483 0
-194.975445231682 7.48939898721643 -19.1833235593536 0
-38.3267964570288 -7.11102093216856 17.3054933679785 0
-222.606492076818 -5.46122974320968 -0.428167374672796 0
-166.396611160019 16.3866582062206 4.49650433922824 0
-41.9650252007093 5.77379887534237 -3.30004436168469 0
-68.689557029078 -1.78375659007999 -1.59601996848579 0
-225.553865813918 -33.4334428749604 16.5703655009121 0
-65.2137299619684 -1.0368840152665 21.497492357593 0
-216.910561468806 -12.6497681991294 16.316541264692 0
-149.990063103001 -1.16905752193619 7.88560680734178 0
-100.408074424682 17.2815557295676 7.58733158509444 0
-208.534262372062 17.4483663295636 6.69053202469733 0
-122.497457690206 7.04231773013336 13.484026856247 0
-206.325807023831 6.63090144967 7.21644709987081 0
-195.66000616073 27.9602083122117 -18.175621101973 0
-159.998556199621 -8.45780211718776 -10.1038679007126 0
-27.6042669410437 -7.47430147642503 18.5610116036951 0
-43.826722950655 1.49301025418008 -4.92002435422358 0
-71.5066274966244 -5.81381069425584 13.4834136603503 0
-215.064117887204 -41.7114227132045 4.7436133330316 0
-204.088988595397 -22.871564037405 8.90034641923191 0
-221.578768790943 -34.9053069419883 16.1731393565018 0
-13.8071484237714 12.9343786947412 20.6889702866786 0
-199.259894193112 30.0352931727327 -15.5089907466082 0
-184.298654624718 4.64863644664291 -21.0053330040063 0
-175.722822482528 -3.66359949984476 -19.5235846284296 0
-71.5743811284174 -3.32681161750379 19.0626546746457 0
-210.986298326005 26.4787358058799 -4.29468847939425 0
-66.8746800901671 6.37384353686668 21.6520482712677 0
-203.086126180285 -27.6387107388434 0.966679760796086 0
-196.029057251227 16.1119611618562 -24.7736531775628 0
-193.57166153305 14.1579391044682 -25.1484258727952 0
-155.877213270962 -9.45192829266125 -15.0253886221427 0
-200.97328799417 -12.5137644096903 -11.561994028182 0
-236.649928823898 -33.860003722038 5.77506111570533 0
-66.4571014623433 -4.11092831715137 3.58158403389692 0
-150.129099842017 -5.21311951273422 -2.49997187525265 0
-111.860692328524 -1.36293145710563 13.5912307164783 0
-150.918092202259 15.1101300575926 -16.0321524125178 0
-204.531008052964 21.7629478671987 -22.8219898449206 0
-234.513910805941 -28.6888243616753 13.5225909466543 0
-149.764785537578 -2.00873973398359 -15.5818847647823 0
-88.5973049759489 6.44035291073021 -8.49097378962067 0
-238.912852704269 -23.8138913077235 -8.08787155755761 0
-204.149529394903 6.5283230095506 -10.2819470852076 0
-94.0479940360583 -4.6774779970996 11.2782254989584 0
-23.2460680802084 4.09339641627621 -3.72776387952714 0
-44.6799101983538 3.11309984824766 -5.26857992611377 0
-226.091662244103 -10.3621254951244 -13.61575269863 0
-213.849604036569 14.8378406921743 -0.450653043870322 0
-233.651346624685 -7.62898483090359 0.357782706409017 0
-37.5566002504188 15.1702867852154 16.4227554514813 0
-200.897496798337 31.7239985515226 -8.82904116512785 0
-210.880918967203 12.6616439112641 -7.55338928424763 0
-216.019386380298 -1.89705594860978 3.34723522054508 0
-179.871962894127 -3.29159324954431 7.31974497654825 0
-136.32172798766 14.6795957425185 -13.8299306773475 0
-135.28168478842 5.44036403376209 -13.7941267320614 0
-214.887447417013 -12.3330331013053 15.5512986865123 0
-72.2791127375828 2.08649893267913 -6.31599758717711 0
-192.189654115905 -6.61469668107748 6.07204361011027 0
-78.0272614762153 3.15110716648063 20.9025178960076 0
-231.258498862415 -23.2822718700539 17.1155623087677 0
-227.146823991443 -21.8736649447482 -18.7757691189459 0
-9.30518280311376 11.0934514731002 22.5465884037257 0
-76.9833079044965 15.6951620061503 13.7432707265877 0
-126.7726628556 14.2274072352132 -11.7624559415187 0
-62.9558377729468 14.5501131645018 16.9195958842277 0
-201.815210288912 -12.7396218185583 8.35736994377395 0
-90.4301978304852 7.35137031782194 -8.86454054682412 0
-118.38003996588 14.5039567215997 9.81800465462582 0
-209.05845790024 -24.7688088338747 -15.2853640444129 0
-213.827005970438 -9.09971884813218 12.827013667102 0
-164.158335759928 17.2866275115027 4.13943499178882 0
-33.0775396292811 12.5153408791722 20.8201325811832 0
-173.368638943541 -13.2735886213531 -16.5191338778289 0
-24.2404543652251 -3.30272258557547 0.760873573611074 0
-93.675274595528 10.4117344965302 -9.13001271505573 0
-211.567721873275 7.71811126373547 -4.12101546703134 0
-202.325172680802 12.0832202186279 -11.2352700902998 0
-14.2696912958525 1.59408098396764 -3.86515992604758 0
-212.39035015672 -11.5580204358909 -14.5825396138651 0
-205.306020467031 -23.5920094903798 -8.90070099950005 0
-89.4487772268781 16.1633488478131 -2.60909918723723 0
-104.369237340045 -2.19424396814845 14.0066225028683 0
-107.887563458793 0.309796887136057 15.7594071622238 0
-22.0203095844148 15.0883152046889 14.9854451171475 0
-215.492947622865 24.9983405875669 -11.9789114492973 0
-170.994468584651 10.8477441098744 5.15028769561538 0
-49.0699752850692 4.9947318586148 -4.8652417031077 0
-176.875050430845 12.2345721703777 -22.6383784164743 0
-138.02646066101 16.680545267774 5.01757386145556 0
-189.722445308179 -6.05169592599911 -13.2435070228105 0
-207.976925655391 14.0830465733639 6.58563938803848 0
-104.537358924232 -4.53997503263164 6.22629686745719 0
-226.280389888992 -17.6685217525409 -18.3759097123209 0
-206.722927122125 12.3446238372644 -20.4452580956539 0
-212.240764172746 -4.53505908729362 9.49294300560271 0
-61.2440376735992 -1.25907733086706 21.8349059411893 0
-35.809253405894 8.52445029965175 23.2482902289758 0
-214.547396616183 12.0273046842339 -16.5850068076051 0
-206.629749887607 -36.5788180777006 -1.2329364028153 0
-185.991681227055 17.9986920576934 5.08834488437571 0
-114.599488368795 12.9013577946689 -10.6565586816801 0
-150.863179039018 13.1196536420188 -16.2644439084029 0
-1.255993603128 11.502752594241 5.02336491418543 1
-203.458598163984 -23.5720467683317 7.27083619657231 0
-239.733680200248 -28.2075098611199 -3.99834707842982 0
-211.531120584053 9.63602043517713 -3.42946453478033 0
-212.048979155981 13.339104630398 -6.41157068380489 0
-170.05589432056 -9.79078867377858 -8.04056268244774 0
-17.2318235168509 7.94697494581423 0.488117358332619 0
-222.637524048665 -40.6368157539457 -0.737589751546127 0
-55.8995053545535 7.59034171181242 -3.53829994953789 0
-10.3968200260864 -7.63202627272871 13.4850274321937 0
-212.509435556111 -16.0695431873354 16.4105761764412 0
-156.955227753941 15.5759084976718 -16.7018986536521 0
-214.815754756767 0.122551356428042 -1.3169732849874 0
-30.8672650678695 -5.11991830109674 22.4413483362645 0
-142.954477008079 -1.5913777558692 -13.0348384867545 0
-202.33103186306 29.4775288237692 -14.9510860679561 0
-151.523335123989 -4.45169695422445 0.550571370431637 0
-226.071947219574 -25.3194791251025 19.3953678315851 0
-189.205876444763 -10.5290752883998 4.15675006168892 0
-35.284566333783 -1.66136560606912 -3.42888228482101 0
-37.8208377015464 15.5205101818728 10.7296835080663 0
-211.270855472945 -32.9630926117027 -14.5979033553339 0
-226.790936550142 -40.6109530517108 6.75280903532484 0
-180.162755794471 7.96883569009793 5.6840595298764 0
-204.9006558242 -34.9876265298229 2.36685377160515 0
-206.231172022391 -34.0161156486549 -6.09373729439894 0
-106.140246125191 16.9502359685555 7.85053017098275 0
-178.600389549723 -1.61543903077067 7.69376580472423 0
-187.657139948011 -11.6096074036967 -9.64260097641571 0
-114.041578427569 0.499630599311865 -9.11441125627708 0
-46.8485121703129 -6.46184463353349 18.6590263179161 0
-161.80685792473 23.3501071287402 -8.59994311874674 0
-204.377354824992 -32.758242044027 2.31489699633088 0
-214.28203623264 25.7963178015692 -7.73896855652304 0
-69.7059863546303 16.6042927098873 5.47482231576318 0
-167.618260805352 -2.56163887917736 -21.2596976122597 0
-200.876144278053 20.6423447956774 7.69268055251262 0
-66.7357372739126 0.0505774223988656 -4.86828465757754 0
-189.546695180554 -12.5167741706572 -8.88178811754363 0
-202.205878269044 14.6490447777296 -24.1106709733365 0
-41.5699894524359 -1.28044447127447 23.6170046852437 0
-113.455998368215 18.283256726062 4.24905838976472 0
-13.5908721401579 11.3583720963856 22.3583786319776 0
-36.5439700519715 -2.08537150752016 -2.48955301430723 0
-214.506677497241 -7.35784746492723 -12.028025799177 0
-83.174438781028 13.7008908690062 15.8531358883816 0
-205.057444281493 19.4664626798205 6.28424800157611 0
-79.338013202817 6.87947856548993 -7.83722530621831 0
-172.747740275879 -0.0164265919773047 -20.9554762276675 0
-50.8887238968535 -6.32650998753484 17.6496623551224 0
-145.206711445902 -2.80005584613394 6.30082565847435 0
-211.908590633414 -7.40783190104347 -12.5259697707775 0
-207.946678000892 -18.4801889266219 12.9685410092882 0
-168.657704644041 -4.8405212558651 4.635363557921 0
-206.506367243242 -36.0499009409247 -3.29955803641869 0
-209.091961874199 7.18051456732077 -7.29031771500576 0
-211.240034270192 4.4948413054813 -5.73277499286701 0
-136.048070596349 3.15879344232658 11.3795803323211 0
-7.54420822544419 14.61850307043 12.4042832550664 0
-217.613768478815 -7.68316951485652 -11.397239340503 0
-52.5426859386601 -2.46430370220689 22.1355593008514 0
-131.533484077672 2.66535441835927 12.1848972129716 0
-233.510411202689 -10.6284959691962 -9.20508360936901 0
-202.473596128906 4.20611122427447 8.65289291911153 0
-222.974465884547 -7.77928781757532 -7.39048254939314 0
-225.176069019339 -38.0064932294644 1.21290186517615 0
-165.11155493995 -15.7338626405998 -14.9390520852314 0
-91.4105371937918 17.1440491891551 -1.39665760961533 0
-225.912899058548 -6.22323037725022 2.19867161815127 0
-160.211291768294 0.0673259115349461 -19.5965134873057 0
-159.96903430671 10.6191545215358 -18.0969944189476 0
-183.892510486559 -3.77521239521643 -16.0370134431617 0
-204.219416851023 -30.8396306147524 -1.49654299254549 0
-106.137202192755 12.4227102490966 13.7214232119357 0
-103.022414681155 -4.47035217690083 9.07493935888054 0
-13.2093449523149 -7.08108034260472 21.6651893154426 0
-211.324460463258 0.406950452896026 -7.6074134520799 0
-217.494103501206 21.8908059367012 -5.39203526716716 0
-126.261818008732 17.58193500265 4.51875763030839 0
-185.951113272421 5.37976199521035 -21.2898510492844 0
-184.221775621774 29.2442826586904 -14.9292697124522 0
-152.854142886323 13.6851574879323 6.43530455766117 0
-161.057529715522 15.2626201131153 -17.5963262406385 0
-209.249670957622 -15.5671038488481 -14.3625278553893 0
-205.026585995343 -32.6172667207629 7.78482056822407 0
-82.9977226582503 17.0638295683044 9.4635825268089 0
-207.080513860376 23.7314091376317 -21.208859755381 0
-63.5212978924829 -3.47127317896034 20.2279487079827 0
-173.044132990658 -9.35755465622162 -20.4464140273587 0
-176.831432709935 -5.99758052050515 5.80848102093352 0
-222.853229872536 -33.3860186090506 -16.7321184232575 0
-218.638701446847 -16.2755782119401 -18.5281083602044 0
-162.035854892876 -14.4016868597779 -16.2081390647251 0
-180.076022932838 1.63818480288379 8.45608507744625 0
-219.49732229115 19.642686706492 -14.4438004711207 0
-11.69507400189 -5.91772328319281 8.72083835843114 0
-236.917210396231 -34.4906552520756 -3.01127329047941 0
-211.815420300992 10.9823877864435 -1.98241805579227 0
-25.8166476838763 5.14715490875747 -3.00152550228673 0
-43.5254313634566 4.7912330865414 -4.5228808227205 0
-213.004391908063 26.2783287159505 -12.4419811840488 0
-125.818407773217 19.836904943552 -0.938590019200358 0
-205.488572704459 -23.9949516784682 11.2287874590262 0
-208.016983365735 -8.51378264586137 -12.9173965568004 0
-201.199932630125 15.0821460197053 -17.3272341025442 0
-80.155707725494 11.271617072042 -5.17682281543899 0
-172.73064088446 -12.1294383651017 -10.8553711205926 0
-159.829357220587 -11.9791732374342 -19.0805140511393 0
-84.1072197040165 14.341940122476 -3.22571871093113 0
-119.884931826621 14.3604582359241 -10.7779916958125 0
-116.935043364748 13.120333584022 11.4406648626999 0
-213.823179618034 1.67418594380127 -0.59559476028646 0
-57.9541870491976 16.55103133048 9.94289996095522 0
-69.4797328182184 -0.292266234633004 21.2770675720987 0
-109.809417086555 7.91946731815903 -10.9792084868876 0
-5.56225836437296 -2.60222041552507 -2.05253040531041 0
-118.237847963167 5.86916316606903 14.5260264157399 0
-210.33644377156 -25.294816303985 16.2804016170334 0
-127.43013828879 12.864986197263 -12.9509793913845 0
-209.063407942905 28.0869333831343 -4.81711829388364 0
-128.697093974169 18.9893830971037 -9.35234005166166 0
-195.829935827983 27.6939750141801 2.00651954832826 0
-171.463865851413 -1.53068691038696 -20.9425184377448 0
-120.402291072847 1.15067419322653 -10.3363954502523 0
-17.3918184087872 12.8391740665791 6.68748697237069 0
-191.554110514265 12.2008569424367 -25.0920641278466 0
-142.104737358918 12.1095799542425 8.33247714068324 0
-123.260481857605 -1.92154549078922 -9.21047265581599 0
-3.54606551763023 13.220023897178 19.9017330499714 1
-203.895954220269 9.77779922158067 -9.70681228715997 0
-113.530996661331 16.814072077725 7.38779794874584 0
-169.636153561658 -9.70008342120674 -21.9538763262539 0
-220.306151986366 -13.5793643681916 -17.7607002837309 0
-208.126317563709 -30.3078157091806 -13.2533469973644 0
-148.286498808471 5.41125914280043 -15.7904957839275 0
-214.560594151663 21.6788855470181 -0.161166954476429 0
-218.358103556212 -42.8716966485603 2.02001384791441 0
-110.538386178622 18.3066238212251 4.17396390274628 0
-79.1778882417114 -3.48499683425718 1.11171722770491 0
-118.656279424615 19.8569026096676 -2.55373102638083 0
-158.775849318982 -8.96691543435366 -11.1753129974019 0
-211.376826661314 25.7608553582488 -17.6144609401885 0
-182.068189450105 29.2888455667223 -1.50216009173784 0
-205.88848874537 1.64459823916997 -11.7730944674741 0
-211.654491442221 5.81853652948727 -0.249666428804703 0
-198.689812392713 13.9893531461399 -16.1081758061549 0
-26.3933751785231 1.11295615678819 -4.43254773801075 0
-144.025244622288 20.7999211043402 -2.47927543522586 0
-208.073941559199 -30.3246757420664 13.1886240405969 0
-174.018647865338 25.8485362808733 -3.30213460985961 0
-204.93714876517 27.0861116501985 -18.5520882103539 0
-125.863319819567 -0.491246628131294 -10.254436787115 0
-225.354406165042 -33.030727871854 -16.3377695627369 0
-217.507785772879 -6.07294260113709 10.8684519211588 0
-140.356890701375 18.5767307320013 1.94912969136839 0
-193.670393905306 16.5577570156825 -24.8238088538575 0
-1.35858272719027 -4.59122666708239 24.3221846709218 1
-209.799835440769 24.6694395583902 1.27288183545713 0
-186.870249478057 -12.9360035645912 -7.86808559562279 0
-50.2412377904032 16.3264654211002 11.6137074625988 0
-93.3797201411055 -3.95479281311508 13.6456449615473 0
-170.291070289386 6.87486997833048 -21.0623230779773 0
-141.554912144692 11.8857703636548 -15.4770188144415 0
-226.866088744536 -22.9739112736451 19.2463663214974 0
-216.913258702256 -10.7112059077342 -14.9724076987917 0
-238.986144290137 -19.2444417371997 7.83976824517321 0
-2.91784638928313 -1.97797240982013 25.3196255115919 1
-193.271226390278 13.6478494787696 7.63854522062576 0
-230.979481824019 -7.22420401185303 7.10990812300415 0
-94.4009596488345 4.83012142008001 -8.54793605957722 0
-88.9935676542472 -5.11907843999226 8.96420245035363 0
-72.7229135015787 -5.69050268349586 10.638630865232 0
-182.374989374297 32.2793082519483 -9.58212241318893 0
-42.1600920173939 13.8499598116377 5.72427500164309 0
-158.209112379796 -1.38376646488166 6.95171923058904 0
-22.499142961441 -3.40880170473328 24.1251151649505 0
-201.566132005554 -20.8194315708708 5.83840666823716 0
-222.062314191185 -8.12975590996347 13.0816777669863 0
-198.237423124527 -15.2452318336848 5.75296289023541 0
-230.049636931388 -25.0248510429575 17.6488853110514 0
-186.360883961386 -10.1263366344888 3.36813887676174 0
-157.875260875493 22.2621185360735 -4.73258659231784 0
-234.980634522665 -29.5473663341875 -12.1371668377842 0
-226.51050871183 -5.36707323793268 4.13564428477836 0
-174.37828564438 -8.53700167724526 -19.4498526931335 0
-225.634839501921 -36.2814964558277 -14.0161223596546 0
-162.190622808316 -1.44124922843147 6.64614523140064 0
-216.296642956129 -37.9318301476753 -12.46864407606 0
-215.549459409322 -42.160402789812 -2.69090606413444 0
-191.251836482416 6.36877141869271 -20.1079066891156 0
-41.3997777821043 -2.7992963584396 0.578384596685127 0
-107.72649919816 -4.23136476845295 0.510324731254033 0
-216.794372020514 -41.3163462865961 -7.11857285254547 0
-34.4074036473382 -6.11665209883472 9.55402557956605 0
-211.201005278547 4.98476757485733 2.06347377235787 0
-205.894072052164 -25.627371674132 -8.90007695611809 0
-203.780408539096 15.9695310059157 -24.2345582039555 0
-213.86756591377 -0.497804403170842 6.58612924044247 0
-134.543020434843 5.64007569606533 11.4441603164376 0
-165.936075832083 13.9314794525681 -19.2356618317253 0
-80.3632083589725 4.11859400279846 20.6436116813782 0
-44.4780471378894 -5.12785489632659 6.68749907689442 0
-102.993732337182 -1.74463105131665 -5.61237360264422 0
-189.029993542569 12.8995339710986 7.02724223793879 0
-234.612361634494 -35.7967739144868 6.3099828146873 0
-126.201413168841 -0.670228231872203 11.5790704503225 0
-230.312127703749 -19.8798821218325 17.41439817381 0
-230.391392836572 -13.4943652337301 14.9124537381917 0
-233.099761708718 -12.4099823793634 11.898732991851 0
-181.2783355663 11.7350477760896 -23.4558734542329 0
-218.461587070192 -25.4434162241301 19.8676515579839 0
-66.2930673142606 -3.30930061985571 1.57191059933317 0
-193.828840737106 0.45731875515245 -14.6866309295342 0
-96.1712660339928 5.26481053342227 -8.9103991999649 0
-7.997231902438 -4.87225266158987 24.0350128900131 0
-202.996212857309 27.9120793071525 -2.56878152471959 0
-93.5936936390376 16.7076994674811 9.75750853635576 0
-240.623543746582 -24.4317473893017 4.27679243292796 0
-210.054646555877 3.52170818348826 -6.82316596028016 0
-240.152580684255 -19.7542833534152 -3.97114761676764 0
-121.723527322481 12.5627194350466 -12.1771496925617 0
-92.7286377257178 17.9824729507923 4.33018423688475 0
-210.562265999428 25.7029480778286 -2.20775896427187 0
-187.320126135384 19.9234198742968 4.83250127547119 0
-217.909772065805 -11.7793597616997 -15.7583358076335 0
-193.156914453112 24.6841849883777 4.97378029967374 0
-101.578830231964 4.91919662784209 -9.32027306280414 0
-79.490401143919 6.55341240481681 20.3952208001913 0
-234.346119075355 -25.7987928803113 14.5222347653831 0
-143.158063526457 20.0933220332203 -0.727650549817557 0
-212.496198875154 -23.8745352710658 17.9988366958968 0
-203.399551224943 8.2513022360017 -9.70316792959831 0
-219.697946374711 -12.8263853619256 17.3583456607713 0
-50.3726562852847 -6.1073292423831 10.0934692949529 0
-206.023613365796 -33.6444626815936 8.23720282681547 0
-183.636089741323 29.5703145480158 0.52894819838429 0
-226.262872499745 -15.6598268439241 -17.7179907741224 0
-28.940772829698 14.2549398629255 8.34168886739571 0
-27.0406635563356 -6.18171737168575 9.64050169977357 0
-166.413779436266 -13.7970057876866 -11.7006668328017 0
-128.269788882548 15.1566153904173 7.70250686682777 0
-110.807697915859 4.77967981199651 16.0304311775674 0
-52.5119391257455 12.7148343513144 19.786051656047 0
-126.57712823606 -2.85212040181775 8.34391483542043 0
-194.550975422307 -16.6049792894082 -5.69407669306568 0
-209.303283426886 -35.5594316168544 -10.3388294204668 0
-150.006715180946 1.56443015371256 8.93668665901077 0
-25.1729816084478 -4.51393775619493 5.01087563013971 0
-200.332386101523 22.3796737084129 6.71254255327672 0
-177.023565955904 20.4302624043452 3.78755599646581 0
-141.009743619762 -2.1652446663907 7.72524929370937 0
-164.281206329044 -0.44141629287502 6.85507938346644 0
-195.238365353371 22.6120539930893 -22.5594552274505 0
-60.3044075542759 0.562878982560012 22.4729975004831 0
-208.297786514992 -36.2301081244198 -8.12526980719812 0
-229.603358463351 -30.9883793855777 16.243849667407 0
-60.0655318219126 10.2688065426196 20.9062000121744 0
-19.6957154216016 -7.37816836696749 13.4020056651995 0
-148.686819626402 11.2890861309581 7.71543202011162 0
-162.847431647023 3.95830238004302 6.87694078806905 0
-11.4794577210793 11.8111295784109 21.9206133283059 0
-209.033134458426 12.2308499214645 -20.4271273538579 0
-55.5955905273546 -6.458354564034 14.3189299133637 0
-203.741734673143 -28.1127054249063 5.2256642875178 0
-28.1562472499051 3.82792411301608 -4.27078278932711 0
-34.6286948442618 -2.63975582212569 -1.33153627715098 0
-39.1722440808514 -2.90664946599576 0.690282577062055 0
-213.181151707778 -28.0798240306938 17.9181563480039 0
-151.678636058136 8.32687012354202 7.66683237629725 0
-181.781776166746 7.87291987351819 6.05526560269312 0
-206.78663108648 -28.604818808909 12.5075947494337 0
-167.081516157712 -6.00078049406223 -22.072926241059 0
-185.01039376752 14.8974333746473 -24.2334617668199 0
-21.0119116414827 -7.79905983124397 19.02493345039 0
-128.263327329888 -3.62593277495732 -7.93086731624614 0
-232.095093709327 -28.7972496351022 15.5791712245943 0
-83.7997803256493 6.47867816958261 19.932118650101 0
-211.944451932282 -12.183835629778 13.1670657637333 0
-211.552690576856 -10.9125306385123 12.3959444258164 0
-210.08518642993 -10.4204719370642 11.1549854037493 0
-38.8873932457501 15.8258954788552 13.2388993125182 0
-54.1154574951816 15.8965666395156 7.92738525644781 0
-51.1205396091182 15.9976682546471 9.07279774995493 0
-201.358736638064 -8.84864571607752 8.95166350691616 0
-34.6134378662086 -7.20811649964004 18.0513540929229 0
-180.792429731577 -9.7223976191923 0.83955220200042 0
-223.206672828198 -4.60501087374183 5.536970038381 0
-217.909022459927 20.0985878955221 -6.23104667301121 0
-62.6771175533984 9.74366553887987 -2.51451652820767 0
-216.703559162107 -26.4677494764729 -19.0733519792723 0
-43.6985728377145 -2.32081900335244 23.1181271007364 0
-238.87864481345 -21.65515382961 -8.46649072903681 0
-152.629522841495 -4.10672155936482 2.40044386869399 0
-210.756730121631 -36.3811450611791 -10.8534838315804 0
-237.361356088487 -13.4331575647016 -6.14108402706893 0
-62.6485363320745 -6.05280872377796 11.4181351128626 0
-232.023105352556 -37.0425810129799 8.42082360042573 0
-197.540753440998 26.8044297631579 2.63408743134891 0
-144.250026926822 -0.015485067568274 -14.3094548871503 0
-89.1025794605078 11.9481276865696 -6.88033899084357 0
-184.578040681709 32.7969608041366 -9.8962838772314 0
-117.77506571689 -3.51854118805297 -6.11657318344158 0
-13.130951065386 -2.45310486571245 -2.32042501948521 0
-220.607012168267 -6.0462412653772 -4.98033950298053 0
-222.441540607038 -10.9906089825834 -15.3844301247054 0
-86.6212479635798 7.8347274854509 -8.61871396832842 0
-8.21819932989644 12.9070119432499 7.33353969537708 0
-210.616020304531 -17.3544979445974 14.4849825027541 0
-132.298923945162 18.6879252242693 2.02365543586043 0
-61.8864676371113 16.433563746668 7.7442556662165 0
-120.459312914882 19.0009765812255 -7.74035021367639 0
-10.0692776715758 14.8222874731778 14.249114843367 0
-207.417220931258 -33.6959039338219 -9.16892195276847 0
-197.470142346969 33.0664095722693 -7.22303041273135 0
-217.806002666361 13.0486176307325 -14.6124754921046 0
-201.501320916186 16.7067480462483 8.98428321669993 0
-168.778869838881 -14.5391704570552 -12.0840720100766 0
-208.457950289634 -19.2156903187607 -14.2992230817793 0
-138.8666957515 19.1339718828586 0.981391212589163 0
-221.770139508195 -38.7861062945673 -12.1467399764758 0
-198.436334622739 12.1643999123996 -15.0481330019374 0
-158.374572671219 18.4020988154183 3.13677772610316 0
-22.6080297071366 10.0064483286479 2.45510187820867 0
-196.709172201584 -3.90358801608077 -12.9938888691973 0
-1.81626173646559 14.5521171428621 13.32529159086 1
-222.24962629602 -41.8302428889323 0.695884088789796 0
-218.860542488996 -16.7377743026563 19.0704442229838 0
-131.13156364687 15.7916470516536 -12.0016105207887 0
-94.4933131775148 17.6577144139479 -1.40696554157336 0
-239.334724908256 -22.003099214645 8.00105793459902 0
-196.091717578221 -0.476116603794745 -13.755484727904 0
-219.41638120045 18.4205451996732 -16.042606727744 0
-49.6988251543122 -6.58489832841245 12.7095465276365 0
-147.317836496595 -4.54187758734793 -12.3982236348812 0
-219.054862424515 18.1463795667088 -9.79399360628988 0
-83.0109873542328 16.3309008209581 11.9639926955418 0
-238.204834845959 -29.0581662321313 -7.31981970382146 0
-61.2460938217427 5.02561659043883 -6.18616933950587 0
-85.596925278233 10.5869908042225 18.0040723905365 0
-210.510302166637 -8.31973497032073 -12.9595579164368 0
-140.432974745945 21.0292441434958 -4.02361859490787 0
-147.586291205532 -0.847415861514172 -15.1266834900467 0
-59.853685006424 15.7830702473769 6.07478081458902 0
-26.813743113923 -7.04416161333564 12.7203762171438 0
-145.167583982957 -2.44637588360203 -13.3883521472289 0
-223.13917664916 -9.48836890925825 -11.8121001815404 0
-213.517362852121 -30.2730186309381 -17.1517931220896 0
-204.676070973791 29.4601988449063 -3.94132622451262 0
-170.042841303201 12.9668910371989 -20.7557264429216 0
-180.522729350038 -10.8298184268256 -11.4929201726324 0
-161.020035247293 22.1864036263216 -3.330902020872 0
-228.613407643569 -18.4422395247537 -17.7142426763226 0
-115.339606450738 19.6393629260569 -3.2007058926535 0
-91.3424709121133 10.2392804292514 -8.92272071925815 0
-185.100830897267 -4.53247381718286 6.83076127990886 0
-147.783594611734 11.2436517371457 -16.015076196589 0
-43.4112694258864 15.2440747154035 8.36850844684233 0
-201.172971398994 -10.9312076514478 8.64264174771143 0
-211.941474737424 -21.8949181239255 17.5403018986671 0
-104.809723868976 16.1526625909655 9.41613767945772 0
-38.1621665914218 -3.56362317852468 2.46765412840824 0
-72.0212018007479 5.00833715584156 21.4448304519842 0
-176.239154637037 -7.75214889078073 3.63958459240857 0
-117.923364282341 11.0585699347358 -12.7289804780353 0
-181.720997320194 -6.35370420842449 -15.4105536559513 0
-66.4885933709187 5.92028080629905 -6.58853798996356 0
-194.315013257387 -16.9362678776421 1.24965004643535 0
-217.723323938572 -23.2385273924718 19.8649567150101 0
-147.177485900766 20.646251637782 -10.6673372574617 0
-34.5414929473559 -6.70405863212639 11.6608174142452 0
-52.4692386655542 5.59158400817257 -4.80729927711186 0
-104.338184552218 7.85730188784978 -10.2726837462167 0
-40.2053753131546 -1.8401714526519 -2.64659480819581 0
-204.623326351357 -15.3684446052859 9.09883579405471 0
-86.6141012625431 3.86695089890563 19.9036495393592 0
-220.473811565082 -4.36007812951771 3.17684525197713 0
-226.343836549105 -38.6206559378397 11.0138674555421 0
-59.4683242702734 -2.03508225822501 21.6510477743382 0
-240.70951051145 -21.4311077860519 -1.86112626623393 0
-159.078630132707 -11.7499939966395 -13.4265346565975 0
-206.887411034056 5.45591958055629 -8.31351844942963 0
-206.346621081299 -13.1982245465739 9.97609751781368 0
-158.947044109515 13.6068516894773 -17.4365086405838 0
-151.86829265513 -6.4178247204416 -11.1967891723259 0
-152.67594146455 17.7510070329673 -15.3042931121214 0
-199.733208961681 -14.1412483729757 -10.5575175199646 0
-175.153916854636 -12.0764560800527 -15.3336510255758 0
-225.237328843365 -11.4324647615055 15.6964832497529 0
-6.84445331717728 -4.84209800459123 5.82135840013922 0
-157.590422848295 8.3345134019407 -17.6917538657166 0
-159.185190473639 -9.80508877392354 -20.0365920448385 0
-218.508866866483 -10.3773343011294 14.9354206759732 0
-211.795618671504 -0.210435833943886 3.47116782741007 0
-30.8606525192161 2.80881156361614 24.6494936970522 0
-29.9156063212375 6.74102059235444 24.1769420029353 0
-194.619787542213 5.94129732749627 -17.1580537313804 0
-212.3710420115 -33.7272573603153 14.8177603292384 0
-153.520655913288 -5.11420531345995 -2.13860821617058 0
-208.102853251923 13.6846878169787 -15.5270070448759 0
-179.934711014571 19.7382939194397 -21.6997725344875 0
-201.554097062333 22.8957930907766 -22.4338728094077 0
-202.964300781781 11.9055782547906 -20.654597356348 0
-95.3359250555163 0.156409040722148 -7.02572948549457 0
-214.486259663811 16.3128332706891 -3.16656431457224 0
-61.8822038740574 -6.18268642229592 13.2847763130615 0
-211.581665404316 0.718011697112048 6.19104891985769 0
-197.81772436868 -9.239461646154 -11.8273884066269 0
-98.9343363022693 12.6531835199542 -8.5405575241717 0
-90.5475653079149 8.03396968919011 18.6164701414287 0
-200.122845318382 16.173798406264 -14.6080613443621 0
-58.5289377177674 -2.90556193750666 1.11482615498941 0
-173.698071919542 17.8095722543799 4.19869117545765 0
-190.763498255572 27.3780614694818 3.52389322910303 0
-167.211065037937 13.3975273485287 5.0545253248605 0
-12.1545765600596 -7.97942230024763 15.5143057742047 0
-60.7153295338098 15.0881596961607 16.3757337388368 0
-151.237750635236 4.40666886901424 -16.4569722274944 0
-98.1597685610332 16.4195922532951 9.81076106071252 0
-174.947727771515 3.98284022539683 6.7084737939526 0
-157.401171319948 21.7331540331056 -11.543816974014 0
-136.677233279605 12.6177097756398 -14.7340063385066 0
-224.711803285422 -41.7493971634644 4.83431966811416 0
-77.2102717471563 8.59497624296968 -6.93940493586885 0
-231.071573504775 -22.8430623608958 -16.8329020898134 0
-205.996224375688 6.69168385480017 -8.96092293755535 0
-201.782576635875 -16.860575291672 7.00963231369925 0
-5.82377223707389 -4.16493005559658 24.4421543918582 0
-39.1746881101607 0.256964189408189 24.0636598110038 0
-151.59844920646 10.8967709604339 7.36356918252904 0
-187.343549836247 -9.78418769258441 -11.2670042853493 0
-226.668693150118 -8.84653293583226 12.7285851091629 0
-236.419855301155 -28.1688006302068 -10.9684953831901 0
-85.5296467124092 -4.19140041604501 2.4391784322647 0
-107.480999570815 -3.87041057793163 10.0888258036995 0
-41.1805241047132 -4.14063268873445 3.98928444749431 0
-204.463524570149 -29.4846629857332 7.82199163842502 0
-221.379919231003 -17.2244056646352 19.3145804814793 0
-105.638114098242 10.2902278372448 -10.8934362272822 0
-61.072172055628 10.9704069925293 -0.99735946438009 0
-110.757903598843 17.8936329154789 -6.91008003831072 0
-145.304635472449 -4.01640823548744 1.15222097300789 0
-100.145759942696 -3.70729626086402 12.4486718200792 0
-2.53874753378585 11.5167717510865 22.1672983998063 1
-190.317312956543 27.6868871389886 -18.3443826022176 0
-156.432519129535 0.679381853223132 7.94576973910597 0
-109.913067948633 -3.01867332885407 -5.21936114480518 0
-168.652489105512 1.11179837875179 -20.8879993933811 0
-222.840392124967 -5.80673159582357 3.95211427967507 0
-182.378746712577 -0.265186139768021 8.57343155368261 0
-235.350644401266 -12.2562444210084 -8.75683651797297 0
-108.954252288355 11.3912594870404 -10.7753728573946 0
-209.291935871886 14.5188171681691 4.95477548591538 0
-87.6284733986197 -4.68721975033969 13.5558170689227 0
-71.8785718133646 11.430260384147 19.005697728852 0
-207.758292579197 7.12410147852016 5.82185039828536 0
-14.3551817441131 5.29332462091038 -1.65994183066313 0
-214.049422420277 26.1729730392465 -10.266713472851 0
-216.24866695834 19.7667557663624 -2.494955315401 0
-219.20230588146 -3.62967367918587 0.288708886102397 0
-109.406897022112 -1.17302231598016 14.3025360097819 0
-112.836611670149 11.1328246132981 -11.6469115296691 0
-211.507591037221 -22.1787249774268 -17.0599544889256 0
-128.745037018254 0.196681933662344 -10.7493169771322 0
-173.59888648956 16.251604501184 -21.2526771222884 0
-207.976910562294 6.14316125079125 -7.47525374648778 0
-133.481354256427 10.3938247272857 -14.325211652023 0
-186.585050269999 3.80268398601554 -18.3811058155643 0
-222.607111467834 -6.27255571580676 -1.53776767724855 0
-206.267880244732 13.4091384250384 8.61173309205377 0
-225.999608325835 -20.2473752010896 -19.0064129498306 0
-110.881212358564 -3.89752099230043 -2.9219637951239 0
-203.601741177803 -21.2967387991107 -8.48129062449931 0
-194.276755849134 26.1088017960753 -19.8672592167692 0
-219.056384411877 -30.9875683338113 18.4313128463831 0
-194.895264792147 1.67259650284887 -14.624180447236 0
-168.369416692012 22.1937310152513 -15.5267812782628 0
-124.555193836923 -3.76912097052891 4.54302431036289 0
-218.44950083933 13.6806696825424 -20.4613583718303 0
-164.952240287333 -4.19359679513137 4.17585334009482 0
-53.4093232580124 -4.23123395703347 20.8424198172494 0
-48.9589294774372 -5.49177511914738 7.81650007130177 0
-200.223498464372 -6.7375771536307 -12.6143447639735 0
-186.098610005234 26.4450029495822 -18.8295656497368 0
-226.200928946996 -37.5090528421192 -2.61066027951321 0
-160.775182197564 3.40459887430414 -19.1681086328516 0
-189.686627377041 6.78115162440931 8.20911260579526 0
-153.383029200216 16.220114103666 5.02999389134651 0
-199.588620023557 10.7590746807643 -11.282471226722 0
-171.032728823645 -1.19487528574507 6.72072774607775 0
-74.9150020723518 15.9819124351593 13.3206833147704 0
-160.1477879043 14.2727123573275 5.52283380505695 0
-231.576909940875 -19.5968778769733 -16.3441173094182 0
-93.4840141305582 -2.15464648897228 16.2363534248767 0
-198.85789150316 25.3600829914832 -20.7266390907051 0
-167.463929012396 22.6585156949336 -1.58793263490564 0
-216.419218426322 18.7621924615484 -20.0377223021791 0
-163.027229778683 -1.29491262585211 -20.6551821396493 0
-160.556612969979 -10.5927785839313 -20.8350918223504 0
-196.755725332541 6.87844450330707 -15.5455701160505 0
-14.6624578103241 -2.50526863621511 24.9140387017911 0
-198.45470834916 10.0942734132946 -14.6772871378458 0
-234.242707778826 -8.5292777467019 4.10767515515569 0
-66.6963724183852 9.50553679540356 20.5876000984722 0
-196.852577701546 23.8587057858153 5.60914609591954 0
-219.440916654104 -3.21070673030005 7.61971635925595 0
-64.7088097863508 14.4563067931154 16.8898886149699 0
-127.24493981629 10.5751678985786 -13.6717146328629 0
-150.05595394371 -5.39990842139435 -7.61063395944486 0
-99.838340990744 18.0007981916985 -2.76449333151349 0
-230.077852753268 -14.0907023999589 -15.2353248858276 0
-179.15494501735 29.5678633110198 -5.87469219895283 0
-230.243511819129 -25.143655003901 -17.0658307845489 0
-45.377036719833 1.76477123974488 23.8162279109456 0
-47.8294274750364 -6.68667667179166 16.6270695853519 0
-208.34248968004 -6.8805643815539 10.1373038483189 0
-215.395652923376 16.8549590697406 -5.64246709140006 0
-183.807040489503 25.5198783052981 3.71812383077156 0
-92.3897817074363 11.5551136969521 -8.13153174961537 0
-204.50748842213 12.9567748100302 9.94966956969991 0
-27.1666033620122 -0.327618591679052 24.8011253022845 0
-5.72724668868572 -6.40537999952983 9.59973071101532 0
-102.183148257117 18.7349903103732 -0.729485424679666 0
-64.3300548974404 12.9596148281746 18.5358627776288 0
-197.111396415295 20.1656348109241 6.96595753441273 0
-211.690866462097 5.46150695640202 -4.40010053106412 0
-173.602876293843 -1.99316575827243 -20.5459248165686 0
-212.402041557333 3.91952280737242 -0.419798295679613 0
-109.287289490869 5.01708209353156 -10.0776055625168 0
-148.851854492949 -3.64853104567006 3.55709740177633 0
-192.303555491392 -3.61047952978937 7.23607892827887 0
-217.498765975225 -4.53449631205093 -5.99169178110302 0
-136.927998249995 9.32674465105961 -14.3712986641882 0
-188.916521436216 30.2455035736031 -14.9318012816288 0
-210.623867086086 10.9286548025915 1.53220997131788 0
-203.493836695134 -28.4701974084688 3.26724348905012 0
-161.073686931227 -5.21708863505125 -2.16342268949301 0
-115.993134790535 17.7613963680967 5.26753484907405 0
-40.0833623534527 5.58101916750268 23.8878006801383 0
-114.093276608512 -1.76118136304427 -7.92165256702803 0
-4.98969477136723 6.80654029495779 24.9047294728158 1
-173.485967953069 22.3293545042292 2.11514107656626 0
-156.944268261247 -9.82548945686453 -17.0827118359281 0
-234.85969212073 -16.4684619957612 12.8412364663507 0
-125.304285839799 6.78088556718227 13.011678053323 0
-191.982028371542 28.7428152307985 2.08298277985913 0
-212.06208423214 24.5693719906189 -0.874468013711054 0
-67.9428078289522 15.8786766378677 14.0721709173622 0
-184.775764528762 32.7940062135584 -2.55500037245365 0
-200.310006741914 -15.6898875792586 6.8070113620032 0
-220.311859313682 15.689898182127 -15.4964628952933 0
-198.111943574754 19.5836647746218 -24.0155212983727 0
-236.156261301231 -24.5937697388028 -12.3565977767985 0
-155.545943130913 9.3421601104526 -17.1580389733867 0
-230.785770562125 -34.5158375074765 13.1275847415789 0
-57.0355100632979 9.45187391190753 21.5195424231714 0
-149.225054423126 -2.87366221753344 6.02339839326253 0
-24.8947167098514 12.0161252229114 4.86871563517182 0
-221.346559544565 -26.692531200382 -19.4473074560067 0
-121.357277248232 0.299892695133038 13.23629672515 0
-164.699798741778 8.79629657168212 5.83812382868925 0
-196.887429579624 -0.123121845183001 8.04489796645087 0
-209.137685882492 23.4750994833137 3.03899711334476 0
-38.3625934253237 -1.86220265459391 -2.85481706995624 0
-27.1494197150708 15.3093645897918 13.4454052558143 0
-204.109074770864 25.8274041092959 -20.0960292562962 0
-229.914796219128 -29.0938401182631 16.8570309916293 0
-182.907731913387 32.372214604431 -4.58098465556141 0
-207.721061870238 -37.6452598829689 -3.11593365635959 0
-148.823462035097 2.3631566643952 -16.0482086046415 0
-209.799283536557 28.1030738769295 -9.27259168441602 0
-44.798478443894 13.7419515791647 19.0465491019886 0
-204.284743692326 -31.9168904168421 6.29251249200283 0
-68.0068767962008 11.0409986406713 19.5506347673024 0
-180.817771829482 9.57093880780013 -23.3059616528195 0
-39.9568934699099 -3.62314614469769 2.68570772704858 0
-167.323153003201 17.6245863763187 4.05876219289078 0
-172.105910541796 3.1996000024063 6.54424290985196 0
-207.152392736834 20.7998283461811 -22.9733772640694 0
-218.311356344949 -3.19196414913308 1.82451023963242 0
-211.757604069895 21.9398589261614 -21.058564794726 0
-116.984729423697 -3.34412326923654 9.07224795142852 0
-34.7851281821976 11.8527796854879 3.70958500153303 0
-209.256745079814 24.6603760024596 -20.0155939529554 0
-59.6507103085383 2.98801857250589 22.7265546955964 0
-110.19109653398 -2.14415476265081 -6.8145977879958 0
-65.0172918904526 -5.85269932471124 15.9326356833672 0
-207.523184639869 27.2213709709883 -0.485755783708393 0
-218.832049581231 -7.52355551688122 12.5547710961597 0
-48.3372387943527 -0.729281142857024 23.2714631921522 0
-124.851404954667 18.3455377226407 -9.26468747193887 0
-237.851634230598 -27.6659275133853 -8.81561702351494 0
-216.065924030388 24.4209766011887 -7.72842446820417 0
-206.626336777728 -23.7241261850332 -10.7588859825753 0
-199.721224726817 31.5965233706545 -11.4102023558494 0
-211.078279396557 9.69131781296966 0.376639888428532 0
-106.227199367135 -3.25515766794284 -3.2672453125104 0
-231.528419606954 -18.1153859566801 16.3079574501357 0
-6.69757308274996 -8.15006223556414 15.880900687479 0
-117.166532100977 1.24916827036391 -9.91962435785486 0
-112.044356201529 0.983755750782435 -9.03362609280088 0
-70.3109642784591 3.57031792148768 -6.59865770661756 0
-167.898845886854 -2.83443125299795 5.82922747303631 0
-156.928976156629 5.05159233753031 7.46896149828832 0
-203.9325234515 26.3899952025985 3.09597563075215 0
-215.812020859656 -19.8449052007327 -18.8094492742716 0
-213.287357999605 -39.118013194649 -9.03038769301443 0
-179.183189591605 -4.55724595178891 -17.6667755886706 0
-9.02920948015609 9.07549225178333 23.8774276346989 0
-150.502133016923 21.6273131241462 -5.59164845483783 0
-189.477348314748 -2.36089072254181 -14.8808376478348 0
-193.775806014688 28.0591398213922 2.14805005161394 0
-102.054871476922 -4.63336592439259 6.48831881851018 0
-9.27877138086515 13.9985275282052 9.76022644939076 0
-129.098831668644 20.6473852477201 -5.19344570317483 0
-119.008163156162 17.6416949978838 5.24879317921365 0
-92.0561177485803 2.4643999335357 19.0065714419135 0
-221.609704781699 -11.9720292748937 16.6833691039725 0
-198.308462112404 -17.5069948598332 -7.61491129885101 0
-230.088995913327 -6.88581559819363 -1.45478997591703 0
-54.5127790176748 -1.31520351473376 -2.26573740743114 0
-202.308504179049 -25.5534735462577 2.20988321119734 0
-83.4964056582957 7.04192911583308 -8.27159783373761 0
-130.723698110582 19.0889104145619 -9.58174942794982 0
-165.385605860687 20.308736462044 2.02064438097607 0
-95.8822917549841 17.0721992383129 -3.48258091590879 0
-113.031209397782 7.70574380563217 -11.2518872416919 0
-175.244385331614 3.56238015207141 -21.4221804040795 0
-210.809701287555 11.9425394226922 -19.7364564334258 0
-19.4820637564663 -4.52848356667081 23.7130687524155 0
-233.859138350195 -18.2475686136734 -14.2779268086154 0
-216.8929306989 -12.663963605914 -15.3022288227932 0
-190.922031599822 22.8495905248529 -22.2270163755894 0
-188.448131332879 3.50620205651215 8.67239672090453 0
-85.233075123375 17.273336584466 8.29394186369325 0
-213.533942152478 -12.3875693218395 -15.1385739360175 0
-176.267200169483 5.02851002432955 6.3390297936514 0
-165.276620721245 -2.72485882903635 -21.3918332285769 0
-241.018480456984 -22.6765367080932 0.20461731049386 0
-104.234431015033 11.7608402460691 -9.9298395010201 0
-204.959496137791 15.4424313421146 -16.0445271268262 0
-216.082487512629 -13.4204349731372 -16.6773690565218 0
-99.4684340710755 16.3497122111702 -5.67983658191343 0
-16.4542112869405 -1.47402453200942 -3.1272335024542 0
-133.306620646655 20.9011792127901 -5.44249852271349 0
-175.808570732507 -11.366402813241 -9.09168256707163 0
-47.69959818378 5.38746768728619 23.4457854482371 0
-196.410897170991 33.4074533258803 -5.45657453787356 0
-212.107418157448 20.1769419224063 3.21857728013539 0
-47.1663268189119 5.29428801112828 -4.37283684069996 0
-216.506039551591 -36.6189531087709 14.1494456410468 0
-195.738792465168 10.7420370672505 -23.470490659441 0
-208.610046363554 -26.1391235145356 -14.1396611721592 0
-64.5047722229118 0.976168118407106 22.1378767528882 0
-231.239817218294 -11.7403375475682 12.9413388381854 0
-2.97792812449158 -2.69479186008652 -1.7754280009991 1
-227.389275142151 -29.1109539603673 18.0521234492595 0
-178.245082039618 29.4790934970902 -10.2175753681793 0
-59.7423229803864 16.5100916087792 8.85822244155559 0
-235.499080392026 -15.6469843902998 -11.4102712041006 0
-198.945161300946 11.1371660715765 -13.2438721344031 0
-148.451053207135 -0.253272036933114 8.66221452242003 0
-209.476528854476 7.82187953340287 2.80160475220375 0
-145.567915745498 21.4458238509453 -6.19349380362898 0
-175.345631727016 -6.60330279174067 5.0206668953857 0
-56.3001886989703 13.4034998015211 18.8591896060738 0
-6.8006528781292 -0.0202976047544801 25.521329311494 0
-195.164156183404 30.9099217375071 -13.8381743033742 0
-20.1637803387685 -4.29859573130818 4.41130392485082 0
-217.466380044146 -12.6688851089988 -16.5956505391053 0
-190.451518499148 -9.42679842253134 5.22395224805172 0
-139.752344312928 21.1102958188702 -6.57281713697862 0
-34.7783317680134 -6.47786087739114 20.5302581526545 0
-210.749283944493 3.81431188895903 3.87439644882859 0
-203.032033335886 15.5524440408661 -18.1838974577797 0
-240.293409801047 -25.8807159396167 -3.64524714420887 0
-219.287076307424 -27.0294434961753 -19.3273312743595 0
-139.957594855049 11.2249182859704 9.01539455858215 0
-227.083246453198 -12.8679971471484 16.2124380549266 0
-237.676676587912 -20.271590525573 -10.3735231788041 0
-236.270891265007 -18.2595037237562 -11.7069041679225 0
-226.132402070501 -26.3264317147429 -18.6816814267772 0
-170.403981845185 -6.91585002443497 -21.4394877356502 0
-136.030865296314 11.0067051919203 9.65347979718673 0
-207.297310081233 -31.8486078890893 -10.454730450698 0
-212.554358748821 -24.6697441002254 -17.8335962145322 0
-180.056455139594 17.8737697687325 -22.67066861197 0
-195.524679574516 -1.9273886607925 7.70580131116547 0
-189.89633641518 25.0234122702724 -20.5958807954709 0
-214.479757956173 -0.948267902391989 -3.41520164282902 0
-3.54280875938583 13.5221471554819 8.97423357241879 1
-188.416177112429 33.9487424410822 -3.62675173550819 0
-10.9090411430519 12.7061656281555 6.83381227697514 0
-48.6031295087143 -4.96591939100546 20.9888224505212 0
-46.7726379987211 3.20484674808425 23.740356071056 0
-129.89915353707 4.23225756903314 12.4896318345901 0
-208.808313969986 -38.2068565497893 5.22126253963294 0
-184.03118474176 9.22628095186696 6.71849206863774 0
-158.470586468153 -12.0935954508396 -16.1205661585473 0
