216.13068457368 -14.9262962397153 3.26591109558717 0
105.805912500451 -10.7333466460649 -0.293295889753333 0
35.9925205204297 12.4293390477732 -22.5727805517051 0
-43.2251839346678 -6.92656534760434 3.23061636070194 0
108.717545782945 1.21239222365927 -27.4959426015978 0
-120.268268565143 -14.2113038547654 11.0697434047375 0
144.272312398763 18.8577148261594 -6.24318087799064 0
174.833093416889 21.0968144989565 -10.4034637470864 0
-93.7132044232464 -10.7809647579644 -20.3266643025307 0
190.491347492697 -42.1739365241906 14.1034061857659 0
147.082207431491 14.5816658131477 -19.4703199854027 0
73.3492722540825 -4.39280079120861 1.75621544706922 0
161.48177577869 17.1165424750091 8.95587324868687 0
-46.1411358941962 0.434606256430982 0.41075160915887 0
197.912063044877 8.78804970946448 25.0727727942255 0
-122.641568647718 -15.415935585855 9.89280473513887 0
-93.9325012722918 -19.8963257487029 -8.86849875315955 0
-35.5970189477185 -16.023943792946 -16.5301956090735 0
208.033770080194 -27.0377029935391 -20.9572419310346 0
201.067143651998 -13.5936683396795 25.0607820152582 0
184.636811978351 1.01071343042372 14.9046059386344 0
183.799473840945 -6.42552583421337 15.1650984864047 0
84.6718599832063 16.7611844333097 -18.4138088678503 0
152.637530635801 9.62028092472625 5.68065915003005 0
225.157141988499 27.8965172167465 20.7471431741964 0
166.514883299053 -25.0720440805116 5.95568009572029 0
100.984419095651 4.16979783612269 -27.1396032055572 0
207.865544988923 -39.0958315191188 13.5274826670147 0
213.233592290134 -40.5667453560594 15.7483987631559 0
164.135385336101 20.23430796034 6.50613125553481 0
201.452949919572 -42.2840835236748 27.8551807387375 0
52.8587104694031 8.41362123256416 -5.34182959286346 0
59.6779211165401 6.67171309731571 -26.6086463709471 0
175.943623574054 25.8388104954419 3.26730663895311 0
209.167835651718 14.5628912446956 38.5883802146349 0
20.6647805316951 7.31037945458581 -25.9566409994306 0
205.3542641267 -43.2447978122437 21.8322723521614 0
-140.072786582518 -3.65797927455744 13.1686105366152 1
215.264409173465 33.0463485272766 10.9804647882244 0
174.564271879629 23.6074180776576 11.6073462005279 0
40.8039064869778 10.9709479793163 -24.1867618389048 0
90.9881254516241 3.16090172355933 -0.123110008990748 0
124.270199182553 -15.4475294400552 -9.09695075684377 0
187.825113717629 10.7828237843114 -19.426230786547 0
166.98833722664 15.5339612082931 13.269896808513 0
184.807332288016 -19.8219656749265 -27.202500539998 0
204.373795754507 0.837193478937908 -17.7483775497809 0
-137.492681623091 -16.2991239633284 13.3443910473354 0
162.359343078358 -21.5764335250063 1.72507164691859 0
-95.4450994136479 -9.37462581927451 7.93660152165326 0
204.046766700609 -38.6734668677984 9.14142396279739 0
-18.2273178036704 7.82356982660567 -7.20862816207399 0
179.914017731334 19.5284180975338 -15.1332641311456 0
9.13542557612558 2.9255646237549 -0.223096936452805 0
214.084447147414 -35.7403800541263 1.12130947625606 0
-112.532783524196 6.00895654692823 -4.66159132678898 0
223.582828358017 18.3827020640484 -1.64154970921422 0
218.528818005334 18.184011026666 -12.1510930774657 0
205.862012614641 21.3944636613888 -15.4395899873916 0
181.966201023507 34.0384909116517 17.5565813469706 0
-81.3908394874369 6.66740883827868 -5.65682965394539 0
-37.2092742479985 -7.7936117120582 0.209060735518874 0
-48.3692692496225 -10.5583600687884 -1.94014002797519 0
190.449205840701 22.1528440772466 35.6140098898841 0
168.826471402308 22.4132282307595 5.09686508727611 0
-133.646431056444 -4.89600886427709 -14.5590309830616 0
173.973627010161 25.3521095404421 8.59027668246438 0
-100.545464397578 -6.3531535802745 7.10441968927661 0
208.408973398472 -19.728914494513 -25.6959938489561 0
178.805947266285 -6.19546165614515 11.0462870549665 0
194.801043469686 40.6665767837652 8.5565436495525 0
220.429881546209 24.8098769461631 -5.87637995067012 0
-15.1454336868507 -1.65325619600593 2.31245899326575 0
215.053151765277 -38.6880811938991 12.0459816187459 0
167.50670306626 -13.375882609943 9.55696475474817 0
-91.3911949061081 -8.23882718864322 6.79002623470034 0
-119.249833143352 -0.907597422840473 7.69022884341811 0
225.706002682974 26.457094149829 10.762415894735 0
199.466109920918 8.28617280797269 23.4614307909285 0
76.2347338227078 6.78519200738499 -26.6808678948245 0
181.239115456124 22.8496181349251 -10.5153742156103 0
185.250728477506 -6.94821785373129 15.8671254550627 0
-94.5741671765846 5.59410005292906 -12.8359894871384 0
-55.5683643777671 -8.66736655131745 1.34423830122757 0
72.3744725653468 -5.79493037857399 0.729869610295963 0
-81.3086461875319 -1.8980621086253 4.28499721614949 0
193.9544781476 32.5892316602962 -2.52997712101868 0
-7.80424716513626 0.907047311603515 1.75341583359881 0
196.102784851131 15.1919243352286 -20.0379655532349 0
157.051002707519 17.5314982654188 4.93436862860787 0
225.506131359289 23.7858563572446 3.75087683670463 0
128.268809477515 4.1216629897034 2.25531763301703 0
175.959680676833 -29.7231826886756 12.8297828856451 0
-59.9831050824387 3.69724030319508 -2.39439583190345 0
198.933702341929 2.31058155505415 15.1892517498259 0
101.407675507576 1.10590562393113 -27.6443301582762 0
-63.8723715585522 -11.5294590803327 -23.4588576952828 0
221.820991929526 26.4992070899424 -1.5933264291095 0
-11.878756071541 -14.3823312832088 -14.0927959248471 0
177.07881553914 -18.9853272161791 -22.5593324661354 0
185.279827925826 35.9237044414274 20.5207402536139 0
207.059479646784 -6.65022570195782 9.34447064329605 0
128.811717462372 -2.79317342655337 -27.3580285616243 0
210.976739160345 -25.4744233420855 -21.1848631505448 0
181.139042977629 1.37106417097088 -21.9746341954909 0
96.2055938787626 -12.1652687954445 -18.0534393036124 0
203.061202052589 20.2814799293504 -17.0964284771755 0
179.503994741375 -30.8738499137977 -0.545061681221074 0
97.1113015551219 10.7701519794853 -3.86714679437231 0
57.5356355728499 12.7132656764069 -9.5660503255678 0
39.9442879110857 -12.9039786578145 -13.6222762027188 0
171.692995248263 -23.4696953880773 11.4556267582572 0
151.415661786119 1.76425970282469 -25.5535638589781 0
43.3457199473512 9.77516505232398 -7.05260781811034 0
-92.7018641219101 -10.9685242959473 8.44581177839496 0
198.787823333349 26.3685977301817 -11.3392850033568 0
38.1710665350395 3.09155194024422 0.618885425078973 0
50.0503639787689 -12.9248737418439 -13.4568728183052 0
-14.3612466314831 -4.34541163015568 -27.0602465608976 0
195.587533128997 21.8466858887717 -16.6608273108401 0
173.556990871666 -24.4123681196201 12.7120542008464 0
204.329095450063 21.6342193290279 -15.5818891711044 0
117.428852055103 -12.8807500917249 -18.7152222089176 0
168.602555451953 1.0735427563879 -23.1068538193536 0
-97.7735652450649 2.11683879464097 1.46509959028 0
187.15807410565 24.4674368978018 31.8549907391069 0
141.034483138162 -16.4999022485274 -11.353347356992 0
220.384557728937 5.50747165523716 4.79100176272098 0
186.76249897212 -13.8269867913687 -30.7914307046688 0
215.413940990024 32.7525640115488 9.36151727590495 0
212.868390216426 6.57568378900205 25.2478669205803 0
-8.93036667518601 -13.9563561896707 -13.1240655242311 0
217.131470983754 30.8875042266155 5.16836650981958 0
-99.4767984695056 -14.8449949063988 4.82443339669228 0
200.213693363626 22.1075731602473 -15.80947636046 0
193.045130750615 8.1398706109776 28.4578572488776 0
90.9355487484448 17.4249390290304 -12.513027628255 0
150.299766107508 2.30271570682205 4.39786083788939 0
-131.624064875355 -16.0465613961276 -11.2667584203599 0
-114.979402517236 -1.95409497936706 7.52320864799466 0
-65.9103384222218 8.20170465767656 -9.84430063161915 0
185.492586128585 2.87213893839921 -21.3574988370808 0
52.970506882364 -9.7770328054164 -23.3670469451291 0
-129.986415062229 4.04622739078106 -8.35313773522256 0
187.680817058608 7.38209083156803 29.852715325669 0
174.646733646387 -17.6889177586776 -22.8252169758591 0
58.8074443682056 -9.03818059755384 -23.8192481565949 0
204.477868380469 27.1158798830217 -8.95514847226498 0
193.722228956047 -22.8615464242193 33.1333308802823 0
214.858392986898 32.5734337118875 6.47977155994759 0
-88.8838128140503 5.16319099654246 -15.6469782642638 0
193.02858596457 -18.8912219935121 -32.4900434602078 0
187.077426237834 -40.3596687172 12.5539038903649 0
219.487070339165 15.8697087573035 31.404522957468 0
-87.6457843331394 0.708863203211436 -20.5707961991907 0
-99.4738700248523 -18.4331539682883 -13.4904047265691 0
215.413653096546 24.6702580855524 -8.87902671201815 0
213.70232260501 29.8799689066419 37.2624782638242 0
207.002964338864 35.6453066567794 25.4710469564161 0
189.24652853312 -2.46751646347821 -25.4630625384018 0
226.030304144314 15.2814134701222 7.57101850329714 0
166.019222242006 -21.9541300680392 -2.96840351887983 0
114.921328088935 -4.09464546435686 -26.8992746570481 0
132.593241338635 -15.1575758626836 -15.3035411131562 0
49.9854402101745 -1.95392373419333 1.84002588188817 0
205.124981511535 -5.90548051025418 9.56415236939432 0
180.613277360846 17.5101779882185 -16.8389358573518 0
-22.5512979500076 5.09247766235901 -3.47094160100543 0
206.60438786846 31.5186668964613 -1.49853470635927 0
197.047662297347 4.69527931342138 34.1135004884044 0
212.18363249281 -11.4778109803152 -17.7303402286866 0
207.300669740439 -13.5014355027751 24.0359996713705 0
93.9178150952312 2.09645710664758 -27.6808267779684 0
8.92171734548824 1.14885883079646 -27.4534329016601 0
-100.614695986227 -9.61185851948069 8.28765540889 0
217.32225401043 -27.4415990140915 15.6718307031772 0
40.2831841893911 8.11789721969444 -25.8054696258547 0
-33.4381559773984 1.29436109558728 -0.0173600882927482 0
186.188248178209 10.6684202816802 -19.1949843913251 0
183.093817425797 -32.4167768596675 28.9267787198497 0
-91.0521555006743 3.60229589439744 -0.572666175301178 0
61.4049430367862 1.49269390588434 0.549817827693438 0
-5.42221406089807 9.35106193540931 -9.37277295582366 0
26.8861869307887 0.0270254676395796 1.78427440238286 0
211.555267630274 29.0024415265568 -2.31529989673788 0
217.89647074693 13.2312287394189 32.3332006692538 0
170.229489422416 -15.6181892835283 10.8611157649797 0
81.5700485750625 1.66179146962613 -27.8270394762025 0
81.8943244692359 2.07327367928095 -0.153112975409197 0
185.116442453378 34.691068714469 9.61873007060906 0
225.788140559077 25.7009654645702 19.8422606886549 0
208.679098494946 18.864335943455 39.4499612342287 0
175.663127063804 21.0033411217793 15.1219820056618 0
202.544004465944 -19.7885169806795 30.9155450879843 0
195.782812651498 12.1135273108816 -21.8692146456478 0
93.5972122702641 17.9727475243133 -14.2880558181179 0
-134.718300627191 -10.4328006708813 13.3701610568774 0
163.029190595118 -5.78868349833889 6.21913911771017 0
68.9483657713695 -8.8585179186021 -2.80214004846565 0
210.401391218854 26.2338902715204 -8.76426706774314 0
-111.065372366134 -2.23098012115832 -17.7764107315865 0
22.1153230654262 -5.02544171857663 0.354743948520879 0
192.839997441418 -16.3933822319547 -32.5684168613627 0
172.201297635198 -13.117474417719 -25.7740344616306 0
223.678393142922 24.3482227607782 -0.645432211298663 0
206.148149525681 38.2710762761268 9.39957811217595 0
140.863728029119 -14.9410754832672 -18.6528637269323 0
220.150219277038 10.047315752483 -4.48758397161669 0
198.904754776872 39.6050091920935 8.12329505970888 0
14.7759236681738 -12.9327099622072 -12.397058081925 0
180.928205056442 -34.4273553795548 22.5704144494926 0
53.8586736741256 -10.4826967492006 -6.02828635927765 0
209.448273659464 33.7882076263103 3.22530464151816 0
221.542887381599 25.1461077746248 -4.27748773320478 0
132.139979120033 0.851188070036685 2.68277723368364 0
147.255756213489 16.6491862886346 -17.7602503936885 0
173.908933927559 16.1012992540352 16.1714277846759 0
182.090416473691 -16.5783824369031 -27.548049708072 0
-82.3568757526048 6.74873110597053 -13.6180455436546 0
179.722834190212 -33.7348134950957 2.92995030313605 0
163.342853050856 12.2938170350559 -19.5768114209706 0
161.718463248265 15.6766077305779 -17.1463560747463 0
106.474629390103 17.6962224815054 -10.3575076584928 0
119.482352698787 12.7184643605905 -22.2109416440765 0
165.210661888754 3.88692094387117 -22.868913495307 0
-81.8619711361707 -17.7813302989466 -15.5685648626322 0
121.391216355063 10.6819112471388 -23.5246969935069 0
54.9257445786551 14.0539322104394 -21.4622255597676 0
211.760413911471 -5.3768332081361 7.14246526203987 0
-122.425271064023 -16.8689606414412 8.15647612450001 0
210.45223732582 36.7921272844388 12.6280787176838 0
199.484667408894 -35.1960899025342 -5.49732270815008 0
20.7454706427624 -12.1504333010808 -10.1813516843139 0
216.085818457838 30.4015851665186 3.01566772807766 0
11.1413687376947 -1.76143779136708 -27.5831111800118 0
-6.41543069966991 -12.8093922299841 -10.5442135974727 0
191.056375959428 39.0642691061077 24.8476725587891 0
225.257176757369 25.0385406270274 4.69646243459161 0
186.318969478304 -31.7367072887254 -8.01998005109476 0
-101.29487451973 -14.5763114826566 -17.052036612124 0
175.662855382233 -0.285273899000008 -21.5270355607206 0
64.3317720079331 4.30481472293571 -0.730528554639597 0
197.082747903539 8.79235645756374 27.1429232996274 0
205.703360773125 19.1030363153468 40.1184199205212 0
-17.1530422430042 -15.0049335027572 -17.3550098320813 0
218.355994917638 8.91567710162912 -7.51597575240187 0
219.972883856329 5.61530684799146 1.04586309177682 0
-72.1636983769639 -16.9719794124891 -7.47929340707057 0
194.007131381922 -15.9873726356472 29.4672232258961 0
188.591868112318 -14.6689099953684 25.9569781177334 0
182.287054825965 -34.56772395372 25.1617289935656 0
154.19577676936 -12.0277235541136 -24.1777293103893 0
-139.360142999958 -6.09830207826658 13.5918338696763 1
17.3315109461164 -0.136983564518841 1.6239853281183 0
129.232182357219 7.91867234305035 1.49283690481726 0
208.252993426763 33.5221538017047 2.51964019151274 0
13.7537224570879 1.92288377768391 -27.4466859360288 0
27.7415151507706 3.5325816840058 0.156304605466811 0
212.99495210735 -9.6825695932652 9.40347053785236 0
-28.7871162264296 -13.7668763676131 -10.101992567828 0
173.297307545873 -11.9737548070969 -26.627635875457 0
205.202359496907 -4.01621414587032 -20.4863128006337 0
183.779590714666 1.13547863443498 -22.2214522016395 0
-133.388154617125 -20.7224101858323 4.8364927268135 0
212.871453781034 34.421381055409 18.6593037006426 0
209.973995825595 32.2010614760402 2.71201028999128 0
78.7922854032265 9.12864057085275 -4.50926058027367 0
167.702500926111 -4.76505459497632 -25.7963616479544 0
169.443692998832 -24.1997814070986 10.2723542070249 0
-46.7267441657312 -4.30839188599906 3.20925405602103 0
103.234110729874 5.35922410751857 -26.7141042508318 0
225.390095405951 19.859853792152 2.51638735816983 0
-28.636817290331 -0.366305768255476 -26.8048140495742 0
41.6984190804917 14.438553055025 -18.8742422505785 0
-131.852055699056 -8.51558071950652 -14.3217444235393 0
93.1496635176299 -12.5688337611826 -4.74240500871768 0
163.686608266373 15.7651375557524 11.3088026334272 0
-123.706828754756 -2.09656669547513 8.83587358979891 0
168.674201926453 -10.3105879427163 -26.3131027371797 0
194.878586197452 3.54599283606433 -22.7517364328482 0
160.533560022983 -20.0026967072118 -7.87137310521606 0
-138.234397757419 4.13413445839485 4.76438836171971 0
-35.4429283504332 3.76633445190541 -25.3794993742591 0
-92.7142373540465 -1.35189228541018 4.12602193032622 0
-64.5989137901042 -16.1952164572723 -7.90998212699285 0
53.4695682298131 -5.26992528742057 -26.4489760450502 0
-9.60756833318327 10.5664330487165 -19.5196753871992 0
179.089536783773 28.4762019079869 7.76063589938538 0
160.42102262768 7.07868807000931 -22.4605513962629 0
64.8390357566977 11.9600014485082 -23.7829379290992 0
-19.5314768511653 10.1899448368982 -17.4160827251067 0
-56.5297439748813 8.61003063957536 -11.003952917095 0
166.371924924277 -20.2069603943944 -14.3733046104527 0
216.440140941326 -26.2601647814535 -4.39683108921483 0
208.099089776665 -21.0512463580667 28.7065741744414 0
183.116057549975 -10.9373139979456 15.3623256564135 0
-102.300469930516 -9.54887428838969 8.51309014154186 0
-65.8228162742811 -14.0962197839273 -3.56902362886498 0
165.840868968898 -10.0019623655932 7.35416620311149 0
-41.8989938310795 -0.559501005386404 1.82183828213936 0
179.168157163763 21.9469066965013 16.9372071987174 0
225.664680336963 14.5816520168764 14.8176659853081 0
200.535592830956 35.0573898075066 30.8818895277626 0
60.9442148310583 -6.14770383402481 -0.689958261581612 0
195.733447573014 -14.7099882902995 26.0335275620234 0
188.432950581106 14.5365350714431 32.5995160617356 0
4.97699760411821 10.1684305956638 -10.381661789211 0
54.5178637999482 14.163211155924 -12.1925509273899 0
32.7121873031517 -6.01620251878782 -1.77677935868236 0
-96.351621076147 -14.3196297511038 4.65713001667862 0
216.771453407792 -19.6631111660367 8.84043556242498 0
74.8333131529461 16.4208349321714 -18.3242065376056 0
158.270066260371 -18.8132103414943 -12.4330414997703 0
179.052331586427 17.5582152462995 16.6922215507242 0
81.929979850179 -9.09657240711449 -23.5183096761108 0
175.327812228703 0.33490590782324 -20.5900251076081 0
-42.8336650153345 -15.8319905586825 -12.6518213061257 0
198.86930197128 -32.2396856344383 -11.2960230979291 0
-102.895522361328 -17.9302369882626 1.00235800735178 0
203.5627821204 6.53764052965751 18.7654584508073 0
164.657444047749 12.0989352594147 12.8925359878413 0
87.3669842523483 -4.48163939092282 -26.6793418737808 0
197.042814108464 5.34597049607661 17.9406161381489 0
164.521092914418 9.77462157397664 -20.6650288462744 0
-37.7329332945223 9.10027640400231 -18.0535260940584 0
215.154873544582 11.3822412287656 -15.2175509055976 0
197.172743920612 -8.43816007726912 18.6728711709036 0
-116.065967018014 -18.7083884675229 3.46202919579511 0
199.609767750435 36.7401605798452 2.71700383686302 0
50.6610373770993 -4.31931855918373 2.01280094606055 0
226.5871388815 22.069142367737 7.57447599418029 0
223.608443897145 30.3087314210637 24.7728266324586 0
-100.87032789982 4.28010474937124 -0.462951558834008 0
93.2908996819316 -12.7602171577458 -16.0096922460126 0
201.489547642428 -17.9527854225373 30.451300363793 0
193.474882368702 -39.560910163098 29.28275280958 0
185.942642845276 28.1101703235024 -4.80120758703026 0
-76.0330375007602 3.1650905847037 -20.6733674993422 0
207.701318463814 -36.7358112707192 29.7298081338065 0
193.385894002541 -11.8616952546223 22.4544094368393 0
-96.2148799684221 -9.03341327577379 -20.5833587714683 0
140.357329843057 6.36013483062034 -24.9644030667759 0
217.400102786689 15.4832489040811 -15.3503198484661 0
-129.205220465243 -17.1947857678113 9.63640646337839 0
195.735710757348 8.09635989370411 20.5623092669053 0
2.94523356971934 8.48813449711275 -7.49236442594097 0
191.958425489378 1.17745020368683 16.6483841661786 0
-121.818494189012 3.04050643125075 -12.2003075501806 0
-15.9558901907715 -1.85871186305723 -27.2073794700427 0
45.0644300667692 14.4588359568975 -19.8397425161346 0
142.31925947816 -13.730785284576 -21.4184100856478 0
7.91428509546859 11.7917496653911 -14.7029404101919 0
178.851336402802 -30.4939615664012 23.6808111952715 0
201.559634266896 34.7098660066226 0.355938207604369 0
208.872581011904 34.292981125409 28.7617760174375 0
-27.1308104444859 -10.3183466632866 -25.322511855338 0
140.642279062981 5.49988039190883 3.49925401448856 0
-5.32786207190354 1.19417388237687 1.52052944895951 0
48.2571316618464 -3.89759299795656 2.29516334901304 0
-111.49878175638 -21.5381205741243 -6.18931675069929 0
221.077197376241 31.580992365022 15.2258682726339 0
192.383070252237 40.0032926876071 7.75896659816718 0
218.315581410574 32.1190328999994 19.2646473110224 0
225.875705469636 26.5141537850451 14.4259568850707 0
146.355810744838 -17.3925821353324 -4.35495127383713 0
137.944226893462 0.477345343227351 3.2022288759251 0
182.841495710425 -33.5981891681929 -0.96181062116537 0
154.457841838197 -13.8500252322952 -22.5064503962739 0
217.799923926819 -27.8135573823141 2.73119153073411 0
-15.0359868377311 8.96623284769023 -22.4928223512087 0
131.148995933728 18.4633067663296 -15.3977514705219 0
-84.3123877215569 -7.18800699625349 -22.7272294822955 0
219.488361806454 5.07653295722326 8.86508786241681 0
183.62907229829 22.4518053565714 21.4360030348761 0
153.409680680716 12.2573138685729 5.9032277987376 0
206.218074495974 -25.8875744114159 -23.4565033389145 0
210.880741361222 25.2271995064796 -10.0484054335565 0
189.490066229677 10.0191524545401 -20.133855607883 0
15.6134272115139 5.20979092483771 -26.7179545555784 0
223.016503952406 8.21900784695244 9.15509548022212 0
172.807301990371 14.8430315056244 16.2136568133678 0
-119.461444120327 5.54324735680274 -5.27779578151256 0
121.262410590106 14.2305779314401 -20.9319490652134 0
192.594958221141 -40.4193769489202 2.71798955202293 0
92.9296461960976 7.73647802032738 -2.14926484558928 0
-139.530517365835 -21.3837734454516 5.34978510147801 1
82.0073124183986 -13.1924182286398 -9.61155625403471 0
124.10038635971 14.1760181593238 -3.55377856990525 0
187.028551685772 19.7162041201383 31.5559155395377 0
37.7691936073712 -4.27392026971869 2.29577963951203 0
-138.527655697056 2.34281835670133 7.34066989475133 1
199.050449327198 -14.0565718776143 25.2446696487141 0
203.671347949806 -7.21656353758526 -24.561242605397 0
224.514096165801 26.5168229002675 3.83004729778502 0
205.204148796496 37.2076232747263 6.81463671000748 0
111.776652492785 -14.6547070500998 -7.69794349941549 0
-33.1055338042089 5.93731830049159 -24.2159825256412 0
213.735268226331 -8.27915524819184 2.38749717318296 0
176.928684017684 24.6849476996762 -2.65849050048326 0
200.612311205495 -15.7623113983579 -30.2804563520095 0
191.071449997623 -14.0157008166999 24.7175207658546 0
212.157172828935 -11.1432418643726 14.8590045297674 0
55.6654557383359 -12.5609324015756 -10.5279733137199 0
179.920047009418 15.7772484057569 -17.7708590988693 0
-139.24571861341 -22.5502013267615 1.40857546096781 1
206.277807863427 39.5361832966161 11.4643696058063 0
109.79306685914 -12.9566696792999 -17.1801588008848 0
182.521268276609 0.106646881820472 13.0720987181869 0
177.224381747842 21.5463012211395 -10.6498116092221 0
126.13349313041 -13.713589340017 -18.2135896815243 0
217.014253029357 -19.8914769042258 -4.76098245855415 0
12.5819502179753 -10.2234559312146 -6.64255709726921 0
99.7633008841859 7.28744054564904 -25.9245677400288 0
145.054497993941 10.63253908482 3.54190987169099 0
-3.03984189054767 -12.1769247092114 -9.46792394533255 0
87.9323701953518 -4.16895253963384 1.47432854881361 0
221.024409310849 23.3199007849852 -4.61572712728095 0
180.12006543698 3.87036409981095 10.741373435445 0
31.2092508572525 -12.7701425568409 -12.1757134753675 0
-82.4937106663651 -3.08807059147447 4.49548451282729 0
196.820911052531 19.8674487039836 -17.9701607132825 0
212.862444221293 -12.9365953638685 14.4630509207439 0
103.529511670083 1.14857906296096 0.622916641571821 0
-65.0616113795655 -10.5554777640475 1.38321299710472 0
223.68848810465 14.9745194874358 -0.321428388773655 0
200.793836819968 31.0823692234331 -5.10420552077982 0
200.743925543416 33.5371340707962 32.9019109264316 0
202.791519579803 32.7555911528662 36.8300069549916 0
-40.2472377941772 5.93459137423165 -4.9094651336722 0
209.92602514774 -13.9915455422954 21.9449013380552 0
181.776125106391 -24.1443888214972 -18.8265565548421 0
-34.1959162806988 -10.6488853817031 -4.0101899190436 0
191.707485637179 -39.8035567113362 19.6393904766101 0
208.366320134276 32.9576353091183 33.226402028971 0
174.45590855514 -28.7444821852679 3.30203038766847 0
9.46126915496894 7.7101855786275 -6.32819085282523 0
213.939962839725 -2.8333907588039 4.86854175937811 0
207.169448536698 21.0157856842583 -15.5250912156718 0
225.656484122993 17.8356118790965 3.69253526314296 0
187.780684693488 -8.2311005744119 17.2391224176363 0
183.112029485142 10.9115416011355 17.5431846377162 0
149.130415712535 16.4315195870209 0.39740454260999 0
166.489616767444 -21.3042285172305 9.10600490541346 0
182.179999413084 -8.06812950009992 14.6285680726284 0
71.4126476712119 -4.55759029806411 -26.7065333284042 0
184.606290021956 -32.0501874436012 -5.56772916165554 0
199.225559563083 36.2159759011397 29.0040704428668 0
159.105781175831 17.9902645234315 5.85502763728646 0
-4.11046235844264 -4.08386670955427 2.66696243093361 0
172.468359692003 -20.6724353758291 -17.7977403134992 0
-85.9648399796307 -11.6464211146916 5.73747940101492 0
65.8464740178227 -10.603577694781 -5.30916463869925 0
208.944239397881 6.33926799299107 27.8866954635217 0
201.6842381576 6.56238999866676 -21.154224603255 0
137.868967577986 -15.3405465132519 -16.7096379616786 0
205.978240223759 24.0725781454056 -12.7446082653185 0
166.054855678819 -17.3821946100511 -20.0137536050356 0
-99.5562735914216 -19.5715585778273 -2.6625490439777 0
-82.8823239823097 -14.1569573623856 1.23262516721872 0
-131.439384260841 -2.74016648992274 10.5536995625781 0
172.19967118024 23.3082688133449 -1.21788902883236 0
158.606388897327 18.6651951136093 3.0846497950645 0
82.8059278911898 -0.970851132317567 0.579252728216743 0
149.996465332895 17.182336009744 -16.7753475228193 0
222.726943948762 26.0352245239236 -1.92221621642774 0
173.736126149182 0.358756104170486 8.66523322933653 0
-30.6814408512988 -2.77542417336915 -26.8157825416625 0
185.662118750718 -40.2006508893965 12.5004951215441 0
43.3673702292337 -2.04586036486147 -27.4900608535349 0
169.992550146205 -13.5722899384967 10.359882661155 0
139.711505184429 -3.72229371086844 3.58462571386384 0
176.087858058617 -11.9082572962129 11.0624254857444 0
182.523410951151 15.9356545434272 -18.0487006985422 0
199.421393788098 -31.5953218722951 -12.9067971731326 0
172.314313771658 1.98557618995062 8.42930704598556 0
176.91649462676 13.6760954373056 16.9064055027923 0
192.150769183124 -38.8630426122462 24.030243033359 0
-47.7027460414968 -0.96087615801615 1.65544535988929 0
-135.235540469454 -20.0530665482717 6.89672758849523 0
171.874497879119 23.8827435332612 2.80636077420889 0
205.077712884504 -14.2298379628346 25.867525676204 0
183.172639501051 -19.238950587925 -26.4131196768842 0
182.863680883843 35.7484142453701 17.6151450115923 0
212.965375775436 -39.9021742013336 10.3404073697624 0
-68.1978654386727 7.24015617544567 -16.4148113674699 0
-42.0466095582187 -4.66230732024811 3.67265966849714 0
184.783147105056 -37.9057038023598 21.8568288917577 0
155.209444763469 15.07152993991 -18.3651081966834 0
-79.1577716962939 -15.4111598550541 -19.1877292567003 0
213.365436839516 33.8940487981628 8.96645911338757 0
-85.5270480681523 -17.2122059305717 -3.05807836682886 0
69.1777604620392 -12.8764425727255 -14.7887773887329 0
188.663759430494 -17.5345042236869 29.0763563152177 0
-11.1231604944151 -14.6910390004446 -16.6044927325147 0
211.293294178976 -41.6678398732584 18.690999182 0
-5.66828737208893 -10.9556246124457 -7.16496363256859 0
190.710185062806 -32.0096791846145 -10.7839848863698 0
89.010930851386 15.7549439796759 -9.69348304401715 0
210.699828472875 0.298255469508603 -11.4755864592835 0
160.166647987714 20.1632724481675 -6.22686211074354 0
168.884750396037 20.9140607207701 -7.81038156590769 0
-34.9057112325045 4.03468121823855 -2.72048400118585 0
-108.823834764447 4.62563435111562 -11.8643753747129 0
8.20439971730244 1.28440981943486 1.51945317849052 0
131.096263938101 -15.8459009741256 -3.43405749290667 0
58.9879310750263 8.3423907542487 -4.99602877932164 0
-23.158736834403 -2.53264694053689 -27.0173364226914 0
63.3257891397147 -11.9365888831846 -8.15320822831832 0
160.212686872792 -0.293696969911801 5.54707728722349 0
176.955160275028 7.93012184183352 -20.3292452919212 0
-36.6545748954717 -6.48540601981735 2.30519941246423 0
135.937107500374 15.7663985577968 -3.40412370550953 0
71.2893573499344 8.70356792154659 -4.51238692609954 0
171.303362273921 -7.89422702103351 8.87272256852351 0
179.260353442885 -8.95907453361731 12.5277730005031 0
182.54896201672 32.7569843311967 11.0146727272642 0
216.420144831515 32.0885470766566 10.5638474096088 0
218.131640959554 -28.5785268627484 6.92388945933655 0
197.192277571639 -7.55269230416321 16.3661369583674 0
131.33964145174 -12.6814387043998 -21.4056739495149 0
-54.8585051378552 7.59600692972677 -18.2623464121375 0
139.218492060301 17.71700681326 -16.6727511873383 0
226.739537968676 23.190967674656 12.7134504141826 0
194.040004776454 20.4315943175081 -17.2523467940864 0
210.591571069506 -29.9122007774012 28.9343718425783 0
80.4121890543801 14.5012071695992 -21.5491545022694 0
173.617159165203 10.710055449977 -19.8230618225401 0
101.050992345019 -13.5476202591348 -13.0094565844183 0
211.624351943615 34.5946938402262 22.2243073599796 0
38.6963246023763 -2.44073680971136 1.96143941245656 0
129.195755106081 3.52986596446974 -26.5767117503195 0
114.884769529931 3.53372217521596 1.08652709871478 0
-5.44351621202041 5.26368286803102 -3.35436098446077 0
-33.4256030997859 7.5710883828676 -22.2133835813965 0
224.880889262583 29.9795360726114 15.5535769908324 0
41.0292047943922 -12.2753087493148 -10.2682601554572 0
186.257224235615 16.7535676578815 29.0160651924102 0
-112.051994065831 -5.71495824116132 8.17798692811465 0
219.156524755953 5.93048231607663 14.461789104295 0
187.492110645412 38.4691620701621 18.4278244613036 0
196.773065910109 12.0882859150305 -22.9073684363146 0
207.81452754083 7.48065731886008 22.1766605204068 0
129.588185871479 1.83990319611821 2.44417738433643 0
215.536092612188 -13.0927814067059 -2.02638493273155 0
140.764355546747 -6.00783077827892 3.77653097143189 0
-79.0315535111212 -6.22313356870175 -23.4591400415806 0
-40.6721101608673 3.59488966218114 -2.36158787303091 0
209.764044559826 -10.7731753205767 15.4608453088443 0
208.324875109699 -9.97008995346654 -22.30028924585 0
119.083843627861 -14.7116406430457 -11.7579198107182 0
202.735209054844 6.83027087616175 29.8247047751602 0
130.411608186355 -4.28734678133919 2.87062740406191 0
-128.285452429836 -14.5599941519243 12.9929899251514 0
120.275731431139 11.2508555405128 -1.78705326073931 0
-24.4927951559694 -9.42286740194808 -25.7620432602624 0
-134.701602227089 -8.20307624086924 -13.8796673059947 0
181.123368072096 -39.4522721120108 8.63180999331517 0
169.717511246751 -8.20528604311079 7.84602662258309 0
-108.150563304739 -7.93902393303737 8.36761291690672 0
-89.4434476971673 1.7797421443057 0.945561918768875 0
159.394221754865 -13.9071509579311 -22.7742203548822 0
104.254345010346 -8.66805659650205 -23.8537434237667 0
76.1819903937375 14.0566482175021 -22.0399957028616 0
116.267697672378 -8.961959760214 -24.2536558895828 0
55.8843078024912 6.05786976345025 -26.786701043 0
-128.438320061698 -13.5322404619701 -13.0083235767106 0
211.076892439925 -36.2555075603127 26.6752108832977 0
-37.1857766471368 2.07899251404393 -0.955805801153785 0
201.324542078693 31.3483573835131 39.5041099286536 0
172.030333013251 -2.58604853173237 -24.6224468303595 0
166.551960750379 -0.692241702913728 -23.6421578565892 0
-135.512424167138 0.40685858266448 9.12333385752144 0
171.110056310948 16.3216343529972 15.2319794994033 0
-130.965962901173 -5.25761197955392 -14.9457466630318 0
99.8211039969299 17.8766267176935 -11.7072057489463 0
122.919909749646 -14.7686868815628 -13.0356699486829 0
-91.1381585933554 -6.1120697465721 -21.9012835095452 0
215.631985724988 9.9643818278513 -13.6517068441563 0
39.1740702406547 9.47611686448043 -6.9477619027091 0
-31.7937036712165 -8.41597610009738 -26.227056300278 0
178.392253902159 -33.3052309666569 15.9202401318432 0
-129.017235974521 4.84357408927622 0.662701125863872 0
226.94821540282 20.9026615668608 10.4978217241781 0
-116.101876363717 -21.700193691428 -2.70502576859683 0
6.49313502619786 -1.8247019093763 -27.5124586766082 0
123.693073456557 -2.30625924778439 2.20959955266288 0
163.269265873135 -18.859487559851 -16.0347197669688 0
167.890980395459 -21.0221696544626 9.76701032616812 0
168.479137150563 -25.3053842783693 8.76897744418067 0
164.64292983075 20.7373157243165 -5.94536432017613 0
215.348841990536 -17.8834568886559 13.0229266655467 0
217.610366344474 31.1579908753033 6.4624499620224 0
215.964017658806 6.3559794063243 24.5393086461062 0
195.749717482096 30.3718682670409 38.6624793128873 0
-81.7400763820748 5.0218879884868 -2.84457268297399 0
145.646459141373 -17.1441567010195 -8.06329640663641 0
38.9675806604654 -6.37808003720615 -2.04656451214639 0
201.04225025206 38.9639279015912 7.67016348994419 0
-8.5980352312855 -2.93138258354931 -27.3297534868072 0
-40.2787340464793 -8.40331344605333 -0.196422489612114 0
57.3344465543873 9.99320219349078 -6.59659603784557 0
191.145178064053 -22.0211875365418 -28.2061112132383 0
201.200415694203 -40.001778413583 4.48370683050186 0
71.465728685093 6.19081145368412 -2.54292608413573 0
150.64508363487 -6.14485622814412 4.82686315504101 0
85.8525022019265 15.8152727473436 -10.3073422827679 0
154.795083536521 -2.0512462595726 4.95404498573801 0
226.057535917909 25.7985110610578 12.6151948492819 0
-136.257497896468 3.96054722689188 4.58280754616368 0
217.893568188687 21.2060066897728 34.4432317378514 0
167.162235706038 -23.7831030397615 2.58263358334797 0
205.033298387569 6.4083109520931 29.2185141181823 0
-44.5696403703674 -16.1803323012974 -18.4417210611676 0
164.931816349769 -14.7442126577166 8.53478672745155 0
203.284002500466 -30.8236748633535 -13.8912781433683 0
-134.511092587072 -1.33858404489524 -13.7877258359155 0
197.344056962811 -13.8839002668849 24.9752145926952 0
-87.0000413644945 -19.2447723454638 -9.02375578577921 0
192.056900963653 39.763498451889 23.2456221418162 0
188.217314089999 -29.0720912054474 -14.9838189403955 0
224.00846011099 30.6982293427853 14.1141316075663 0
-119.130709461484 -8.92301387039439 10.9373319856589 0
-19.5102542112828 -1.61972350364315 -27.1154259329542 0
-31.8563045206003 -0.280545706354767 1.58322917232164 0
-83.4349577188925 -16.7402041318893 -17.2245626369343 0
-102.165770907129 -1.85466947303211 5.80989680414989 0
190.39950098091 13.8244858472608 -19.7706287667668 0
60.9790176620511 -8.81978909377851 -3.34193681644772 0
-33.673610437241 0.985893386566363 -26.4166379988857 0
194.285458386474 6.19422867814415 19.1138631274123 0
180.59870575959 12.5653050828316 17.1571307026844 0
-0.00493176118189128 10.5731861412127 -11.9993314258375 0
14.752626103175 -9.62568347856444 -5.85679572085536 0
212.628471753526 -10.1643680661148 11.2754691875932 0
174.35925203273 -23.5300254737232 14.5265568752586 0
180.243798972023 28.192602720849 3.01977174426533 0
212.221931223347 26.5440785819792 -7.43497297823167 0
189.817164622353 9.46166983586231 21.6297332156386 0
206.624031642846 -34.7837834052677 31.1392854290929 0
142.863572610885 6.78978790655227 -24.5604513218132 0
79.530238595231 1.49561965607694 -0.0541244857434973 0
115.970083388576 -14.9575585265762 -7.5911652890859 0
172.987713565085 5.3589858366682 -21.3701692332836 0
130.212234200178 0.131840268875342 -27.2179176958033 0
170.337595219294 18.2004318436026 13.6729411889392 0
204.803815951576 -39.6770716336185 29.7913134448469 0
-137.12556697912 1.26501383736754 8.40799626958293 0
140.007225258814 -7.77493777784733 -26.2808753730546 0
-135.929668939892 0.486290546049693 -12.7574100175443 0
210.37291864359 34.6180647181829 6.47379286940891 0
223.947892350378 9.32786455196633 10.908572884244 0
152.302999756671 19.1594013017559 -4.02929655481441 0
172.522916745856 -19.4112219207495 -19.733400570616 0
193.968967748425 -25.9055293039224 -23.7924498263453 0
213.211335217748 -7.12562137793099 6.46433614810984 0
197.374059739614 -33.5523476660076 -8.9133860631746 0
197.654837121574 3.74284478374733 16.5197557956018 0
95.0703631647357 -13.7074047689401 -9.62222017618646 0
120.12417207828 -1.65377501250161 1.9254509921882 0
-141.573470568507 -13.1972158953896 15.6640175796511 1
31.3140087552961 -0.862572616422809 -27.5662876950318 0
195.203769173418 -12.8103504643608 23.1034353185474 0
166.579932025402 14.1323431905208 -18.3304051530083 0
-38.4218708766891 -13.5564644652416 -22.6511862777677 0
67.2154289368208 13.5929086053751 -22.4451037365416 0
127.925615183529 -14.3614702964792 -16.681252385008 0
-9.79080460389341 -0.425169437815942 1.99446697028617 0
-125.989813790236 3.79252372451564 2.86825741921016 0
-52.9059340384501 -8.59695545491341 -25.2770389288377 0
-130.663186373375 -17.8732972962695 -10.2703947685752 0
2.27141502545037 10.169710416669 -10.6078006717894 0
222.778393031626 13.891229293378 25.2220268474807 0
161.032571114932 -15.515417299714 -21.2090445422517 0
211.064773890701 16.5891020516505 -19.549697215496 0
131.217489420956 -10.0482267711601 3.38090026926729 0
-137.976490578304 -21.5293117461223 4.42177153343855 0
65.4801249883471 5.04963061389197 -27.1721234659894 0
34.3127941096232 3.19829568773361 0.840487645511173 0
-72.4799659752494 -3.36926634732601 3.93771037376884 0
-114.135640534725 1.40555588804746 -15.1567597799907 0
205.966421377311 -29.6705017927989 -15.1710707750845 0
-57.0711156328376 -7.82335015280961 -25.1754611237817 0
-117.277059010459 1.7374237391969 4.69103994577254 0
-38.1981083130843 8.06139390283833 -7.98889157946082 0
183.727776241164 33.0361734542201 9.34563288270581 0
221.464640442819 11.2657868739398 -2.80822968032716 0
178.965252466837 -25.4442248514235 -13.5009539923041 0
-68.9483583957224 7.78401487271524 -8.15351533841998 0
-133.810868385201 -21.6981904651135 2.36665086814029 0
221.83793469125 7.15796844933621 5.6325127956264 0
213.955281550438 7.11009371404997 23.3350827556635 0
187.769258002375 -21.8951030893968 31.342458880055 0
86.9675811534225 3.54301036244013 -0.415803658830072 0
226.654790460865 19.0138630589168 7.64000447666435 0
191.966360679815 9.93092133035128 -20.6522811485699 0
-70.3144915891026 -17.5756522038164 -10.2455650455818 0
-20.0054344573076 -8.64482685714701 -26.044151308737 0
170.697912120444 23.2618358463282 9.20017777267012 0
50.0589503260704 -12.2624883002384 -19.0247055193472 0
140.470932329115 8.5332772467946 3.10830149066138 0
207.390537365899 38.2374684234039 10.6605640143697 0
200.261171316391 -10.9835642756018 20.9853672124422 0
185.883648716152 25.5457160879041 -9.01628249603688 0
-123.055593343242 -20.5779130664256 -8.44445703853456 0
-80.4354076030946 0.47415232499356 1.28382203638418 0
150.869086439693 -17.5552165271017 2.67615872906109 0
165.317157532934 18.0760147086156 -13.9846253973162 0
226.099720166985 24.3254520021778 7.81227461688787 0
49.2183924126391 4.23626330100556 -27.2048762296049 0
115.411419691672 -1.04555697860196 -27.3672848175773 0
-82.3355030935985 -7.70350284731335 5.69293460639875 0
-136.91744637251 -8.17958297788671 13.3782592605176 0
208.300704290205 26.7105224015833 -8.84202378267655 0
67.5133003955799 -0.0925909624544056 0.571160375171623 0
158.433588323503 -15.2125244985712 -21.1520591436737 0
163.67363363164 16.8377850514218 -15.8159171192234 0
212.590803723174 -38.7077712776452 21.8633965628386 0
47.0590597305854 1.67236082486035 -27.5949439999364 0
-55.4534194071546 -1.11516504590764 -25.4542547676658 0
27.7411763471834 -4.0807441391533 2.39782269569331 0
202.734383234085 -8.02232257194735 14.6873139217478 0
159.293416632373 16.3198492855978 -16.7016773106038 0
202.280868626271 -1.48451585107435 9.12943979792501 0
-51.6130630544767 7.0843784444973 -19.7823017201733 0
94.1257398178492 17.0760658227703 -18.2064262496308 0
-52.7019396557641 -16.9675569014951 -15.4116137835311 0
30.9393822020543 -12.58242462287 -19.3942865421795 0
187.37599737575 28.5871461160403 32.0610611675141 0
220.511985561179 7.15604773415039 16.9907596758902 0
220.35154806967 8.07400016227616 -2.47237261319212 0
186.568133957682 -14.2392450603949 25.5495746962375 0
192.807062638142 -20.0909553671377 -31.068897080631 0
191.231485822974 -0.946671961784171 -24.964814637091 0
143.520273082233 12.8574129785524 2.00093564907161 0
222.075667600833 9.02020455435109 20.6890653299451 0
206.536122018256 -23.0398450009066 -26.2452765235423 0
199.185943844413 0.482425734300482 13.9232687874974 0
118.952907625729 -10.5041092077388 1.3610323272386 0
175.407121641043 8.16630274861603 12.8962945442304 0
205.754534830957 -43.2981688771744 25.2033632080238 0
169.591072282843 -21.669090918732 10.5080681033396 0
51.2496228205624 6.35107923347737 -3.70909896352535 0
199.927733790016 -37.5845100793291 -0.610789147241016 0
185.697323324576 10.6258604342491 18.165164156848 0
210.19300074117 21.6519555984824 -14.6210847283276 0
-86.1536870871638 -9.8138196572342 6.86457217074582 0
5.5422658522031 -11.9077530200113 -9.35632430231507 0
7.53649275744864 -10.9671343826455 -7.75062833279922 0
187.456845931263 4.77826906302723 -20.7046178999475 0
116.608124899389 -14.1512263577873 -3.07391905612707 0
-137.701995850828 -0.470084569499633 -12.97169236385 0
211.622145898572 -28.0253606980018 -17.6725233113354 0
193.799139090061 7.25377703146991 33.1982053696839 0
215.284900218397 26.4208573334909 -5.15755431886605 0
125.299021964553 4.63032230860158 1.86874677437802 0
163.190674871229 20.7986170749038 -2.96694739307659 0
-15.0639706318898 -14.4396790490298 -20.1621571631689 0
220.522701065089 23.3267172481619 -7.22524046406467 0
214.241415814989 16.9733393083912 -18.1741219255428 0
-28.1967403999976 -5.7245334572446 1.84703702808685 0
-11.4127286467585 -14.4253493677957 -19.6702635460716 0
8.98529100644545 -13.110489552854 -20.7569381416977 0
-107.83596308068 -18.5335734309598 -12.6923650550815 0
20.869744479989 -6.76231366088003 -26.202235437103 0
-47.0353355135894 -16.1072103404158 -12.2829594994925 0
-26.3792912160037 -15.1673618524892 -19.7082421464456 0
184.241655777222 -26.656757789864 -16.4300551642509 0
-58.3898069183744 -1.35072059746291 2.44705095079437 0
177.571784636608 0.328103031407159 -20.8595120882324 0
159.571740383984 -11.1304401956044 -24.9892571241471 0
-91.0317785172765 -13.9415603495662 3.74558350074332 0
22.9992039444148 -2.88340275611074 2.42983592439818 0
200.545921907037 -38.9525046077971 9.59439598361432 0
56.7979244201951 -12.9870327064633 -13.1576159149967 0
-134.73730742778 -21.5956098594207 -5.65447005397224 0
-51.0796457050046 -16.0922456932 -19.1223224677107 0
146.574562903811 18.6247402200696 -4.79894988581327 0
-35.6307469626172 9.60403446618821 -15.338062211596 0
176.219130848905 -22.3255525368532 -17.2777213793021 0
211.804602658588 32.4611969686994 3.35478228716912 0
216.118282356906 -15.0763551895113 -8.38671626843321 0
175.924568615712 -32.9818971061684 6.59494865529337 0
195.064614284876 -10.1608661262707 -28.9099903992367 0
-108.949203074796 -13.5744356076078 9.00796112027729 0
223.202356089994 26.8621940066535 0.751957798916748 0
-66.4802223467567 6.98761407722259 -6.31642043025985 0
73.3759320325901 12.3927134574157 -23.5022809064352 0
158.755134126529 9.92318374842936 -21.3363693376052 0
188.095130188543 -0.430865802213462 -23.7015536443721 0
202.487145626811 -32.998301668231 -9.66498510375916 0
177.763091078772 9.30054852373566 13.4161947306569 0
207.111473823987 38.5438897888856 15.3095959892203 0
73.9010533316997 -10.2248010338137 -3.95819882705472 0
-90.5404524220385 -3.38720296210021 -21.7330015592 0
70.8638863207915 -10.8088399423642 -21.2517037070294 0
26.7981860423689 10.3324944696879 -24.2235316706457 0
23.6382631552081 13.0227896065498 -20.4057411615723 0
-57.618260648803 2.45879358130708 -1.23887608559574 0
-27.8572664759201 -2.66188268446606 -26.9096976843762 0
-122.481220373149 -15.2615702210658 -13.0646102717697 0
199.60903209628 8.49629956284219 26.0442105607946 0
-36.6675592082492 -14.8681039310713 -11.3127100642112 0
162.50155917239 -12.6602535752837 -24.269054681598 0
200.886009290583 38.4157870953572 24.476760172418 0
179.476545291599 8.98861707436702 14.4035823016341 0
201.409705026216 -34.3084776471978 -6.22907995575636 0
177.268167780364 0.266328246910646 10.1044925813047 0
38.283779042939 1.50010083532219 1.34703070521856 0
202.13851355582 -37.1998762869628 14.3322035665235 0
192.01113396696 3.57110440586341 17.3054573744427 0
211.424775257897 -41.457334651237 16.096481517742 0
173.227116285444 -14.5017120995867 -25.158530443483 0
93.7815717266903 10.1997176690389 -3.80394244550451 0
126.539672644401 15.694188089185 -19.4780566773652 0
168.237263397465 22.3041222894836 0.406910708996077 0
206.429540019776 -27.3994495523405 32.0298806163085 0
79.5001613044751 -12.7469821106676 -8.3294684671381 0
-85.2002127713325 5.77475572674352 -15.4623157968804 0
-6.84530798279776 0.553870268379137 -27.3643939783266 0
224.393898874467 20.3610179870577 -0.561158535684115 0
190.569545668329 36.804605786136 4.58251660937068 0
9.90805698474126 12.3568070599978 -17.4827729226275 0
195.861744191353 -33.3887466221202 -9.56866730404967 0
98.2425563148538 -2.52693881104757 -27.2785951346166 0
169.081793845675 19.2050142846157 11.9049597088552 0
158.3623441038 10.7897734275919 8.141894942727 0
197.728191352455 8.0925881067693 21.7845430374473 0
-12.4324462853411 -3.60907375524324 3.00962750356249 0
-130.133533044386 2.15611329323745 6.70082495098269 0
-31.7490766946442 -0.35268737902647 -26.7206770125684 0
187.177833885188 16.6524363558773 31.3691798991681 0
192.277383800443 35.9646276565777 2.52458559422407 0
217.092501841779 -32.8867812286784 4.18819908693725 0
-67.5539651873139 3.18451156124058 -22.2472175146975 0
168.559818835485 17.9490074904348 12.6457367913724 0
189.044845956935 15.9011098412512 -19.4616398837623 0
-79.157478107613 -11.2440673004911 4.23858694646128 0
111.597809636837 2.7175827879413 0.939809222988363 0
200.175701285846 -26.5052026671979 -23.0231558088184 0
186.089829476691 29.5786150502493 23.0945070905972 0
-36.4205233368741 5.80182288853211 -23.9601016766733 0
115.700319415926 17.9866860367531 -9.8799685993114 0
-40.3412331166489 -8.37626863079786 -25.8779871768064 0
14.294015412926 -5.78766341575789 -1.31664127337121 0
211.780888271392 34.3426429342536 8.2775325796526 0
35.2684092060994 9.50414882128983 -7.22265278626373 0
163.574085139938 0.466576709127224 6.09695357419624 0
-45.7521133251339 -14.5589829876645 -21.5987705072907 0
68.2622378150632 12.8467278521867 -8.58540670657174 0
195.334875619317 -37.3108604390972 -2.60548538215879 0
-133.395680892895 0.760486264442299 -12.9110772477881 0
209.170859684508 -38.470490089428 27.5885944913988 0
125.476242984169 17.6609190063018 -17.1784557459669 0
-41.9506635185937 7.06354533639574 -21.8038882983829 0
-60.1643657559063 -9.68292507565978 1.08368857037019 0
200.729626214849 33.665039710631 -2.01266382701082 0
90.1517858334042 -2.96513323071747 -27.2484389330019 0
175.072423023023 -4.91105785343743 8.94324544103431 0
188.563263538857 -36.3782357876901 30.7109710627045 0
203.888548692229 -42.9273793416827 26.9620591657479 0
216.170964050302 -29.0690982431386 -2.89026966888974 0
193.793909442943 -26.6744417302214 -22.2319644729086 0
-98.6671197877715 -20.0425611898813 -4.29179465004555 0
216.793120375506 32.3950069368057 29.0816059898233 0
224.214773201848 16.9965561608036 0.0868904111507935 0
120.387224124005 -12.4166544263934 -20.1917758452459 0
-124.061341747063 -19.4193778082717 -9.79272937873388 0
-46.14434450037 9.19257414160841 -13.0105714104215 0
183.137134913644 5.06831182844905 -20.6283078284012 0
-135.349745042603 4.66304766047469 -4.42229226328285 0
192.674203961765 -23.3050801900543 -27.2027979726012 0
215.724585656741 26.1008327086409 -6.68108508458887 0
186.724841094424 -21.6605551477905 -26.340570685105 0
224.702107699411 24.2473377678455 1.28350690872669 0
211.800228841962 -9.12421956283791 -15.8522488209022 0
-82.0753829524103 -3.05595397246973 -22.9104273689696 0
180.595075492391 29.3329835083199 14.552113792629 0
160.769697131144 -9.26011808837802 -25.9085343658015 0
147.385707696571 -17.4626846554416 -1.52472528721854 0
205.965498730092 -0.750833697695749 -16.6129514530443 0
184.800537075278 -38.9746112037898 15.1055908844198 0
196.567883358215 21.9397131372034 39.1026170420952 0
185.571508798365 -41.8837057407016 6.18453202589627 0
73.0099248627932 6.00122283206986 -26.9648551891305 0
205.512395756265 6.82382815143587 19.0273110148688 0
-72.7211501383487 2.085255936836 -0.421078595457313 0
152.134341713466 -3.75663963581961 4.84176585822999 0
212.467665119566 32.9544084195405 6.08321128787153 0
