-138.504923085708 7.83796043914249 -5.34174412330518 0
-119.681288503224 -16.5649500473604 14.0408088278913 0
-57.4769868315857 -3.92956736114401 6.58109367374027 0
-77.7086188760703 0.194981448952255 -14.7300590891629 0
-120.201519856008 8.05846104839047 -4.25416175698374 0
-104.856787023888 -8.92023196413827 10.8175547769777 0
-110.372797660682 4.18395333011052 -8.66682188426277 0
-12.720846616019 5.58276373687291 -1.23989075165772 0
-4.21017431694906 -6.56572733751373 -20.1525304738337 1
-49.634029654745 0.193289247412796 3.03293112553708 0
-206.669382297066 27.3285215965633 13.5397473624288 0
-54.1925228730629 3.01260551067336 1.46385532228136 0
-143.412670472184 -15.3166310429465 -6.70687409005423 0
-69.4756148965611 -12.6550263916668 8.46034098240326 0
-187.511214646216 -4.26064522598309 8.64914083967433 0
-171.46513708963 -8.13441460683662 -11.8208418731687 0
-198.077802608103 11.1496934831471 11.1739246248408 0
-37.7462000884845 7.38154806849384 -13.5504544707638 0
-179.030872896435 3.55305176003411 -11.1969432828018 0
-149.0085214912 -0.545407937857628 -7.93739801303735 0
-165.266116598957 -32.6260173940653 1.5061746867674 0
-137.548123310177 -24.3244355080178 12.9345807565241 0
-145.370664503471 -13.7028415548748 16.4822970840873 0
-62.5119139655548 8.98849221299819 -8.93555567130545 0
-154.888122225776 13.2802018894059 18.1849061998149 0
-124.821047282069 8.67709051001393 0.703464585846425 0
-50.3733239647622 -8.78516240094298 6.48854311917966 0
-152.229778469581 -25.1422775581374 0.320301192835066 0
-195.98832933006 43.4117848731327 -0.838352981935566 0
-127.308490150703 -12.8247167653128 -8.69635899756082 0
-83.5829311004932 -13.9625520138506 -13.2058401569536 0
-45.3858839127323 -15.9092250195705 -14.5906471710062 0
-194.363379601443 8.30243659407895 -16.4136507756355 0
-204.359127756158 7.11055674670268 -4.3167367710565 0
-103.605314821473 -2.15967421636553 8.55370924232201 0
-147.74992154989 9.28191645832337 -1.29546427445598 0
-176.894269208066 -28.9271559597494 -3.5540450161067 0
-186.349676195282 -5.49346944601248 9.26214732850347 0
-44.9202887898959 -19.6800654788813 -9.48191086969637 0
-183.726773217558 -31.5197262752353 2.24896190990014 0
-106.030653282726 -22.232193413847 -2.36172499323059 0
-161.890002341636 -29.9410977132339 3.76033134828414 0
-187.270676583533 -11.7649445660023 23.8875283751156 0
-133.753980014722 -8.98383880889211 14.1671611405542 0
-195.573864614805 -2.07065846551552 -0.233814281406249 0
-171.784062434834 0.180733520524797 -10.0959710818062 0
-75.2692755619301 1.7435923012504 -13.7721553279613 0
-22.5841191122494 -16.906100030481 -4.31023310950004 0
-144.127008198757 15.013593350988 15.0638654223043 0
-7.87283145273053 -4.77495322903288 -20.2562355686715 0
-192.455290329245 17.3813375984419 -22.3192308114046 0
-65.5617216292237 5.12069910294942 0.817598454001245 0
-185.946418698911 -29.0659240996827 1.50800535098072 0
-49.1297962096034 10.1805304277418 -8.04256195627837 0
-179.966553129418 35.4659481454206 -7.11663699276178 0
-130.661836872875 -23.9931721741417 10.3151749583275 0
-19.2303699133135 -4.2851693864262 4.49947374440885 0
-142.533797508272 -24.2327640953865 9.50031286284091 0
-195.279481048393 -8.5469539297104 21.4953348508645 0
-207.052484343982 9.93159364594882 4.59019143301559 0
-150.607424337146 11.3337059419432 20.8261491019189 0
-183.934138741888 -27.0606145548617 -5.96279773776368 0
-164.899047027349 7.63603363425013 -9.29710870335076 0
-9.65871363379662 7.65384210489103 -14.7362524884759 0
-40.1544274327498 7.64778957949328 -2.0355301018265 0
-67.7282774088183 -2.83942458963506 8.39892013517306 0
-118.064241136589 -11.9091279269454 -10.2335978572662 0
-164.314881988483 -31.5079619418387 4.96727480603521 0
-193.272310828273 40.3101619730006 7.91432399203912 0
-132.691872017381 6.77250145820455 8.27466790732856 0
-115.911254941172 7.9496470332349 -0.113282665152943 0
-80.1510016663171 -21.3979332116886 -4.81526012786332 0
-165.440702216624 13.8504102942222 7.03180215055907 0
-57.932820690674 7.6535845574701 -1.45758500154377 0
-105.697053698047 3.54739126337638 -9.74585808279163 0
-197.098420433835 -23.9985141718397 5.68721829080885 0
-3.53829022729969 10.8598699845603 -11.2340907607479 1
-162.708843098021 11.1693603385773 -7.54956847041042 0
-97.0998102048833 1.46498080168685 5.27004840951013 0
-164.537643467357 -10.328108506365 24.4823072152372 0
-48.3628316516591 8.06072446726421 -2.19748455442243 0
-175.986435371255 -27.573913003389 18.2265812931185 0
-134.789402561146 7.20168008750138 12.4599716934836 0
-145.067741807934 14.6776233297651 16.8306404972462 0
-183.775383381107 8.32010421383985 -14.0915140694459 0
-145.284146273 9.57567114741123 -0.0095180097320415 0
-10.0512174502007 -17.9319457037135 -8.16029950360407 0
-54.6587600238979 -2.27581491427938 6.07338927826114 0
-76.2358643385069 -15.7645083061097 -12.2963830471414 0
-181.809222022673 -18.9759118867844 -10.2482263674425 0
-176.889838970494 12.7826975476069 9.18297933011621 0
-31.6548678913166 10.4888933914448 -10.462948483025 0
-119.951338964192 4.85310642332973 5.788008186846 0
-187.718059009531 28.7919248964951 13.4852789075132 0
-202.160701492742 -13.5251804320448 12.7360541910433 0
-156.304158958144 14.1097778282518 7.05917743024842 0
-151.442307964083 -19.951610808459 16.236533522519 0
-52.5035201004246 -6.35095965651404 6.26539301641994 0
-180.048035883028 5.44066217445847 11.8487030806354 0
-166.734819109243 -16.5090464347916 -7.62190247847347 0
-200.366282357252 -20.8289890266681 -2.0923393658885 0
-211.752579531985 37.9858462106108 0.422366066379586 0
-167.727254976071 -2.89942513086223 -10.7467920699947 0
-129.382391009472 -24.7837710719555 4.78704869383441 0
-140.348272847733 8.70437831606581 6.59417411696046 0
-199.594453140594 -15.940568513114 19.5747498014414 0
-210.059373973601 19.6801935134825 -18.8325883530018 0
-180.513764444552 -33.1124736190863 0.211015161284967 0
-150.764857547256 -13.1423150039266 18.6128773037756 0
-79.555335430931 -2.05183049882431 6.63870979608071 0
-175.964137414191 22.5147759863288 1.80442672847573 0
-198.154102314702 5.59057086880298 0.851356251581874 0
-12.1434949750604 -5.59627103303342 4.39780802024919 0
-175.187844948388 -0.470482316010688 14.5397572468521 0
-182.763006821502 -10.5791508671476 16.8026546537883 0
-137.223212212458 8.33134350663766 0.187394924390426 0
-79.9528218965844 -16.5708706281922 7.48839310850453 0
-95.0712391970263 -3.79922074700772 8.31653011517425 0
-77.8530440279997 -3.64325687218234 7.80608597222223 0
-165.417739773443 -23.7845386191011 -7.24369103584873 0
-136.570024616929 7.07645800198669 -6.74732286651647 0
-180.906257020442 37.3797304076179 -0.236647699752783 0
-24.094894242659 -15.26429927781 -2.24631356776464 0
-157.95530557849 -27.3338239311678 8.48494387522814 0
-73.8902631492571 9.24671361405107 -5.32768154850596 0
-62.7836459764536 -12.2510794751833 7.54081225378106 0
-177.696263232791 29.6363969186707 -3.28709277123285 0
-77.2480593857734 -21.2107011540818 -5.12296885014733 0
-157.126514924641 -4.95139200735965 21.7452919457567 0
-102.956670752349 6.74343156658272 -7.23267775055574 0
-140.198161226152 -17.3888336144851 -5.56360996112712 0
-81.8199638454628 -5.03737629405619 8.11298257456677 0
-181.742900483928 -24.1492921645967 -8.16620167913166 0
-151.458685093309 6.60666217038312 -8.96210278601558 0
-147.476189556512 -17.7136509507504 16.3214248728236 0
-167.252594617303 -33.0593812523503 -1.61729411061907 0
-42.9875122432322 -13.9586119772417 1.49262987662687 0
-195.049337722331 -10.4971243551054 -5.22195834256248 0
-171.881220005028 18.3358375805841 -6.03176308250684 0
-63.6627380113806 9.56516166896031 -4.41056105399002 0
-64.0469741479651 -19.0445789300771 0.802097363304325 0
-182.020529540742 8.68439760035868 11.2916468651048 0
-110.35350232998 6.83348227866733 1.94367991450054 0
-168.013763010077 -17.8721707582078 -7.79864862032376 0
-182.337623396192 6.56908827723559 11.6708387664612 0
-141.457473216063 0.932096644001535 -8.32352425943111 0
-55.2637575605784 -6.93571934328303 -18.6911815982262 0
-141.740749883003 -21.1921560162227 -2.58442463591233 0
-102.285469770635 3.76430893367171 -9.57346335221123 0
-195.073144361971 25.9077023293413 15.9059408385773 0
-208.460323160712 32.6147963831879 10.8191659604349 0
-195.641564669789 -25.0654689096386 5.79334645307662 0
-144.752511269151 -24.7156301120971 2.63856225018533 0
-186.395516916311 41.8709209057801 -1.28843225318052 0
-160.043500258455 -1.24055277304027 21.6372628360656 0
-59.8217834958718 -8.79476477535943 7.12027949557129 0
-100.427294543111 0.571515767669539 6.48452028447658 0
-171.099370240247 -2.70006143409061 19.1879351769553 0
-85.9918491107907 8.784224113373 -4.15808748314251 0
-135.631392651861 -5.71990579500192 14.9403854468597 0
-81.4737416770938 -9.32872475940023 8.37243732784842 0
-100.173786566251 -16.9922319924743 9.34193987672084 0
-191.194661480819 27.7043274013586 -23.029274707975 0
-183.095752878917 -31.1786305641851 -2.04901854696026 0
-152.493339783296 -5.16196270872845 20.5373072770566 0
-30.2017967841038 6.82259408106307 -1.76699637666788 0
-140.044519253475 -13.5087437733108 15.5779177183921 0
-167.537983334482 1.24806662109362 -9.55311504195846 0
-191.858046571908 35.4070635522135 11.7608403303348 0
-162.341201449953 -0.710009202511281 21.0338614429724 0
-191.736391847672 -11.2397442694413 -9.22290968239045 0
-196.918823308532 -13.5402923185872 1.26766567428242 0
-90.668054149483 6.20039932055303 1.32611368183874 0
-210.755379533947 25.2751704684245 -18.8997845601684 0
-134.176639529191 -4.33587582550658 -9.15109603784017 0
-166.750669958268 -31.6648514691248 -3.47911610929224 0
-170.891126297881 -27.5050005232425 -6.33545754054659 0
-163.331724888301 0.782861338622947 19.4962769094276 0
-169.901291958807 13.592363029383 -8.40161800617049 0
-62.6812388132084 -1.26497864942269 5.13443698612387 0
-201.273993510808 6.31327943919701 -11.2534808803797 0
-9.53006359722557 2.26335009367728 1.74566950710561 0
-44.2945734239143 8.32015090561018 -2.57934931540517 0
-80.7865572798056 -1.19576620324406 5.65254530577082 0
-199.813153422481 16.9481709436395 14.6765988691382 0
-195.015228727195 45.0752210387498 -1.57732825149505 0
-170.290498897535 -11.6825240152018 25.9508839129594 0
-68.902577438514 -14.1950260475833 7.50626579572222 0
-0.572583321074565 -1.41695822086007 4.04556474908743 1
-155.957983658724 2.93491959406277 20.6685234091506 0
-188.542250236212 -7.23435091545306 -10.8595772547512 0
-200.537107745759 40.0225430087171 -4.78555400921688 0
-179.539260328684 12.1273602296967 9.89716038006406 0
-198.145594058737 4.59083334588571 -9.6489246793959 0
-182.374906022136 -29.7254846382377 -3.01102780002111 0
-189.12084749502 38.1362167450657 8.07753028879577 0
-122.289468160801 -2.1096484165237 11.7327345690909 0
-86.7941644931249 -9.14733832862898 8.69615898370801 0
-214.831967710204 28.1850615030298 5.89293588949347 0
-145.796626583653 -4.16719274380183 18.2681836515861 0
-92.2884225935145 -22.9051062975334 3.09201143180989 0
-176.757724626528 -8.40355246504184 -13.7189158209938 0
-179.003686921563 34.6179949988173 -5.14731634642189 0
-15.8372561492561 -16.8770457529335 -4.94211397996133 0
-177.151782526726 -1.80268731042582 14.143617041396 0
-197.894282363964 -8.43304727453686 19.9801701780644 0
-179.768149972718 -5.39745652571361 16.181784577725 0
-22.5438481368027 1.91726673753345 1.50232904406859 0
-79.8209604678897 8.82625390042886 -6.3279636382816 0
-192.34110852649 41.5838716821258 5.53146119215359 0
-154.713880942869 14.9200794808832 14.2971779673596 0
-184.691886611013 -29.9017884098181 -2.93908120221116 0
-157.010494267358 -6.04904034219153 -7.56561403056764 0
-103.441677642145 -11.7485878977815 11.4116762297812 0
-164.866348197216 -0.0825180753111033 16.8925290948498 0
-161.978726170381 -4.83229309575784 22.9144484604967 0
-8.91665518959861 0.32119688850244 4.36201940927034 0
-11.3158386281121 -5.76723061341014 -20.250615120912 0
-123.247889207828 -17.0818081070808 13.9729494268471 0
-170.754261569594 -19.2274318969092 -8.26478083380644 0
-192.218223512742 -27.0705680285844 3.49656270831204 0
-170.727834474546 -23.8932063811807 20.6673727165676 0
-196.945821683868 7.8498209092983 7.4816170265993 0
-160.406000689925 -20.2929833380273 18.6322322910864 0
-172.750658076395 -30.4742749818884 13.8496601994646 0
-45.8045608137207 4.03309224996601 0.845751309563696 0
-183.660884600348 24.5976411931087 6.54971749549436 0
-181.126679140035 31.8140019962533 6.04951081241812 0
-122.419611741974 2.76123553802896 8.63446832110511 0
-165.817922058283 7.95281406226591 11.3964810934575 0
-55.1614163164211 -8.59886547676611 6.9570353349926 0
-142.695160111955 -16.9736491301562 -5.78728480180834 0
-187.367993134569 38.6985300139972 -14.1742437617971 0
-34.1654642890085 4.69614691571879 -0.151395136120443 0
-79.2030398375165 1.60836457677864 3.44011000212613 0
-206.12053712921 36.7666083679322 9.41211295306401 0
-9.96055288532832 -1.57391987027325 -19.8640792461311 0
-217.533980668938 21.9865267795942 -5.07579107698978 0
-124.658957715795 6.65631464529595 4.08356598062954 0
-42.2117544675791 9.61831843832066 -10.5540097481241 0
-122.002888218301 -14.1335963055665 13.5035314859576 0
-204.277249034777 26.988609193372 -22.4326200538553 0
-105.28085194828 6.47039400092566 -7.43348833908641 0
-120.907571150521 -15.2180411138427 14.066398399418 0
-114.33076969068 6.58997691401846 2.80044090890124 0
-177.630574795009 -6.3256759666185 -13.7460100942629 0
-124.714513430153 7.52409600875008 -5.57591976951706 0
-16.4040922050422 -1.09848997682287 3.83204581308826 0
-136.735970049289 1.21151094965649 15.7493864269893 0
-18.9191567546406 -17.0366166879364 -4.90415793625841 0
-12.1888946843141 0.245390102552216 4.57969108166792 0
-151.201505277568 -19.4489559475652 -5.07411444555614 0
-41.5826432114897 3.18781921446166 -16.5514903608252 0
-126.027625535527 -14.7727711945348 14.1016920980082 0
-131.794944447507 -6.50768579765767 -9.34648451559513 0
-216.12123648767 27.0312995358288 3.74473344197162 0
-51.7904635689472 -11.0153811821137 -17.7769299535884 0
-17.8843651631449 11.2657040175737 -8.15911475836636 0
-105.14934660652 -13.0928768541317 12.4594580301369 0
-80.810023227978 -11.0034884967391 8.60237091395182 0
-181.241255385755 -7.83272536129975 21.6517829959011 0
-43.1518326943478 -3.8192391795247 -19.1861569237613 0
-201.887563634668 -15.6026805718546 6.69445225796746 0
-174.03858797945 -1.85732384722993 15.9476036803129 0
-90.1509770583792 -22.7711641788673 -1.38146984574633 0
-191.960843896205 16.3904119785937 14.2953409160215 0
-186.829262364256 5.14367578668101 -13.7867508593395 0
-147.776173508899 -4.26139102306128 18.8271154996023 0
-39.126026483274 9.76968231506927 -10.725508471324 0
-189.200801090394 31.2738522154301 -21.1923794071341 0
-160.590921895969 -27.6696580809052 12.5213377707623 0
-177.81513172024 25.6449120717283 -7.48627060781349 0
-142.51005917851 -6.43461742584507 16.8704397633648 0
-179.117018130649 -13.0880246413862 25.4670283933363 0
-74.7479072757141 6.65254139053632 0.125560538316547 0
-118.168409573218 7.5751972273773 -5.43260615767016 0
-101.531281560469 -19.1247230899634 8.51002798269908 0
-197.553155275118 -8.42792958828077 18.2115802174188 0
-162.708087787536 -30.6357636960764 13.1979437825292 0
-77.4171757073936 -5.37750021807863 8.38495172799426 0
-184.943139176059 12.5095728008398 11.1348745534989 0
-2.20603115261046 4.19500009284237 0.0945712949507951 1
-1.82451378416058 -0.25267937695108 -19.6444049515294 1
-138.881192897078 -23.5484639534525 14.3791001814829 0
-215.79777804792 16.5771238466729 -7.44543707895307 0
-101.184353477937 -15.906526365416 10.9005773710419 0
-208.831257478302 27.7114200956489 12.2566032577641 0
-186.494864127395 -21.5080931114924 -8.13321192422133 0
-133.360965665273 -22.5403625129132 -0.584545740253487 0
-132.229321288775 -24.0659011149305 2.95013706673738 0
-18.7950504068959 -10.7242504494591 1.01880245226249 0
-156.526208180187 -14.3536779238086 20.6226594716008 0
-85.3926021550187 -10.7334516037713 8.94464992901942 0
-212.629982976641 11.3994954213728 -7.99865917114208 0
-121.009467695145 0.847756178989641 9.90507187405038 0
-158.655442201098 14.5629586121005 4.72333529543567 0
-1.82610412818314 -10.5031505556099 -19.2132917693133 1
-75.0462183703514 -13.9835968153607 -14.0253305355688 0
-206.872462278821 8.80944042683804 -12.2946929405708 0
-25.8133591149254 -1.68417309010868 4.33560394816635 0
-201.239304871551 22.7100282998748 -23.3286904078405 0
-149.536797049664 -18.0696190154086 -5.52453674866956 0
-152.341534700149 -17.7120651155639 -6.08492372747735 0
-191.712758335767 -2.04510979125768 -8.64947915018388 0
-210.605126146321 40.732371613044 -5.46861448477813 0
-172.45726260512 8.76152933500473 -10.0791655407071 0
-117.778220234379 3.64140784693287 6.73765361558813 0
-45.4201094622048 10.1439721949008 -9.01402555931487 0
-17.4518899539833 -9.99709630549295 -19.3345241235869 0
-172.024235614585 -30.1448849594652 -3.92355317328466 0
-103.2247261489 -14.5518544109053 12.2196549850905 0
-98.7774813377863 6.54834861373158 1.35869035523609 0
-62.0717464924947 -13.4891198104903 -15.4846020355459 0
-171.328798173165 9.3997084040492 10.1730549225296 0
-178.472178384872 27.5665885674416 -0.190048366392114 0
-167.95531588495 -8.66080040395381 25.3325010059844 0
-193.588127284469 -3.62168941521786 3.96516729088659 0
-195.251675937315 12.9828363943977 -20.2527616847298 0
-192.84257585613 -9.00227864414165 -5.71777027055034 0
-197.076903337431 -12.0798166223689 11.4683609411654 0
-59.9875309202105 2.9214762425723 -14.5884778879864 0
-45.6634160026916 -18.6808195657555 -3.18192398128631 0
-109.796199133536 5.88245567860685 -7.62939592153801 0
-187.087038902095 -25.6687020723014 19.7651637750242 0
-197.193520774349 -13.1657088908006 -4.12148608028562 0
-2.37442135010299 -12.8235206436051 -18.2739571439138 1
-209.951654208044 11.9357223812994 6.17782831925212 0
-42.9448994748012 -19.9134932113021 -7.43273250817087 0
-52.4722740287787 -15.077033353129 -14.8652535789268 0
-162.497876522576 -0.576558466631684 -9.24566265663202 0
-141.94963802456 8.74321668832452 0.0424620491429253 0
-96.7397332119776 -15.8068173528379 -10.0127235065279 0
-99.6084895840147 -13.4845862842917 -11.7750744176203 0
-87.720027237618 -22.3052999959607 -2.56123005013219 0
-60.7666899954505 -14.2243452963885 5.44721496522632 0
-209.514793160909 25.0241356800067 12.0068192653818 0
-134.924175169347 -3.07702019500301 -9.11916196642867 0
-93.8097240616154 8.5006168778806 -3.20814052624523 0
-53.8311942951156 -7.64574426431365 6.56047214256437 0
-197.476381541364 44.5226628808962 -5.21721587133376 0
-126.004989766573 -18.6539958397785 12.8058720345583 0
-56.5969259091068 5.25644187647955 -13.0916110163491 0
-47.1345766560522 -20.0395178588566 -8.21802574029654 0
-52.7848165727103 -19.7648140795811 -3.53601570936845 0
-197.878065611221 16.2714631895696 -22.429024144605 0
-191.013646624669 -1.42631433330934 5.94901739058298 0
-143.284351450769 -24.570325113167 7.34316169002933 0
-77.7377873351175 -16.8602905132421 6.80131615261964 0
-180.363745465808 -25.5352719150902 -7.43422641630403 0
-185.717476769252 34.8231018478685 9.23397308324873 0
-180.487934219342 -20.3343431201195 -10.7192047469688 0
-131.74854290041 -2.79955983681472 -9.60125543730469 0
-207.915513829426 38.80064849813 2.78605344641476 0
-163.558671231216 5.83729775251886 -9.30914894996622 0
-17.0194736098008 -5.45802249374147 -20.2487716005811 0
-127.845810697381 -15.3566621245623 14.3320915328605 0
-110.388474807357 -1.39389662782702 9.00811564107511 0
-132.42117616174 -25.9196225347055 7.35645846980432 0
-35.097959623929 -16.282312591083 -1.82155400617056 0
-178.622252782525 15.80009354321 -12.3019406643635 0
-186.681708218763 41.1040142676118 -8.70532508171842 0
-57.8757735807646 -14.3784623133036 4.2868517398306 0
-132.672047778564 -14.1086950830344 14.2739376221848 0
-212.383573932444 25.824172282653 -17.2927985906483 0
-46.5171720801826 -14.5993653654142 -15.6937979095129 0
-131.104255188232 -14.6932896064123 13.9697928886308 0
-194.642132122137 5.46903395407063 6.94520194025999 0
-112.077971377665 -14.550159551932 -9.41340249726402 0
-190.424348538964 -9.12641136563568 19.2745838450802 0
-172.56027539765 3.51058046469429 -9.98275251005212 0
-149.144615068436 -3.55344015089984 19.4621809584857 0
-203.601375603208 10.9900438914787 9.60706691263168 0
-196.5713609398 44.2573855294156 -9.12933975558151 0
-170.470406747601 6.31513318889311 -9.70948918434805 0
-44.309203388208 8.47303023242693 -11.6805114451771 0
-161.871762920321 -12.2039605152365 -7.21796785242358 0
-127.196062848347 7.9463624445828 -4.76165628748951 0
-49.971196699582 -1.88414961376067 5.99631963703589 0
-95.6085844681563 -12.4066047684896 10.4836545073901 0
-98.0429568634675 2.96718455354518 -10.3766857916579 0
-156.215252181239 10.1843470110952 -7.14931694260684 0
-164.243069228801 14.2099983780289 -5.36394570271465 0
-153.957179896636 12.9286440020758 3.3609070846469 0
-19.4901622537117 -6.39656091634356 4.52598475957335 0
-37.3837493728232 -0.747839223435167 -18.737071276751 0
-47.0948770728248 -0.668397273220781 4.29488147574724 0
-181.521373087819 24.7575775104749 4.7400543864467 0
-79.7822034362966 -3.97020300220838 7.71741360016369 0
-144.561387167424 -3.69843618348457 -7.99127726955329 0
-185.025953067382 -23.6307936010231 -7.80826942921921 0
-170.646393371815 7.64043135585408 11.192825841729 0
-156.46320312118 -27.3871450824496 1.07195511043787 0
-101.782175768803 -21.5690905610446 6.53331251043819 0
-60.8648028322254 -17.4709484644589 -11.861700442018 0
-171.965842344374 -32.0034976077613 12.1169211595737 0
-172.02320704945 15.0328455683195 -8.62117864012796 0
-183.268987985252 -23.3521724510135 -8.43151009806845 0
-22.7992355996998 -1.440353923781 -19.5214828753814 0
-190.20291770355 -28.1815926438715 3.73927394295776 0
-112.133362944283 -20.5806036329461 8.67003443433211 0
-179.392973677563 33.9828321699912 1.07396024442994 0
-216.615672974081 21.4350551439618 -9.68448744875937 0
-197.78862799019 -23.643434415887 3.72058387361669 0
-100.686339710955 2.74132218429131 4.90875331601559 0
-190.576094204863 -25.1186506664638 -5.48103184872188 0
-166.599029039094 1.58227147609173 16.4415629033615 0
-143.993846216815 -15.0437402872514 16.0971720631708 0
-138.163632069908 -7.86451048514741 -8.46712049530201 0
-33.3425412662039 -18.0810019557671 -13.3070544397489 0
-106.054721349498 8.19768893963587 -1.80155984551561 0
-32.6190078345023 10.8674100856577 -8.48066175288046 0
-58.9546922881172 -0.101246527989744 -16.9673938508535 0
-108.593907480059 -22.0910878136961 -2.38273050276007 0
-179.592733402134 -10.0720496443784 -14.1594230321494 0
-92.8520422090655 0.0203216559951932 -13.0471047020258 0
-124.812035329502 -7.12603292546272 -10.3552892522905 0
-200.305989947686 21.6178573314916 15.7013448015327 0
-175.841102953284 -17.0145986024581 -8.79279151215309 0
-113.553193855245 -2.12823832410228 -11.8177466439848 0
-149.677331191702 15.5132979225861 16.4884774265637 0
-80.491733458745 0.199227022526206 4.47867845085425 0
-39.7619767221853 -5.47701462110129 -19.5840924829473 0
-115.064052392533 -14.2599737686861 12.7041519655834 0
-199.788114583463 -15.135183153132 3.88527921482724 0
-137.684473643015 10.40222128105 10.6793039889462 0
-176.454286756381 -21.2300617288084 -10.3316337653257 0
-137.228368513573 -25.1892918111026 11.2181254037144 0
-215.592090101877 17.2346456548515 -9.51448457234054 0
-31.9794547718448 -1.82315863851088 5.14813665436165 0
-7.81595797086917 -8.56463277091825 2.0114848902495 0
-6.74319658252291 4.32998559967495 -17.2778402682596 0
-194.943556055342 16.1542853500654 -22.3187422089435 0
-164.150289054359 -18.2879877952279 21.5863910588909 0
-188.762759102733 -29.3514421471896 4.60853675214261 0
-168.425297875019 5.88906334489848 -9.54114303587094 0
-197.425334561951 -14.8404871858617 -2.19784790843771 0
-4.91593920523668 9.71751608976349 -4.47661601007515 1
-145.3063088249 -23.871323759114 11.0812053380999 0
-201.547620219417 -17.4440045707742 4.57767943092712 0
-72.3294894140032 1.75365750546615 2.91280404610254 0
-64.8472772099132 5.84707839351059 -11.8198183939762 0
-81.349761573444 3.93064943395502 2.32426770368112 0
-73.8248632954562 -12.5441899245937 -15.1777289051554 0
-24.6627847422922 -11.7684068926004 -18.453018196479 0
-119.984647305681 8.51842283850913 0.50027767842996 0
-28.5206356791177 -3.65595252909797 -19.8495441901875 0
-129.290510217335 -14.8452674186858 14.0989359725131 0
-139.930085273443 10.6737357648544 7.52372852825387 0
-186.454789496505 -15.1048323445178 25.0051521851269 0
-137.334038750232 8.37024390494272 14.5472025338481 0
-216.566861380478 31.1815990915117 -3.43867965558064 0
-141.673145133269 -20.9200220546191 15.2348414838366 0
-178.300981861767 -12.953821529382 -11.6167924709079 0
-198.466142223954 39.802838718314 -0.558785643062768 0
-15.5643073581806 -8.21375027872877 -19.8868911653894 0
-88.3659754787987 -4.64913291382618 7.98034508224713 0
-165.701066891672 -28.1578263209651 -6.30103513253078 0
-180.019524304941 14.0034907138415 -13.3134481269597 0
-96.1856327041132 -19.2884066584921 -6.35666102820029 0
-184.836504619461 -8.60288243816491 19.9152654311367 0
-8.8224398616443 1.03573805473473 -18.9858210516497 0
-14.4962542708002 -12.9629702177964 -1.01366469403595 0
-166.46897335943 -7.93033642703577 -9.49099823428114 0
-142.310593103856 13.4024806741468 16.0541082872902 0
-45.2611433537683 -19.8199284200563 -6.01017291958314 0
-179.377225038823 26.0279105800866 -11.8026560069796 0
-190.893217232759 9.18048925279057 -16.8943013420524 0
-171.964527360962 -16.6918673216855 -8.28685527259944 0
-142.427623815742 8.78166464610512 4.03214948145939 0
-147.871987955573 15.3844288041659 7.84403262536618 0
-187.820180903564 1.50088731143 10.7508602697905 0
-150.671774846909 0.328233498764232 20.2483682373353 0
-127.997945256609 7.88741335766594 1.79216580569184 0
-156.92918861922 -26.5566323370832 -1.26672722489778 0
-26.4181543347448 10.6807557096738 -10.5103367972836 0
-8.20121122986423 10.782934956779 -11.4433383845132 0
-38.0695435460499 10.0595924147727 -5.22799227054111 0
-107.119304797663 -20.150153939707 -4.49663421571069 0
-113.997415951038 6.83947844297381 -6.52404614585867 0
-59.7829429787636 -12.4116145440336 -16.4311639262128 0
-155.05162133237 14.2587967556111 16.2353618173639 0
-34.0173443818949 -6.4812408639634 -19.8771833706244 0
-195.07995684386 -11.845725934612 7.02094588721897 0
-198.138643194869 -13.4251387476745 22.6392626900786 0
-185.573992425555 -30.926393281782 6.30492253532448 0
-160.955795980571 6.77122290437854 -9.30611122618819 0
-182.645395111738 -7.80761805166694 19.7862067028961 0
-194.603404172445 38.9017922195337 -17.6391598764946 0
-196.356494953681 3.98276257941016 -10.0882621630494 0
-170.606090725128 -21.3352240148162 -8.70053489176522 0
-35.291832156673 -4.35461059076667 5.15036543910737 0
-8.158581566186 -6.36507237712406 3.71902818466668 0
-50.1405368221746 -4.14973914900212 5.69912629369637 0
-99.6011088739156 -4.90599002693094 9.0809248727468 0
-142.01909085896 -24.7576491784982 5.50582159420127 0
-206.192200228132 38.3909277331757 7.5957927941697 0
-45.8722458063127 -2.30729393595635 5.38745106890966 0
-198.260545000356 44.452865270462 -9.47594080735441 0
-79.7619112490974 6.19594424097111 -10.1027490452721 0
-144.835946570005 7.1961398561746 -7.5488141098667 0
-63.4340095291915 -0.230534603176999 3.78697994331984 0
-73.2938037060281 -20.5815096704526 -6.60207273180564 0
-155.019633583276 -1.52709779416188 20.9313980314528 0
-84.9062913922815 -19.8715296933951 -6.92233758022467 0
-149.478736984265 2.26146817935483 -8.18917937376909 0
-189.324121587104 -11.0913088452124 12.2962895978461 0
-196.280915899916 45.2277527614677 -5.67757322674947 0
-191.621840268543 12.4917778396621 -19.2109039630315 0
-187.964070204736 -8.03770565095522 9.05970311503108 0
-191.240993839889 32.1829183560168 13.6427312278539 0
-209.866989613894 22.176538037032 -19.5111130522467 0
-104.02420161006 -17.5884387606518 -7.26299111077072 0
-100.586608119837 8.10659421603573 -4.83630557313993 0
-41.8960306400486 -11.3821713028308 3.391454892795 0
-203.24592398152 30.3059265379693 14.2541430725076 0
-160.34504807707 12.9112357290646 -4.82391724489327 0
-178.335507844027 -18.4601606637143 24.7104227981736 0
-31.0786789783217 -7.15136240748578 -19.8605678262133 0
-176.858606367218 16.6350681815937 7.17561818328854 0
-194.466860913684 1.70563519637259 3.32317095325957 0
-147.268880084873 -22.5091211290516 13.9880231808291 0
-161.278694893181 11.8597679478818 -6.68031806679992 0
-216.990242529881 26.2822960728109 -8.81099534732578 0
-27.777275556777 -18.5470583390863 -12.4225075972756 0
-49.6742823586459 7.29533230255673 -12.1545461347891 0
-14.3122385793941 -18.5497815113456 -10.6948750686463 0
-85.1636044097869 -1.77143306377686 6.65030436989848 0
-182.627633804146 15.6647984661931 -15.4107925973648 0
-132.837586470265 0.428782848100756 14.1971378439316 0
-12.6854441551066 -11.0925326853142 0.380756169580653 0
-54.5952571052114 -20.4706909950402 -5.46319546675545 0
-183.413172639883 5.73789369054473 -13.0025892483625 0
-117.267749698455 8.14397810699279 -1.25473708818686 0
-64.7481221299307 -17.60532200621 2.87495687078489 0
-189.504927793787 9.60464737429943 12.0174945389255 0
-160.384963382743 -1.71086994068436 -8.99960715626955 0
-3.3339538324187 -13.2604471484094 -1.81709753378474 1
-112.207711151294 7.64642324707881 0.258371089256953 0
-195.371751078202 -12.1127023287225 4.60099507713739 0
-197.431901409333 42.5434637809175 -12.3400826357469 0
-40.7073832110452 -3.81755988590294 5.23751373088002 0
-137.256344283066 7.77038323347167 4.76085040256386 0
-0.487963067099896 -16.5047160919761 -5.62345105628473 1
-183.13136688693 -29.0104000147586 15.6854672704827 0
-84.0044736827314 -0.528318326326709 5.28960204840009 0
-78.1871292354624 7.79232634822853 -8.67521243611772 0
-113.481818456763 -5.63952220307869 -11.9973303403421 0
-183.074988527435 -32.0278966243148 3.89208286178203 0
-13.4776201219391 -1.96739127527529 -19.9133076816964 0
-115.251736893955 -7.19985284534225 11.5229406559382 0
-191.757253083741 43.9130848936077 -0.207818229824054 0
-88.6795213076248 8.72135336616307 -4.36447321708996 0
-160.57718159755 13.8723742402469 -3.08441797440379 0
-11.350112224231 1.06773035933981 3.33393414443588 0
-53.3610622038766 -11.932425584427 5.57806098144955 0
-150.515728353774 -1.6903702586565 -7.76562508201461 0
-153.130717469995 -0.302281425297458 20.6496106218726 0
-134.306768205165 -25.9027971783129 7.9501917234921 0
-113.566195511857 -8.06059012272253 -11.8131009280657 0
-179.262621056625 21.6752873768229 -12.0821669538371 0
-199.417776993028 -17.8205602896268 -3.28775484044194 0
-180.563163341121 -5.55200976870491 -13.4520647880085 0
-173.348816264242 -30.5711445751875 -2.94255760192272 0
-196.298924754381 -24.6562190732789 7.1701565196726 0
-208.151579158749 19.8101265601733 -20.1685159978592 0
-217.500056068693 23.7212392150949 -6.69866322327131 0
-77.0572417380182 2.99472616357331 2.55415702083179 0
-167.542979014649 -15.5789198203108 24.613109388093 0
-146.891923577251 9.51230691485853 -5.6928865997637 0
-120.317310217947 8.36393459646113 2.90498379456902 0
-181.724854605531 -11.6410416185476 24.765519392943 0
-146.846814867093 -15.1618969038016 -6.84457415533246 0
-182.401064899496 26.9891670962582 -17.8539957548182 0
-166.124333648786 -26.0805206561821 18.002025219252 0
-100.4949783898 -2.51558244371882 8.35108082160167 0
-15.0483751904452 6.72896215434778 -15.6213713276495 0
-95.372935472478 -0.181301337828696 -12.9005291922079 0
-173.815517010668 21.7114058432928 -3.68391599876601 0
-165.518375118067 5.33815089681596 14.5116202596807 0
-186.743961863691 33.7697593929909 10.5915184503978 0
-88.9572675934621 4.96107539068687 2.23964393292242 0
-96.5225309505196 -17.9620057614864 8.67348507954521 0
-193.317562736125 -21.1870767392624 -7.59509451406395 0
-26.3454726916992 -17.5256287240875 -4.65630353915926 0
-210.902134569509 40.7558296215297 -3.82821565013989 0
-202.476966966956 32.271978173004 13.7431193720999 0
-141.914102188481 0.785471248367255 17.0586211796613 0
-174.934458357168 -31.6287722831295 13.4103612857898 0
-207.109862308289 39.3062824855782 -11.1432304696478 0
-174.988252735041 -24.9356622900747 -7.9280921726074 0
-129.048956415375 -18.8492346263635 13.8472317449088 0
-94.1219850713109 -16.0763933483965 9.72965068204766 0
-188.973360966142 40.0769002231734 -13.6864300441411 0
-114.054029121872 5.45116354547215 -7.67421067151868 0
-95.6166079040098 -17.7005195329595 -8.17297623430963 0
-175.139884146393 -27.0236133758491 -5.80677332021064 0
-209.435524135954 9.98324094159605 -11.7593339656582 0
-9.79378588906347 -12.106643619084 -0.529937046702427 0
-189.989336700954 7.87023080611558 -15.906343368383 0
-152.385134715345 10.1478823869458 -6.95076649581024 0
-40.0637978456048 -12.0118928752837 -17.7779163975611 0
-75.299037444554 -7.51424296368965 7.61108571171875 0
-192.153161346648 3.4489177875126 8.06369679510637 0
-139.400931616154 -11.653323129076 -8.01678396152529 0
-51.4452036010763 7.3992263699229 -1.46680181236772 0
-206.611958814433 21.8848571055234 13.6105322757195 0
-158.985582666776 -9.73807382079303 22.63681482095 0
-67.6364063648212 -21.0831218708691 -4.77099061983873 0
-35.0294729274896 -6.04775991500341 5.49467695902489 0
-179.664821118671 -12.0315073038014 -13.0648986522858 0
-150.049055920458 -18.7946845302113 16.4908187541881 0
-197.383654346067 6.66479837947446 4.66350318861818 0
-193.924290551193 -0.660404758327294 3.54485055364621 0
-103.231226121847 8.21678240348868 -3.98549132256899 0
-190.285135013743 -23.7856700611827 -6.91671037399367 0
-215.673280807619 20.3277764806259 -11.8341899805974 0
-26.8760523345249 -15.5647604644026 -2.25641220904736 0
-202.519603663553 -17.0752447796801 8.28924494986665 0
-187.026647567317 16.5017842950399 -19.3184932769293 0
-194.825609468484 -4.78978811988193 -3.04355796203731 0
-65.1641736910601 8.82518472748951 -8.8678084173608 0
-195.938886198148 -21.3757702365837 -5.4614453050824 0
-22.281009557051 -12.0818136893766 -18.4172203760872 0
-198.757327797295 8.17871871339048 5.71327592210452 0
-191.317322722972 -11.2758577983677 11.1308926596347 0
-194.757382533136 -20.8814630973107 21.5502285806912 0
-202.628495102646 6.66517117782821 -3.51051129095701 0
-140.045141609227 -6.90087177645058 15.8409236996414 0
-175.196462938014 -6.62665642866651 -13.0343792799582 0
-173.683263191595 5.67218138528699 12.2365702481329 0
-159.470392370539 -27.971662271384 -1.42400827895549 0
-39.1826650543718 -4.72591483671822 5.32081759518013 0
-72.9528725268872 5.8192622073046 0.658518295450229 0
-121.003064221384 -3.87085776083672 11.9590478447709 0
-197.057625265994 40.9184201911256 8.50794882366691 0
-182.452440531568 36.3687601459564 3.13296617706075 0
-203.555211318316 12.104165185951 -18.5793846875538 0
-105.0113637233 -14.2751186201614 -10.4765568237741 0
-182.605121462395 1.82315945961896 -11.6914271662789 0
-2.03100379235524 10.0843472903961 -4.98088811748668 1
-71.2039127186942 -17.7290407547353 -10.7036739094704 0
-82.1019583239186 -22.1781219258248 0.979159325453989 0
-178.353852456135 -23.7162191075588 21.3124112075908 0
-96.5501384658468 8.15785571428935 -1.66522731117951 0
-17.7857260439532 -18.7386459304885 -9.68136381741333 0
-152.340454672729 -8.03677698093257 20.3143707287086 0
-181.405690345477 -29.3671034990511 15.5313683037219 0
-58.6858702802165 -6.94957604722999 6.83189266637353 0
-154.624852212746 10.2386961389378 -6.96466621046012 0
-155.483431795812 -26.6935923568477 8.03964025378928 0
-201.308251868915 40.6002172748639 -6.51553640906108 0
-183.244613514667 4.00444843290958 11.8662708995112 0
-197.635773896945 9.33335911604705 9.63239912848763 0
-153.898781194351 -8.03973480661021 -7.24715488146368 0
-156.19137801825 12.5739194314961 -1.82941016890627 0
-12.4873862857237 7.18983597630757 -15.2088974405196 0
-132.030105816881 -20.7710584426532 14.4341201288484 0
-47.2411256915461 7.66677390325299 -12.0972769967394 0
-57.7987528350228 -6.96451085336436 -18.5017938640542 0
-188.846216954488 -14.8141928045668 25.0653553717003 0
-31.4169407752314 -3.88478861168886 4.87610900033568 0
-115.495612620452 -11.4204975212657 -10.7904356606422 0
-150.903180662378 13.1712283003271 6.83776222012857 0
-150.527472969941 15.2807119568186 8.46670697511587 0
-183.276495578342 34.7941445145177 6.69118213612687 0
-172.494861491201 15.160020563923 6.90367225654697 0
-135.895443522603 8.89171908259845 10.6837462881843 0
-142.117520264048 -2.61272325241636 -8.28907448819608 0
-78.4504358611322 -21.909827564933 0.0796012307616489 0
-9.91934403759898 5.29236054547119 -16.5498996235226 0
-133.816949826447 7.0322521055559 6.68311387335271 0
-118.236003504343 5.59530543179374 4.79930014622131 0
-104.534514802133 -1.86569709701624 -12.5642937063879 0
-40.6039553711286 -18.1667178437742 -3.40576222964541 0
-123.002269976066 -5.07266009796547 12.5346982955131 0
-169.142817465565 -33.988645467226 1.03011195623244 0
-189.798088036017 24.0039090404077 14.8547332950827 0
-195.81302021825 -10.0624080913843 -3.29536175576849 0
-174.871344651185 23.1156504849519 -2.14426963511229 0
-158.24522177554 -28.0493178195855 13.9301984143481 0
-142.983161500862 -8.61340572273058 16.5656172494361 0
-182.394893181791 29.9417756846084 -17.0121497404837 0
-24.8824806072386 6.88889415881521 -15.1965751618984 0
-176.484132204864 24.7101874695079 -1.28147012145047 0
-193.859268399298 18.1033097997976 -22.8817161861716 0
-126.746111654359 -1.75227050109773 12.7668639912067 0
-190.481643882235 -11.9293668754608 15.5755720297161 0
-19.8892685573766 -2.37958171120189 -19.8601349568307 0
-164.75812627741 1.20117939800478 17.7242621593858 0
-213.007556703271 19.6168985812492 7.83442690629989 0
-174.827686540688 -11.0188535259676 -11.0154154264886 0
-93.0111378555196 7.15195707476273 -7.72394283025587 0
-23.5843127854148 -12.7759166645117 -0.0699748162127837 0
-124.290521897435 -22.8153615375773 8.85450651386779 0
-165.222413961107 -31.4572726845314 -1.74393383917271 0
-175.556286904949 3.55150952559538 12.9832069157888 0
-126.899908042782 3.18063938646548 -8.38578814385323 0
-31.832700910977 -16.7223183671305 -14.8602983561711 0
-208.904218162222 12.750465771891 8.27754331491355 0
-192.691991133632 3.44481367089783 -11.9287507979108 0
-134.454761490821 -14.73914381176 -7.23178706415568 0
-192.387305393804 25.9372441090783 15.5243356213362 0
-101.44020547904 -24.0188269236754 1.94101814870688 0
-120.806198529527 -10.5833247528101 12.5174589454026 0
-182.418527426118 28.5686214840699 5.29684866886606 0
-133.900476283288 -0.903651794352488 14.5905177937481 0
-103.254589089014 -16.0058080015782 10.5014941525727 0
-182.129206751778 31.4137614875361 7.38546013264171 0
-172.650046081308 -19.2836456651319 -8.71171517061096 0
-142.593087144398 -9.92325286872954 16.4124234312145 0
-152.566439723229 14.6310487339346 8.28829121815827 0
-131.895498053408 -2.0373261186587 14.2269755427054 0
-168.829115019092 -6.74382547040528 -11.7559969334377 0
-152.946754554517 -3.00983254565813 20.5042637612115 0
-36.8955170989867 -2.49123256216123 5.13550664132873 0
-155.940128451164 -20.5274737560072 17.2119920178596 0
-186.551710261222 23.854064690422 9.83246873827983 0
-182.50869139618 -11.6650320916163 -14.3120645142284 0
-161.864788352303 -20.6815628101202 -6.42196819815355 0
-139.312736572897 0.034243554335584 -8.58185246373159 0
-149.80082746358 -24.4964034611594 -0.0697901993088222 0
-187.372776143926 25.7791237904546 12.951962863097 0
-40.7664571722347 -2.07928717537778 -18.943311243202 0
-25.6113225834989 -13.024258007346 -0.100731499189229 0
-195.928811595499 45.2053284808005 -2.80585463410111 0
-134.901669000975 8.71574526015976 -3.65385784521795 0
-187.264534816777 -29.3692709334159 12.2858833839292 0
-178.264735352091 1.05278990758247 -10.877308058748 0
-160.278305156488 12.1309966149848 9.74455087395532 0
-199.646270561852 33.5843069758237 13.7062044388214 0
-72.3852040025118 -19.6778200377038 2.65387386682609 0
-183.668524247338 -10.9550768122662 23.9665900740227 0
-172.399249154837 -34.0517559863126 8.50360828390088 0
-164.152870138957 -11.5961346860848 -7.50718088762534 0
-197.187059199766 41.3001505800118 6.37545992340501 0
-46.895086950269 -4.52834112136347 -19.0931748388378 0
-209.176356179909 24.2734997479085 -20.2063346929139 0
-159.084632898533 5.91636211262809 -9.38861998713768 0
-69.3827260345474 5.02338903018302 -11.8804011335769 0
-213.872808853033 12.9254769602896 -0.814920562789129 0
-205.64621952343 20.9343448522302 -21.7943031784237 0
-192.500794105946 -3.59432910382118 -7.05261709447695 0
-193.348617292082 35.896689748899 -19.9210671870606 0
-120.288622575512 -19.6720185083868 -3.99280723462246 0
-125.970728811776 -10.4957279609723 13.3731993754207 0
-197.577958768364 19.4853983968608 15.4812813817426 0
-153.436599181907 3.58892594414327 -8.87353025453308 0
-82.0375467547265 -16.4081415577763 -10.94846787811 0
-189.846315448705 -16.9414730919688 25.2567273282501 0
-102.280309137514 -23.2964163707447 4.68924840301978 0
-59.1317999138841 -20.7290923027823 -5.73661743980381 0
-186.607835515777 -17.0431089135582 -11.1900886151886 0
-155.112728258457 -2.54348649574181 -7.78979650083318 0
-145.259340834422 -1.82867700801354 -8.13711167453839 0
-132.22810725367 -10.8030422533744 13.7998902425722 0
-152.844420072168 11.8315470348714 0.308193988640223 0
-51.1121390474374 -19.5616065181404 -9.84684866899586 0
-202.862556673849 7.38984211802127 -12.8363489762908 0
-13.3566833018386 -3.58603749704549 4.43337076378037 0
-151.224594916985 -15.2605401472049 18.0274127443539 0
-188.51548050385 -0.410678525124615 9.31593052185259 0
-148.726102638132 3.58389766300619 20.2974726574875 0
-189.888593218692 43.5219031640149 -0.697875425158103 0
-202.32792952506 22.9264537153145 15.3492307805578 0
-158.736856408116 10.933607551008 13.0985290422771 0
-178.411320302463 1.58860973637167 13.158828271924 0
-80.0824581658696 -14.7993533184102 8.99149614117793 0
-202.053295459706 5.85996354223695 -8.29110388629725 0
-184.812551440158 -8.0976172858045 11.5318946178208 0
-193.241317571362 -18.3262079965182 -9.39315888945769 0
-199.941920629927 5.22631388683116 -9.04675768245598 0
-164.100893695794 -31.4367625737695 6.46797832899664 0
-71.9229361021493 8.76268075248668 -7.76410858626825 0
-86.8368693274823 -11.4529894660074 -14.4859877789968 0
-156.531107143683 -6.73862471782063 21.7170058744732 0
-191.449013857272 24.3863536380869 15.3122685493743 0
-203.239681669103 40.6681540500115 -6.93859799987211 0
-30.0201156647269 -1.74957248764023 -19.3560831000677 0
-163.572865389007 -4.92666335322554 -9.28783825285667 0
-44.0268420447082 -0.0944689613625588 2.84243667495375 0
-159.820737728145 -19.8013785203696 -6.19837725724584 0
-197.258597661694 -11.8877572743724 23.3707621897768 0
-178.517237696413 -30.7440180665891 13.9122337321174 0
-114.211534574875 -23.64770962706 0.0262729918409453 0
-3.04386915770567 -16.4171971752025 -5.3913623443987 1
-145.957033464404 -10.3711344939029 -7.60515809700403 0
-190.515538960738 18.4782133414451 -21.9836906858541 0
-213.770128564092 36.5383200262638 -1.74995328959263 0
-37.628432832502 -17.8746802109617 -3.36284075308781 0
-206.98328962453 40.6657934340696 1.51696779383773 0
-68.8752809338277 -4.7017952467023 7.97766587716365 0
-121.421373439448 -9.52400255964076 -10.4317858582822 0
-163.695213446453 -20.5623019629763 -6.87703760069472 0
-160.88346940777 -28.1074431869844 15.1881013581148 0
-105.663155623523 -16.5130026663398 10.3573019222079 0
-211.514395489119 36.7865875516758 3.75352061506681 0
-67.2153339872281 7.96590864716797 -9.82173497922815 0
-115.263474181279 -22.6564554706147 6.9916746209351 0
-190.072213045734 23.0851904388909 -22.8429897264772 0
-124.860463597845 1.21621965787793 10.8037090210461 0
-147.051065874114 -1.44765263662779 -7.98955516267306 0
-117.640287445796 -18.9735520980282 10.5472024630919 0
-120.893517569164 8.3077325319041 -2.35993498198037 0
-117.084882350843 -22.7756987058945 -0.983790796393339 0
-22.8624481813396 -6.71355535397481 -20.0981341367176 0
-122.68998805767 8.61247109023708 -1.91152056435367 0
-73.8559784003577 -7.86421097461936 -16.8717928272491 0
-195.644479111982 -24.1605822083002 16.5921595711443 0
-186.672606660233 -30.3100482846912 7.29051315171419 0
-210.135031576942 40.830877746129 -2.4872181384301 0
-160.20463429657 -29.6548585472589 12.6281285766164 0
-117.372539042589 -13.3578975576623 12.5749162536206 0
-107.36650024566 -12.7469539806418 12.6429532649115 0
-124.648252600129 -2.84447260349419 -10.4329622091043 0
-102.030128607255 8.3259499595403 -2.63141788127257 0
-104.891422756385 3.87703849887145 4.62362782197856 0
-127.051938831974 6.79923932754736 -6.39570070614936 0
-178.052491179394 -34.4604150809495 5.23638287461005 0
-39.2056772944273 -6.45827689183097 5.69484438847054 0
-178.086624335831 -1.73102428456007 -11.8350952477232 0
-155.906720258402 8.79661995352955 -8.31842371852656 0
-128.48561067009 -0.0770252883011291 12.8591442837198 0
-140.954990547807 13.9851253650533 11.4708122421939 0
-187.89835258726 14.1527440064689 -18.6150103425324 0
-62.439612355234 9.04931358702364 -3.07483603892351 0
-55.9066554153325 2.70804378156862 1.73048787455542 0
-131.828858910087 -20.8172646918964 -2.69629352779824 0
-193.577240326736 43.281737196904 -10.6361112289862 0
-156.13444488224 12.2855183726191 17.3775350944513 0
-165.601424803671 9.31314644900664 -8.92062370612156 0
-187.402546750097 41.2521789762342 2.2681535383201 0
-129.426174982594 8.8239653597667 -3.03887341911044 0
-165.347038300554 -32.2128401818741 0.0456351294216494 0
-6.17736742935613 3.72648852392772 0.311458137287039 0
-47.9452506785892 -19.7354590464717 -4.91335192422233 0
-193.716226778333 35.0725375305824 12.556533661129 0
-50.0999702077356 -6.1509632928569 -19.056426190581 0
-179.681774654942 31.2390469893912 -11.9815674384926 0
-199.910196346977 38.4632115546701 -0.875549455706943 0
-163.309500335853 -32.298929936349 9.1435493123754 0
-207.186861679824 7.28951752367575 -6.11050135877738 0
-197.375469411339 -21.784174270411 -3.69384279183991 0
-106.327446657187 7.93829823363186 -4.61162847935988 0
-30.0449225564814 -2.50612025170107 4.81935149990761 0
-102.226251252829 1.91341610994968 -11.0255559258151 0
-195.006340319577 -12.3197577213037 9.50424675956467 0
-137.256595872571 -6.53053494525656 -8.69460300814084 0
-96.7361783772342 6.48522076222444 1.2963792614215 0
-186.059923090296 28.9021616984121 12.2773105701726 0
-64.0274614347264 -17.6440909357723 -11.3530648830974 0
-185.552554470695 32.6790851924544 10.4244524607672 0
-180.611662523657 14.9796942111734 9.23623753281795 0
-4.21417097126992 3.70447544851884 0.39565525998788 1
-183.65795181683 -11.1390477280887 15.072367718761 0
-200.368197285532 37.4186566864454 10.9051890847623 0
-187.585491882779 20.6294690334267 11.5398622464015 0
-116.152706945761 -21.2252005525472 8.86543506329564 0
-64.6391736774378 -13.1102698980573 7.52620793252241 0
-188.269223968388 15.770551755417 -19.7483217880211 0
-73.4474383994932 0.650874009376038 3.62405538765441 0
-25.0454726686546 -10.6645348618288 1.60332743420471 0
-43.0744866358653 6.14028985691994 -13.9230906127244 0
-199.77267269111 9.41926418601471 7.5011797092826 0
-36.3249701986857 -5.68328319276417 5.45061571672479 0
-95.8840945800691 -7.05352987878973 -14.2833369521591 0
-190.712787053849 -8.80146213382356 -9.12512778644092 0
-34.0814868029793 -18.8834792862301 -5.84944462541824 0
-177.586763270794 29.8315294319614 -5.84209733531063 0
-93.2349785752471 8.29439128705298 -5.56489178339266 0
-25.2559879367902 -6.21025049336933 5.09264475277008 0
-190.762691652068 43.6636772359429 -7.26121951967748 0
-130.759296010672 -0.919826813195074 13.7939781357326 0
-189.636518061735 28.4534347833043 14.2245241878771 0
-187.28623821793 -28.2177581354554 16.0445195947282 0
-79.7646299830085 -13.2386977462123 9.61452727905298 0
