216.555215874077 -32.3828220841982 3.73968511520139 0
202.986126076588 -36.1111949485255 -2.85711740637781 0
191.612545433542 26.8367335047388 -13.9288633139125 0
171.953850743581 24.1390095425525 6.55883425237041 0
196.55293413359 27.474495381054 21.3347448733356 0
46.0349760508421 1.39701686607683 -0.491172951130118 0
80.0921509934815 13.0361645719225 1.06401991915604 0
164.554335114864 -1.27759932552092 9.57506469822046 0
209.755580580218 -14.9143568237955 20.837350483609 0
191.491692884533 -40.1245129263102 8.41633142462597 0
22.982683875099 17.8845365574194 -22.5870246962177 0
216.099927311549 -16.9860918339216 8.46743180569885 0
-28.8390807450153 -0.327874875617026 -8.16278634267491 0
-54.0155095510409 19.4372448449071 -16.9568498823289 0
160.181420738837 10.8161635384422 -21.1561363763101 0
208.80557047654 18.7241196491653 -13.4924201406698 0
-29.841312045846 2.61743481775956 3.02895176806233 0
165.088911595747 9.38510007739399 -20.9747719515136 0
199.982358194853 -12.7573571493899 -22.8714430486958 0
33.9654519171881 15.6408872808763 -3.04855394902986 0
47.0032905179378 3.16933296728889 1.33184338236262 0
22.4589828506508 -2.15662649687181 -11.6927383208141 0
-51.9624267566017 20.2681865350148 -16.4303965208028 0
160.419860592577 -15.6889951319937 8.01208368754649 0
83.8623342824748 7.01960350940928 -24.0162423871994 0
9.39992156969807 22.7772108485391 -17.4489815841449 0
208.090468330062 27.099974501951 -4.74716613157172 0
169.655488855737 -27.5878206035987 -3.03860279530806 0
166.097477339912 -30.3043375526573 4.3344424241876 0
196.58629430715 29.503175057139 25.6629687775807 0
112.359010888692 20.7563269027716 -12.8097095909941 0
-7.96488457202729 19.0610330394805 -5.14183663696223 0
120.16504854537 18.8059203491094 -17.1906676590844 0
130.985446082069 1.37367692740909 -22.6570187544364 0
193.147681105585 34.3474757179872 12.1461577684711 0
198.530619653785 -38.9750894382477 30.0672839159231 0
206.771645959494 -37.8819353038733 3.96734147046131 0
68.8069391537455 -3.6633488595395 -7.30472073987704 0
115.167299344915 20.531109067536 -13.8687272705699 0
129.822839511241 3.19039383786088 -22.9483007117513 0
201.912743661787 1.09104821471549 9.1260341821022 0
182.248836854737 28.1145305366975 -3.62881813597571 0
177.936448342235 -10.5741062684546 12.7767710228336 0
-85.0042153491922 23.3042158044873 -7.00464342587248 1
150.261459766908 12.8084719611773 9.4623222823017 0
151.190586667272 2.16194761764415 -21.6769487861149 0
-29.1081369986159 7.31299777202053 5.74591431404873 0
-76.582188602154 18.4731273417954 -14.7257513555224 0
94.3238192823174 -1.58090437991143 -21.9485942438743 0
198.173363678383 -8.10663638061922 11.0117517689948 0
40.7645189355537 10.7693348585555 -24.330000819999 0
11.5125188581392 11.4526670059562 -24.1553534608818 0
211.604495487501 14.438886232132 -4.49407250447263 0
-74.6906507490304 10.579892403953 -18.8218236581128 0
209.954839730159 -14.9347837142445 -16.0341849377212 0
-68.4717615753078 0.504823523805145 -14.9531798892222 0
93.712466686085 20.0979016625763 -16.9753068152167 0
53.676479629217 12.0055079364226 -0.181510489952224 0
202.000842051972 -2.6629670326591 7.0766958046691 0
44.9811510735123 -3.97911025573853 -18.2647174510329 0
210.261539859584 -35.0923321412471 0.851297601766617 0
92.7680146529864 20.8621514665688 -14.6456957889351 0
98.1990857912704 11.3359546875926 3.09857212196125 0
106.654853080577 -6.44853666531011 -19.1164898582969 0
195.739746188407 -18.5222630984862 -20.2692647321968 0
87.7409495404071 5.25671209046278 2.52613771644519 0
127.797436584734 19.7847007131992 -2.98929826707072 0
151.072861048519 17.2580594263054 7.2659409108852 0
170.281643533063 7.94235372131309 13.6743546277795 0
6.22678568412412 2.55895402645865 -0.779560873633227 0
2.02345518509987 10.565599866145 0.146902105106954 0
209.254760453528 10.0403907363014 -7.04230789822991 0
179.217986009778 -25.7611394518331 20.9502320914457 0
207.596567571059 -17.3927996504966 -19.4933401402378 0
99.6503292874779 17.6358594386737 -20.0631031672893 0
207.747366904351 29.9374658217556 12.6714628609442 0
187.926047771993 -0.826313720573875 17.8400824191523 0
-66.6821602974044 15.3674858416951 -18.3427779505916 0
216.66598641496 -26.1401797394107 -2.37468622174474 0
195.989524555826 -1.84014701929786 -17.5067568709973 0
69.0848854538011 6.74054720112359 -24.1343802628933 0
101.704104550272 -7.41796052882819 -6.54601971675233 0
55.765581980894 14.4724079644984 -23.6692794159177 0
201.900338404685 29.4144400388589 15.5176111017676 0
56.1567192260358 17.249177481083 -3.43767987124185 0
149.570983183666 19.2887308769631 -13.4348384400415 0
138.129869469005 -14.8576303581229 -9.56300518944582 0
212.247430463277 -33.6260660421737 25.853390540483 0
3.17018254711434 2.89201210100925 2.4893531544489 0
-27.3964658477534 6.16021614039142 5.86650656534157 0
200.583463828712 -2.08546299440059 -15.1130895184784 0
47.9784252626102 19.7756724130002 -20.5733233363587 0
194.776511431954 21.8430027103502 -25.1687675923136 0
161.8624953087 20.8406243425996 1.64909374161737 0
214.437623126503 -32.181676989835 -1.84625662603926 0
197.464967853986 -15.0794229542628 29.270200616741 0
-66.8630909997919 23.5409556582238 -0.353346457409254 0
140.102516997949 -14.6046638463704 -11.5948965785315 0
22.8569142863996 21.1199306047336 -8.5075712469052 0
186.437299668076 -2.00531637290178 18.0194756388659 0
195.307310406717 -39.5249347820994 28.5220028911941 0
213.720181321686 -22.9033300593787 -10.0448911121459 0
42.8716745821008 21.7356865669816 -18.0366180125448 0
-4.43111192317598 1.22744685014101 -4.62380026778351 0
200.080714896886 27.4481152336325 -11.3747040919245 0
167.290259623564 -17.4109286750461 10.1956007333992 0
-79.4116448105526 4.85942958241337 8.04798765194442 0
161.334874417695 -12.1746481290261 7.96459578639745 0
200.176887791115 3.17647211915 18.2045599935632 0
21.4925730141567 1.98488311403043 -1.59322236743974 0
-26.4334029356144 -0.319985703165824 -8.11842039141548 0
22.4764460288359 8.3201616705849 -24.3498972564192 0
210.30437667605 27.2443108033208 1.14596535152764 0
38.9807867031834 7.09151270017976 -24.1726948395511 0
-68.0705039415744 20.3667846396324 -14.2052995010565 0
136.818162681985 5.21113055368244 -22.6699824811257 0
202.489392057106 29.8040121106163 22.2065286877716 0
182.529323825618 -40.7510407040641 4.29565214754435 0
179.491357226367 2.45903856782279 15.5881092555861 0
191.360927848198 -18.2123946997248 32.5447553263152 0
175.568697165107 25.2222390556467 -2.98163606736862 0
127.80831366611 20.4204183504113 -6.28698806728998 0
84.0455690856835 -6.5690948946351 -12.198782287498 0
175.386113554989 -16.5408853039913 -17.498030705694 0
54.719999054305 22.1035619282942 -11.9981710163086 0
72.206986274714 6.07587122024672 1.99703187168988 0
192.080685573938 12.1161111704051 34.5392510505893 0
-33.0862616105963 14.9138311684138 -1.05065035304764 0
-84.64605758695 7.02625773518143 9.61445537779177 1
-47.0705475274275 20.0496789639351 -17.2274511605735 0
116.239252121239 20.7411688091479 -8.52946298531265 0
185.387169246292 1.41266590494317 -18.3043161802319 0
212.014475067544 23.2235710887056 -3.48744216139832 0
153.34050689363 -15.4700143724108 4.27148217038726 0
-81.5799027995787 0.27963318335242 1.86462440732392 0
212.762630003935 -28.0140428751269 25.6861073167107 0
-6.09963490442544 17.0525969775694 -3.87489605837975 0
137.630014719089 16.3824322022784 -18.8187801396028 0
36.2527894842661 -3.18520965347043 -19.5470060120875 0
-86.1399831860905 13.7043726414139 8.83732578729095 1
-25.4893970002539 7.53609117074601 5.56044696794646 0
139.036612672701 8.79071012052886 7.96902805985127 0
212.572959460859 -31.5689052350012 25.6244995778956 0
60.9016524229783 -0.998148474129891 -3.43824938079132 0
215.601318806399 -33.9728414954055 6.52724740943041 0
206.613880049873 -32.3565152119766 31.5464100649401 0
-19.6090343051772 0.806426060809181 -5.54885194728364 0
186.054008533772 -20.7466333615084 -19.2518775631734 0
176.098184786366 27.9169554335683 13.5490781832487 0
174.420934099105 -34.463664635234 3.42722922391287 0
28.4387801842871 14.1831041438014 -2.35032332701487 0
199.998150040534 -2.12265698060708 7.65164213052756 0
194.303250187652 0.247240397410779 17.1640385388567 0
193.044440486899 30.2487418673659 -2.60975695725998 0
58.8613392483102 9.93814519371664 0.86176945898841 0
112.844118978764 19.9540529630184 -15.6734851823253 0
167.38122543193 13.0480206468067 14.3280804358957 0
101.049383868974 -5.81841874672601 -3.71075578638178 0
200.295333758156 -5.55684969551961 8.80907339817117 0
9.21114623116624 14.1247373941481 -23.6878096746557 0
186.643368898461 24.1622275587871 -20.8862035863982 0
196.960348849973 -11.9499134741527 14.0059893696937 0
36.139279899758 -4.01680811634403 -16.0859757179944 0
182.812679282338 -15.1771107746868 -21.1455880273661 0
-59.2711650594168 6.70376507140714 6.22548407840798 0
184.539833946015 6.12935528107329 -20.931466701501 0
-38.1818461928296 8.28762217749791 -22.9012020130717 0
-82.8915714155723 1.31943931616047 4.60170747824992 0
194.060808052389 -33.8062604151316 -7.04915825707398 0
170.159497816151 -28.7303090557841 -1.73326015336315 0
-55.9473843527037 2.47420805870327 2.55996846055844 0
182.138128551061 25.1915967972419 27.7910900691753 0
172.629766462559 -9.53980345129288 10.1759118818734 0
63.1537902226957 18.3621707511321 -21.3347946287886 0
-3.42175804406974 -1.54626403592341 -11.1594540103091 0
112.055706831509 1.94417126217453 -22.9202522940276 0
82.3182831613858 19.7975158245749 -18.2985146748105 0
186.968667475229 23.2380635335486 -22.4955730481556 0
207.798135079756 -39.2301569163891 21.5946733794393 0
178.595550608374 -32.6974168004566 13.7535776029294 0
-48.7656933725957 10.0661782902325 4.04495818143683 0
181.094922569182 26.9969548641653 -5.85901916168325 0
173.792881102048 3.14701778066898 -18.0136766350001 0
68.6867398310173 -4.46502586145623 -9.81644678520958 0
143.425665207219 -15.8495801862887 -2.22973979746527 0
-73.6062420071651 21.6835212559475 2.59953842428813 0
190.013948543278 -16.6946933386645 21.7835111576488 0
-65.8922698734999 25.3196568446756 -6.35881540363357 0
205.118220897159 30.305722033715 9.24644909112728 0
47.8255210358677 6.63213448618607 -24.1349639381426 0
193.219865871701 -38.3755691001098 29.2209478073116 0
214.450141367943 -34.4787624400016 5.44959184812773 0
193.12886964161 -38.2879410527845 -3.2782045498397 0
175.329639326385 17.2140403983002 18.4872153691343 0
207.661625009785 31.4375492206891 15.1957278046302 0
-6.51695141028117 1.99555072255001 -23.1889948036942 0
211.162237407491 11.1261714641554 12.173975890965 0
193.567073277579 1.27265982192412 18.7235590547834 0
149.877646426247 -18.4187851233613 -6.03434205502565 0
128.270102105459 -2.75825120928357 -21.6421980571156 0
75.6674962968049 6.12845422595512 2.15954230579772 0
170.407117469018 11.2427746272812 14.7879559605789 0
165.914117261142 15.4709716449681 13.9486565323678 0
197.975192691793 33.1753894264125 11.5478657999799 0
154.145925036309 4.11246713274107 9.09145838774648 0
203.697025179107 -33.6422102713287 33.1916882651612 0
-81.2177493481071 12.3320415304525 -17.6126903077406 0
200.426649950998 12.2877056013755 33.591663034545 0
153.979578082739 12.2498929797064 10.4771149100884 0
28.8433763946958 1.96917308915517 -23.3104864883125 0
55.770614678353 -2.3408744246758 -21.021073937173 0
185.079334042345 -6.71186753721431 17.3349022475327 0
192.403790400796 28.1130327966099 -9.86498254601816 0
67.1396088898119 20.1913286346346 -19.1081919687121 0
218.176943844431 -26.7398127444551 4.86174891263536 0
187.995670867763 25.3237099424173 -19.0162674885567 0
-4.59572634950021 19.0074907123933 -20.8943562867847 0
16.424581386626 11.7837082940457 -1.22148055856802 0
184.480027103224 -16.5539124051774 27.5357496709606 0
6.83425413723611 23.4460008585626 -12.8927775143557 0
161.840056614139 21.0893078784506 -4.15140601522074 0
3.31589873199801 18.1155556403458 -21.8518734173486 0
57.7125723434052 1.90757739967352 0.0930749470209672 0
147.992210968381 0.873952896758455 -21.792938891657 0
163.696364758889 -25.8096391950532 0.128504855024541 0
-49.315984175967 11.4008559940942 -21.5268278961901 0
-46.396658082395 1.78643901000333 0.223481318040502 0
-7.80781624048311 24.1137296751009 -13.0081119713733 0
181.970131092815 29.9475761240516 3.40228752746151 0
201.507978361271 -16.3902165662168 -22.0881293538536 0
179.79757161741 -39.3704806331784 7.35842363801967 0
92.6542139768625 2.74174412152427 -23.3155912622825 0
44.8160603349337 11.4261892878434 -24.3397999153584 0
145.999860732246 -6.12865544366923 5.29536365669971 0
3.65339436673209 23.6178025362381 -13.2825808773271 0
-68.9447474009184 23.3713607290605 -10.2024867339862 0
-27.7710057609508 20.8845651560457 -18.1966011062215 0
214.517231310027 -37.0892633426204 17.5312894813333 0
18.2968973417416 7.98022577297685 -24.3474651202429 0
149.831363967224 2.67766664866948 8.09492245289801 0
204.454582329959 -10.8290008149148 11.4740605449356 0
167.333965038973 -21.4110752530538 8.67780347569959 0
202.0436293432 10.232042844049 -17.3930416098533 0
209.494740391283 26.7832946528216 26.3374512757939 0
57.2495747349381 16.3934964290048 -22.8309225786061 0
168.276696338629 10.8072601572279 -21.3262248683749 0
-21.6720196884863 8.4608802522761 4.60752058980136 0
82.7342849850792 17.5271600593694 -20.9541545791691 0
205.130250854709 -38.5658795080578 4.26707158791516 0
207.638095637952 25.8511370547438 -11.274775428206 0
211.397935423288 -17.0561811420127 -13.6455768394748 0
178.767139096256 -21.9775292384578 19.639643754825 0
214.81445684594 -36.9228228225468 19.2084821659367 0
164.899348560805 -29.1817980038405 4.19165403267318 0
-14.1136077969573 18.3667919900136 -20.8488829612308 0
196.604120049841 9.54484728102696 33.3580884259873 0
139.033782591857 -10.1223361892547 1.93550747433423 0
213.358888567448 -24.1077061134861 24.651504757775 0
-47.3617173940373 8.47806134447874 5.58636527487649 0
176.994234054849 -8.8027839169347 12.5966163849664 0
191.513065673297 2.59421500878836 21.4107111660413 0
150.816623829263 18.3352614898667 -15.664546272316 0
58.7249427732766 13.7437063082055 -0.63512502630558 0
-9.04964508545502 8.97353976286115 3.11036434100626 0
27.8291800709505 -3.8842216170662 -16.6873053751192 0
-15.9415350637591 3.49594577730655 -23.4842040433445 0
205.603180333822 31.1313025271707 21.8358773025431 0
172.306249964408 -34.8250318883453 5.44807748994167 0
106.618385711665 11.5945455363332 -22.9033483865806 0
99.2459419535919 -3.47496422291758 -1.06251009698941 0
134.229045498669 4.31206809020196 6.57449835942076 0
62.4830392220713 11.2388346719771 -24.1869670607252 0
-8.56301875528003 6.31283344192259 4.57194334824107 0
173.918110470987 11.8969754742714 16.6118274385904 0
211.829762614674 -30.7134758286136 -6.82978691327154 0
208.444821305519 -23.3746872775209 -16.539295496416 0
71.5972648321845 8.96055134096755 1.84029520876966 0
181.340057978276 5.84174832290303 21.9468286773784 0
150.51299670346 -4.38805737464663 -20.6847911762321 0
-74.8293603960214 3.14779207303402 6.03094351761952 0
17.3041507220654 10.343090461612 -24.3187204737248 0
145.006806624075 -10.8427300062516 3.15819873069012 0
169.320883434786 -14.2938963722629 -17.0050235124171 0
195.369106875836 27.1630146166031 -13.4307945806856 0
181.591300409305 -40.7009250109039 13.791474217235 0
185.890782145188 9.67320614515254 -22.6838439523007 0
187.582647414182 2.35002144813352 21.0830160512468 0
-25.5055981410552 2.83007318115397 2.12578828505803 0
-67.645174479511 14.2181672764164 5.25769768477654 0
-56.3412604377121 11.6916340503684 -20.8055187489028 0
207.360833268352 2.87416622731295 4.64445380052584 0
194.975824470229 -15.911153435655 30.5591777469113 0
117.823722651424 4.46052101055471 4.56961715094132 0
-12.1892398181269 3.20296489721699 3.84601499250931 0
143.244196984513 -16.3626153723676 -5.66955907527471 0
199.186035385702 -31.4826750753566 -10.2895563083504 0
168.755054339488 -9.1745507686333 9.66024635430131 0
99.1649825397368 0.436631338765679 1.12862238569005 0
-6.61050883500187 8.87231914064028 3.38439029087917 0
41.1867473368683 -3.01889813307282 -11.6026834358351 0
167.688217022829 -7.12116853108064 -19.8326182134841 0
199.271261008956 13.7067664003372 34.3951269227524 0
196.844915349707 24.710480751055 -21.9273502179955 0
185.740963810203 19.1097530607209 -25.8125054184085 0
205.68875376804 -16.9046784188298 -20.6812964318264 0
-72.4911519716278 17.0994251104323 -16.4229632476957 0
181.826614099404 30.8640942165062 16.0202357869919 0
39.2380537019524 -3.31444755630025 -19.4447349413018 0
191.75527422569 30.1740889282022 -1.51165268453599 0
-78.6023370591987 20.2248153594447 -12.6988439323618 0
92.935422511217 18.3310031967463 -2.32166599296342 0
38.2580500495954 18.8451209922382 -21.7856039162714 0
-64.9381992323247 8.22798138472956 7.82649205709246 0
184.50012635941 -36.1377265434918 28.8480057386872 0
-31.3592423769798 -0.329640732419029 -8.04194863322432 0
176.994721482796 17.3919319639322 -23.505936198832 0
187.447704818214 27.0474740465786 25.8780065615982 0
3.17601677718704 1.97503898543204 -23.3002307163143 0
213.899570372055 -36.9558081340308 21.2404032057869 0
179.721161681697 6.95632347675411 19.2290544988977 0
-28.5888270661016 20.5808884155268 -4.23098781054578 0
179.24678687086 11.9235206581614 25.8400403733016 0
194.293935507503 28.9839442732617 31.4120307121697 0
-0.944916913676967 14.5288155995109 -2.67758259809337 0
85.2538932834006 20.4484365992104 -16.7652248443662 0
42.2032411431298 0.962307621374784 -2.19067328125884 0
151.27050806157 6.57721961171266 -21.7133033688527 0
112.195875737349 -9.23208059038392 -6.64119516013224 0
205.945740344355 -38.549355044177 10.7644492207387 0
212.184982310713 -30.1086359417621 -7.81607317388886 0
187.837666244058 28.8237395500108 22.8517311970343 0
83.0687381833759 -0.185279324645973 -0.352466047827234 0
211.742227769029 -10.6072591618316 -7.64214314329313 0
177.631398433967 -36.1118165058393 -1.3521975894057 0
195.218729677009 31.4546420522002 2.79954434430756 0
207.85021625339 21.796839715296 29.5700868061057 0
200.899712103446 3.4386005845747 16.4220593051842 0
70.6749610201157 18.3455938149032 -20.9589345091031 0
178.751853466542 -11.2680450044493 -21.0801580574777 0
204.663194980086 -15.2001360359978 26.6638541842937 0
191.353896710681 -40.2013532123049 20.5218043924804 0
-38.8991500947044 3.07254101617129 4.79273281479198 0
178.090468045926 17.2728208260513 22.9449847702899 0
149.968486723925 0.121716402200366 -21.638951777659 0
202.045085695052 -15.7242322496721 29.2016676359686 0
201.880394128634 -39.579501960708 14.7587810960805 0
108.650473647737 14.3769064457479 -21.843062091765 0
210.690089801221 -33.0603876700747 -3.1445830810775 0
8.41592055281483 -0.472043141666018 -8.49509804605211 0
146.136224382252 20.2712088578238 -5.1467858922195 0
206.166115562538 27.8255264655387 -1.43935883643563 0
193.602584602212 26.6725120149769 -14.7523862848921 0
189.205904638708 12.7052966018456 -23.7518890480755 0
37.1647598112636 8.81210432248608 -24.2925322035737 0
134.333735333053 -5.66058719747573 -20.5635931497066 0
-19.124228722105 21.3732031792821 -18.4585022398263 0
106.482464599425 16.1106007709168 -20.949063743261 0
191.354369970494 -24.2249068822903 -17.1513882176741 0
-56.7909801348508 11.8344458055852 4.13612996953156 0
201.343988935106 -40.2471791207089 24.6046254150907 0
151.756268322156 -9.59204441993069 -18.6344234624271 0
178.830359927477 28.044316482965 2.61140347449596 0
-33.9080819666046 23.7177319389755 -14.5721444509535 0
175.082341865247 10.0664653078599 16.1537388268922 0
50.6917683859579 1.62596905070155 -0.378523733926974 0
1.03899588679209 2.41482259672024 1.63221799042246 0
146.825629152438 7.47001538877211 -21.9521597789662 0
194.25503257247 4.65882018924647 29.5820128011747 0
140.17599879982 -7.15357774086868 -20.0050968293899 0
202.443743897494 7.69632431938851 -15.1813353084416 0
201.503385655588 -23.7843999957541 -16.4707639317228 0
25.1862583396545 18.9720127923147 -21.8808516094708 0
155.354009611962 13.5469919272284 -20.358472770119 0
215.811283863082 -15.1924601998046 -0.560162918408539 0
138.851136987324 -11.3057251593656 -16.8938144487058 0
122.721058307025 2.33643767409241 -23.0602871103125 0
200.538265911382 29.6739246590897 0.573093338486628 0
-64.9229587755649 10.1924217989837 -20.2245217368956 0
-47.9448684688997 25.2623853913485 -9.70831579686479 0
175.724434196953 7.63279055047633 15.7085591157057 0
-48.4282012579404 0.783521332214425 -19.1942227569398 0
163.251659851647 -8.75116577441768 -19.1784015124785 0
158.011278433707 17.6633017267496 10.4117979444862 0
194.994146173458 3.71705394431334 -18.3926844008239 0
109.616167597307 -6.51131629245164 -2.80822802433514 0
-24.2082738550106 17.276754253589 -2.93032403404848 0
-9.05772061090352 23.2077480533729 -16.680141689711 0
202.209436341288 3.77252509067077 26.1478564349241 0
215.672702290979 -21.7191121739731 18.1489844530318 0
203.38552208123 -22.043047622968 -18.0668571298231 0
184.057105953552 30.9413549856258 3.47439973594044 0
201.983466953194 31.2497868173239 8.15922105164976 0
121.285091534628 11.0209547887711 -22.1991674671575 0
13.1995885526217 2.55722915945645 -0.55196026814051 0
182.678998740951 -33.5107817098354 21.9715742747831 0
216.843785732745 -26.4528979772681 16.380563219078 0
194.863704709557 30.529031178876 18.599042083619 0
161.91783470135 20.4771356934325 6.99778372948848 0
22.4490698021159 23.1307670704613 -14.5157668698815 0
-34.2349328023296 19.178489113826 -3.02469211696917 0
85.5383237795377 -1.68983552149319 -21.749116888088 0
195.126337402811 29.310690835302 -6.09654173868957 0
180.702713864712 -11.3704211368928 15.2707584807799 0
123.207155267989 8.0586683471654 5.97746553888682 0
-35.479351701961 25.1647837202962 -9.64657183935665 0
-76.8097296068679 -1.80337284424505 -5.00391411422794 0
-41.8227906567303 1.46003254200097 -20.9135340964803 0
52.7857102308678 5.62501391581468 1.28776458792797 0
33.0795330058222 -3.82422042312109 -15.1568035637281 0
161.916963586679 20.203608578047 -11.4897607483858 0
200.357820630536 0.298960110121965 9.20734378443706 0
189.488991069406 -17.3166810025667 30.853405991221 0
155.468347998892 -3.92722607705533 -20.497219068973 0
134.371563401045 10.0043054800559 -22.0364634067754 0
170.345599956315 23.2742137736928 1.56398797802565 0
18.2478311512372 13.8544010631312 -2.43648274760045 0
207.546266225231 27.4144492667433 -0.564085408187928 0
12.8288686857793 11.4418533559876 -1.04016542701334 0
212.067101553375 25.7927732387738 0.0961189604662157 0
160.078461908714 -14.7542568386532 -15.1879542477843 0
202.587097545443 28.29676520151 32.6455205253533 0
195.534386763859 -28.6557952685689 -12.8875283975692 0
168.123749061725 22.5465399590554 1.09525328465089 0
103.113258871957 5.51870446948689 3.391919506566 0
-76.8947628573323 -0.329658775690322 -12.5465921153137 0
71.2747123409252 -5.58213894075717 -13.7413397451105 0
-11.7816483626405 23.33387264932 -16.4638214398503 0
-14.3781643762772 14.5519625779202 -22.6638903696186 0
146.978150758427 14.9096895356667 8.21714648295742 0
-27.4785067255326 23.9942019774274 -14.5894354038952 0
176.687525256963 2.01223287531629 -18.2476738636265 0
-66.9227561991491 9.99968391124322 -19.9720683208062 0
64.686336782757 9.91530959218768 1.21055896516115 0
154.792588286411 9.33530536391395 -21.3961841318027 0
179.017125855544 -38.7391551472128 -0.286420068913214 0
29.8429908928429 20.5172846030742 -20.4349523019692 0
204.816068547779 9.04371442130743 -13.8843102606969 0
83.5674581189575 -5.81493657957821 -18.0249685165811 0
110.582840849968 3.62797845285873 -23.3171569300474 0
179.529781659615 0.0821074532345833 -17.9000316974112 0
185.858966040528 25.8486743407889 28.8349359245352 0
192.470988422538 33.9335971806198 16.7232633997741 0
197.028166095443 -15.1374293954317 27.3689923726815 0
178.947495655906 -33.0584006874717 -6.71516097653833 0
204.995699007494 -36.0472011383384 31.9584247957239 0
31.1219434602417 1.32449051348754 -2.08896177540482 0
2.11657714101786 19.8587408975206 -6.14111172969884 0
122.146933502901 -11.7115176036861 -8.25947402720798 0
158.005765588817 7.03327493222075 10.4653418771928 0
50.0747454861842 13.4410898302839 -24.0560631908663 0
186.356579990005 -41.6716373267123 4.11666071660911 0
206.878689294306 30.0549342012985 10.994748874763 0
104.930383896375 9.26540229530631 -23.3270204009143 0
148.60874366767 -7.07324608990996 5.5053784703109 0
189.265118389419 -10.7278196048812 16.3651207819822 0
206.95825132589 -12.5112442672003 -18.400537519956 0
153.448043046209 -1.40321383968324 7.66779298620309 0
178.482334838832 -39.3757700453249 4.35548261967193 0
198.709600762543 -24.1968094163952 35.5742095982155 0
158.880128035081 11.2648938402085 11.7014517289803 0
-12.7840112232714 5.62293373691625 -23.9599851222134 0
206.231754263962 -5.17571739410781 -12.2737984710967 0
196.870380653927 -5.22452921737782 10.4292432432231 0
193.275516994698 29.3526805745256 21.8743498681865 0
-21.3556513238919 23.447972632367 -7.79509123655412 0
173.659776861426 -31.3551272417045 -1.60910938535029 0
166.999858063859 22.2177172077961 -0.669250406246227 0
191.069127476085 11.3605482706829 -23.1666235162859 0
198.776933493373 -2.40781760574015 -16.4640035289009 0
167.530593372283 15.7815536602841 14.4470308394693 0
204.044243444606 30.0255298320043 15.7749716467442 0
33.7200131242054 21.8614956517443 -18.3500465804609 0
194.436226023454 33.6909801948602 16.4824847155413 0
175.262003444672 -0.0383529677149914 12.7153211249917 0
30.0583987205277 10.5691881558825 -24.276360537642 0
208.356208701386 10.5394481625673 -9.90178233936918 0
135.85468275109 20.3915447444881 -9.96220657861025 0
70.9206618349703 4.39403130294331 -23.8031036351742 0
-37.3572814146888 8.82738781658571 4.50600751460953 0
150.450294115942 7.99741862881516 9.63200978840087 0
191.990403034842 -0.149941306645527 17.5758934673609 0
178.568381295569 13.78275314322 25.0116894616403 0
205.537484851889 22.8020586310945 -16.5295562204417 0
182.83104352686 21.9526870790158 30.9204645075097 0
104.420920681245 9.46050086995694 4.14787227964083 0
195.564225905519 32.1841075308168 6.22601807374363 0
180.17502783984 26.2350849648208 20.3088255313888 0
-49.1426979064223 7.70614041431444 -22.0996787220301 0
182.316263221761 -25.4027149359334 -14.1814961596156 0
204.289486710281 -23.2509093676054 33.5283655878115 0
194.235613229644 -21.718383979734 -18.7573450085158 0
142.383094651235 15.6836333967287 6.80060759296509 0
180.271376956598 -18.0828297662687 20.5543017441847 0
119.055407949839 -11.3726574478755 -10.3865763934398 0
82.3313928477895 9.32606675285761 -23.8626211286251 0
138.924729292117 -1.11236090570174 -21.827838901897 0
-25.4294638666225 5.22059111118646 5.56045946076817 0
129.777427420926 -3.09607319875437 3.84850118822274 0
208.829749252113 5.9153051387049 13.7178414547065 0
106.32080929662 18.3162506446748 -18.7814074104126 0
184.380795049016 4.78848937721918 26.0277422966506 0
-46.9826509017767 2.38564612647655 3.45212986045067 0
199.976670171568 8.84335733391488 -18.0493241990404 0
217.002958328413 -19.1569856237057 4.33179209573573 0
179.356686687785 -39.8015751629274 3.11302760329221 0
182.530528790141 2.61649471288903 -18.7204135764868 0
34.5172881710279 -3.20792257741161 -12.7931993182752 0
44.86130239932 -1.01892688232827 -5.93221868684062 0
150.969109026796 -2.44394251954901 7.14567643036146 0
199.009201538312 -20.5604498004029 -18.949187541489 0
59.0846669935404 -4.08204943391785 -11.2538406084753 0
200.999962920443 15.0756596823736 34.1605304556009 0
22.9342184165538 22.5731977999903 -11.521125913696 0
-41.9017234595686 0.677745481594895 -4.08129292877657 0
-26.8224620478694 0.303599546467458 -21.3000397931525 0
214.759645561541 -30.8528932236071 -4.97674327194386 0
165.514232211145 10.0092726137471 13.1550457475635 0
190.159248541248 18.0815030565251 -25.65413486268 0
121.43246511733 19.9562961679698 -14.7052540912324 0
186.097667545351 -37.9936248586472 23.3646012706392 0
175.346024238942 -8.42550366369812 11.7902365265684 0
175.317752870591 -23.5655705017706 -11.9270525389622 0
216.04350532602 -15.5167273688361 4.43185726345428 0
35.8192787012063 0.935830731885184 -22.8780828209131 0
183.27340260007 25.3579147374446 -14.6839472394136 0
194.813971492867 -6.98190271001218 12.7371366643484 0
-72.3707080959503 20.2741365521919 -13.7534673781028 0
200.576403787316 26.1141615738742 34.1046745376581 0
147.16167291735 -16.7658059787305 -0.416132183105635 0
152.206948555283 -19.404526966774 -1.58543004623379 0
214.966600615944 -23.0412538926986 20.8416394952929 0
-20.1753871078492 -0.859804032323068 -20.7465631068656 0
205.471477334898 18.8278885668856 31.9505565400195 0
173.685491342942 10.381926093586 -21.4350786708247 0
174.565852895384 20.3752166311037 17.1176926944978 0
201.781069083228 -1.18723683991085 -13.5303842693274 0
198.602063878877 26.4879855690823 -16.6043718349196 0
94.7935927399704 9.4424923163037 -23.6165523405176 0
211.104188828138 18.630554684584 25.4648369819984 0
173.723198030753 -2.82553455807348 -19.3572277070115 0
24.8149365639108 0.686736071064371 -22.8024019954262 0
-2.89336754721017 23.5619842388393 -15.9701090223568 0
68.4811234917973 -5.145399723044 -12.6587549460045 0
192.625171930103 -6.22761729223294 14.2628394462842 0
154.674137577205 14.2457300680793 10.3972801270344 0
170.959980841781 -25.913875001314 -6.45956750526883 0
47.7411926889561 16.1171468333172 -23.1758970564025 0
115.884044249586 -7.60033449691613 -18.6221042938404 0
188.433881753108 1.52158265232204 -19.9094836736404 0
-87.4864149845029 19.221319040966 8.22922991941804 1
70.4800545118746 20.6823616342826 -17.9246368681309 0
133.40502292151 15.1912041660189 4.72884735263681 0
115.358269814188 -10.6627469570019 -12.3111871622963 0
159.84624943642 -19.1175450076338 6.53346432520289 0
61.1670333437541 1.7900388737851 -0.396675995417033 0
191.00429543257 -40.6681571848375 17.6263133709299 0
204.460181024355 11.0943478866012 30.6357276432379 0
186.076585858439 31.4800525836137 3.60316273669661 0
175.426916060785 25.3689597960057 -1.24261380211295 0
197.668478267307 -40.0647381610867 21.1268905434252 0
213.46193873657 25.2906649271849 4.87305265397855 0
210.119438492075 10.8860498846208 21.1901706473039 0
149.198817318921 14.0534058402859 -20.0993004507529 0
175.324915652328 23.3417126446564 -11.9883178641471 0
179.922565662122 20.0661533986859 27.8291292343149 0
19.4959721967681 12.0643562822104 -1.29056154370119 0
-74.4175298482784 4.62453579107359 7.20088588709526 0
186.294624731905 4.75264214141129 27.5858796200444 0
217.723583193886 -25.5423842861672 12.1581667428382 0
165.12412331806 -25.8873398837718 -1.76512153553145 0
13.9596853786448 8.71286018521701 -24.3559102032052 0
-31.537072749357 -1.06067577266875 -10.9696527525479 0
112.977743712499 10.2955552987456 -22.8804385143962 0
156.052293586221 20.5362299821564 -2.97387130832261 0
135.26429340673 -12.2285929965305 -1.42714959595576 0
-10.8492013254675 9.46612610342992 2.32855151412029 0
112.249773329814 7.37111165830111 -23.2729815293018 0
172.396324709095 -20.8936242705683 11.4845256162823 0
-79.4666916370299 13.2611772057703 -17.5469450574541 0
164.706740760582 -23.0194536754963 7.9396670933551 0
217.701828954913 -32.6750039521168 9.19133572364618 0
190.299865074495 -40.8911811640034 3.61014512803209 0
-14.3433330527595 14.0925276096831 -1.85060487410113 0
185.315088091812 -35.7912542344447 30.4383080374382 0
103.770774888842 16.0822096148014 0.870786233115472 0
209.521953500432 -37.2859867515637 25.8154558976215 0
129.511491302056 17.2372506657498 2.05887883831973 0
165.67777670169 -28.9425403940407 5.5739884953455 0
209.824800171255 -24.8060252174391 29.5461884995654 0
214.654249947791 -20.7934463951251 20.5417404086774 0
206.662861029537 -38.6444847248406 14.0153163872954 0
166.997066024456 -25.8983305076021 8.30365928440972 0
205.971764568528 30.5317116579791 15.3833125786316 0
177.986274526172 28.8962077235286 15.4001233261719 0
98.0785905052432 2.13837002592707 1.67013529820389 0
177.513677890617 26.9902764107846 1.41746293794479 0
203.592318494954 24.6575890859616 -17.3388868076756 0
145.011857676753 -7.00404346102779 -19.8413451538932 0
188.397788057678 -41.228755753896 3.9902858332322 0
202.859596077541 -38.5435793497431 2.19623465648616 0
72.017304617097 -3.09435135608097 -5.15940790777498 0
196.428114315396 -14.6066683907627 17.0504609856264 0
217.984038813246 -24.7713336680713 9.78971234124741 0
-77.6971983031741 2.18289434129726 4.97088901837166 0
141.167694940383 -15.7061882664419 -8.00572164125484 0
-61.852864561828 11.6373625281832 5.33056090412058 0
138.34697494729 -13.7355200443082 -2.08768356153192 0
107.581688270332 -9.40067760069523 -13.3122200310784 0
-77.902914505789 5.19461324737636 7.79894046502265 0
182.658157126562 -5.33069950496235 16.8847878578863 0
-35.5720151020741 15.2557278214585 -21.0521604512257 0
206.307225636671 27.2202686152807 -7.06027867759613 0
180.695335294041 4.83155144445389 18.4483719102747 0
208.728416704893 29.5563054670014 8.26241685813834 0
205.415757958523 -31.8539777416039 -7.74166696215241 0
211.153051269229 -29.1605407238697 27.7114300100417 0
177.697012775991 27.5151050283901 5.85250870574052 0
200.407586482158 -28.8634724758448 35.10878423697 0
42.8264947756168 22.4674380843754 -13.1472664051083 0
197.630850266713 -39.9436033709993 12.7568132880538 0
196.914077712486 -2.85296732759885 9.70210342351813 0
205.470363360401 31.1445839636245 28.2790942500696 0
194.013346259139 27.7162966693821 -12.069727201557 0
139.908596303656 6.88432745297582 -22.438798136553 0
173.002359240452 17.0851173899749 -21.9720439437319 0
211.127713099909 -34.138074379794 -1.3705980013291 0
137.40159653416 -4.60092975608501 4.49110548268444 0
182.987957961407 -41.4627755809227 6.19479674100581 0
203.485453202971 -14.6495240151025 17.599337347414 0
178.837049278507 9.92839198677018 22.5562394452189 0
191.806869935427 24.3988309914285 -21.3176356631431 0
213.232147844097 -15.1032839717769 -7.83566502495803 0
203.333337322782 -29.1184798540021 -11.4911674130985 0
-44.057578536925 20.0706112617741 -17.4671361995386 0
166.743851722868 21.981731406536 6.61457107543114 0
182.353241437083 -27.2416479464867 -12.8488328371618 0
-10.0704161560326 11.9080462417474 -0.723851374677392 0
103.346920287556 21.0441029795467 -12.4137126110588 0
196.123340577721 -13.4045624993597 15.4851244342756 0
40.6492445383487 14.9410392902809 -23.8008741758673 0
213.069627748245 -26.5408870090209 -10.7604282953307 0
208.273025716319 23.7176796077363 28.8563878265477 0
-18.4438002755504 2.90386794411784 -23.2256133670336 0
-58.070132625238 1.06236551833686 -17.8385427993348 0
188.318212191287 32.3324018698111 6.50722768267319 0
44.5635434212681 22.4068974387943 -14.7775515430072 0
209.601647239473 12.6501038837438 -8.92176472098051 0
195.005243110964 -30.3009463775176 35.5918139947189 0
20.1890546564896 2.24175810543469 0.61015350883639 0
192.950658674153 -39.4584871023836 25.076640219263 0
170.334975220848 -31.8704209902672 7.57283603781508 0
-85.5290270467991 13.2313525955691 -16.6876888634394 1
-35.0760138903055 6.49997121191416 5.62189863407733 0
-85.8960934778466 16.4315881458457 8.85030058024278 1
59.542120381112 11.8759123971667 0.26442280381262 0
192.195549968687 -35.3575535132959 -7.70469856559119 0
54.7970754320338 -4.40204816683008 -17.776542270828 0
40.9533540446676 21.9364645079259 -10.3886294695327 0
141.740393811424 14.499307338193 -20.092310075776 0
184.435872052341 3.6236588418268 -19.8379052261976 0
193.677479198595 -35.6509820409978 -5.25566189674055 0
-17.1392255392881 7.3660263870011 5.54216271496029 0
208.654957613122 -12.7482933482452 16.7164289151407 0
166.694336017511 -19.6383252559202 -11.749772963376 0
180.309933179991 -39.6260433006332 12.3539029795233 0
171.457542033362 -32.3813407458061 3.67099499991962 0
188.737876204016 34.795810589242 14.700481693675 0
44.5989842977661 5.62576657806753 -24.0233641537697 0
215.032175987918 -33.7672106970539 2.80937484407044 0
217.134620474192 -31.1013440924939 14.8965529690857 0
103.222558254915 19.0102431084498 -2.71703716901974 0
194.734652053232 -40.8941404622128 4.54816152034571 0
23.0571862147334 -3.2776127560746 -19.3278504861645 0
100.428724145394 -0.00854010837939943 -22.4769131784179 0
148.096166715095 6.97258670894056 9.16794366381479 0
-35.7897206093059 24.733580011847 -7.21090998340404 0
179.12992474343 -18.6099884211148 18.8429155425923 0
158.843417887466 -20.2240668607059 -8.02029126179645 0
202.043926186221 -11.8736895231572 13.3752275077895 0
197.966919105329 13.5880485793262 -21.6775309618323 0
213.429649825386 16.3252124034693 11.561893235191 0
-39.1266295377698 10.3009058675816 2.71452968185428 0
175.985447421999 -3.32318779106226 -19.2467684008038 0
169.583139870322 1.10626209144255 11.0942581129435 0
177.020091311412 5.75770123875862 15.0546848236981 0
213.012232725037 27.41028393266 6.36596467279297 0
-76.8525584416939 8.11445877878489 -18.6695336542495 0
65.0231014790461 -2.15686819182818 -21.2246100489313 0
-70.6951622070523 23.9008900371671 -0.127189744124482 0
-55.6864650510242 24.0331430178924 -3.01418658742193 0
59.420314480809 1.13555224410248 -22.7929435237169 0
198.570022822416 29.0824403043761 33.5491965603108 0
151.521192166344 -13.0570758802512 -16.1605898784053 0
212.604171656448 -36.3954490755443 10.0654487747771 0
86.6651026447168 15.9929009433136 -0.266010671147039 0
88.3271085860148 13.5590641676513 1.43723585384895 0
5.61175235450304 -0.332378219641882 -8.05233653338313 0
-50.1809539774997 23.5497783013792 -3.29163158513565 0
160.32569362066 13.8526372002748 12.6332781804142 0
99.3659797179306 5.30040770436294 -23.6793725969366 0
148.004183778846 16.9708655257249 7.23793072000472 0
10.723642456143 -3.40530950116839 -17.6655905747665 0
165.249956729697 21.7948343612621 -0.330524101024253 0
216.155032348828 -31.3593315834187 -0.365119340290149 0
208.56555069709 5.31501182298678 -0.729324951970703 0
191.406424297288 -37.6186086875463 28.3734925615824 0
170.912661789504 11.2494524379676 -21.635069610804 0
-65.8567291679197 2.52990420547718 3.52206369130478 0
-42.8653324040885 20.5159112226219 -2.53599986508099 0
28.615101990483 8.96189695339116 0.344205702744383 0
173.465956797008 -30.1221163171214 -3.36213050970041 0
149.920435097046 3.9165962353408 -21.9055753049939 0
155.427683976435 -18.0203398843155 4.1151484237744 0
-41.0212294432094 11.3195646881518 -22.2320663911446 0
104.093990396895 17.7634409812032 -0.779350170399227 0
4.17740897993575 -2.02432162823593 -12.3075977962626 0
168.593708779135 -13.2545036192099 9.87173108503698 0
175.424983629856 -1.31379097939512 -18.6719145391245 0
208.472061340912 20.9541460704116 -13.0893243291311 0
209.692366844678 -34.2980115025162 28.7587308843611 0
199.265006090538 30.9784986950019 31.6748884179001 0
143.463500509277 19.7530238259804 -1.50868190450347 0
210.37608807606 -38.4227439901243 14.3591043326231 0
179.843556478082 23.6875730503385 -16.6238021715449 0
213.659017026325 -17.9434051667961 20.2132542311593 0
85.4568631435859 11.8808553769737 1.96321570342031 0
-61.9758095827682 14.9492454730375 3.55483671178268 0
166.740204464524 4.25070294604652 -18.8088531664747 0
218.21985160939 -27.9076425612072 9.78775593394278 0
-65.0652482726544 25.2921444964419 -4.3219835134108 0
-18.9036124948888 6.755583913782 5.72152773691043 0
-31.6985284013048 8.52004351854147 4.55119914797843 0
187.305255972192 3.20799066057757 22.9359416137175 0
16.2695419193869 -2.47800309806834 -12.8494537556222 0
196.213964002537 -0.255417902651071 13.425181011408 0
-73.8278422539645 18.948917309729 -14.7860611722269 0
168.846385629883 22.3429781878691 -4.53906800167212 0
153.974825962412 20.1864552597367 -0.887940498181418 0
-79.8233951194726 20.7995029583018 -11.7997003919835 0
37.6615701350566 9.75597419259857 -0.0649171618354676 0
205.932272823559 -3.11469199755047 -10.5108034426893 0
100.489556675336 19.2070005621009 -18.1142868057505 0
98.7446658139359 -1.43568834109015 0.144754041952591 0
205.858375801143 27.374385017905 -4.49548608110404 0
138.785823886029 11.3582675578318 7.96689046889488 0
142.058020702281 18.6833197489552 1.86573237553454 0
173.227512161397 -25.0113715431758 11.6486080622747 0
72.3187420606417 -5.63611633445698 -16.2083997499901 0
58.0960101082327 21.1781674084121 -17.790185746504 0
126.411196729817 8.1099681673202 -22.6490303299957 0
191.03029715442 17.7218485216784 35.4143313008971 0
180.943959116504 -39.2046135132851 14.2364371884836 0
208.592185460859 -32.902366246613 29.9320970292471 0
-34.1386292239963 0.0869485298314886 -6.53485280859531 0
119.406321455428 1.40630875071105 -22.8696898397515 0
85.5305372735754 -4.53836915033024 -5.15499131115986 0
30.7142730051542 16.023736550671 -3.38420394673526 0
181.850445651166 -33.6731265036857 26.5199154964744 0
88.8951327602742 -6.65303260689663 -16.9771492427593 0
188.644427831704 -33.5270076357301 -9.57256050524328 0
72.5519532068641 12.1163216804987 -23.7760473390836 0
115.041557645793 5.4727687914618 4.58942746571472 0
69.7958215627452 12.7880646218861 0.53822403745335 0
177.494621629773 -33.2228509390459 12.5007997327171 0
51.3275818552341 3.28763698535957 1.15541359781371 0
93.3042602225573 -7.65027870660644 -12.5707095565816 0
165.44817977302 -27.631248877291 5.83563996472519 0
184.551874168263 -12.2932520202782 18.2633016132975 0
212.030769152695 18.316371093474 23.4530846275346 0
146.045037584107 -0.421227571492916 6.84055401142953 0
-78.5844550787638 15.8839137787233 -16.3402128260149 0
203.512957434654 9.18584687460944 30.3281830523015 0
202.657505889171 12.7548592946408 -18.2581660479781 0
-11.36244590321 15.3406248795906 -2.66159740654647 0
207.385346226602 -7.6449692127827 6.58151085380343 0
168.88619060094 -28.351635043424 7.73628174436567 0
211.145220541663 16.6020928886403 24.8342122034655 0
213.214455165971 -35.3827611379934 5.89182209694715 0
172.003534620624 -26.7008341772175 -6.31424402952929 0
207.439147015148 -38.4210187862879 25.5392939923835 0
165.00918993316 -24.5205476755178 -4.01496984175287 0
-59.6513618093909 20.3409062261379 0.651111363009431 0
78.3515102083826 21.407382167119 -10.5139712533047 0
158.392591105561 -13.521177951469 7.05443214373421 0
191.28593971432 -29.1805199554794 -13.4516687377741 0
-30.8699618356779 4.05932284298151 5.02959647460771 0
-14.5101299716945 23.065375651492 -8.31845293381525 0
183.902752475831 -21.6477574295695 29.9021218173247 0
-25.5937729181711 24.456098509332 -13.3733901132635 0
158.356496545774 19.2909134039767 -13.6036716372526 0
5.78349132631706 -2.78251537465535 -14.6334120567264 0
187.731843653675 -38.0591686541022 28.8970908513934 0
179.621246489219 -23.2033841448609 21.7580621240535 0
172.839848148597 -4.07091477741719 11.2148114366557 0
156.912021656276 9.72983436623415 11.1091008137068 0
154.040771295785 20.4413456536441 -3.43836908567207 0
193.294849182741 -20.0004396168268 34.2671666957083 0
132.806092075679 11.4711147232508 6.82567486579133 0
213.77426440763 -11.1370847182528 2.57971265907753 0
204.473139854745 -27.7108378297915 -12.6790597697711 0
189.076682239979 28.4005357027335 24.2495046915453 0
196.210767783585 7.5652961812161 32.0817171633845 0
187.866425349175 -29.0246559767734 -13.2700611704607 0
176.086971089955 -37.4056776358732 5.26134083322482 0
110.88165635057 -9.84871315069787 -9.00104651944129 0
-7.79638993294798 19.2868783585647 -20.5772477058347 0
212.999684512342 16.0738644461643 2.84784405766885 0
210.045854621597 -10.3944350128528 -12.367910441555 0
210.505466335036 12.7682718812608 -6.37922627137889 0
-2.97046922765602 1.96775741604905 -2.31761631269926 0
129.07298469632 5.16975548093193 6.16120627086376 0
178.721928569657 30.8877017944211 12.2897085423042 0
-57.3214568808612 5.43245495404653 -21.0544296031331 0
80.0293383079346 17.6517842609582 -2.31652440179374 0
70.9518300500717 -4.90198755253397 -18.6420861651269 0
8.7777841445192 16.1340089980649 -3.81447247798755 0
131.87003353286 16.8377172301837 2.95735259867578 0
179.864857328629 -37.8883399132942 13.1269512536597 0
202.519795457516 -6.08186806486836 -16.82396761449 0
74.0614502530755 -5.69846448283608 -12.994476471501 0
147.777420031208 20.0046237301708 -2.35509519229102 0
180.318317365431 24.6155345413988 -13.8076079480349 0
-12.2133541330718 21.7011722559679 -6.98452057238038 0
193.607827342179 -28.5302891314667 -13.5136866093493 0
126.31674036304 -11.805987779929 -13.8542782636175 0
110.977729301323 -1.82502160075902 -21.8886746137157 0
29.0848056800705 17.9598968557798 -5.08492802565581 0
148.05675860807 20.4059666695458 -5.3806109928899 0
163.548926528943 -3.4756238562347 8.99255701868477 0
20.4870972119505 21.5353406387103 -9.05892655352882 0
3.36368934630955 15.5148119814134 -3.34019180957167 0
51.1169173774459 20.5044053249199 -7.74456563805364 0
209.336976501215 -5.22976066883629 -3.79586987245784 0
-36.2696278114487 4.44362097282606 5.28947686429233 0
184.070690641472 -18.3323817765676 -20.4128622973893 0
199.965982798269 -4.5231273008228 -17.0965489338915 0
-75.9045322375031 6.04223780865417 7.86431181095452 0
168.528874816207 -3.16697222254134 9.72895161828757 0
-70.3684342570013 4.77930185802442 6.77167091319965 0
198.573444823653 2.43284225240739 19.6092743964299 0
189.434600523339 -36.1092923345047 32.7056035273745 0
205.10184117795 -34.6559252950276 -4.56484033501995 0
180.961596339381 -30.9158734197748 20.0915673983602 0
-39.0467176649779 15.6746478587678 -20.7012975132465 0
62.9460440816197 0.375458686932611 -22.509696312698 0
154.599755223966 18.6634510076387 6.21488657335926 0
48.446724836097 1.43820295804926 -1.07189919706316 0
201.466409598564 -22.3144876985842 -17.641870222312 0
206.066718252873 1.61952263990838 5.00811732334595 0
-85.4850440920983 10.3233582827587 -17.3758815704158 1
203.499117803849 -29.3771847651698 33.9025856757522 0
63.690594036677 2.525532459998 0.0167236431692073 0
67.9998244415726 -4.33516612477877 -19.4349053602042 0
66.8788474133752 13.1365752476583 0.220894802359313 0
179.428793849669 22.8752333284871 23.0843549370982 0
-19.2228007080201 10.0320758831419 -23.6115464048611 0
52.840609163025 0.900750332327761 -1.87897093555072 0
-87.2612900696739 1.5967454749247 -13.8579871668051 1
202.407818809245 -5.99311618758813 8.64805394244911 0
176.642483157176 14.5341587671082 -23.0613907543444 0
-24.546541741009 24.2263939968035 -8.52867881526569 0
166.135668558566 20.773336058817 -11.6891587105952 0
-41.7778076169633 17.5826593971461 -19.3244658652572 0
194.481619604355 9.67942423798512 33.5504952445116 0
69.0008223381298 6.53429812591556 1.9358406244306 0
200.953035871907 -1.18536191131913 6.69642453458659 0
80.5665772997657 4.99783981877139 1.78277532516144 0
186.994128686076 26.1780399007085 27.3941956811153 0
-43.778914416409 12.4436393484126 -21.6409152899548 0
154.446981117606 -19.4044444610432 -7.34612546621908 0
64.7551757811484 -3.6413382305735 -8.20822414574446 0
176.600705492135 -19.1720231688199 14.9777050157806 0
139.046125143113 14.945146648785 -19.8871382612308 0
56.1331509586994 -3.19103449277067 -9.20183771829459 0
181.32302829842 7.86486837789735 -21.2736783122832 0
33.7912847613435 7.42072011736832 1.88043697693179 0
175.416663827133 25.6272992871601 1.67240046825956 0
212.047061472725 -14.0075440582809 -9.67305614740174 0
164.098552994052 -6.5927883856917 -19.820016284371 0
182.58010478485 -11.6292491047384 17.2986580754166 0
169.742586271427 -16.6537175539503 -15.4077437745852 0
-7.13150754045119 4.92141935832546 -23.9265435783682 0
-31.2737136547734 7.08255907404169 -23.3219272374479 0
196.422030313014 31.6939378778764 15.6992298645421 0
-20.2073414152187 9.63314475891924 2.23887707289518 0
168.758742387969 5.02389493513884 -19.3285992722968 0
208.684286873486 -4.17006288664786 -1.28825716548731 0
-69.8664998159405 24.7532153062675 -1.70987755235503 0
-21.5684456329338 21.3390150052036 -5.51466574133678 0
190.443668294782 6.83865082365777 -21.3150632885953 0
86.1596555311385 -6.07559020183967 -17.8008502297499 0
