-207.360987009542 7.64307166831534 33.5415676759424 0
-150.289611854989 -5.88481946155859 5.33538614491883 0
-89.0940611361057 29.1170118116731 -7.77300276855929 0
-198.053114511575 -46.3228338077212 -28.058115164703 0
-96.2108836791555 25.9235413353749 9.64381464215255 0
-6.5321323076097 -1.31687157012477 -15.928651606466 0
-178.264985941957 -31.761580606131 -1.54495032782375 0
-205.618185964145 -6.76864281790173 -0.523031786033374 0
-203.921525886214 3.35062802888315 24.4692013490983 0
77.824856480713 -8.24745131285761 -13.9730915506968 0
-76.341088648157 17.0301817313421 7.78126134427078 0
-55.5959252282521 12.6099297224366 4.29629844816737 0
11.9288788478263 17.9524341571525 -6.13935446547777 0
20.3421784253838 14.0336369901941 -28.3308556012522 0
-219.750835465376 -15.3882312166462 -8.93412272580716 0
-174.962675115818 21.0327718280806 -3.13321070449075 0
-58.5734961035498 29.6318584061176 -10.8683981441807 0
-217.109658161022 -11.850784229304 -5.99425360743646 0
-206.608450378298 -5.72870952146864 -15.8005336123802 0
-44.0222018942392 10.9309001049118 -23.6723586364223 0
-163.197312906962 -13.0558788477838 12.2977743801381 0
-203.90065012826 -10.2185743128031 4.58537083786044 0
-201.046495324774 0.105010168027475 2.85138614389661 0
55.6532227411363 22.1218935998212 -11.5216900063878 0
-51.1354116683748 28.8317158595391 -5.1797072914522 0
-181.383001533113 10.8213574871416 -8.84413178736267 0
-58.9079220707906 17.2047327224301 -22.0908992625305 0
-159.441921507947 2.03354422360097 -8.03403827959933 0
81.9695324282943 -9.16339031359372 -19.8024732105779 0
7.76789721676391 23.5292030772052 -8.75155849249994 0
75.8912164812136 7.89033372590479 -0.959746773417559 0
-200.150096017008 16.5892401044862 -4.95647633983706 0
-26.727317557808 -0.795053366604629 -15.3583941687409 0
18.7107186696607 8.2353522702854 -1.17501229970766 0
-158.188340978087 -5.94091255588509 -4.75024715949817 0
-200.239378514508 -29.1470403233707 -32.8403952928029 0
-130.209613410111 -1.37819313111206 4.70217166480921 0
17.6567095500253 26.0053714159872 -19.232807196676 0
-218.241811670034 -39.6719670985173 7.8971445156044 0
79.7803753399878 2.70010949531932 -28.594565329091 0
69.1671298841747 11.9608769567231 -3.3302600279215 0
-187.686324070847 20.8674770556675 33.4491140640714 0
-165.702202428402 3.99632016273733 -7.89634668016179 0
-206.350777060666 24.6908963995874 7.18255265659925 0
-165.670344461942 15.5743199783266 31.711871025047 0
-215.676985419232 -42.9629250109993 -21.6939712471749 0
-214.754587635453 -16.4914697245018 -21.4492957579471 0
-184.395370835575 5.07373626065027 34.3557395662325 0
-67.6001892506322 5.19073238553304 0.943180317651851 0
-173.679591321108 8.93588525841773 -7.45073105510916 0
-179.147998476799 -6.66707460474901 17.1869086250929 0
-174.626759927462 -42.224998507006 -9.21141413997756 0
-102.38852984444 2.15645685576475 3.61315786774403 0
-85.9393493081536 9.41206074424982 -17.285634951414 0
-209.79961519309 8.20844097740729 20.9948696620238 0
-111.398912777969 0.489448639081926 3.66286765771522 0
-121.542469267222 24.8924837714244 15.6174284949774 0
-196.182282379615 5.00497935531244 -11.8559046890962 0
-180.371607985467 -47.920966677333 -17.3603411588776 0
-182.911560417245 3.69535172124969 32.9842540545542 0
-201.615495877011 4.47000538846648 6.34494316220688 0
-216.247872640892 -28.0945202351258 12.7752294669037 0
33.9977530028338 25.168290484515 -18.5211212023513 0
-177.831421148245 27.7214307291665 0.0295551706735263 0
65.4644532204212 11.8976939902366 -3.55492015445395 0
-180.909598446337 11.3580060960738 36.2849290534971 0
-195.580786221292 -8.54270748379527 13.5758368476932 0
-143.779399403909 5.61375376822935 24.5460437260273 0
-197.883445165288 -8.85180611331505 -23.0025497521828 0
-167.823393058974 33.3849437014362 6.61938173258053 0
-178.631968693725 -45.5091681352632 -17.8026670475764 0
-203.460843064351 19.6397097913322 29.3501701410011 0
-96.277209726809 -2.7103440931399 -8.33719615628698 0
0.627264000968532 27.7052526236175 -15.1678081234688 0
-110.546964089332 -2.13483214984833 -0.895389266571064 0
-123.908401826384 8.03666059863133 17.1813132401958 0
-157.651904401787 20.2014301287378 -2.92382406641987 0
-45.2979093616544 28.9381346497354 -6.26670884683481 0
-33.5119690391064 20.835116148312 -1.71189450873501 0
-186.490946866248 -31.71336324671 -30.6207866441753 0
-167.865152961755 32.9032540020079 14.6039903017441 0
-197.73416308026 -56.0805216374081 -9.3380426743977 0
-6.0243248597406 25.9641003262405 -21.2949742580656 0
-134.57918127037 16.8230502195445 -7.08606910763258 0
0.289793796968068 2.69687954669546 -24.4103866599824 0
-186.144499457994 -40.8237258150591 -28.1903804843224 0
-183.784754987477 34.5169362923082 10.0670507056194 0
64.1927396961661 -3.38250297873414 -26.0566908601909 0
44.7130415227566 -3.14150091964178 -10.9538406067737 0
-212.29527986298 -28.8166382714245 -28.2042665947392 0
-132.556278365644 29.0397913202862 3.67061799824197 0
-180.192091087497 -9.91108102672698 -13.1223662316499 0
-199.870952355423 7.15700552575729 17.2990152404802 0
-52.153303390645 -0.426728662071316 -14.2011644243047 0
-181.304185942471 -26.0303890182621 -25.999440829913 0
-124.891426611175 4.37300382920851 15.613279929103 0
-20.3231938167336 2.53982861603538 -22.4681786664299 0
-191.985066014325 -24.8204383108014 15.7809670269769 0
-160.259683966744 30.4999601461306 6.10134500073938 0
-116.367446346998 27.990827846532 10.8311581848457 0
-127.74525502986 26.3367668481297 15.6312546204117 0
52.7964409419022 -1.40680164434339 -8.21900724113258 0
-201.837521106871 -3.14864023233592 -15.5876175504684 0
20.4425094018121 3.60599594849184 -3.37910849147565 0
-65.6941703922252 3.02263174203553 -17.9489425934301 0
50.7946948403517 -0.876139725685816 -7.72836706086941 0
-204.40120225115 10.5607180847837 11.4892949613139 0
0.0180725744611764 0.88606629218921 -8.28751912004387 0
-214.303464075944 -24.5857267985234 14.2261994407483 0
-7.78036658537015 17.7879905308997 -4.26983575692037 0
-171.325714905456 30.7986258135095 0.664025158839245 0
48.0978463538448 9.61490977873717 -2.9115563760969 0
40.3397482152835 19.5233429805277 -25.4478471585324 0
-128.362814780167 1.874529339939 15.0753940148421 0
-68.0464451180148 10.3813714122181 -20.5872634185064 0
-150.685516809609 -9.33321284376973 22.9541277887378 0
13.587104665007 0.712437510176134 -24.024796812191 0
69.3186097007855 21.1451634572429 -10.6639986414994 0
-221.255632882852 -43.8025035930903 -5.40809877995086 0
-189.400210264832 -20.7370345888978 13.7612111793571 0
-160.85413318767 31.5312473916074 11.4818722915051 0
-109.432191830131 21.8988575780063 14.1215075167598 0
21.890276306094 13.1036469514125 -4.44785994328322 0
-131.91609560084 16.9097970920836 22.3821009404092 0
-43.6845670511094 29.1015368360965 -8.1097259166437 0
-208.171686377037 16.4678837389335 10.373157895584 0
-206.917959057192 16.8963295689774 8.27498828285524 0
-152.174796375958 -6.40938878516492 4.78986501876751 0
-219.031378625042 -32.7899052854477 -21.9819271093299 0
-103.602924040142 4.33275849826684 7.62466978847375 0
-178.904180023491 -26.2385668429193 4.17973056720676 0
-207.323532440054 -8.1260924141377 -0.452644409814834 0
-200.161164759427 -13.8215057595619 12.715462984652 0
59.7544260721421 -3.84608645860727 -10.0055865239973 0
30.0317790022129 24.5951935747739 -20.7444743182328 0
-47.3415624021024 5.29590625481776 -1.1671727127391 0
-203.579960373105 -21.1189902934614 13.6771650322103 0
-139.761880508761 4.8113537940756 -8.58906753513684 0
-183.198377278293 -40.6498643512561 -26.54522417927 0
-194.075558008182 -15.6269747066142 -27.873020277121 0
-108.259835855617 1.26479286640763 3.57666187624151 0
-71.6827716942849 26.0407222555357 3.16865668563336 0
-16.5797456726298 19.2675928893319 -3.77533493690164 0
-216.556133208989 -25.8721221165705 12.2429359391658 0
-219.281381562507 -46.9980943761338 -8.56735109278459 0
-217.45974266303 -41.7220746797408 7.68141146804661 0
-66.1921773100177 24.5193297908771 3.2858618757408 0
-184.75420706477 2.78359760479662 21.6538327381027 0
-177.026767162833 -47.0582494969765 -0.223213113934571 0
74.6381161070227 19.4015201400492 -8.25817017296153 0
-170.340766214888 33.662027370591 15.8487867797385 0
-26.0752946896381 7.06532053118671 -24.5787984102998 0
69.9531393758183 -3.86456960148141 -8.68125699757665 0
-19.1691189267222 9.37931779331519 0.188745020115063 0
-176.186173142055 -1.57973289745556 -9.56275481299412 0
-204.306470195614 -49.322839171678 -23.610880287989 0
-14.4771637041105 25.7579660779659 -7.66343333666929 0
-208.919959035409 -6.12547403964688 -13.7755222886738 0
-47.4331997802932 29.4176630848615 -10.67127495986 0
-30.1084828273841 17.8081209507839 -25.0417007970869 0
-53.9877706851232 22.9905341976508 1.23710872592941 0
-146.685725685325 -8.11541684084692 10.6141928725662 0
-86.5953847204362 -1.14134065071537 -11.5467771363236 0
-59.3401613395547 26.0885198570133 0.338146297746214 0
-15.5429074495039 6.21651554370046 -0.968083327671131 0
-184.23237895324 -37.2172552739797 10.2632392139417 0
-199.622694851056 -58.2766274362618 -3.34502122345784 0
-181.765868333668 -16.6023219980469 11.6730293918612 0
-173.907567100983 -22.8261400055522 2.49871886395345 0
-182.859194266704 -50.0574701182272 5.90161453586967 0
-35.6601098950412 18.7941469989426 -24.3817160955694 0
-24.5811473600554 26.4221179224912 -20.2304659537811 0
38.7378245234849 20.9095987482516 -9.33466064858608 0
49.0179321926902 22.1990017656673 -11.1348467164966 0
-107.326999066539 27.0961176645901 -7.38597474015668 0
44.9343113975829 -1.70278370786359 -25.3436297780713 0
-207.11031600467 20.6064857102333 23.1974130255169 0
53.8838922572083 20.9391801642478 -9.88509459495243 0
-167.566739008914 -4.40922875224926 -7.6966370266415 0
-164.269998843887 -4.87702261927615 -7.11844323506014 0
-33.7967660059642 28.6923560695998 -8.71367481585911 0
-154.386472565678 2.00571546647203 -7.71402538741939 0
-200.593261717287 0.0553547957682499 -10.4386603098638 0
-208.07855933616 20.2392553245858 7.32504330224987 0
22.2802982516104 14.6785239701312 -5.23727965476956 0
-213.703509812064 -48.9000738760227 5.36245856185343 0
-145.746422443777 24.4964482345947 -2.39681372965578 0
-105.93817479498 29.5009587067084 0.138260085458424 0
65.9362621664052 19.7949323417289 -22.9432483212494 0
-132.948196537887 25.9127416963178 -3.16674992701504 0
-124.355891159415 16.5565797880904 -9.3663295628012 0
-194.716727677544 24.1677787495842 -0.665902736379713 0
-133.327806404271 -1.7320351166283 9.81292854635176 0
-93.1840619636359 10.5646856743016 9.2632540999614 0
-34.7863077507008 0.282221435090259 -7.90491069195877 0
-206.601107222917 -41.2266340078667 16.5212558327509 0
-94.8630593506411 18.5850933986719 10.9839330687333 0
-36.2266112225286 10.2224839471157 1.95037182000526 0
-185.17633019698 -35.0565548517939 11.2621348652708 0
-73.5623549107946 1.12597123143696 -15.2821424734235 0
-184.019845844597 11.9611199037944 36.4196588552691 0
-130.717450940812 12.5243893751614 -8.66212198766252 0
-193.177028708496 33.1893448741759 15.4718669611408 0
-110.360974983172 11.7457042477998 14.7788943965991 0
-121.12735196695 22.5915245762212 -8.15169308003372 0
-202.841454304419 -27.2740586426952 -32.1832823902913 0
-103.74882827731 25.5388525361198 11.586259211622 0
-175.544268111735 -12.6021148899865 13.2014027980886 0
-87.6141546089415 0.707958670727542 -13.3372511355751 0
-198.288991110302 -26.2892618017541 18.8663390606667 0
-127.826855041862 20.3148166560405 19.43410745968 0
33.6449980682025 24.5440614607584 -12.7126261719383 0
-109.665236907883 0.623947396126914 -10.7747994374162 0
-176.015538269661 25.51743904679 -0.653716434031122 0
-220.151583758972 -25.7081790795032 7.53099974134997 0
-193.90141483175 -33.9599582672732 -32.5430744088569 0
-3.00694836434998 26.5250901359619 -20.2861503143392 0
-176.223886529812 33.3008529034039 2.65927535824749 0
-145.972017274448 -4.18739064241776 4.61252135766288 0
-194.599715989323 -39.1345155810254 -31.4555632595355 0
-200.835103059708 -11.110794824059 9.02413379521354 0
-14.4103401690497 23.559765259839 -23.4398889273267 0
-36.5573093505763 13.6097371017287 0.632639694904284 0
-175.080353577161 -39.5684903302596 -10.5838641058895 0
-182.356004697621 3.30284951432367 -9.93810915124888 0
-163.391688955048 2.90195391636388 -7.97469235868991 0
84.4024463287259 -9.64359362429126 -16.1169724039725 1
-182.357548784324 24.3949884047618 -2.41425408514586 0
-80.7083623490046 29.7918921355191 -4.44046156015008 0
47.2158735573149 8.18419873588747 -2.04623289962418 0
-212.311078740496 -50.653394891795 4.58444542996061 0
-42.4568021271551 -0.906431701140513 -10.6895802438007 0
64.5404791184382 14.0440753460638 -4.8314993027373 0
-88.2949130809415 18.922646350346 -16.6513789816601 0
-210.159722035806 -48.7664284198706 -20.841638336464 0
-167.615538025906 25.289323515897 28.8566830979894 0
5.34532523911604 25.0346237586272 -9.65590478627781 0
-202.938709493396 8.90656327359502 13.9389077885033 0
-196.431757943988 2.13395760640323 13.5415225371618 0
72.4972463216756 -6.87442286999499 -22.971722163871 0
28.6710387520363 5.9762989083402 -1.65187226208319 0
-176.225813209742 -31.6187246855883 -15.3782425700908 0
14.49723023991 -1.40648746813567 -12.3243478428663 0
43.9045218848717 21.9709686159547 -23.0059495347577 0
-184.499100280771 20.5187126052282 -5.61485484080254 0
73.2019929518941 -3.24724315611844 -7.59411956962591 0
-181.832912971332 2.74208648768851 28.0430734698089 0
-184.762936011475 30.7159205006009 2.95167040029351 0
-147.013437803151 29.0709648437657 5.62824831408844 0
-211.673653968897 13.1885598505667 16.5541363335645 0
-22.470298288483 24.9502058186715 -22.0322108955372 0
-59.2107298076872 -0.997139132845697 -11.9628524836715 0
-109.254088276159 23.9910558618368 -9.88668788572842 0
-129.03759273463 0.047819640754177 12.0276406763961 0
-164.736231521164 7.05345499005981 30.8840977041276 0
-201.44680055029 1.76226017801655 -7.44289986273369 0
-9.61633148703737 17.9371201843803 -26.1945702027027 0
27.2334019655208 2.67729247150246 -4.99075288100736 0
12.598925204113 27.1141848989895 -14.5838200208951 0
-198.070702569496 -54.0301223033546 -13.1939283458529 0
-135.93904577701 -2.44401196616431 1.20225381902296 0
-100.682125070876 29.7040912154673 0.96833313658596 0
58.0221171495733 3.39628344842694 -28.7052729107781 0
-195.704539876496 0.0782700605253619 -14.6362265011101 0
61.3353235102599 -6.99856076428369 -18.2430215877677 0
-213.924189434714 -37.6216891867094 13.5947890142684 0
-224.146880517893 -35.352281417234 -5.23092215136038 0
-66.0614305515774 9.52470076397937 4.3614212883335 0
-118.186554007664 19.1604854603927 17.1242214810157 0
59.7325107923993 -2.20274116166575 -8.38412693333291 0
55.6213862473533 -5.55923005866958 -22.0393928477366 0
-91.1993060929619 22.2392429409758 10.6088656682494 0
-170.524594759529 -15.2598373107148 -5.92425856118758 0
-134.028106376571 10.2423515184529 21.5339566557946 0
-180.767750176725 -25.6180264805077 6.48228783577315 0
-204.858217154242 23.9265626513201 22.0290213766147 0
-167.909654569182 -0.512802049376183 24.0616844863224 0
-168.625283184473 32.650718915363 17.7630728846814 0
7.32549724102624 26.171231417675 -11.3085526361397 0
18.3991016518353 12.9418109255472 -28.4563767701863 0
-38.6609611865669 23.3289231765836 -22.1620086730699 0
-156.969895329651 -6.8165719810843 22.5967259143984 0
-177.654199464162 16.3243392820187 -6.3298598541404 0
33.7356660451214 -3.61237744230708 -20.5092738595898 0
32.7207169638433 20.9256349724028 -9.12135513561893 0
-117.065277258883 -2.27090420955893 0.0940491677280964 0
42.4223709373587 14.513720263765 -5.61100165855328 0
-130.684777714627 -0.944435848756218 6.35279900783449 0
-125.154387348656 -2.75791298715369 -4.51494202995026 0
-99.3761883579388 28.133329679133 7.09515118761942 0
-198.380903922844 6.45812936356314 -9.44533068151316 0
-99.2614961725016 5.54916111770239 7.81548443689643 0
-215.179964167341 -9.49719033447096 -5.9243069966313 0
31.0753102619819 2.46365155001238 -5.42102970760903 0
-159.968516068246 19.2694730314733 29.6395871973506 0
-180.358560835107 19.9531655489472 34.1534013660615 0
-162.814509623965 9.05185256774633 -5.63460383736298 0
-178.347494208283 -37.400108955916 -23.5566971052108 0
62.0636330068732 22.0614752969289 -11.919208535539 0
-176.690540600341 -35.7600975061547 -21.7452334178615 0
60.4368905061835 22.2163824511699 -12.0310437199332 0
-27.9042210920012 22.8245422241499 -3.32700567715348 0
-60.7915417220031 27.939692716455 -1.76767011066841 0
-152.609373239011 29.4994488979384 15.6736609327116 0
-198.997824726541 30.9726663791231 13.064652371509 0
-41.5519956370707 9.7528094653817 2.67115822197589 0
-161.383560771034 27.6901217528285 1.46976095485645 0
-53.7642801624977 11.2270793811873 4.19165280694306 0
-207.330563749566 26.4681396038537 9.433863342679 0
-181.840239228428 -10.6836343471552 -15.1137622282571 0
37.0103962885575 21.835948912051 -9.99061371898275 0
-110.19486153761 14.4595706341204 -12.4689285843476 0
-203.67933345728 1.12760297683273 32.5004951064381 0
21.9722663219592 -2.59929741459245 -13.9809133397372 0
-127.645034566435 -2.34428829966373 -0.330957146483267 0
-100.011161828033 9.2749355771536 -14.6595873253887 0
-209.280047171097 -23.3413660211166 -29.0726240434378 0
-40.143903984969 1.47769126590198 -19.2028951393607 0
-147.411980437025 4.59023296718071 -7.84438615545369 0
-206.568964574643 -5.29028027995886 -10.0656529498853 0
-178.898753487279 -30.4070291561992 -24.4704713836453 0
-33.394441006986 1.22528877309816 -19.7438923631174 0
-200.218965373708 -3.3058100554649 3.60890879406398 0
-182.975130514795 -29.6811481424649 7.83123932135308 0
-162.673376394828 19.9057065382826 -2.79201800987594 0
-177.263921596221 3.02880905582162 -9.35570987823885 0
-57.8140490225096 27.5074613794844 -1.86515355798972 0
-183.263168009869 -8.1348011339266 -16.0066926912168 0
-170.616823509177 12.4522032312524 -5.61944640053705 0
-159.24796821532 29.1244672420582 19.5185019922463 0
-179.61967168028 -48.6389967292173 -14.7417042915162 0
-131.26640890923 19.3472807373387 -7.34279312742637 0
-188.151754951928 21.4356955915973 -6.7143181866269 0
-216.776174338617 -34.0270333207677 11.991315302129 0
25.9500478903111 23.903998610963 -10.9068422476322 0
-188.15172381027 6.43082617239281 26.6711321546848 0
-155.844535085069 -0.663738148643554 -7.63734871599214 0
-197.197084536035 7.54009970455083 35.543842842803 0
-61.7443151787975 17.3119360421235 4.59652672465586 0
-205.839083944588 27.5031431122154 10.6983326139299 0
-135.573859508616 -5.69130208351518 16.3701933354279 0
-35.715014124927 29.1789810514565 -13.4027956654269 0
69.1370620602664 22.5122866064668 -15.1068551933619 0
-181.280832508059 -42.341422829969 9.19518441457739 0
-194.372655226946 -38.2897329003181 19.14966483988 0
-204.096714348594 -21.4165196442264 15.372088107349 0
7.1431308930348 11.6160158551053 -3.14068643865911 0
-193.455210592838 -55.9588908587829 -13.8865822457885 0
-200.90368718859 12.9737395582362 -4.5696952876836 0
-168.353268850018 21.2226108250043 -2.33040153105199 0
36.809482430515 4.13386355366473 -2.33942029672282 0
-207.420706816189 -35.860973490597 -30.6261121678399 0
49.4168720541456 -5.82111300075611 -18.2050766779597 0
-196.394844811635 -42.853824641287 17.5086959576912 0
-211.364543528064 -22.4192974643871 -27.5233852989033 0
-90.1186605819412 10.5871356456643 -16.6315835479179 0
-118.99803409898 2.33797142622457 -10.3083203946283 0
-10.9429694910714 3.63045697538081 -4.6576023789354 0
-195.783324726136 -3.12153412399854 11.5214958738294 0
-73.892979000763 8.98913902168384 4.6918238677502 0
-100.815107410189 28.9278759361477 -4.92403672978296 0
-189.650973464831 -37.4860129999071 -30.8026954721778 0
-74.8188616455128 12.3008964158047 7.51530745953013 0
-93.786823144212 1.08828711116321 -0.0738071180641408 0
-201.501324960667 7.19739216504611 8.89908639615496 0
-209.862122108193 -55.1844224467413 -7.85862232155466 0
-181.34018308252 -13.2296498831586 13.1003562509959 0
-49.3915357495724 20.1119669614932 1.12869251739965 0
-102.495441185308 10.0635311749596 11.7221896803318 0
-49.5870700352053 6.32908676960864 0.117393702595002 0
-187.360498125277 -24.2633692683741 12.1284362242116 0
-173.387606075159 -20.3336069243926 -6.35674269267477 0
-126.638476960485 -0.582837013865595 5.43464823431419 0
-8.05574713547966 27.9728899674405 -16.8221958559838 0
36.608806303356 24.5846068565481 -19.7442149957153 0
-170.20194688425 1.25264299876544 26.3494365640288 0
-183.364911287996 -4.95811033234258 17.1239669565892 0
-166.371116525812 17.1581951241335 -3.67828606599254 0
-139.575947942225 7.66543890211242 -8.13339691033329 0
-206.568853892921 -6.94919936973126 -2.81527587387883 0
-155.947339027175 22.3931646503463 -2.20865253713523 0
21.6223409181697 7.26628129377076 -1.1166358584238 0
-47.3508632875476 6.81958846676335 0.761234811566475 0
-81.3242216732473 -1.85099576961335 -7.88395580184495 0
33.284951443582 17.8424913299448 -26.8272243457159 0
-199.399986784933 20.469109097205 31.5907933513294 0
-97.7653061960224 29.571120401034 -1.35330081691702 0
-95.6585689465809 28.8172642374203 -7.02704164542102 0
-204.329560659572 11.7771585155844 7.28617344304434 0
-160.878601800332 -1.74845353736019 26.2328581365439 0
-116.201127282853 -2.0610510019318 -7.77873703674203 0
70.3708645629841 22.2853619515711 -17.1366751142503 0
32.583045320896 20.5545343521486 -25.2427614768308 0
-189.476693371183 35.2225321742297 14.1891246331484 0
-166.754418407749 -17.1798756598644 6.29727311238183 0
19.5761816139747 17.553167540062 -6.53454707962606 0
-140.66764991359 23.4326931295451 21.1115254495644 0
85.4496752221506 -1.52019721135421 -4.1968560280209 1
-157.873225872887 29.5339630152535 17.3011866705319 0
-209.632254945268 22.1367835720519 15.2380629993455 0
49.6556859768248 17.5493898774145 -26.1155241050755 0
70.9122721547351 -1.46383608461487 -6.22794312669216 0
56.379661423432 3.11587113672939 -2.44515506535348 0
-184.920207430819 3.4615325213499 29.0989133119536 0
-194.691351664493 -21.6887165078005 -31.1062970108478 0
-87.5198062771649 11.2302067459592 8.50464581553042 0
-192.402449725349 -40.6559449303804 -30.5017368375525 0
-155.640615813882 -2.76411981198376 26.3923745401376 0
-39.8412581814698 14.7948184675207 0.590758482017434 0
-117.037811572906 26.9810335282266 12.3778877989476 0
-69.7797363429472 0.0101992052610583 -14.1677828312101 0
0.192056059429619 7.28923437031285 -0.572890674901751 0
-205.508470053015 -16.5069471006047 11.2208020893474 0
-162.466247955174 11.7846358710346 30.7744884499087 0
10.5972364255089 12.6326245028076 -3.79327876093281 0
-145.418802637047 -7.15796051100877 10.0026142738907 0
-31.4579735084038 11.6990525950827 1.08838845906187 0
-190.734343759231 4.17911393743437 30.3130842672135 0
-202.732637973089 -52.5296543045811 9.07699405067974 0
-217.588642386576 -49.1635944058712 -8.35575108278814 0
43.3536490387123 2.32239376441423 -4.70276799362834 0
-13.3613376994248 12.1565068949661 -26.7770436301814 0
50.7565453683794 19.9302924989792 -8.90852247808847 0
-180.347543140093 27.5309671043815 29.2723442075881 0
40.9753764272034 16.715856325223 -6.79355646854969 0
-12.9143377133007 28.497447826711 -14.676063087016 0
-182.059093196747 -8.93830558581704 15.6051905868988 0
-20.1719524495242 -0.921642685691892 -11.5034846243128 0
-139.963312142886 -1.98232795003111 22.5999661436519 0
34.6777471811819 11.2181985929837 -3.87451830785756 0
-202.758832547487 0.117679476512432 -5.50130958977184 0
41.8857908139324 23.1582450490901 -11.9133490965806 0
-155.894637607493 30.5518532280198 11.4082054666543 0
-204.938043498342 11.6057218942257 0.394075266912563 0
67.5050399715828 12.2377545138177 -27.7125305819612 0
-197.523647724898 23.0083455993318 -1.83515178769365 0
1.83188755710927 14.3177876479173 -3.84816838735983 0
-110.75950665383 8.83856197092893 -12.5613063194606 0
-183.696062163498 34.5547107447332 19.6845120379519 0
-179.542439963012 5.98064316353363 -9.49716572556602 0
-14.9319332283812 21.4048081119458 -4.87745525507184 0
-182.900069356974 35.855171129823 14.367823559616 0
-119.008542423386 29.7570058748132 4.01239049724585 0
-182.56045638431 35.5550687168384 12.033436908685 0
13.8521233618484 18.0571366312402 -26.914126154936 0
-212.862478981777 -46.6424150206742 -21.1668875617821 0
-169.952410468585 25.8896921041244 28.9640815186775 0
-156.889305931397 29.2950724614559 4.9428904335774 0
-170.945844591863 24.4055494602096 30.6701696286945 0
-60.3988753962952 0.998788284896017 -4.56907069238377 0
-73.5470607269348 11.2370309741581 -19.7456744843461 0
-186.773502545678 30.6164599577717 25.6899841108096 0
47.445830712583 1.17259428083984 -5.87651308262663 0
-185.647961973933 -26.1974947775779 -29.5845071527747 0
-202.267837272983 -13.6980950557276 11.1468305513286 0
-146.964253959701 13.1976141282189 26.3051650089324 0
-124.673121721953 -0.645039933347828 5.26954892414877 0
-220.50498482919 -23.5524321348712 5.9897153728567 0
-206.435003803398 -55.7259019631908 -8.11405275463276 0
67.6473265812244 22.5547786770727 -16.9231085454134 0
-206.44394510297 20.4119372909707 4.38603675809523 0
-143.578182988631 -10.3487462163944 21.4850453219071 0
-185.826414857312 17.5344734993281 35.1037123642393 0
-182.015161836189 -38.0306920581885 5.89120702722523 0
-77.7921228514416 14.6845097229129 -19.0636678509752 0
-185.919012330608 -5.04067731472148 16.5257885874913 0
-76.4677998360703 25.5444692943217 5.01445471183342 0
25.6610132728314 0.312648193672619 -8.30461155213103 0
-208.657209987046 -19.7530002516589 -27.9784626656697 0
-73.6075815513686 5.80090311999608 2.26580421717063 0
-197.565503331654 -3.33631109816768 -17.9827711639748 0
-30.0719504294621 -0.913136566023159 -12.910465080396 0
-221.180472317296 -43.8777700874534 -8.50754218869395 0
-191.516454008231 9.79586986960156 25.8618439716319 0
-112.787304899263 -2.8829675685251 -2.16916530986239 0
-161.939677966028 17.3129728707638 30.4780109154063 0
-69.7801888414055 23.3157966950836 5.03963005049992 0
-180.338754746192 -17.8961632755057 -16.6215850739202 0
33.9362204018695 23.261499954984 -11.1105261633412 0
-160.163827555416 30.3006319886377 17.0770397117837 0
-145.64397798776 -0.420297259850394 -7.15352251924864 0
68.3420584797592 1.79967230503431 -28.6079237919954 0
65.2371386980145 -6.32036173813519 -22.5494823517509 0
-0.444490227385908 25.8742994990782 -21.3298316747286 0
-125.866938380204 28.9144616498806 9.9791618810901 0
-61.9515029669909 23.3824433073955 2.98842445911054 0
-223.38857639997 -28.3892452167429 0.830121031408739 0
-205.167189500056 25.461951940627 17.4073469388928 0
-180.510866899447 -1.24468155455887 -10.7705842102438 0
-102.257696330514 13.3984358808165 13.4599221474131 0
23.7990980928851 26.2905915030874 -15.9224055432459 0
-223.220663456168 -38.6800872988223 -3.82338623833511 0
-212.034633569282 -9.0143534449767 -2.79640905245237 0
-112.459512445396 27.6505987457592 10.6992028793804 0
-136.17460416783 6.88502622594151 21.8634386752988 0
-217.447741157646 -19.2748493483913 8.44114709334074 0
-163.219408038956 28.4376677721398 21.8317268988205 0
-149.855030221753 -1.92171780965389 25.9752752884445 0
-197.953862145279 -28.825120192066 19.9307548421087 0
-23.3668824107668 5.45350687756653 -2.32364387646329 0
-206.934141687447 -26.333246197713 18.4530597766187 0
-179.281987368369 6.7747570247208 34.9189434912323 0
-168.649534016101 -4.50282395663046 20.3837996827168 0
-120.309043476954 29.7316258002641 5.88850836615296 0
-48.2865473721778 9.48920517725054 3.32269912908975 0
-196.831319022962 7.39516894509415 17.8897852463541 0
-154.952316081942 15.3296815837583 28.8366373978673 0
-196.855066526594 -20.4938754341997 15.952682849705 0
2.20927339288495 -1.44612154909801 -18.3796562765008 0
-20.4745891229769 22.7890989664002 -23.6992518791447 0
-218.952938652117 -32.9771471012585 9.57916954963342 0
-118.416579979181 28.9305361582568 -0.172203373463587 0
-208.415705849477 -4.79624358874571 -11.6417409458806 0
-62.2754605876957 15.2689967108187 5.29773978097736 0
-177.321291626627 -37.5490936872592 -4.36622027180548 0
-33.5664572799239 15.3935661400958 -0.490509254837793 0
-185.694957828768 -23.869266785258 -28.8698542837408 0
-223.473851791243 -31.5198797317575 -13.3210528982572 0
-200.030051185539 -7.28866957782718 9.02207380293347 0
-172.758841440498 1.76759030115924 30.1633631460126 0
-106.631534138363 0.417002481663667 1.72794329349735 0
73.5077429749241 15.8381265236945 -25.5697789627053 0
-154.191889543677 15.5794667579274 -4.23258881544188 0
-137.651520013505 15.2958904677407 23.2857747811908 0
-171.724462608437 16.0779156755337 33.8257432523353 0
53.4641927299775 5.01971687604968 -1.00518685242626 0
70.6192442764903 17.8311284149594 -7.04091217682577 0
-195.061372071165 -0.37303340960393 14.3271694643039 0
-121.221094343028 11.1497868488025 17.5208686816705 0
30.8127408151661 0.877408580378801 -7.050039691432 0
-136.797344421529 -1.75964870144346 -6.31833520605716 0
-192.597201127439 -28.5091618938474 -32.5640452649608 0
-159.271092754031 -12.5626561575707 11.2912530871929 0
-78.9127089898666 26.1733480462407 5.05556830828992 0
-151.45326053529 -9.10225926872308 8.84081393701884 0
-175.644373531026 -10.2928959710499 14.9998948372306 0
-60.6694209432411 29.3779465309691 -12.0090772019395 0
-191.951813713361 -47.8767916389297 13.823186304756 0
55.2378945979676 13.5078304469784 -4.93943766151805 0
-182.084931003835 -3.36995590370714 18.3250003261735 0
-185.170727686658 -44.5270278135755 13.3610260046787 0
-34.6211933260507 -0.189354024489822 -17.0849319313244 0
-204.418206703405 -43.3715129043303 -28.8171630172565 0
-154.059827600098 -9.92319196452874 7.73308316832664 0
-119.680556693308 25.1389528137334 -6.72445824311549 0
-128.275525771736 29.4203037524926 6.57954326175717 0
-190.557485336765 -55.1254724072355 4.04034637949114 0
21.4458390047624 -1.34243932281774 -22.7319480629935 0
-150.111476441334 29.6118699321637 13.8237740718636 0
-129.590860450746 -0.421118605952077 -8.4826250367627 0
-179.119577344812 1.62790385905329 26.2101009546967 0
-176.271341529419 -45.9761053194744 -2.18871345585033 0
-119.189317268963 -2.16891022464306 0.770547797826069 0
-67.1164004704626 7.00070669651701 2.59207890408065 0
-0.0633816732185129 11.854907309839 -2.78870229835935 0
-198.645242855386 -44.420443830318 16.781487399608 0
19.5449682567353 22.0738048692483 -24.727274024251 0
-169.436385438086 13.8524706607168 33.1693692329085 0
-169.108724525389 -1.3313289242871 23.0844743805124 0
-86.8819367331736 13.5089008235448 10.2037037182584 0
-189.224289194079 -14.3826180582348 14.3414512406622 0
30.300857745188 -1.41785261703436 -23.867331262807 0
-212.925633581899 -35.0410667684394 -27.8378697403506 0
-17.9969128768972 -0.0611056351815753 -9.17065399134328 0
-213.339519277578 -8.05069467580262 -5.05373301818055 0
-0.109755875251043 3.37848532428124 -5.24960042413872 0
22.0697847157853 21.6543824460726 -8.819729645441 0
-165.792882616999 20.7911413863965 30.9050292926458 0
-203.014902391421 -47.9248090346081 -25.8024815847535 0
-133.746759643201 -2.57569342143588 11.984595367067 0
-58.229143261697 25.2864536631669 -18.7116725351306 0
71.8007285390402 1.0309159170255 -3.74938113158683 0
-177.641073116974 34.5797326051895 21.4621704023257 0
-200.099556818918 -24.5936993347823 17.6841119889261 0
-174.136975368784 -1.96111979807227 21.0017559856966 0
-188.844926709028 -5.1758253499807 15.9815151702622 0
-206.52520654637 4.25831794362658 23.0945822931782 0
25.730597554341 22.9262430624723 -23.613030712606 0
-81.3559359686131 6.23935212271642 3.77754536062414 0
-202.129166923678 -3.05006171460769 -1.46059627562632 0
-146.20979482518 16.4639757536655 25.6811212369521 0
-17.2742448301667 8.31802425790297 0.244254542631436 0
-192.557905523342 10.02421483707 36.2359700263669 0
-122.808684766088 28.2643010868699 -1.41277577916021 0
-25.9848293808189 8.97341842023232 0.843193947303975 0
-204.867044706655 -5.61285280041027 -17.0988640602821 0
67.7778939392337 8.42140610272667 -28.605132285794 0
-204.099642890235 16.4308665365593 31.5384103622936 0
-167.047657786895 -0.516112413093172 25.5340373903682 0
-18.0431762639649 2.25587138440751 -22.4098746743564 0
-62.2108362748993 -1.23020623791642 -10.5891565772778 0
-139.052397438421 -2.74127921341555 4.78373577421755 0
-203.688721452571 28.8645630045347 8.14415646305465 0
-25.3222760059676 16.087465001609 -1.65553084561354 0
-122.741715715938 5.62515974739103 -10.2700901880059 0
-193.096212512246 -25.8967392581066 -32.1951480651695 0
-124.564715348281 10.3743632687557 -10.1405442682729 0
-89.7416683372254 -0.881268640596244 -11.7702039304693 0
-179.993539798109 -12.7114498586054 -13.6499594575053 0
-19.0931017109364 28.4693085881535 -16.0643553558014 0
-206.572386083561 18.030308193524 3.9501494041665 0
46.2741693237672 22.3373586245831 -11.1384677469937 0
73.0505548120202 13.8493047406261 -26.6376256485533 0
-184.804000132422 -53.8426775431717 -11.2997207827097 0
-142.650133032833 18.0056856422375 24.3808009955357 0
-196.912951603083 22.9796667856992 0.62026264733794 0
-177.998292540394 18.1629966033829 34.5472260578361 0
-193.977650703746 -29.0432262422299 18.5627906242988 0
5.2034205872249 3.61461396496959 -4.94653608665872 0
54.9286210495802 -0.26994077178486 -6.83693399147958 0
-215.324920811012 -38.4969401616733 11.9669515006022 0
-166.263667326288 33.0607406056755 11.3069338397326 0
-70.0968034257373 19.3166838819832 -19.9494440157205 0
-172.180531785641 7.81491153672313 -7.27868142811818 0
-216.063037406205 -12.3159428558875 1.98910937053473 0
-18.6305402722695 12.1767516361008 -1.24635161523719 0
0.235108455732024 25.1749705601868 -8.98218526719585 0
-139.012123072552 -6.28998902176141 10.3165202292588 0
-40.5665626571865 24.7628451843541 -2.2762381570629 0
-203.745446506605 -57.1104650310422 -5.69465233430623 0
-195.352636423499 -36.0685554034583 19.792014350533 0
-73.2631533985907 29.6832018671916 -5.05726809626029 0
-209.898333660171 -11.3387050214938 1.51445412518332 0
-97.3506872581836 29.6250965831547 1.40330697732436 0
-214.430919888459 -9.52034640430825 -2.04042776252257 0
-198.456809757197 -43.3804300578987 -29.8019817011578 0
-155.058721314792 9.98978340458874 28.5814911041445 0
-84.0750804692826 23.1976177810506 8.76856497729076 0
-203.923584579443 -35.7285081951038 19.0136354623502 0
-19.1753204152934 18.6522418192907 -3.24990305123666 0
-29.1994460656523 1.67464863737826 -6.13445683600077 0
-207.797228618434 -9.90534841077494 -20.7777098242927 0
83.8057370730282 -3.91696153135453 -26.821193082061 1
-90.0341877748603 0.916460524431223 -13.3868540118728 0
-181.514375462835 -47.395121418939 7.87596555720196 0
-104.459867746598 1.19007262247528 2.26325151484378 0
-215.243070342715 -35.5876357291157 13.1673789051253 0
-145.107852888854 -10.3397045961039 17.477883146908 0
-68.6378751027679 6.81857596731409 -19.6728572495304 0
-49.989856482007 1.71324513084764 -4.68661117167469 0
69.3904190425299 -7.78324587563059 -16.2209399655461 0
85.6027465424546 13.296298133006 -2.71434742215654 1
-103.605693198124 28.1995506554958 7.93765736792425 0
27.7752944204486 24.3171210327101 -21.5769115577325 0
-200.549500284347 -55.8104287473058 4.44269946732753 0
-153.502110658391 -4.81438963117612 -4.89447492701697 0
30.5591462242478 4.68706518389059 -2.19215316520071 0
-21.994250235675 6.37888221185746 -0.670669501893 0
72.4573076306288 17.8409920881335 -24.1505372852228 0
-191.161251640452 4.83533594758182 -13.0912992288151 0
-223.307957076416 -25.2174258885078 -11.0350671864002 0
-200.393137875197 21.8426166231864 29.6329570972761 0
16.6947349736687 22.4028629552784 -24.4567710241416 0
-207.606813720166 -13.7993058780136 5.71609121754641 0
84.6891468342541 1.27189426637158 -2.17789994847596 1
-145.108565239191 21.9707390316033 23.1059590231566 0
-208.819339838553 -55.8547215195048 -9.69645791171704 0
-76.1140576496876 -1.77514446949621 -9.4388619370713 0
-202.382280354721 1.42622266645357 29.8192730293487 0
-169.783196566965 3.94393322236599 31.4941970378984 0
-175.260295306328 -38.6220016803575 -18.5856844943107 0
-59.6354627814113 14.9169827802603 4.98056603476106 0
0.76443318654454 1.25290202605736 -23.1129618063004 0
-84.1476522538838 16.9851413439515 -17.7239940255047 0
-162.249152767872 -5.16600166531403 20.6132295026456 0
-155.622178968248 17.1482883373074 -3.75603528694024 0
68.5499338548568 3.13765238945151 -2.03255378862665 0
-190.713304508306 -12.1146174910097 14.7491752621516 0
-155.232388055105 -0.712980824535911 26.550929423318 0
-94.9788893064847 -2.77190947778128 -6.43321255508944 0
28.3628457540998 20.7652282915508 -25.256609484951 0
-183.971614430636 -53.0998094356472 0.473638424239097 0
-193.839843120465 -4.23134444760666 14.6312774233245 0
-222.341760581917 -41.5505978110542 -6.39219250603478 0
71.3007807631496 -2.04046608449825 -27.3499864730951 0
-183.028529987368 -1.45660267788119 -12.1178962101277 0
-139.511854150432 12.2924213921532 23.8458288027156 0
82.538061888606 -1.36405380147971 -27.8290500660681 1
-179.531550759033 -0.465262093701261 21.1030868180407 0
-90.8237873433169 20.0536831869641 10.2670398628563 0
-21.6327322553455 20.0312593903892 -3.20143560838076 0
-165.908344813529 32.2690061788267 7.59484882602351 0
-113.811514826527 -2.07562730189528 -0.0463815543301877 0
-194.316128798149 26.7130735435438 27.5876196317258 0
-70.1826641727356 19.0316337533651 6.17791827563348 0
-74.9490189624616 26.6540686915963 3.23519864812693 0
-113.322173861737 27.5272187298477 -4.85666772107733 0
-201.678206180157 29.292404319232 14.0364848679346 0
-28.6442832867223 8.19944284230729 0.928123344081845 0
49.9887747805515 7.10762221329057 -29.0538934897003 0
-54.4490193225329 17.3445875627741 -22.6428872576919 0
-208.887992280927 23.4625061938681 13.736322788041 0
-22.3977702230954 -0.945083050914111 -13.2910874952337 0
-70.9701067032943 9.53804500003206 4.77115931495625 0
-185.168415152498 -16.2880543460347 12.8360839893647 0
85.5574280840945 -8.50632296085066 -11.7427038034758 1
38.4291473361005 22.2141293495143 -23.2566120665648 0
-209.672708183519 23.0144142089318 12.2203741522636 0
-183.311645438502 22.0580295016958 -4.10641217343414 0
-112.523287843649 -3.07595660970973 -4.77480176264671 0
65.6826216676408 18.1777627932377 -7.45762077802039 0
-44.2201432801211 2.47231464285633 -19.9125467345159 0
-153.431941009429 -7.97042004655474 23.8884647884105 0
-155.52525761453 3.95035502974393 -7.46763719269347 0
-158.413862672587 22.798212803618 26.373663565691 0
53.9143256804718 3.12889582357268 -2.5394615219615 0
1.18284584792723 -1.35734340451586 -13.8732039688759 0
-115.46608178284 -1.46951230850128 1.23521844597218 0
-34.9361425966854 25.1892631751971 -3.52760120397158 0
-7.68795271046887 -0.782673993145588 -18.4635091452928 0
-161.078477982928 21.4443481902595 28.7712212520141 0
-208.386967058618 -32.7352868203818 -30.5919157742108 0
-125.680852570855 29.5435470133337 4.74831249429545 0
-198.965557270559 -9.38177452327187 9.43596955864029 0
-170.469481072889 10.9885222357656 33.4684019986141 0
-92.9357220793463 -2.31615702139723 -5.52632632720586 0
-100.805632259955 -0.383448592973197 -1.05767487873437 0
-219.77647695812 -19.3334158266222 -16.1834819256594 0
-158.529385700781 14.3492754527386 29.4511356588739 0
-92.8561468247495 15.908349943263 -16.0701340839338 0
-15.0809926433789 8.56284977119862 0.121218822469502 0
-94.755950528025 23.6178625070076 -13.3508398473388 0
-222.913614756048 -33.6172648341739 2.08308700026569 0
-44.5201092917084 12.5514666560302 2.34077488853102 0
-61.2081960041756 20.0531868055743 3.84694247925366 0
-209.566552944715 -45.8553046664317 -24.7366727303957 0
-210.816070918313 -32.8303885981108 -29.2388120053049 0
-204.205114438023 -53.5004336060578 7.11138075742487 0
-191.11304549853 -0.0103620038984226 16.4559402210138 0
-49.9794033376066 10.5534617938193 3.6084431439745 0
-167.250174016815 2.76465520777476 28.4176663687015 0
-201.74453558929 5.09337039990044 -4.65908207506677 0
-157.335019969925 28.5126562332897 2.77510103954808 0
82.0852047584795 -9.07509204616321 -14.8495319787659 1
-212.12914492958 -38.6487445174097 14.5502805292515 0
-174.586347481706 -41.70043634266 -11.2512640669417 0
-9.73177629261349 15.277409588545 -26.793969520913 0
-43.8795841358199 18.4454188499429 0.43713179133126 0
-205.312759056089 -56.4354084698762 -6.58679541424155 0
-3.02966509232161 0.328528328119604 -9.16476363701521 0
49.5459489941474 21.8891863572942 -22.4193342518914 0
-190.803854910175 32.51259565317 9.88848993405528 0
-148.926088731923 16.2730669808539 26.4904217567672 0
-167.094419696453 8.2370288141017 -6.91932686730423 0
50.699512974589 5.30485156566863 -1.12083041281901 0
86.2256924521098 6.2294437173211 0.107902936593769 1
-218.400732629942 -35.9178279798008 -22.3040887071349 0
79.0556522013559 1.42160386780982 -2.68018114596766 0
-197.152179813291 24.8965965824376 0.480020917427736 0
-165.578547444578 -15.8013833413946 3.11135178089009 0
-79.5652697196268 11.5504723007911 7.7417332229107 0
-78.0209648729494 -0.00538861428721847 -13.4012645105832 0
-199.669603348925 -0.758658948081156 7.53884748427523 0
-148.772676570496 4.88493359401614 26.1255424224794 0
42.8294919899763 24.3167253611575 -14.032559592083 0
-208.70994591788 14.2009012024759 28.1934702701469 0
-176.183285413581 7.9784962227773 34.715261248236 0
-30.9032927709767 16.6115292394066 -1.14333547339967 0
-38.3160642311965 25.1781805329858 -3.00068276246526 0
-36.5661699101485 -0.347080977118367 -9.14125253569452 0
-92.1698069293312 5.88782535867387 5.845882396697 0
-172.495702824201 21.8401619471431 -2.11711781102787 0
-222.785892062027 -33.575487092785 -15.1409712288846 0
-211.91658450926 -43.7116286168536 12.1532408718376 0
-177.911738279861 -26.6409157322857 -19.1348491665014 0
-127.231209886624 26.5627060096993 -3.510591537022 0
81.4222977447297 4.61118272767402 -28.5617319378841 0
-108.217375513732 -1.14815462606337 -0.0747982433017575 0
-15.0958446759803 -0.91297507106066 -11.4973885787561 0
-93.0046388010589 4.05857947111602 3.80841261993678 0
-190.454381096267 -50.0277390854668 -23.4475389140516 0
-3.00266550085231 2.39113276643595 -6.2644515430163 0
-183.306567186107 10.5464138260881 -9.49055107162051 0
15.6032655772442 7.94184720531108 -0.908311787475568 0
-35.9342106009582 27.4868002426864 -6.06420422246386 0
-207.970904304168 -23.1608381417029 15.9140868574828 0
46.946254095382 23.6178128743888 -19.828632917733 0
-172.922314253122 12.9164195175584 -5.60002548234956 0
-186.058352626987 -20.2667720647231 -27.8058756587159 0
-207.18981406401 -14.9672364833472 -25.7505487268413 0
73.174040621186 17.7391862466637 -6.86637988097871 0
-110.749253351675 28.6486300516021 -2.66468377979494 0
-13.0014510319665 4.07546230850685 -24.1665854120916 0
-21.9017183789578 8.14831500296279 0.405800127011847 0
-191.008413563112 18.5048702148567 34.448757797128 0
-76.3567832333783 28.0755819794106 -12.8495945284866 0
-139.971750445452 19.4284947536093 -5.53755877920643 0
-190.121758497024 31.5129224163713 8.52861368851131 0
55.3411026602675 23.6140192607447 -17.3044150473115 0
86.9585276744978 -7.61100009131679 -9.86541917643318 1
26.8601234344833 -3.10408442847348 -14.2848172484171 0
-185.812186158192 1.48689715310243 19.3900449312877 0
-206.514895965261 -15.0160426201223 8.22755657509571 0
-196.057613542168 -45.5882691501041 16.0137836788294 0
-46.4908035022381 27.0622089245483 -3.06080975869132 0
34.0592073712183 13.9909049057312 -28.2303904869996 0
-113.102938471666 0.0301730390101034 3.34918198157615 0
-158.890466749059 -9.46393879959314 16.7611803446624 0
-163.715811481791 1.50145455798658 25.7644672232593 0
-212.28442192887 -25.813698029893 16.0102493798216 0
0.184145997071655 4.4785803598015 -25.649084705908 0
-186.559087058879 4.51546508494427 21.9979407926876 0
-178.58264807828 33.4218379605029 3.34016526081037 0
-161.454858602053 0.0659038678662568 -7.70581423439961 0
38.22111851846 4.13276943996714 -28.1786380642193 0
-208.801928556818 4.00268228956208 24.5788115360282 0
-213.237429744069 -24.2876021475511 -26.747820329987 0
-114.91472458438 20.8701292261659 15.5954976833278 0
-46.5620060368322 11.6051444480529 -23.4404128372967 0
-182.929079008715 0.391584361605851 20.3534232815723 0
-192.130761520229 28.7657552655882 4.95300760912502 0
-13.5193194647566 2.04720069659452 -6.22999553168017 0
-200.286470209655 -38.8487153697925 18.8961637636433 0
76.474196473418 15.1906455852791 -4.88067108406672 0
-183.453263437441 -51.6745660548521 3.58087402303328 0
-138.53997719071 26.3269230064207 18.0441117830664 0
80.6198128441612 10.6732859502815 -27.6005836773281 0
68.4802407608825 -0.684924414831061 -27.8243511881238 0
-195.612275040895 -54.9513899357097 -17.0255723437827 0
-169.902548348558 26.2408965960068 0.304257500601907 0
2.65191631476167 -0.104709276481566 -21.4912939011263 0
-143.123969786768 25.5252573354805 -1.89362982892522 0
-76.6449492448092 28.1234551736459 1.45513068321456 0
-128.721712684272 -2.6909724417712 -4.55098978019312 0
-128.422078607105 0.328823693688504 10.391933632118 0
39.4074795075783 24.9352276999518 -15.5339988299405 0
-201.395239183179 -15.5549744516366 -27.852996471287 0
-201.028942593673 6.77944901843329 20.298711163229 0
-113.038623308294 15.0396253515398 16.9420027936063 0
-5.85658354292365 18.0981385460349 -26.2701133472293 0
17.4305738258513 17.5230017823254 -6.35882967945014 0
85.4291929274603 13.9870792784615 -25.8894060471369 1
34.4586828355201 25.3550822921249 -16.535253366474 0
-167.007949728688 -11.1379494075035 14.3491147944812 0
-202.20706575686 11.3338186626962 -3.93474673344652 0
-198.662574420192 17.520655693017 -7.06671339675312 0
-190.584159344222 20.4086305993607 33.4031487773996 0
-42.2847561029015 -0.303489547549777 -8.43648042647749 0
-9.01565481134222 -1.26216552586001 -15.5614748636753 0
65.36317604506 22.4412530914858 -18.4160693221645 0
2.22620756983714 16.5267843722385 -27.0883770728971 0
-204.221622051119 10.3200965521885 3.33659971815935 0
-152.625962774639 8.88294547500417 27.7855103973057 0
15.4092326994212 13.621093892164 -28.276398420821 0
-211.075031991032 20.8119195878205 15.6798406106895 0
-203.586797338925 27.8546695673898 15.3347749732696 0
-145.745705774171 -8.35581990649206 24.3217383125886 0
-205.490799519552 -4.08805054391197 -13.9261153167875 0
-162.301957658854 -10.1925626381774 15.5414829856586 0
-180.959382468654 2.08960944182262 26.0654478363637 0
-171.764162629327 2.84564207628725 31.3651789523863 0
-126.629783417887 11.9996946808766 19.5752452790115 0
-194.581934224631 -52.27924702794 -21.7813636156983 0
-20.4541762938763 15.8967722620006 -2.24366997887986 0
-95.3458399468326 29.2391355061392 3.13765342375877 0
-57.7732870223066 27.7558302721997 -16.035710095677 0
-185.926332304799 2.67012047678872 20.3763689118088 0
-42.9417432150488 29.1049941632797 -13.4367841156084 0
-80.2066033101681 1.23139478560554 -14.4201073951281 0
57.4633815915047 14.9783040930393 -5.69762468288259 0
-153.413582424806 28.4255155589218 2.87717455989814 0
-143.909178040427 -3.62133820896741 4.08778135983076 0
-25.2876118026782 1.58831549368554 -21.155940595189 0
-205.695018487469 -17.9803325006952 -28.3299846122883 0
-26.7684781266986 15.1013402581173 -25.7201057300045 0
-9.08522990792369 13.6581073322411 -2.7914301693364 0
-212.121398222943 -6.93973113452109 -7.11700455195664 0
-209.312458887111 -6.79816470096146 -7.4975204327235 0
-53.3762851022157 3.00193782184083 -19.2987133107989 0
-200.399123141338 -52.8215096321255 -13.3838905037987 0
-159.997783830656 13.5815712273052 -4.11690530368158 0
-205.225193409707 -56.8225855905911 -2.72549063662735 0
-211.361156819392 -24.7127100388788 -28.240866607541 0
-180.007170636053 1.36990711390382 22.388551973397 0
6.83151935403968 26.495375218094 -19.6353483243727 0
-174.539384716867 -41.6016490631476 -13.2888415213322 0
-125.588401079763 18.8728577690069 19.4635467312762 0
-205.471741599385 16.9031280493338 -0.813047373705952 0
-152.100169248248 -10.305205119625 12.352748014927 0
