-5.82204382946767 4.96324353563668 5.82864459637019 0
-45.1340363291659 1.29053034310613 -0.944864055481124 0
10.3992023108524 -8.796313485287 -2.2023115804542 0
-186.693243976706 -7.44200197244801 19.3232502132714 0
22.7565075320208 -7.8141048151541 -2.59303453374846 0
-98.9078553247595 -21.0038179423907 2.59326942995567 0
-30.5014683390101 0.463153793743373 -1.96997903452981 0
-177.722129512503 11.4578558804306 11.2779658224042 0
-191.011423516834 -12.2376623045669 -18.7737890555544 0
-178.797963323125 -16.8098189997602 15.6471812486186 0
39.5910483038984 -4.37641919585715 22.8704243226505 0
-186.366722411524 29.5689530618465 -8.10344321836078 0
-43.0451483254481 0.797299477011271 -1.61958122879472 0
-130.837577445005 -11.2028510910267 -18.0624742710173 0
40.0701428152267 0.011202456299994 21.8242439947458 0
-31.1537722785699 -9.10866260693251 -5.34056805928543 0
66.1573265693097 -14.8780687328996 2.52013609192271 0
-187.576475550245 -31.0789048116946 -4.82112704723087 0
-53.3669131624131 -8.63748920032225 -9.42249891552337 0
-110.157549349017 4.13116885707674 -1.32043528575633 0
-171.526541260263 -31.8052277866426 -5.30641624416391 0
-168.867205631839 -25.8305263627744 7.01803963321607 0
23.9814979936697 -17.3853669192667 9.62675369221843 0
-125.145945479763 4.21319142542306 5.01583130280066 0
-13.7905225009542 -1.69938974992486 20.8105151814398 0
3.01016768945975 1.99158345903575 19.5610220098976 0
-148.289110592667 10.7359445817143 -21.6980555081052 0
-170.287087039989 6.06523915980144 -16.2368107682609 0
-161.928506417227 -14.9234519163992 -22.9122221024751 0
-148.285572720092 -23.4723240304834 -9.04557814979347 0
58.3330561650531 1.84836170835195 -0.578324702355137 0
49.806488818894 -1.4905192434441 22.5498970586723 0
-182.482958705544 18.0036201429468 14.106200324042 0
-155.470481562934 9.28718378972769 -21.8358357799264 0
-35.064015931279 -8.48607795393165 -6.59684670532529 0
-153.466616758998 9.01705260682023 -27.1352806216439 0
-91.8621650878979 -9.96017107645525 14.458119482216 0
-186.816308140103 33.6508707680807 20.8822780148048 0
-182.776801322657 -10.292286328595 -20.9903601866925 0
-37.3806654308149 -7.11425028275303 19.9581229560846 0
-104.494417466164 -0.168160027195935 -9.82712496490799 0
-200.237119550994 -10.6206647279885 2.99362319716689 0
57.5557667043108 -10.0881513184952 -1.88281751327216 0
-39.1782729219879 -12.0675772570851 -4.30344826222679 0
-169.144893951231 -24.5746044169279 -19.2381601828493 0
-123.552779005375 -18.7959127551447 -14.663736264084 0
-206.545164014814 -21.0567333415214 -2.72955576688089 0
-193.318698046132 -2.32920211778388 12.1177386291013 0
-211.531696076315 40.1747450173746 -10.0402640849038 0
-11.0299484231721 3.97132874043448 3.33335090888678 0
-29.3584094338149 -6.85245009176587 -7.19385561372702 0
-198.131524607198 6.24655148049012 0.228494698137482 0
-160.840411078447 13.4973914889164 -3.4737164754375 0
-204.396098868201 14.1560717472239 10.4042514384676 0
-114.724095239001 4.52877949414794 -1.42634142728238 0
40.6373402515828 3.17797660162428 20.2137326695256 0
-101.557779767889 0.664382978307674 -7.27740424130164 0
-210.117678447296 48.1727321891367 5.34584147788357 0
23.970530198907 -15.7571502467986 6.0503983442292 0
-41.263137328631 4.87745169355025 9.18599116847329 0
-82.7494362945459 -17.6377347348264 10.3673465008443 0
-146.606842833484 -8.23538062100458 -23.2514524387788 0
-193.148377213129 14.3344304142279 16.932721678954 0
-89.4608543527962 -17.6126713982648 -10.1477150138792 0
-147.000255534305 -21.9836677086897 -18.2839772938213 0
-144.338188710074 -23.0219135739111 -5.54933291457291 0
-131.455719826502 -1.25263626401954 -17.4599601443318 0
-161.094887930645 6.47529425366783 -20.6473926608341 0
-168.718389961901 12.6323966532728 -11.9766919307482 0
-109.830259285189 -13.4727135986237 10.8033522727585 0
-191.565278057999 43.7803565942014 -11.6663623458722 0
-97.1380777334719 -8.95818540810709 -13.3863319109013 0
71.361473429161 -7.280770477974 23.0093201597826 0
-193.354283987071 -5.83930438114609 13.3806670948959 0
-184.917415874113 0.353849122750052 15.2582297501344 0
-186.234198512019 -23.3804468499698 10.5238169554567 0
-158.539473975795 0.0723990414841656 9.66686035569816 0
38.1148013615131 -6.46083841448322 22.6674977959472 0
-164.057467231388 -7.08616834857645 -24.6219765073597 0
-202.383848431306 -11.8652258573557 -16.0080538286793 0
9.81723986171895 -9.76102247721454 20.968346563121 0
46.8097975521553 6.45947235150683 17.1725140958316 0
-186.203921001036 -0.0221788327772834 -11.6946810061014 0
-58.1559403599811 0.747182952498166 14.5900775233931 0
-202.7022943982 13.049243361037 8.16852924769229 0
-175.149577874581 -32.7559086525359 3.56043337044521 0
-115.611157889525 0.150192394226285 9.23075098214001 0
-135.587583070497 1.12483318319988 -18.782063657018 0
28.9816636757752 4.70645443112768 18.4209026625225 0
-76.4659478939343 4.30155694898891 4.7301703249736 0
1.67721306670972 5.84020198898945 8.66448540291188 0
-91.3259247486065 -14.7535507248959 -13.1763425189355 0
-65.4853763365518 0.363740977917958 14.3466224472867 0
-87.3433513147589 2.25903398217355 9.34606933858769 0
-101.804198190831 -20.5514991225699 3.65056462181726 0
-34.1506905364048 -10.8214705112326 19.0112592810091 0
44.6509313809845 0.966441468454985 -4.96266545838109 0
7.44444391720641 1.24061249103354 20.2765774793336 0
-187.992284228493 0.703211729330713 -11.0519584253644 0
-167.475759593162 -6.25849825761895 12.1867801975422 0
14.7496168236037 4.63501153723375 17.4817479426765 0
-34.8603459259542 -17.8784012259957 13.6822790431325 0
-219.715581555214 32.8432768887337 2.16697195141057 0
-174.913587168877 22.7092485917078 -1.01218449416012 0
16.5064790762534 1.88693836415436 -0.811391766344901 0
34.6916666120621 -13.6891869763647 19.174444638372 0
-41.4598878184558 0.122475646849228 -2.47993399888298 0
68.6295477536826 1.41259389803138 -1.18004515612372 0
-194.111468580882 30.2475011760823 -15.2931855985868 0
-157.133324946927 10.5224886610687 6.66542774687025 0
-174.740848299272 -30.9907612894837 -8.72527707214545 0
-165.017553438344 13.1642952254024 5.54049074452327 0
-188.94982235242 -11.3066889005804 18.8044622359553 0
-84.5495084753472 2.92921999593474 8.46606442582206 0
-188.323579435077 -9.37436083567225 -7.58257583402468 0
-139.280105800603 -14.2187519772011 -19.0323387071869 0
-207.643309037595 28.830886150232 22.6477858157347 0
33.8803209760913 -3.87240689115051 -5.0860411580717 0
-125.036759207874 -16.4820197582603 7.79026227185106 0
-185.346041341804 -23.7888278061606 -18.5543566381064 0
-46.3079418220959 3.85465343038144 3.29470124012068 0
-198.087756543148 -8.91748605326695 -0.400629022103062 0
-138.162445818032 -14.9689038441173 -19.3870587145674 0
-176.220433130754 21.6528528276876 5.48686852368062 0
-179.637355426353 9.47258066183475 12.6144128135452 0
-209.099237928877 26.6576118764637 21.5194501238861 0
-173.304333423277 -8.27270760625941 -23.9427115369571 0
-132.076639113763 2.59091367939555 -10.7490228347114 0
-150.2283904814 -8.39367136346761 8.89028374479852 0
-189.354277642404 16.9078938066344 17.8453388284279 0
71.9021984631965 -16.6777797335572 15.2141371618082 0
-175.564691786503 -8.26018433119335 -23.3583359980849 0
-49.5713696284638 -4.24785994706849 -7.81536781411489 0
-198.893992007024 -20.4699055818466 8.94976876236939 0
-213.676542242566 23.0108784094081 -8.66752912760263 0
-177.103861158268 23.5760475222524 4.33466505880671 0
-38.4452055548752 -19.1621362223877 5.78153560778044 0
-188.885212883102 45.5457497785941 -8.60088151650464 0
-0.604392047939279 -15.5091729114055 4.2214275018416 0
27.6569116753934 -7.58629300572047 -2.78861115414756 0
-170.225402989531 -27.7834260197809 -14.8331916079462 0
-66.0387914509982 1.65822294522533 -1.32352789414801 0
-201.698257577555 48.6116818739834 9.00353482138825 0
-69.6711703740456 0.779955009338075 13.417303252171 0
-38.5029480474398 -2.20117624276645 -5.17713022079333 0
-184.581725193072 -18.0503679982555 17.9193803206877 0
-78.4939382895872 -20.7192247004627 -2.19216192815056 0
-77.421840635547 -13.8463215383365 14.2632237450904 0
-69.6249226111789 -19.8754852388343 -1.37885533093176 0
-125.473729658231 -12.5614740455026 -18.3961583733142 0
-146.202151593433 5.52774607237195 -30.2444353433161 0
-177.1878413985 -4.58262792868164 -19.5044472131269 0
-100.282209077092 3.18379018599838 6.41329436759268 0
20.0633672047723 -3.06899826938054 -6.02644361122565 0
-110.963688668448 -20.6285722575535 2.98161402455537 0
-141.915976816855 -22.6856799606025 -4.52445298645045 0
8.58920139480962 2.55033711658656 0.501920849894337 0
41.5329432030057 -14.8911606714818 4.21298928678835 0
48.1114130365094 -10.2575723253889 -1.34672949932018 0
-129.966268996666 2.20247880283359 7.00677368277004 0
-134.700862477807 -10.6352667851695 9.88396535993153 0
-72.1654226013463 -4.16260141448419 -9.17231055048106 0
-140.746297620321 2.78952987488136 -25.6508629085953 0
-78.7311409698984 -7.93561928540423 16.4671331560849 0
-74.3022300233756 -9.53085284204936 -11.8591663123788 0
83.2557938928274 3.68124281383525 21.0785534469432 1
-206.474754945811 49.935606337058 9.03979816960026 0
-10.6746389758888 -13.6091475924855 0.720331152105265 0
-70.8109559882126 -7.78041835809453 17.3137352569987 0
-191.264496610708 -13.9886884189816 -10.8126645863574 0
-155.849530982295 -6.43750787183909 8.72161436704177 0
-180.906165688013 -31.5001671871642 -5.45200510442141 0
-38.5716936214646 -13.7359622041365 16.9720597135271 0
-158.955001627829 9.44141707771548 8.00786039998835 0
-145.602094527148 8.49354325773183 -20.5459927435549 0
-168.957164185037 -22.9555478217954 -20.5516431543355 0
54.6829865241156 8.40792668449311 13.0559696467993 0
-107.000145557116 -0.219160813410103 10.5026526292611 0
-118.860965567211 3.77247654952381 -7.271008046149 0
-104.238737358169 -16.342009928372 -13.3783881718126 0
-158.059120953769 -24.8498988244583 -12.6555285355425 0
-54.1255838119641 -16.5425567412778 13.6793898871533 0
-163.012584306246 13.4581183761759 -9.46210230941789 0
-181.109706330515 25.3339358342848 13.0498098925729 0
-201.24029567962 13.0063392629079 9.91550107114145 0
-7.56065469400772 0.277838837737929 20.1881555344129 0
-80.1833941580728 0.750765041694968 -3.927035310142 0
-50.6848680933432 2.73683820603923 1.24460209469426 0
-174.397564613443 -31.8519908401225 2.508433375475 0
-54.4208340012129 0.295812014642111 -2.53078456967111 0
-192.001642911459 39.2568494027539 -13.9209639632933 0
-190.883634336737 -26.6306196259273 -15.0208620658243 0
47.2346634901008 2.88097439641484 0.91318242429348 0
-121.579253006028 4.5016238018906 -4.46032919643988 0
-69.0571668168898 -6.46102790597286 -9.87632825310011 0
71.2902392972921 -2.2500995006329 -5.38929107343453 0
-167.812947995106 -16.4301073644619 10.0970448211399 0
-129.205855004554 -1.02415984873691 8.67785528262895 0
55.7967389815894 0.576638163631393 -5.13243858651974 0
-207.170973955468 -20.1353364806858 -4.30262191153482 0
-199.946302819815 48.4194206199024 4.14673003951238 0
-6.24991844187154 -14.8441098590968 17.6961233843487 0
-159.131639142229 -13.0872624011239 9.33671960565028 0
-6.15290504816827 -8.42215557341266 -3.30808866020627 0
46.6311138480479 -8.1001729994028 22.5407494152557 0
-150.183066513503 -0.409204355813832 -28.7514284633187 0
-182.906885300204 -1.79114829051815 -13.5406910152328 0
-44.2353244359334 -12.2155979368783 17.6909739797073 0
-195.959577288661 50.5710003546792 11.633283648834 0
-202.932642145912 14.2874055128096 2.62962003176567 0
-169.490357448936 9.12789507108332 -14.5312815154426 0
-104.546237782739 -4.16583074213768 -12.1459436148583 0
-144.101828755955 -5.37009726155759 -24.0479980758395 0
23.8481737784942 -11.9926391988751 0.435762598894074 0
-144.463286105453 5.6286825190008 -17.0728654415477 0
-198.210521322735 -6.17363716083569 7.50121985635097 0
-70.415027977049 -17.6729121424257 -6.06443219223549 0
-189.564770037904 9.82795900432781 -11.3626770536584 0
-144.522456748107 -7.54703905195341 -22.8969614123659 0
-141.855907873955 4.21533562959809 -15.6344142620287 0
-133.706697142869 6.6828342685656 -3.35137981547739 0
-141.439541582825 -4.79969823668068 8.53949648949148 0
-181.317177143789 43.1191238052515 4.5567879806789 0
-84.4604135798402 -14.0686486090686 -12.6026121570816 0
-71.3495630456909 -16.5994944593296 12.4468135168379 0
-200.902900170006 49.129663836779 -7.25800568949956 0
12.6976188046231 6.3457577656662 13.272694453024 0
21.740651846127 -9.47978441916152 21.3630570741079 0
14.9892300520803 5.33700985175839 5.71870728000984 0
42.4471518152373 1.29342429202633 -3.54401724289879 0
-134.252205443754 -20.1319073622059 -15.9985570461343 0
-196.964899257381 47.1705683416941 17.3844935000394 0
-30.3541652118525 3.78457248561664 13.6165710180059 0
-173.707843274331 -18.9895649287602 -22.9328087290583 0
-193.090029626526 51.9109132401824 3.30058835422383 0
29.9816224115028 5.10450866511738 4.76014908684931 0
-162.215026725394 -10.1504767639857 9.75309625255666 0
29.3531961883431 -15.8716160701247 16.3167826774187 0
39.4316009812972 2.63869977482124 0.573642307983162 0
-173.691174076479 7.61144184430776 -14.4878027857295 0
-218.960105721366 37.2246728809869 1.48895482754341 0
-51.5265909371332 3.57211774835361 10.9064212203526 0
-174.167527763037 21.4068644224907 -3.4065364109245 0
73.2138049100314 2.44386715069155 0.243095229919145 0
74.4293144255054 -17.135115818646 13.5857944672218 0
-105.986159460768 1.79842155472276 -6.49285711580246 0
-202.415469532592 -21.1866732932237 1.98905935916065 0
-165.219302629213 -26.9124068064224 -12.3733239867181 0
-175.372877528343 -14.85694803081 12.3162427037996 0
-112.075207156811 -11.502647439646 -15.3559865230982 0
-159.478784733132 -2.14110726965762 9.65294208822482 0
-182.910331531607 11.9086016940017 -11.6226962533086 0
-192.584930000428 -29.3271229577314 -6.04939092925181 0
-207.019450287888 16.4559407270445 -5.13187560594234 0
-151.132286995625 7.96941856345041 -13.7713637030672 0
67.1383050021319 -16.9860127728626 8.24823621817438 0
-162.12203115542 1.86130818093465 -24.2799620228863 0
46.3895622448755 -17.3939495257557 13.2481145605192 0
-199.538053626556 -9.69639239134619 1.99493836618841 0
-131.445934935131 6.45782352747941 -3.46403282839822 0
-166.675776729008 -5.04502070345843 -23.959593966994 0
-198.010068728488 16.4710970940852 -10.7034726295428 0
-130.697126565943 -14.3796607467188 -19.1380679383878 0
-180.375341879224 -5.60581423023894 -18.3210025983265 0
-190.27885823272 -29.8048914177055 -8.24592704178444 0
-149.551963807047 -3.42745627690102 -26.8758808101013 0
41.0679215528704 -6.57885878933519 22.7541063226911 0
-114.606104016846 -19.8228337051636 -10.1277798887626 0
-148.414934688119 8.42891194149823 -18.6578885187694 0
-183.481870391287 32.2351666393529 -3.41784889193577 0
-42.8639073176564 -17.4115890290387 0.703011294336382 0
-185.532764423244 -16.4016891749994 18.1764858273284 0
-179.791000780023 35.746098851272 10.8097408765022 0
-96.8197205232181 -18.4443205130488 -10.1930970364575 0
-181.67127489033 43.5628655201706 3.0340072277615 0
-127.389863431749 -19.8067218634662 4.03829765159417 0
-128.689330562292 -18.8496533110064 5.49469246541637 0
-129.793257971168 -19.6573646866027 -13.9878747341712 0
-66.1424613500944 -11.1903933563621 16.7706325188798 0
-203.471432623877 35.9312993131784 23.6387722343288 0
-91.2629259538045 -21.1116663123689 2.08048527429791 0
-194.423189586076 -5.74247154791628 -1.83933786407855 0
-210.238642290601 48.3814224684699 1.19135134119712 0
-151.260303370544 9.7228651807384 -26.8330642061314 0
-154.060306575653 11.5355437823312 3.20011125672052 0
-185.158203519373 -11.7157098921828 19.1215381436156 0
-148.237180330107 -7.13806131697802 8.6877684970452 0
-195.29238498501 11.4554584673953 -9.39722563940034 0
-79.0105164722868 4.16665320683311 4.06812717730429 0
-3.07582186071084 5.77578335001521 11.4260393878114 0
74.6116610703766 -0.423127721950001 -4.2849295175297 0
-108.565249256137 3.70054746341783 -2.73860011647122 0
-87.8746414204629 -16.1193193199075 -11.4551197430965 0
-99.8606594862737 -15.2589264538267 -13.8465449441527 0
-50.4993874030559 -18.3718625526642 11.694223895139 0
-174.586150771279 14.5584499217738 -11.1333766114354 0
-201.547898742713 -20.8113880713956 6.02041612786246 0
-180.072461131344 -17.1048529329258 16.2493918067238 0
-135.444451247546 -2.77268231741634 8.68237471930658 0
-148.896346293145 -17.1890971866763 -20.600142846196 0
76.4774504996867 7.92657331742004 6.25546482057088 0
-185.948471017055 -20.8961607057813 13.439243916578 0
-191.58640251589 -4.66453404538789 -5.46234271490159 0
-164.12348719053 3.07327097253057 11.4658545026778 0
-93.080144444411 -12.2044022980601 -15.156801769549 0
-75.533627301451 3.83481067893675 7.25428847474402 0
-194.779045457444 -10.7244038664227 -7.09208433015513 0
-57.1625110390755 4.6754821480819 5.23882654969187 0
-203.271453320592 -12.6977142268928 -6.58180461811548 0
-43.02087892944 -7.25162900210872 -8.73033738380126 0
-125.317606667126 -4.50518678992921 10.1518185644399 0
-133.251520535309 -21.9789260077013 -5.23047056286571 0
-166.976327364906 -27.9514087836136 -11.3221406001203 0
-200.190198287822 -12.0138055976541 11.7836038351112 0
-68.6182881238903 -8.04839544121645 -10.144220150658 0
-98.2531138184006 2.7808661659909 7.45475122389692 0
-183.696946309398 -12.1669321564054 16.9841413148409 0
-88.3805520683156 -18.8145864952227 -8.57644514101159 0
-119.95473604655 -19.3830432748404 -12.5370786043465 0
-91.1811908570065 -16.3949024226521 -11.5411348549113 0
-197.561332568089 -10.2060691537818 -2.86926154880409 0
-138.023421741608 2.39757412685524 -16.0012394099024 0
79.877223940324 9.83489880391207 10.8035822363711 0
85.7872925379125 -11.2382964512454 -2.85405987721002 1
67.7960227879902 -12.9043531297579 -0.305213510536201 0
-185.76912787107 44.2066894894898 14.5999884988744 0
-120.515353323856 -14.6660163998636 -17.5453440393123 0
-35.6942986612124 -14.6638074232187 16.4550928361878 0
-180.530809376627 35.8710501585918 5.15438865186148 0
-50.6536470844884 -8.15083250750904 18.9790851729271 0
-181.504765551017 1.84322608324634 -13.5965249488706 0
-98.9419829963069 -18.5959633113299 -10.2444387042912 0
-153.495583558446 -20.9265814994402 -19.4967546311302 0
-193.388240551651 -10.9618967947229 -7.13393346311798 0
-182.014923634461 34.2457455029008 0.737835988998346 0
-174.780006372868 -23.4317317604206 -20.1194907999131 0
-196.808559858767 -7.64837887693832 0.102777127329887 0
-107.134472994641 2.9048505960525 -4.48751237927551 0
-116.709611004021 4.80662529664876 0.045608646574672 0
-185.556899470045 -19.6256791553709 15.9440686936802 0
-193.621188725896 40.4829093959336 22.0630453730535 0
-172.477324044189 -24.8146054016156 11.2074996094984 0
-84.1433952770712 -18.2422282397337 -8.86705407018437 0
-181.503941959679 -14.883220634433 16.419576680359 0
31.028781409687 -10.6063911156496 -0.757554209850887 0
-151.941231843654 -15.776301393773 -21.1963977916902 0
12.5121443336583 2.48036442300626 0.363866490179353 0
-168.905211851265 -27.6421699963539 -13.7213195442905 0
-182.089202279666 20.22897677201 -9.80891768605175 0
-54.481769481871 -20.111328706286 3.91208314320522 0
-34.04146088013 -4.65052817801215 -7.83179971973829 0
-192.485818100043 -11.5484988836037 -10.0670813041715 0
18.0128679907797 -13.5666657522604 18.878250289678 0
-201.645100008767 31.4462615822839 -16.4992640131068 0
-36.9684960630497 -15.4085046123718 -0.790325191857118 0
7.0437832149424 0.372756025806402 -3.41400320993529 0
-201.968850413468 49.626678016642 12.464671806952 0
-133.495048098832 1.47457026680035 -13.7049075187358 0
44.7830252641819 2.09196096939699 -0.335161082201137 0
-154.995821444969 -22.2889934684541 -18.8291041491933 0
3.60524223681529 -5.96447729266309 21.8839841794724 0
-216.563121591114 41.6443140741348 -1.04310933756478 0
-150.948914084104 -7.00617957157807 8.65787918826418 0
69.1025720220222 -15.5455825967036 3.53208149814615 0
29.5278970473099 7.24169942573555 13.1518347521198 0
-159.04509999468 9.48130916049859 -14.359990920978 0
4.29115799927847 5.55473519969406 6.82183617007045 0
-170.288488264108 18.6274899236911 -3.82883922922553 0
64.127093630088 -1.89695366663478 23.012402535012 0
-82.2531553133613 -0.514659560762844 13.457706727735 0
82.3953803355468 -1.58418485439654 -4.34313701095606 1
-35.2492221356933 -18.8165665122927 11.7628171001379 0
-168.054859819558 17.3418376360225 -1.82481554653606 0
-39.5021374010099 -5.85033749049526 -8.60846177829877 0
-169.490954475631 -6.95781190849075 -23.9735013066963 0
-64.767581977811 -16.3268037019342 -6.02189485754377 0
-99.7468534866211 -13.7914526107594 -15.3394242423571 0
-136.853178711253 7.15999678190376 -0.482252296046739 0
-118.69976090733 -3.21752153211632 10.6592588982579 0
10.7640685165902 -0.276003842114929 -5.02499427027549 0
-201.761126603192 48.3763134904702 6.98954912172912 0
-182.044365824126 41.8121535233909 11.1351412769596 0
-219.48846475654 35.2422535039992 2.61984822655888 0
70.703429930844 0.715411508630361 -3.70123994598752 0
-172.910108196534 -28.1293168950243 -13.8437552119735 0
-78.5344431357332 -16.0553911364063 12.4128511831287 0
-178.574212027362 -6.39550697977236 16.6731363152358 0
-141.072800574261 6.56372044628624 -23.9872642295498 0
44.6210700215222 5.42751211487007 4.5252166866084 0
-187.790042710614 13.9445408878926 16.4756580529446 0
4.30404920985008 1.35833376729386 -1.58489485597873 0
-179.800264180353 28.6330772602704 2.23103659795689 0
-113.928388606857 -3.48954992500031 11.2737630457826 0
-207.43816519129 48.5912698947236 6.08333995042163 0
5.85704700885304 -10.8278652833775 20.3473054928837 0
-81.1238788087596 -14.3367792616345 13.5748278404491 0
-195.323785478162 -12.3435062757812 -14.627472525216 0
-182.564776504993 36.6031180650631 15.8062978108205 0
56.3901648422746 6.97580360906124 16.9667077457941 0
-3.45142189742866 4.02142651747244 3.34535460702214 0
-24.6503126156279 5.11427259365969 10.2099556847404 0
-215.030218447676 26.3343558943864 16.3072275260099 0
-177.920143958707 -18.1127823381294 -23.1182105726818 0
-180.917573703649 27.8802736213518 -2.90345729664099 0
-57.8041614053036 -19.199000236202 0.389580638663481 0
-196.646543021861 6.92638827610832 7.41209153257147 0
-199.38885264242 51.3880897250976 -3.09864320427869 0
-0.290959324835104 -5.25341263155434 -5.13850149151373 0
-27.3399272972345 -14.9738274219357 16.5855132065803 0
-42.5277387565129 2.23488785503426 14.7077355930043 0
59.0986427694383 1.69176131808946 21.5385807467835 0
-108.716157678518 -2.37474505957584 11.5584809838773 0
-162.833509163847 -16.6317153720285 9.25937317552311 0
-151.069890659146 10.1442762940792 -20.2768804180842 0
27.0500978454616 5.60476913543056 17.0381757252426 0
-218.039213892171 28.6577131023334 12.1877605113415 0
-91.1239008394863 -18.8947668095434 -8.83653578524064 0
29.2064237367466 -6.84533901013712 22.3782145455224 0
-144.716664086788 8.81473622366929 1.41894283681841 0
-195.785061170539 -24.9401218692709 -16.8443729715028 0
-132.078067999117 -17.660277227534 6.83062372154949 0
-165.276692882235 -27.5667317967083 -6.36293516593859 0
-34.9932115361227 4.67677757073275 10.8940137296873 0
-158.194464100194 7.45808807125859 9.19122150407881 0
65.2350524778559 2.57454291801863 0.605781653346866 0
-142.086149890438 -9.9900979504275 -21.1401265587949 0
-37.7230591318215 -4.5907658012386 -8.110070576682 0
-218.382070321755 25.0726295104079 -0.446679511459618 0
62.6316738243201 5.85506042889506 18.7573722636701 0
-98.8426425884406 -13.4571003366368 12.009956806547 0
-108.999065646187 -16.1864647830038 9.10859916138474 0
-199.322228083462 -24.081433037421 -14.4848807459525 0
-169.775137240011 -27.1393024176169 9.41520184910762 0
-111.838792446618 -18.2982405146054 6.76847193273096 0
52.3568630377791 1.01016445864718 -4.87254743655053 0
-196.183506729086 35.4577059007621 24.2182296622527 0
-195.856766480613 -19.4365480775242 11.3710787490077 0
-113.641696843939 -6.24562545022457 -14.0987302157163 0
-184.624201514651 -14.1721029558348 16.3122827495246 0
47.4818484717911 2.00356302915264 21.099706822624 0
57.2357509716991 -5.92359691390287 23.1936501174751 0
-168.60039068009 -4.33423887481925 -22.7875549463467 0
-62.6912851156135 -2.46627066676515 17.1416724567769 0
-61.6449451024801 -0.878943796829317 16.0525127719819 0
-219.352879463717 28.3919795050249 7.72029454193052 0
-172.530864069124 9.61106891538521 9.7371347823222 0
16.1649649333111 -8.27790200632609 21.6985033070038 0
77.1121765244075 -2.71029558292066 -5.2395969077233 0
-180.29681593209 31.2213070601521 6.22921561218568 0
-83.087574338471 -18.9955529851759 8.17949472169637 0
-132.151972036839 -19.5954508269939 -16.311914731047 0
-148.661398001401 -1.77701576472621 -27.7775532315069 0
-136.875892142216 -19.3488995410131 -17.8755522734142 0
-57.2501039763508 -13.9538113819563 -6.44046428128696 0
-190.053501854602 26.9542915637876 22.1138082160197 0
-187.960934749922 48.5318050528132 -2.66257897577621 0
47.0515091767254 7.75003655738974 9.44887556242182 0
-18.4348892206593 -18.4606927090022 11.0622608587412 0
12.2903210612481 4.2062426737553 17.9408148405439 0
32.7249653860225 4.74789047126946 3.97934755479018 0
8.5467286914647 -1.16162339771404 -6.20403419557209 0
54.682587155476 8.01440746383463 9.15826235733667 0
-206.257384625471 15.8271245519734 0.035333990320342 0
-89.4579140089643 0.889742405876432 11.067985966846 0
-213.668369689587 32.0513120378399 18.5463946452727 0
-6.76635685922123 5.61902249005537 9.57957999513735 0
-189.677155078771 -27.9179917160607 6.9490790465498 0
-44.2876819722681 -19.766541110466 6.97090147013564 0
-169.19335270329 17.7470667562239 0.823156468746578 0
-161.211052735146 -26.1700546959092 -7.90361793940232 0
-98.0134318534577 -18.7995080335348 7.13836858419235 0
-44.5311988642253 -3.21749270420052 -6.44209954484226 0
-175.576396379402 -16.0071511557019 -23.8618705837073 0
-198.541772956242 50.8013709833323 10.3596701322626 0
-86.373187428389 -17.7173613419052 9.75757841854483 0
-195.520783200361 -8.01430353302777 -1.49805703731017 0
-162.563356061217 -23.9137295726095 4.52961606066493 0
-145.936407577397 -10.195517031272 -22.2447949409546 0
-94.1172946905186 1.8223185640344 9.45153050545272 0
-101.647425833327 2.02631993382352 8.66735151946726 0
-144.143883569623 -15.505614088192 -19.9092527961638 0
-144.141160952297 -11.4243155254028 -21.4117009322706 0
-206.899281313997 41.318232961891 -12.5414754861034 0
-15.016103869991 5.20860366218638 7.86655982319969 0
-145.515354548761 -22.8802495384434 -14.5252026992298 0
30.6917191488763 -14.3591818116637 3.4651072094908 0
-18.6182892378278 4.36745927803823 14.4268726928708 0
-128.547780116318 -1.73010834989791 -16.3011331913 0
-202.470965340344 43.7633852007352 20.4036505866971 0
-203.262805230034 15.1339317314408 -4.44239131404784 0
-204.856181776883 49.9536911370349 9.96595327848496 0
-201.282766084062 19.4432330986437 20.9225148401415 0
-136.053963235924 -2.81583236942366 -20.9199337454703 0
-132.814862417314 -13.2440891941101 9.35365024753132 0
67.4792381114366 8.77899496655759 14.173711536271 0
-38.0552574543084 -11.5315327385941 18.4264854508938 0
-199.364242547966 -7.74467512523435 5.01435174119853 0
-151.071541820727 8.59882141337472 -28.6929877139295 0
-3.00925701536483 -3.76584877783406 21.6387827410743 0
-39.4554947851759 -15.389569550438 15.7412467089613 0
-151.566684552004 -23.9711559962731 -9.60023096452796 0
-168.68183074323 -10.9294792358138 10.8450365434431 0
-11.407379946894 -9.56101638392218 -2.95288926994895 0
-131.050454885421 -21.4628712810775 -0.839977961113644 0
-186.341712336139 25.3638930707797 -9.71436304259801 0
-7.6341243421452 5.59603433925041 11.1805988773776 0
-127.147755850261 -15.6182560662561 -18.4775387417701 0
-175.536936376944 -4.48925536972578 -20.2361504829787 0
80.6252488179051 4.0135991680327 20.8959938872565 0
-193.399103636436 8.5080576261392 12.3002384598858 0
70.2754011287746 -2.01851403844818 23.1954737489547 0
-201.580212477908 -10.9993790733167 9.75950596410444 0
-172.033738017466 -11.2578561196045 11.6180588176539 0
-132.213637622001 1.12813476684679 7.48073195967045 0
45.3343371127055 -2.09526783925308 22.6352418085881 0
-214.480536922287 45.7791760536981 3.33679340566839 0
12.6765547699624 -11.8434675032046 19.9249457683004 0
39.8142552367656 -8.86969371804025 -2.06429421116013 0
-136.921062430438 1.91059101137377 -18.1397837714404 0
-198.048522577624 -24.2075430996013 5.11125556735715 0
-203.098536606618 29.2980035100894 -16.1100215165249 0
-50.3043222542111 4.89608271518907 6.38263642613611 0
-57.3217454817144 -14.0442925532543 15.5257354360313 0
-55.7855671098721 -15.1704939759013 -4.79635563839575 0
-30.625509840043 -2.05318135917399 -5.37489861298456 0
-23.9985874453226 4.31906691811869 4.55128362104115 0
-214.341630106712 42.7572275576112 13.4617997337576 0
-180.818011414312 18.7100809696778 12.3912819108058 0
76.5073039963558 -16.451069566127 5.02533380868438 0
-171.096738508986 4.94461731106923 11.3379366780878 0
-162.944049544676 6.63165521787422 -19.013259323188 0
-194.107109423064 25.1897885483352 -12.946522415652 0
-173.95959390353 16.5314482683412 -10.0449823011356 0
-160.213948135053 -20.5296300738022 6.84544807286602 0
-1.30538913125344 4.53023546007165 4.40574323969315 0
-87.9572479665067 -20.7245658995925 3.83004108915546 0
70.7055198415129 -0.752667861619857 -4.77205700812779 0
-68.940087300003 -20.4789003756755 5.62403320056183 0
48.7281281822696 -12.0985195814565 0.0972748303728883 0
42.7737638739514 -3.85372390414799 22.8786053125478 0
-176.535385060246 -8.15002632670648 14.3688471575592 0
-106.409286686406 -19.0088208029131 -10.6234043943643 0
65.9466033471855 -12.3856963838249 20.5939531783724 0
-201.290349115033 16.6024635450907 -7.98659513874771 0
68.1410926886381 -2.24761077092642 23.1745099030939 0
19.9546024107563 -11.7690833159511 20.1346456409276 0
-197.579400212346 15.565597844538 17.7375693396555 0
-178.91567490819 27.0845170411534 0.317566759977134 0
83.1309410364421 8.22399699031597 16.9513445952726 1
-207.796268223793 15.2423539476463 13.9057722144621 0
-161.800817149243 -18.4732455341031 8.49871708655454 0
-60.0978938346304 -4.24914866123657 -8.7614695546369 0
-140.121545034611 4.48642565685255 -10.2311037440535 0
-164.852711659779 -26.6466107694914 -14.7148322830072 0
-186.205103931054 -7.7900699627691 -12.4771048198388 0
-188.542683844835 -11.1471579039975 -9.63383682655631 0
-199.303726341685 11.7586186038628 8.3170445326535 0
-11.1811906951418 -16.5756510913327 5.18261596331107 0
-149.058364166436 9.58341074799036 -19.9224465279191 0
-181.140865293907 1.13147176229139 14.9587330557439 0
-153.360490597779 10.1217246948568 -21.0466845690829 0
-209.957802999667 43.223167176277 -9.21989997117144 0
-199.177281526725 49.2168150999232 6.35785380227189 0
-136.192683953946 -15.7436457024069 -19.7320124595923 0
-170.631745760155 -8.8720034265787 -24.163864007095 0
18.5449399304136 -9.69596332830121 21.1966439331234 0
42.6906172327078 7.62995340922469 9.68591617590484 0
7.23505229610196 5.09900563968904 16.0284635764567 0
-101.408909898951 -12.7095649807332 -15.9726970182457 0
-192.561864313756 -4.08573242106349 -4.11975980246609 0
-187.447642451933 -20.703599621807 14.0850247547868 0
-171.950628031165 9.13214584775988 -14.1240519196939 0
-67.0599236028696 -15.8174349820208 13.4158866782575 0
-196.590279899077 -12.4871014157329 -12.8155190912587 0
10.6592746541615 -17.756007935175 10.9293012642414 0
-204.896856261203 -14.1672019648277 -4.45655996238861 0
-188.897504524241 38.4747301092604 -10.2820781873543 0
-194.721316965278 -26.4520662741717 -14.8462399608045 0
-190.522579782154 17.3368823515666 -11.1390592759067 0
41.5285785890395 -12.1948608215261 20.3476670896706 0
-178.317501044816 -8.01360869007278 15.3138746395844 0
-53.2524381686259 -12.7224726564887 16.7829850428981 0
-159.165625608199 -25.7466944596545 -5.19890233221226 0
-184.263451233086 10.2881728933571 -11.7313846566727 0
36.3116935093857 -16.304822590174 15.3228220013366 0
15.4813378285737 -5.51154164828261 -4.35610834919049 0
-36.0600404874377 -2.39933622195382 19.5809330244328 0
83.5850185523152 -10.0897332098769 -3.30206087666864 1
-146.667968021815 7.65218864866537 5.38644010870543 0
70.6907942472453 -9.60637694484017 -2.90210827587491 0
75.8781205254522 -17.3299300831954 11.3657844941617 0
-188.206477291064 45.6786456192625 15.4054845799896 0
52.6565831372918 8.33486680754059 11.6349959542149 0
-178.318887385271 24.4042808645248 -3.9346388760352 0
-85.035491565966 3.98458299422931 3.15544956659399 0
76.9025286781388 1.56585645785246 -1.29475211443304 0
-168.607978771232 -23.3026763463319 9.18127135005362 0
-215.938703789351 25.0705659448382 14.3885932398792 0
-184.041451702404 46.2877679258476 0.750494212716337 0
-109.025890131946 3.11919258926446 6.29680644640399 0
-97.4379023266259 -15.6288414983029 10.6482357618669 0
-106.088254550984 3.04905100233096 6.48924673650044 0
32.9850928730279 -8.40113867186178 -2.19707752486359 0
-115.964143004506 -1.02914177455571 -12.0863905760507 0
-195.948273626012 -0.821872672720927 -0.179189491069703 0
-111.411696087935 -15.316564609715 -15.9614747276442 0
-211.221767199165 19.9901694298745 -8.56217863032501 0
-158.011671695557 -8.78907578163446 -24.5177122694236 0
60.6675246881331 -13.7853738719958 1.31700959970557 0
-38.4806950231339 1.83094951978283 -0.116040961226435 0
-126.337948668609 -21.5211939857594 -5.36898397504491 0
40.8790839270372 -4.04126605443128 -4.93532102036045 0
-78.982018889329 3.83411163227512 6.59260217273078 0
0.822844407294339 0.798771345071614 20.2340305470028 0
-39.3963657173327 4.65129894826857 10.4936677302917 0
45.3793230696734 3.67623752449714 2.0386737880739 0
-169.588732062585 -29.245760824745 0.251707826920457 0
84.7610717353911 9.49841548460649 8.37009626963376 1
-93.2380851509279 -15.4511033253413 -12.6494944807698 0
-177.059527134353 -3.16035162557435 -18.3208587789424 0
-100.287407362787 -19.7850704091446 5.20454061331229 0
73.5165211069432 7.48429039298087 17.3258747602088 0
-87.1639123901142 -0.0623237167502792 -5.94612475413515 0
-26.1245007023866 -17.2026061078877 14.4469073450497 0
-187.369581988537 16.6058237649738 17.0951014054179 0
-82.3262521960515 -7.81054640177029 -11.787343380983 0
-84.2958562774777 -19.9740473084136 -5.94132837898662 0
-58.2586979955893 -12.4324750362237 -8.21552538713465 0
-65.5521382130767 -9.06937484678617 17.5550225595958 0
54.6003362437145 8.35316844482114 10.7695238608651 0
-57.5139428604643 -1.52163297020273 -4.83602820091969 0
54.5707089237907 -0.896632321097472 -5.92767682984164 0
-160.515490364801 10.1314162485878 7.61273039284761 0
-174.002854962853 -30.5221820413622 -9.86025177934713 0
-149.338782316836 -22.8040378695606 -0.905549744798489 0
-204.063457576343 -20.7053750140587 0.521561627042735 0
-192.313813916838 -24.0321202800505 9.8813754418548 0
-117.227355809876 -20.1895444000217 -9.5535101946493 0
-17.0429081056773 -7.81558461157675 -4.66740706400925 0
-190.136806324517 -12.7333263543618 17.2611007558181 0
-159.9799299392 8.78651299038719 -16.5551715829149 0
16.8658896736776 -3.83885826706226 22.2391809340111 0
-186.444640295214 36.944559034288 -6.79313596284951 0
-171.598937306361 -30.5248953407349 -9.616923403329 0
-190.601027699002 -27.7127489927127 -13.4296685861522 0
68.1001304271592 -0.495871848455285 -4.87830037276648 0
-164.980997084199 -27.2521800622865 -1.02162389145848 0
-101.425617665254 -8.66377606899806 -13.3369739153168 0
82.1760229154684 6.18066614726303 19.3232630507462 1
-160.035680580385 8.30698513195094 8.77869166807411 0
-140.070679592583 1.28550520369265 -25.0435927200431 0
-171.298973792005 -27.2230704579041 -16.3932311243762 0
-189.051449059853 -16.4156064383053 17.6540958437713 0
33.2099816783964 6.21886429933766 16.4877082436872 0
-109.858873000884 -18.9688990983204 -11.6074061721666 0
74.7901341988762 -17.0315515367956 7.26604132353032 0
-182.875435199188 43.8390709628705 -1.30539538033747 0
-176.708955438892 13.5217221969357 -11.6972104959421 0
68.6900600063629 9.17009592164929 11.7593067416572 0
-146.353873232005 7.53762988742627 -19.0457130151583 0
-138.795391184786 1.87972402232399 -22.6355728239891 0
-199.665292475233 -25.538046673539 -11.3122429327792 0
-189.907985288994 -24.0760472615809 10.0240405599499 0
-98.8580808460753 -21.5529406230051 -0.555261453514753 0
-163.470547355622 -4.35421487031114 -23.1906546651309 0
-123.3647576587 -13.1754935476725 9.88980756702929 0
-154.114470360837 9.50478760620578 -7.49740526852636 0
27.7951658911239 -9.4417426601829 -1.48868373469706 0
51.3277182801092 -9.98807931838138 21.8852631836677 0
-183.683513222648 -18.7323760685995 15.1459341657239 0
-62.4200050330099 -16.8256774025415 12.8785482956956 0
-192.559683542175 -17.6334270230388 13.4447021543423 0
-209.669228989506 20.2871395931771 -9.96101649509482 0
40.6506973785343 3.9474088703989 2.52980415587764 0
26.1682595799776 1.47643397487916 20.8286833472698 0
-197.790136933755 -11.6096066577226 -8.63480545968786 0
-15.7739273834054 0.204867756895761 19.8083824378287 0
-169.28904539361 -28.6885071528479 3.96321799752893 0
-170.428347659699 -4.0844244196561 -22.1443989899364 0
8.45251058912717 -13.2362825827675 1.58992780906993 0
-70.8610448924211 -19.303219226685 -3.68714371433529 0
41.0323264767951 -6.47212447982788 -3.57417352951868 0
-134.919217307037 1.5537665256361 -14.6704275469403 0
-179.091155134126 -31.9869393414683 -3.42901158402627 0
-72.2443329734697 -8.14511478634246 -10.5175472203673 0
-200.032253420889 -18.9030968061379 9.92740695987533 0
-109.261601760324 3.04324826299814 -4.72839374890459 0
-195.453793166283 18.4430990637593 -11.5173473694269 0
48.7812802305537 7.74187499106984 9.20610946748238 0
-39.6582684314061 -14.3138083098461 -2.4398082206988 0
-189.614685208088 11.8886322647994 -11.32512502667 0
26.3803526243036 6.96445619111253 13.7043623560366 0
79.1428925202554 -8.65384593125256 -3.81978714969888 0
-217.045861584352 21.1985279132463 3.99423410784362 0
-189.842476247362 -20.3594108107284 15.1708285254752 0
-181.093997153112 -8.30333735449355 19.8492030609937 0
-184.090229093205 4.68996277775755 -12.1728839758825 0
-184.622387085853 17.6223388296934 -10.717260287313 0
-92.4517740460831 0.312434352822022 11.4457137215296 0
-138.286147391548 -10.3467068126597 -19.420304731746 0
-168.472386225073 -28.0427507888004 2.4048731933732 0
37.5788690871404 7.07238701960587 8.54571718568344 0
-216.49384922722 23.3568270478201 12.1149867148789 0
-200.722406996665 22.3519705083012 -14.2556799308593 0
-179.93304247225 -0.666953185795147 16.3716124968356 0
-164.057163648667 6.95851467619185 9.67178029364509 0
-191.54463647838 40.9381805328046 -13.0620772043676 0
-6.56959573754419 4.836409581334 15.0837729708721 0
59.3256723923587 8.53030995367486 10.3932864498746 0
-165.40348113625 -16.7694960401383 9.5493391527015 0
-110.167052002585 -19.1368281812341 5.69920941874395 0
-199.161665943077 -10.7161428362782 -2.40467060257016 0
-195.689621286801 51.3000424789914 -2.34948243194391 0
-168.162855756918 -1.57707052175517 -21.7931443213549 0
1.55460955920995 -7.62430872228908 -3.37941840121107 0
-14.2819408248583 -3.70842111486655 21.213347976102 0
-167.291869516024 -3.40969114304562 -23.0898848826733 0
-144.454346845638 2.91459847017658 -29.2133397678123 0
-159.793007059321 -23.9513704483376 2.48321411027287 0
-200.617985656763 17.9556562671972 -10.8748410562764 0
-204.393382259109 48.1653115128591 13.6982218555553 0
-190.062698459552 41.5319928371874 -11.8335788506959 0
-11.4957066048149 4.66891743945558 5.18972374982413 0
-40.6772534617067 -10.1317944768507 18.9467228534297 0
-183.236995324432 45.7284859067692 2.99725087027436 0
48.9691923887114 8.1467005096388 11.4127368366037 0
-34.8283704030968 -16.1322440793713 0.532599987309283 0
-25.2143522347913 4.16432275694506 13.843820706853 0
-40.0799416133517 -1.24826754836045 -4.04039788942556 0
-203.190621654793 16.9571835220609 -8.20143208370689 0
-70.1521578548783 -3.25761859055428 -7.21979958265429 0
-183.658813203413 -18.6699576602571 16.7491398262874 0
-194.268856718121 21.4927588540877 -12.254085257741 0
-120.241857641058 2.536863904932 6.9462632968808 0
-199.093817035984 13.4968134815846 12.4050245152322 0
34.9657722790399 3.82542983068706 19.4911363244015 0
-154.699070675383 9.05243155570775 -16.2377128858978 0
-160.303729223654 -16.9303336186075 -22.3475966698846 0
-96.7476468025085 -10.2496204403922 -14.8391440121933 0
-186.376342541979 48.7696975257721 2.95347351857938 0
25.8698014439821 -3.81229502500981 -5.35431584871427 0
-80.2529084996616 -6.10615661552044 16.2878005246931 0
-169.256533051181 -2.55778976743603 -21.6257194996602 0
-218.790076799521 36.8160687416959 8.59128760260614 0
-154.217988196392 3.27985934713714 -29.6717826351311 0
-110.602168704229 -0.61845609249384 -11.1206231278221 0
-155.268988507409 -3.8120570273078 -26.5355527914095 0
37.9787930533057 6.15642689169698 17.0595865960804 0
-195.854209077851 26.8169555256026 -15.0581230679032 0
-184.601496188262 -30.9677764328203 -7.35718270523108 0
-82.544154380621 -0.517313671710423 -5.89426646297865 0
-172.820067290984 -17.3627413598748 11.2874755376011 0
-68.1786152965559 2.43561909058748 -0.313367198658599 0
-4.38895469510322 -17.9889825202773 11.9611812342836 0
-209.562775899932 35.0414942695405 21.2279321403156 0
37.0296149102887 -12.9074599955913 19.838192583499 0
-190.16442779446 50.9820071184651 5.11009115687184 0
-195.548340382079 38.7308017031405 23.1746988008765 0
-159.17865835737 12.8888415585985 -1.40123000576779 0
-122.154970027147 -11.439979969877 -16.6992123642198 0
-183.036166792847 -15.8469341547064 16.8961077392079 0
-204.554886343361 -13.8367086598578 4.74320467709551 0
30.1061452712378 -12.6078210254354 1.08492836245114 0
-146.426997075589 -9.45782890326856 9.18998036764312 0
-164.532719130778 0.788970831655483 12.1339003099118 0
-105.161295349588 -21.1605493144712 1.86063418466639 0
-191.606307595647 50.0410584199107 -3.79253733715111 0
-207.667110487001 13.5052275127879 8.81884199167491 0
-32.6438650354274 -14.5449607444074 16.7245017794357 0
-203.54610541513 27.036783466905 23.7459820328137 0
-153.599734293621 1.73033033132608 7.97877204520038 0
-201.791325409404 -11.4347298459689 -1.31815702440476 0
12.8081292394647 -15.5677991306495 5.39728386730812 0
84.4732615954096 -15.3222430010461 1.10712048730429 1
-188.156323410691 -13.4874047862671 16.7420899886172 0
-192.502485366369 22.1521479204142 -11.6139209995864 0
6.99520118022326 1.62087983872841 -1.1743064214653 0
-53.2577235063139 -20.2381135453603 6.19451314299523 0
-169.204815874883 -14.2468626339818 -23.6332813861908 0
-162.851451916886 14.4131910741897 -2.78954195727042 0
-177.344050815332 -8.39054075073358 -22.8864596691485 0
17.1912673088915 4.63028346130087 17.6868680847854 0
-150.288524310994 8.04689389138464 -15.7891011228048 0
-215.056097636689 43.7721297572979 10.4045588739141 0
-218.291979239184 26.6442538191193 10.548510720977 0
-175.424958106229 21.1382090157417 -5.46958124029554 0
-157.02608404785 -4.48935684226564 -26.0878564786572 0
-181.912018403826 -32.042453808179 -3.69710435607061 0
-44.4508660073494 -2.56388393032243 18.9257221924277 0
-161.209989818653 -26.2623070976051 -5.60075812039227 0
-205.730675561822 -16.0456421861565 0.852854971219253 0
-195.56603694339 -10.095353137418 15.2361362890118 0
-162.701937857801 10.2937971765462 -13.2759756483016 0
-4.31110572925555 -13.2683084681918 0.781418527295746 0
52.7887529526782 7.54997823473799 8.06355156111908 0
-65.9695649293148 4.36689961616779 7.3688285153619 0
-154.002374837628 -5.41982293671208 -25.7667861344665 0
19.2203328893602 -4.72486759460979 22.334992154038 0
-141.420471566464 -18.2856177175006 -18.7609889800183 0
-102.707202378465 -20.4631774920683 -7.03251995028185 0
-163.672381097547 -26.0581542931996 0.836989240702874 0
-161.079396313002 -2.40089301132781 -25.2513764461161 0
-205.958462702798 20.1996381089159 20.2308457398066 0
-195.414279003628 43.2634857351239 -13.1330620120757 0
-158.686859878606 -6.59958869748342 9.16713997517183 0
-205.861085634385 -15.4094927694237 -5.47741593605192 0
-124.185491395222 4.53773792453153 -6.4485415601775 0
-202.974535012077 47.8217659574934 5.53829731250222 0
-204.508662785441 -21.5347251855335 -8.93844220569338 0
-188.653695661614 -28.5527849789789 -12.2462462558703 0
-190.070135607514 39.3459624162606 -11.8548027380873 0
-150.603321636535 10.4801804158421 4.70206469471626 0
-52.1062367977582 3.53590233610187 2.40092477090369 0
-54.5909638010148 -1.70884132060716 -4.94223238430609 0
-133.121908185305 0.210405170878601 -17.3668354168213 0
41.4783892656043 2.22976981468196 -0.137878432933504 0
-158.735212111074 -2.6396408907464 -26.3284224116811 0
-103.874432542271 -17.9091578059565 7.80681398725941 0
-178.570304827186 25.3587800943203 4.79335213909588 0
-45.8763140513293 4.9956408069678 7.10826397007149 0
-29.9561922055161 4.48225296709366 4.89368838184203 0
-200.500481555755 33.9239099915493 24.4290717840353 0
-82.5092240144694 2.91837511327709 -0.977767029009371 0
-181.107015252977 22.6998912370356 12.7960495495262 0
-164.018835723099 -3.59105752412379 -24.2183934267812 0
-155.420516043367 9.0704790441386 -14.1848427934306 0
-207.295498337738 22.3091584230143 20.7512259232785 0
-16.2986231578841 -0.290514501290797 -3.09506833313143 0
45.1784767258065 5.28389551354486 18.5920199379773 0
-66.3673633937578 4.58703005902389 5.19406234217631 0
-42.8372880458179 -15.2210207205704 -1.95562890377248 0
80.8164248059653 -0.404119731872248 -3.47043703588139 0
-211.791210470854 27.1268519911281 19.7810432109066 0
-197.92361115577 -27.256484109287 -10.4685476636188 0
7.13667623745071 3.6321940039821 18.3028778673314 0
-66.8874154085706 3.97465190117255 2.67440297616827 0
-75.9690328779245 -8.47735394250705 -11.886075006301 0
-161.480348861698 8.59714588927208 8.47118288210789 0
-212.529446493071 45.0695368916421 -4.33744599200466 0
36.3706839120578 -8.92275268024518 -1.97246444799521 0
-188.181022902668 -4.87667799405555 -10.4835529929857 0
-199.248351029765 31.3667415404976 -16.6438687315387 0
-213.338106195928 20.0205937243097 -6.44532912852607 0
-193.915429018848 -2.57245234028435 -2.86443649909009 0
51.7332986028301 -6.25483076659578 23.0680063158396 0
-153.076670424882 5.75211358317232 7.88885287021172 0
-186.313953736563 -5.82661603087581 -11.8710002389706 0
-164.54686821591 -25.3056844008862 -17.972205380679 0
-205.186249609466 18.2877266723022 19.0210939718886 0
74.0849901148568 0.965254864144621 22.3793951017342 0
66.6408399564543 3.60878219728715 20.7855515380798 0
-154.365073933693 11.2597169385274 -2.52657769185901 0
-136.62570890486 -20.6996004031218 2.25497321785708 0
-201.026103724137 49.4445801319908 10.7692741720163 0
-89.2995801689856 -14.9087729993787 -12.8057038088899 0
30.3742624896455 0.940822868881216 -4.85260880039499 0
-169.17376543406 -29.3827995146263 -4.83489681943364 0
73.4091686077256 4.00622726655778 1.88912924655509 0
-194.123903174467 -13.5709400234152 -10.7118632965656 0
-177.090617503897 21.3163610817901 -6.98112216384977 0
-189.889012788489 -14.7071892359063 -9.24793971758267 0
-51.3980959857264 2.60626703576956 12.7309556173881 0
75.0383334553979 -7.77011785830297 -4.03651420913738 0
-204.199770433697 18.0450560957361 -9.65635786814876 0
70.1499179706103 8.30840337157028 15.5923504108136 0
-74.5237392842501 -0.964184915533249 14.7790278562209 0
-195.675950241649 -28.0731891279115 -4.7790208125019 0
52.7810188613395 1.71305757258274 -0.842117139972596 0
-136.924558797824 2.38138949251272 -14.2391760438963 0
-178.888110676809 4.3170610824451 13.1069853984115 0
-213.40511635939 45.7451631473134 -1.65755579937527 0
-58.9287618654724 -18.2030056860194 -1.69062303483199 0
-132.952220725005 -20.7394065056858 1.93727744180399 0
-177.921136695486 -14.4230914110814 13.1431914208119 0
-46.1296795696087 -19.8029408215676 5.87686119208307 0
-37.9914579477155 -4.01909212043358 19.8285683373999 0
-157.70312516152 5.76937573644173 9.18261049175181 0
-194.147833956255 -11.6376823966437 -9.98543242746132 0
