186.241889619128 35.0104413003204 15.6992018421251 0
47.2645261477378 -12.8843709713663 -18.2082591479504 0
15.9003180665215 12.8537897574362 -23.638772236077 0
108.950093578046 -10.4293050803522 -1.65234823278311 0
181.985007563717 -39.1972512691084 19.4927840328955 0
189.475585558683 29.9961134396596 -9.4943034579718 0
145.146770824616 15.8132274003703 -19.457827139803 0
189.069082683448 22.2828701804133 -20.7514393561127 0
154.54902517136 -25.5168162411445 7.8781125025001 0
164.154328238764 25.8980072829131 18.6476148631596 0
172.924773944249 -27.6769371117122 24.7293245030429 0
176.512817099771 11.9135910952449 -22.2282851293815 0
178.296985244023 -4.68556159013047 -19.1941416054987 0
52.9111738737969 15.812267511871 -18.2819090034936 0
174.396563786691 2.82291597440172 -19.6258362590207 0
183.358405073236 -32.9380078074504 -5.60554267806835 0
84.662341233519 -8.09152655804005 -2.76293230337987 0
186.735249374443 35.6815306542445 32.5143524932934 0
205.306566024558 -19.412971481305 -7.74320025604294 0
185.256949494422 8.43938366581644 -18.6373996870257 0
31.1768004278326 -2.19585079417009 1.60921675405453 0
108.87066253067 1.08283712286628 -24.9519279966797 0
170.733254401644 29.7957888455026 -4.84962247367231 0
186.96850326506 -9.39717384451935 -20.7236226409421 0
58.6490273389562 -13.0840038677452 -18.5874621248205 0
116.032143353101 3.23032791606714 5.34377014949854 0
191.249671008005 5.65406867836222 -13.1636618138133 0
197.264887318557 -14.298974960187 17.1963911285117 0
125.169778258266 -10.1154639682803 -19.2378039788214 0
177.182619005161 -40.7472900934452 11.2431682649529 0
181.958700096277 8.56414307802264 -19.9865904880702 0
192.428158642643 -21.2829677854682 -17.8515292229846 0
132.625795813735 -18.3483436663807 -11.0488648631872 0
150.710352879422 -0.578300260077157 7.99114230125359 0
112.122471252855 13.4920256694664 -21.5230334138266 0
142.48397484277 15.22614417106 -19.9709858861841 0
19.6679461015811 12.1452416397162 -24.442927244843 0
149.085862812954 -22.2138707089852 -5.47926332982675 0
120.016334199902 15.852147334714 -17.7671218315809 0
187.507299233062 33.8673286488446 22.7804933842814 0
164.534114132363 -15.2040599249443 11.4725121927848 0
26.8838972217649 -4.11501930279065 0.470451788215617 0
28.9075873818737 -3.66289697186165 0.836051476086942 0
124.579979397368 12.5430143427662 7.58641014891826 0
186.751762054606 -22.5054037920079 36.7225944383963 0
37.9857616018534 -3.35360717757355 1.06132704055681 0
139.134702402901 -12.3104161109353 3.76044498149475 0
65.9281472122265 0.518370186718784 -26.7289968320389 0
185.085388688765 2.0391922693222 -16.6486364562227 0
55.5243946698426 9.76178810597664 -1.36573050717847 0
50.7048556157017 8.8105384135664 -0.964144518771941 0
165.896297052813 17.0686674802284 -22.7912070488971 0
194.736831258628 -6.17832359929914 -14.7578987045612 0
137.08168962907 19.5335894853352 -3.78184977708492 0
189.974896427071 -36.1386028872179 35.3296777003653 0
201.728278357482 25.2440344430705 1.5573001578882 0
176.268373382037 25.0479386958641 35.3888980362614 0
134.154100998926 13.9226098380511 -20.8806543285812 0
27.81992857832 2.69343942052061 -27.6139520439763 0
25.058690677447 -4.73351529835265 -0.404584453153985 0
180.234838344436 9.74009368219205 29.067143702217 0
205.964026929939 -18.5958637423638 22.9723463696951 0
142.113800727886 12.7008054177292 -21.7866449539171 0
106.436146384061 12.8559557495876 -22.7116116130027 0
161.815389031507 -28.7011902378288 2.36623810242275 0
177.964867611354 6.48854180357808 20.9207577616676 0
156.38042755904 -25.184422386225 -1.49637203054619 0
45.890177741243 -4.60656773459075 -0.0652857081528084 0
147.728832375246 -22.6646448115468 7.60176635994529 0
198.614048731755 -37.1989332029543 17.6270360970313 0
180.76363339587 24.2796912638016 -23.292251239882 0
51.8001589018832 -10.4684526099896 -7.93473352288555 0
182.765714831614 26.8147160883206 -17.8521611491766 0
103.937989886173 12.2841748316605 -23.3443593687077 0
174.572721168061 -5.32110200532308 -18.8591969034973 0
158.542645896036 -20.364919566232 -11.1217336474491 0
74.9822560114095 12.6270408821931 -23.563098236976 0
152.593824952251 -5.99506085213855 8.1088638826397 0
181.500816376951 15.1068205199145 -22.4238631256642 0
39.5671569863312 -3.58992195249967 -25.9637322776553 0
161.189597858623 21.2994946661913 -16.8583747099292 0
147.495110811367 -2.14412117090554 6.96046664146218 0
191.945430292445 -13.4637818172386 18.842839610444 0
176.561267442149 2.12877477356071 -19.380377985425 0
204.668281444009 -9.89044158951888 -0.845006377048525 0
152.186960375668 -24.7354488080856 7.57834227065648 0
205.540517506696 -14.8690193181886 -5.19244215300232 0
179.83824306298 5.92239693092671 20.3431409017802 0
174.466209026476 37.3602524316123 12.3134695037778 0
165.593826297996 -29.9691719993137 0.1296103605068 0
23.1175616578938 12.8151160256107 -23.7366999263029 0
53.8353302979521 -5.55480284372158 -1.70699219686778 0
63.7054054136335 0.106543096018241 -26.675460193362 0
187.86935644241 -2.85544923809539 10.6282932181741 0
181.812873958742 -37.8475178551917 26.3404969234453 0
144.865954777814 12.913862533171 11.1221006593475 0
193.62930588326 30.1594753563872 -8.88987917825292 0
78.1440127821753 15.245228893579 -20.0108264660549 0
196.317305862181 -13.5362113296474 27.6944378183773 0
188.179343714196 32.396108134911 -3.13648349321219 0
55.1665423797994 4.65912323529507 -27.3042706768374 0
18.007734996538 15.7822602124119 -12.9833272507159 0
152.418737657 14.4079936736411 13.701236159288 0
120.043699006557 -7.14814760856283 1.69123289124925 0
23.6038329370273 -12.0294029907362 -16.1558643872185 0
188.132595299966 -34.5773210731591 35.9612494916189 0
201.630898664068 -17.8329343247526 -12.5089817558699 0
208.462342215879 -30.5455395433588 20.5653340437926 0
117.641774193208 -8.22022527006693 -20.8144366863804 0
92.3896944537402 16.2177146946116 -16.858490653185 0
189.799196729002 -31.3217483524672 -5.97162985215034 0
60.5605988141811 4.07697081943227 2.72400631553711 0
182.094990357618 36.7048570483768 17.9932693158028 0
165.133801275888 -0.0439626295242763 12.6423159082778 0
207.060141378848 -31.0506167941499 23.6627043506055 0
25.9690558699677 16.0076478695437 -16.7031331109143 0
116.344377197939 -17.8551269239601 -8.81053141724718 0
177.597718830339 -14.7876440576211 22.6332856919547 0
173.760959482163 3.18756949757319 18.942686228689 0
131.377827551838 18.5840245588332 -11.0714801414287 0
193.838781904706 -1.48829209120315 -11.1127403923944 0
22.0903778377134 -7.02059618207702 -3.97876239900312 0
82.6184688335132 14.105698410738 -21.7041632461787 0
156.141969854147 -5.10424544015547 8.81216344390358 0
198.007649282957 -26.4360598202003 34.538813665611 0
164.717203783633 29.9112861312396 18.2114556475988 0
185.80425207883 4.62177107053927 15.3960074912814 0
188.287608648307 6.95603547054639 -16.0630055208907 0
37.4429380408091 13.3482562896295 -6.83403062563977 0
88.382535349651 -10.5654184258206 -20.7789796802472 0
10.8004534480543 14.5249234877886 -21.5244755854107 0
182.856695990152 34.0058810846523 26.6911770843424 0
197.566233877515 36.050743375124 21.3008402636168 0
4.18196626708189 16.3468572176055 -16.8826829190547 1
157.683800463581 -4.68304616553267 -19.4646259778135 0
67.7693077184813 -14.0920068213226 -12.1125554964674 0
41.1160372415794 -5.45342453588841 -25.1481137750624 0
197.798243343341 7.59503985595404 12.5198194722401 0
184.574412421626 -5.61985873829489 -18.9941200389939 0
186.840506532155 -38.8721268166807 33.7855250345718 0
168.956852639094 34.3696032040273 14.0294376509656 0
205.173745784267 -31.7416024928439 -2.54279441010689 0
62.925466281814 3.87062975901013 3.08135091441619 0
126.934350100586 17.0738193262751 -15.7624731746682 0
146.574839404629 -9.12193024654146 -18.8590277625821 0
89.8868607391879 -2.52448996215058 1.97403555851589 0
37.4418143076789 3.92133281413658 -27.5903270327894 0
97.9925076916518 -10.5654654309295 -3.18203450657499 0
125.50592271641 18.3364134910202 -9.94233167748228 0
93.0470435863964 -6.27789296830895 -0.211816873364535 0
180.00180191061 32.0434463583478 -5.12513054365381 0
182.699638516641 -12.3430978962847 19.2257480980614 0
207.316856867387 -33.2360138268939 1.76838276058097 0
22.1500115869431 4.7224200949772 0.136355788459037 0
48.3057982048429 12.2644748953654 -24.2674389177538 0
25.4159224739973 -5.49589763660892 -25.3041706802583 0
3.56553440098511 0.706142951169383 -27.3957546062381 1
178.40220499203 -40.9092100191765 6.9982891775722 0
167.575198286427 -32.3819353783597 3.32041299997763 0
72.9759975442446 6.43469344844034 -26.7616512595923 0
90.1679316957064 -0.0947242654778663 3.09502950143798 0
176.775437717381 -35.2699987833596 24.7110742610817 0
201.072215767676 -13.7077602167909 21.3809849099388 0
178.709723204672 -33.4482750449284 -4.46996059737158 0
29.6947409011619 -11.3327485679343 -11.192570189798 0
72.8234783108118 -14.7115088143132 -13.0663016644083 0
169.975183304421 -24.5063446817287 16.2782058343079 0
141.155271527401 -7.21766768043148 -20.025384077502 0
190.852769281234 34.475978647705 12.784587822925 0
168.498040124193 -23.5141437090366 14.7583848703459 0
177.417079447227 -40.2876803227458 19.4066470377164 0
198.141618052171 36.0956620195709 14.1525013476414 0
59.8791960789873 15.0200124889594 -7.96209952377526 0
134.443090485232 -11.3003882501227 2.76387312240367 0
83.5075553055074 4.82888903656249 -26.4356964917311 0
83.5528329005757 11.4833958653673 0.530371134054499 0
156.280472961483 6.32993514232302 11.4890252623596 0
148.30526785556 -1.31330449362223 -20.9991996562495 0
150.372583376215 -11.2884034431607 8.29665153025807 0
190.085748166117 8.55090899740782 20.9951509170286 0
108.715281133621 16.5586744659987 -2.89740686733248 0
83.2818201382097 -1.67064050754877 -25.4808671004082 0
148.935744756316 -23.8617110666935 4.07962056322683 0
10.2835725989693 9.11498950513996 -3.12688238646064 0
86.1688841007225 15.8136794918126 -7.39907303855695 0
77.8551371505758 -4.7776522890987 -24.5497912055345 0
89.8887523399531 11.0753673500369 2.1004571311042 0
192.180039273662 26.0434836415651 -16.9883323086581 0
125.171444531638 -13.4461469653282 0.0233784178526749 0
169.019007222416 -25.5582805634975 -9.19327135781967 0
44.7363879009788 8.36338030592272 -26.6251042183073 0
183.06494328533 -7.01774215713714 -20.1588491943025 0
171.874955093265 -21.5763629678272 24.7443983493237 0
161.387707209963 -6.00223623321667 -19.1477319364611 0
168.414991904654 29.8447602699496 23.7496984748602 0
137.206318015217 -15.8599798427915 3.46307343190435 0
45.2814959290536 6.2424758573089 -27.2078224053886 0
138.614232603214 9.90511961253357 9.03649897692883 0
47.1847412802387 13.6723609632795 -22.5800323564055 0
160.335847896769 -5.53947750115036 9.89945029091494 0
1.1905517437774 15.1231428212604 -20.5577897735607 1
171.440850066921 -20.1290928703628 20.2789356024117 0
85.0058897883957 10.1536735129916 1.89998683176706 0
146.589570327326 -22.5243243169623 0.529005886029561 0
161.444506723047 -29.9977931724451 6.51231921932581 0
74.3833522325918 15.1264413602355 -6.90750739223713 0
188.677096574781 27.2747731502029 -18.1389812017948 0
26.4640054635404 -9.53509497480236 -7.58479549463223 0
168.580829771464 -25.5450494399541 14.9247285871116 0
13.2705300559713 16.1353773952556 -14.9335270767425 0
179.013832543839 -26.049035867517 -12.9568340589175 0
144.939028992525 10.6164858940399 10.4274163975248 0
39.2399851571513 16.0135058173354 -16.7584505269382 0
175.528877242611 -15.5545082977891 -19.8156169304308 0
44.9245537817168 3.81240033520838 -27.4162504329224 0
168.838783683075 -36.8586165948697 14.0309148150073 0
57.354022147464 -0.331948880006608 -26.6868129044613 0
173.246795591098 13.5823823455132 -23.0654567195316 0
101.234069392919 2.88883248246961 4.93001069797315 0
87.9276546972171 -0.813942182620343 -25.5333423058243 0
50.3807720417186 13.3447260429522 -23.0899545270802 0
192.166089088672 -39.6494994397167 7.72674943839677 0
88.4797116571146 -8.67113165224918 -2.90695948633182 0
173.011247231204 1.76058755641182 18.2913212927531 0
104.897315710282 16.6553645469145 -15.2015339387054 0
158.056688727674 -5.19156418030789 9.29487467436832 0
84.6577096594295 -4.38262661500187 -24.5037017918103 0
171.569095986524 -33.9982464734545 1.28502028792829 0
200.456876119009 -35.7335497018876 30.4441834017713 0
4.27362713684986 -5.65529398601215 -1.81236555603632 1
141.870016156709 -21.1065104712391 4.59606343595744 0
69.7040330996222 0.806660729594867 3.41572222850048 0
100.152671890795 10.8258127668597 3.69142902034397 0
90.2785587075477 -4.54787530180843 1.01653818792491 0
202.665373333477 -12.3521115544183 -9.07776227332609 0
160.615685763845 0.636946193793272 11.1114748556457 0
13.1459053682062 -8.66587315589521 -22.8410823930981 0
193.196086829402 33.9621848060622 9.36301684436139 0
197.559768553733 1.26280629129631 2.77768560701695 0
181.32724478876 26.252056075504 -19.3837617844475 0
54.0785375423478 4.55731556883908 1.93624349532524 0
130.906540252494 12.7890120209009 8.65228079311752 0
200.208472090193 18.0250754860713 22.6870288532498 0
173.886716930103 -31.7487415673695 20.9482625996718 0
130.562884052483 17.4813170990342 -15.2993739247064 0
179.695051672916 24.1935161100564 36.4261613367177 0
175.881430077723 8.28137878241772 22.8438894254871 0
53.2444763527446 -1.96901944797288 1.90850991612734 0
152.861063764613 -20.7815538570853 9.24824305525477 0
122.620787664707 -11.6514128850877 -18.3708336477135 0
54.2820228439752 -13.3852878197635 -13.4441511618204 0
186.578016663601 8.11119779270662 21.807698079472 0
145.944383737469 -1.03566054400268 -21.4161509202577 0
196.512701489295 -21.0216665941332 -17.8559579328387 0
75.8970022069631 3.09117078695194 -26.8011891531567 0
111.282426441782 14.8263760192879 1.37347586159091 0
174.607115168569 -28.8354376316096 -7.83724437796947 0
177.647184558545 13.9210452519738 32.9612673510782 0
70.5762956422101 13.7014132368426 -22.4705550337784 0
199.466078266835 33.6186011331091 21.9001549440094 0
180.318553439689 35.7608612559218 19.9307340515263 0
209.059230169697 -27.7686764527939 1.39649734064115 0
158.072315021083 24.4020129162566 7.74106301710119 0
42.246943367178 8.39250230269945 -26.6527009526241 0
19.4089055644949 7.15884931168779 -1.51109911493524 0
197.832489001907 12.6876404783108 -7.82758498586045 0
187.219734775057 31.6025393175973 -6.4278095746223 0
116.196281482555 -7.59041339324858 -21.3285456892674 0
207.587682831144 -17.8968170559311 17.9887102890765 0
166.868957169884 27.7470655196049 -4.52063330480261 0
165.923612858774 -19.4820506797164 12.8973877642986 0
164.911069124959 28.6241127456554 8.75611259259192 0
162.424139605911 6.82286018978886 -20.7765686698775 0
173.130468487686 6.53871155624729 -20.6185737003056 0
108.925459354202 -16.0332818711194 -14.517595384373 0
155.265633213566 -23.4328908989337 8.77639180584042 0
14.9291340791329 15.6061208125683 -12.1977986407406 0
186.163979840362 -8.11438625326423 15.3191383451867 0
119.262375222878 10.2338633700447 -23.9363449844526 0
209.446358922608 -32.6998838213298 5.88552499616102 0
188.878239544986 32.9652907154803 -0.114026777524296 0
174.477155317122 17.1371206487833 32.8918968223865 0
187.939707995845 5.6823455287882 15.7641730672478 0
195.455326268171 34.1286374530567 11.2002640332625 0
159.208099068475 -23.7697987410102 9.66193604971413 0
146.875298121062 -6.29602586541782 6.30272572038744 0
191.085117558401 -33.8267758960528 -2.37504116671163 0
115.783738161838 -10.9121774160373 -19.2197079792276 0
151.10104805138 -21.7310819980156 -7.48319884088305 0
186.907788738667 -30.9157415977259 36.7684581908392 0
190.148771431633 34.3403914097496 22.013658488066 0
33.2078093635127 -9.19855758136772 -7.04527192918464 0
148.45074936298 21.1249017666739 3.28544219109874 0
194.086677647082 2.00626921168885 -9.48455813965985 0
51.3205602890927 -3.74064870221288 -25.6822483363372 0
96.454512607135 -1.71318981676478 2.44079785941563 0
121.067988362457 -10.668896474969 -19.1079218154388 0
160.294433981944 -28.5891944157489 4.61870748912302 0
66.7453478309826 -7.96804389924073 -23.3053392648487 0
112.687920428764 5.52222746712483 6.35512663824764 0
199.019662005802 20.1877776026812 26.4391335074901 0
130.160791730813 12.2634531544703 -22.1996867456566 0
10.5623805539974 -6.97115591132586 -3.61125196965274 0
102.488046943238 -15.3818038358111 -6.41919078377527 0
62.6717031995551 14.8467771514916 -7.32243112047574 0
188.793073881333 -27.2965464264554 -11.534633237749 0
174.403077037929 -32.9062360547893 19.4121567719132 0
13.515696143305 3.15882549757677 -27.6051706064944 0
96.3077373756712 13.9786244882053 -0.210633027823861 0
189.436419293632 32.3470354149889 16.6976562752681 0
209.792324135372 -27.923854811994 15.6744293598372 0
24.3089275654572 0.763063901613393 2.37427287843277 0
64.2068488917391 -6.31540400376581 -2.19116491701073 0
182.150823649929 35.1508027795959 20.1458769271062 0
188.079270897567 -40.4446413455529 4.58648612796393 0
156.629059665243 -21.5136220040413 -9.31215996431518 0
91.1384265257799 15.0648397510459 -3.23524979279393 0
191.499631284044 33.9896287939491 19.7036980549334 0
202.443760759623 -13.7641862785143 18.8447262372428 0
159.283579874345 24.4925155465557 2.00500630460958 0
40.269990234718 15.1985339007983 -19.6331986011466 0
188.143034195442 -1.20963489766398 -15.4258244310131 0
129.458628632483 18.4586114412217 -1.22421957736369 0
171.889843581899 32.7056113368079 4.88397144167017 0
202.673715008185 23.7843491447243 5.69742160051575 0
20.8441814979895 1.75367835828481 1.84831807954197 0
16.4658968200066 8.10115260447565 -2.24675428251332 0
209.123087232662 -23.0262723664021 18.3649744256236 0
166.226872639128 4.39983761796144 14.459109016504 0
131.682088323377 -10.4762328195029 2.42269525757498 0
174.431093264915 -32.7794825600453 28.3340415238236 0
181.064370697196 10.9337815156547 -21.3359146289709 0
154.171355143843 0.519252502551554 8.8829811825989 0
157.305494462544 7.27718137092813 -20.9690825379584 0
190.254239525711 24.0802562913499 35.5653884250837 0
157.659909089288 0.245627222486039 -19.3956883103863 0
41.6514865324652 15.5935376592538 -11.825635375443 0
94.9461302304479 -13.7758636074578 -5.93878066120479 0
184.891275138029 -8.01341943139866 -20.3452194232808 0
167.296482014627 -35.7150146208576 11.9431754216838 0
183.961443213677 34.8168908096405 19.9249193664205 0
185.594973111749 37.2992001414085 12.5025489013404 0
104.238780469257 -3.16294421955239 2.28502688492906 0
140.807559702192 9.6617116116062 9.37258447448816 0
31.840304211024 3.00585123532663 1.47541807127027 0
200.304616969034 -31.7479816362417 -2.46687068650542 0
127.896573018025 15.4168716449537 6.03673843634515 0
1.81508192521685 -10.9747135991161 -12.7125070606416 1
94.3114937906378 -2.84745998663136 2.0230156536183 0
193.384698663774 29.7122092472825 -11.0675162266014 0
179.170971578251 -35.7897164485646 32.6110274628343 0
164.718729969561 -32.9040691009163 10.665450555608 0
142.900934666448 -21.5661786934386 -1.80678030076049 0
39.7231334912096 15.0863793375263 -10.1704420410894 0
164.194700039585 -26.4825527265897 11.5585700352007 0
60.1671041136042 -13.7643788739733 -16.4874024511101 0
132.925287896693 -12.1446774867118 2.37004169427866 0
67.369950991978 -0.732681254269575 2.62263585539055 0
200.001233290511 -34.7006196565715 6.1177687199399 0
198.062345415195 34.6755776376959 10.4894574452415 0
182.567354905718 -13.1591171407596 -21.9358889742948 0
208.614936227004 -29.6314934059388 -0.403711479637328 0
96.6549533363859 3.22917935517467 4.96777185653141 0
196.100466883419 -37.5751283421139 17.6752293761824 0
191.503131391644 17.0550870281897 -18.2282039501681 0
25.1586212121099 5.40264238254816 -0.204725017639729 0
116.464100695378 17.7479898782646 -7.53901445699551 0
155.259446147975 -0.535364724394452 -19.8014625770031 0
170.864526424306 -5.05086397175337 15.6642612274222 0
4.7474143509297 -10.9780815229112 -17.3714313870026 1
132.199103992126 16.3895115810634 7.53077099097018 0
149.413427396731 -3.48077500934346 7.14782658472766 0
121.831188141445 -14.6856420711515 -1.89636575898731 0
97.1506374617981 -15.2741947009413 -15.6844743509706 0
201.440886353013 -25.910651015967 -12.5459786799885 0
161.729646093613 25.6689685326508 2.67915578993207 0
155.551069387773 17.0971009438955 -19.8558171604946 0
170.652087552975 13.2653728909994 -23.4528728779705 0
168.929500638942 4.0841410381426 -20.5396985203922 0
182.010571617773 34.1261325076042 1.49342437498401 0
108.790448772568 4.11263097176941 -25.3793862749718 0
187.510252222345 35.0011150361186 5.71072462503149 0
55.2878274309587 11.9907510134771 -24.3299603599619 0
68.4873697887934 15.4689689959002 -8.63422018451576 0
9.41906039447754 -11.2759238595163 -13.0275925678814 0
208.490429665662 -19.691690844117 18.0692727781082 0
32.2493596627989 -0.198402882328661 -27.0656611552995 0
50.0601551129985 2.8110126008871 -27.3473276585485 0
172.222900653889 -11.7378261342486 15.7825877064092 0
34.3880751465215 -2.33017006372241 1.62932142383104 0
97.8387342431605 11.0012561926648 3.387409116363 0
154.342025165131 8.97537101871668 12.0651050954843 0
60.5818289445082 -6.38369476110443 -2.64055897508173 0
109.761442682994 12.1724729952423 3.97157712525964 0
188.265755488521 -32.4670107013702 -5.45722816637045 0
190.933669239412 2.13859737200088 -12.5863674678782 0
143.484289272795 -9.91406857113854 5.37557758185295 0
190.177086099256 -38.8146479898277 16.9245064154881 0
126.983456752804 -0.831538680139562 -23.3624156249651 0
12.9198283475522 13.1387323069086 -23.293937207922 0
56.5585765197103 -8.57028835713428 -5.50289390058366 0
208.598746692439 -16.8047893340661 7.77750472399122 0
148.562081193725 -23.6724044305523 6.34509201321597 0
13.6523078650038 3.13953381741003 0.904516426460521 0
195.28206698455 -1.33587788769354 7.78558971268209 0
198.530848493318 11.3621941080912 20.0887948300526 0
120.496075847708 4.8603325635208 6.18749250806523 0
197.886308353929 -35.0099528823073 32.7833695021586 0
5.35478960682531 13.960923470706 -8.53449290513123 0
61.3695342217017 8.05909115247805 -26.5686674330667 0
56.3302659353859 -9.70572863412815 -22.4210171931891 0
209.735820199486 -30.7075609004545 15.0627159757273 0
185.612230949924 17.3901233969196 35.3489411657362 0
34.1409766194317 15.3749731107305 -19.5298794033953 0
167.863711601109 3.57240651901284 14.8947421423408 0
182.190436587381 -10.385239248398 17.8994243978948 0
13.4829146968001 8.56686279888416 -26.4058221133925 0
100.804814777377 5.33114786472961 -25.758269893944 0
141.166249240882 19.6017522432799 5.61155561349555 0
52.1471504269922 1.57267350415255 3.13405812526165 0
159.954441368314 -8.60163284571914 9.21318347612201 0
163.053605868507 23.564525170048 -13.3879328426618 0
5.95883685332189 2.66653487527387 1.20356451793766 0
161.13555841627 26.3253544827834 10.5386716971247 0
200.844258461398 -3.8129162111188 -0.114443241565622 0
70.6813187147456 6.89562890961594 -26.7040843971762 0
182.881816212251 18.2230962553478 -22.9145827860657 0
198.091639649018 -38.8825581271575 25.8623135297866 0
138.031850116921 12.0904945595348 9.48610312127041 0
205.604406901217 -34.6741261419492 5.52655688044763 0
168.152734673035 34.6737896859327 15.6870877602821 0
17.7000439861489 -11.7838019839719 -16.1391774745954 0
184.255732523179 35.6791675898496 5.75331397273043 0
174.079712458738 -18.8129938153146 27.3601477685294 0
68.1161641528156 14.3270127838812 -21.5730746154367 0
186.748690011963 32.0154443594165 -4.79859592643102 0
148.018039449989 16.3459508784052 12.6080092983334 0
158.113215218494 -17.6196626641669 9.5657274090544 0
168.967488754641 35.8117394152388 16.4827103136141 0
121.032994961569 -12.9239352143265 -0.773334197629213 0
158.491091766841 4.25853663822767 -20.2182996137372 0
67.1516960640245 -13.1083592528707 -9.94424018781771 0
39.7897687666381 5.41837579472516 0.500144431005485 0
163.204504982451 19.7875715743875 -20.8211814020683 0
170.563595922618 9.32638348589636 20.5373121204733 0
160.519783353507 -21.8255799771907 10.7304828341438 0
158.700937742489 -14.8509359798547 9.09844563185334 0
188.595649967941 33.1274521030754 20.8049899124676 0
53.2851696222071 15.9545600795099 -12.6676894264985 0
60.0718370235461 -5.45822762070859 -0.71692760226968 0
185.912854817473 33.9532361593387 18.2101399250742 0
180.148365842533 -28.9544635724983 -9.58596483935244 0
166.860291398907 -32.4387872043306 5.48295101853281 0
186.337937924875 18.6409459903771 -21.8050968723081 0
135.305958063981 17.2257171114697 8.44166728001286 0
169.101991101475 28.4286446478951 28.6275497360879 0
176.888939070672 35.0074236524175 21.9739964776788 0
58.1792367366453 10.9086592872349 -25.1687354807034 0
137.348333502794 0.814098497263061 6.10189380846287 0
17.8262220037344 -3.31496115329381 1.30822251106717 0
58.6574836291858 -7.07516002336096 -3.901094576678 0
185.402831140003 -38.0228722142535 28.4995480280291 0
174.718486148373 -30.2947675578414 -6.33951371599158 0
152.47259104591 9.28444846419459 -21.7739089135377 0
149.429606841997 14.2689981498614 12.8670497375918 0
83.3567799916004 9.56273023007341 -25.565046625497 0
201.078941508915 26.7546443904889 23.4048277595552 0
68.43882375879 -14.3757443712757 -15.1043780755509 0
87.9272475903802 16.5449649483006 -12.2128089550759 0
99.6772708432725 -15.6287588867376 -15.124932445562 0
114.608760917336 -17.7405665617091 -8.80570343554742 0
200.406551503089 23.7498635762422 25.1051234704942 0
189.423500423626 35.6653240226635 11.3535156684246 0
115.252494276683 -2.66572415972145 -23.6477791341828 0
203.920408987002 -13.9080937699338 17.22567694449 0
147.134907113018 20.1473088348913 9.94121861040519 0
194.901303091293 -34.9553753974606 34.3561353079491 0
208.950331657772 -32.4811892696173 17.6256708704206 0
171.828736555511 15.0695571625774 -23.6378511614913 0
190.370976255019 -6.76349309246164 12.0019369875585 0
170.13323036593 -28.6221223374687 -6.29369214013886 0
168.525804852228 -2.4706732956733 14.3674167229224 0
99.6903446500075 8.36961834245508 -25.6332443351569 0
93.9147887001637 -15.6688944304222 -14.9984950425579 0
117.565040169063 -15.2715119975216 -15.401282741145 0
198.445354958473 6.67293337348606 -0.767073565921238 0
193.267568565904 5.14576133863065 12.4415478102496 0
140.876139289719 4.3864023950057 -22.9077510640707 0
174.154112115762 -13.601266921023 -19.9052565743745 0
136.646243109755 -4.19990805195559 4.63913065867755 0
170.381398068562 25.1489619578803 32.1387123321512 0
202.170339901654 -13.2855557346161 16.5142989164121 0
182.500362483714 24.5585923188702 36.8598790038706 0
193.750932410996 -38.5022464125419 16.3597377310153 0
197.13885316402 29.7344091709984 29.3200879980206 0
89.5388223812945 8.85311931223433 3.3487420075831 0
200.688339301451 17.2739815207334 20.9414391676199 0
171.758276014868 18.2150391390202 -24.2332596532116 0
65.3561054052126 0.614557249359404 3.2619833707081 0
191.089256200748 2.22244689087494 9.27212643612133 0
33.7060215736542 15.9691613710532 -17.097273439454 0
86.0879259678497 5.26958471608922 4.66024697688784 0
18.82900080887 -0.0523523805555498 -27.5172988508173 0
158.78436208613 18.7090921954147 16.3670544783362 0
195.149180255032 18.0386899184074 -14.6985454977233 0
65.5613694641506 -7.45207368367103 -3.77214777214593 0
10.6710344950608 -7.73075625472368 -23.7219943151047 0
70.7178457828202 1.48816234422791 -26.8470313213594 0
187.752181275448 -26.0833998551436 -12.8890064092594 0
189.386746653835 32.5878859461539 19.0845516669273 0
154.069934448259 10.0734083146752 -21.5054600337938 0
29.3997545911166 -12.2636518093135 -17.0495877653084 0
199.018112848744 9.01563420747061 9.18393142011542 0
158.5771307399 -11.0042251002692 8.81716536309266 0
190.590752934831 9.35429388931572 28.10232757738 0
86.6578464466835 16.4765921111445 -15.3110150027242 0
166.205466155134 18.4035605045983 23.1114217215305 0
148.426710457697 3.35478570950271 -21.6289323566693 0
55.8023515104061 -5.17598479398137 -0.313445694381199 0
201.104947846875 -27.6032119069569 32.2139384868568 0
124.444001339221 5.23020503222722 6.50147225166764 0
88.3948021492357 1.51816948753304 -25.9685031258001 0
176.655195368955 31.3208378185222 33.2926968255324 0
144.783870447913 20.5438359221079 -1.69996671527073 0
167.141460632482 29.6117087485565 21.7025818647286 0
178.451507928115 31.0330107020651 -7.776963503981 0
86.8397938111307 3.49011783510213 4.80518154343895 0
162.69231214497 -14.7793505106767 10.4945025472732 0
108.012681642201 -17.2586274040466 -11.0753151929517 0
62.3011124458055 16.3057328290422 -14.1503261769223 0
175.011226026766 23.396740420604 34.7389756380923 0
60.8306816928589 15.9517417718362 -17.9581799433846 0
177.63074343876 4.80200721888246 19.6552198556999 0
165.525220639854 19.9473406007454 22.5055370562398 0
199.794288741943 -38.4757577919872 27.9708880740502 0
158.033974239431 5.08398295982321 11.6022258950485 0
147.18477090928 -16.5996225386496 7.65408866426378 0
164.12171764393 27.0248229204254 2.98684808591951 0
8.83530473074301 12.4393283373057 -6.47565461179959 0
185.207112363439 -34.5025123884342 35.7358467878929 0
28.77270950503 15.6141122778099 -12.5447213731713 0
164.198046561805 -29.9545826993234 2.57085169721627 0
171.896629309972 33.9705194326519 19.2701883484485 0
199.656084440728 -10.1530701286819 -11.7607946039182 0
180.625306707224 -12.5687156828637 28.1260221140835 0
166.634022384316 -1.55058203343858 -18.6838431415727 0
148.127236265982 -22.895871906375 -0.797512828746087 0
164.377484430003 14.3159368726046 18.2063898188125 0
161.657146617159 -30.4486629516373 8.72269641426573 0
113.796002976177 -11.7580832196988 -1.61715067239992 0
90.9132634434414 -7.77632317586677 -1.94984186881006 0
125.346363244148 17.0749602916965 1.14228949712133 0
180.785371403496 25.2814670491813 -21.353846479246 0
165.269064711293 -6.31151178133112 10.9939167742821 0
135.267990115799 -1.7485592944069 5.10915562641998 0
148.550819875569 -18.5885156193633 8.42963450658961 0
155.158063231737 12.2948827538772 -21.4977460399573 0
206.786191295149 -26.4954357479929 25.0974373384546 0
84.9550325152714 -3.04153973668473 1.65512004651023 0
172.804239380549 -12.7416393403511 16.9949347101126 0
40.9253354131327 -9.32348585108119 -22.6981581345126 0
199.874430716412 10.9715969993066 10.5706494765017 0
200.132612709844 -5.91022870111447 -6.83171611452581 0
99.9602547415476 15.3247312752618 -1.86681085811548 0
202.156824295602 20.3382724506769 18.7508026465803 0
143.553546854091 17.8343006046596 -16.3211298751626 0
51.1200982702886 -12.0345827807134 -10.4578211041273 0
142.530910456584 1.76152904641226 -22.3324392905825 0
106.572502422416 -2.34947395460928 2.63721774595756 0
6.00447126099621 16.2987792338155 -14.6359789725055 0
30.9123061024728 9.48680763085135 -26.2479527468237 0
31.2950209144484 -7.23945946629516 -4.45569616240442 0
169.909601169216 0.466504150077965 -18.804391118556 0
135.917176060089 11.4286012563844 9.04438867561453 0
201.316208748695 16.5375649332108 17.8687613525319 0
127.89861937045 8.44092420753424 -23.9798956877939 0
174.821102662721 -8.74514860380158 -19.74113102376 0
202.277735874813 18.0690430624597 14.4188782353056 0
50.0833945110152 14.7774408723608 -20.7372539190071 0
175.143708199844 -22.9163353974062 30.7063774494849 0
180.356852911337 -41.0355975690635 12.4675162970091 0
141.508056149661 -20.9957131657771 -0.154597462693608 0
201.16009194828 -24.4958908562979 -14.0420362268065 0
161.631578422956 2.36806674423505 11.984325162444 0
43.512910356863 -12.601782182277 -18.6189095008093 0
203.597286691461 -28.7326763628446 -8.13715776380203 0
169.381938448035 21.0887331884362 30.3860268162832 0
38.517918234097 -7.52136271691132 -4.7860821912961 0
193.722824375541 -17.7240970884527 34.1500972142792 0
103.193928845838 7.826103068928 -25.5245711049179 0
133.940013903289 19.1579680582019 -6.93809028705342 0
122.474166512158 16.6951587396258 -16.2063661731471 0
161.763930653561 15.1557547622781 16.9199416278241 0
31.6303874254281 -11.4346259978097 -20.2233339618471 0
197.151088900267 8.0923236705411 -6.48980143231451 0
63.6468364421323 15.1581708252999 -19.9991857201336 0
198.064050331355 34.954299041651 24.4515656085532 0
29.418413667526 -11.0156098998044 -20.6836413316653 0
171.347327907595 1.88680505202418 17.5032373793043 0
205.613440716958 -26.6196756755908 27.0818447054862 0
174.942932196607 -31.5424442484191 30.2238035540196 0
159.798169026997 24.888352498801 4.77155094748664 0
88.5124042286214 13.1544806227517 -22.6539231655767 0
113.000477629103 -15.5333053084098 -4.54036467786985 0
155.849303840567 -2.41749898763937 -19.7851716348308 0
164.724000975991 27.6847392872213 4.9593643872893 0
188.901275041366 -12.9727972115767 18.6750402917319 0
196.176956684048 -10.6809518970782 13.4723597120857 0
203.311575722415 -8.1349749510094 -2.10439649848728 0
157.039587710434 -15.6122507000412 9.24533399147609 0
145.073266928034 -15.6698569700388 6.74428180686595 0
165.477177785372 30.5181648596862 19.0476366960538 0
149.156732924405 -15.0534761150924 -15.1248073796632 0
164.161681953412 -4.67990661806201 10.9516404390633 0
162.289994966029 -27.9501143328119 -0.807607346126534 0
190.194534078975 6.16688013484603 15.6292511577709 0
201.307898400262 -6.56286389171088 -4.99490777473021 0
199.609555258291 -35.5257167410178 7.95972778196314 0
196.913235763171 -15.1614746518142 29.8069433799197 0
183.071161009074 4.87206307428667 18.0345001965108 0
142.116936445633 -19.4305910471037 -10.0823095531327 0
187.262889935208 30.0651434606059 -10.3024273676699 0
43.6748837536583 15.6312650454252 -18.4128112634651 0
109.987988413822 -6.04848778243288 1.21859581673965 0
165.509978747714 -16.2978602959808 12.1790862614844 0
83.8025473145162 5.80122287715431 4.22445679038942 0
178.221060486604 -13.7144553331507 -20.4942081002453 0
207.985359387852 -31.8247777958165 -0.0951441135178043 0
106.595998196291 -8.66607810816557 -0.772637471359264 0
201.859397004413 -26.9763238125067 -11.0280060485894 0
43.5285259982383 -13.103734701297 -16.4582003098117 0
168.129852060615 -0.372301273124838 -18.681409340062 0
179.585322090917 -39.5182652164695 20.7987603545834 0
84.92704223699 7.89721801027308 3.1859498239621 0
163.633081409727 22.9515567626255 -15.6569215849268 0
184.474925681357 -39.4677279634014 17.4165982049925 0
163.03087008164 -18.6307699130771 11.4364631329465 0
164.4067135212 -2.14352247188978 11.6390296630892 0
77.4867868134991 16.4675697164317 -14.5291605000806 0
140.570814569119 -2.79970386933066 -21.6607259098537 0
192.59812291935 -38.6055474432498 24.5225031404073 0
144.649931714297 8.69451378178818 -22.6670450738327 0
194.956932113639 -38.4184186060682 23.4725937508781 0
93.4166217994921 -8.04241639515325 -22.2589682735399 0
113.284668609387 -17.1955652539607 -12.359198649806 0
179.709162720227 2.48023608144174 -18.9240854922303 0
174.112526050614 33.0065409811665 2.08667684283631 0
76.6627825527938 7.73654538454909 2.19542482275955 0
190.032186298022 3.77094375106288 -13.4596637325914 0
124.944436185797 18.0161173129856 -12.1726169552692 0
181.830805564153 -34.7607259157987 -3.51166190692703 0
56.1439957246687 3.7659001241314 2.47668245681726 0
168.101302462894 27.594205471178 -7.51888030946244 0
182.050492128344 0.979894737601391 -18.0902040935975 0
160.738075028896 -28.3598228549403 9.36079452728742 0
65.9528327807515 13.2760103134831 -4.01531206761255 0
134.033630713421 -17.3040397493582 1.10505573246292 0
187.208418945697 2.83494612811259 11.6895862717756 0
129.488622279132 18.13458255089 -12.8415744832755 0
121.813991623372 16.8451983392341 0.417544582459434 0
166.938377772611 21.9836673812048 26.4393378818199 0
161.787239327409 19.8516385795234 18.4134522488517 0
21.4251029527455 -11.3835589436266 -12.1334941123851 0
118.421542493875 17.8119339275225 -5.0233773694129 0
174.685425442171 -39.9255228522015 8.05424047792707 0
175.911989896162 -9.40186274253626 18.356319546818 0
146.315928174315 3.68870658302851 -22.0338406904573 0
175.708895763334 -25.9110519367953 -11.8125549725927 0
115.509595003701 -9.12171541704413 -20.4031850445544 0
166.477637842983 22.7708136546477 -19.4469358876682 0
199.748268031266 14.0619103985257 -4.08455791425345 0
134.569675021589 -19.092965895171 -1.32142435687704 0
133.025530688645 -5.22470196548897 3.9098417449611 0
172.877100634688 -30.6080020624844 20.7478120447694 0
100.805475990298 15.5748051625621 -18.8982673125439 0
119.281321684524 -1.64604647984985 -23.6950454738559 0
36.3933972467858 8.80870348174366 -26.543416291257 0
104.913003418522 12.9569538562168 2.73180848918711 0
190.115052793588 -40.0346621843807 5.47216840270895 0
178.995824349657 -38.7993965203625 2.19304544109716 0
155.451399473188 -23.4687069103539 -5.65841045302622 0
112.47101212164 15.6571426921183 -17.9400844819967 0
140.680409366717 11.3297452116103 -22.4736957005162 0
180.327840429235 31.4276021813812 -7.01226478777819 0
167.277868607241 28.5006070722061 23.2117996209905 0
158.673848548348 -22.0246650699014 -9.26396899512004 0
114.456402766115 -16.9856792895358 -6.26373882283916 0
130.005789689206 -14.1768359015751 1.2797396461837 0
158.053336655893 -8.35310084626171 8.81990926651533 0
189.414089843743 26.1780440679366 -19.3596630460316 0
177.109231398193 9.29298329252162 29.4587400050858 0
184.393409830804 33.7626940625793 1.27438251459936 0
61.8287217122304 -7.58738923695113 -4.18602620058234 0
193.33266798618 -27.822103248679 36.3421379165531 0
16.4194092234047 8.28103118231418 -26.5614679246353 0
172.059245990661 -35.2935554308106 3.23012045371556 0
170.965988646777 30.9667288307171 -1.12372354581363 0
33.1271487792439 13.8341124220456 -22.4351205283184 0
89.9691130446852 6.80960389700799 -26.0672970345556 0
175.882618230149 -37.78119956512 2.69446244157636 0
78.0092619031099 11.2671203861386 -24.6693866054564 0
177.889401187786 -31.874691232564 -6.10608852612295 0
13.5330708626725 -10.1258581917474 -9.02994931343144 0
105.991787249481 2.85022465323682 -25.4421177107442 0
118.373766329603 -4.6802565786153 2.47967592874082 0
183.126604634794 32.095190707801 -5.36424341059535 0
177.984075047523 31.79420511706 -5.74672858109047 0
168.705926245939 25.0493976228277 -16.6329360934482 0
203.00705265019 23.6987609645548 16.7671709130421 0
144.474844447124 20.4882989704583 -4.1871168483097 0
32.5747677149504 13.4664797563473 -7.16200240290818 0
206.797722368938 -18.7726763513733 -4.89428810711687 0
195.791742150592 27.2457573394588 -12.3169682432035 0
176.420581022291 -17.7316565413396 29.6297287227079 0
194.4175583326 12.5059650621714 28.7702921203726 0
173.783949022349 -30.9116778945132 27.4950216105344 0
176.375517016793 -36.0910159009936 29.3520082017697 0
179.115814536378 -6.5564554093094 17.5145273348977 0
24.8563007284163 -7.9638518009193 -23.7533545753426 0
199.863906860463 -17.1450049452579 29.4721523513867 0
198.222823684367 -32.5993891848979 -0.632892954772738 0
163.902849890984 28.682954573931 14.579502973978 0
193.621957457778 14.3804116254079 -14.9950188436489 0
52.3706185027863 -12.6717369427381 -19.1321935526604 0
165.80111431309 -18.2017013029483 -15.2653050716283 0
181.463045840013 -38.0887648864709 33.2201227381885 0
151.277742069393 19.6029363946583 -14.4306411015521 0
138.550880358929 19.5986559735546 -1.15774254991227 0
162.720444083003 -6.2306278191767 10.0344629689359 0
124.649670940878 -7.63935369381248 -20.7089186857696 0
121.484503728062 -5.90143887116671 2.34105842693101 0
100.208111920118 12.8241006387763 2.27320436122038 0
200.551042101992 -5.70544303450783 7.30921553066278 0
208.313030260769 -23.2307691266344 -1.969739378548 0
206.890365395635 -14.2369430605647 10.3691583745083 0
125.214198748414 -18.5573766337976 -5.36480048369289 0
143.879601716307 -19.576288422975 -9.95988404833135 0
180.060618009184 -4.96346764670714 -19.6647268463222 0
169.064085032306 32.0175427837745 8.57837399759732 0
1.44205301218806 -0.519063191654898 -27.0514607873596 1
130.21433323339 4.99685213445111 6.77514418215129 0
182.844390150444 24.6127859917869 -22.7637233951482 0
173.858042930358 -30.3195872194305 23.159288329531 0
127.808278353415 9.23397257530806 7.77413026736722 0
157.54600686314 22.3138860767967 -10.9152802396798 0
190.933896530275 -11.755071294709 30.6417823289937 0
170.820613131381 -26.8542146870801 -8.42383725108891 0
127.453150137883 -16.673037753386 -1.7965616524152 0
194.898537314337 4.87143756281752 -8.91062657364854 0
209.968222579361 -22.8322209855077 11.5074542932878 0
50.2102645148128 14.1745716628959 -7.17346511834184 0
40.3151912922513 -11.0070916082751 -21.3365429388804 0
117.232881777909 17.7350678933445 -10.3877818022276 0
210.235270238785 -26.0168277801142 6.61569252341241 0
201.055792075773 -7.344154234563 9.19293516355632 0
121.535953770124 -16.7675113141965 -13.3873663869597 0
162.071853093964 6.99855089008934 13.0848275367744 0
192.294590160774 -36.8445993852457 34.5939194850424 0
138.1717577613 19.0089717139967 2.88214782324525 0
122.475838727083 12.3088019819836 7.05837888020316 0
178.108436652931 8.48489507716227 24.179132433278 0
95.1632239485722 9.60071385516166 3.74240044998906 0
182.68415577014 -41.2826931220344 7.38353470347329 0
142.201577107837 -11.3862834904967 4.669321258399 0
190.211093761689 -26.1704027099857 -12.8560118018489 0
159.954477726406 8.59164209227053 -21.0402352813388 0
196.67896898743 -33.2434804960329 34.1917947223184 0
184.622507847154 25.152046291615 36.9604788895224 0
207.16133160337 -29.7619797440481 -3.9724390057167 0
145.116513995029 -22.5491419243653 4.0479483657154 0
172.384645558657 -34.6826133043251 17.654730297324 0
70.0873725063639 -1.83598178736147 2.07978827408579 0
130.437640411446 16.4068966634436 5.78124646676574 0
204.880457665344 -15.4471718402898 19.4965808909439 0
127.323239343639 5.63123314825898 6.78785205171299 0
176.400717982664 -13.922867243727 26.0199379251007 0
101.729154641897 -8.3336704948267 -1.0784086528496 0
200.799890546802 33.8112379495577 10.3547459112327 0
203.250669681003 -7.62495968023451 3.5673703943652 0
191.04919564316 -6.75083615461288 -17.6298998022493 0
206.113979395074 -36.5404643398993 13.642490001037 0
132.840593382631 -10.6550509549613 -18.5449885969511 0
120.273810150305 14.5575764851161 -19.9997052037958 0
172.087189988469 -37.8393323291017 10.4469111802986 0
60.8897518054457 -5.45164256227009 -24.7248829551163 0
202.625941644415 -22.8805108803813 -12.9972244246833 0
126.080615666165 -12.2251970028876 0.943761101842693 0
107.045527166183 -11.4322523957268 -19.2837090958641 0
138.562113162604 -20.31707910415 -6.99352301206687 0
176.080455875661 -15.1569161963056 24.1120064835657 0
166.59774001843 4.33789880618676 -20.322351454701 0
135.447455456491 16.4196083165543 -17.9195872141096 0
77.9522807242134 -14.8102525163174 -15.8325071820345 0
195.383973142751 -34.0752100199313 0.425133457832411 0
38.0135399724156 -11.6505658401391 -20.4275285358252 0
192.249774572316 35.2991886920729 20.7503065844893 0
53.8356384644437 10.324375921432 -25.5633873289121 0
59.1583025280138 15.6143823148359 -18.9609985140897 0
58.5679900906594 14.0243911483125 -5.98615399234929 0
60.2653058431911 16.2992411468608 -15.5645556837847 0
163.114213504111 -28.7954438723259 10.8454504513775 0
192.205100727514 -38.7488640705168 31.0637936087371 0
162.58606564579 -10.8552162829558 -18.4958796680033 0
210.040709331109 -30.0882449615499 6.21119158494718 0
176.388044580341 -21.2191095110059 -16.7666106037589 0
176.05774083634 35.3128641406539 6.18626406834033 0
180.984544573519 -14.4602348235782 -20.9149126754125 0
163.698421115721 29.4108404550687 17.5803552268019 0
143.631330676391 3.81613849029075 -22.4682847218832 0
187.187539145782 -39.1829173282452 18.0623814506597 0
180.55669760222 18.8991319171726 35.6182214981243 0
142.801216331169 -7.17106488372815 5.35716532553509 0
92.0237879429346 -15.7954114337624 -14.7085687647853 0
90.1023866132127 -16.1234974774313 -13.5507780957895 0
180.714229151701 -2.57452147735825 -18.7125456889708 0
182.411415592813 -24.613943471643 -14.4095191906244 0
73.8066691441436 8.04267824454861 1.68387466653954 0
59.2740658389981 2.1030286879477 -27.0701730893329 0
195.11044117994 -8.30437054803856 -16.2057332692951 0
177.140209393094 9.27046086423014 -21.3450276376785 0
23.5231441826295 4.71482952284637 -27.6717523194362 0
154.585291922791 -25.5846242227657 3.02535456310626 0
198.271879049684 -8.35189083274114 -12.323146517616 0
58.2218761237429 4.40891837682648 2.34627720843162 0
11.6437493399576 15.5878658419651 -19.4137558094562 0
177.965487649513 35.0699318316253 4.42557877592185 0
12.6737598351569 5.94992396875279 -27.2704045137873 0
178.836494319835 20.1817854774397 35.4878139539483 0
22.4550978166304 -7.66283174756527 -24.064673704143 0
79.9065966510704 16.3383743325171 -11.8030784617823 0
191.961079905871 5.64298907885717 13.8570100108793 0
176.150752080899 15.5322877464644 33.2248499976219 0
191.751274375132 26.1743782890612 34.7910344927846 0
202.198343749149 18.5793517452444 16.7649145080446 0
105.651509020181 16.9474550726513 -6.15203085723406 0
136.793145507994 -19.408462248843 -9.29060540780072 0
164.4148319044 -13.8341559159811 11.0828754954677 0
174.160581657401 -13.6766567907697 19.0762707060642 0
196.638421455509 34.6115870720098 27.7982560472801 0
1.87189957258729 2.33665858297766 -27.5408386630391 1
204.722457451254 -20.6108495151108 26.6025924028718 0
11.5251786147251 1.65462873015676 1.74219490297021 0
178.289164847683 -33.3603768748152 33.0515363866827 0
46.3392468529786 -8.64037198879012 -23.2041255396819 0
122.168170062992 1.63314719552782 4.89320851469004 0
48.1876560123442 -5.37259254197708 -1.7527034319526 0
194.529570670444 -20.4506263801535 35.1585823373779 0
176.165078275322 17.618104678442 33.9527279237501 0
71.524803228374 -12.1646016134461 -19.9734971382423 0
124.685978745809 -18.6845623806719 -7.59395771595379 0
167.659375486898 -28.9868561662065 -4.55359240998667 0
170.006156225321 35.4011005497548 18.1687073092406 0
157.43779944305 23.4711701592253 -3.89179112587634 0
96.9625633690721 15.8478440178843 -3.99501125412878 0
87.3041535306943 6.05019244697678 -26.2122624253546 0
166.607241404152 24.3659064248799 -15.8361683131382 0
87.6775528784291 -11.7084590827948 -5.39626353840419 0
116.863452459802 15.0714967572276 2.43143050608671 0
207.476510440958 -16.8206450146992 16.0849573788447 0
18.5192418379539 15.8008864495331 -18.3788082204525 0
58.358736568893 16.2434411122274 -14.1963856959433 0
194.820131718908 -12.0681278879234 26.3172496836622 0
3.93471547333142 -1.91723943547726 -26.7491903590032 1
43.7338633708737 -6.20606065233441 -3.38509958857214 0
15.6945434672435 -9.37887580418718 -7.37947070486217 0
178.650612593634 -18.554502440171 -18.9487842809793 0
62.5841822248929 16.2701113892079 -16.0017458769933 0
172.53921960155 30.6812609420168 -4.39860693225382 0
204.183223928249 -8.79618514624388 0.450706169278886 0
121.423828527817 18.1103995669878 -6.39684966048147 0
145.58995199764 4.18926560706866 8.45614994574281 0
203.261131636906 -7.23210166796205 1.70035087920883 0
186.98878948364 27.2410459424029 -18.2054319035609 0
117.759301184007 -12.2633992681591 -18.1072309358436 0
127.372746129247 -18.4647452770914 -9.89379725266107 0
147.327650562753 -20.2687667417525 -9.26391689395016 0
186.993935799634 36.4808688163462 12.8882878230189 0
175.073455399289 -40.262794296242 10.2371631542026 0
13.8204367589164 8.65302702708039 -2.75272747088239 0
141.192148359791 -12.4951638859401 4.39416627879111 0
205.886241457241 -27.3728015728299 -7.4941657590299 0
172.545200926834 -26.4595831513139 22.5965591725032 0
172.795132472548 -0.269958587638408 17.6674481339141 0
68.2145278458285 13.0052864159822 -23.2763367197571 0
1.75605535475579 -10.2225430563413 -9.73767163175599 1
206.824224423303 -13.3031987805695 0.296193657421853 0
135.199495515386 -7.0385375981613 -20.38410240986 0
187.354983043468 27.9585357373817 -16.4830850701391 0
202.07875938978 31.3630774753975 9.84918830762113 0
163.121982993881 -4.375335661901 -18.8520692672196 0
147.254328586239 -14.0529664288002 7.25814657294288 0
9.10626138642437 -11.2657247971218 -17.1272147547505 0
