174.34024184387 20.1817877818128 6.81160622907365 0
79.5382663549383 18.8516573789735 21.7230962570808 0
5.40792174813451 3.22404677259443 17.0992532236093 0
227.019432135397 -35.9857256481396 -18.3037593667821 0
205.017017021896 -46.2646131764968 -20.1763737562084 0
201.640690892334 -6.33920188775187 -15.8780829326406 0
206.702203428151 -31.0029596059032 16.8376578466071 0
43.7737471594774 12.932694208421 23.3118806930539 0
179.658786414278 8.24420766428459 22.5209762603087 0
180.05544892294 23.3883394551999 -12.9916921178984 0
209.296657138296 -34.2685955596441 13.6050117274152 0
49.256378920767 0.633217944962012 18.8052642335578 0
-11.7267165236865 7.54588188906459 19.8038720805693 0
205.402283170163 30.2113215069211 -32.1118949274497 0
134.328879567953 1.69146632751347 23.8256484043287 0
157.196167210222 -1.46645475769533 22.4384563344554 0
31.3268503994664 0.250424139808323 14.2886290757972 0
96.3520083014385 11.8345652276042 -1.72725127589719 0
200.393763311908 -11.0862334716147 24.8550352734551 0
167.698417316916 -19.1851980690463 14.6533376501067 0
139.343424330964 14.2014298073878 21.2236373155504 0
98.5100627108649 11.3638525996032 -1.89223486569492 0
222.761370355661 -41.9548983487447 -5.04887399774544 0
184.558901107578 13.3027523885616 -19.3919065084057 0
211.641175609917 -20.3535292414843 -21.6305266521817 0
123.088961957401 17.1118263714552 19.4276202765683 0
106.054220683488 -7.14970170471374 11.7480112833796 0
204.804541154738 -6.83700365373589 -13.0695750352702 0
200.586052292007 15.570134238094 -35.1725386848492 0
198.171441130528 26.2624616033804 9.32252750886469 0
202.739993709184 2.12704231998991 23.2813546015659 0
158.339884180112 -12.3739308357173 19.0516267518392 0
178.245421130106 -13.8745028998437 -8.24831500302001 0
224.245746556333 27.8713010784971 -10.8550258583455 0
109.055163173963 19.9817021673599 16.5665354951926 0
-49.2565504665108 30.2287298119872 4.22066680043866 0
222.864992354536 -28.4837963740098 14.3836790141761 0
34.2112270764091 24.5697975717541 5.07881361374552 0
222.211118536729 12.3668223073359 -10.9360594182517 0
98.5810799091981 8.69748188763583 -1.75605999274326 0
216.706689690697 7.33744992803192 -25.4025003604348 0
204.886280851777 -21.0033673484154 -25.8166950377839 0
184.700144479496 24.0414375197822 -18.3236356143952 0
173.245575369736 -14.8151111893565 -6.79722318395535 0
110.010740678891 18.8883619860816 18.5922524690745 0
63.7622646800611 22.2444896890761 19.9288186495081 0
30.7287212216406 6.6274811978951 22.0933988915204 0
211.444341169532 -33.8436029229556 -35.1466438038459 0
200.83404261726 31.8826261823114 -22.7172278766073 0
76.7602102096166 2.17040467440461 1.67462922107526 0
219.249056484162 8.57415348771191 -21.4174463182051 0
209.896868847895 -1.56895670839304 20.6572919146937 0
-75.0244729002246 0.42356439355632 4.03874413764364 0
203.853505555527 -7.77767353395858 -14.1847866143859 0
137.119086588596 -0.252550662815635 23.318749517307 0
-36.9346830024296 18.1196068275653 -5.16098615295229 0
-47.071713246386 5.60978207630708 14.0429590864981 0
177.038071984546 17.7664155096197 18.2436005608072 0
229.332738019829 -31.2284261124488 -4.41453006619737 0
189.422528891892 1.09663214817741 21.5095720930735 0
213.050231913111 22.8960475591317 19.3037910019419 0
209.22544193286 -46.1763380731776 -0.116161160477149 0
142.153934602177 18.7130434162646 2.19744398550955 0
2.80898109445561 23.9250969570879 20.7452116457202 0
221.836749621784 -11.3950061712429 -5.45217839115342 0
-83.3270439182682 28.0156109046926 -5.42911022719215 0
77.873924384327 5.57805630760968 -0.290134972344517 0
-80.3321359648937 29.9370060023986 3.69410155531404 0
197.091781472899 -32.7307788877865 -31.3876993587787 0
223.272660202845 -30.2118230404984 12.6699842411728 0
195.108724966227 -39.3916719646187 -23.9338370956698 0
-36.984470198614 7.54720590268731 -5.03392952432015 0
144.269206674392 -6.54587349418684 -1.45216210406098 0
223.108069129858 21.7285749687703 9.13206415740733 0
215.012102910034 -45.5414946271732 -22.3120447124637 0
108.459945717076 19.2948172324522 3.25119966123649 0
204.623876959156 32.5691927980375 -5.24740927765057 0
79.8440082015717 -3.73845720992581 14.0692650096613 0
220.234134502394 26.0913297061845 -2.42898381947404 0
226.64373483574 -42.1386790900177 -11.2921512162418 0
170.186413744035 -10.5429189799273 20.4070875335307 0
49.6484366416748 -0.892717792982265 13.6963345398035 0
157.647745260466 18.8550147914362 8.45056131657832 0
221.452063078131 -9.19588018756384 -4.62535842037088 0
-78.0850916157123 3.5568939654128 -4.99454266789349 0
223.549275217403 -15.3080045828874 7.05350024167733 0
150.431303331178 19.127133902638 5.73006713398674 0
128.652537286003 18.7520898138739 15.7406648240368 0
110.198797619649 20.0569586326727 5.34411998503573 0
-62.6403746763431 0.837580210377292 5.14670848183919 0
219.802047220979 13.8895934442913 -26.6015447451788 0
220.261936641335 -44.627154718757 -19.2868987260481 0
197.073147454101 -11.6302089643863 -17.4707378406884 0
192.143947642626 -46.646475819778 -10.2465792742865 0
207.364841703791 23.118070979011 -36.6671052306046 0
212.357461491138 -24.9376250828838 20.5537634061904 0
75.4160342059559 -2.97804381317438 17.137394368672 0
196.643682781242 23.2618819592019 17.3221210885775 0
-36.8941617971582 7.21099912762232 16.9590918230955 0
185.372598605713 -40.587292807397 -11.5718713170842 0
213.799132365503 -42.4456691995505 -30.8817309892126 0
209.091727393437 -27.6895935699901 19.1925624519781 0
40.8426859176991 -0.0511768970458069 10.3329564266388 0
81.9107258690674 -3.57091680278283 11.1713640854543 0
214.0508974011 -8.61402513940821 -8.52566802693823 0
216.632252209541 29.6820352838661 -8.25082414502262 0
168.187634944972 -23.420093008879 6.71229778465351 0
-3.59138286946576 3.36224259166238 2.89905074130439 0
122.808701691704 8.46310199360704 -3.02510213244641 0
-29.9033445349089 2.02167329929811 9.90495666974217 0
198.67325146152 -7.78784438078986 24.1192222913147 0
170.831701713527 19.0001216666142 -8.90588239941756 0
-55.3816781661975 7.29325137298734 14.987988913536 0
-62.1941145062785 19.97109927023 19.2959538116011 0
131.231774748449 -11.925895276042 8.6702927271045 0
137.032517484626 14.8606437888501 20.7577398062328 0
136.351088897872 12.5683625770165 22.5367561414036 0
160.13363803895 -7.45407567541253 21.0082494404831 0
35.7002599842828 27.3496058375329 10.5674745830968 0
217.971912369789 -25.7469121592644 -30.8110886467242 0
-42.1938856964338 28.8142969365002 0.533469152693735 0
171.00007531026 3.35731865700776 -9.13242043328951 0
171.942063531409 -6.96444819195606 20.9739733411716 0
-70.7440263570627 30.0855227797703 2.38639240809872 0
122.504650525568 1.33631310794068 -1.63111679987208 0
89.3628537659381 21.3232327716534 17.9253476915648 0
92.1220276913863 11.2443555993092 24.0291661041704 0
70.9704665952338 22.466456535515 6.03122203881592 0
0.393825041449545 13.1809505492076 -4.0428356606202 0
193.040888387513 -14.871876593516 -15.5227933269619 0
161.278337959674 6.95533713430379 -8.15708080212553 0
97.631075497974 21.5316732732858 8.39517232524218 0
174.733312197198 -23.214964243901 -5.84858475027969 0
228.804960898518 -33.8743618126002 -12.3084340613634 0
48.5402732521078 6.48478285087868 -0.546099588117117 0
203.594683577957 -47.8103441508721 -9.89763755667093 0
168.619361803098 -20.536588821319 -2.55190314929687 0
201.129694960121 -33.1342679085338 15.5092410023216 0
163.669641376963 -3.68558632464579 21.74031576243 0
-88.165695051671 9.19896748275247 -8.69838591374205 0
79.2920121684846 0.625307015286822 3.32440526847018 0
226.182379140058 -40.8394712462805 -5.54331269397092 0
197.468871680461 -3.22577267362856 23.5366118333927 0
-11.4128948146225 1.94428505225571 10.0068195556495 0
157.56179597817 10.7390291850597 -7.85236938517438 0
213.575218622128 6.10884878597311 19.6042223669335 0
211.272194786805 24.756683714132 12.9460331234329 0
122.541734488753 11.5386958314227 -2.94486785541294 0
141.285022424354 -1.40790749560165 -2.91836069232793 0
179.619577747104 17.1681540420871 20.9949720240253 0
216.277606878645 17.1463075751993 -31.9980084558075 0
-52.9340520593992 14.8658271572796 20.0047304537296 0
189.588326489374 -37.8066423966529 6.45654754099748 0
196.086472036663 34.0695245712557 -13.2095480906458 0
-88.0887343842645 0.384787007149067 5.22105161295304 0
22.5465796802428 16.2842315830529 -1.45418431599652 0
173.752883509194 -8.25074854671401 20.8292338140766 0
-88.5225059083973 21.9013062328974 15.6854873269116 1
185.112348827799 -38.2800944035832 -3.71601737628674 0
218.466201306994 -16.7587757785104 20.2077425679886 0
-74.5024631843792 1.39728093014533 -1.83792866218829 0
190.741652048927 24.4758474858494 9.99532659530707 0
101.004146376041 -0.968382762064993 2.156973400446 0
208.392130838489 -8.84419461381282 -11.1547134933036 0
10.0523554514925 1.15249369581581 11.4487486800388 0
210.223194809821 23.1219123767706 19.0464343015246 0
226.346087278012 -32.2354448539359 9.17724296058248 0
66.5540801974183 -1.38810433312746 18.8359761765243 0
202.234244792019 21.7022650307426 22.1806203382835 0
185.371357133068 28.1862428153451 -9.37916556947054 0
190.880362281252 5.16613627031476 -22.8730470082107 0
220.577337238474 25.371380345424 -28.4515965726229 0
212.116262909254 -18.972927275066 -17.2491613163417 0
223.768555512642 16.0124860044405 7.63263587033913 0
134.134148878386 -0.956131505054878 23.1266693184808 0
171.517648648442 -25.2997099383696 1.91040620031445 0
102.661125626037 21.1190971616067 7.91296072184228 0
-31.6366988844687 27.8791230323806 16.4067639619779 0
-7.45405223823067 29.5414704737638 11.0352458065798 0
114.454179038817 -4.4739345682474 21.0941770321311 0
165.274633037072 -13.1037494311858 -3.97429737316099 0
221.951736042383 23.1321102320839 0.476895128239333 0
194.327631449956 4.39668318037007 -26.11846624962 0
-16.4448793984895 2.98967190206746 3.37532960614498 0
45.3188516985834 0.64827803560394 7.37056143615136 0
224.251629399679 -20.7917176829795 12.2978067242729 0
95.2102937008067 -4.67256185089908 18.7615938323958 0
92.5132961026376 -5.23051532288797 16.6208896902662 0
211.166406261302 31.7143690220253 -6.10119352940316 0
-53.598454348458 11.731055688934 18.6825867476552 0
49.8790894651875 7.71223728691053 22.9150934131447 0
66.7862246000056 20.5298578762374 3.25953868191999 0
186.866720996405 -19.236351728291 20.4270962155544 0
193.696646184228 -18.1823804811619 -17.1953918649954 0
-52.8007877302837 26.1392855825549 -4.25342172476662 0
116.028093510413 19.1772199178647 17.0406934968114 0
221.088948900546 9.92865874936821 -13.6342583694648 0
-12.572161123127 4.39172092935057 -0.297241443019411 0
-82.6688072093036 2.04234914528528 8.27644317168784 0
-0.592723214334417 20.9482451250459 -1.03205458280679 0
16.073585077833 21.1821132414833 0.549853146214653 0
223.984301929243 -17.0414410598155 8.55581664363283 0
94.9220428186819 16.5058368291491 22.2689856385757 0
160.057829841848 -3.55540650272509 -4.97472461619154 0
41.7587669391255 8.03811772023564 -1.60216349054878 0
224.081188485139 -38.3021740225068 3.60149676899802 0
222.781960051387 9.83648765136113 -7.40066410514946 0
201.223479054057 -17.6067624090388 -19.0772080500347 0
186.086487695438 -41.4125903119943 -6.13260587505576 0
139.630387749995 9.37906158565659 23.745133412789 0
218.93275596296 8.07745767241614 13.464836242488 0
119.991088834199 2.63658519864906 -1.72214342687756 0
218.046902282491 -19.5453920561389 -23.5742041626397 0
202.756306702257 17.3771691315829 28.7665491050937 0
192.883396517716 -29.0717573622826 17.0485628663729 0
-7.37631905807384 17.0466700485058 -3.13033921918036 0
-4.68342282859359 2.53517601959516 5.95270036629108 0
145.30511749922 17.3870633771462 16.5477983978121 0
137.549133901958 -2.47664301649264 22.6513565548567 0
-54.9869459110872 30.3333396877136 4.31551042231866 0
212.302928544753 4.39338673127945 19.8463045947721 0
138.365507801159 -5.23708718344659 21.780780108377 0
-18.3589545518367 26.241548420705 18.7061922652002 0
211.716517767658 2.4179659235679 19.6312539737342 0
-43.3609801041416 8.078271796522 16.9813021339295 0
-92.5954963636311 5.19729681000299 -6.84588449595512 1
-0.283159778351021 1.69055697752651 10.7988440448558 0
-30.6312273583374 27.2145752096541 -0.198039893960212 0
186.496824244375 -40.2148331805198 -3.44727667977069 0
99.7891921707186 10.8448891718808 24.1348029288586 0
43.4190983343417 25.4311194683306 18.0119191041517 0
-36.2247299613691 30.0829247227062 5.62306947774598 0
209.921887464241 -43.1072485722978 4.48667417743743 0
219.882114783835 10.6396425416486 -22.7320892270404 0
222.541577078832 -43.5497386581511 -13.4709892955582 0
28.4752109327753 27.8239627351192 10.3006003699046 0
29.434575880283 1.6862541400132 7.37920581022843 0
122.028059544419 5.53900356790164 24.3461549282175 0
208.170476651503 -47.9183183406241 -6.24137388296028 0
183.178469782217 -20.1507990748095 18.7314355340404 0
-90.2012653947551 18.2829216659401 -10.8772063577364 1
-45.568195216494 9.07288139995921 -5.86795823428788 0
-45.8671055777481 2.16565402696009 9.5367771745244 0
127.217379155487 15.4800711422145 -1.90572208531109 0
83.9190928065191 23.1307234962633 13.7073912888761 0
123.890334223572 8.51893185041832 24.3545473542576 0
-83.6549200983455 20.0326392220342 17.125779557677 0
227.132947831846 -29.9358015989812 7.69610242574459 0
214.09211905826 28.6285798211152 -2.37501504024425 0
-27.2445902038534 14.2561047528819 21.6252073084986 0
-92.7466736505212 28.4009894555249 -5.30954349203955 1
154.322562641558 -4.4906626144661 21.8527666758058 0
99.3958332292642 3.77038060858638 -0.524522623304534 0
193.690535394622 -35.4338510530131 -26.6722896505775 0
26.2726419474269 11.8659160696084 -3.05989447183654 0
186.315262865811 23.0874664582593 9.26915093768236 0
211.017147075871 30.792026077117 -4.12968815171137 0
-66.0388285763274 6.79753351383894 -6.01861913802415 0
222.140557944983 6.28837455441657 -7.10124216673224 0
142.181094489785 10.6159879142248 23.2713705319032 0
152.356602915858 15.892867219461 -5.03158746555343 0
167.960847220242 -7.86982558171106 -5.64988426628805 0
216.607631246725 -45.4309596049742 -8.30444678064803 0
139.771765305209 -13.8813788591233 7.81035799031676 0
203.386861022167 -28.3840729907295 19.2622218171063 0
211.15581837754 5.75082047422726 -22.8767214626423 0
197.630793833001 -20.5903773078474 -27.5119833645619 0
180.322114912345 24.0939611504203 -8.46984369387484 0
208.418300325967 -14.9640610645231 -13.1237370581829 0
156.443451294992 9.08501723906666 -7.41602421204707 0
200.717513516961 -44.7528043497912 -28.2633673120332 0
190.966877001423 5.0670784334471 22.8042507428401 0
153.639780065354 -17.7889508392478 10.5947586647695 0
59.9143075112576 17.9491150822977 22.6846826172403 0
98.0503953440876 7.95891001571599 24.1797188707187 0
211.144492893122 -46.0179606386409 -0.716447340354373 0
-66.7201307328399 2.71501460795602 9.79382191501187 0
228.190869694131 -25.1513108179034 -3.41654217722455 0
-23.1359732526531 2.13014219515691 10.5290515899256 0
163.048212111757 4.78640686545502 -7.84268982346032 0
219.75801363055 -28.7775538944583 15.7665854452082 0
-39.3452662089281 16.3897068044027 -5.57891083488125 0
196.081575238672 22.7657528368173 19.2530099533687 0
-54.3206205487305 9.62553472161782 -6.54932933596541 0
221.444351364624 -8.0749002026253 3.43260874468297 0
10.3492947348826 28.4275383801307 14.9399636123275 0
194.061928561049 -40.2563562160779 -21.4164627851987 0
217.322021817602 32.1193128265989 -24.9137324825192 0
162.444283812272 -2.41786200676112 -5.64955963340952 0
-47.5951115851132 6.92925865392758 -4.80082736906324 0
226.552191101537 -33.6827835677512 -20.9064026160758 0
95.5834825679095 19.0089814708041 2.52169746883909 0
-77.7989702651004 29.9685273087281 3.75614124116081 0
149.380908409293 1.21433954876173 23.2688361597323 0
196.661668018791 29.5952165944937 -26.0728560477259 0
215.632442104871 -21.2935245551954 -28.7570538008397 0
18.6376207742601 20.6786234117009 0.460480615637844 0
25.5055715840887 27.4272214161251 8.44252776690553 0
198.128813839406 -22.5725806884414 -28.8553275158899 0
226.55052902335 -20.0448868418962 -3.76875426226032 0
135.962908985001 18.605790585351 14.9045380443549 0
207.5756431553 30.1477032504572 -27.6883474035999 0
228.265578833676 -34.1014209055138 3.86083819887839 0
194.604686430278 -39.0106222356997 -27.1870980211498 0
212.899393314543 14.3159056144332 23.6309453003054 0
188.036716802769 -42.3367272857927 -2.67669358392261 0
-92.1337740520784 12.2033833282987 -10.8222148775827 1
94.6822174552132 -1.51877132914479 3.7546115616687 0
138.458048589135 16.2946856050018 19.0756845635243 0
136.87654654536 6.46132247404433 -4.09601239727649 0
204.81919330575 -14.5036388866466 -15.0132832963946 0
84.8690532671834 20.8662473896934 4.79353435541686 0
60.9196078542147 22.7414974098176 19.6007634026924 0
176.021960299671 -9.0799467925881 -7.80245113789215 0
95.1797013273885 22.0054878158046 10.0110854336146 0
163.709502207538 -6.8950822348834 -4.98685866822922 0
3.02682220380542 8.62980870233873 -2.79779647743258 0
182.208249706767 18.8981056689387 18.6449667862117 0
-79.3017434298103 26.8608837769174 -6.62326359598872 0
114.471636238495 15.2623492467129 -1.06988871012316 0
154.856997414506 -1.73570632830248 22.4954628602312 0
4.65279257390028 28.3514033240159 7.22572613995987 0
195.041984699251 4.95083179193101 -27.1528081251778 0
-30.0641216420197 23.8617461488413 19.9706723583219 0
217.707704203229 3.9859731292523 -11.8269830318926 0
31.0303757745151 17.8497837205093 22.7646618833163 0
188.210297086496 1.5769265603082 20.5166933594598 0
130.781564323852 14.0987604467302 21.8351584702241 0
158.988115377025 -7.43180798451738 -4.00637970162386 0
196.20112852535 -39.5645495269011 -29.6135882721323 0
198.856610033182 -38.4655955584993 10.7510522829737 0
-16.3741799669492 27.9390615481982 3.11799275480858 0
207.67909773448 -18.094095640932 -16.3227183080959 0
181.9344970901 5.15938817686356 21.5450908745589 0
185.571095436656 -34.5472777606187 6.2712688050863 0
223.559498422135 22.262057691639 -22.6357569068488 0
204.445754545195 29.3195554584547 -30.9544821668017 0
223.521716037228 18.1855848387733 0.97154080715719 0
-86.8505638149061 25.3852707018599 -8.55228671809446 0
-4.972787365695 1.96260169714778 8.77575590744936 0
3.77999277990022 28.917588956906 13.5197656978417 0
0.714405928827282 7.68880168070105 -2.41279245384904 0
-9.27750803907346 3.66757993219558 16.348672254509 0
-24.8321164070603 29.8373979347701 11.4051643689987 0
149.938646981374 5.38307467983031 -5.67665802403408 0
194.900658144525 -15.4965841690721 -17.6218771216782 0
207.570583694665 31.1417802954043 -32.5217255503875 0
209.693466424607 -40.154356023674 7.98077569968378 0
219.634485604207 -42.8771444720535 -24.5430795067187 0
183.231666931616 -3.61210181668847 20.7067525049743 0
171.296801697403 20.145578811483 -6.90990713906322 0
188.334589858841 23.3930428883542 -25.0438518601044 0
219.045749989361 22.1047971020236 15.6427296885914 0
168.680566201897 -11.7314372072132 -5.54064130551421 0
67.4369397468718 -2.32485039363389 12.7654748538055 0
145.477251224126 -13.6939483049282 3.40349734698573 0
-36.7687092705749 17.6664325984322 21.3685321140303 0
221.330682112325 -13.2416889436356 13.4742013531763 0
205.128780537004 24.7944782273305 -36.2862241024122 0
-77.08638266611 28.8964634799952 -3.15790804992087 0
-21.9745715475797 29.536557919497 12.8847816834256 0
-65.1305011871383 2.29200112769585 -1.48367523775681 0
158.566783232432 18.3604699787109 -3.82234531188621 0
-54.3292351683834 29.5476078142423 10.6227483054024 0
196.182213021791 -30.5308923571035 16.8359291369612 0
143.540360507004 4.70214518568835 23.9411880777708 0
95.1862050647448 13.0182557177191 -1.16063373605322 0
178.593738403393 23.0877141266352 -9.43746478563539 0
203.735641754501 -3.58619122457791 22.7888997485307 0
131.425916103747 10.5968467868015 23.7338782120215 0
-35.9245614009674 28.6454567072904 14.8197778806076 0
97.5066372677418 21.9099299304971 10.6006336887665 0
210.431924471691 -24.0251621430908 -32.9191103476115 0
173.437617057086 -21.4679070549444 -5.40539857890249 0
-44.7675155720681 20.3905826810717 20.5137943795698 0
195.471296637427 25.7912156012873 9.49817524445927 0
219.914103739675 -40.1911197521914 2.16204769823639 0
-18.2984145870228 11.0223179854898 21.3993952690161 0
229.55742540602 -34.354869050716 -5.19818291329714 0
37.8998578781558 12.2488917779986 23.205834045807 0
220.555657878571 -13.7853992608259 15.6633771855197 0
209.361589833774 9.26636601051717 24.1714284865459 0
-58.1722184950413 30.2971484258245 6.14456293723104 0
24.6033190331865 26.0985815491089 18.332212980656 0
218.310750695169 12.8041705520817 -28.0554798872977 0
170.790641557203 20.1552587311537 3.13531037846324 0
201.399934774731 23.7273626654358 17.3538411446642 0
222.643927601898 7.23771713565868 -5.16640895040555 0
37.0201004211495 23.0715180070289 3.76144395680144 0
111.366205496145 17.3011443428391 0.540377535676401 0
212.193917913826 10.1321843988416 -31.4298471636671 0
0.00646910085426108 26.8113543187743 3.77497623633545 0
215.715866012725 19.3414062811001 -32.9976178185954 0
101.099581878313 8.05772450877017 -1.7076175810315 0
204.342446825883 -29.5632498002261 18.0072981606915 0
201.051029053086 22.6559608781339 19.8308352156383 0
168.633380400863 4.6089937895623 22.5240205211868 0
11.3800813383435 5.53479448517445 20.0903506412275 0
-9.07669050037001 2.10352203836353 12.7524639388381 0
6.97929404161779 6.71562922302701 20.5088076284751 0
-82.0632239543956 3.36158754989804 9.80194927223129 0
216.083906757124 10.5574397354012 19.2024653336425 0
193.58649813324 -44.3210723148346 -18.5228890117865 0
229.171290832641 -32.1820734168363 0.811726037245229 0
141.825851997752 19.2987600205638 10.1292954092031 0
183.49263050418 -35.2173458377 -0.541852950906324 0
141.174275172247 -12.641375950918 17.1195778046805 0
135.741175457052 19.2116615228318 4.38886824347024 0
1.93540002991645 11.5556878579917 22.3204218816617 0
220.620560837852 5.93665022535781 -10.8955899115002 0
-57.5075603538831 1.29965880978526 7.58545430279906 0
204.074214534337 33.6518137864961 -8.31244280743269 0
114.986622263836 20.4813629809369 8.54198928388662 0
173.450244768408 -12.4418589911032 -7.02192307149893 0
181.544631258733 -29.1814124791457 10.025271643973 0
164.106499423591 5.34217583581804 23.056995189113 0
145.44712247854 -15.228337832681 13.61213785389 0
166.975868483033 17.6534734212539 -8.53556277549 0
214.992137005801 27.1782626132225 -33.8436844992836 0
222.840832806083 14.1265405328912 -12.8293923238138 0
138.325042119572 17.9277881448838 16.2418415221033 0
201.725495830501 29.6424755918194 1.5237508856216 0
-56.3488133321117 1.62462913740547 0.883029229759474 0
223.816696117279 20.425196420381 5.32726804218483 0
221.534868557532 -44.0879662097181 -19.7510564644169 0
221.04157590162 2.6542139476216 -5.27017471226481 0
-26.2570004939041 7.97019792559674 18.951055201997 0
172.225150531185 -19.4235048074344 -5.31028975354003 0
-89.9169807967426 -0.147228723367757 -1.89038505611145 1
178.587027111394 -7.3775020092287 -8.44290017030511 0
177.839428371014 -24.8788403732294 -7.18184382232827 0
-40.4423575130023 10.282215847261 19.1074385349562 0
219.322361939278 0.600568995343649 -8.09282352736462 0
189.540852516557 30.2117549195507 -6.98931082513312 0
194.072641596777 -46.3640650214979 -2.31582677713163 0
-21.1956997375775 25.0892714171849 19.4943619029719 0
183.401876080884 25.8100505058495 -14.8133074613629 0
195.557023543083 23.7091685659723 -33.5745323253747 0
200.864019199251 3.42951659769366 -24.0795207950935 0
-6.93132891279749 28.3500867761409 5.27509834444936 0
-7.68467847463829 8.79292058006721 -3.86495554186551 0
177.924962787547 -3.47161053748105 -9.11531743289141 0
-28.5557374861887 12.0252018521865 -5.65745977486782 0
188.935099163284 32.0576339563797 -16.2368685405508 0
104.286758747196 -0.761472009269514 22.4810757588096 0
190.126214971224 26.4340190780589 2.34737781346273 0
-10.9104094810666 18.1007855713597 22.2782801114841 0
202.045517007937 -4.763358099834 -15.8170349007423 0
194.470813996553 21.9113207516798 -33.4097801730073 0
9.8428852285032 2.08049698638246 7.45055643776858 0
174.787755489556 6.76623589531383 -11.8940586334263 0
212.975573183924 -46.1815293996745 -9.2008355271765 0
191.551385921211 -45.0764529135524 -1.79526396838343 0
-81.7297607287111 14.3798302904063 -10.2024347811883 0
113.037568504124 8.01745539105819 -2.13531173759967 0
206.956277787216 -45.5907230490661 -24.0673945367086 0
189.602655752692 14.1521972813779 26.3721859168384 0
129.206575142276 9.63573021165696 24.0758249478632 0
176.544861132764 -2.47615688593648 -8.80604405807849 0
206.292463055405 -47.4083092848352 -7.95144696926862 0
-84.5826207170075 8.01520561675927 -7.88151709360942 0
76.7099685608599 -2.27136163828521 8.71573568167238 0
196.613675639951 -47.9412843678857 -6.27683181388021 0
192.821376680678 20.9937016304215 21.9089480708437 0
8.139269827725 24.7378653967899 20.1884816741093 0
128.011549287131 19.6248881372417 12.7618222844994 0
78.0777837654785 23.6797168910066 11.1332563760425 0
199.718071495608 18.2044847462017 -35.621695331584 0
206.618004159229 25.8799191807846 11.7171378067788 0
-50.2194051367973 8.36374739736628 -5.73349046340495 0
132.428396999823 5.90126421155918 24.3035614502587 0
211.985777074269 -28.3556907585082 18.1326864850002 0
149.148816739623 -8.5455752059792 -1.65954854891664 0
178.638139752775 -17.8382052325292 18.6401480851455 0
116.450455822964 -5.10570724568564 3.28099227679077 0
-73.8977228117649 0.524300229352115 1.8529621316307 0
213.860106777953 -29.5193597239016 16.635215786785 0
-75.167149239907 12.2683222586816 -9.63460605482642 0
86.8574305772287 22.5947779542675 15.1081807512592 0
180.811652191888 -22.1892291601385 16.460652307169 0
205.187369519181 21.3075801907667 24.2388878525856 0
157.49909324017 -4.80134137108922 -4.31457871591828 0
179.246509000597 -9.80971851506309 20.7170150390228 0
187.944310226744 7.69490657433239 -19.2155379416291 0
152.754660020139 -16.4630948187404 13.9433385228017 0
5.54038835159612 28.3964028980772 15.5100450581335 0
173.244412707911 17.9775702967611 -12.2873497249149 0
190.046587124455 -45.620221625107 -8.46464788619943 0
180.727071890747 -11.5698315625034 -8.69913677504408 0
31.0584718812311 13.9403089888711 -1.93330450104442 0
222.160832522997 -13.5212739081791 11.2857815979495 0
-58.5288703252673 29.815061744328 0.736292723856839 0
214.416767846707 -27.7945515783831 18.1885418664624 0
45.1287953666015 25.5240448298497 7.7813305155265 0
-69.7734071626425 13.9648656190533 -9.35514974932294 0
218.224481247721 -36.2501384810956 -32.5031216158106 0
199.378520085161 9.99187919364134 26.4728478545614 0
203.610744348766 -35.8838206320598 13.3707009533072 0
155.784474599827 6.35802185603863 23.6324888640861 0
203.621070427198 -48.5785738119083 -4.21847608305565 0
86.3418297861429 22.1624045007759 7.70911292192879 0
44.584548268454 26.9483627969145 12.9088213243803 0
31.5042077254162 27.3583414787431 15.5045988593415 0
192.593536796177 -42.4263801572588 -18.2943184204806 0
202.573190625567 -47.9141061858465 -2.24258377286947 0
161.644534152867 -17.9533014495762 14.4558236706765 0
185.065003386034 -37.2461668125998 -0.95583563861413 0
-60.9618223834253 16.9289257223099 -7.95365935385846 0
203.254713267671 -21.2783985557121 23.1912877597895 0
207.83072435142 6.681265025349 -26.7706535677045 0
200.477339285599 34.9122550238946 -13.563665182163 0
207.038318470889 -32.6807800561998 15.6259634863223 0
134.962527367108 -6.38568340084716 21.2210651315234 0
214.478969398987 -45.7614226016006 -13.4463026216968 0
212.231590991566 -41.1933196621512 -32.8070488626772 0
155.393705748589 5.66912093117671 -6.61486739961386 0
-52.4089149049869 3.31108528097254 10.9140200552008 0
174.585929068068 1.39364120206396 21.1138112375053 0
148.214955322112 12.0645703616065 22.4565121004815 0
-78.7590507904716 1.040913331372 6.67287248135655 0
5.87290235859539 2.05687005710367 15.0395428731167 0
-45.8755570559405 30.2527302209063 8.31517906212905 0
213.953583445968 18.3025151117886 -33.9490335905554 0
143.787595312466 -14.9135668719634 7.28788927271211 0
117.030040856529 -6.92152439382597 19.5488001710991 0
206.676080048819 -16.2322603349531 -15.1142509007481 0
180.621800442619 -31.0774391109454 4.71793169948005 0
207.654876719811 -46.5911849744281 -10.2994074745562 0
217.017244572242 -32.6491253413734 -33.1773603020451 0
209.307259264165 -8.55243829831216 -10.4969229352316 0
36.7798768230981 24.2440852542595 19.818007582799 0
10.1745352292576 23.060922067127 21.2110672076843 0
167.624972288723 -0.747614689908477 21.7183818607813 0
200.707286163477 -19.4753768681189 -21.7422852017448 0
95.0546875042586 5.28837214243519 -0.787636963464971 0
192.752322821517 -42.2502835955875 4.21578712416118 0
173.577593584016 -4.71310695531253 -7.47882396829234 0
199.538565788674 33.2388886778965 -21.2151268491078 0
160.795542099045 -10.9530656752508 19.8589755122662 0
205.517184652263 29.6984030680554 -28.9426951996947 0
199.596090746629 -20.2165045645218 23.6050749907504 0
-28.2194339101752 25.2506753186114 -1.57069874398882 0
-9.94425123254025 6.81356888643733 -2.97759347311086 0
21.3584418981562 12.4783687764906 22.9268598323433 0
210.282808487563 -7.53780211885241 -9.81523021804255 0
182.662560735368 -24.8415601473766 -9.72018060601828 0
219.602087612895 7.73519746671367 -18.5283951226585 0
194.711908816406 -2.15838217246393 22.7783522663692 0
139.698395628665 19.1208489973493 12.2247173149355 0
49.8548475542563 25.5063456900629 8.40276106084483 0
183.866531320682 -30.4403668826637 10.4934368328729 0
108.170392879072 20.2607795326402 5.72204838463957 0
142.576600326063 -12.4137078420706 2.95458583061873 0
57.8505835751196 -1.23523855457463 11.2453313821057 0
139.384780881024 18.7965055766757 2.5743437116637 0
206.488396898213 -48.1518830162491 -5.88538704382431 0
-4.3158187805198 2.3790497143692 14.227684821147 0
76.3515725053962 21.453957948695 19.7913469633984 0
-45.663641215405 5.42506160424867 -3.89947755831648 0
220.191084618006 -41.2416527092211 -26.3747906833305 0
189.484767498703 31.3650613237158 -18.4360088433185 0
225.066390146083 -38.4087698119816 -21.5475940609934 0
207.708960880862 6.01197850380707 -24.7310476486641 0
83.2370353631806 10.9185529278769 -1.58459423044592 0
-76.4743152763404 0.782853219545795 -0.356454255174724 0
160.562009391161 -10.3486591938571 -3.49967096534444 0
186.262457614312 26.5996737477987 -19.3111648308243 0
-48.5480295420191 12.4417298612441 19.5870897435107 0
-65.0229724877407 7.185309223553 14.1098095245125 0
201.761526714109 4.58375985601811 -25.9775786192878 0
73.4818088782979 2.31221981909766 1.73652697243166 0
192.862851890093 30.4089440721129 -20.5455298815946 0
31.1215160198036 16.4473275066722 -0.921918039128345 0
53.5642197388399 -1.06197378805588 14.8034938597904 0
131.471621505646 -10.6149803895334 5.34623380813134 0
226.139232161415 -26.686107020425 -19.7123949834534 0
-71.2275031820019 24.3928154479905 -7.59530330618792 0
18.9297319977392 22.8431611420019 1.92526204182813 0
176.405142758275 -28.4322818047389 -3.72987991519892 0
143.33686311032 18.1378475231748 15.0781802482198 0
188.8693545392 23.3624789930251 11.7628298945499 0
-74.7710800450981 26.7987817202541 -6.28280356675268 0
220.307580195206 -20.2065779351875 -15.4769379136477 0
176.558604097525 -18.4214186117965 17.7246161501207 0
8.52408579387059 20.7163634884832 22.0247871017862 0
224.321505143504 17.1922580392809 5.61441303730035 0
218.179382722959 -7.62747025932395 13.9366951941626 0
14.5163245803464 14.8708081116736 22.7989993873939 0
210.92428768177 -12.7344070538721 -10.5056138825732 0
200.045679456996 -0.17907871870021 -19.2961841304678 0
189.56477400194 -36.7257886164066 -16.8703052238793 0
-19.0648915622938 6.22322944625041 -3.34758976155653 0
59.4925549834193 20.8743743304203 21.3988800929093 0
212.3038457082 -21.4091733989484 -30.1807250272049 0
203.695143433653 -20.3935721762317 -28.1218465631228 0
198.194659139428 6.30734616894147 24.863364168211 0
174.000814143627 -18.7358088993103 16.7920922379379 0
166.896055061327 -10.1735637158904 -5.23541122873337 0
196.933486637773 32.2729399669367 -22.4001195183179 0
-14.3527632482914 25.2185440047322 0.241978512758439 0
159.365896040301 11.7349291745243 -8.35823885204078 0
105.041353957506 13.6797458091667 -1.24628655321702 0
184.499591429739 -19.6576826315065 -11.0489082706364 0
-0.705984086567072 4.35582828175977 -0.450006740952712 0
192.866305416596 22.5248744182531 17.742804011654 0
-63.2008860849795 2.1322730991625 -0.511722020728773 0
213.352737322066 28.1685535505027 0.605839706564179 0
137.560017232836 17.9174976178276 0.109175916401004 0
6.95803088368794 17.2709039412435 -2.15460677671166 0
209.940806870742 -17.8706395696067 -14.9645776791413 0
31.6638872876236 25.9105503912052 6.56161415340174 0
-5.03964739826979 29.1418511064725 8.57412631023196 0
-78.9699566320678 3.60317473296892 10.1257749506643 0
-82.8911440072332 17.3738288195409 17.5087771669612 0
201.062730583254 -48.0569871488883 -16.2583645895489 0
218.804653264563 -42.5768788246933 -2.02507261357928 0
178.035364568877 16.4214326173203 21.6625093385194 0
42.0613131557607 3.54018748899318 2.91831373155859 0
-29.8295245975315 18.9015217323116 21.5501487673126 0
202.906419840447 -19.6662174414102 -21.1972101410027 0
147.371774086471 16.9174856956752 -3.27419251019132 0
135.777647770389 19.6338337436173 8.890970540424 0
208.107504631281 2.30945936055012 -16.6912379290003 0
137.628045432824 -12.2924050342876 5.29155106256374 0
-6.57272180814774 27.7933640070951 17.0497774371025 0
194.902538662689 13.3896767418534 27.5439492589408 0
-70.8162907755428 6.60320279407884 -6.13744565455241 0
186.712744738097 20.6276439837845 17.8434733745048 0
-46.4444837889791 11.4593859318031 19.2656967794005 0
191.284414792861 -16.2854881901894 22.3043818081913 0
205.380331038305 34.1401056688068 -10.9713554475709 0
229.500839953997 -37.4304570779313 -8.52390338878666 0
214.792223459927 4.93701003689562 -15.0494270434422 0
195.775697076836 33.7796351325325 -11.0154978621649 0
61.6679982078112 22.7337662287396 5.45513798466927 0
-84.9077534494268 27.6068435902753 10.0872571350878 0
-46.0684862593844 23.4640029666153 19.354651585871 0
176.569275048534 -18.6936657262936 -7.47523144293327 0
-48.7493279496407 21.9666814524232 -5.9466541600822 0
157.490384512862 19.13837286677 0.428461818139276 0
67.3697111225292 2.3327961238634 21.8626435696221 0
185.424118243573 26.6081033910979 -18.0876586457969 0
133.544120672005 4.36917108160879 -3.41025921430471 0
113.869664786203 13.0942265569549 23.4705440793381 0
214.460046695226 6.22730829549544 -25.5925510632554 0
-61.9624938050378 8.14029840860466 15.161901619685 0
220.938243339577 -42.2274057701341 -4.15192503225287 0
120.531007177299 19.0468218900792 3.31590123109351 0
191.669302890806 -10.1809297388479 22.4201817224866 0
156.082867822899 -15.5940858809521 -0.0899727141583283 0
40.8862152295448 10.9006645260144 -2.49160373246563 0
180.833696579559 24.2835995478194 -6.04136645027206 0
221.892560435983 -33.8202650746105 10.3195259315507 0
175.288549866743 19.4363884940508 11.6028215472966 0
214.78967595083 -14.6254985989169 -10.1427317137678 0
199.532928502877 -9.90131505915138 -16.6842760704133 0
215.957355277495 -7.25666203583809 -8.00885332862287 0
86.185164832654 21.1414778268852 18.7358177686564 0
180.57468578461 -30.0564132961647 -6.57301346365856 0
188.256927451029 -6.59696551718831 -13.110035351938 0
152.406359921206 -13.5223406274994 -0.16791625021251 0
68.5800975842951 -2.5204710452113 15.2400312110728 0
137.719355984169 1.78442816297086 23.7297424521216 0
174.836244831761 -26.685364123829 -3.87386274269834 0
189.585592730402 6.57474382887906 -20.6150152591136 0
-55.5803083546723 24.8037728416833 17.8970272566622 0
228.481104963237 -28.9664342799331 1.98643873271628 0
224.859447951811 23.3566692823943 -9.57712526106786 0
224.597379920869 -21.6341922863773 -14.1974461246129 0
221.873275460723 20.8895222082919 12.338960666692 0
218.601372724094 -41.5951285815348 0.603045516446691 0
37.7627251468401 15.1688241127472 -1.13602891534653 0
-81.7959734255694 11.925641773952 15.8934243161967 0
161.428200365842 -18.8446445369601 0.244154616623008 0
94.9544295344551 13.7526597989937 23.4548436988455 0
164.989405760999 -22.051974605921 5.83839581949862 0
130.741910698917 16.1164519579586 19.8835776432074 0
122.939027697386 -1.71674573960389 22.765494840374 0
117.212538039987 10.5936668699247 24.1434365861067 0
122.017483682921 13.8003395505115 22.7554678756371 0
219.281399883358 -44.1200098095136 -10.5312377243496 0
93.420697226873 18.5104777471382 1.95169614564254 0
223.985825456938 12.6987384678996 -1.26589708919976 0
-1.52484250337753 18.1197560419344 22.3852135149249 0
-63.3263227906135 2.63520072285154 9.80659529461327 0
212.664535206033 -12.1598167090437 -9.48287206609038 0
-5.20567557774097 25.7560610938548 19.3510438254187 0
202.903345175819 -27.8618150667151 -33.7076578609764 0
77.3119276771163 -0.681270965007095 5.35792873568644 0
-82.7415789828656 0.985737864976836 6.57795671941801 0
193.199709377541 26.9971781475421 -28.9969882562507 0
-55.751352618528 18.4246544792416 20.0487190959154 0
188.785021336932 -18.8325628648801 -12.8311690317338 0
-54.3303381362064 1.09443406656565 6.24102254797126 0
-4.55922911756213 5.82640664568541 19.0173918208602 0
224.0535494909 13.8256818680499 1.34895093282613 0
202.142435171331 32.8423895409427 -6.00236724507845 0
36.9072574653639 26.3579342482723 17.0686861364359 0
228.560605123833 -39.606650174932 -2.40360354952365 0
104.536289553454 -3.88772287627921 20.7210688127993 0
145.187409602658 -0.12164194123674 23.1511814706756 0
193.234850138156 33.5580141215702 -12.3870712728094 0
187.42291513544 -42.4562423435205 -4.58850693583105 0
-0.760697620146204 21.9381217264542 21.5565268084326 0
206.340036773485 -23.9986829181675 -33.0656578580894 0
225.225658727373 -42.332306391931 -11.1994105874199 0
-1.14655207413103 10.7586186379388 -4.19765469144536 0
229.261270829893 -39.1092270640984 -10.4817234888929 0
187.079882819389 28.7506026439633 -7.78654735145263 0
-70.7892110493417 12.1727032343567 -9.28875935645793 0
42.7868102788598 17.8610962215292 22.7383461402803 0
146.432444618186 0.468017471144203 -4.07700177520927 0
-17.7874579566945 28.0717748011282 16.7272155903711 0
163.640720229399 19.2362071118798 -4.07063143101984 0
174.681207729866 -25.539010842293 8.90263836976838 0
179.519339802411 23.4979869314705 -4.14344488318673 0
99.7846063020715 -6.27907784315864 12.6115889801726 0
195.903393171988 -18.429632539472 -20.1015196557135 0
-31.2424006291914 7.51684881440073 17.8800531838474 0
189.241244315157 12.9539502091793 -28.1872562667782 0
198.448240440491 10.0696944307074 -31.9775806526571 0
193.95688365404 -46.5306294191805 -16.4533555257104 0
-12.3926200944172 2.23967693993575 6.50698747966061 0
1.68892493579314 3.98736949863691 1.28163020198063 0
213.886300286734 7.73479840752568 20.1891468346877 0
215.697130932812 -35.7611512640872 -33.8458382187488 0
64.7250056725491 8.18139664172739 -1.06044709881484 0
192.891695071456 7.57806741490837 24.4558204279644 0
188.374575253741 12.512514350568 -26.3245156875358 0
33.9767466767306 22.2452317149828 2.80014175293429 0
177.518558692766 9.71353812870251 -14.3966138121213 0
194.805043101165 0.924527394469029 23.0475250372113 0
222.501159257307 -41.5517418383653 -23.9707904622165 0
-84.2740466500876 24.9348671344994 -8.66598446316365 0
163.68732250607 -10.9311445382243 -4.16910801977616 0
-16.6737058537025 23.342228233923 -1.32611065346191 0
187.362911493843 26.1661034396368 -1.31573881555005 0
221.71980486888 12.1428221193803 -13.6820687181381 0
66.2919604104959 9.53313401662497 -1.47815718989744 0
-86.5153214532549 16.8263063722476 17.1036503594063 0
99.0199733093577 16.9806227019912 21.7498121733586 0
187.345617322038 28.2747239722444 -6.24334862033511 0
172.279928643833 18.0720141813341 15.1127039459559 0
184.969284207833 -23.6000546342699 17.2821323894845 0
191.773610450644 -5.66105558977663 -16.4485441753791 0
212.869038480262 32.0286598956557 -15.4047303632469 0
-32.3881537090683 14.5198966087108 21.4262577764057 0
198.756656287229 27.8904985276623 4.90563944119459 0
224.331429302794 -32.2497020164857 -25.7124103646954 0
148.464839432701 6.68598516230804 23.8908048221672 0
63.1747220240752 20.711038413448 3.25487642126239 0
200.94904516211 34.2772297484117 -10.2712361626013 0
201.868147387346 -25.2403241052969 -32.4611328052493 0
58.5508475641073 1.29261749329882 4.49264906363161 0
141.937266643964 -8.55069401329926 -0.340123489325289 0
215.483982622847 16.8650864109933 21.9270584618563 0
17.8271347964502 1.13417141087973 10.2218522313221 0
222.87231139173 -18.1193995429054 14.4939342540724 0
179.374331248663 2.91870790529117 -11.7956690864318 0
158.001468829904 -8.34660227363291 20.7576856225422 0
102.798740359776 19.3584522238512 18.9928751638449 0
221.134139902641 -43.4163188104321 -13.1976990258072 0
193.852411460214 33.314470612259 -16.467901610229 0
1.40105447440615 6.21169824989614 -1.93795663904416 0
211.714302692944 -20.4326113674692 24.5898135022946 0
170.526936048048 -0.754665212593119 -7.66215500261794 0
56.5459981932691 -1.32342856241574 14.9567294814748 0
83.8480875427766 1.61122887947648 22.3890644488013 0
191.190145868763 -5.26096956963089 21.2118744192424 0
212.430945935259 26.0168291981312 -35.2569161685537 0
60.0100149384917 -0.843670442310281 9.24128712313112 0
-37.9254985402501 27.1974884705213 16.8886354600277 0
176.375080469236 -23.8834120146343 -6.39221582605211 0
-41.194411307362 23.1614557305465 19.7612514809813 0
39.6214005939948 18.2492488089483 22.6792228632555 0
175.286707977222 -4.8656673368962 21.0495990005385 0
185.415680030218 -4.31719210193985 -11.8577474159135 0
135.454162058467 -12.658535117633 7.64434107156267 0
224.574667130745 -42.8869585097798 -16.9323716009998 0
60.9830492954842 -1.65562740276991 15.7930446274124 0
77.1386185402781 9.7973629395744 -1.49718187055394 0
118.390481433465 -3.122269225242 22.0130027287082 0
228.39690515992 -27.6566595587575 -11.6984320050135 0
170.769798166666 -17.8006384671665 -5.07775717915987 0
166.754990731824 19.2926849705533 7.19413320637118 0
204.178555557734 25.3097151570322 13.5713449167668 0
58.6710905109949 23.7218860990381 6.60697594013396 0
208.235052306497 -16.0192633238253 25.0147652359646 0
-53.958578928623 23.0060320823545 -6.16547327466029 0
157.255369015152 13.0474179344948 -7.54271887972039 0
216.290877736515 -40.6087850886216 3.84328419649639 0
74.4376242037185 3.72961076871506 22.6876364355188 0
153.690622597113 -16.1319323673655 2.08675412616431 0
190.708546504704 -41.9252364095483 -16.3144576720877 0
131.749248215058 19.7327012289718 7.83769877841657 0
-11.6618916671507 28.7065110772693 15.437094689785 0
214.990400107142 3.29299650430203 -11.146376697656 0
173.507505688568 5.49657797059986 -10.5071228936216 0
162.004864848405 1.40344569026003 22.5603848879156 0
179.640397292561 -17.7986400103538 -8.84121027152533 0
101.56743880691 2.92001548768172 -0.386022779575926 0
111.2125003994 -6.22791944939654 6.43428387251963 0
171.830876992061 1.40438835398754 -8.56875114003368 0
186.280357008823 -39.5022835593025 -12.7432343479351 0
187.625413104769 24.261893001479 -23.4302370726836 0
186.419396376345 -31.9533351240518 10.7703993083956 0
213.397839067481 32.2620533398199 -13.2176911531304 0
174.248213879447 20.8443421142854 -8.22978054930391 0
-69.941924615473 10.3474712333754 16.0600235969176 0
-74.3083017781529 23.9992352243536 16.4647691610913 0
176.401008207769 -28.7438247705233 0.672030291750888 0
-12.7513006277965 27.5755503922486 17.4448229150639 0
75.7980888520957 4.478660319095 0.199342863487767 0
-26.4685726956068 23.1218446448552 -2.54107283360141 0
199.110672511157 -43.6543073717179 5.26037604780606 0
-33.1290274040288 1.77808011016101 5.06909142123115 0
216.274306137197 5.95811777877989 -22.1371955890593 0
228.562747760566 -41.1047885581983 -8.76207717074332 0
-58.8158212908912 0.843268168391387 4.43732178583358 0
221.683309866641 23.4719541092687 3.20869565941641 0
222.963401865395 -44.0393268926173 -16.9713449445017 0
212.56981562153 -6.6983783291318 20.2100985571372 0
209.700297362481 -47.4963422179873 -2.92610498533013 0
-1.1778440828943 6.15363715801749 -2.1396437273432 0
111.945729888073 -2.11682731370939 22.2043638578543 0
121.888331873272 -9.50970618858127 8.20187663548999 0
39.0425233661552 25.5767307183018 18.1978754856382 0
120.025783043298 7.39771514298084 -2.64348078156231 0
-27.2414755938196 9.45341611950196 -5.43483082569862 0
207.174564873071 -42.8146158226081 -32.4923555512025 0
1.87321095778772 11.380949172263 -4.21436834662082 0
220.248444578066 9.9354332371421 12.0948535789302 0
198.86969694978 31.7199809423236 -23.4490478519074 0
39.2531610704795 26.859036750438 15.5789444456743 0
137.103915682025 -6.32070137217714 -0.342969466566629 0
-67.2032549586983 28.4001655551052 11.5303737725316 0
212.643520437742 31.6166252709991 -7.61005744804534 0
59.4467128944839 7.19501948590889 -0.70601550055843 0
-74.7096749104787 15.2718452562396 -9.36893482868121 0
-1.50838339520115 24.0874962104326 0.85620768942681 0
-64.6916022612821 1.3615330165584 7.48171613564692 0
205.239755853134 -7.19474332569524 23.0561264739121 0
194.646422606289 -4.2015099801425 21.9924445127672 0
-7.64989311235784 11.2571106627846 -4.65100742818476 0
109.371187241869 8.82819840612628 -2.06163494181358 0
140.921363388741 14.7590862056309 -3.98543568011078 0
183.684702963344 -36.1459028683749 -2.95938175158243 0
60.4339899257115 -1.51686410965393 11.8122815644444 0
211.70063533922 29.9649416496789 -19.1832112461082 0
46.6499078425565 9.49174290061867 -1.97738641696882 0
83.1258916750514 -0.79408175804333 21.0766478246816 0
209.985641142329 2.75659588939214 -15.3960098547203 0
192.987783774532 21.8514485058577 20.0800524926731 0
171.94647683559 -11.1157448012223 -6.59344517310645 0
219.526188563352 -19.4767117459189 19.1679879562348 0
212.213335806494 -45.6855994749116 -2.47674738533202 0
46.377690866273 16.2328410583425 23.0785714208948 0
206.833337815804 26.7940146175397 9.0900131428431 0
208.44594087773 -23.1726045516702 -32.4844053356306 0
219.891176942835 -36.8421778426218 7.46354144950155 0
183.321946937267 22.7985998650042 -17.6274411025545 0
216.750584469302 -41.4427814113961 2.19643299138071 0
216.08708586635 26.0771505199216 3.24867986419803 0
21.7206145362138 21.3942444605762 21.7392363059988 0
-25.1367441273071 16.2389020176164 -4.572576009554 0
138.172465623368 19.4752012699826 10.2670689279733 0
224.868056760267 -18.2878692031312 6.59078944666429 0
-3.22111215666364 21.2715610995043 -1.08629910487148 0
121.555362712432 13.7502466446359 -2.30684427329268 0
-20.8854459044194 19.5626337546735 21.8085961552194 0
20.9735608324878 20.9571171794193 0.805303416495053 0
-29.4636892713133 22.6195507940571 -3.16317759791957 0
171.245082576663 -14.5271002365598 19.018106587398 0
-92.5204401915671 29.1585658444183 4.1823337474732 1
16.4199348365016 2.60725251377795 5.72400225185142 0
198.180184437601 -19.3474301074236 -21.892798089574 0
220.264044890993 4.77995572779271 6.2713339535448 0
117.192297224373 7.04997402720131 24.3915875367562 0
215.810668132984 -45.4637024338712 -23.5804171600892 0
-55.9074725441591 14.4800596955755 -7.54217771741758 0
160.113432940855 -20.0639667629132 7.78399226578035 0
202.642980783138 30.7680420081893 -23.1249572494111 0
175.428387196497 -21.9709749562188 14.3907970170659 0
24.9353760390807 2.87209481004689 18.8049735479207 0
117.346419112779 -1.76382274915319 0.374463680575391 0
77.9240728022182 3.49618507378068 22.7779254170364 0
128.161988359994 -6.17389765834967 1.5980520789498 0
161.385371539698 -3.51778671194214 21.8653983094843 0
185.256386180345 -28.7845374916398 -11.042417695714 0
214.420261558259 1.81505545780927 17.0633680107082 0
206.258890027105 24.0445402562065 16.5884634963137 0
225.619601738447 -33.4104320108494 -22.9189882272281 0
