-180.658606773525 -18.3729951017326 1.24143839892309 0
34.6986141728308 -3.97780774068708 10.291350254339 0
20.8063437047291 6.27205848310256 29.1420553225581 0
-185.402112595384 15.1611101336472 9.95642120100572 0
-68.7848592008787 6.64071392208323 -6.84447830007372 0
10.2796924084993 20.7532099012236 14.8497147929989 0
-31.6516751742829 10.4693187088589 -1.64485282210523 0
-232.20071291742 -33.6684463260434 3.71833852660769 0
-191.345757157243 25.8563709881677 -24.5998817058563 0
-123.891191860206 20.512970978684 5.66487692442097 0
-112.25394317147 17.7047212016049 -10.2985541382975 0
-231.691297329942 -15.5492591959708 0.710381722331126 0
71.728168748628 11.4412080382936 0.795037873487033 0
38.8207033589632 17.7080665368188 7.80846465312666 0
-100.5019827142 3.53682272311524 -8.39497073575663 0
12.3512934947644 17.7984537844738 24.4653005030644 0
-131.747124257938 18.944977776127 -13.1446710052472 0
-182.861171303133 -6.29803940667535 9.08259690506538 0
-153.358525766579 -10.7414187386205 4.43133817605677 0
6.16953623966354 20.7277412071159 18.2897495917622 0
-173.817789608885 -8.00351456886448 -22.9583258108434 0
49.3335740781719 -7.32418897839902 21.2370320831546 0
14.3130000690176 -3.24601583283088 24.9933794795549 0
-227.772222421384 -31.375773173063 18.7763104185306 0
43.1684594336897 2.89914596963124 -1.21849487041223 0
47.4176753586113 17.9025838205115 8.38260004086283 0
-63.5334826114423 -1.67599936265857 0.723382707159311 0
-82.9473571994715 19.7165643984251 13.6319718921055 0
-157.871059450788 -22.5817912187764 -14.0128413474712 0
42.9347991713978 -7.07062425806684 18.2390879482271 0
-192.179914886655 -32.0128017329926 3.4642307481395 0
61.7589028385682 -1.31629827409489 2.73582222148217 0
-174.391186230959 13.8276654458798 6.02116506615984 0
68.6423941002438 18.8581559088226 11.1152393803023 0
-98.2335645702835 -3.30912114776016 13.328527038394 0
-48.7537769878913 12.6995946150343 24.6461780766381 0
-186.575556854148 16.0402843814726 -31.1412997660171 0
-179.798414060543 -14.7772838249616 7.28022012643597 0
50.8747052613209 12.6416665942487 28.7241014821368 0
60.9416213265335 12.9454105314439 2.13722649417207 0
-184.773274569189 -10.0915246577921 9.90783612512022 0
-171.126360834659 13.3523009597967 5.81569340977655 0
-217.307839578942 -16.5780260054915 -16.827511050956 0
-200.93202837308 -46.3273154840754 0.648254379344006 0
-11.601745654802 -4.27681142536822 20.1722148937055 0
-176.586629030028 -10.1530398314077 -18.098200367455 0
-110.137840009037 0.8092533812126 14.8759981098891 0
-138.49592814343 22.6426385564423 -0.783641434919906 0
-198.462851843553 26.9012975658544 -22.3085301122984 0
-159.113885513394 -10.6614979857658 -3.36519070035382 0
-4.51581718075626 9.08110456722752 -0.626370291287961 0
-31.9479218984281 -2.97208276186265 5.95299425327037 0
-74.5750463746944 1.13929632006073 20.6563078059459 0
-86.2745716792884 20.0096682818329 12.4626806349963 0
-227.043387535806 -38.1158486194487 -5.28768055956507 0
-223.401429376073 -5.27607972372244 -0.0893995353209015 0
70.7488644573512 -9.14485781554553 20.2499352718626 0
-89.2698177054021 7.19643420110226 -8.20209329843262 0
-179.737976815553 -5.48774931632214 -25.4210208297941 0
-143.430819145488 -10.4126458646658 -11.7940788181655 0
-176.618570743034 23.2176315752072 3.89802695071869 0
-109.493829527419 -3.43339559625057 11.8182817767184 0
-178.391694104838 1.93198106437426 9.57569774484951 0
-46.2226015996085 11.4920072817728 -2.35661486966695 0
-27.3636853026287 1.99690326075914 -3.6524047784079 0
-70.8670202612532 12.4461345868068 -5.87937809654375 0
-228.646384958078 -39.3040606590612 0.96701333273527 0
-78.263542736263 10.245875340885 -8.4238066825514 0
-207.739842126981 7.46406203307225 -30.4653922598272 0
-209.147799388234 -16.7557703247713 25.8398359603738 0
-129.788660424944 20.2137304914589 -11.2271160321623 0
-57.4221688860646 17.0194352554766 20.919078926711 0
16.8821474252073 1.45714474059813 28.0985237038541 0
-184.211372106241 -13.0454241463882 9.20306149684202 0
-101.841590168096 0.0379480231785728 -5.54367340593582 0
-219.071580270621 -3.49645021766734 10.3511636483804 0
23.7535076620916 11.6494936061137 1.72646915283458 0
-9.43627487711053 9.26282054114475 28.0559097763031 0
-177.766957611965 -17.6326252900582 -5.08782496347729 0
-78.0371399843121 20.1945717723023 0.313642930913167 0
-161.320742176993 8.5287813736482 -24.5762656743566 0
-194.817554618895 14.4518455527373 15.0531931956406 0
-211.317926271342 -32.9657528361169 26.4687758439695 0
-172.325288840952 -15.3249693725186 -11.8920539219814 0
-215.312227980429 -6.55325919081149 18.1971031522085 0
33.1854785560222 17.1674406666565 6.83791943400297 0
-34.9315208925315 14.540622399154 24.9988247275979 0
-199.20808822916 29.1008766106093 -17.4387498200131 0
-200.259074107848 -38.4142147204308 -11.5305630164986 0
63.1448115497202 19.5704534490455 16.1752381021344 0
-163.930843433331 -11.8611721423452 1.06197708204182 0
-166.070206594009 -12.6206466290258 1.19916548814762 0
-158.600941726987 -19.109455740229 -19.6118000557157 0
81.8082376114002 7.79777309853696 -1.56943974396681 0
-205.576257832072 -3.02270515399876 -4.81764033665216 0
40.7172411805403 12.5089466987637 2.34285775054921 0
54.4793215856492 4.37672099101738 -1.28570366571825 0
15.9486035219313 18.1661347883845 8.5285429386667 0
18.3450914360724 14.8809656114025 4.29909704730549 0
-197.441709673461 2.17280593878756 -9.51245914228437 0
-168.729644261691 4.32629359630563 -28.5870015384547 0
-3.6537647255737 6.45470089895805 28.3922907247544 0
-79.4067895284672 6.91156057653539 -7.36446197050242 0
-214.270955345945 -39.919923285783 22.1819362083234 0
12.6425471795342 19.1978430856606 22.449070742328 0
51.8876705295831 7.27638209615824 -0.899300201584778 0
-224.665140758458 -9.01054483315236 14.3930418871804 0
32.2561766530877 -3.49908176097627 9.22104822612791 0
-193.576798282983 -38.4167916648063 -1.95002431751879 0
-180.405109011066 -8.36956006038421 -17.5018525728788 0
-208.810705692623 -2.79733876308978 -0.532064326630874 0
29.904706630509 19.7446987769196 20.2690919495126 0
-138.061581236777 1.37165660612979 10.3738762365512 0
-189.750969910913 -18.3921677165069 9.6393105557636 0
-212.274443724177 -4.97632328981049 -1.44621257182312 0
58.3909215509591 -0.469852606294526 1.53791316098917 0
-178.545404132838 0.312000679849016 9.41577276377318 0
-127.68076419094 7.09436739285386 -14.9002347392661 0
51.0405032446456 -3.43570505989137 8.40648611265965 0
-218.735394598359 -21.525527839688 26.4792850993242 0
-141.027322386252 22.9053020595353 -5.58103952671252 0
-169.990060850154 -14.5922400580463 -16.1423213564823 0
-1.12606836937198 -4.21450836655832 11.492020069104 0
56.4832029775528 -4.64207344518096 10.1683647617296 0
-191.687001940109 -33.1372778004223 11.5760535834244 0
-213.650004723395 -45.5048131608063 13.6286829985168 0
43.5469031927361 12.365976330894 2.24442972434789 0
-149.617839837536 -8.12427560628876 0.567766550290971 0
-145.226146930204 -2.59828352917739 -20.1102732369695 0
22.4498760141013 -1.692080500223 5.2852568766542 0
-155.267622748943 2.74178871481038 -22.7062415077358 0
-231.706857784453 -34.6934192653375 6.02024020196147 0
69.5032897281709 17.4263125310991 24.5344444621399 0
-203.390816788092 -11.1696662132983 21.5029754551293 0
-149.75854144085 -3.89251684120487 8.90340442038785 0
-153.982777457677 -1.69592571252067 -22.8684566167529 0
34.287893629547 8.44442608339466 29.3811221666337 0
-151.954191227532 -15.4286620578964 -10.392187596752 0
-214.038391844184 -19.0689989787298 26.5526439705121 0
-191.555904472865 30.7877459442787 -0.960593442817715 0
-190.241658487614 11.8009507238114 13.9880513530149 0
-107.866302490552 17.2897350514589 12.1275272376036 0
-182.07330812773 8.64853019680028 11.9388753356409 0
-172.219881741674 -10.8770579443678 7.88821599584004 0
-91.9241850437251 -2.50083672717688 -0.753469268154501 0
-114.994518785066 17.3869301996444 -10.9513135613182 0
-174.397721165798 0.0837719512197365 8.50589041787713 0
-117.412738500278 -3.60379084986501 -5.21243589581828 0
46.0733894527112 19.7718073215244 14.8559056642372 0
31.6443322163024 19.0106237657793 22.2532721312744 0
61.0589898128375 19.5849171728386 17.0588300592511 0
-201.330770180948 -1.55156686127803 -8.61871396469575 0
-132.354713168192 7.55491542586858 11.1498810239146 0
-64.9372810619291 9.74359118618261 23.6745268935624 0
39.4827873933568 0.431756657223484 0.246979163793605 0
-183.900931225137 -5.55118051065784 -21.2053004462236 0
45.365071624861 17.3827729665741 24.9658340768253 0
7.93038474867278 2.23714805830197 -3.11401093749853 0
-15.1866981556388 -4.47025957377949 12.7429891506272 0
-172.157944689345 29.3274992432336 -18.7525283686176 0
-206.277136197632 -44.7728445134389 -7.0346611366013 0
24.0220055009914 19.9404395971112 12.917630516143 0
-5.87666223909684 0.85089123738898 27.0814605820965 0
-219.927948896104 -26.7087631346568 -17.0772124026686 0
-211.506654298428 21.9720620157192 -13.2232182030278 0
-186.318558483105 0.298643397724726 -30.9926731424666 0
71.2316260500899 -0.229492891319039 1.66856458066755 0
-120.939070068268 1.23739680665815 -11.1889488316381 0
-146.248472011683 22.9683394465908 -8.25230010547243 0
-194.580242888626 -40.7677706220551 -1.91878441281752 0
-15.5500245783278 13.6361749834152 26.6765572688105 0
-153.51270617576 -8.76112840988573 -1.48656298443869 0
-191.388378805335 -28.1421142505142 3.65170081606416 0
-147.203170198575 3.00420985800139 8.89763116326347 0
6.91516272234636 15.8366480722186 26.2621512943363 0
-215.887321519312 6.55811348368015 -19.4355958862052 0
-133.35044046594 19.8689865808638 5.68712309327258 0
-203.108853667492 -34.0406879793768 24.5158488241834 0
-157.409473103599 24.5323647000992 -9.78896802339841 0
-208.433802333724 4.85090540487826 -16.6944589169654 0
-157.358378531622 7.90818624536873 7.12396683068939 0
4.14759062298684 5.7641548592287 -3.40367439934054 0
-61.4685717259413 10.3999845215253 24.0254170150835 0
-83.806256033933 -0.360845516307911 18.373363732554 0
-119.499937409346 18.1838919121332 -11.2363208414884 0
-227.739709562911 -23.4562539968137 20.1017008812126 0
-128.346314461977 -2.62257777101992 -9.08193149610368 0
-124.343619458482 -5.04893301135289 -2.41775612706648 0
-232.436681732687 -17.16567955233 7.70185646573031 0
11.5729836536316 0.560930613590758 27.6031418359253 0
-192.469864240077 -30.3592839526675 13.8546183205386 0
-147.565351692848 23.1367522488108 -3.3704124642386 0
50.475740086414 -2.04712120232924 4.17906258548571 0
-56.8189268152687 18.2629220891205 2.29924829219996 0
-37.6829938814325 -3.40494274392557 19.3174096444522 0
-53.2479853574829 4.55835892311432 24.8215911504848 0
-207.794267537069 -6.9101439459111 -7.38647082060261 0
-34.0389459650083 -4.33113786766645 11.3939508000786 0
-5.39587372341994 -2.91003092403039 7.37639929644759 0
-191.760723508764 -30.7873690100743 11.577819365855 0
-133.672322527657 -5.92284773229009 -2.92080976029921 0
-191.248713465222 -28.4510823042309 11.3640653915368 0
-170.863138643146 -14.0492359431291 1.81909500871179 0
-97.2000922212355 7.18401674257986 18.2912752409074 0
-202.930189186236 8.99911323404029 6.22077277103654 0
-78.01457863635 15.8780328951083 -5.00599684553648 0
-230.389099677651 -35.5191368900632 10.6315647353213 0
-93.9718626480296 -4.12506623462149 1.96811650365829 0
-190.860488467244 33.5426932599636 -11.0584713032572 0
71.5205447480265 19.4436501336857 17.9693185852088 0
-155.201841606775 -9.34884467566314 9.25539373032726 0
-125.548841299784 -1.91203194667443 -9.07316288755494 0
-149.554031216599 6.42230654511399 8.20761825002218 0
-231.563840924618 -19.5999249633146 13.5759542973712 0
-218.83819544312 -7.19278178638305 -4.80827118972622 0
-108.684218069873 12.1504030607076 -11.9887707041229 0
-169.048920663388 27.4331259149821 -16.9227633103548 0
-81.2818750396237 -0.25439431482927 18.756100087649 0
-95.142143932819 0.588006459100308 -5.000996286998 0
-16.3129081527145 5.27618373974386 -4.9337078975673 0
65.1600478931782 -1.56318488603004 2.93115430451037 0
-149.919455353919 6.77516318379174 -20.5800958527212 0
-34.8520129629427 17.8020963808948 22.6228314889926 0
-166.153836990914 -18.204171675216 -14.3326468471785 0
-220.0805201558 -4.29378844323719 1.20784152941223 0
24.8289454549114 -1.75732903608655 26.7144804552451 0
-190.101817558021 -17.1304491692651 -10.7018642091541 0
5.80705603043796 20.4482750040272 12.9951661509801 0
-144.026709689538 18.2325018142838 5.95153779060284 0
-195.052920332858 27.5268542288884 2.28308086221476 0
18.6923431029102 -5.68659900107117 16.4778793027915 0
-206.038650218545 -23.9963680434076 -18.3931263434322 0
-203.738849159123 2.61792597110844 -22.7968559119277 0
-150.9234932447 -10.0075452164089 -21.0051640567987 0
-207.210604665785 -19.9026154261321 -18.0162221682764 0
-55.3725020435988 7.59564132436882 -5.90612983332933 0
-149.254934067727 22.0091977013538 -13.7065610578263 0
56.9200824395331 5.41736028598736 29.4462655409611 0
-169.802555391472 -4.66625177212335 -26.7163344534232 0
-195.191007766152 31.6172320500424 -13.8393780792007 0
-206.838240645876 21.2527950949249 5.17987420194205 0
-211.256689337521 -45.4415839404078 -7.42287358453746 0
-171.243096831671 -14.8246987059954 -14.1733751213631 0
-20.7217691191862 -4.32545769202886 17.5409845090388 0
-83.2605682506343 10.1506823445419 -9.14544235828524 0
35.940783890165 5.66768393738022 -2.35051023478386 0
-84.004306964615 -1.72154133482654 -1.10683600540862 0
-196.174150571263 9.2422417898361 -31.7768063723011 0
-198.400710768319 -28.607266432564 -12.3519789266125 0
-207.064203675379 19.7980056014886 -25.0281690771043 0
-166.359287183769 2.88949623177182 -27.4217251485492 0
-93.6926501092138 11.4393873917145 -10.2543567798968 0
-180.397081855618 27.7949821738654 -23.5789523820123 0
-6.47492896447474 21.0285425633142 14.1903854294006 0
-12.1225967077578 -3.35934360492263 22.4282285715527 0
83.8732523413734 -6.37769485728002 9.7786313743092 1
-209.84618974435 -5.61626487872399 -3.85568115037125 0
52.7157314075318 8.80897465771281 0.11800061957762 0
-175.904772591206 33.6437797799951 -7.46856954502402 0
-187.554707206401 5.14429800672567 12.0531462269855 0
40.1839917193334 15.6302106477618 5.21016531512563 0
-211.785674441868 19.6298910355414 -5.34325304842378 0
-151.053457127131 -17.8275350218872 -15.7187468809981 0
-216.997714846135 -12.1697757443894 22.714610750442 0
-93.5910879958089 21.8141933306296 1.75570938568069 0
-227.377838997594 -14.9525714154754 17.2746709719458 0
-105.268375387501 15.827085467815 13.6673487133272 0
27.9981156796204 -0.853786558006422 27.3434301735916 0
-83.1248247045645 1.86879585290907 19.9021478151967 0
-178.403851698929 31.614791111535 -20.3022644118224 0
-204.121476199309 -2.82766737033688 13.4587316765894 0
-17.602465844085 2.92925146417553 -3.90614709910286 0
-226.680452477498 -10.0705521289484 12.7419932519337 0
-197.508909634666 -33.5094979446055 -9.14593982537175 0
-147.090024317626 -1.03092660629613 -20.9607503109273 0
-25.7693587267374 -2.78849411147527 22.0251282585576 0
-202.703882500513 3.76818492637169 9.90525068990433 0
80.8709211067685 19.3338969101571 18.2490558430436 0
-155.477929937208 22.5225601292242 -15.9532986178664 0
-4.66592092241363 3.48714454661988 27.9585536678803 0
-27.2539205968473 -0.325520107239865 25.0912809975331 0
-168.314925048001 28.576958570995 -9.53352231051555 0
-165.990252685883 25.2171467312066 -18.6009293034388 0
-100.277554236915 -5.02772599833725 4.85778738801004 0
-224.475091196761 -27.6284226532066 23.0116043593114 0
-38.5997112973782 19.1505016118438 6.27263025186343 0
-165.493726159292 -2.31517609568767 -26.4280030128269 0
-86.5683286030896 16.7312013750306 -6.15177521112708 0
-137.297704841832 15.4390296086529 8.33232606119754 0
-132.098450131569 22.7009366705541 -4.14967536041022 0
-33.5330955026033 -4.29061377021191 15.9425170993542 0
-93.6252811571002 18.1088475363131 -6.42572073142383 0
-195.313904953409 8.77465669977584 11.5542039927544 0
-174.766413298099 -15.1510762654824 -11.9829472992863 0
-163.380678041878 22.683778116032 1.88092162406296 0
-31.3200474328967 -4.45700255460614 14.8570893010439 0
-187.265777944095 22.9645634255457 5.97396811753952 0
-59.0864736153065 15.0647828074746 22.2314964582954 0
-64.2980314484693 -3.54529184083133 4.62563006669174 0
-163.809432531017 -17.981452749854 -10.084151681172 0
-62.9133290343038 -4.46933494646037 8.86142832475462 0
-20.1915582870005 10.4510295607494 -0.751418723989973 0
57.324178708735 -8.20415850838376 18.9434737664348 0
-186.41046123783 -4.56811534570266 -19.2202598343839 0
-67.4809865747881 18.9169227934741 0.777602217556734 0
-127.526145372515 19.9129486329729 6.38811929005539 0
-179.949340354212 -7.14642893142013 -20.0470003562307 0
-23.5452002077482 16.4620828849808 24.4583666589432 0
-175.239858644303 31.2278985128919 -19.2385472742302 0
-193.34320348306 -9.26247165503432 14.1189265098997 0
-197.765083136789 3.36503961088845 -30.0911519536472 0
-188.78098817206 26.9445066218116 3.72918454115778 0
-178.313380969398 -2.71823728645483 -29.3479992243863 0
40.404085568538 19.7453016780577 13.7592269034466 0
-127.336097071729 -1.20807006497574 -11.0607174147769 0
21.8140309032259 19.1063394285345 10.3253036280441 0
-209.677018589299 1.97259983184957 -21.2267786076221 0
-214.827100310704 -5.21962957307708 2.92677751472982 0
87.1249120516858 10.1391177632953 29.0600832206617 1
-156.389035408962 4.77966862349487 -22.8833589926205 0
-75.9693787417505 9.29348908678392 -8.24859940132807 0
-132.360160102207 -1.63198032754223 -13.1291568460786 0
-179.836237842857 -6.06369227528215 -23.35778396453 0
-197.63408933896 4.82085152405425 -10.4678622931352 0
-46.9501505832952 21.2748441482354 14.1034891697419 0
-13.5518006230406 -0.846205062991144 1.66717160998447 0
-210.715215813984 -11.3816712808341 -12.9865420148443 0
-207.078948227549 26.0697855463642 -10.1165567738582 0
-74.0986671304444 9.31535547596246 -7.96851731181389 0
-117.720514657595 -1.38732477582678 12.5561507902019 0
-118.001175398574 21.8045141431656 3.15974417890049 0
-144.022785436412 22.4881871565839 -9.7968206853056 0
-200.647946287077 -16.5620066434327 -13.5519403119082 0
66.0018422878475 4.73581590579631 29.3650236853391 0
38.6784943338029 -4.78599954146014 11.7979091902013 0
-175.910749740979 -8.93813055828598 -18.6581704230278 0
-190.848423077765 -10.8466571288408 -13.3327667916578 0
-77.0531217789429 15.1090709256386 19.5084711180399 0
-112.764403267887 22.3254279168768 0.97403929071382 0
-211.665576439428 20.6146776954314 -6.7074085918567 0
-200.414039403309 -46.1092014871357 9.23850449362732 0
76.7605842930575 -9.28663819490294 21.1931047457628 0
-224.95162017828 -7.75606751173902 11.8447313647673 0
80.5602265295002 18.0551744635834 8.30159867554446 0
-126.972097899963 3.3662209656128 12.3755548270242 0
-124.554570353498 11.1905875516876 -14.6706608320535 0
-1.43691146784028 -0.988451976416744 2.89116417872029 0
-212.412759620323 14.4777801703587 -23.4307703114841 0
56.764057582652 -7.8940321679951 21.1590877728048 0
-153.433415581162 4.11015594395034 -21.900263209962 0
45.8733869208761 -4.96744717455001 25.0104381258328 0
-200.340071870953 -4.6348512493013 -12.5320742418286 0
-193.128345479819 -38.7557530261105 10.6552615638848 0
-107.273466923647 13.482630746526 -11.7925033481125 0
24.2334100049423 17.1818160138062 6.90389036207393 0
-232.558156456159 -31.6722195080679 7.88672049951871 0
-70.4301840038697 17.8134905613873 18.1933355471907 0
-141.769982393702 3.00020802383579 9.81415888288176 0
-2.97194096390893 -4.55558877190773 12.788222492329 0
-217.965100437509 -43.0744424311182 15.9390899413838 0
68.6886839999936 4.21879216443679 29.2525014965337 0
-177.193096380637 -4.86224165587788 8.68641436444034 0
-59.7309736399738 14.9271892361123 -1.94532931502979 0
-166.253422029775 -14.1909304328238 -5.75254300371218 0
78.324987434272 -5.43951826378735 9.01710703398645 0
84.8105998527841 10.4807908076191 -0.465230214748195 1
-91.8300488833665 11.2409592443986 -9.98914556760349 0
-199.530913464943 22.5560697067049 6.6964461935249 0
-204.981184611063 -47.0568702352019 11.8253102375637 0
-76.5407941919495 -4.75426488589177 7.47446906110663 0
-142.970724017264 8.47989717115424 9.10364210212924 0
51.5797263636262 18.2111740790648 9.18424695553692 0
-182.144343150381 34.6501689991004 -13.7067825148388 0
-32.383767606588 -4.24079788389736 10.8074880354441 0
-128.80497588068 -4.96679928690928 -4.05803988057702 0
-192.061272642703 -37.5485528990917 9.29514121965006 0
61.5153650315277 6.07113705826535 -1.44656502881581 0
15.2403818127485 2.40080345509568 -2.98561827698016 0
2.11771616944303 0.0928086289042742 -0.967219665797017 0
-144.534653017325 13.2777233860739 8.02641259182781 0
-3.30366248862649 19.3353471597012 22.0587610283082 0
-77.3007329374847 4.95932121967818 -6.50962812158909 0
-195.628127702184 6.98746397965612 -20.3245738837718 0
-98.3655941807109 -4.61685681624172 2.94636232776451 0
-200.412643605413 -23.670752747043 -15.6638500935132 0
-222.474883486221 -4.43393524231877 6.97878668400535 0
-162.74059850909 -17.6358505819116 -19.3839362146669 0
-69.2240893686027 11.8356793490211 22.5090995312157 0
-191.070879518246 32.9250475549105 -13.3628977239491 0
-162.271196849066 25.4335905710129 -5.50150051674938 0
14.2805791877297 -5.4764733788568 16.0182143858498 0
-180.054366074021 -18.1313995042898 -6.08797993388001 0
-18.9656625851428 19.6653803947494 21.0019101608175 0
31.6213977073115 -0.613143762013478 2.30029623054896 0
52.8322745602601 14.3972419776705 3.70889505869742 0
55.8300166323426 -1.02478001039359 2.16270163938708 0
-134.458102769054 -5.11966738938251 -5.52408755654834 0
-230.952475077391 -35.8093505990471 1.20215575699947 0
-147.257256614047 8.81122517923632 8.27861230949631 0
-186.714252817301 27.7460562007109 2.63319452169526 0
-91.1068498442862 5.08798126690878 -7.83137181830458 0
-208.544798000486 -40.693510409068 -12.4204386191666 0
-228.013830409438 -37.175531758561 13.8626981275333 0
-87.460746362922 -4.00525274356408 2.88323908841809 0
-107.362912679882 10.2252471476047 15.7702267398295 0
-188.3911566872 -22.3287470126804 7.87076958921567 0
-26.8170886916435 -1.20680978079412 1.9986391893361 0
-171.559165322744 27.6884033198082 -19.5391768660511 0
49.3607394078027 -6.26064720360792 14.05948582281 0
-154.236730782097 15.4230936565355 6.02270197100601 0
-208.766745003771 9.37301068766654 -30.3814986366314 0
-98.9338793580116 3.29218666919114 17.7270229919644 0
-131.932333657665 0.459078409237023 -14.3993761107126 0
-121.385919250346 13.7256756258078 -14.7945827256869 0
-192.131431106112 -16.8285798810211 -11.5502512533945 0
-108.641081706688 12.1288199288981 14.934825097347 0
-172.162868481765 -9.30815850404748 -22.5985074753666 0
-183.9411392502 15.4865378766775 -31.203906167434 0
-202.645451843415 12.1302201189596 6.30075656955639 0
-178.549884912987 -9.42626844704953 -16.3686059539891 0
80.2220024586893 -8.93306362985888 14.9684386673242 0
70.7789709272115 -6.49993334900128 11.696810385679 0
-191.578454997699 17.845828058996 -30.5793471214351 0
-189.383374055917 11.3318752896133 -32.2975341265822 0
-131.460565056111 12.2153716595069 10.549072587208 0
-182.760433381147 30.6744296223563 -20.6058254854685 0
-178.321861928456 35.6910669466743 -6.79858242870632 0
-111.482390085925 -2.25185782858174 -5.00522795643671 0
-140.042573360603 0.598775509519134 9.95871635514044 0
-200.918400447157 12.1226235280039 8.25043264079166 0
-174.521215878721 18.8977914961434 4.40351384511805 0
-117.578548055152 -2.37009869115697 -7.11645705917295 0
-21.1145228323312 21.3346483161321 15.5456544336553 0
-194.670532733071 -33.1757697126064 19.076643919529 0
39.4964237687337 3.81045826214945 -1.85663782244761 0
-208.614707715623 15.544291195423 1.6394658362478 0
-191.759809161322 -31.3784411116886 9.22099063773923 0
36.4773513828492 9.1986264463205 0.12807292971367 0
-30.0011902795287 11.7386753942721 -0.464866902520815 0
-17.1992360692489 17.8704471223274 23.5085547645462 0
-46.4552136655489 -3.02282606991728 19.3346089208814 0
-88.0997180712368 3.64432483967163 19.7439592347422 0
80.47639259684 12.7175581011506 0.964650992108592 0
37.175149766028 -3.83358599157966 9.8721956656965 0
-167.423065199747 -13.9400196278275 -1.22671203078119 0
-175.503602734452 -7.10640912323909 -23.0287382620577 0
12.195078743572 7.09638335962562 -1.84161977797731 0
-188.647276081525 -4.30283830468245 -16.9021553379691 0
-216.90210197946 -22.7859161554696 -18.2949633921706 0
-212.538980385467 13.6225177082226 -9.74527681738155 0
-111.379574987457 9.20017893681312 -11.3821681666772 0
-217.098672479204 -36.9089297960293 23.6039461263561 0
-97.2173303151345 8.10553589612588 -9.41087598173135 0
53.9878664759583 -2.5878940745639 6.24355731851834 0
-224.188668462653 -43.1529076269062 3.75895096885436 0
-196.655221080585 -9.23688256062308 -13.6530828143396 0
-199.505535837221 -45.1360138215285 -1.18258447060188 0
-231.963043903509 -32.1239407354032 -1.63861107177594 0
-229.212684975627 -14.4568823261111 14.095953456791 0
-169.31092511997 7.22668209984222 7.51710917207085 0
-123.287849921964 -3.5443344348264 10.3692502081752 0
-164.338793428177 -13.2982458708513 -3.92755536573572 0
-197.514032136177 -4.59311602007947 -13.8319491283681 0
1.6234527006687 -3.01692255359428 8.00997736730737 0
18.5037318665081 16.9649803437811 6.64937601910877 0
-198.196051271496 30.1490421786143 0.292662175366446 0
-209.605031354329 -22.7194750188674 -19.0630695339585 0
-6.40851525918148 -0.270200928437692 0.482232437419975 0
-6.63014387729724 5.44633149111488 28.1757571958027 0
-43.1821609414229 16.414149754527 23.0148976652926 0
-115.183206669858 12.3377259336981 13.5366209184005 0
-47.1143650920566 5.99264318464371 -5.15956853014629 0
-131.05074341236 1.68512730217731 11.5240778595594 0
-160.499857298845 -4.27336204614078 -24.787741630688 0
-168.396635529618 0.1619589625225 7.79267470071752 0
-163.309484251622 -7.37021840719208 10.0785701731705 0
-194.216480609026 10.1129931346882 -32.0411508663461 0
-199.196827565372 2.61193766134344 11.9756545740473 0
-221.514082534781 -16.5075208978832 -14.9571342218577 0
57.7047263507873 12.5740318880527 28.7486123353937 0
-134.304587295928 15.6821245616049 -16.7623637479015 0
15.3743383546616 4.47771245913621 -3.88333165519671 0
-197.262097301569 -36.5880592808234 -10.6272361993731 0
-143.569809529232 -7.45220315752123 -16.2737754831772 0
-29.301063396713 9.79605333468873 -2.03074400469105 0
-222.204931964148 -14.0759070254951 -13.4126548974275 0
69.8864478678992 9.29546288897227 29.5163859981175 0
-174.711094626874 28.4130419159877 -21.6373466120923 0
63.2085940881752 -2.67228583843115 27.1026598459582 0
-200.691851322263 13.7161635990875 8.9799340464359 0
-71.9877148297481 -4.57900288574164 11.5458249838817 0
-194.338978927587 9.50543588103582 -17.4487180118185 0
-217.411309914203 -26.9980768164203 27.1326864310019 0
-210.760701174082 -2.63154335155477 5.89963764031955 0
-44.0245354575171 2.11549925746483 -3.71756803694809 0
-75.4288318839134 4.08793406420834 -6.03180993632291 0
-183.096909245684 24.2324374437468 -26.6791819146935 0
-64.2926635594483 5.4188406316725 -6.04982152147338 0
-204.233680813406 -5.58700290917005 16.0843778170839 0
-110.342360264442 21.9928948447671 2.88367854195005 0
-88.2132126972183 -2.39820189131767 -0.518252742538521 0
-152.731413931562 10.7971594577366 -21.2676941498364 0
-126.153654019002 -0.308974104431713 11.8681654225806 0
60.1965481547991 18.5034557564875 10.176977699008 0
-201.468570573958 -44.6023713332922 14.0417786138901 0
-131.644551558732 -4.55804428571468 -5.77521325841015 0
-39.9085380901979 -0.637157672680206 23.5554719052931 0
-16.0873138186125 21.0283437267035 12.6432292388344 0
-107.446798740877 6.11161855116955 -10.0921240808201 0
-215.874780761297 -11.0176993395156 -11.5308924518247 0
-57.9580298329968 -3.26642567543548 4.53332707145115 0
-211.417790195051 2.74985442261153 -26.8650202504198 0
-211.673712978464 3.1096213104477 -19.8495914340843 0
-227.309801309605 -39.4533729453492 -2.87479023663519 0
-171.446836501582 14.7301404260005 -27.9830682045636 0
-110.817679445901 -4.52157558380999 9.57682294068292 0
-101.350237221655 9.3267193275812 -10.2438069651834 0
-87.3107182919161 7.54741816541266 -8.09624342867338 0
-201.615615710048 -3.55105107805642 -10.3940253429419 0
-115.498103560837 6.65295714317169 14.5608719108004 0
-200.515864844566 -14.4628471529594 -13.7122136390758 0
-167.183436215892 -11.4824299813745 6.96854870439307 0
26.4530652021845 -6.15677084087601 17.7145398800518 0
28.9437780454793 -6.31260732739972 19.6110098663498 0
-189.920309456288 25.0171943690104 -25.9353175106839 0
16.012839821035 -4.24321145205039 11.4014211189117 0
-186.818745440348 18.8470597186894 6.74061475141261 0
-208.64146971021 25.4760409765018 -3.56948947688352 0
-188.521150870274 19.0066893649847 7.95830460128005 0
-164.094055858242 10.6605752543679 -25.74935732755 0
-154.885458089482 -9.52105393630931 0.0421748164421982 0
26.2382359282595 -2.81727247722464 7.79127293418182 0
-26.6578896572045 -0.105729673383584 -1.77801057701637 0
-190.67905140818 -2.44332620129366 -23.8466542350912 0
74.710613922781 9.09730157026252 29.4390929215137 0
-203.572470814405 -4.71813497151287 14.6050109021076 0
-187.998464508525 -19.1009315592823 8.19811039466205 0
-160.188939970052 0.806264864065705 -24.8319438032195 0
-177.914544150443 18.9974799555953 -29.1286905627991 0
-204.833835986268 25.9264733408634 2.38968661661706 0
-196.29153921092 3.8280295798613 -30.7639195843335 0
-204.810980092375 -8.27983664293842 -11.5036311652524 0
-230.683856289787 -36.5130745133426 6.61424012258048 0
-40.0266013478491 10.0830495073274 -2.63377150095084 0
-105.52455452411 -2.66189557154943 -2.53540036412404 0
-31.2751959396654 16.0704652904182 24.328408331655 0
27.5489048133615 6.65201747974056 -2.03669746434613 0
-84.6873624065333 6.42742990136909 20.7445647414179 0
-184.503123949418 28.0153360412543 3.22838955070535 0
-194.288007161491 -40.2124567887148 10.8339640457405 0
-167.141931188306 11.1074207612418 6.14157399734333 0
-208.366362817438 11.0363533869551 -4.94346534907765 0
-189.459141603262 34.0415217900362 -3.33544402015088 0
-154.966326670348 -3.04300571649489 8.83506384887276 0
44.2514328773942 16.1607743971388 5.79490323368322 0
-231.747201132307 -25.5681935245686 13.7988092034335 0
-156.064854748979 19.9561723274144 -21.102587459298 0
45.2508188657882 8.48640457334985 -0.0701961082997507 0
83.8044400182979 -2.86689819318784 3.87640322491928 1
32.5438839456776 15.5422972387561 26.9828696125499 0
-138.349215614269 -1.67547262435503 9.75043817827824 0
-144.493282267097 3.80329324694713 9.32731235535185 0
-174.303937280631 -4.7165011872462 -27.5840240039146 0
-194.130607402581 25.3323873486271 -26.1912737977683 0
-165.06734712081 26.6393379928105 -12.7068873271316 0
-79.704036021242 19.8986227810547 13.8063862679281 0
-196.300270982118 -39.6982600933976 -6.43268761007535 0
-172.582810762677 23.3057084395505 -25.9831129283133 0
-183.692097304763 1.47211182046915 9.9384585964078 0
-153.21285356559 17.4635128663012 5.43110717416558 0
-164.895318315273 -9.81628925911682 9.51460371940164 0
-183.997345766787 -17.83174988305 -8.42496599056794 0
-185.471336830102 25.5721256793538 -24.8158983271909 0
-196.102554617295 29.0029895864241 1.22050458235234 0
-168.294928842112 -11.6005542738555 -22.3100934918495 0
-23.8653200638299 3.69407593468467 -4.8128065864459 0
6.53241180246058 0.808508657580193 -2.12928578429231 0
-211.544943451921 -45.3569142816362 0.326670519932655 0
-193.911540833739 33.3867592487136 -2.90202743316692 0
-85.3084390059091 3.11404097457522 -6.40428791911667 0
-134.958779054221 -5.62796247194183 7.53915893528757 0
-152.301729876784 -9.21672829852677 -4.24284793315225 0
-23.0360750483118 -4.49098493912512 15.9965767239281 0
-204.029382082698 9.3381198596998 -30.7250249901869 0
-195.62615107993 -39.4645472806717 14.9759174896591 0
-175.991818013948 -3.33147265447966 -28.7654224595932 0
-64.6497932226046 -2.71788930880654 2.5994422061146 0
-198.833149330624 -15.9918290497934 -13.401027452121 0
-87.3182801355105 -4.53390125883469 4.86529181051503 0
-72.8245477415628 19.8843760477403 0.959374751633445 0
-31.4319177640563 20.3326720790125 19.0767758242747 0
-78.4784597847305 11.7164835353892 21.047295373826 0
-207.108424755295 -47.1834339408974 -4.23862889026948 0
-17.8960045021117 11.7736159939491 27.2295163172397 0
-152.506870898432 -13.0867171339531 -9.05302861062395 0
-156.058949367694 22.8432366593833 0.644860869705936 0
-47.1692334831259 1.55991951374539 -3.32578561749171 0
-199.685814556176 -6.63046329328563 -12.9980969121668 0
-120.458369291373 -0.754006167955321 -9.30631049017665 0
-200.353371738357 4.39389946887002 -30.320813493677 0
-156.687718625334 18.2367098489122 4.78941485477358 0
-200.826642098723 19.2775613928656 8.69591255946181 0
5.89332128825667 -3.01852546601257 8.15864061010913 0
-174.280069459143 -15.7948579373973 -1.01627068696335 0
-218.373576524369 -45.464933729469 3.34925926391046 0
-185.506550389522 6.80850800824079 -32.8372361538512 0
82.1118046354552 -9.64353605792852 16.525345327379 0
-176.840933657537 15.7835278386278 -30.143827001183 0
-187.253903287095 -22.7626574680967 -1.77301941270214 0
-193.733442089894 -31.9314911315242 -1.13685657336946 0
-204.844682123363 15.5670140633642 -29.5329940274678 0
1.88124948485628 21.0414812349773 16.1730730436974 0
-214.378861848135 -15.0811531606292 -16.4342941897362 0
-60.7326102160644 -1.24141253363011 20.1921277870604 0
-135.049588181515 5.1495621961688 10.8533788700515 0
-214.234548520174 -3.69594877878896 5.51888993154291 0
-180.309413505015 -4.96604547359153 -26.7286633320877 0
-73.2407483692782 -2.99704891805837 16.0604441271544 0
-142.110093127562 6.61209603961623 -18.5060854494738 0
-178.380750142041 13.7369112602934 -31.2237359389736 0
-49.7700001833019 6.43843652891726 -5.40626385009649 0
-196.635419929572 20.3116846148405 9.48428247299561 0
64.351247408758 18.837212841374 21.4264294353702 0
51.0179106349816 -2.44470662366673 6.45385283003251 0
-108.196686623987 -3.97532898730391 -0.633231340015688 0
-188.067337694596 17.3130553395224 9.51391890028016 0
-210.92383303177 10.856559105415 -10.3903186364045 0
77.2271753862932 19.2499435831887 18.9853108108288 0
59.4434322907726 10.180978725501 0.747793777972668 0
-117.714221452931 -3.69554140100912 10.604365085928 0
-192.507112900374 -40.0165844609173 5.50451813223946 0
-15.3314789141018 -3.49166192581731 8.40217650543193 0
-112.994095285027 -5.27482869973167 2.19305425254601 0
-59.7516336030405 -3.90622319724113 15.2002048764904 0
-196.949610497147 18.7879443370086 -30.0325158112279 0
-214.042727329149 -8.4138265282212 -6.63687747508963 0
-121.17002480964 11.5358937315105 12.639166406016 0
-143.917766578672 10.4731055269165 8.62406653226475 0
86.2971286896615 19.3606247303225 17.816939329733 1
5.40403083862245 3.60626155239805 28.2987437673312 0
-228.331764668257 -9.56362174691283 2.06606665828607 0
-167.305312244176 8.4606144389948 6.92179000255242 0
76.8142674511392 12.8136469784101 28.402152050787 0
-135.550987768684 13.8005435732652 9.33179621146789 0
-13.7190197966157 -2.58525722321161 6.08691133907623 0
75.7123942607825 0.481840364496303 1.12133075564091 0
-156.076703995473 -21.0465734028923 -9.78736545573391 0
-36.9098453379698 7.73879640547866 -4.29169731466357 0
-82.6417448414314 3.903358026849 -6.17596578471631 0
86.7068288948415 -3.34941975411084 4.30864677369278 1
-198.096084398427 -11.006769806207 -13.1069079464358 0
-178.342378649013 -17.814616380447 -3.10350056067216 0
-169.600703622451 -15.6194367406041 -8.55703333764969 0
24.6717348118264 7.0243165440085 29.2222456941051 0
-214.352459051621 -39.6607114632194 -13.0667027634409 0
-161.370631524651 11.4246961210971 -24.3639275700471 0
-200.040089754042 -37.6745059010696 20.7795624260669 0
-95.349257226701 21.5852012378845 -0.682816975776349 0
79.5211935725855 8.11027347417023 29.4437348751858 0
-197.426686637804 30.9261861598601 -8.6121633054435 0
-168.747810440931 -13.4188902539209 1.23631184288579 0
-7.02949437939219 20.4935427276218 11.8913914671121 0
-119.559142759032 6.84321744753243 13.6863473590178 0
-182.85286355682 -13.6658799592609 -12.8798546284278 0
-205.320716841257 -5.8764194599177 -8.39363036789975 0
-203.989532031887 -47.7572775782767 4.18225786003953 0
74.6889502587524 19.3910792280537 17.9534575085404 0
-58.4500807373326 0.427088987071767 -2.22346415584126 0
-11.0525666986825 -4.63739245872375 13.6692099486816 0
-208.47304247525 14.1720415559705 -0.759913151104369 0
-214.248530896776 -6.17884137517337 -2.71336038226468 0
-196.679295272555 4.75820257879658 12.0482953536498 0
-230.872389423499 -26.4710907430895 15.4392143394932 0
69.3979771910111 16.4220449421222 5.33801836630913 0
-82.3753657076236 21.5642819490472 7.4937183506035 0
-203.643454590829 -45.9933845348174 13.3286516243472 0
-183.280505559719 35.8925187073032 -5.13959523160741 0
-163.251772376775 9.16483781830055 6.5195018084039 0
-158.918507874609 -17.0661401215516 -9.22111574199446 0
57.75976590274 -4.1826230695308 9.35491222787937 0
-202.124769152721 -21.7896298899859 -16.5225203594289 0
-172.547585162787 3.31993926049493 8.23689341569873 0
-215.888235725114 6.8445164341503 -22.3694051622665 0
-20.175207963468 1.85896473307081 -3.38387037612757 0
-80.001126950026 16.012540601205 18.3068881683596 0
-204.649207846185 -30.4718573125569 -17.1474154890529 0
-99.4337667269787 21.2246185931234 6.76644512558055 0
51.1925272465762 16.8401923112811 6.68611569558951 0
-180.980459687353 35.9251334725219 -9.72617302331932 0
-217.268553525596 -3.3719769750967 11.6678554946634 0
-121.910376249332 -2.81055650567647 -7.05880345463899 0
84.8993715298795 18.3824602220694 9.61610975188489 1
-167.8342801155 -5.93282718956335 -25.769552102086 0
-168.287471740472 27.7537621451138 -5.83960764529862 0
-171.018852293456 2.70250068407233 -29.4750829506414 0
-176.630963894587 -7.72377507417486 -22.6636965633143 0
-211.767495950728 -13.419446663024 -14.9302062909185 0
-84.9346633923802 -4.48593443470001 11.6283290265574 0
-11.3757071498411 -4.68053446363015 16.8901508209978 0
9.21758776282799 -1.69529139821091 5.11057196507902 0
-167.138396074625 21.6770970473648 3.05217143091547 0
-179.148592744354 -8.70138089396679 -18.4724119065497 0
-25.642068794283 20.9606219985897 11.7172392094337 0
-188.832016414692 -1.03617432809577 9.35841100197483 0
-38.8399392982861 0.2878433591278 -2.09722677173299 0
-181.146822672964 6.85676866812365 10.780007095221 0
-170.377684471303 -11.8131422876248 -20.7217227541692 0
-164.087583758256 -8.85043698095606 -24.5894737738712 0
-122.860642645961 -1.15368944006047 -9.38777722709671 0
66.4842331388142 14.2742521750591 27.7878454536131 0
-164.398794619668 0.138845365545053 -26.2932756197078 0
-165.574672787743 4.85285808447922 7.42200300159659 0
16.1208196349904 19.2709765126891 22.2523638440759 0
-218.16421181692 -44.961600414245 10.8957495653574 0
-156.187461720287 -4.65914504759524 9.62518168241101 0
-144.046367279967 7.32208113010198 -19.0130857459658 0
-12.344514815191 20.62618115637 11.697019309708 0
-8.97307839486883 -4.35000999732663 11.9538256088195 0
-135.935195451103 19.9864725213945 -12.8231136888182 0
-151.565317920166 -8.61142833642834 0.0765177013263236 0
-176.999760482475 3.5554566951883 9.32197251160199 0
-160.676406055443 25.4399889451321 -9.81525201036781 0
31.8801654708047 19.4891640102358 11.7619775664573 0
-156.112101230141 -11.0106871611313 8.0997672711521 0
-227.958013674047 -39.5898520163068 -0.920534844021291 0
-126.975744444088 -3.94015043688977 9.69917897709498 0
-65.3849814488749 19.1917900862014 1.74230810578484 0
-182.489411445317 19.6564335601986 -29.391537252985 0
25.7747833689592 19.3225142972629 21.7650956734161 0
-164.266357823641 -12.6621730241895 -0.867638836675427 0
-118.857119147788 3.98213816809117 13.9539199623097 0
-204.32909068459 14.5530352158684 5.28685764583907 0
-187.809803472677 -13.0180928882971 9.78195839259341 0
-195.603043460454 -37.3513853852118 -8.05775752745398 0
-209.046712527104 -45.6302710688498 -7.2865568338611 0
-34.2116950478598 -4.02645219003129 17.6499490446168 0
46.7331564309943 -1.83067599218948 4.54881444350695 0
-102.782326062231 -4.30167390892744 1.26260994014453 0
-77.6651953652216 7.23953044436862 21.9377307455676 0
-81.3737284246738 8.95685142251825 -8.62664159168815 0
-24.9305972965311 -3.32261068140047 7.42557543432756 0
14.5361195438062 13.2570646688198 27.9656594540013 0
-173.741059712719 29.4481558110138 -19.969033031088 0
67.2886115667619 0.807499996602115 0.67817796073954 0
52.658316966743 15.9534320385177 5.48777407395273 0
-176.684268855574 32.111566086567 -19.4081233954965 0
-188.264585892948 1.18801739229996 10.5222383831606 0
-230.247005205439 -14.2064559722113 -2.51329016801207 0
-209.087972802791 -26.8960065809859 -18.6749276098027 0
-22.7501720655296 5.10003204883709 27.3364134612901 0
-126.409488949955 16.5986249260985 -13.9187324942261 0
-146.258680720327 21.0206849145516 -14.5978956061394 0
20.5460623798577 20.3653666558847 18.8841530107308 0
-196.524975549914 -2.90295785520352 13.7549710251218 0
7.47448658323941 -0.812497317037977 3.11824372997547 0
-199.019414995599 -24.7484701632141 -13.7029036407855 0
57.4570408121213 18.7203659961767 10.6706491805221 0
-145.015560171752 15.3829781610775 -19.6916211218963 0
-127.661043057182 21.0104623909222 -9.61489776001336 0
-193.959736811285 5.75678035652839 -14.0574134025999 0
47.0306554641858 -7.40784871753551 19.8283424582249 0
72.7363821676561 -6.74603792373528 24.5117210957342 0
-207.881791772357 -35.6102207277389 -16.1289079655642 0
-12.4928742265581 -0.17391417048814 -0.523971595389391 0
-177.318387404034 8.23326616899623 -32.1632998213914 0
-111.518692278619 21.0548161776388 -6.51399831446395 0
-214.675700408391 -3.09317486948781 11.5824347293113 0
-31.4673848119764 -1.7653425862264 3.25133921444782 0
-40.1805529135837 -0.494526152186027 -0.215841554255124 0
-91.3408305842641 16.1581579236851 16.0888061723717 0
-53.2525777994131 -1.60403869260856 20.6365895523039 0
-184.720572345517 34.2329816087243 -2.4943985412161 0
-228.774040969498 -12.3182949836185 12.1609830584467 0
-172.235349976072 26.8569923149343 -21.9171078353564 0
0.529365302990529 20.8516132713694 18.1734716206969 0
-129.662587957433 -3.90340345610456 9.53486483757865 0
-210.583165894719 -24.9015869876091 -19.030130150066 0
9.84218344460671 10.5087728864719 0.775811504015539 0
-192.889218495134 19.1417426414812 10.4412821676035 0
27.6692788493319 -6.06857395380969 20.9235069324418 0
45.2515014467515 2.31965583241554 28.6003306740359 0
-217.280041543227 -19.1339241187674 26.1034316625385 0
66.9981370460667 -2.20681396674046 4.15161945354919 0
-35.1948279125773 4.38767349193339 26.3763531849044 0
-114.284482909036 -1.55477955311113 -7.21917213791875 0
-184.864409728725 -1.78387014800836 -29.6354995475256 0
-177.551482772573 -12.5861280830119 -15.0207349715473 0
-138.735836307141 6.12406452031291 -17.6331273988603 0
-179.481869272762 -9.35805568861261 -17.4151064864067 0
-169.484683422209 5.61915789837241 7.7221192318734 0
-161.343772566483 -2.16712100401909 -25.1235636437062 0
-154.622871858961 -12.5524469241799 -8.19021467813424 0
-211.833724442844 20.0829792587711 -17.4562908829544 0
40.3597410116257 -5.74191200236094 23.6904643837724 0
-99.5509632448277 8.77314786631323 -9.79689094765447 0
-173.303387775124 -2.6795568125874 -28.4421554127741 0
-143.938112739352 -8.13276895974653 5.0406670693782 0
-206.536091227127 -22.8643364379889 27.081508883401 0
-24.4037713975539 -2.48893262347605 5.27689405738287 0
58.6500150836307 -6.84101553302843 23.6034925890536 0
23.5039472082457 -4.51798863086757 24.104322593039 0
-130.07363523691 -3.73600114123888 -7.21860247184589 0
83.9370725984261 -5.40600962929104 7.76118015415157 1
-176.219703029598 -12.1927680984346 7.71610250287884 0
59.2398853135008 12.5671869128855 1.98330309601887 0
-197.112691452984 -26.5558781289057 -10.1049056855277 0
-25.1161106458054 1.59609458356591 -3.40497341975574 0
-136.979298252055 -0.738767301295964 -16.1743871912066 0
-191.576819427862 -7.56068958381304 13.3745377428158 0
-210.03787026355 24.2028030371093 -13.3206177199824 0
-169.290671363469 -10.8590769127667 7.88927285535377 0
-45.5004808249675 14.8174593896446 23.8688033709806 0
33.9164895143068 11.2008217756729 29.0701138312552 0
-41.3174633440229 20.7735686136549 17.0971705806203 0
66.466246953948 -3.50331851184089 7.10759836253537 0
-148.401464304538 -8.43953514818909 2.66947994023117 0
-138.65997723952 8.51405630529851 -17.4548124252901 0
-173.950462867724 21.9349531438409 3.834080958609 0
-191.62234972765 -2.47156275738328 -15.5356479278121 0
-134.539625810588 7.99938897090931 -16.5376725904684 0
-1.37769819934432 21.0542882727525 16.9014505665126 0
85.5741742666101 -8.87429054168055 22.6223379685461 1
21.3914689927189 -3.80013679970218 10.1871873597788 0
-147.397821337776 -8.72282268842257 -18.9231775772571 0
86.5544121958944 16.7297908129603 4.94408558275582 1
-164.072393800314 -15.9076782934981 -19.980912327132 0
-225.844448712253 -31.6991091284856 -11.9253868046942 0
-97.0279394030561 6.41607537237077 -8.92264072393971 0
64.34567097752 16.8089067908425 25.54058481065 0
37.968815493128 5.472448667161 -2.34458708019409 0
-91.2960713664272 15.7349074006543 -8.04273518835884 0
-79.8206660785388 1.82225350104293 -4.44163721822118 0
-208.853190165286 -46.7064764977373 3.61683219855531 0
-172.249576365015 15.448173040432 4.88581715847747 0
47.9099685722015 -5.35289341945902 12.17244809443 0
34.8112656850979 2.67914489934089 28.6433897400948 0
-206.382850497077 5.87749315065262 -0.856540568512626 0
-75.293158542004 19.3113101479006 -0.601943404079806 0
-215.75839674879 -6.91908405084736 -2.70145448114831 0
-233.359761885724 -22.7279913600069 9.26456470591923 0
-166.842363408384 13.877902973401 -26.0735576437296 0
-189.765073823438 17.5479328268203 11.1201660594715 0
-143.199424758956 -6.16103492232341 8.13230870031712 0
-13.3648644884955 -4.3952067381955 19.0204458226021 0
-191.376357934132 -35.0570282844209 10.4275081829606 0
-197.250118252012 -38.8459799149731 17.4436263275994 0
-141.421135030999 -3.14874054750199 -17.5395204801491 0
-228.115588359781 -10.2184890810204 -1.30859759606117 0
66.057211327337 -4.03055473650238 26.3893804901135 0
-181.044221814438 24.0332641657102 -26.9172177846491 0
55.6990033162001 -2.20980528606914 4.37523175655667 0
-203.350415430242 -39.3469223134747 -12.3874021189343 0
-74.6638508769503 2.25093930484902 -5.14520067935553 0
-182.46088156175 21.6057114529973 4.81715738934792 0
74.7650608668705 3.99024028404844 29.1532817716674 0
67.780524627515 -8.93913332632467 20.1955590741282 0
-66.2884172733412 14.1860047040412 -3.92107154401824 0
-175.659603813233 32.2703115228188 -3.52483605568029 0
-156.303509589758 -9.92797847343034 1.77692791286138 0
-139.086834344144 -3.85857289606043 9.00536373875378 0
-200.254445119204 -26.064696024943 -16.2994724016186 0
-91.125158325576 4.50855963839145 19.3721536506024 0
-85.9118305577886 -4.86609455765685 6.89466317688866 0
-175.790236058231 20.9257825979075 -28.1193648254071 0
-178.248892933671 26.6494448224214 -24.8236437249285 0
22.6808713990809 9.30372288704029 29.1680226820486 0
-206.66340532091 26.0232695407702 -16.6978714293339 0
-69.9104309646828 -1.09359139707595 19.3804352124934 0
-28.8702657994042 21.3760811121346 13.5664638893726 0
-232.959518446441 -31.5638191160713 4.57163391224101 0
-45.4091137308866 7.03542420429818 25.8642257433794 0
-62.3947323200958 19.2387666070586 2.54918645673358 0
43.6824758849565 19.5994253692735 13.2839238247603 0
34.6846983953919 1.71288021058028 -0.846272991520127 0
-195.579550295699 -12.257138805566 15.4301953346459 0
-36.0662753668124 -2.09954796385793 3.6255900161493 0
57.3411079570482 8.75245744789666 0.037608774299965 0
-105.36239588763 18.2796663493389 11.6596412637349 0
51.6235871437722 -7.41671014115783 21.4694190880915 0
-180.906333506994 -17.6979704026235 4.64633364947765 0
