-222.547011132603 15.1136073881288 -15.6643786212286 0
-99.0009042448837 -22.7471356358023 -5.73003624668539 0
-184.682638943039 -1.5640292729702 -11.5898644140284 0
-199.459748351492 40.9710745708567 -16.0999323786637 0
-198.412860866872 -23.6998811146397 27.4590442296488 0
-209.012416078861 -32.824682745374 10.9244450551134 0
-200.080521008186 28.6463962983422 19.4484304537013 0
-161.430059596293 17.9922373970374 11.7374719835121 0
-225.384223684013 9.91014238760139 7.5990869979659 0
-210.717352306324 -27.4527478010995 -3.14950898097548 0
13.8466119622822 7.58615774979867 0.852716401086135 0
7.99670780330203 -1.57261037833546 3.94832632774217 0
-105.065209566442 -13.8678030720047 -18.6628754988821 0
-142.821014249084 4.93527740811878 12.9734870569688 0
16.5571056336649 4.47447081414009 -25.2958419158083 0
-124.366543807872 2.26072319475708 7.80768507198523 0
-80.2347741685404 -1.15705480353031 5.16582317938389 0
-227.25570527171 46.8385348769797 -6.97981058682145 0
-193.02116844715 -7.63139683561648 17.0837980777651 0
-213.10092235143 52.169877654095 -3.80471854959932 0
-199.025382473486 49.1580536515232 -0.747436267840356 0
-208.684181506592 -17.2020164889247 -10.1361576149593 0
-158.131920217621 3.93995777735902 23.5165354776131 0
-208.445916703886 53.2361789180057 -0.910816442043525 0
-137.338532108234 7.33609283932927 -8.4825925453939 0
-140.287133716935 -24.2086721883934 2.18161076985088 0
-212.770797112924 9.83049634877155 13.7534166170091 0
-194.086231174958 -19.9851633957954 28.2228261702724 0
-191.862608597943 31.4871581825807 -7.11471268276431 0
7.45203358193527 -12.6820825901361 -5.72112804753377 0
-142.097982155049 -21.6738327657206 12.6619476685917 0
-209.528022873745 51.8716305677887 -3.21280198033378 0
-156.221026135506 5.70277064744769 -11.3035744187158 0
-154.85631597967 -26.2448635132968 -0.289907318520808 0
-224.570825546191 15.49197289376 15.4526907344315 0
-217.275688050666 11.0301518388824 9.74833501948357 0
-158.029693341788 10.1725802411368 -0.0105221210861405 0
-139.716499571272 3.42188199725062 12.0380015353418 0
26.7308478146006 -14.2724357832594 -7.37391793303984 0
-170.009401844092 -21.6869162164635 -8.38025921218744 0
-208.203909271845 30.5527070344019 -22.9059978660189 0
-188.266778214832 24.9570264409136 -2.05613061754489 0
-158.949931210232 17.9951875674623 18.3267977513462 0
-93.2699724413646 2.10041702505445 -20.1006700440682 0
-24.5923095032287 -9.98549194540808 -2.33543088560486 0
-53.7685558201474 10.670939871383 -11.1808754744188 0
-88.1147790650984 -13.9640986222502 -20.9366804168264 0
-194.114955496511 -26.2956112200559 -9.01768309512299 0
-120.918282657429 -10.1261378282957 -17.4580283233096 0
-99.269676791878 -21.7304400403275 -12.6823817790247 0
-212.180849476815 -16.733966788635 27.9194586213143 0
-172.309910739912 -5.15737438922117 25.2690059052648 0
16.5611240337774 10.4033419152662 -7.45668367193458 0
-178.863036754472 -2.95662818132215 24.9581118533247 0
-190.401632876179 8.36443811244437 14.2225634437914 0
-193.861542753596 -9.82342867423301 21.3954579749679 0
-183.745417377306 9.51606405886591 14.3029893981373 0
-26.6604763669189 6.71053954686281 -23.9147323558963 0
28.9331041824935 -8.24511656991652 -0.0298632041245576 0
-103.290414200069 -14.9232206572361 9.50919492094567 0
-161.338063898935 10.3918354574606 -7.22505718487062 0
-126.087885842741 -23.9923579950962 -4.51499076508994 0
-159.975664745537 17.6354484448778 13.0744537373658 0
-15.7658274141047 -10.5969141905168 -3.26416638701062 0
1.65711036781782 2.50838466541397 3.77580622432393 0
-162.294245735052 -7.97420748698849 21.4484241157998 0
-207.23669663373 -18.5966854812804 -10.8771671219519 0
-14.2781601880443 -7.12657768599484 3.81479448191107 0
-31.2724001677044 -8.0269702209274 0.628377452537626 0
-180.367325407992 -34.4197912267887 21.0626467240135 0
14.0015275130304 7.33509009478546 4.32998855814524 0
-140.453142246905 7.76951165876077 -7.93143733514987 0
-149.966367438422 6.41666900668068 -10.2015563875065 0
-176.092342170278 -35.0115027353214 17.4951496219828 0
-216.089851285214 -18.8727825265332 2.79162463919103 0
-234.111416672354 35.8174941851227 -6.7594247937162 0
-212.944049499973 -25.4873774826508 27.5164661645116 0
-123.326629640695 -17.4464400540657 9.12514161840039 0
-229.172275225866 12.7301019802856 -3.3722258203703 0
0.436603689717046 6.58714457328723 3.66928227549949 0
-170.584208941454 16.8314897541638 7.58770944300424 0
-200.812438582368 48.1227031559329 10.0765839597396 0
14.966650150382 -9.00530455676864 -1.59310135565431 0
-195.184388708522 -38.5888934159171 9.15108953594147 0
-143.368370892333 6.57935967379184 -9.56690184872312 0
-162.651506574065 19.1466340474062 16.9399260445346 0
-165.639991278506 12.2460927820907 -4.19205190825086 0
-39.7549738099532 -4.4180634570342 3.16899576669248 0
-116.380910867224 0.685282471024215 8.51666922740775 0
-137.274925788701 -13.6322022376613 15.7042408853832 0
-216.798124903522 10.1930937747481 -15.0841218327041 0
8.5446941057918 -9.47331585879623 -26.495031098646 0
-211.807831201055 -28.8222365843344 17.2252776263764 0
-217.980004683566 46.7327848182155 -14.1654583415065 0
-57.9299999867965 -5.71586408335092 -26.3123667841636 0
-181.112010537399 20.3903433432291 0.405739331082352 0
41.0193388495407 8.17194432042797 -22.8269741481552 1
-111.093335757265 -19.1892149894268 -14.1464163472759 0
-125.431524781783 -2.59543700843861 9.77805883180127 0
-191.733399418891 29.0124761061584 -6.71679610881493 0
-40.2837455881647 10.5333168165886 -15.2760286275242 0
-213.512467312261 6.75677409222601 6.10939777509618 0
14.7387046118001 9.74139789670294 -22.1972598169664 0
-194.838050247784 1.9702566474556 13.8661470861954 0
32.0719264457601 5.63879641156503 2.55560426192628 0
-189.220569869214 -3.37683084046392 16.8876143979223 0
-80.4837368225086 -9.61689681271778 5.34093532981814 0
-195.533246710107 32.736411661269 9.33169628775623 0
-103.431085149489 -18.0573421556547 -15.9962469291951 0
-161.285545466255 -19.4543765059818 -8.88287088870425 0
-17.7320986003359 6.1611622748316 2.36836598256303 0
-34.2024290306315 -11.5834681732661 -3.30288039171987 0
-157.488719099276 7.07232772731959 -11.0762088158491 0
-176.155401678874 -14.9037485749297 26.4128469167822 0
3.8996069263024 0.317611831007103 -26.8303071355931 0
-197.582327522594 4.59458849014151 14.6302020137991 0
-200.659046119072 -24.8354357252808 -7.03534738793392 0
-57.1071567610779 8.67342825597028 -5.02998907157773 0
-214.636255969945 -14.3694903981542 15.4456795257613 0
-207.840334352479 -7.30897656471571 -6.52448146389555 0
-123.253225933078 -6.95336014483135 -17.2421167652267 0
-165.41358909375 13.4645904947611 2.55779818853891 0
-12.6118663744296 -10.5515499982278 -26.4214054913372 0
-202.539596986084 -2.0173257848858 -11.6906377637923 0
-129.768278472864 6.99654663397866 3.54295821157948 0
-50.0535813121983 9.24910832649756 -6.43756307180277 0
-35.5071570292851 8.06957367607887 -4.34114325951648 0
29.7562847496396 -10.3823874625976 -25.5694670471535 0
-208.75157192868 -3.7677523395901 3.02709538099622 0
-73.0081540034446 5.91189346225181 -0.401805230952976 0
-210.087409909044 50.9970825922793 -5.05187130517489 0
-149.840117440567 -12.6389508351471 -11.9586827838924 0
-34.3326731654455 0.129138602824363 3.30651773376998 0
-30.9448478164079 -5.85265902045716 -27.3743853055115 0
-201.916796371482 46.6744124865555 13.5525721346902 0
-201.382918304711 -12.8394312170271 16.6583890038385 0
-69.1040434485342 -19.5604291133432 -7.61118981046847 0
-205.379603555809 52.4874263389983 6.35279767518214 0
-54.5640752919281 8.46673344903856 -17.9956857156565 0
-234.038776176368 38.0026201572556 5.79116203838983 0
-215.701463674582 6.4990393808107 -12.7893971708274 0
-113.348798239471 -12.258765561666 10.8062884148929 0
-90.734226633185 1.35075526595503 -21.139722492857 0
-191.629022767665 -12.2106871212358 -19.4319628018144 0
-117.79771396222 -6.99399253996112 -18.3335691870736 0
-197.054716349736 44.7057982622661 -9.65738799232038 0
-131.416544709815 -10.476374878527 -15.4173909485874 0
-149.043681612685 -3.91061443102578 16.1862766006071 0
-182.563813962716 -41.7532145288194 9.28975752466235 0
-117.662415444099 3.74979810915338 6.73901140949855 0
-54.3962724979867 6.62964329749825 -1.7067095624041 0
-22.6615673673721 11.476389076 -13.8846425787461 0
-76.3205396327116 6.18884409901592 -18.3415716590916 0
-6.88408897919258 6.202327267084 -1.56580386626018 0
-91.4743439768152 9.04133148218737 -6.69713194794947 0
-200.049225443615 45.8529248801804 13.179642710471 0
-184.585130181482 -30.2478681060326 21.7518805494554 0
-122.19180404851 4.35012407538251 6.46663657707778 0
-175.230697830382 -35.3633006130227 -2.59960541359223 0
-44.2244930367392 9.13661514162254 -6.10951399096861 0
-222.928497698643 39.2736993878048 19.1960045570288 0
-174.15236088235 -37.0060771996991 15.2109989682685 0
38.5123551824116 -16.6970567771143 -14.5054157279989 0
-208.721498956629 -10.4619623574997 -5.0290592320392 0
-111.423718394656 -1.69810968246844 7.37562142969549 0
-175.234339542728 -28.9124914492631 22.2450232145052 0
-37.822417535987 -2.86872154351459 -27.2577772392984 0
-168.515692951328 -26.4237233124644 14.875389222321 0
-96.0008742560668 6.61684612354254 -0.632885331870883 0
-217.696652776675 17.1033949880507 20.7637811787797 0
-211.166994067 -8.91163387888099 26.3725647766903 0
-201.574554016775 -18.6476093511786 -14.5813177653416 0
-213.207054739644 1.81703548192525 -4.15031241702933 0
-180.444815611195 -41.7909962138827 5.05728834907171 0
26.1177149092142 -15.4538670843863 -21.6999109540166 0
-174.306382673592 -32.5128592959305 11.0759259128643 0
-48.9830459377721 -19.5654789516448 -15.9478098640289 0
-96.5983733686039 -13.3457921011848 -20.222788091615 0
-30.3962234053708 -16.7652581063004 -21.9436802681137 0
-154.239466721696 -7.29036160283805 17.7244216438321 0
-19.6670053421791 -9.2671838727673 -1.78282819239356 0
32.8448440456928 12.5616905131144 -13.8404229673032 0
-104.106300005269 -0.966709845386687 -19.887360920461 0
-215.50563375792 -26.4036883830407 8.01616697504534 0
-139.892110024867 5.87539098729841 -10.055264685372 0
-39.3897023041761 -2.43540705679094 2.75202238560676 0
41.0810188612697 10.9012228960686 -7.23673323172142 1
-171.527132516669 6.43854078913195 21.6070880098006 0
-168.092164558041 1.45583831170946 -10.8456576651275 0
-197.888491267266 -5.70414409276614 -15.8265895019101 0
-22.1724026107932 -14.8915618082812 -8.12991125420886 0
-193.705540434708 12.8205021865147 -11.8284695107262 0
-21.1645977793349 -7.77766636219765 -27.2275603662824 0
-62.5492741945381 -6.9441522401892 3.9759453017916 0
-66.1070214289295 -12.7442945562718 0.291558136810133 0
38.3961340406782 10.700473660466 -7.0951803012943 0
-173.112676566734 -31.8745876658892 8.39218577077167 0
-187.830202199042 24.3404363688206 4.22534324028153 0
5.57869714380446 -5.17243769072961 3.65952003032816 0
-168.008369211755 0.913943759294662 24.5615085433021 0
-134.068520775508 4.35982852941066 -11.1322819357013 0
-202.168669444498 -27.6626126946216 -4.22456001528143 0
-209.776509703775 -14.397545063145 -6.9883057208998 0
-212.704998674494 50.8421388480488 -5.99074976006969 0
9.4783647625362 -4.75523815225592 3.6866848873403 0
-159.927922356035 -27.5146525504312 1.9605785361991 0
-215.765621566551 6.38063623000047 5.19893528672945 0
-115.688662607514 -22.2517661774715 -10.3233051801748 0
-125.418471041627 -23.0120398416705 -7.89516502749542 0
-16.1098173290927 -17.8369281150794 -19.0676366958152 0
-128.60048941509 -21.1157970998216 6.36066658431435 0
20.6106842033319 -16.1765229842348 -20.5910467912906 0
-48.2191629872848 -15.0815709064963 -5.28157005240546 0
-186.705339276575 21.1884880948563 8.39943344616285 0
-158.132567512155 -25.6026166292499 -3.93380681027209 0
7.41870885445423 7.66980287129874 -23.938721377046 0
-211.885106188761 21.8323600542049 23.7340376486659 0
-215.944999133162 17.3845812628552 21.2587143568798 0
-216.911453374312 -17.0578722365471 10.7201992860438 0
-160.902615820931 8.01255750111538 -10.0229801168254 0
-173.294220455469 -27.6827029822482 18.2208056730169 0
-200.31462166055 46.7081084014532 -10.5057124330659 0
-58.375778468994 -13.1090865530428 -23.8995492855433 0
-224.441944550778 30.5482915223864 -19.5803027048501 0
-0.734741916083684 5.9146266692548 4.00669164607756 0
13.7279143344526 12.2942305580706 -14.1086753046753 0
-168.798725148775 7.36860623023635 -10.6306523780135 0
-189.134549864391 -36.3775679867614 17.0192259392026 0
-191.247113225569 36.7840376030116 -8.03992268720623 0
-159.430558773153 12.4844688887201 6.75476123569279 0
-225.735016437705 18.1177772680968 -15.3669913002409 0
-214.785387716995 8.19349263804686 -14.5028251107692 0
-39.3085992071871 4.62058870401439 0.578642473189954 0
-139.598591415721 -4.25043000136923 -13.5390666287655 0
-187.099482874681 -37.3157272384807 0.305285169545055 0
-159.536100769856 18.3199612322756 15.2275244730179 0
-142.410037904832 9.01277487987705 -1.5726605736471 0
-157.532789357079 -18.3166073032968 16.4046218545886 0
-93.131913070615 -18.6255412942399 0.0492251692796074 0
-206.879231953032 15.5242688326394 -18.0171584977853 0
-218.756043502073 8.62251788685532 -12.4610949481213 0
-18.6491964436778 0.999079073965774 3.49381273893693 0
-143.471715092124 -24.7163781458262 1.42692633071823 0
37.4740442548784 -9.35256929031879 -0.877966528022228 0
-25.613808981216 -7.75503692036879 0.780599174063844 0
-204.160839213113 26.7798200553621 23.2110013888783 0
-164.799545541768 -4.15932130366044 -9.55478432164878 0
-28.1217729811336 7.86947048608868 -4.26366327673973 0
-83.5263181768013 5.32910678517237 -18.2309251197273 0
-126.221542023182 -4.70564866318319 10.232785266618 0
-166.754470727999 7.51730073066222 24.0948893159205 0
-186.975862203797 -12.5452470181213 -13.9804131342368 0
16.3673197491132 6.94262125657303 1.05830829446657 0
-107.771149621588 -17.4382321580291 -15.9141797250249 0
-208.146973038465 -33.6665400830954 21.9397799519679 0
-138.580467914775 -11.6677720047055 13.5892134239378 0
-109.36098839441 -23.5426871000215 -6.10540185151646 0
-214.036080699316 20.8301885538848 -21.4199397515735 0
42.184465744709 -7.26970117455663 1.74092404823581 1
-175.719108230738 -24.8251867021872 -10.1795615677798 0
-191.671632198869 33.307662489043 -4.43478191179453 0
-170.644920018212 -1.84280495574877 -10.8465027152566 0
-200.178870679682 -12.6228765127661 11.3709680738641 0
-227.037713446429 45.4638525212525 -9.68172418789315 0
-172.223309247575 4.35000104474391 21.8894759349418 0
-83.3912833136037 -16.0089905551148 1.29345292556403 0
-9.75781816399587 1.51084316698281 3.79296738246145 0
-192.661308472124 37.4471504848833 5.52522946862315 0
-193.011303094131 -18.1933360718388 -16.6487109407879 0
-194.826087523489 -36.1624457717533 3.82253427189239 0
-63.9193027414906 -17.3718101827189 -5.31199349516395 0
-224.458834267021 26.8888442413721 -19.4678114906505 0
-13.6636329681884 -7.11600989707796 1.95241455537393 0
0.327522355024269 4.44732094583232 4.01022728289739 0
-45.4965526104198 5.4477192032097 -0.60156504724785 0
-164.688561769801 -27.4614404718276 8.62262533853478 0
-188.598445363536 -20.2005466698005 -11.1143501260729 0
-38.0981479381948 9.436107942838 -18.7209541901755 0
-200.270833855978 -13.1121433491471 14.9103953475412 0
34.6642130891681 -15.6400630204397 -9.32416880158855 0
-86.8158197997976 -0.82294340319864 4.80424885471434 0
-208.833178013889 -2.23559137745274 -7.36688761742727 0
-134.932716393254 2.58666925585628 -12.0182053242466 0
-234.155762956519 35.8611551018995 7.71765032428539 0
-200.442142981648 48.7487394669885 -6.55204252619284 0
44.2474373030672 3.54079100154539 2.82668751344298 1
-69.269522282447 -14.1503545937035 -0.329093906007506 0
-194.379051374293 39.3510868992408 -11.5469123489865 0
-184.501878209334 20.4436655303927 -4.24765006509191 0
-171.789197490665 -5.26438706017403 -10.1871183020409 0
-197.504988854785 -3.05721416114543 13.7880252597549 0
-165.404580519832 -29.7721547809406 -1.38941806398048 0
-9.72314455962749 -13.6492968905993 -24.6714603654188 0
-191.6329091827 35.1399129978788 -10.3296893060884 0
-83.7091980480554 -15.1605921491145 4.94092609323136 0
-56.9775773062578 -11.4040379348212 -0.348793568753683 0
-186.218793147935 -26.6131772180301 24.6402677901931 0
-203.562008752516 50.7277347932055 5.14082160509292 0
-162.266263418372 0.914738236554363 24.0110081754944 0
18.4669916144632 -12.6400315156268 -24.6578991773883 0
32.6675710149474 4.06456514836298 -24.9230089627949 0
-42.6070373581502 3.32403172665904 3.4571484942234 0
-184.400818677532 -3.91899956870547 20.4163436354436 0
-196.031729878269 26.5835685846044 -15.957112472653 0
-226.781407239073 27.7773350995062 -17.9373931588714 0
-100.304931677544 3.40113148294465 3.23650721559585 0
-141.840219384672 -15.9477138674089 -12.2114960137153 0
-199.620619674818 -13.3500831004243 12.2124148629201 0
-166.96841443888 -4.94044459108979 -9.50083591013828 0
28.6251359517959 10.9858077559743 -7.86818485801512 0
-99.1332283615748 2.98908588049593 -18.0950697626592 0
-212.227385783363 49.3501907517811 -11.566360321773 0
-197.374409972626 14.1705179619068 -14.37060557272 0
-198.922334254261 -15.1598255228931 -18.0790677869355 0
4.26354497501517 12.319630181896 -13.6926330121503 0
-30.4722941410386 -1.29943569061235 3.126585989886 0
-211.101741582071 32.7295950360416 24.1631657397747 0
-192.021798129468 31.609426925803 -11.1779069510106 0
-178.766276127678 -32.9752506208881 -5.1336579606433 0
-47.1944144429556 9.96825882558151 -8.02696444500046 0
-169.371938879204 -5.05533447955396 -9.67312795020174 0
-160.354207486711 10.913625136958 -0.934879686757457 0
-37.226012767066 -8.69353395474786 -26.8015748926329 0
-199.351581146393 -7.78088909730081 -16.3561112714262 0
-143.949295278019 8.84227812442312 -4.07587581139894 0
-194.434517762233 -0.530897396510766 14.4042639899117 0
-178.581557361211 -3.04944416225294 -12.3200440157642 0
-197.731817525082 -36.4215442384908 14.1419869889242 0
0.140672006116416 5.26806249555817 -25.317771819473 0
-89.7994446599332 -18.6081685384655 -16.8575646778981 0
-158.022607118617 -9.54917685721128 19.0163093210615 0
-155.825632202903 -18.9265580272349 -9.35587284035476 0
-199.795367794145 -35.9066428184453 10.488452206239 0
-223.996202443642 49.5641698227356 2.40137326150117 0
-39.2748085840111 -14.2755625047809 -5.81915826069737 0
-214.123094962874 -27.4711285334041 5.67690288202445 0
-177.521835666214 -0.764888301558842 19.7003203473726 0
43.4490230852937 -16.6344511829157 -14.4711129513584 1
-46.3872565670631 -5.42759019227318 3.11805580983797 0
-207.840262642254 -20.7951789570802 -8.89138222611842 0
-230.502264581005 25.1988349901428 -13.8172631976597 0
-35.2960829266781 -17.4062237872058 -10.3225740287711 0
-170.351450649801 5.7882957597868 -10.5975264142319 0
-132.307087374834 -19.4364002513584 10.7050122523521 0
28.7748885365876 12.1268076394764 -16.8907554191212 0
-113.955517890501 2.74844336289624 5.43726308620966 0
-171.768494618184 10.1035180840335 20.3228884270779 0
-85.0995871412386 3.03664781905866 2.33649785115137 0
-186.235981167022 13.3308359144294 -9.78334327666261 0
-221.497429047706 28.8936830106623 22.3598331798885 0
36.2629773368105 6.54885994929838 -1.5115722617562 0
-220.443736264886 46.5382088063486 -13.3634720411183 0
-235.276900531346 29.3709812950039 7.02642524082619 0
-185.687376785618 -21.5678792001848 27.4099365764773 0
-230.628711420292 18.7305077374319 11.4068404408975 0
-105.294290442546 -6.50432634800746 6.79177717779706 0
-213.623455255937 -17.9426218050989 -5.47544853099279 0
10.2818041510424 -12.098677878187 -25.2277185264126 0
-152.286014683652 9.36745708653329 2.63467727404653 0
-192.789578441958 -11.1734140356975 -19.3072486019788 0
-98.2522859302734 -15.1437396574249 6.36099511412212 0
-94.7634641320459 -7.47695203313247 5.89922601029539 0
-228.71041399609 33.9466040055584 17.0830137834894 0
-162.984250633255 6.44434908869397 25.1063375645101 0
-235.801634850708 32.215665007179 3.28841533749572 0
-229.263818869859 27.4352211811988 -15.6433265890857 0
-119.419615867517 -6.39479245114945 9.19049596440076 0
-66.8720304552196 10.1384224704597 -9.27842927447097 0
-88.6258113645708 -12.3886494383665 8.78584128930071 0
-1.78233732174923 3.60048925724865 3.57625447669582 0
-102.958418809024 -23.2176410861156 -7.1888546062854 0
-182.963086058043 -4.80514106986991 23.748784931407 0
-89.5117511863598 1.19997407102945 3.90765071826361 0
-75.9051957405192 -10.5405740933761 5.08595825431372 0
-215.730839375001 39.4919889164536 21.614269875541 0
-69.0520559560896 -3.18781816727873 -25.5332162473911 0
-112.967193579138 -10.9012741443111 -18.6812470651371 0
2.2932110442342 -1.53109283833315 -27.1585833022478 0
-126.590658451732 -10.0588817290502 10.7501578880355 0
-102.441071246367 -22.6775275424689 -4.26568259931598 0
-139.617951141658 -7.85944070640883 -13.9554518259057 0
-196.286865586168 -29.3783852402603 -4.18903649363887 0
-195.721039534758 12.0664798249602 14.4824223875247 0
-196.190452019485 -12.1010731096363 26.9178035811538 0
-62.0253000041349 -19.8322745530951 -10.1765488744478 0
-185.415729626638 -39.7290298154969 12.1934977640532 0
-184.922831579505 -37.310868139705 0.585679573211234 0
-211.111645969387 -17.2704593989489 29.0068812060579 0
-233.085865501009 18.4979597649529 -3.29003064587384 0
-219.506387425277 52.4191967217639 4.92589759102662 0
-206.870780243833 -27.6698421642468 27.4177875489362 0
-3.24711248006796 -8.39813892584294 -27.0549180072695 0
-174.884517114043 -27.5342474133219 -9.09839622649429 0
-211.536266634456 -29.6163306133824 10.931481907064 0
-166.818819217362 -10.5019484662096 22.9370272940983 0
-199.176900396462 -12.3938421058638 17.0859119312265 0
-150.013885945724 11.8009410029566 8.12711666721059 0
-151.948669982559 12.8737871985565 7.88227186942875 0
-183.355670513386 21.8222038567436 4.67234132625084 0
-222.655309660723 7.39200913969015 -5.27571827815112 0
-212.609435067851 11.5313572778218 -16.73289361807 0
-212.295862513603 -11.8874147905973 17.0003148901805 0
-206.278565037515 43.2197801432327 19.1315509767543 0
41.4227599708884 -1.25868055910513 4.37105626679971 1
-221.989846593651 19.2860924245653 -18.5382490981644 0
30.8075255208099 -16.415528025643 -12.722510160754 0
-172.316740034774 16.0619985603119 1.04012974192016 0
18.9078268747697 -16.6235934908844 -12.3778530733279 0
23.9669859055356 4.61963844342466 1.76560337685119 0
-91.6391815987891 3.4673190125202 -19.0346430873378 0
-20.2101794485681 0.0931098922465697 -27.0778446436241 0
-171.4754401877 15.0752324897113 -1.05407775709652 0
-111.934356042534 0.893482321083809 -17.1020801777675 0
-157.501403018831 -21.845232101802 -7.50754967526973 0
-131.810711686636 8.04003839131741 2.73621788611776 0
-230.077642200089 30.9602821214681 -14.8581860811654 0
4.07027179815663 -17.1540107519862 -13.6499156381621 0
-218.413078548488 38.6345425514157 21.3775842788953 0
-140.909701190656 -20.7901619585064 13.6367288537181 0
-102.832305529847 -15.1719931765777 -18.2149797854568 0
-81.8256815959139 3.92033754224592 1.55503775551732 0
3.63409707209375 -15.952480198296 -10.4562449799289 0
-151.105030096681 -10.6133306822058 -11.9103302154777 0
-208.068538906599 41.6323656987574 20.72080133456 0
-194.667222965191 -11.1217410413831 19.9172225519871 0
-219.410028237384 -20.7619198115391 5.52225259200544 0
-214.364792011552 -21.9381774442134 21.9600624939672 0
18.1829603356117 0.904464930604295 4.22208230093604 0
-180.434165500327 6.83230718889578 15.8588744656124 0
-183.085049453962 -6.97547458354207 27.062166595991 0
-200.032676794759 44.0994684812834 -13.6941733647809 0
-176.915377705622 -36.2470652415755 -2.69305054870934 0
-145.639150089645 -21.9572348921752 9.59263829957463 0
-197.061646729749 -27.2225618015409 -6.15154500140786 0
-182.432192876698 -41.1917813890501 4.61988356561156 0
10.5982207172061 -11.3891033749106 -4.24258852728566 0
-154.726537461585 14.0900332070193 11.565362830006 0
-141.655862905829 -21.3095010319717 10.2231485590115 0
-176.643502458046 -21.8864349920099 23.7338746322475 0
-150.506768515362 -16.262812031876 -11.0315488373116 0
-231.650328608952 35.8729556482664 -11.4920868897638 0
-214.601868928685 10.9883976950415 11.4848173637176 0
-118.325524665084 -9.88512022096673 -17.9392695085784 0
-141.309588088147 -6.09393461336175 -13.4471337037754 0
-230.395253415211 33.2067729494228 -14.126021838619 0
-150.912269926522 9.40635894995727 4.32137347736931 0
-118.198404501922 -13.2888056591039 13.2685120559717 0
-181.513098231376 -41.1315640633954 11.3576424358751 0
-176.426561835834 0.242783830061402 -10.7638961387638 0
-60.1510899503027 -3.35462753258765 -26.2412426410176 0
-215.9806792678 53.0707785502895 2.06954526134285 0
-182.332822212941 -5.10952607466988 -13.6091823270557 0
-92.7889354326047 -20.3720946267261 -14.7428919012677 0
-204.845980150578 -2.41108009891493 -10.8686296157822 0
-5.00097577341153 1.52297119854417 -26.629820892226 0
-226.018924820933 49.153797392649 -1.33502126469987 0
-208.344815999132 -13.9111214429502 12.013612373668 0
-149.116740201628 11.9483318759591 12.6066607929668 0
-213.762975431107 4.31665574303901 3.43351632171069 0
-214.923770947593 10.9258056462225 13.2833324187333 0
-203.071241729551 -11.9967190109131 -11.8610615014507 0
-167.455969276362 -28.9994210238644 6.95567058791451 0
-214.273008545588 10.4275764312269 -15.9620199772448 0
-136.909838800177 -8.129745364023 12.4328193947193 0
-174.784901569957 14.0936905940093 -5.37822750965565 0
-149.508269316037 9.14304102620411 1.86594171915552 0
-107.624619232239 5.99863656278669 -12.6036553111241 0
-68.367584068222 -20.4214527070739 -9.81785784937919 0
-132.104152399305 -1.93033304854209 11.2731641025334 0
-214.744100456465 46.0823284911837 17.1602817517462 0
-220.935273101421 6.38308763874908 -7.06703410228998 0
-2.35024191435594 5.57336918350892 1.48623424435438 0
-24.3679478240907 -14.5424058746347 -7.45300718070486 0
-208.933494824317 39.1091782311459 -20.8053133518551 0
-101.862271811993 -18.8488629538697 1.65279075599744 0
-57.0167512675175 1.18643378307726 -25.52005521455 0
-89.2182840310117 -1.19050305501529 -22.661010133721 0
-203.425155324885 -1.94208320593187 10.8956855670363 0
-178.641761256413 -31.3486719546839 22.4924927274302 0
-2.35109086491447 0.334940655670243 3.87265034171173 0
-144.949551338184 3.78270322022802 14.7849408993748 0
-187.244930598301 -9.75545746582951 -14.9765211842887 0
-188.692959681799 23.0828786606706 7.28560291219252 0
-147.385242902084 -23.6997818741837 7.09976418679777 0
-63.4750931361716 -10.7372149372095 1.67953649942816 0
33.5638548879851 -10.9662728964298 -25.0782597305456 0
-172.664401491323 16.8737114318614 9.89933633524194 0
-119.949483521829 -15.5738985712619 10.5686376285627 0
-115.758014342166 -17.4083105578927 7.18779696291239 0
-115.294001890638 -23.6545850755417 -7.07536369350615 0
-10.1954892660182 -9.21085740108005 -2.07255371020397 0
-147.530974355488 -19.5823934031648 16.2554708107739 0
-194.784381547971 41.27868282723 -10.2836496201467 0
-167.630366012039 -8.82731976854879 23.9013520946475 0
-28.6090808182105 -4.78677034624215 3.2147390570126 0
-63.8934036384951 -15.2986995707717 -21.9675958995292 0
-54.3661362308774 0.189486767972034 3.13431655787051 0
-212.578463741712 -28.1688086965652 15.012124299185 0
-227.511480162877 19.9673538718167 -14.9285048605044 0
-36.4373135088251 -12.441790056018 -25.2713815153484 0
-146.207374495806 -25.1279824577576 0.278390538379915 0
-114.698626280617 -3.99729469905619 -18.6492880438262 0
-164.511022017289 -22.8451566471739 -7.83339951196725 0
-167.322622489569 15.4404785924282 6.3982684370935 0
-58.554481944522 -10.0093832329058 1.46509466762988 0
9.62228082633205 5.08488666132102 4.15713556541752 0
-166.490452576632 -6.67219226367327 23.7316396677144 0
-192.342477910412 -20.0808429213217 -14.9368360039558 0
-226.528747061485 42.9431929334942 13.6719140920703 0
-123.993156344702 7.24695770336338 -8.46842590611807 0
7.94746264788999 -0.62443147975045 -26.8142149600767 0
-71.8503635273147 -12.195503550721 2.86345234624475 0
-35.8495502606656 -18.5542192591802 -18.1991826292711 0
-225.652844551102 36.2451559005952 18.8131506198809 0
-196.76543827325 -25.5954837483455 26.3407341990146 0
-206.587699795727 4.04937195267243 -13.7611633421244 0
43.4687000206865 12.0530546266793 -17.979663350976 1
-37.0852491831379 10.7344504094932 -15.1085718605563 0
-195.59400491314 -37.8490138010004 12.0495980794249 0
44.9086759640311 0.828922112406601 3.85158786948898 1
-194.894083023148 -9.82159758363695 23.2421707932658 0
-215.309817366317 12.1264252690713 -16.9688104370719 0
-99.3981456970238 -14.8789444582182 7.5837507813207 0
-208.004849745829 16.2977799886421 19.9942541124109 0
-172.662851281045 -33.8361093758353 -3.6411849849792 0
-208.526141828586 20.1518585288817 22.5174578915815 0
-129.811908217113 -19.1661883216247 9.95529189475745 0
-196.479121387705 -22.1832213448439 -13.495930155883 0
32.4496590276367 -8.9000255012136 -26.0745679237747 0
12.5718217912975 10.0625199784372 -7.15754852732175 0
-28.590096783902 0.299261579613139 3.4234597152218 0
-117.607922197671 -3.5770223805465 9.32686678585924 0
-96.7466818396138 -18.8584179218825 0.572402739253418 0
-224.412281562648 19.3775850520294 18.3876088164053 0
-156.308352837103 14.7299762445692 21.4727464851763 0
-20.7879552283103 10.8511411661452 -17.5800727175643 0
-21.2053809433296 -16.0467427698403 -9.76259405508107 0
-213.935842206336 -12.8377430328993 27.4520340777032 0
-60.4595289491601 0.451029190126003 -25.5591533619974 0
-209.341667032163 52.2537375187446 6.16374231647237 0
-149.084603288842 -22.2682013541836 11.3649541055952 0
-7.65236426307427 -4.00692091471712 -27.4679016353919 0
-204.61146989141 -13.4818392534871 14.0282006367429 0
-232.841890010455 35.9691093154842 -9.4635974271133 0
-3.435675025935 5.14511652071135 0.203384589801865 0
-101.701014195609 3.69336233545738 -16.6333162941203 0
-225.593643229916 9.34320756913412 5.4634094389803 0
-153.328278406772 -22.3141440074883 14.6323227267431 0
-65.7625510770359 -8.40316283069472 4.1200891660733 0
-172.994706903393 -28.108723632525 -8.84333860226064 0
7.62283749415159 -16.9081134664861 -20.2038479840316 0
-174.322508030098 -39.8706130677992 9.14510515819947 0
-41.6199303435866 -10.4769171543188 -26.0808902732171 0
-197.365853283412 30.4059840734719 12.1989291746443 0
8.35546876180474 6.46121982767273 -1.08156756993658 0
-174.389882903061 -38.8901521107349 13.458216186528 0
-107.868389405246 -14.1133193966307 11.0082795717518 0
-93.2270520060622 8.62668035171849 -11.2287865376468 0
-75.0568660881244 -19.1540002324106 -17.1708857598303 0
-188.701496595807 21.7391838448632 -6.90266095529847 0
-170.919426719923 0.0187905220731254 -11.1546986567072 0
-197.207525457622 -0.671484423359868 14.203480763805 0
-182.288011536734 3.25928284649561 -9.80964563478035 0
-136.773777467226 -21.302776971936 8.76509612478849 0
-101.281734790309 -15.3416205089743 7.25883130853305 0
-192.82740591417 -39.2445208979205 9.80417879751769 0
15.7831866883881 -10.0023400011815 -26.1493834302881 0
-21.3693242006425 6.28377733441774 2.43394167941024 0
-215.335359832941 -24.8556964337388 15.8932659979748 0
-153.136152543956 -21.6583656825091 16.3767428183487 0
-187.337793490614 0.0614181560155173 16.3329007947285 0
-171.969770575138 -0.474550004238323 24.6973608424002 0
-167.075433267688 -29.5245953194238 2.57810281309789 0
-47.6259324527921 3.64800273366287 3.29821091319374 0
-129.38850681922 -14.4227951037126 14.7379925954016 0
-191.077153972344 -20.475619817853 27.8409315982536 0
-137.576575490939 -23.810753298055 2.43471638856516 0
-234.110320657878 22.7911748241468 7.73374298856614 0
-165.649992373984 -18.8970088118089 -8.94824907046432 0
30.6334090278376 -1.03892501338359 -26.543559565073 0
-63.0239009694963 -1.87668670063525 -25.9194356128207 0
-157.296946588101 3.65972546143296 -11.5072251254195 0
-211.90920282197 -16.0119261341694 -6.53650544859252 0
19.0595389963559 -13.8215718769215 -6.82891354866138 0
-202.12103724327 21.3093555267824 -19.4247637422404 0
-159.83814879891 9.60827024405891 24.9000827209723 0
-197.307384615061 25.5422999240105 12.3900531009172 0
-192.234348465788 -15.5279060771457 -18.3930052737968 0
-148.860832303105 -21.2414018600779 -7.73513789281598 0
-197.667913140223 26.2231009549711 -17.6063993353101 0
-137.626906008446 -15.3159140721158 -13.0239083529741 0
-210.960111337141 -20.5594455524721 29.857421545507 0
-107.708948353829 -14.7662222569554 -17.8319985392336 0
-183.839817076058 -7.81509516839906 -13.9811050176641 0
-199.930248085302 -7.65812090362718 -13.8906883470603 0
-121.164238510666 -23.8672991936131 -5.91287641609905 0
-93.1307257568987 -15.7602970712694 4.51866655535264 0
-218.303136886926 -21.8770563856659 4.743118433481 0
-74.1611274607516 -5.11707966880337 -25.1026215907376 0
17.5291204984555 -6.76582443345348 -26.9805312575244 0
-206.599677852447 50.6091658238337 -6.99059117633081 0
33.0060376986552 -16.6253410331847 -14.0263149751375 0
38.4569894990729 -15.9448061462378 -10.9085380496041 0
-167.786097561274 -14.0908641253587 22.2364953213633 0
-170.80766404365 15.682513136815 15.5028939395707 0
44.2213007952131 12.8112735723883 -14.2410878838271 1
-212.524605103733 -25.8636215114518 -1.74438824972667 0
11.5216318796622 -3.25719943750211 -27.2127310809837 0
-144.888499460039 0.94003956429229 15.0768369613773 0
-133.916064414023 -5.89806612886707 11.8618714656562 0
-79.6114931410858 -13.0020666335791 -22.4498525108504 0
-56.7899862224655 -8.71098761614546 2.60767326289983 0
-79.7532073767045 8.09240534749616 -3.62185332165194 0
-182.83119170928 -9.34367325655839 -13.0074114263642 0
4.39504858316665 -10.9546487948811 -25.9991965601947 0
-171.949038895826 -6.74805534541056 -9.60570848925429 0
-210.320416308521 40.3356524492712 21.633502572444 0
-110.988563901727 4.64779477375132 3.2405338476249 0
-141.69024623487 3.87232027980885 -10.8843383056105 0
-205.988051350021 -10.8990036020114 26.3144921170213 0
-160.410361705375 9.40923893816544 -8.97305145770323 0
-168.515825614403 17.3881774313413 18.2232679966634 0
-146.715142144992 -19.8589478375445 -9.0443028409101 0
-219.887431593565 19.5216270820003 20.9678108109359 0
26.3429136622907 -2.90637344399428 -26.8224961063893 0
-17.5265611492065 4.48953138449554 3.34080138114038 0
-61.0182247658359 -19.8937783145844 -16.1315216698246 0
-136.307652729327 -20.8967709556086 10.6663445612059 0
-217.174194040308 -13.8753775863305 20.673725983657 0
-10.2391077507356 3.3122394769459 -26.1964369219291 0
-201.371089341673 25.5725812973352 19.102084340358 0
10.0553497658363 -7.65573489477229 -0.352615246472721 0
-206.305090653969 1.17156753259401 -11.8230460791449 0
-13.1671148904116 8.89251668205364 -5.62458692609032 0
-235.0424568663 35.9063047956249 4.08338679279033 0
-200.737577334131 -33.5312930983973 18.2706460521354 0
-97.1185010631672 -22.5359210116526 -11.0924975687434 0
-191.461987771136 -27.453256489426 24.7468511852617 0
-223.39148312825 40.4942279475235 -17.0114749729814 0
-184.28879680815 -5.32306129281761 -14.5197962624427 0
-231.200384705524 21.5026998269121 12.7243222404738 0
-182.749373712155 12.4921601667781 13.1901304559907 0
-48.9666781236147 -5.69086074125207 -26.7374770994737 0
-219.139311495097 53.5179529992557 0.772828852104207 0
-184.53860029725 19.3500581282931 9.51299497681442 0
-171.545258114107 -29.7180227851383 13.0890583522156 0
-16.855082626755 10.7934333993305 -18.0439156869359 0
-10.8950315813553 -17.7220016881587 -18.9676133755497 0
-193.51994034347 -35.3482072046511 1.42547931646769 0
-87.1592946624935 -19.4159572348944 -16.1024932610308 0
-188.988372142561 -5.66466510535473 18.1562155434658 0
-169.840760855315 7.23797778092836 22.8376768665569 0
-106.234498194232 8.44989209810731 -6.21867279489566 0
-209.534819486486 1.69659222119686 -10.9117561405815 0
-128.212707049505 -15.845598747147 13.5903699041146 0
-161.920110390656 18.7256307998896 18.6841017486164 0
18.0852733347944 6.77459867736705 1.66587255962389 0
-32.215032534595 -0.428430210569494 3.25504461576973 0
-96.7026398001738 -13.1895610897014 9.02422836312788 0
-172.65583775339 5.50875467166256 20.6569057830615 0
-143.617829955686 8.87248419066847 1.65189804983577 0
-104.62015394762 -22.0823340370475 -11.6718407325955 0
-201.648859315594 48.1078436168348 -9.22964211011133 0
35.9866076843007 5.34363916815782 3.15762366247333 0
-185.978105055861 -34.1072232724824 20.1467588194956 0
-210.054296668051 -24.00295816643 -6.34013578308879 0
-215.752111982021 -17.7999784260034 23.447147488835 0
-185.634883901739 -2.98315837811084 18.8629414040551 0
-218.574166281942 -21.9521242309385 9.77859393229138 0
-142.962711840143 0.92233164877079 -11.6475502904336 0
-169.200555164353 -18.0428412738918 21.3101053906501 0
-102.761133808727 -15.3722227239985 8.01222074739711 0
-215.826104038366 43.9032237967283 -17.4896146236084 0
-203.082115198381 29.1769636465963 22.7659101195221 0
-226.194133003535 44.378463155528 -11.8232337999526 0
-200.822585211987 37.9052297160476 -18.8486442495186 0
-206.904195746843 53.3675270312528 5.39643655490707 0
-51.559794888237 -10.4934978626881 -25.6935068131749 0
-235.304228820769 24.5202956000201 -2.87780881821384 0
-155.197730809469 -21.0315439014451 15.3012569303424 0
-159.659238016482 -3.51902969907798 -9.94484892089172 0
-80.9398610709764 0.537781207249627 4.52637100760143 0
-128.250853224377 -19.7021299294098 8.29456422739721 0
33.7018748406672 1.5922371725744 3.87107818167964 0
-164.004337824092 15.4362746326531 23.7426123717206 0
-228.524828229313 18.5437867406974 -12.9057121639941 0
-158.707609584995 9.87007172283429 -8.11046420073605 0
12.9818004345819 5.67381071674537 4.19976300216207 0
-148.412301068282 9.63428366343892 6.95909719325309 0
-34.2247051298145 -8.30417497959079 0.378813391973898 0
-186.278132016649 -18.6036619266877 28.550324679847 0
-199.31747860474 -20.3859881521401 -13.4726411064906 0
-114.384154333033 -10.6631876759326 9.72862599305009 0
-222.74758692571 50.6298449465277 0.10134966626398 0
36.092666267207 -10.8347270613972 -25.0056585386284 0
-125.799866200343 -7.48218614009152 -16.6802732504707 0
-210.900708797832 31.8847309920328 -22.9386172736848 0
-104.528997185152 -16.390938913005 5.98018308456484 0
-166.367463674181 -14.4535492572261 -9.90598741650274 0
-175.15922347689 -36.3816754692507 -0.91755162219975 0
-203.457366770421 17.6242864811352 18.5846491152492 0
-154.069132481858 -25.9761517975809 4.56689851262389 0
40.16655184575 1.18773708002326 3.79816806991375 1
-137.177313660635 -20.2040356300027 12.4270263361694 0
-24.0724102403219 5.69819978560051 -24.8600795754038 0
-140.199734714642 -20.0723527383122 14.7374811382277 0
-61.283533410079 6.98243585760249 -2.02332484886116 0
-94.7380661280925 4.47375922060767 1.86028334032922 0
-214.296556919725 -24.8327826001543 17.4121497834193 0
-111.066721745163 7.13617375758302 -0.382263156126253 0
-49.1868842540243 3.32861120392311 3.25769752928497 0
-229.930695644735 14.9308445002411 7.62717114861408 0
-226.284878096315 24.9931623580031 -17.8845976818174 0
33.6573434141112 10.9341609838328 -7.79832988910398 0
-185.47570234191 6.17921679069384 -9.59727894551608 0
-192.238689158435 30.7090523750332 3.52997480053834 0
-25.3745066657839 -0.495761209492148 3.30752187619457 0
-205.822418777816 51.1132244731854 10.2526190991923 0
-194.602498965291 -31.7194490446853 21.6990420979465 0
-187.190547972295 -6.77366244891167 25.1496817754312 0
-79.561210830025 5.71043506593752 -18.474605236509 0
-163.245588418948 -24.3568368728822 13.650096133483 0
-134.207440237216 -19.9878956609032 10.883325319967 0
-52.2032787114656 -5.6202723849972 3.09946295843241 0
-217.660401012794 52.2062494332047 5.81940584533948 0
-149.249585259071 9.20440680113318 5.19646907677836 0
-125.346506543563 -14.3682848315166 14.3985322722237 0
-163.909233872599 -20.5499492859302 -8.44410537467232 0
1.86137694944778 12.0547318431464 -11.6338110398315 0
-181.892614233649 18.1893728140424 9.89886269402616 0
-45.7328929255822 -6.32250714215435 -26.8740682274929 0
-215.15906552173 22.7620188232159 -21.8770738656953 0
-180.839648547869 -12.3872756876035 -11.0480691163713 0
-198.118960796854 -34.2057903670234 2.37474781970963 0
-202.666564900483 49.6835404840122 -6.75291092368795 0
17.4194231959227 -3.59781822737768 4.21515845890741 0
-184.808325800941 -3.10028728524449 -12.7849710708528 0
-116.135728593885 4.66680553718163 -12.8330949247216 0
-139.912560270301 -4.93734758458956 13.1284664831009 0
-160.501673397689 -9.27408891058333 -10.1566441619423 0
-223.884678641001 37.9768150276817 -18.0719862701656 0
30.3974784035045 5.389016312716 0.387338931702727 0
-121.014581914602 -22.9728625199446 0.524902138758933 0
-41.9886476581312 10.865520120371 -12.4245207351839 0
-231.314390695252 16.1190268790388 -4.72188460754565 0
-12.7977835806282 -1.49510368156804 4.03897266477137 0
-117.964467226003 -17.489103710955 7.30582601981969 0
-29.5005714154231 -14.4127144615354 -6.94814475506103 0
-136.344733527248 1.96894788731513 11.2812392824115 0
26.9854987094666 4.95858568786066 1.17617953289424 0
-171.342795553555 -19.4307163731872 -8.76497799955983 0
12.8985606178002 -7.48478221830037 -0.0497027394541395 0
-166.091394705176 19.0119476174117 16.9274388801074 0
-210.868222158584 29.0349931370768 -23.0738270928458 0
-200.402104502993 4.73864002924841 -13.1153636473017 0
-176.098234227511 3.31034755008474 19.7206911067779 0
-60.5230696270011 -7.24304164057478 -25.945778484157 0
-197.399045582437 -12.8231067382988 12.9123058928642 0
-197.176825373624 5.748590515024 -11.7041686450445 0
-213.562372265876 13.0192254488462 16.1679551494302 0
-157.471198176274 11.4623325924003 6.11520185445559 0
-195.226842749748 21.4819688460562 -14.278793444949 0
-176.310550723128 -39.6675844696084 13.0581476118803 0
-47.944567946174 10.8050882624338 -12.4369489050822 0
-228.136570814616 46.1092425525505 6.97667410177324 0
-215.958151935661 21.5553143348247 23.2246472579804 0
-218.209024152264 -23.1699028814855 11.0615562194936 0
-200.26837876052 -11.6178591534455 25.9263578946556 0
-126.316365797019 -4.76527143603966 -16.3272355576087 0
-153.763830237034 6.6355111738897 21.8289454194931 0
-54.3809046872259 -11.28166976137 -0.666077024414681 0
40.1318865339062 -3.26634571114417 4.63526069817711 1
-196.772740900912 33.0202781732778 11.591450034961 0
-159.011831658409 11.2689460717979 4.28861725713858 0
-210.889740530744 6.5292190967819 10.2283767935933 0
-22.1191022819204 -17.8112358345451 -12.9878148453489 0
-203.589517438534 -32.376298468146 22.9478588426053 0
-191.736270471346 33.6289599465804 -1.73588141924539 0
-198.624877185203 -12.6176446980401 -18.1586177642244 0
-75.6023816968047 9.39565925203477 -13.0776442663762 0
-186.632920026852 21.1915993460736 -5.28756333323677 0
-105.426551399164 -16.4086929310223 -16.9512973599171 0
-192.914035700533 -16.9573537177373 -17.8825671399498 0
4.73216456585669 1.80466528675485 3.79582260426296 0
-193.293866923712 -31.7351971050259 -3.61939756037398 0
-195.455951791179 42.2579603751879 11.690397721156 0
-189.163362414258 -26.0330543059644 25.3115084316471 0
-129.255158023044 -22.32241388819 3.57868918898522 0
-16.1733936149769 -7.34604879518466 0.859096962677158 0
-162.76790622775 14.5222259211235 8.03415025491658 0
-139.616078307217 -2.44316078897143 13.6132417979309 0
-218.054803258099 -23.7403232659338 13.5173274343477 0
-38.6576601656498 3.82519758464746 3.34031463427222 0
-136.84686493468 -7.83790527088334 -14.5529429844404 0
-210.708222620555 -31.3713196685855 9.66713822364609 0
-16.5575759160118 2.98330938548051 3.26025803311156 0
-117.603959207272 -15.1508412002183 12.3391436494448 0
1.9005895272548 7.16346939348144 3.22496466608886 0
-195.63537784734 -36.6359286034143 13.6973818816177 0
-149.813398214034 8.42750170052497 -7.63445548330981 0
-180.416506304495 -23.3854445071984 -10.1869307383667 0
-156.089881168407 -20.4675980322188 -8.39987454152483 0
-224.360804917919 9.35524898458861 -6.84994488003721 0
-27.9471219770992 5.70991637548243 1.71021294585987 0
20.0735318477392 -6.62765798154269 1.15950255002808 0
-63.8669057886022 2.92530192686101 1.79017312443349 0
-202.171569583878 -12.1998197106443 -14.106106788438 0
-74.066398012873 -16.7630006761805 -2.13934468632842 0
-195.854295455758 24.4816290856994 11.3798601866492 0
-183.355877800003 -21.0853050140256 27.2002045296136 0
43.2532808291126 -3.30317027334981 -26.4241965421825 1
33.0126515805102 -16.146992793261 -11.164906897739 0
-227.717195594672 15.8446272090633 -11.588075363895 0
-213.305601038164 -13.7466115113314 14.5314292422209 0
-63.8229860503817 -3.66873402845051 3.49631123832052 0
-119.575570237013 8.01407053428644 -3.59193390239305 0
-220.680400745312 17.4919329311932 -18.1921007130498 0
-151.248112409164 -3.58160295426839 17.0308723294182 0
-76.2276370655073 -15.0726969172556 0.455681574840757 0
-174.808257641583 -33.3303880192004 8.8953044427589 0
-90.973468004302 -21.8140510143327 -12.6512851900286 0
41.945225746549 -13.2570305385535 -4.96579602339353 1
16.4459713350528 -13.1740513801875 -6.03497819820389 0
-77.5057139038827 -9.78153939703654 -24.1640082817853 0
-191.474594340413 38.5414178330751 6.45746476827096 0
-231.212590247508 27.6478827209462 -13.4271524005748 0
-131.141967620751 -20.9291044547036 8.63541182166108 0
-178.440832698744 -36.5342461815898 17.7304180801356 0
-64.5090630331742 -19.7730907098445 -16.4787529220033 0
-163.169094938894 17.573033341695 10.9717931404213 0
-223.907292189595 6.93867164138611 1.41237455776211 0
-173.258548646528 -32.2107990008243 17.1011314710368 0
30.3079125699165 -9.77340599254127 -1.75004403714011 0
-198.270009651591 40.2402141727599 16.8831140791464 0
24.8926766551223 7.59823825405247 -2.77340743942781 0
-112.580036444571 -6.45786471224567 -19.3774878393249 0
-129.201474103575 6.48339244656559 5.02130597326285 0
-208.395390236716 51.7465013879598 -2.14643011869866 0
-187.073635503022 -1.98114045682377 17.358689981271 0
35.6598567788842 -1.08057763494366 -26.3303463086778 0
-219.707868389014 13.5761361544279 17.4071782304753 0
-218.482386453291 5.78121754609616 -9.7596691111654 0
-234.691502906372 24.7873842598539 -5.8751350577684 0
-44.6116301623683 -7.41909354307888 2.12922575877972 0
-32.8199914082956 -7.25406242591009 -27.1950919623109 0
-235.23847526376 23.0567372215698 -0.768433269024713 0
-177.153036091822 -37.007283114671 7.18773790991994 0
-158.518828626663 -4.25649808787499 20.9128163559629 0
-194.643512666505 -31.3110638924361 -2.93031320984448 0
-151.478457994793 9.27242340396733 -1.87830667880914 0
-16.5742015816326 -8.97845719530561 -1.64724053671624 0
-82.8379732555984 -8.88382748155755 5.47340238174445 0
-83.1746803216885 1.37418910284552 3.17404212932812 0
-70.0788044548912 -5.83506484185123 -25.4503132995979 0
-203.199222821998 41.3485477980654 -18.0633576534376 0
-199.915157251351 -22.9043798279554 -9.89220466352107 0
-209.475664691925 -5.0280264182756 1.28253925400325 0
-141.264344951374 -0.941627915872025 14.1397390910336 0
-194.692175014556 15.795625477068 -12.7029446456474 0
-24.6453788565691 4.63904459273212 3.57139820753753 0
-120.044328419297 3.8128080569267 6.81806017262738 0
-216.007335107385 3.70094870658864 -0.945346568576901 0
-220.105245453855 7.6413486371303 4.14198656049072 0
-182.840865043795 -3.69764712320005 20.9813494105929 0
-116.979853683962 1.44538797275688 7.57627080895835 0
-119.12932303743 4.3418956967809 -12.933155913629 0
23.4766143078575 11.8959699745953 -17.6995598484773 0
-122.944699514166 -23.7323668991325 -0.9400008786287 0
-171.464532396063 3.54269840174213 23.2617058371814 0
-45.9540316879505 -19.4091234001756 -13.9547659733966 0
-129.162895045273 0.350144042098732 -14.0063410654565 0
-199.950023412207 -12.9381672804857 21.452721379877 0
-199.544758576643 15.03235881491 15.5258206795274 0
-170.981775439382 -7.57815581205501 24.7650718366041 0
-203.744989008028 -24.6282749053636 -6.02255954013955 0
-205.91640757935 -5.55063841651178 6.37945780965743 0
-16.4389366865567 5.78004475725855 -25.0748975396637 0
