-59.2577940399346 -7.82706679851795 3.06850257969781 0
-64.8351651956506 8.56875399237912 -20.5218457231718 0
-185.915955322212 -10.2121293756196 22.7800724286113 0
-18.9937012957425 0.314070404682537 -28.4618349618094 0
-100.706254751708 -9.7181515010592 -16.8344343855872 0
-10.5820430429194 5.59285655415738 -5.82620201579029 0
-186.991305565737 -31.2407367916865 1.87952740320882 0
-142.046039696013 1.62269707902263 -10.8974948767323 0
-63.1703234623476 -0.736119847628558 -24.9631126773966 0
-200.649030959319 -29.7037978573752 13.6090624776299 0
10.9094765253171 -1.30877457571359 1.09326165401328 0
-207.322952517485 29.8579293209889 -20.3713588736767 0
-174.753755400967 -33.3404258609662 17.2502485036455 0
3.75394452746651 10.8907421080901 -10.0055606301751 0
-196.447046598009 23.0764963797824 -17.2617390460233 0
-34.2545115143594 -0.0785727666740231 -0.0310654520618784 0
-162.761843256401 -29.0402118829949 6.41807586726815 0
-165.214548692426 -30.7721379533659 7.53682600524839 0
-182.606692311623 -4.13503518363992 -9.55101902283329 0
-201.776472905886 23.6260378211884 20.549127151167 0
-190.715766788378 -14.7830416764398 16.5385357355844 0
-180.377006384395 -5.70319772900298 -9.24670138248467 0
-146.132611876574 -16.1405411586133 -5.68461111635943 0
-181.150643339034 -14.4036221724144 -8.15412102536115 0
17.3117131655915 7.64291859120635 -6.67391684607736 0
-148.646180349473 8.36138417888909 0.549824805161901 0
10.5963001912161 -5.68662174483052 -1.25929633628531 0
-220.34805349098 35.7634815590854 13.3901907813702 0
-140.408803596794 6.86521271118281 -4.97037232004835 0
-197.252238313874 -8.10523676068995 -6.99760459689199 0
26.2433471283198 -7.28368115377885 -3.73164420176219 0
-214.209850572678 4.16566900806925 0.0699676461997409 0
-218.927433856662 31.9427724349864 16.9424305016844 0
-146.28228139899 8.83685348785386 6.02380230626695 0
-190.012240797747 -21.0718237251231 28.2814582952195 0
-202.143134310677 -14.0791697470328 25.9420405470679 0
-196.809678455505 40.3128706215047 -7.22080513885699 0
-65.5595404602492 -12.51557103705 -5.48690073825684 0
-183.049506729865 -9.72872187787437 24.7101330150377 0
-64.462871777423 0.381463204080633 0.53153801091599 0
-174.799199671639 -30.7155795144729 20.2611035602756 0
-201.105212377827 6.05655426833346 -12.5117121103937 0
-194.534425954165 15.7357444545679 -12.1397764936471 0
-203.686480553342 45.063056975367 0.769101622102658 0
-182.848072675145 -18.6829985040419 28.2407714190387 0
-192.54690759357 -17.0295073496497 27.7791278951426 0
-77.7576179666354 -14.0504731895338 -12.8325744914245 0
-85.5170242108601 -14.893965094446 -1.6559883799071 0
-18.2575710150368 -9.99190529232256 -9.24684960801636 0
31.0746761601515 -3.02500110778327 1.88790757825301 0
-183.246267705627 -10.5246240709983 25.8193785346674 0
18.8671915397243 6.02240713146378 -5.49357242718504 0
-192.179907951514 -27.4454449825341 -2.33291715876418 0
-183.546995036342 12.9661640594261 -7.31678999051815 0
-207.049167972389 1.52439961556528 -5.80950284044057 0
-62.1883053069015 -3.12650366016732 -24.9978398506538 0
1.24291355600337 2.87948537582004 -28.5278673740752 0
-89.061918309086 8.34550464448615 -6.7137639903744 0
-185.394994177147 -12.0983709437327 26.5312185013424 0
-174.173191737966 -6.5418132898297 -8.53237121001842 0
-167.956672086374 -25.6616701719283 -1.58047053620974 0
-103.645344950894 -11.4638394497793 8.37760807928679 0
-63.9632976341012 1.84803258608737 -24.5829572880261 0
-180.550469681727 -36.8376648747188 11.9957916664959 0
-179.593120065638 3.50626592884418 -8.4504625045527 0
-147.734428319651 7.37544613059858 -6.98605096884873 0
-43.2329852689336 -12.2485368796901 -13.650453161287 0
-49.9532338150744 -3.99649336842003 2.50332730505313 0
-199.215384875653 42.2267762083879 -6.40926930706255 0
-159.3069276669 10.5802009605716 1.19309839922852 0
-134.750772353498 6.9802344989482 6.28748408715478 0
-165.943817580345 0.355374505669569 21.5447109259317 0
-5.80665054956977 13.1125863345473 -19.9894090845017 0
-224.149673066534 37.8059755639928 3.87065953937917 0
-143.778592921612 8.06774767862426 0.0315835849185408 0
-117.11709436067 5.56073695102751 -12.877568680472 0
-192.98353313412 28.4309184176663 7.92991592604964 0
-172.299759668436 -5.42831796519563 -7.88869173084105 0
-171.61889658061 -30.1624850772705 20.4634433444424 0
-150.239415384713 -6.93464484847737 21.3857562609758 0
-50.4819189916803 -11.4772409112818 -19.5762243475086 0
-156.370985366352 8.45210910235773 -5.2541101359188 0
-150.840497193577 -23.8264166451377 11.9529875752376 0
-145.017232401172 -3.81674250987811 -9.93913529567535 0
-83.0993051744394 -6.94281736014822 -21.167991088428 0
-98.2378305331022 7.14867203311741 -3.11132581494585 0
-154.593046988995 9.33335492594186 -0.169508316656867 0
-74.3781459125765 2.21727340423996 0.109731105280848 0
-160.865610214816 10.8241553174585 -0.0641654666686993 0
-82.3721649328683 8.32511325143464 -17.2645562579469 0
-44.5305896236132 -12.3851220760375 -16.6107670449336 0
-73.323634267832 8.16248941258222 -6.74749947372465 0
-161.060050793114 -9.31461749578323 -6.9013849996435 0
-91.5328642693155 1.31486363663104 3.10753981869398 0
-158.64495632773 10.2018106537035 22.6511217366143 0
-85.2830035288271 -5.72712022396463 5.20068398316387 0
-5.71669499573279 -10.5710237452357 -12.2806803536227 0
-82.5669721870168 -11.9050561389385 3.85026552250457 0
-132.884691472337 -6.80801277761215 14.9509908057191 0
11.6584713712888 3.82579695584608 -28.4386452227988 0
-185.08960672928 -12.7751650270567 19.8189959488858 0
-45.7312284520684 -8.25672573795401 0.129123218235285 0
-202.108117563595 -24.0137524720712 0.93583666311625 0
-224.546067974652 37.8698018911954 1.59022906619157 0
-212.876040771749 5.1197211282627 5.43347475570307 0
-121.930927790568 -17.4325023266952 -4.3495203613814 0
-58.2985475071494 10.524130619904 -18.3086393968738 0
-187.367733010442 14.5198222206241 11.7179527797237 0
-10.0244267726759 -4.82118933923555 1.45345074781179 0
-54.5004744705762 -8.6749758141159 0.746106772962938 0
-207.327447127482 9.72264853254826 17.033999774829 0
-32.0386490556541 -5.31166070855177 1.74316464898886 0
-93.4513219799325 -1.11943342519029 5.68132841930975 0
-158.0963688984 0.387517402987251 -8.5872735084749 0
-201.200540180286 -12.9399835477089 6.05175768547447 0
-221.284991415197 38.8048596633841 6.74013423434687 0
-30.5957761662075 -2.41559435866987 -27.7595798719985 0
-221.600439282698 36.0166187893393 -11.8548452052081 0
-192.135173765107 -14.4467430936198 15.2384533847374 0
-197.48672002745 0.800139489975583 12.1251481532303 0
-38.9245021286662 -9.81279205609122 -5.76619326880307 0
-84.698579381479 -13.6791536132277 -14.0606472032683 0
-93.82949017128 8.66715097576671 -9.15488489899247 0
-194.603630871523 -22.1880740959503 -5.89687821110579 0
-6.83570153047307 4.73345329044307 -5.05616923809456 0
41.6707173921057 13.3655998391778 -9.8288423762147 1
-19.6795117534567 -7.96621847944242 -3.98698235048603 0
-52.1406450990091 -10.6623976262511 -5.20544103014191 0
-196.049113470525 7.22048689977694 -11.8491813984901 0
-14.7921649539151 -0.610005073307601 1.25244798175815 0
-169.058764536172 5.50217656776008 -8.46726072250605 0
-27.3315169337821 -6.5878487119442 -0.226871207631284 0
-182.171885884914 18.5895385010982 0.701233078492466 0
-179.443006821539 -15.899050546863 -6.82266108123018 0
-195.07708072905 -19.5652117634514 28.9674359766249 0
-136.881381712209 -3.44981817198789 -11.4293647217468 0
-193.117145922936 13.8227736637809 -11.1546941989784 0
-191.461158304336 -30.569208121216 22.2517556225425 0
-221.049449876982 6.34062234066974 -4.45036359371492 0
-199.033633288666 -9.74932126888216 -2.40367294301066 0
-203.15143178519 29.1149729963797 20.2393974342542 0
-174.154063740561 -10.7354024343682 -7.01862015980116 0
-178.700227966539 -8.56550322152328 25.1552729393301 0
-123.700067973143 -13.1432469619166 13.181952799428 0
4.16606258239459 12.8520525297809 -21.3655191532321 0
-124.651171221209 -17.9740247406471 8.36996032317991 0
-94.7298034627188 8.65919250193813 -10.9207811235562 0
-226.636153806261 28.4769110981409 -10.4667082493051 0
3.40233231636979 -7.73208889276899 -4.85833177581161 0
-189.321203217094 -27.1072816071303 -2.53403044866015 0
-127.558909784548 -9.90688414248239 -11.7417414877348 0
-198.738824408887 40.669241597082 -9.04637804495462 0
-29.3303720811181 -10.211184783174 -8.31460464379462 0
-108.937711269637 -13.4765002704501 -12.0197048259763 0
-47.1469138522702 -6.39297649329153 2.39548796153466 0
-195.788955016289 14.8206257197017 17.0779029566166 0
39.177783510943 -8.36195184549402 -4.55057635487532 0
-200.48355606742 -14.4486861913497 10.8318855006155 0
-150.59434936595 15.122497179689 18.4528619724705 0
-42.5628033032997 0.543912460118032 -0.846648833859455 0
-45.9775472864177 6.01023620229436 -5.3942532413116 0
-129.053063563272 -8.47195321169972 13.8782088518936 0
-78.1439725339279 -13.3071980382422 -15.2620962199698 0
-192.392430671477 30.120447580248 6.30626692040972 0
-72.4403978764044 -6.46511740942655 3.97266518915277 0
-211.15178627902 39.9167492209747 6.60211064682221 0
-3.80535049310415 7.91624754263171 -7.66947793064537 0
-36.4232467830422 -5.38327632327755 -26.1996399714354 0
-125.705239180643 -18.9753257208135 7.18169940358022 0
-123.727850650424 7.11048535188354 -5.90909112248819 0
-92.1592895353895 5.69421778479877 -18.2405137001548 0
-44.61490705645 10.8590377068876 -20.2049177252243 0
-134.886791483959 -16.397430615717 16.2096572695699 0
-58.2260518618935 -13.0878074380679 -14.9721653374407 0
-168.365227313791 -7.57721931882284 -6.91385940155197 0
-187.869951908501 -7.20883190983818 14.7814555000186 0
-91.5356050144476 3.93776901502823 0.975200236184584 0
-80.7334215341195 -8.14736101446102 5.0967349023487 0
-152.749370872524 -13.1071988694469 -6.92431947600335 0
-102.608132550819 6.16403442246262 -0.380151730171998 0
-73.7078601740272 -10.7861120906778 2.25794718851192 0
-133.249422330188 -15.1486689770937 16.2215490946999 0
-146.352879206288 8.24187202228451 2.04436305198887 0
-196.608317233326 -29.261432978715 -1.03347644283059 0
-183.096766112425 -1.52772587414522 15.7366792338154 0
-202.232780227057 -1.64311756696802 6.17704686578146 0
21.7693225626166 13.9968875699591 -19.9304605958439 0
-200.005733551806 6.61465460351968 14.0775921292013 0
-89.8610268992326 -1.67005848690961 5.18365356188097 0
-46.6239151013179 -2.59945573322533 2.27120631487471 0
-51.9937366887827 -9.8733607754149 -2.77175591007648 0
-140.14039992255 -3.38927150047368 17.6560065198661 0
-57.787965838761 -10.767174547534 -20.5132424347678 0
28.5455660036018 14.676388323925 -18.4073290695144 0
-197.326344119375 -12.5233195638069 -5.95068243026657 0
-130.865503429203 6.12958410201194 6.86042309584498 0
-43.1630048230293 -9.99677111992898 -5.59458421764009 0
-229.781724763403 20.4727266590073 2.70808496310891 0
-99.4994502117383 -7.51323773821937 -18.0509268624514 0
-74.1583201899012 9.61652736844837 -10.592809816185 0
-107.768134992335 -16.7754897158922 -5.66457504017474 0
-88.5942262035875 5.07030115563711 -0.839124280201294 0
-194.191292041126 0.365633503498258 13.7995882728717 0
-109.411503934905 -16.5361764044691 4.91233934589123 0
17.7598891103211 -9.95266559480594 -9.47750996699734 0
-209.60524259912 3.4546319068341 3.28452842396797 0
40.0081873733634 -3.2456798711757 1.69413403554276 0
31.747748756672 -11.1359113560673 -15.4566122288897 0
-82.2000733032535 9.51937111771846 -11.4198680450778 0
-185.139068043707 -3.5113823605178 -9.76526343958774 0
-1.32730553434907 -10.2367537572927 -10.6885947203923 0
-104.853471913127 -13.7972067156463 7.17006279011464 0
-99.5242983775936 -16.5200052078887 -5.58338018868612 0
28.3151715336476 3.81691306568457 -3.23755550354071 0
-169.991284704261 -2.06051666113575 21.2442162379405 0
9.55494825033142 7.49806738292478 -6.83975559152136 0
-22.8311811941287 -9.13395201234914 -6.14223275470261 0
-188.130344313857 -21.8762375977829 27.858262845987 0
26.6941586945778 3.8920811228387 -3.40470541395834 0
34.1331897752238 13.8495823002157 -11.0977065508025 0
15.7558112253789 -0.353945919410004 -28.9276395465984 0
-37.8662402759464 -10.7984154005228 -20.7484545079167 0
-106.770802386368 -4.05208655868329 8.26604597927106 0
-164.91866083945 -13.426197933396 25.6563256556808 0
-193.108264815504 30.5825649295653 8.97987334328442 0
-130.116719218443 -11.7682734343266 14.6185228106499 0
-216.022655077953 33.9518908918368 17.3703619836679 0
-26.6638377665363 0.0501776094907808 -0.272090186304456 0
-224.517073460874 34.1629588504089 10.3194116990289 0
-192.067975244017 30.5583552674278 12.5061837326905 0
-118.948826812609 -7.13072868205569 11.2759586523776 0
-191.618730245564 -16.1050490668492 18.9647326663572 0
-28.4097244368019 -8.10810051929227 -3.28321330470162 0
-110.584687286251 6.66679184232475 -0.0585040078545904 0
-64.7919350767898 -8.21746900928368 3.78417116294958 0
-199.560229627953 4.53129817759073 13.0836227587162 0
-98.2478574550044 8.28652761181403 -7.80184074281641 0
22.116832034882 1.07001028327815 0.172320850436602 0
28.1948832050977 -9.25385981822942 -6.95999101338107 0
-155.060997216489 -15.4061208284652 20.998169996216 0
-79.2401840769902 -14.6499894874108 -7.20301587127545 0
-205.777586401251 21.6649565666375 -21.038525177393 0
-173.045587135242 10.7135042135808 11.0827510569686 0
-191.664226079635 30.2277508112638 -9.23367062834424 0
-176.675233721139 -17.3205021631215 28.6692163502202 0
-0.833400597457407 9.76229949861461 -9.17805873677719 0
-151.76101634491 15.0339414249772 13.2407600323692 0
-176.002795783794 14.4228785320948 -2.38281030496705 0
-115.754033870743 -10.9161465715521 10.7731684269616 0
-228.617383421215 31.9212967064157 1.49428900325659 0
-84.4122702609152 -3.95365877466545 -21.592384102361 0
-195.806734531305 -28.4210617760391 -1.7897733825706 0
-37.39145751188 11.3107420015657 -12.444789403371 0
-157.719547973701 12.4247370633853 11.7661358481385 0
2.63464890960228 -10.089399119891 -20.615029694497 0
-185.123735423507 -26.3614687759422 -3.57399507962169 0
-99.5329543390304 -12.2338803135237 7.28910365888616 0
-135.560823027672 -20.7797175940704 9.16482631252315 0
-1.3788477127006 -9.091890845546 -7.62854679447103 0
41.1837851913295 -3.30424178825194 -27.2688613961609 1
-152.752294459082 -15.3590536968955 -6.08953755994667 0
-24.8075741154592 -10.2383406364355 -9.25180949528889 0
-140.718931788675 -17.6338884996718 17.5514607393188 0
-107.363371767262 -6.7030289064167 -16.7123607591967 0
-176.89054610172 -0.316980944638085 -9.15172461177523 0
-205.239493301849 13.263535496038 -18.5994838847508 0
16.4652467731525 2.13495439937504 -28.8801140155889 0
-223.735810162134 14.5499547392662 -12.0404874746117 0
-145.410424440912 8.65919925747448 22.7531989996407 0
-200.943103989712 20.5994803758468 20.1199867692418 0
-220.856989039761 40.5040273295959 3.09106949376517 0
-55.1327667654557 11.0902841302044 -14.1900634420186 0
-15.15759872632 2.35010102181454 -2.87912631785817 0
-141.054747573487 -14.2049716626934 18.7855499126359 0
-206.442413105215 45.3556020259022 1.55514004074819 0
8.6009084713554 -9.56186927283867 -21.7667194611932 0
-127.757232197512 7.44630206121629 -3.94856171639976 0
-55.1659936912417 -1.08699245686463 1.61743170712043 0
-152.944536952361 14.6778974837954 18.7450135309107 0
-200.46540060371 43.784100240279 -3.36438577617917 0
-194.924270619829 28.6222820565226 -15.8116882080962 0
-159.478860848192 4.14605309894378 23.0932857454703 0
16.9838090670695 13.7505736296306 -20.2377996034774 0
-162.770702998722 4.60223910419478 20.7114778492581 0
-132.424410441037 -6.86178491257863 -11.7782754284942 0
-12.7590833303186 -2.85667611730345 2.05491720463481 0
-68.1439969178041 8.61753371617798 -7.64014586270946 0
-53.1778153949453 4.92740101603702 -3.90810598286288 0
-102.014681738896 -4.98868325089833 7.52260443159251 0
-190.176356835668 -16.1350180744736 20.1696901033511 0
-109.256923391023 7.35790562612551 -10.667529288798 0
-153.570776827146 15.8502216279755 14.5864089737931 0
-85.6945120784209 -8.17106879012467 -20.2023726346307 0
-75.3277604319122 -11.6153225022652 1.4738875090866 0
1.92198563222656 0.732407687918879 0.143215691188296 0
-194.286574906832 9.22241315214721 15.3286312100128 0
-170.472412449533 -15.3973524272009 -5.61657231166375 0
-205.942308420845 4.99093640427981 10.6805959191348 0
-189.74678272836 26.8252213029551 -2.13190765072916 0
30.0353172407208 15.1590130170706 -15.9926820685968 0
-220.751473027251 6.20058398114568 4.88914299336216 0
-123.391330233648 -15.948594392538 11.1973300958888 0
-42.8253437031389 8.29151545174673 -23.8135504403985 0
-141.665434262526 6.10023373730514 19.8485550615488 0
-48.8681568310108 -2.36891408461543 2.13025793997514 0
-76.934750045075 7.82890295905042 -5.93907753014928 0
23.027560991895 14.9618743215821 -15.3773737399453 0
-67.8382099945392 7.04731940911147 -21.6412835617423 0
-34.0718208473725 -4.97140884746635 1.73200458247933 0
-185.624784400217 4.75875520786411 -8.64291417263348 0
-160.079378517373 -20.5729958516115 -2.87063187766459 0
-109.442133366334 3.111458723835 -16.3683517397977 0
-154.885964534835 -19.316987031852 -3.23811487260262 0
-181.365263715616 -26.1673946757591 -3.88957106935865 0
-192.008608942613 33.8885055444252 -9.58337266230758 0
-209.105654663011 3.24371833425531 -7.96726168620013 0
-158.526817269442 -5.49916762238997 24.4159991227766 0
-165.050699930034 1.73976040516444 20.8972132312011 0
-111.485679535805 -13.8041616743255 -11.1185927113898 0
-3.94898970099236 3.90259807424394 -4.19430404001516 0
-116.29675461671 0.606204479755654 -15.696353108092 0
-21.1339674515802 -9.45909312217082 -22.6707417534529 0
-51.4706477447684 -10.4726797079834 -21.249646665477 0
-162.854753228177 -28.9796831882124 8.46426143706023 0
-200.587039618524 -21.1441643107887 26.5894112067285 0
-161.175977415749 -18.9763427863444 -4.1752419273363 0
-207.906907338438 13.4961680816651 19.1948974163884 0
-180.234242061191 8.47213658826312 -7.84341247691952 0
-203.302475746787 30.4170871973992 -19.7608013593122 0
-228.337744360913 32.0838737619721 3.43919431777174 0
-229.124780680324 29.0156324684109 -3.45010344630026 0
-24.8679518830846 -0.0876246133399605 0.492655284908758 0
-58.2453484441476 -13.0570585470871 -11.8827481259611 0
-208.433841213107 6.27018924005262 12.8521960914302 0
-217.737011660608 43.0484090240229 -3.05563349177376 0
-212.956176918628 6.55332427210167 8.14938912479623 0
-9.0228102161742 11.2315974212946 -10.98549835683 0
23.6221766235929 -8.57531077045272 -6.00902389154239 0
-229.703345085596 19.4376849607999 0.336294107302048 0
-60.1266158339046 -13.27306533684 -12.4957361108243 0
-80.216268810329 9.63207449405914 -11.7880111766999 0
-198.998278661079 -26.1247165493197 -2.80605412894933 0
-63.6698937519762 10.0099007443811 -10.7972519919922 0
13.1354772974423 -10.1948132895525 -10.4965570468311 0
-22.2598813438136 -5.02837286896048 -27.0257223792623 0
-170.793512803316 -5.04121310736744 25.346579706906 0
-163.99264090658 -28.2834524378866 3.55435152483337 0
-137.23667111671 6.87994562270049 10.4749971624671 0
-168.058188791457 -16.010243131333 -5.37765536230211 0
-140.722575388261 -20.2583006407703 1.31645923542258 0
-179.036107151508 -5.63342881534643 -8.49721463895916 0
-149.914695123687 8.52934961187761 -4.08781170502913 0
-167.200734244797 -29.6292173705808 1.34921462417255 0
-180.833737742287 -33.2034426245596 2.79814538875475 0
3.82426808223587 -4.40594654885351 1.3081521335881 0
-125.760904649972 -10.8150730963676 13.1193755652025 0
-83.4270034649338 9.42955501315539 -13.1813175491602 0
-4.01700526797994 8.49416061591362 -25.6178867056364 0
-58.2987624255193 -8.72784913595823 -22.6723091678459 0
-63.6185302138034 -5.20208740570192 3.38926335034914 0
-144.698214008643 -10.3175189144891 -8.66659077649252 0
-220.481799408758 34.4822268424749 -14.1160221016957 0
-196.123133915268 21.7138819804768 18.1018760003587 0
-185.235394416835 -30.9485228801086 1.44518503930675 0
-113.022370069512 -17.9601446430311 -2.6050892765142 0
-198.8835080481 -13.0307223833549 10.172369196904 0
-141.267109185068 8.62506694046165 18.9771979870029 0
-16.2072054575378 -9.29364328531349 -7.3152701716071 0
-147.792824926934 -3.74094016439622 21.0348559289252 0
-100.326296947256 6.4612041159083 -15.7115746145651 0
-200.705715693757 33.6926706215038 -17.2821160439412 0
-141.463307873039 -10.01494585342 -9.30728430894495 0
-109.173448053865 6.48649467155006 -13.3942635541336 0
-152.631315273995 -9.06995556098813 21.8757212029152 0
-193.718401882336 22.1660802249915 13.3606355027376 0
-183.563910514819 -22.3547914887484 27.4583670818591 0
-23.847714778965 5.36012546177322 -26.627610648104 0
-91.0252451748872 -14.1892165107101 3.2276902828306 0
-9.78419370435662 3.31133418769887 -28.0201915483443 0
25.9013307094883 -9.27377859487017 -7.18227461450299 0
-194.26771454026 -15.8915031627566 27.449312020585 0
-154.43957596089 9.67803953081931 4.27603226040897 0
-167.996784749297 3.06921838489323 -9.03543728431333 0
28.5031882239907 -7.62189180313048 -4.17759279642341 0
-229.796091277897 26.699534044701 -1.5703517501216 0
-216.761250145984 6.4177386221106 9.17940700863643 0
-224.021807667149 32.6831903300078 12.1715960989106 0
15.5819405766841 2.3233458444804 -1.88688565886189 0
-211.412083657526 33.2660074341656 19.1330366813878 0
-185.934728933864 -8.8606048948434 14.8692854928912 0
-7.52259479710074 1.7721089948965 -28.5342125918392 0
14.1702002440853 12.1107384873961 -22.5743366469513 0
-87.3848128226806 8.96999571240653 -13.5516625004245 0
-212.622672462033 7.47354583813724 -13.250472703232 0
-193.010766465213 39.0663740271435 1.08624773102074 0
-173.506997652467 0.505286875926143 17.2824163857516 0
12.7358817424262 -9.22054242452908 -7.82193628734444 0
-124.843852658994 -3.42866577704013 12.491205862563 0
-42.6438623813443 5.08116559681698 -4.77310609318061 0
-100.195994727413 0.628083084470187 5.67142053245405 0
-59.8073605641934 -10.7861775817792 -2.68941887510396 0
-46.2456439766127 -4.60645592350292 2.42469387433424 0
-71.2903207037275 -9.74817310465954 3.21317656264057 0
-127.619234891084 1.85447001063238 12.0607904508748 0
-45.4623939570967 -11.3219899102957 -8.70464738061911 0
-86.8300396042684 -14.8459988994608 -0.553218162417438 0
-151.954889499897 7.07332728496087 -6.97880779760005 0
-190.925816483061 29.4592842929191 2.62971478245447 0
-135.878783061703 -13.5408651319196 -8.70113961659403 0
-203.034990870039 -28.2651466069116 13.3514985823413 0
23.8297562462022 -3.35558406969563 1.79692471889729 0
-174.020215138129 -34.2657835401933 15.9288190812292 0
-133.711120697867 -20.3693508712438 8.3232716863291 0
-112.90677163844 5.42539475395458 3.62326919578058 0
-111.426829900463 -16.9505869948683 4.88517658722724 0
-28.267253350334 5.03398977221888 -5.2582327835482 0
-169.400346752633 -31.2225260993195 17.6148242060607 0
-63.0769659811193 5.38072149241913 -3.6877243292247 0
-177.072685171118 10.5787595796908 -6.5792009350656 0
-53.9599681728269 6.68982113549628 -5.52147379000719 0
-35.5840092236058 7.85209462099151 -7.49562983673738 0
-147.429144060825 9.60681132798593 7.92825623902061 0
-43.4944896480901 -11.8363139241232 -11.1835548368455 0
-225.38733034332 25.5719123828564 13.6081612205668 0
-149.137756107236 -5.39796316202784 -8.90786843024427 0
-117.769572341332 -1.45064455996325 10.1110851333499 0
-207.455738944397 41.7090349976658 10.1173605168541 0
37.3837300195308 8.136608889771 -6.01218036555478 0
-184.113600629133 -11.3482245766198 26.4082611055003 0
-165.811335957939 -30.5178250052607 15.8136525763633 0
-211.286964544042 6.11846390890472 7.9558908654848 0
-6.92614270965695 13.3344904475525 -13.812440211662 0
-147.304459050881 8.61429886034336 4.09515295603499 0
-96.9220289590471 -16.4016920676603 0.992149037168422 0
25.5333052094841 12.6303832451605 -10.2933682667328 0
-154.479325117611 -19.4659464591171 20.0153771891636 0
-97.881822973139 3.02943656980003 3.02116771103447 0
-147.98608139924 13.0790701170008 12.2711838129619 0
27.813825626321 1.12993141238172 -28.8465398643865 0
-23.71229563723 -9.1879324976065 -22.9940810081686 0
-50.0132893002531 -12.5093657734917 -16.1699166953403 0
-65.3730845897808 -4.85057357403845 3.35431828798101 0
-103.393212599098 -16.7489796266975 -5.53588733372599 0
-36.1874455091154 -11.1250955179112 -10.4927770832777 0
7.29033651096044 -9.55392506367795 -8.70987460262578 0
-157.814448825065 -25.8532536501613 5.33855767047483 0
-32.7913863619241 -8.66971176600736 -3.80344664943044 0
-147.210092764501 12.6109056457808 22.3198641109575 0
-27.0407257367884 -1.65808660486261 -28.1169772831232 0
-26.2918310228012 13.1134856606663 -17.4254228830407 0
-199.843309527809 35.6661883445255 15.9543717597639 0
-203.958316429863 -26.0464686973006 16.583105754589 0
-14.2333078778915 -4.51794882825855 -27.5583244196241 0
-159.595032511598 -25.940140983062 3.74629400870689 0
-53.5794379412572 -5.95609363243092 2.89999535479885 0
-23.4821302440041 8.14075423966419 -25.1408985403357 0
-196.167112443524 -2.47201314843909 11.3162998459639 0
-10.5429942735252 -3.24963484474728 2.05273369603034 0
-114.511836964276 6.07135396982429 -12.7417142614087 0
-104.349372893732 -9.09681877945098 8.23565321438644 0
-11.6259352120963 0.872311340979214 -28.5935361488286 0
-14.9808729911285 -7.29771707668549 -25.35050171202 0
-209.945411284127 20.1724584190734 -20.8490345143245 0
-86.3359646225373 -4.03579539314667 5.30287453407073 0
-209.243732334012 35.3922852934065 18.302517885173 0
26.1989482396692 13.923701913119 -20.1392002793406 0
-99.6694682584297 -13.9394465266202 -12.92709799103 0
-23.9820732771764 11.5954950541252 -21.670087209461 0
3.70494538302291 -9.43549171095351 -8.44825382528209 0
-31.8702195643329 -11.590618762509 -14.0302106257313 0
-65.6294038021457 -9.07840036987714 2.68863036313611 0
-204.888279858661 7.89286743798384 16.018901776033 0
-58.0542861245288 -12.095470007514 -7.78338866176377 0
-229.28277007867 18.0781009326978 -2.02607226898541 0
-8.56660760647743 -9.89391185728296 -9.45440769033197 0
-223.72186286504 37.7555920499896 5.55368994542888 0
-144.135680958995 -2.70559162078438 19.4462712285677 0
26.0165982745049 -4.36757161940768 1.18584536344151 0
-139.190427741595 7.23555626688286 -3.58011584294032 0
-80.139127579797 -1.56908641447686 -22.419418470129 0
-102.197609867415 -17.3303831784502 -3.18623389458388 0
-65.7705511312493 -13.3523156473218 -15.1836904900909 0
-153.542589181451 10.0967619116351 6.63163412714848 0
9.17791328445949 8.03500193901409 -26.1635560002641 0
-51.2783473458449 11.3807186770225 -15.5525987792424 0
-191.285405602033 7.14368644141126 -9.92344863963515 0
-174.672791326968 -36.4005343909312 9.9744022562913 0
-92.7936059134887 -12.355136349405 5.966199429216 0
-187.714208910978 -10.495874548544 -12.0060966525304 0
-103.141146946296 5.36021224131393 1.26153279035578 0
-168.233640629437 -28.351240806693 -0.79441094686639 0
-181.138926060393 -4.79787192795502 17.0593395438321 0
-170.09036895161 0.137003236596519 18.924724673229 0
-198.975661516316 -5.65881662297096 -6.06624106510813 0
-152.568788613325 9.12257649039302 2.9971668463219 0
-219.685678808569 40.6811616166448 -7.44595785070802 0
35.1830144644588 8.93295420187951 -6.7797206715185 0
-29.4381548925949 -11.5798463788539 -14.6550819509735 0
15.7534766528268 -10.6814134618069 -18.0572748046033 0
-124.017272640884 -5.08850168981944 12.5625618189379 0
-134.658125302148 6.26971156153769 -6.3519860076125 0
-161.493502823715 -20.5598781988482 21.4572963114007 0
-66.9204815455115 10.4192388764967 -13.9791245236844 0
-94.6403106542626 -10.1882259128165 -17.5522682113964 0
32.8790781441367 3.87393918815428 -28.2417813819519 0
-216.115014617583 39.5681057503109 9.85730859450018 0
-155.759821591764 -23.8174541871638 16.6459382664333 0
-117.458941834358 7.60704318028529 -4.35310830123069 0
-208.135629304371 2.52053104095806 -7.43013759123673 0
-204.4383618714 -23.996434477506 17.4785228450982 0
9.19421483334686 -10.8171710417633 -16.3930354757889 0
-115.632921436556 3.94969443294465 -14.6805845083413 0
-52.868051523126 -11.1210466541732 -20.2103164488313 0
-14.4205529586694 -7.32030042182865 -3.3071988793894 0
-112.867141562767 6.56922200453081 0.856203652411383 0
-92.5119507504215 -2.17727975968355 6.04828596610198 0
-218.350027245984 8.64862661535503 -11.9036595215952 0
-83.130722311862 6.60522252905587 -3.51201909637063 0
8.64778575194094 13.9848230536661 -19.0481856383219 0
44.2561602004208 -4.49145516883666 1.31928958941636 1
-192.218709076906 23.2874051862779 9.6348127184628 0
-183.940161407181 -0.157715313219828 15.4030703015329 0
-195.222780345432 -32.5928952933128 4.05572502156001 0
-133.14034365704 -15.9879546030345 -6.30741843912162 0
-133.934661641564 -10.9263506458226 15.7420685383017 0
-151.357190662086 -15.8116004007133 19.797678477611 0
-110.242709549729 7.37943613086619 -2.76792323440201 0
-169.532694094248 13.4578117033579 2.69952580388823 0
-188.981855377633 18.2516797209578 10.4462483466727 0
-203.771019465942 -1.1919762717678 3.68368985406639 0
-203.932358384875 -27.4317598333604 11.2548939464391 0
-90.9724639464611 8.65058681624029 -13.2608461892781 0
-159.812734862404 11.5596255227016 8.66069465269148 0
-27.8136073775471 10.8271028095412 -11.124873943845 0
-146.958456238651 10.9681552895547 23.4222461759591 0
-163.703113078656 -4.91312254756516 25.5821126380451 0
-35.4792052320657 -7.84624219015275 -1.49100215226025 0
-64.1074480873314 -11.0724212926938 -1.61243495665683 0
-156.379451361051 -10.4064595843581 22.9781842303335 0
-43.0459107569933 5.92208746054654 -25.2372077372958 0
-1.98497961714821 14.0366969269801 -15.8956104902905 0
-11.3289914106968 -11.1637288854252 -16.1031482708725 0
-189.559421069384 -11.1426128756032 -12.4544529629078 0
-91.8491787648735 -7.20026942377744 6.1906458660727 0
-94.2220258458149 2.62621778766394 2.61729579224795 0
-184.160544660113 -35.0185559782452 15.0985259555142 0
-171.231048036567 -5.50084059088582 21.9248625111641 0
-174.66339352114 -4.97716080921862 21.0150865067051 0
-184.107090407597 -9.37955413245976 20.4230793324607 0
7.98256756406351 0.736055980214947 0.47708986538548 0
-130.912314757929 -13.1549767570097 -9.61362992739332 0
42.9803206560256 6.59501273488432 -4.43748928141202 1
-106.693202509914 -11.1349330586569 -14.8266179617779 0
-19.586357010546 -5.06820064866418 -27.0927050764221 0
-105.924255589062 7.65900606887889 -4.49439271314912 0
-188.942089606731 -21.2042765806443 -7.00636071154783 0
-210.533105289419 40.2351601757706 8.2335569967694 0
-222.87917784954 10.8021854054464 -9.55500365350919 0
-95.0696372623016 -3.79326299224855 6.43870888405336 0
-163.420483074914 -17.0162205643686 24.4980257849581 0
-69.947435300377 9.03482744120033 -8.57953422365365 0
-205.037968199986 0.775492205607381 -6.95287470078113 0
-46.0266039036412 0.743607652345154 -0.917644204601652 0
-9.26088297889336 -10.8730737085903 -13.8522007499529 0
34.5437017700573 1.32870392829508 -28.6734730197941 0
-145.750155215156 12.7031927304264 13.1796953908555 0
-55.4985873950826 9.40160374723035 -9.10068650724196 0
-51.5137259571496 1.92459246962546 -25.99896745506 0
-67.1954695918596 -7.50841703076703 -22.8815825319406 0
-25.4261621444724 2.77460123594205 -27.5798062833638 0
-192.678535054532 -10.6609799537858 11.4247957370524 0
-182.346980719278 -16.962672287425 28.4478186173753 0
-62.7538861861941 -6.94090704990931 -23.6351353649448 0
-201.805822370036 44.5954204567114 -0.896292964611243 0
-180.541155577172 17.6548630460608 1.23343967975676 0
-192.728250290733 -33.6390643988101 4.24639629266434 0
-189.73977890274 -2.11263223245813 -9.34043502670803 0
-131.650856665225 -16.8720382371352 14.9063550994398 0
-53.2196444407583 -1.65709645961655 1.94144563178307 0
-105.357554923529 -14.8317286731563 5.79263831145025 0
-148.539491544762 8.22274866380925 -5.64892679747046 0
-227.072212721275 32.2838511353006 -6.861687791655 0
-149.870374900551 -13.2291735437984 -7.2072172483566 0
4.09632870185375 -0.629916454490185 -28.863124334604 0
-59.5915049342724 1.15472987200261 -0.438342376991861 0
-180.239541547026 17.3046841477514 3.58891064138705 0
-220.640793898179 28.9045824654528 17.112164493509 0
-61.4203479585141 6.67213025544976 -5.04678479753797 0
-176.090779355727 -6.18941524148582 -8.83175347304289 0
-189.424919177782 5.59000540620153 15.0202040535739 0
-102.258917409188 7.15091505764593 -13.9762474378363 0
-192.426668195707 -8.51852328861239 11.2114760546312 0
-179.060766412204 -19.2809810870415 -5.19935383869182 0
-92.3596707225821 -2.57812762831503 -20.2767026664013 0
35.1974276724532 14.7225103670353 -18.9074326467317 0
1.20604566324189 7.69721598548775 -26.2490694384726 0
-124.508438183953 7.34525883478522 1.75289598815155 0
-64.1741946231444 -3.20478373717957 3.17488487744062 0
-184.808503117725 -11.3302777762539 16.8623457123582 0
-192.713971429807 5.3601212424867 -9.87829512934415 0
-123.737711038915 7.66794043193337 -3.26623343238132 0
-20.4569523388009 1.68603623554763 -28.1299481457566 0
4.82915456036991 7.74082413109367 -7.20789302860564 0
-173.134271355893 13.5981005045138 -1.78562440133311 0
-174.923323082555 -14.0677164748997 28.5404531116561 0
43.8609869903888 9.20610099063471 -25.079353974047 1
26.0273639727972 10.9321730591153 -8.73269090990142 0
-16.4722807102408 8.0593907017866 -25.5577604380149 0
-152.695580173512 9.13816784652195 0.0634254506476587 0
-109.549589758698 -14.9006578079748 -9.62314756504997 0
-68.3893231367909 1.63603119984514 -0.090792572682425 0
6.96607951816616 6.90644668806466 -6.46944601283375 0
-199.975333017327 -24.6519699487469 -3.30123253486908 0
-212.171154599449 45.0364995287151 -0.525502635924446 0
-216.911118896618 40.6841511468365 0.292208946455301 0
-83.392184113641 -13.4290406523767 1.57779723089966 0
33.4425365112212 -5.02896122596033 0.677795759445398 0
-91.484735991828 -15.3725083798418 -9.2794019765352 0
-15.6142096614787 -5.55903084461507 0.767434419916468 0
-156.339564194264 -22.6351996320161 18.3225552062655 0
-84.1720506233926 9.38608204575964 -11.1213515160857 0
-120.760402662607 -17.3491499602893 8.08210285387607 0
-144.83674771257 7.83641013703339 -1.94840247965758 0
-172.000152885546 2.24666833534464 -8.88621092441833 0
-73.3701863556288 -8.45103140112668 -21.6258025822502 0
-131.972467265096 -4.43166321208884 -12.1865334052064 0
-189.321965806519 8.81550512104216 -9.47019817613181 0
-32.2167994991404 -0.746327993251476 1.0489122447768 0
-146.459924503965 7.72589631199124 -5.39442143827806 0
-153.999245530092 11.9150863449637 23.724672975417 0
-39.1407725607986 -9.41860437704959 -22.7054170789854 0
-47.0269288685282 -12.4071426314222 -13.1903860146871 0
32.4650066453721 -1.50307278686608 1.69416186157046 0
-181.994566440617 -30.5202081394115 21.9510367227513 0
-121.541990923531 7.08535494502778 1.50952929087026 0
-114.397011348667 6.14577696205381 2.67266766326677 0
-63.250074023091 -12.1615573032325 -18.3662811915362 0
-54.7742965185018 -12.8705136371388 -14.3393794950013 0
42.063985763 14.0897169509805 -20.0773653256562 1
-200.854716325215 26.9988007945959 -19.8019534158392 0
-145.199883189495 13.2416181429275 15.3492934844851 0
-181.204317841662 -22.4233649668253 27.0810829132233 0
-185.712424970984 -36.334616315077 11.1472643605336 0
18.7996851333144 -10.9356182237095 -14.5435958378962 0
-103.297779898713 -13.0616358115265 7.49924322563534 0
-179.172749774355 -30.5222595380237 21.4558306677924 0
-152.716521801153 -18.7671072517711 19.7737200028506 0
-146.821114074101 8.04525688447745 -1.49534739014434 0
-7.71499702122261 7.30722353006014 -26.255860428681 0
-152.703469414546 -20.0079772308624 -2.13621546586739 0
-135.107858511449 7.0475399432628 -4.11667906662265 0
-0.683754459447044 1.89472494276027 -28.7513385479942 0
-227.881997910199 33.1831390170569 -1.77960306677238 0
-48.2147847294845 -12.2220785250364 -17.6921418089289 0
-223.993501389375 26.8498030013029 14.8774802760547 0
-221.564542496857 15.2090015776387 15.0223922521571 0
-204.617332973713 -17.9146104700802 18.5187386748725 0
43.0400243293273 -9.47820005934176 -5.88854690241307 1
44.8247806039135 -11.5157063052157 -14.9539093868714 1
-160.48836222143 -12.6014105576757 24.1403854519922 0
-142.429840470822 8.07223665716167 2.57858387277931 0
-163.102123555127 11.9342716269524 5.62512669133153 0
31.3624327379932 -10.5373547337529 -18.8108933871838 0
-225.397966162349 30.5148384209812 -11.4029271657864 0
30.6113056484826 13.3903207491178 -21.2915024643278 0
30.4563325354378 -10.878486867759 -11.3717791559419 0
-170.527943572344 -1.02600096281291 20.1965002046392 0
-54.2902462827555 0.196227838715117 0.177423082020896 0
11.0918984042949 10.8168729928419 -9.56181392046173 0
-197.203998412315 -17.5556168903023 28.7818357599893 0
-74.1649440212899 -13.5697526284169 -5.11429345827878 0
-178.376034458899 -16.078732359534 28.8634347773871 0
2.53809645696689 -2.52623153149765 -28.48446312987 0
-158.177605261917 14.0590736215393 16.4128371972729 0
-56.8597359566394 -0.922959528387674 1.50472764852146 0
-148.44177867296 -22.5216980307785 15.6217471576907 0
-217.527032525024 42.7695305148508 -1.35273713382165 0
-144.848656033013 -8.0163983193671 19.052666393846 0
-162.712810248836 -18.7372678581632 23.0119597346568 0
-206.381007668854 44.7854160743332 4.61914871151981 0
-195.844916987164 -8.76554920124747 10.1289851819955 0
-184.258688499793 -9.68137400758357 16.5936069923335 0
-32.4198621684476 12.232434225601 -14.0301993516169 0
16.3143216915209 11.1106585186896 -23.6688882870307 0
-193.474030484158 28.6505037800717 -13.5866347138866 0
12.3187695032785 0.981620351944633 -29.0137346605925 0
-137.176444520665 -20.9737097622319 6.48111505256163 0
-175.709640475272 -24.3468708300779 25.5588824389617 0
-170.052613483593 9.7037537794103 -5.7750763909875 0
-158.29275771613 -11.7979183517115 23.4063041046375 0
40.5378693672745 11.6902693741813 -8.36740960048088 1
13.0043381586532 2.03231596137164 -1.46740867696693 0
-66.51994140565 7.49561490000486 -5.83444939168307 0
-50.1234912179053 -12.5754688137378 -13.3383240031328 0
-158.239876641287 -26.3124541814231 13.8416893579719 0
-179.707862751025 -6.68847634785539 21.3493130698442 0
-1.95891039621332 -7.72764511803646 -4.71273924038553 0
-173.877742877337 -35.356001459116 3.17740134992058 0
-184.153280325815 -12.352786492923 27.3627550656351 0
-215.766387031549 36.5219379225458 15.6337444897251 0
-98.4891958279505 -13.5992140433897 5.97293044655806 0
-144.120576770705 -20.2121007602233 16.1924926221888 0
-182.346982540039 -8.68677746357196 22.6291854664195 0
44.2863211489845 -2.91942798431534 -27.367479354204 1
-65.7516952683713 7.00788011213001 -22.0266933740577 0
-122.33449901826 -19.2077211806249 4.55285652240863 0
-70.1779460875981 -12.407957728985 -2.88117194996897 0
-190.56359229849 0.996755503837221 -9.14451973210455 0
-208.845245778115 1.96345621890129 -0.148235930400653 0
-76.7612201342059 -5.13296960842228 -22.6361426411836 0
-105.548942039335 -7.75051137696924 8.14183708190677 0
-72.0233409521311 -11.0305893752367 -19.402032578623 0
-181.366500351276 15.9878734532854 7.96047609981963 0
-211.860488709758 6.19474965942904 12.5914405356081 0
-50.3421751997827 -5.86967470318123 2.91097123217822 0
-124.437981722863 -17.9127708684961 -3.21036387812617 0
-62.5384352451457 -12.7421929366838 -8.1095553962442 0
-182.935209692368 -11.4906500794637 -10.441189831979 0
-127.331474096045 -4.53771999378783 13.4229892474154 0
-200.801233590956 -15.8363740526218 -0.489740806345006 0
-19.4610203683853 7.61207159601126 -25.6766235558508 0
-34.8322603291717 -10.6612796146337 -9.15544990429375 0
-31.4685389875017 9.38404249983666 -9.26257140885674 0
-2.79076932535702 -8.61499422487301 -23.73326265749 0
-122.495636597684 5.30673826134471 6.81066071354202 0
-113.498854263813 -4.24745266030676 -15.9208159951312 0
-153.590959797847 5.79345325091438 -7.63740682677629 0
-87.7840909850407 -8.5000312304438 5.83418700622496 0
-146.071910840778 6.19311182258533 -7.25626257876753 0
-153.896332680372 5.33304398290617 24.6667001423462 0
-206.485915410892 1.37241911710195 2.10776168908101 0
7.93476227283364 10.493206985207 -24.1368937280844 0
-177.31856096172 -2.52803492278532 -9.15386111623119 0
-145.489666543208 -6.1084528351729 -9.39958242015495 0
-170.160451831689 0.0969173185054422 -8.47861286517638 0
-226.139204701722 29.385214502822 11.3842343181099 0
-102.611180011693 6.06594639686274 -15.7119464164788 0
-97.0019322350251 -12.6595522237584 6.55666087782187 0
-180.340734215796 -6.12849828363187 19.1777841395849 0
-189.679896026835 -2.55459991939529 14.5533598261801 0
-202.08634198631 43.6777789457988 -5.67615502064215 0
-221.976961967577 22.9637745821885 16.9598868247032 0
-162.256362597555 2.2617748951614 22.0509898188935 0
-189.608092543501 -8.02420741288036 14.0111393775195 0
-163.303932556789 -27.9263946747846 16.9957290950949 0
-32.8769070974675 5.86095712871585 -25.9473617130434 0
-201.214688739246 -13.3110438674279 22.7009854033885 0
-6.69673938760757 -2.54100857613928 2.00062235183002 0
-181.037183317833 -11.1602238030949 -9.62820154625448 0
-199.289312786049 -15.7021539785346 28.3640780576654 0
12.1377749007217 3.61119204879264 -3.5897690914445 0
-209.3180519773 8.49793742573301 15.9928522783921 0
-111.324066423785 -11.1495554285071 10.0031860728395 0
-28.6978554894875 -8.11427096190469 -24.220117814223 0
-3.33195006317896 12.8014498227101 -20.844978392544 0
-101.451945938162 -7.04135372864837 -17.7892146361303 0
-161.328701887408 11.5403229037739 13.1076400413218 0
-200.453656429549 -10.0863910462346 6.45398704360791 0
-124.777687171111 -8.45588807587005 12.6468476991956 0
-2.04238642583299 11.6750498683651 -22.7526304070274 0
21.1696443491943 10.3849207157505 -8.56422593046871 0
-72.2378860555282 -13.8529318081551 -13.0374079454974 0
-132.208079270797 -8.51498432200413 -11.4768893015127 0
-229.851322445311 21.1496821262618 -1.92415945207923 0
-189.208511420668 -12.3758773543167 13.8927110677357 0
-38.8358558097413 -4.96630554035188 -26.3155677698714 0
-74.4370391395674 -4.83863753523586 -23.0195243926853 0
-212.566070691572 41.2560524881606 2.25284203182833 0
-31.5606452516892 -9.12412449469348 -5.10823083531473 0
-138.884556396405 7.83505647384285 3.98380770028495 0
-51.6687893552772 -11.3876237271625 -7.43345334360277 0
-180.944169597821 -37.0070794665013 10.00514219329 0
-102.641060372036 0.786008832875992 6.30214964460971 0
12.9719968272643 12.2321191437103 -10.8648321113625 0
-81.3468293328118 9.45243582030477 -14.2716821216008 0
-132.649477886453 -18.177944055729 -2.61794469822685 0
-186.045117748662 -14.3926438434556 27.5777824986495 0
13.7466229457711 -10.8500767274711 -15.5582850969818 0
-189.168463037756 -32.5632557116144 18.9474491434097 0
-90.8352965244204 3.18279808458769 -19.9606455201296 0
-23.5439950039705 -10.8545163457309 -19.9867789057969 0
-7.69374796337695 2.68771272337402 -3.06502651040465 0
-214.435524111182 15.0547323618205 18.9994684308074 0
-3.676078013022 -10.6190340454503 -12.3156338448673 0
-142.00272456715 -18.6580809482035 17.0526890337478 0
-222.826483351177 38.9080436143695 3.15034562695666 0
-200.481539102222 -9.23783967600242 1.57870123245676 0
-171.285084794334 13.7599646516378 1.67115655302618 0
1.93573792384316 -10.7586351578538 -18.1076970401742 0
-224.61743295382 12.5417649091348 -9.01452886865549 0
-228.419744588345 15.4454855124704 -1.68275495651193 0
-155.828551403026 -17.4333864151098 20.8289702470778 0
-146.213203213164 -5.87102318773815 19.937707510286 0
-96.6084258600739 -10.2109085714112 7.2730405450073 0
-194.024746205543 -32.6539595743606 12.4376657153971 0
-148.922279859242 10.8924089026169 9.60582452303897 0
-105.68312649465 -0.43176962887949 -17.7897836632005 0
-110.793415312711 -8.41420354655319 -15.5520900109619 0
-216.656244553758 11.6738482123162 -15.819885257674 0
-196.626782759854 4.93867259587417 14.1690977197276 0
-176.888007232079 8.23101889666291 12.9346729627405 0
-9.01656172249064 -7.36797791462342 -25.2973267218847 0
29.7114352608845 -11.1400647695332 -14.5710648459323 0
-178.046795850739 -36.2982653301124 11.8885451529574 0
-205.700120042439 42.7578291060996 8.94915337505648 0
14.2929273695109 -6.41653095272738 -2.59359760429273 0
-206.109156880661 43.6288614162655 7.12059464084702 0
-75.151285959976 6.24428256731558 -3.73406310283341 0
-218.089920244426 18.2929104745446 18.6377353080429 0
-128.822577815357 6.99265101460104 -5.04770824807045 0
-208.021035795013 32.8197952431767 -19.3092296377751 0
-123.092901599311 -6.24931098723202 12.3504729907111 0
11.5769175638767 -10.8536885467449 -16.0078939922145 0
-102.380773727118 -9.5683195324129 7.97384130699471 0
-198.720708417225 4.80221059728242 -11.7601076191202 0
-186.321933917611 -10.9220746973026 21.8220123062947 0
-162.987692672622 -28.753804128693 14.401048381422 0
-197.127888120141 -6.49038323973496 9.31124056783659 0
17.3331461123191 -10.5884393100225 -11.8879492761627 0
-130.830850849212 3.83069899716142 12.0771113511936 0
-130.361784305067 -20.1368751341392 4.87831201087399 0
-75.743849291879 -5.64147372488598 3.90364232178125 0
-192.639599844019 -24.7885170120459 27.4909389499333 0
-164.548012760909 -23.8304094292946 21.3276620729981 0
-198.641551247591 -28.4354659724311 20.7656685560718 0
-63.8673880301425 -13.4602573898411 -11.8332063558209 0
20.2047747905896 -4.42669189987076 0.683888416435959 0
-165.065251591589 -31.0407058996808 9.59790793404598 0
-204.388199322823 12.0481843487347 18.4885284281039 0
-161.977503047484 -26.3153485356357 2.25597667170846 0
-148.195474889335 -23.0091212165628 13.8854247265223 0
-151.28276459869 -0.299926048730685 -9.57658441769324 0
-105.876663885971 -17.1338867558441 -4.49108934336472 0
-88.0412307380601 -4.18056808847185 -20.9555861704095 0
-52.8721175828829 10.8163673565906 -18.5943298834263 0
-201.080914717788 -26.7886546015818 20.2112554993717 0
-21.510774295985 3.97988837642628 -27.3337543028038 0
-4.15672702275989 0.381723017919836 0.256061187555122 0
-73.1785210437281 9.57294667615898 -17.1088080481076 0
9.63589390779431 -6.75732837709713 -25.5537891060196 0
-131.090497685006 -16.1935073871304 -6.02686833351681 0
-187.182000823709 -33.3596144388889 4.07645046201072 0
-45.0048276142991 -10.5255759404938 -6.6985657719972 0
-215.514020969188 22.8377666684062 -20.0812485720615 0
-193.720048299513 -26.9696824167592 -3.30215350755191 0
-63.6875768523348 -12.4499799661623 -6.24123605233023 0
-170.739084438295 -9.20093376768269 27.3185218851981 0
-173.554023943957 -2.17488707167903 -9.01260978876427 0
-182.708867842444 18.3762960590084 -2.10892494669767 0
-33.4462300701114 -11.2981157337563 -11.9280914093487 0
-205.059989068289 39.7206888897621 -13.7502749565932 0
-216.429762817169 39.2059856632578 -12.6334010711377 0
-195.66913481177 -19.6298403207514 -7.78144435748062 0
-10.8212821037997 -11.161935715172 -18.0595295233315 0
-151.640943951086 10.0221305196093 7.18385751795216 0
-153.111639860805 10.6615147767848 8.2071713115716 0
-60.7215087297664 -9.97555867406209 -0.275411707358707 0
-65.4697215348369 -2.01354967224178 -24.6400420215853 0
-200.390335364574 -0.411160564491136 8.02895247460494 0
29.4992455614648 -10.8864285943999 -17.2702885519178 0
-78.3665298446359 -0.255230751589247 2.29604118457653 0
-140.698014096976 -21.7423882139191 12.3128401313688 0
-165.02823725956 -19.8504807648621 23.7651126080604 0
-85.6508872194063 4.61380607518434 -20.250647587234 0
20.6156069030788 -8.60882226400631 -6.22410105253129 0
-137.003303118449 7.82078705457481 2.85486932253479 0
-28.3571788211724 0.538188307512952 -1.09642846991931 0
-152.358287214148 13.2178714439164 22.4766684819154 0
-80.739989870509 -12.3144709527058 -16.7931835334503 0
-178.567926848005 -3.86842008421719 17.5644931172251 0
-191.919116438539 -33.4138435837727 10.5430742049576 0
17.7140043182416 -2.12913206956476 -28.5032554066793 0
-18.111428656056 11.9767627946844 -21.3842365029342 0
1.74209859668968 1.80266141784098 -1.50873432835385 0
0.509957652802749 -7.0224006999563 -3.51053614504726 0
34.6381137029776 -11.1820231262424 -12.1277124916232 0
