211.230307234567 21.9833974492181 28.5145787833129 0
173.289965807006 -10.3452812367147 -19.0460024563229 0
133.141570732933 -9.73660245917024 -20.6642664188818 0
194.253709804336 -35.5232453243801 8.82831051983167 0
232.432738333486 -24.4071840088498 33.6964457893649 0
9.87078042666406 0.754875751322593 -22.4493036015108 0
197.822473143901 14.9637004657231 22.3294097188752 0
208.168340605568 14.7978674905477 26.6572365206149 0
66.7637235751273 9.98370551783932 -17.1269724122552 0
202.049049388884 25.435429975611 26.8523867666196 0
59.2815712778474 -0.788124089407684 5.75662843884159 0
144.455269553482 16.8463333274136 -6.30298799098787 0
205.910748009917 -7.57983698842302 -24.5124126386491 0
99.6919014899027 -16.6333784306253 -3.80587617583041 0
211.403764240065 -31.7316988192758 27.0288065049195 0
236.783881390859 -27.1279855336577 24.7392796083364 0
228.846408855395 14.3127871642501 -21.1079489042691 0
48.1424114116458 -0.68903376372071 5.12018089289385 0
174.771298310094 18.0124719479182 -11.4584923045529 0
152.706932831713 12.7714218645683 -16.4401845792298 0
176.117917389041 -5.25725030689022 -21.9553866106371 0
156.888636956272 -11.8019373417614 4.74072407747638 0
201.713427833606 -9.3227113073544 33.6407714470937 0
230.322567407508 -25.7288724170442 -11.4287765303827 0
193.850708162604 5.79783404551148 -33.8045818977187 0
201.534667200208 -4.87009170434333 18.7910424233037 0
171.792344406597 22.2383239592465 -0.326746136420035 0
173.80756461905 -3.58072407818892 -23.002531183759 0
226.021009492815 26.5582433069331 22.9665077790506 0
226.835666652497 18.8379487295456 -24.3914932416107 0
203.418719622542 -12.6632570093636 -21.1024789547267 0
94.7393199621067 -16.2282812927003 -3.92591912436991 0
193.163752614452 30.9327741121948 -5.32366017272736 0
222.927908520851 33.6725637888785 -3.29237415951121 0
34.9444257257141 12.4831891709248 -6.3983979990623 0
229.107623183696 27.7078369949445 18.8671113466098 0
135.134359722317 11.3825981966519 3.78154603480714 0
209.892227849556 29.7447773893031 -15.0725309797928 0
45.7808634986066 12.2035292791324 -12.332176720592 0
17.1277883429252 -12.7294629817353 -7.38737404631623 0
195.617797751695 17.2980062184887 -33.0451306070045 0
228.538788006843 -1.16730692142376 14.9805919874396 0
199.326305238011 -16.0862233112884 31.3775845627097 0
111.326351758501 11.6839570047004 2.02632557912376 0
231.645900853911 18.4254644025892 -14.4294258429616 0
122.135757752111 -12.0127919844117 -18.8540643485886 0
227.476295758341 39.5724069033105 13.7649649730168 0
36.5611089091536 -7.10900630803115 2.35432446255723 0
223.360670726642 6.44498755963294 1.76963497365966 0
233.452558778921 -19.7944264305095 33.106284434462 0
22.1607230594261 -7.22539514565286 -20.860129922669 0
179.156961372189 0.728052048078947 8.17691713594887 0
207.443699547296 35.9598345369107 21.9824932533897 0
205.833027540301 35.6637132447061 21.1275557648553 0
231.06585471561 16.3927789391052 7.45341065210201 0
213.984997072929 -26.6576871939637 37.4467645509233 0
217.738687769564 -28.586211542216 32.6918227150676 0
222.75427385823 28.2503361799324 25.7312012782114 0
181.63557323336 -10.1700400608859 -19.2838197283009 0
215.803878629713 -33.7203954661978 20.9764027835446 0
231.987674565949 -12.0976678660312 32.9713435291855 0
203.036852855669 24.1652775735604 27.1544500583742 0
15.7883028187301 10.287316456778 -17.4859437151394 0
209.90285172636 14.0688757485755 25.8313065066883 0
214.169249212138 -0.943785181292228 4.76989227964953 0
210.234843252548 18.8690242961898 27.7441157327067 0
19.4614091816737 12.7748423480732 -9.2955980163621 0
73.0682348709256 -16.0690607422606 -8.70524055363183 0
232.43865327329 18.9120823978859 4.10447050548692 0
20.8339166994739 -3.00739544670525 -22.4520062053855 0
198.579464124541 13.7972574322963 -38.4150078969842 0
230.625155017113 -21.5325598539189 -10.3332313388611 0
225.833750383654 -18.7331792305436 38.8367622517608 0
205.380379639463 -1.64658824912163 27.3548823396876 0
147.358367669749 -18.673783560945 0.992009482642865 0
224.582914531993 -0.49329521617915 -15.8156285411216 0
185.489368606969 27.7900079641993 3.63295747660699 0
214.074509908012 4.95032609334786 10.5170207293179 0
176.252845861483 -10.2535894910966 -19.0996311534681 0
213.98747971085 -33.7258146620491 22.077662317832 0
87.7100708532727 -16.519952046232 -5.69917506230874 0
231.608865022095 13.790590784717 -8.35069832429103 0
220.652166826357 4.90880114025008 1.76630018050206 0
164.072078376762 -1.82539417741537 -24.0610285135415 0
215.766608341435 -4.69516239104514 15.3978934399936 0
211.548339102735 -35.022122469973 0.840144719869176 0
225.593486083926 -15.1027667041627 -15.8693256656846 0
237.301229044191 -25.1525235373385 26.450081658602 0
159.37634789086 -19.5328788165799 5.15304093053033 0
186.901703216637 -27.9289297811079 -1.73401394028547 0
209.261963748541 -30.1878311794108 -11.8428330566936 0
183.056594359673 8.69268186318835 -28.773532828588 0
217.694273157582 -5.89072601984152 37.8653957293489 0
227.923433940501 17.4186839006238 17.9362142469842 0
9.52329429551292 12.7376736308804 -12.4500812414958 0
110.776498090764 -10.9502683290056 1.37728845336725 0
92.0439237463091 -10.4822725007133 0.789104071563424 0
174.426572871021 -6.64032256120341 -21.2088317977081 0
208.95924125459 36.2019381717165 25.3606551284053 0
156.358980598073 -14.3608087777953 4.47555287397756 0
207.062644884636 39.6267109335496 8.20484467397357 0
77.5249491642342 -14.3213040466677 -3.65067819161474 0
139.045544072796 7.04961208886237 -21.8898738299471 0
176.102449592601 -3.83907907029804 8.67290859763429 0
206.397502246108 -22.9790163174502 -19.1147999473305 0
227.341053656006 12.7905455437809 -23.2842226101861 0
145.985030287247 -16.8149515987939 -12.8041184995919 0
226.756925007127 -21.1071981301666 38.3880477541609 0
120.458150661133 11.873113512965 2.96414911395602 0
177.585406316692 24.1250386825085 0.99177337472585 0
184.418034701489 -17.0878191083585 -15.4049578711343 0
13.0883655833547 12.0097259523951 -14.3316524145944 0
96.631192437519 13.4223755664175 -10.3615474997225 0
70.0384887624005 -3.59849400037355 -23.4486157460772 0
196.130214483194 -11.2100584751706 25.6870727929572 0
217.298170038772 -25.8912332999101 39.5107289152393 0
183.072374905601 -19.8973007081758 -12.2020417813453 0
201.342126595239 14.9522636218114 -37.4322001957463 0
45.0207966950567 -7.41027380461502 2.03214604411787 0
0.162847139682126 12.3638380669173 -4.44270037244976 1
183.230343155419 26.9135898591648 -0.98574278791274 0
235.994964028488 -26.7626068530618 27.2478857813481 0
200.284348240201 -36.6677182792544 4.21650866983032 0
215.033364071838 0.510916340939077 29.1505830307906 0
77.0271750673179 -12.3943052759481 -1.30343268249472 0
219.779252766834 3.22481296781966 -27.5096843694852 0
164.956452080179 8.49414848495854 -23.6925767123814 0
232.772161823092 29.94602716291 9.03064534697596 0
48.4968198967174 9.411772218152 -18.022327570434 0
176.941755453639 11.1344311314392 6.99111485160195 0
187.637820734947 4.45689067144727 -28.8128653986261 0
211.703897737256 -36.2089612459856 18.8555222988368 0
189.795984177929 -21.6059328871626 -13.2544320337479 0
233.710266386813 -30.0279231697625 14.7613260321933 0
239.794444137908 -23.0461818164212 18.4452483726699 0
228.596145410621 -3.47312606136494 -6.46789729179362 0
149.709533249283 -8.24140093554191 -21.1877489526146 0
129.90659769336 11.1598363750402 -16.9104252750634 0
205.297594906412 -37.3503242392745 3.1887929277327 0
173.701539832809 10.0508410484922 6.4177916196401 0
193.210948606092 6.15736888349754 11.9241765856433 0
95.4196025820925 -11.03530976639 0.551181846104274 0
224.657474244454 -19.2816514052264 -18.4973709252797 0
162.217048586885 -14.3437161811533 -15.8164633440245 0
29.8975418240012 11.3290958610867 -15.3831289603705 0
173.305395469949 -3.52982212272107 7.90402304092913 0
223.308383188014 30.3869373083364 -9.34816400969666 0
156.031582291609 4.81794479514567 -24.3050527286179 0
120.891255520975 -16.3344115738828 -13.5731728168831 0
108.640336124033 -12.9878030186535 0.034838125631014 0
80.0134579169851 -0.817136751197418 -24.1341417966618 0
227.29870744516 -33.0718014235779 3.9403282334815 0
226.916860245482 6.87301739989462 -18.377412464235 0
187.367527923231 13.8991509081525 9.71447294827589 0
118.894608510207 -18.4804867900797 -8.07352646602819 0
223.519491229297 -7.0122981739743 -16.0251360870253 0
44.9013856725954 -0.58283112362371 5.05122816713066 0
213.036175878275 1.2949443801322 6.48470151112023 0
235.82224483158 -7.41414115892169 23.0930328142755 0
181.951344214928 -24.2691442166921 14.5005409970929 0
210.449181537081 -36.8315353107155 3.25675110576288 0
80.4321017443578 -4.94043298886714 3.74541362122077 0
38.6777653075996 -4.69889499836776 -22.3970325571769 0
63.0461366064814 12.905768659602 -8.99811199340717 0
205.162016290231 34.4205432390656 25.7166739311519 0
218.164742385206 10.1252399528386 14.2899408097324 0
212.9665079067 -0.0519155781780349 27.9984203389331 0
219.026205039456 -24.6522839072667 -16.0844852322069 0
223.008327891576 34.7088544182567 -0.726192004862087 0
238.055445456423 -18.8085783659868 25.8358543720818 0
14.837939718146 -5.96752661622071 4.81135263804687 0
82.4271290489847 -7.38315454313588 2.67187944891815 0
208.142265228655 34.6393587112262 26.7043103147611 0
34.7208564727505 -13.8765942215178 -8.63668262473718 0
32.781015158007 10.2540749705586 -17.2763271812804 0
36.0048243356582 -13.124215755485 -14.6396869655589 0
193.554976740735 28.9719631418039 13.8073590057065 0
229.282312204249 -31.5050188911528 12.8088252633274 0
206.027706200598 -33.7719063708792 25.2209901359108 0
90.1767222327589 13.8879161629217 -7.3150423172218 0
204.817899695523 40.8696510874981 3.11763856093366 0
185.081035842026 9.79348752309355 9.07812528370975 0
33.6663847021007 6.4288589959004 -20.840191609781 0
180.458105059678 7.76769361223571 -27.9226602279422 0
112.344787059926 9.28719661100903 -18.5417351449182 0
186.664954730973 27.2843681670944 5.84745333728172 0
218.619013937746 -2.70467186517202 34.8885975186863 0
96.5055067578702 13.2281372992728 -0.867805444738598 0
192.695567258733 35.3611520808957 1.48482598266169 0
222.636790182765 17.9900267752315 -29.0240061296142 0
225.98506470102 25.0474729081645 -17.6024366732999 0
211.875977117898 -29.629970702557 -12.1488542862795 0
40.8979563875046 7.29831132475815 0.929308106726286 0
152.874180386652 -1.67098606669941 -24.0833241373919 0
183.917726782212 19.1601477727853 -18.5049483920001 0
11.7460712892033 -11.5958254065019 -15.3002998665393 0
230.1278739865 -3.23488554852424 28.6087328713789 0
217.143690819029 31.4042453345284 -11.2385078591915 0
199.911993917978 -34.2363568615171 22.9144152700554 0
203.09615434274 27.3804622786957 27.2055532179532 0
196.184428070492 30.4111558518658 -9.65929286735351 0
215.446496553602 37.4530201605095 12.9056866315297 0
139.379682611932 9.4608101904289 -19.9031495338425 0
211.902907033801 13.8288840170458 -38.3450800294426 0
161.942355046787 7.46168834284286 5.34724804169946 0
175.274060883637 -8.85530431927691 10.1253350061766 0
187.457729467499 -0.198632989751922 10.2780052412801 0
232.042670915251 -29.8706639021555 15.6984703031045 0
158.741204434666 -15.0063125504743 -15.0952277101707 0
103.796674257198 14.6821616000952 -5.74901636328845 0
178.709674733534 -12.7984707767152 11.4663250274926 0
187.744388309641 -13.5420059876609 -18.0725866321158 0
208.580162581037 8.98984323691255 -38.5103223831508 0
114.964411593678 12.2920471392786 -14.0766566955407 0
55.9253125120933 1.33179721991783 -23.2821448320588 0
160.142784825008 -17.441002471743 5.12019984174919 0
236.861889214019 -7.89087233100551 18.0044462078073 0
228.727871657528 0.671704301638022 18.7974150020096 0
185.701977053398 16.4524490335802 -25.264976163946 0
173.037606060818 11.8645328144856 6.25990048066352 0
236.086440255161 -20.2952803562506 29.6748004172631 0
120.919326893357 -5.55239725901707 3.89604503340418 0
185.963807316602 -21.0163211961778 16.8721168945776 0
198.925436634503 17.7268525270809 24.5372630463572 0
134.10649546389 13.8866040065003 3.06973982278492 0
72.6039906632014 1.20761131011956 -23.6189212542881 0
186.311314979215 -29.452717403226 9.39713079699088 0
194.341268234796 15.2120380812419 15.5258011705609 0
198.762747804425 39.4356398741113 1.52376577737962 0
114.159542349637 -15.8572814029166 -14.2769643261844 0
224.388865418035 -13.4011090255549 -16.06170274844 0
24.6403609564326 -10.4275527795508 -18.3679832674853 0
217.355186795366 5.53157602675527 8.46685279655316 0
195.246633286745 -11.2107897729467 21.1153197760752 0
88.1725399916094 -11.0898143629942 -19.1166403816029 0
43.6690047422992 -2.36037241254861 -23.1132390550425 0
74.6082502735119 12.060185916207 -1.70989833548505 0
225.754746203341 0.744351865148177 -13.8659975932363 0
213.34769555849 -32.6070232943067 -5.75804323724556 0
182.611175403502 -4.72940717202901 10.9335748410231 0
177.174880356287 -18.5791767609695 -11.891133719012 0
208.523960436969 -33.7634395704897 -5.43240411183192 0
215.927875867782 -27.1420340355253 37.4631134548343 0
126.22029651354 -16.4522963674043 -0.438818328607964 0
191.936982292968 23.0079406144352 14.3322032306674 0
205.017191177032 -15.910496183461 -20.4043549609756 0
113.244666410082 14.0341495939829 0.269480206577189 0
187.685107148749 29.908708041737 0.224790891721232 0
144.527985403943 6.72766299695748 4.46033754477541 0
171.828356466545 -20.7842472944741 9.41705824820116 0
83.7586957339496 -12.4042155265019 -17.930272145539 0
103.56353539764 -1.6688901218837 4.19355601215374 0
172.370043651477 5.99997498723542 6.58080178960706 0
231.307310508315 -30.1576772770464 16.9082401342777 0
120.913193483771 -0.419039197486546 -24.2632503920127 0
213.298219052824 40.1347357011852 6.01554634848989 0
126.367074322685 11.6748294756566 3.911783083364 0
204.019421058929 -11.5124334797358 35.7281817749465 0
231.355829247294 -2.28276521589556 4.97067083931974 0
189.075201407784 -25.0367101657629 18.37142926327 0
24.07966535877 2.86717423971205 3.35272067213326 0
163.828690222414 8.79560404514134 5.2610110793304 0
146.100967706342 -13.3949448869187 -17.012469890918 0
189.445569143955 -31.9345815312583 6.0471132354541 0
182.364056056715 23.7363255548523 -6.10631891820161 0
20.3606607681109 0.691724635431055 4.7190047267256 0
51.4349150732634 -13.5587596501076 -5.03706120648086 0
62.9906257897064 -15.5427694757871 -9.97685260889312 0
207.211310415408 34.5942550082649 -9.22402834730022 0
212.029013520144 37.2548257924429 19.800169792499 0
196.109881053316 5.72493408724031 -35.1654943590893 0
197.847459369865 -9.35994810659362 29.5691955228232 0
161.496171382259 19.594485030971 -3.4744147264625 0
228.219305383638 -0.993591637720735 -4.65335407064809 0
187.771762253537 -25.3152649642658 -6.78597604045663 0
153.685918757913 7.90144218479397 -22.6695463405527 0
167.907352298901 -2.75288666693216 6.68663336932895 0
232.042535490754 -3.70341297924379 2.48442415767809 0
221.083152784573 30.2757444790739 -10.4334606925778 0
9.76725037266679 -12.6287748667225 -9.54296889469911 0
135.914962341675 15.4403672271085 -8.51306067279177 0
200.350865040417 -20.3133443151173 28.3065136831915 0
238.053208482599 -10.6305479867758 15.6141951223787 0
207.117686569079 -35.758138562229 -0.541399424749221 0
74.9587807481338 -14.5428042114788 -4.31354589255366 0
35.21153304536 -8.78765220915625 0.780500097466372 0
216.70764727574 -31.9732351767964 24.7200295551681 0
90.221768512712 -12.7929331771904 -17.5748305106778 0
50.7850167451667 -6.72176454878135 2.65642012850054 0
213.286346254095 -37.1671360702554 14.9741548162494 0
198.992401002623 27.5907634609694 -16.2059677441108 0
183.934992437702 27.3284808635643 0.924050690376467 0
89.3299821192301 -3.64919088080346 3.93514429263153 0
26.4204174510919 -7.78647289867424 -20.6373198689093 0
170.439638286768 -14.6503144312376 7.73843237179162 0
200.998866789369 11.8205271402384 20.7220459747371 0
161.762753577427 19.1560644154432 0.689398864523063 0
218.460898040674 15.4590934668978 25.7537987346637 0
216.393406979999 -30.2291144763396 -9.92587885081138 0
97.9584271699362 -4.4450947526606 -23.9711090937754 0
191.505142447729 -3.58074456092063 12.5041817432405 0
74.4011022106134 -1.27303664786873 -23.9574742207386 0
237.863762213977 -11.1766634578533 8.10930734754485 0
215.315830603675 -14.1415401600108 40.196308231953 0
12.8128139626352 6.145375547059 -21.0996169723304 0
1.20075087691112 -11.9761818775215 -6.57953928016187 1
125.591084164255 9.10640346931056 4.49760592642414 0
95.8062958031545 -14.0273789679228 -1.42391029506392 0
195.634755129149 16.3552549954072 19.3812571674698 0
184.325395863176 -20.9895254904338 -11.2863865821598 0
239.860511221605 -24.004071524119 16.7797203771574 0
63.5648169588921 -4.35433172184157 5.13284118929866 0
208.623588455205 -16.1933119340723 -21.1676651717676 0
22.1031818707107 3.87036526690668 -22.0332466512742 0
94.0502847504872 12.6393089676588 -12.3682484079319 0
190.875699204893 15.2122304958117 -31.7502226569117 0
231.619671037619 16.5692744463379 4.08800615622213 0
45.7905349334343 10.0050465929599 -17.2946868769577 0
173.071892131118 -24.2845654748659 4.88725849461205 0
85.4146633997394 12.8657588379581 -1.74514991755354 0
1.0950093261265 4.26785503294281 -21.6745769259741 1
205.403168150652 38.3254421875345 10.6932879376689 0
40.9032209267656 -2.55432913440344 6.40873921341518 0
196.032049615801 31.8367689553106 -7.42545042662594 0
194.059713581431 -6.68582261867281 -22.4505887024203 0
231.641515679141 -31.7201625811274 -0.542111361545106 0
190.443138558974 27.4828903132343 -8.03990288994829 0
185.149211183557 5.86609871467045 9.04988538171482 0
199.564028687505 37.9891029646629 6.80198569818699 0
188.707426235942 15.5328186730292 -29.4007665220611 0
181.762621034167 -14.6127728733593 -16.7167098250216 0
193.995488749607 -31.6227347278256 -0.713358863758467 0
203.294450358704 34.3923156745984 -8.29912802901061 0
226.002717080474 -1.01538290813237 18.2453754063001 0
205.919805816212 40.8871580716425 1.00798500914174 0
171.627450187456 2.40273025021198 -25.5698316681947 0
192.638491611994 -32.5976102064017 3.0025482447254 0
66.5401365852633 12.649334310845 -4.38688501488767 0
130.495053152171 -3.1705777700165 -23.8974764063827 0
204.909995074114 -28.2815368747296 30.4911241005284 0
190.503465607592 -22.6719417567407 19.2731480877289 0
213.941761045358 -29.9291589483754 29.7457836875616 0
204.603310873488 -2.54419617039023 25.8413655289539 0
200.13530019922 11.2073651781852 18.9095902268271 0
188.381043169437 -8.24494429304588 12.1532030346308 0
223.778052094916 20.963448741622 24.0082688479321 0
214.700801613881 -4.49307771891443 12.1026462370072 0
233.219333806253 -9.11825791662284 30.2591117902515 0
1.49272592290062 5.562324115282 2.4371115434307 1
214.946029106369 -32.3508323184504 24.3681600487518 0
230.501272320099 -12.0170810259635 34.4654653898462 0
113.288739274102 2.00479778037704 4.57691978599565 0
121.611317671854 14.5627251604973 -9.28966313087994 0
202.341685488453 -11.6843722252376 34.7196938397527 0
61.5918566230779 -14.4061660028425 -14.4774367645771 0
232.548638464638 21.7142513503015 -9.1476088680012 0
20.66159026146 6.14819925373666 -20.9714927393481 0
94.8339431001315 -15.0181710444338 -2.46221085352305 0
232.655158873719 -1.86207779765836 19.4898322400065 0
180.541781008052 -24.2836727587344 -3.72852557896055 0
93.1142607054148 -14.1842052551259 -16.1515459088795 0
195.461467418497 -34.9688835445572 5.20449123158294 0
199.847259532972 35.0908530299314 15.1051859780483 0
6.79811524135498 12.6880975939274 -6.65333127102371 0
127.614148711956 -13.9752818583841 1.44456298693763 0
204.861843033584 -31.629433467729 -7.51548601328524 0
217.850924978191 -31.5590685503681 -6.72789155107184 0
90.4913008133549 -17.1857193657172 -7.33259252516932 0
179.906045422511 -16.0695066471005 -15.3878352263139 0
236.340752155682 -27.406817859172 0.0900809511299947 0
143.296313310154 15.924532529747 -8.51617142067185 0
225.152745157127 10.5542172872557 -26.0945802775061 0
230.169591981939 20.3564206691168 -18.5916312513788 0
159.1859468076 19.0064366910299 -4.05155293226286 0
231.784924466217 -9.16356408068792 32.0419596653471 0
209.156799172421 36.3843040998722 22.0727203236182 0
75.8327584997404 1.6899851729331 -23.5815034319425 0
237.31495636093 -22.2266045356062 0.650790280397422 0
189.447630868617 28.6883204662915 -5.04747671400504 0
185.631181891504 -28.3534010933374 0.178090097848533 0
205.55784784328 13.9360337317968 25.8156027319138 0
186.128470095255 10.8533992366886 -30.3907959215465 0
219.405909063926 30.9420533298688 27.3329547878938 0
234.978863924667 -15.2762127748823 -3.28947010451784 0
38.8245918846899 -14.1118213747669 -11.045647110429 0
85.6390260804403 6.95702144998573 -20.6939413054949 0
222.247532868311 -19.3567365235171 -19.4757553845432 0
209.858992083384 -35.8945344341105 19.8250774703141 0
183.94201698733 -27.3372675178591 13.8426541260547 0
231.98431192745 -14.6034380996704 33.855863970519 0
184.81868762143 -18.4395118709634 -14.2427751399501 0
51.2728409745448 -0.0816692012881606 4.88683575381396 0
136.642275457116 16.5633837869092 -4.76133998659095 0
124.560295927787 4.5560614176241 4.56434914438935 0
211.263894462473 -11.8193928359422 -21.5703655930788 0
191.200316265399 -28.8680819667015 -3.19441053846559 0
95.4838641378652 11.6481924081619 -14.5432533308625 0
167.359865751398 6.92133367006534 -25.0105757335745 0
172.622904877086 -0.876648351305374 -24.4573872800211 0
218.20981044006 -4.57783068264006 14.7438760795565 0
234.34955993577 -28.9961224208877 23.3239361194168 0
28.7127630635116 -8.28243413009662 1.34729339901204 0
89.573438770683 3.9234741448138 4.62110746316177 0
71.0391013845474 8.51355089481135 -18.9635052422892 0
41.9128719580725 12.2226243899845 -5.06960897997939 0
229.298246660705 9.95278194000329 -12.954486840733 0
47.2018742892395 -2.6601366144325 -23.1240081263729 0
230.349103892024 -1.84844962778999 2.47485304943775 0
83.7765881945808 3.46723245152998 -23.0495731200147 0
238.581382272872 -26.8262542224827 6.34674700251607 0
129.493549727426 9.18841535253315 -19.3663930125011 0
238.237070838647 -16.7014847760881 24.9913471339659 0
228.111656332239 -29.2042240919953 -7.58453784860716 0
53.0268248908362 4.27248785756569 2.9343633252181 0
192.03273880388 27.5520946231468 -9.42407179347546 0
142.595126997296 0.0752590595996652 -24.24673963022 0
218.664190026774 0.653123397019186 26.3500241320363 0
196.304776394168 24.6616385322167 -19.6344210650521 0
238.197653101639 -25.5824661359129 23.9938317033696 0
208.204974071887 -32.1198220833592 23.1704690124829 0
66.860953843457 -3.57487175542722 -23.3835037307593 0
205.766021808273 5.37728403394245 -36.7174428191573 0
200.497912419347 4.15800513517844 -35.5426133215216 0
231.588951019978 -26.0981817677365 33.2968934219122 0
201.701709430973 36.2949884187017 13.5644539400313 0
206.968142427623 9.0838367352739 -38.8565128433499 0
136.25012878941 -13.5756816436079 3.00272182573962 0
195.646950753703 8.66335294974233 13.4397552973909 0
186.318333915114 -21.9399874443919 -11.045362987173 0
129.437664132831 -5.2497033084077 -23.3897114187077 0
227.729810550617 1.32718723586698 -6.28941513293871 0
221.107145374616 -29.2569592559672 -9.61467108567655 0
155.798438072775 -20.3876122112198 -2.2255603264779 0
197.897583634524 -31.5358154704351 -3.07440216260222 0
182.75469121666 22.6531153477302 -8.51745457852595 0
40.5656806731432 -2.15269230984422 -23.0625869832505 0
170.19364552019 5.72797463261255 -25.7957677982337 0
186.679705259159 10.3427008845518 9.81557309737223 0
237.260936791104 -15.7568099710976 0.728219623262945 0
226.960245686302 8.59762275258252 -20.6108958691227 0
123.978076355036 -10.564301631875 -20.2085206650085 0
186.826832685956 -26.7683924683676 15.9281421387355 0
161.310052916423 -7.33538905803156 5.7831677745976 0
171.428001788485 -14.4887009469363 -15.8839937296823 0
31.0065089021732 -13.3802378240277 -12.9468757530111 0
237.632351869396 -13.9250637447599 2.96848980705404 0
52.1325542825055 -8.98300269830346 0.816969916554925 0
38.1565551833734 -13.9064064938524 -7.67116815175082 0
232.0633721954 19.772667394351 8.85763758334575 0
230.675049153108 -32.4137564876918 2.44786029369503 0
227.710668545234 14.3591909008302 17.5653537276139 0
162.195366941781 -20.7282038276779 -3.96930294644321 0
185.399612276018 3.14218645870311 9.67434441602504 0
237.462178237963 -9.64876598432856 10.0721497289257 0
4.7199077472174 -11.8429456515035 -5.63969191895638 1
61.912958420836 -6.29131701295844 -22.1603620171665 0
206.65100504614 -1.5891864539045 27.8397111633366 0
177.870067306915 22.8275164726306 -4.49623983091477 0
164.067749951327 20.6637455565033 -1.63256063024891 0
18.2862810080779 8.78662555834689 -19.1227541291193 0
213.154271103879 21.46996765883 -27.4561612336851 0
231.314194106309 12.4255622203292 -0.583711050553668 0
167.251005063837 18.2232065565713 -7.56141879261165 0
230.696120943864 -28.8499122414703 -7.40621910840968 0
197.115256549869 -37.8186734997727 12.6528634152902 0
179.37410582994 24.4258037922912 -2.45457578063654 0
224.902479452083 -33.1587099655643 2.73906195052108 0
18.7922960340385 -4.19623388970104 -22.0875545235418 0
207.261681230055 -19.1265371035752 38.084615471235 0
225.840975164046 5.67715408326982 -20.0298904476452 0
98.0278101745794 -10.2344872219287 1.16350290695064 0
92.1111811582928 -7.79263329370859 -22.1088769336974 0
239.810819195968 -26.1603145127459 16.2033887750924 0
193.365263340326 -20.337513185587 21.6818346402233 0
227.466298628781 -33.0101226657172 7.82887659521896 0
168.76207683005 -22.0709500990687 8.02077939799569 0
140.352857593962 -17.1180832989429 1.34706574609639 0
198.501613867795 -4.44730776722153 25.4552661403142 0
201.842373158089 -18.5932555177996 34.8179242547153 0
19.6928167847551 11.6406061136334 -3.88188177544938 0
167.52609151017 -22.2037223997249 -0.758230976441531 0
178.35480187564 -22.6297236712413 -5.68534874179425 0
197.958215077679 12.0820220521627 -39.3661876248581 0
230.708462146232 -15.8933239057488 -9.61108719448329 0
143.327258985309 -11.9479806553161 -18.3879645809764 0
12.4398540508464 12.8518577883858 -11.2641526284612 0
171.906396904261 21.6008749545389 -3.99250866817375 0
201.98531082888 -5.21520649731846 21.1329844642766 0
221.357335151186 -35.2613716962827 4.82358534183214 0
28.2599253341175 -5.01143605087247 5.66492852437825 0
187.00779226063 24.512840375779 9.41953798987478 0
204.897389598388 -32.9455924788957 -5.21671742323584 0
189.045952304224 -8.55093939020733 14.9258735493411 0
201.621539091906 -37.574239897445 5.79953451585375 0
9.28422708734158 -4.9374160124975 6.03040716436798 0
58.799150390268 10.1491261523504 -0.667433239540129 0
159.50569389499 12.3904215533054 -18.0018519902041 0
220.46861089967 -22.8433520225458 -20.2637633135108 0
220.472427971929 9.05557632109574 9.75879982196933 0
180.780381226516 11.1214412292136 7.89795880535108 0
154.223428429136 -20.2328702959577 -0.90861405271762 0
118.298579771245 12.4553146090266 -13.9246205013833 0
162.679457384912 -11.9433538092409 -18.1239122837854 0
189.666101025924 -27.44013629862 17.6256209283795 0
221.784527139838 -25.443618456612 -14.6573245900287 0
230.692653064451 25.6686607308126 15.4644977731635 0
130.570981791061 -10.5814567471736 -20.0267841828169 0
222.061787395843 -6.56958301902995 37.4420217394303 0
149.219341723562 -19.6396932159346 -1.84643637884147 0
118.173678321337 9.69070266442433 3.86221860431053 0
194.138793189372 -28.7532802501372 -5.7415997580145 0
184.153933735802 -19.0672635812374 15.7179171496647 0
195.317182628578 22.2568881938906 -23.5955877326969 0
95.0925413510794 -17.357514982208 -6.35223615009393 0
225.977717882858 8.95726174686921 -23.2318726634454 0
102.330677025726 12.0862304294397 -13.965178481828 0
34.7805750775228 -5.99508752543903 3.67996776799708 0
206.672383996708 -21.6909143012885 37.2615152480505 0
217.406701695081 1.27571335539135 2.10836433332902 0
203.849764831909 -37.8538273816173 5.09408818740423 0
184.41039589332 26.7028861402314 4.74108835147974 0
84.5718284933578 0.586700958304255 -23.989130967115 0
23.7712170348348 5.76225574570344 1.85157042954683 0
179.471166022384 -19.6560494896937 -11.2118303133693 0
151.579420179866 17.4842353634641 -5.67035184475401 0
162.278640935403 -5.43247480533981 5.98327034297895 0
68.1686018579871 -4.47481084077741 4.65962074574506 0
226.956863592679 -1.98292288360508 14.7567491267167 0
195.629572102874 31.4843558073988 14.6351280333689 0
58.5544271296973 9.36581174828195 -18.0091498401908 0
208.073544917202 -0.419368672960014 -32.2417971546841 0
102.475270199122 -1.55893788407252 -24.5263246647704 0
230.825046265029 18.7805236270852 -17.5018356099915 0
203.156485309214 -33.5699944626859 25.6833021112262 0
77.8122850993945 -0.243919837169386 4.95242859150989 0
217.463345958907 19.4908673616297 -30.1315499901334 0
141.868628315087 14.1375696778156 3.27995360413782 0
146.61312779315 -19.377872504003 -5.58674493805091 0
95.4316211096156 10.6282461417792 1.48318872804833 0
227.915014736333 29.3156530864582 -8.89155868738045 0
155.364435150865 -7.71448371147118 -21.3260480015154 0
116.417710897852 -18.3691393930538 -8.37259274506145 0
50.6369586933883 12.3365398889679 -4.99708396737496 0
178.216780465784 15.410790112069 7.54147338672738 0
55.102034632182 -14.915683734487 -12.0857933893923 0
167.692004420955 -20.061642585597 -7.44187078998598 0
104.361855142607 -7.85404269070135 2.81063193011309 0
218.321544646886 -22.4121719625053 -20.3298260941002 0
220.58698047766 -4.14631800118782 35.9661179047691 0
94.1834712273062 -17.4468439971357 -8.65300160916101 0
198.478158282578 -0.90089495529633 -30.3115691830746 0
71.5437359567532 5.74973198313389 -21.4609444472476 0
70.0788598903547 -0.1721524271932 5.21990045410464 0
76.2392991152292 -15.9597146549609 -6.972261021638 0
237.933281380721 -12.8557358499062 5.53266103032035 0
31.6005951623588 9.3103341575832 -0.684092838600047 0
201.893443047282 -4.81126185797055 31.5137259213057 0
217.156704663973 4.95470050649876 -32.2220299198004 0
208.026943991773 -33.2248182881485 25.1877424955668 0
220.426606545681 38.3697299417742 12.9830719220977 0
182.453402695304 -26.0375944785528 13.6925833461192 0
204.607101653962 -37.0137501497525 19.3052736497711 0
205.655298440301 21.0230254459994 -28.8335996063638 0
206.505640601479 10.5418631812649 19.4120622070121 0
98.019724005234 8.40013083911546 -19.5666416183408 0
208.293259760007 -6.70539528366643 36.3862476908699 0
226.493570244798 -27.3483386189106 -10.6235750091499 0
227.795365271543 36.9478261112884 18.0998942916951 0
71.6059157427094 -9.38265104084196 -20.3032085917847 0
201.339881268051 7.75482472593478 16.6917920806432 0
186.32933649964 25.8120417185372 7.48783492408425 0
10.3193266043942 -2.49184528055569 7.6440389881045 0
185.484911190272 -6.1013624057095 12.4388163388656 0
189.234134823654 9.88924745519916 -32.6854086233224 0
141.007479146531 -5.31661750426162 4.35713759322732 0
156.599816847795 -7.22637965634525 5.22382543957123 0
175.879587041702 16.074601493214 -16.5885679616119 0
233.351229437102 24.9791209436122 6.05837334230108 0
176.099594125579 9.3443923530115 6.8683082396004 0
112.821598944988 9.09158116130514 3.64261925447658 0
185.138330283461 23.3813076302386 -9.76079281759534 0
205.588316045332 22.0657712174006 27.6537957666473 0
153.687792814163 -18.1762652496613 4.51862147491685 0
221.505408241242 -35.8480372045617 15.0835345833186 0
206.272226541312 -3.37519999011466 24.8964700130613 0
213.764327077254 -16.1952120620175 -20.8076010261109 0
198.836631738308 -38.062051009597 11.6658163846034 0
187.447019047692 -24.4368900820709 17.7183896467045 0
221.361686388117 -3.29893430629862 18.0886873255147 0
185.401992072343 1.18849638306927 9.71942713593236 0
194.877099672782 -19.6101584162658 -16.6758072062093 0
211.247361945279 -27.6050386849089 33.0476974631247 0
5.79393757236809 -10.0011687801715 -17.6091770677451 0
128.658896031527 13.375994491348 3.06100474066273 0
217.496043066963 -18.0419713900563 -20.6016813538306 0
195.653443595084 -37.2273380210676 9.34708867168646 0
83.0168753510297 -12.2464552217383 -0.900138772410005 0
187.219100397139 -23.3552088840717 -9.55961783699583 0
198.901913803382 21.9083039896996 25.3352089092784 0
187.486919008485 -24.5091101514396 -7.94060361434869 0
116.544565465562 -14.1431446075594 -16.4864660994663 0
204.859184107159 -2.58347515546116 -29.776004932387 0
231.731180653686 31.4536164468164 12.634091803173 0
29.9171940740088 8.44830532406494 -19.2867079914118 0
17.9146163794487 6.58575828592198 -20.7347472481833 0
75.3443195280243 -8.93529987336008 -20.700562516845 0
221.871556235563 4.54234786072429 0.6836851708559 0
216.277011183827 6.53486831721873 11.4148901250117 0
187.866994634933 13.969352030994 -30.1912916874453 0
239.669733000698 -19.0754251028019 8.74812854869402 0
228.50792438751 -21.67740707638 -14.5855278863485 0
149.31240616678 -18.22548807367 -10.180862905419 0
233.725336558258 26.2050722152572 2.6646516672831 0
151.740227130674 18.6013719367063 -2.70181298783695 0
154.996221194001 -5.10363172926509 5.20072011411562 0
205.368702059605 -38.7836642315681 7.80106460717619 0
217.422468158612 -0.931824830613772 25.489343332452 0
184.30865423307 11.5735036867142 8.91684220041595 0
209.894436388415 -35.1814042967101 -0.625668949764779 0
205.21677338259 12.652235642319 -40.1683771045348 0
221.488365243385 1.53515061773072 26.4159571541331 0
192.577358118261 -11.2769234937858 17.9935243875667 0
105.214620187091 -2.72119375488613 -24.4798856361994 0
122.096088729825 15.8110536470765 -4.25076026027398 0
217.522279817527 -8.28476724495784 39.1054854275027 0
221.147473885529 -27.2853901246139 37.0850493225277 0
179.238441451674 9.82266749030827 -27.332021653327 0
215.409004368284 1.3571328725533 2.3517915814507 0
146.051807870309 13.8139626372046 -13.7974767396567 0
116.672073335331 8.97517379003372 -18.9976398221263 0
98.2341322966649 14.3215312305 -3.75003158133656 0
36.722082167185 3.28874772100188 3.00322725744872 0
163.98460052449 19.8132040518784 -3.85426319982762 0
184.4137810045 25.4502103736417 6.38487868506213 0
67.2355065585395 -12.0080925498899 -18.124223085785 0
187.222897436613 -17.1772023204962 16.3577447145377 0
48.0374903196325 12.398748736322 -5.43242421515463 0
176.518948750279 -11.8823384148264 -18.0745087530744 0
50.2718111265603 -0.0181670869816029 -23.3518976940184 0
43.5470334670759 -3.14767428208745 6.24607728550064 0
209.458108100436 14.3024508219853 -38.5482450965735 0
188.344644727978 -19.5956070114491 -14.4133909144491 0
189.96762535902 31.0950656395412 4.08745141554291 0
156.458993947975 17.1355969511044 -7.69630913714929 0
182.531991187207 -18.367398036834 -13.7284552340279 0
198.265112780666 -22.1613963270283 -16.6127759852063 0
188.640186021797 -8.47726554216116 13.4783388477521 0
223.157810928452 -35.6582581297186 12.1161692106911 0
195.808070594281 -32.9754708611864 0.680398531969294 0
196.578379066384 -12.2978663795383 27.2685171531766 0
51.9306797109813 -11.1057268748103 -18.7683387156671 0
184.521572787704 -25.5626489594438 -4.16016834232086 0
181.502332770202 18.0166672445013 9.01328067807574 0
234.498198546481 -15.4268554962126 31.1612743891556 0
239.36325467556 -27.5219513397895 9.50838424167994 0
191.353833875809 32.8674994583817 4.42864293585538 0
224.755608498859 7.9588182088888 -24.8815389194824 0
18.0174625142993 -1.67388045669939 -22.6106738728361 0
229.472252845819 -4.82901113131466 31.2536160112351 0
116.153987118243 -17.2712053528385 -11.7629901397421 0
136.590706822925 16.8717135564831 -1.47554734664108 0
217.850533865166 37.1627115442852 11.154697080684 0
157.185469358152 -4.95898048243634 -22.8483655271812 0
193.357056135985 -16.8586243653041 -17.5223656920741 0
32.524459494976 -6.67810635621798 2.85384839814717 0
86.1621557106007 -9.54978798152244 -20.4739131585789 0
226.242426373906 -14.1102705624858 -14.7945473509486 0
191.072811559449 9.25155477571739 -33.8960880053762 0
109.029253668442 4.8618466136016 -22.4244238590188 0
173.899388390275 3.93253175639425 6.90357434393232 0
233.547147839678 23.7576471559838 -3.84054478317322 0
122.162912076578 -13.9856129701218 -16.7376593489731 0
234.175827338691 -29.9095797982428 -2.23201162516541 0
158.390331387444 14.8452012938719 3.49238705662003 0
101.876008809084 5.41405538543664 4.58782184765435 0
192.240513506526 -14.3018236725763 -18.2031807017071 0
195.233151541323 -0.947819767677776 13.4990607114718 0
196.689276975414 13.1513430250806 -37.8075678085928 0
78.8713129540698 -7.66814908749686 -21.7016262145113 0
213.98983899926 -16.1489308456709 40.1188465272915 0
176.76927236496 -17.3172677987603 -13.503706132221 0
162.982263406006 -16.2400396826994 -13.6258695142306 0
181.67783224687 13.1094344482058 -26.0462825762611 0
228.106740216184 10.6867342612791 -19.8218217744247 0
125.198557935696 -13.2653603759784 -17.50615270159 0
131.396387477599 12.3254808581208 -15.0595773375709 0
213.38128367642 -5.31118612222053 21.1988149099219 0
81.7770533744368 7.89705989690139 2.32375405225131 0
216.911734203845 -4.85668672074496 17.2619109299278 0
207.840268195582 -8.370138169622 -23.6623313072727 0
199.596717559395 20.1656606983308 25.4250590285791 0
211.814729204109 37.6349425306065 24.1332213039224 0
183.99623404174 13.8627474950122 -27.0011715037412 0
121.13301836687 -9.86363529165729 -20.8504857564865 0
229.288617527436 -27.7377463569498 -9.48316953792065 0
231.360935846119 35.0682358875362 9.91944161135789 0
220.960295510627 13.5444362753531 -32.3735477102502 0
214.644792591397 -1.33541615811219 26.1989307548582 0
221.12984437751 -30.3649694570522 -7.52493559550632 0
197.624174226762 13.1884154226664 18.7374828390317 0
209.144669562399 -10.2345663354815 -22.3358335941886 0
211.130466640567 -37.6399506940343 5.9461018823443 0
203.312477860661 40.7917773433192 0.930356354560351 0
215.983431315978 37.3901745617686 10.8289747574721 0
231.195966652018 15.4622731980552 -14.4822167419264 0
217.129585492211 13.667443097798 22.4777851752302 0
237.240570551182 -20.7614989978069 27.6913880518412 0
182.044929505171 2.58244897028237 -26.5874194825673 0
209.142640848404 -12.9293775461105 -21.6155884695874 0
153.630744983305 14.178334750073 -13.7325233716605 0
214.523464088922 12.9649603145293 -37.1523845013585 0
196.868222191036 34.5885209530244 -4.19724655198352 0
172.625915144075 20.9044358887886 2.67203580285168 0
42.9111087276736 4.12765567039441 2.69062651997004 0
204.451807988166 -35.4663282406785 -0.439559307156254 0
179.634610084388 -19.4899201876333 13.8300937671182 0
195.642546200821 11.3206371319011 14.4504061492145 0
218.402460671199 39.5466677294753 16.6802986223668 0
235.822474558953 -11.8004843929387 27.9506826491517 0
194.478061406183 30.2849196663988 14.9991111639222 0
195.651879344912 -25.3267091775532 24.9747862666906 0
18.5900626531428 2.76419029523529 3.56452174013763 0
131.217475367004 -15.4157893511174 -14.8657502906465 0
152.037764853334 -4.79049307758711 4.99602789759869 0
230.754362532242 26.4767765610724 -10.7509804147725 0
187.881326571514 -28.3706216532142 15.795352846571 0
229.890983988487 8.45843694135854 -6.39212907811542 0
178.914372093759 11.8353132422636 -25.640006535891 0
227.107128074049 5.82784532147095 -15.8555773953215 0
197.324027753111 -1.87657134253158 -28.5390760944863 0
201.384294856052 5.88166345225276 16.1490176800477 0
26.7776918429735 0.360944395776477 -22.8483909464174 0
205.980959588208 -2.21836184377864 30.01514721569 0
198.501019771671 11.2332105573471 17.5464443348945 0
220.123780902211 18.6079682863349 -30.1509831666124 0
69.1058769302074 -15.6511239791479 -7.69428445440381 0
158.279418789279 11.624195577366 -19.2133005537473 0
226.954949887541 -31.8999402813397 14.9295032906419 0
156.339041065372 19.2142913031361 -2.45989700412737 0
210.321270819619 13.1254892267795 23.5528423708829 0
159.418070485071 19.2449201190364 0.0336279803007607 0
15.7175546928386 -9.98360880824604 -18.4121444726026 0
106.903755163386 6.55023918528458 4.40095374663949 0
166.732113319944 12.8399870596954 5.06854270899429 0
205.247745096726 -9.77479248125723 -23.3873758492257 0
207.574040151734 -1.65250389102749 26.729306857603 0
194.166988816308 -18.3613482192245 22.0327404918173 0
239.076858954872 -22.9044620183085 22.1816305702505 0
232.238590213817 -31.0522207968769 -2.06186539553139 0
12.7207469616375 10.557488972555 -17.05436427308 0
214.907139830987 -26.1095229338962 38.7711639369382 0
214.885498080316 -9.26654310278662 39.3719614665405 0
43.8836123785001 7.3463719788182 0.951790639232448 0
97.9498512634333 6.09367021439528 -21.62895459912 0
150.1558091204 -16.8453186376932 4.19369387634041 0
161.338508930844 -3.39246101152002 5.8372803310762 0
36.4117339133007 1.37457077828837 -22.9454256668325 0
208.604156560308 -34.6190627285248 22.4145262048157 0
204.899215490484 -28.0657881728048 -14.4541382118035 0
200.256075740614 -29.9157497892578 26.8920869148616 0
227.144621814633 -6.70018419899858 -10.8794325751588 0
10.6048491525762 -5.60941947941033 -21.3037714008573 0
196.740145952853 -10.0272917401487 22.5953629165146 0
163.578617086417 -7.28250146125311 6.16097108618061 0
232.406421598108 32.6208615018996 2.08467045383468 0
218.388452432529 -34.7383709771564 0.685822590549342 0
215.544840533768 -31.8454906566953 -7.48014041488477 0
172.479065627929 11.1271557659556 -23.2902444169028 0
225.698122792585 -1.67726926191554 -12.1939338365887 0
201.982354743073 16.4787733602365 -35.6199641802775 0
42.7027625709748 -5.17940426714201 4.54511739906477 0
221.994738529919 4.43384513042318 -26.2448556499402 0
22.4210133302769 -1.02330838000145 6.46550402695217 0
215.734520499049 -34.4645648439001 18.5112988561881 0
197.214678170567 27.3464229531668 -15.6506192499016 0
206.435149025643 -24.4225331916841 -17.7630724807632 0
70.9110510065566 4.133953854877 3.75101539502209 0
199.280362900432 -9.41845537278095 -21.7566012145109 0
219.787507806357 -10.6158788796135 39.5716759001861 0
231.695690879121 -5.66148480113688 -1.55448089182055 0
5.45475143959742 12.0630520334429 -4.3532615886393 0
216.768854044543 -31.102613492356 26.780605319112 0
157.672133548692 8.93583440231302 4.78212777706938 0
133.222010165216 14.468790864409 -10.7296729569676 0
204.467160358606 -38.3424078135082 13.1120807153792 0
218.0412106115 -33.4662163812933 -1.64883673186483 0
230.593147071712 11.2500202849026 1.29070743874533 0
227.043468945557 0.87935060030897 -2.15255530522616 0
210.924587766052 -8.38917079817195 -23.1647298283032 0
59.5499338818806 11.8101171561539 -2.86247131122886 0
203.870908393293 36.3205305404455 14.8873241488868 0
193.777463859062 3.98364724788215 -32.0551710815881 0
53.7265845587939 -12.2791381629917 -2.92205504734805 0
201.663798334769 37.0882875566933 9.76280307279693 0
129.546890850917 5.7483506336624 -22.2567972782906 0
79.0482551414833 6.45774395891499 -21.0329285162408 0
192.608960571252 21.2528761512864 15.7370686645169 0
230.073276436917 -5.67856738676459 -4.84760516734489 0
202.433375416834 39.9491423483623 3.01365044705451 0
173.0099290122 8.18658741099549 6.34674320907294 0
4.76136711900766 -10.3523496354475 -2.01875421633183 1
169.798935817126 -18.1352907906728 -11.2469999075164 0
37.3447742805691 -5.21699723757044 5.28167056196779 0
110.325571857507 -4.47230522658981 3.9520225609875 0
187.757359480189 -4.3150301539589 12.4871024829064 0
199.719323358857 6.06163482758044 15.7665361780329 0
209.186011371945 19.1495712774191 -31.5399346673386 0
189.839120835136 -31.2873972108448 13.2067304943084 0
187.85330355704 11.7232322793898 -31.4814803816325 0
23.2025898014908 -11.8265705329556 -4.11774284835512 0
135.953772665239 -6.06167072556658 4.09730574233356 0
198.591049594442 -12.7102192587176 32.6016001730954 0
203.627961227986 -36.4699752317247 1.86407323920407 0
21.4957553325137 -10.7419064989344 -2.27833444764249 0
229.021272361516 12.8833395913289 -19.4418993887707 0
200.230214725127 16.9349489660863 -34.608979942418 0
38.8029521427552 -1.92235256120914 6.33317797580912 0
179.901427285753 9.96537891464658 7.52316107503831 0
228.267935509904 15.3948973489805 -22.8107746367686 0
204.154047146976 13.0969913495376 24.5291238860379 0
141.389347974065 -14.2088378989296 -16.2432059820848 0
226.437993478121 -25.6530530484066 -13.2551361165 0
3.61130804769018 1.09147235756075 5.14351194771648 1
192.165600762068 31.4030178484333 -3.8462365616727 0
238.709358349491 -15.5838856363251 6.12051310414239 0
107.611931034309 -17.3318122940849 -11.2528349158852 0
76.2294285616727 -11.5234004675455 -18.6901396856881 0
0.401555064175281 13.2381087643425 -12.1236325961213 1
9.52973152035445 11.5807252596861 -15.4845521004703 0
42.6739292426314 -7.43933012110156 2.00709719366971 0
98.0807983145443 -17.5918287631598 -8.8871504844561 0
220.726197775405 -33.9518853048462 -0.469281964805202 0
188.678565272131 23.6463655735376 11.093056072682 0
233.207427110908 22.0251683169991 -5.87078803630351 0
157.224758221904 -18.8308684740353 4.84338282348447 0
199.742581994821 0.421473027548932 15.1289646807699 0
219.925255720723 37.0850702527383 25.1317449964815 0
230.030788063443 -7.35353929258569 32.7981898832197 0
150.861198020451 -11.1225845305959 -19.0170963542985 0
184.623573768144 13.7921952155814 9.41441602755886 0
91.3172073892705 -15.8790083598885 -3.990024771595 0
5.94178226073455 -7.72649223914196 -19.9304597141725 0
45.7539007233329 2.1399048492238 3.7504226644061 0
145.030951177406 -18.8958546528291 -7.86990574289167 0
113.033662595877 -13.7933438082789 -16.879751274661 0
230.662481967184 30.7725758458336 15.7365608224385 0
205.05842057163 6.7766522806547 16.0614015264287 0
46.1776246513138 -9.4565608218473 -20.0586573054415 0
32.8565743555498 8.64451844922717 -19.1850146944154 0
200.065583074141 -11.8542202278367 -20.5950792402263 0
113.267934086392 -0.345884959487523 -24.3627782864764 0
216.809682793068 4.91091878001021 6.6872458485604 0
180.962626199069 6.2149978463302 -27.4619855126406 0
219.964634499538 -18.640185032836 -20.4676849907491 0
9.1084210509654 9.95228537890637 -17.869118071562 0
202.313442488546 -10.361859950819 -21.8246818250859 0
26.1292649883405 -13.3952897925737 -10.8749897239542 0
60.6433238170937 12.6180077414184 -5.0169908309785 0
194.197652203075 37.0451077378446 1.6847708676737 0
175.841556582332 -15.0095727214323 -15.7458132809329 0
120.953592624206 8.68851106713637 4.39405135409258 0
182.973350157133 -7.80163886906038 -20.4774138958888 0
160.453877060503 -16.526618125905 -13.1792823137031 0
228.392352243699 -0.929412398492319 -1.36421096616496 0
59.1311695603337 -13.7158057416935 -4.63762535983292 0
173.4767311424 -24.0500267048574 1.81338963971133 0
190.317268309871 -17.9198125709711 -16.3133614671703 0
196.504054130461 -30.3940220419511 23.5615969072149 0
53.330754365372 -15.0369929428697 -10.0081187069489 0
190.552788086182 12.9956356546121 11.8706615499226 0
216.481962585056 -37.9597714216647 10.6181491794467 0
16.2440097485968 12.7074804504823 -11.6988074490999 0
237.738792835544 -28.8948751770095 15.2823330150124 0
211.462836535606 -31.0687615138759 -10.3305419052756 0
170.427913568688 -16.4584639118169 -13.5169216377841 0
216.362561618455 6.23071338059142 -33.8158418892549 0
207.002075420995 13.9845763017729 -38.8610254484829 0
201.828804210525 -37.9932678436992 15.8088877341235 0
196.589857951304 -10.8841591901291 28.6848456879073 0
78.1923869345746 4.02340588515567 -22.7252536028207 0
188.499441644925 -2.41710512622491 11.0989098544221 0
210.997200807195 -5.00034748516252 16.1876630095459 0
230.591720884305 10.2808250808746 -5.24054716785744 0
112.721408283359 -5.16293478872059 -23.8177550488624 0
186.693813198509 24.7047258360076 -8.56877018469419 0
216.343165413244 -2.69650312249837 -24.7069593028736 0
229.947019431105 -31.3623484507227 11.2165281274535 0
228.553752778985 36.5233629319269 1.22617439050635 0
211.409346870109 36.3131079577073 25.8849018702945 0
17.4256631499821 -12.939383319918 -10.6867966532307 0
172.675299362743 -8.31645009067975 -20.2405040297463 0
222.866434100261 -16.7075654881795 -18.6086405346524 0
