157.531589456018 16.7905282864436 -20.6843238610848 0
55.9209475108306 6.0833206706707 4.82361688549816 0
138.143418901078 -11.474046139296 -15.1512295322569 0
18.3655279413704 10.0888734818966 -0.70081665592678 0
156.678980742124 23.1465484168502 -4.6403142863932 0
-12.7646628905201 4.67968522704678 5.59749167806662 0
169.370163225875 27.5775010264131 24.7592689448548 0
160.507328764438 24.3917989543072 16.0387887073463 0
107.305326210951 -15.1935180386586 -2.58022090077078 0
165.10580733833 4.75290112228544 -19.9678515866092 0
137.745262587844 2.3905780152139 -17.9774479831388 0
186.261338343764 26.0577371132828 28.4991829808101 0
-71.2494510860634 15.7162038422439 2.22628065180229 0
-2.71930676355536 8.80321884527133 0.895566895151173 0
169.345671768718 -8.45386473048775 -17.756126029598 0
-28.7579233935293 5.60968425168266 -18.6542055396283 0
-43.4198270971749 -2.50811337380216 1.33059871233515 0
195.104378557829 16.3908989252055 6.43989869609749 0
82.8039262719744 -9.46206978999997 0.735474025430007 0
125.27983928793 14.984944324276 -8.32148343591178 0
112.433118566611 -7.23687391944801 -16.3083036983061 0
-57.29621007121 -5.38898206431782 -11.8362603044295 0
194.89096651985 -10.3300237422843 0.43481918286238 0
182.242649148268 -0.668648658253208 -15.0031837226628 0
96.1986578038496 12.6313163027438 -11.1674512172621 0
57.091776080961 5.93299678462416 -18.2535025102346 0
186.366788772595 -37.1934397860407 9.00955175289269 0
173.110317484368 32.6000222460901 17.0542267350681 0
147.598952169916 -22.1796186231179 -5.11901582827643 0
162.691972090111 -20.5652244999352 14.6678508754571 0
-23.1934999650746 16.0995681191435 -14.0742046092654 0
-31.2270177118268 9.31800644714136 2.49115711894898 0
-63.0806692741124 17.6321002789647 -3.99467100570098 0
8.19449438206338 14.8911892366168 -6.67212315986766 0
-15.2189601693093 -3.41566176222087 -16.7182594566634 0
158.43423716576 -24.7162280680832 -8.54381848888935 0
194.030868874134 -32.4564022807679 10.0003941705463 0
172.676049111213 -39.5592572053768 6.67319166217692 0
121.682809524256 -7.1816219855984 -16.4406326476084 0
164.484185356646 18.9976880785212 -22.1979548797009 0
184.396209933976 20.9425253488025 -19.6949457920322 0
191.676872870253 -33.7660543569154 8.26859884235392 0
150.14445331083 18.6751789981643 -11.8830046284914 0
130.329066731906 -12.9673068606648 5.81381062864285 0
91.3623854383696 -12.052045733088 -0.70779972299655 0
164.215481886022 2.06057139260187 13.3427143104422 0
90.9277107501347 13.3420217837506 -2.04749105853048 0
23.9154728359048 -4.41897195579624 -16.7382177204902 0
183.43057563196 10.5331953530709 23.4574948897838 0
178.607875178538 -13.7095154784791 -20.0445838412318 0
162.517700832482 -32.5294853688911 7.8978168892571 0
57.0504866118427 -6.84314274323775 -15.5899592136471 0
174.21257320561 6.38317395580337 18.7726817284444 0
25.5073885594835 -2.36820733982652 -17.7756912707309 0
103.468898654645 -14.9952081892211 -5.81384441717245 0
157.88761530774 22.1764814442918 -11.5215409625797 0
-43.5809837591981 6.97192161959851 6.03213222310361 0
-1.00752662071463 2.46904557756072 6.62399522022377 0
-62.1262302283832 4.73831371933007 -16.7538730627862 0
163.235211346814 14.8930303132083 18.8224448912496 0
46.9654989841689 -0.420274253516862 5.71630741157185 0
-48.4434700763079 4.11205624696887 6.41247017535289 0
93.3586598948892 9.29441167098276 -16.1590722720463 0
21.9706697422811 -5.97828253674093 -15.5234632700822 0
189.935529742228 8.17891896500616 9.5050531179028 0
162.224585951241 14.8861058199462 -22.9848237636998 0
99.0113954030722 13.8434049488664 -5.05908764638309 0
146.504566887416 20.0781342139134 0.791945420321935 0
-11.3868246042684 -7.46199186573515 -11.9134318299435 0
135.651680227813 2.03580225440346 -18.0111931534892 0
1.90216114281263 0.335602348951215 -18.6257382837295 0
33.1915242441124 -8.0988154424016 -3.14218691007167 0
185.697598572733 31.0669861905464 5.99496360245363 0
167.137886132407 28.4531990496309 21.1723597105072 0
159.934166054985 26.6081307185983 14.3214697566198 0
176.608578546117 32.1251292869277 1.82352433277522 0
98.8460909912839 -12.4004613966972 0.463256546103386 0
138.709197014012 15.2541568597618 -13.2887965010611 0
64.7774982145197 8.10472912569857 3.50392711065677 0
148.671871590248 6.21006849754001 -18.3970534212147 0
58.9411114880129 -2.07697645216297 4.51970564642455 0
175.357773437745 5.31134452157795 17.4670137343705 0
51.882337505522 -8.49283416814583 -13.6594508410434 0
67.5043348989925 -11.4886924754843 -5.24009394563756 0
113.322051257946 12.8314728165147 -11.8899773256398 0
-9.93213844070728 16.6760231685486 -11.6677217954918 0
168.338283543049 15.2216465223973 24.8572545103037 0
-38.9145747630048 -7.09555216290509 -8.85756743656766 0
87.4112810268324 10.7599515842805 -14.5326183588973 0
195.406209560123 21.461346609899 -1.34696118428261 0
197.420732117666 -27.5670199089323 -1.68044614399734 0
177.36274077549 28.3283225645151 -5.41965499536237 0
36.7243396290434 -9.49930564721062 -6.25961866742014 0
180.958601084914 11.463465329644 -22.972356928471 0
194.009496843216 -9.92394404792937 -1.96814989809391 0
27.0030633901481 3.59029952772411 -18.9173018837147 0
-51.9349781717067 3.1315075698481 -17.2145824803765 0
187.503570770364 13.9631758736616 24.7578504394272 0
149.684490827503 5.04899704825717 9.81101937193942 0
100.234345747788 6.06858708266788 -17.7559915386127 0
100.598218507718 3.17453433522289 6.02094567148221 0
156.712118088527 13.6618527097314 14.2607245337427 0
135.028179242404 -10.5577842669411 -15.509866291286 0
-24.5089199008176 1.39923053612066 -18.2257892506059 0
192.501993533795 23.5333979830207 23.2147333116765 0
165.248345112311 23.3224801353726 22.1364121676237 0
199.90552113728 -29.0116622887442 18.2972156208193 0
173.949488178035 -39.2899151243662 13.5379843381421 0
136.044040195833 -19.0796138936103 -5.90786837156177 0
171.099685865793 -30.7221209117889 -6.92206057656934 0
114.832013026091 -4.39904873850097 5.3368452710638 0
179.699305686428 -37.3287058337998 14.7468445267403 0
175.026103291936 35.6503829734593 9.71053977145998 0
-18.9232288600228 -1.41996772031057 5.02456641581457 0
142.847924212386 19.7702001302634 3.3563997097488 0
168.112517033816 30.5497286267891 16.9682682389892 0
82.8691817726783 12.8745793969365 -1.71020112979926 0
148.864402622793 16.9757940590764 -14.7845684938535 0
-54.0974322276495 -0.4611697698801 3.94438236071095 0
182.52072655842 31.2735370824871 17.1320121699486 0
144.88844726137 11.1378693000115 10.3092937225403 0
168.706538755202 -23.8412540852218 23.3131477218876 0
159.223902773578 18.7344170926328 16.2596099656211 0
-82.3657856825826 3.30391172340895 9.06547972670177 1
87.5784661063462 -4.00544967504954 3.72610782381065 0
189.142835675842 -35.0421304426535 16.6997644734149 0
133.330050557177 -18.9494461475176 0.686585333960788 0
137.544796561014 -15.4008352819986 -12.3014372993541 0
192.531596765312 -6.43345277477868 4.56102510295991 0
191.543162591907 -11.6004884720902 -9.10342689373736 0
105.064109844703 -7.40539111330653 3.60008976792772 0
-73.03363190472 4.06778039051637 -15.7299239537356 0
-34.0508121291558 5.96343202357832 5.79858909941192 0
151.865246049508 24.7392503417581 9.27371236601399 0
168.895011452739 13.3285201923831 -24.7545066505373 0
191.793591896016 10.8309457929995 11.4333815373959 0
80.218745464329 12.3932560543276 -11.5992342785127 0
-2.60067591930263 -4.29521851490438 -16.3553881081315 0
16.2986090016054 10.9047397728415 -1.49832063880525 0
8.84858242588727 15.6714502281812 -9.01235285188781 0
195.100837900488 -27.8437538539232 -3.92710691129554 0
144.078078060036 5.75584282546665 8.90890612129296 0
-37.3861888641793 -2.47135006452671 1.45376249215266 0
119.367598763075 -14.8623670149612 -10.4173625805697 0
195.564284598575 -29.9611827315976 1.10123331043094 0
-60.834444921156 -0.832093213784974 -15.3278542477773 0
-61.997414578528 -6.04139918745361 -9.34264728983983 0
123.608175871307 16.2005141293704 0.381628310867344 0
62.4816857306486 4.18837181250026 5.7026057246468 0
-35.2643135304095 7.13717690869725 5.69422832549219 0
196.443243503868 21.5343818185992 6.15427175556963 0
17.5231125038007 15.1294583748425 -10.602621163519 0
175.789849309611 4.07604162562014 16.7014511853312 0
155.674401462915 -6.66272768369901 -15.5045137524248 0
153.402680361542 24.0147143748696 6.41148646632098 0
195.948298485341 26.352420047186 3.88530106564731 0
185.014499538072 -0.95607985987305 -13.3681028807384 0
92.2342316956022 -0.00637170858144991 5.30168241125905 0
172.912222613393 21.0192686465047 -20.5111160345846 0
-73.7663127439419 7.07787008141159 8.27346311674979 0
123.247924153716 8.01619580245684 7.4969549423464 0
165.803842821046 31.1986404034624 15.0724294691014 0
156.046697802643 -1.30243013425411 10.3979669431797 0
-28.4063991135288 -3.6158327507719 0.0956047721132398 0
-26.3402434714246 -7.23618933073013 -10.3328939361497 0
-76.4514812015389 0.77882584246322 -14.4528142056632 0
189.789894719236 11.5374147703358 19.4769057231967 0
-27.3739584778223 -7.30783194444253 -9.27587417695821 0
116.883212926529 10.8947393648127 -15.0996433183413 0
150.256096312857 22.8915688822288 6.68300719282159 0
39.5725527242762 -6.20772700263013 -0.311393871030492 0
-49.1063506609862 12.3973132852993 -16.4064696229029 0
171.530534502315 18.7364004157835 27.7460132382617 0
193.095651358059 14.1052410315389 16.6163279886949 0
7.51619790730979 -7.70081549307175 -12.4629711018571 0
18.5247399830812 6.27525680081073 -18.6598997727034 0
184.821645894281 -13.5970703174117 28.4739142595673 0
92.9749678812166 -2.50738303396494 4.71276961022768 0
188.452641112753 25.5629374848108 -3.91300266864518 0
84.5518354227256 -10.2497690732586 -13.107812408219 0
192.074193746169 22.5674872465889 -9.80235042625087 0
179.519383921787 4.09371282778679 -18.6607652538064 0
-51.2438639839058 -2.97420411458212 0.97032332105859 0
162.413255566727 -33.8693492697889 11.3089352193732 0
143.577448253578 -21.4788530316589 -3.92140003100827 0
-13.3896296285324 1.14297696280709 6.09840356157095 0
167.706172913144 32.1708409258646 13.8991994559214 0
-76.5816271095826 -5.64565541121652 -7.78899747812108 0
155.528694921872 -6.0216653209316 -16.9810073840198 0
171.081026598887 28.6419743440763 -4.97174811044555 0
-45.1316590818883 6.58244305943386 6.04608329060341 0
107.193051283984 -8.82511368787837 3.34901600177542 0
190.708521822859 32.482161552178 21.8667150631181 0
36.1351235687303 6.9678765724758 2.79465696151122 0
4.88524044768576 12.6951877725564 -3.17892134005592 0
149.937737403776 -19.668879876217 11.372411738832 0
189.949859790509 5.96382253931558 -6.69048465574081 0
169.90623327933 -11.403931533206 16.6578171902827 0
195.392034471878 18.4433073934837 -1.35375684059223 0
169.369897459473 31.1007916651684 15.7359531925703 0
136.795788167905 15.7566305414922 -11.2285696668699 0
72.5524211574021 -1.65425848330271 4.32067257648426 0
70.2014185460876 -11.8011227649502 -5.69212706123028 0
160.065035523364 -9.82633754609419 12.2796732053725 0
2.05413098558482 11.2697561550823 -1.35083195873009 0
79.7206835808098 3.84758100179962 5.46653601721833 0
198.393311541301 -19.1373383991039 20.5009859438742 0
188.428344459819 -21.6119304537033 31.7722731287028 0
177.951074336956 -26.8502602636684 -11.710980964195 0
150.004681346888 -14.0246588120937 -15.1063923942748 0
189.810826270585 9.22433686760248 -12.2305350035266 0
164.290751486354 11.8717596538473 17.739000766569 0
124.04667543627 13.2406270462522 -12.8213397835554 0
190.286449141595 10.3947231777491 15.9438187672983 0
180.960442680947 -37.5915598027532 11.8513731178061 0
114.468709836101 -11.4856938438077 3.20545522957091 0
-7.11614176944944 -1.18971628759663 5.40166103790869 0
100.743491056429 -10.3920083080392 -13.8013293173385 0
197.672474060788 -23.296112702045 24.536711287252 0
-38.0754418064694 17.4096253905145 -9.81967377487558 0
166.466679682884 -4.72419765421475 -17.249203587995 0
187.143642675073 23.505512924705 -12.2426073125009 0
184.550491639711 8.81588041887885 19.6032487286407 0
149.148481177907 -7.33589470478502 -16.7692255843217 0
192.206147009085 -4.58263277549733 2.47007839978682 0
144.648396406818 -22.2701267213422 -1.6931198912563 0
165.16758479703 3.51040052667576 14.7512235579219 0
70.2044998925554 5.44984875777401 5.59027084697311 0
-23.8070904454994 13.143871866696 -16.7129558443454 0
198.855878726884 -26.1273515142217 0.0327029757945776 0
159.167764263934 1.14137587163384 11.5688054002718 0
161.709791804123 -27.6767697295919 -6.67184323512854 0
64.8327547892132 -4.24220210963353 3.39677062088268 0
-29.8404650124103 11.5503871525243 -17.4571921418055 0
168.725459919102 -34.4166037616027 -0.417946274184443 0
160.181356840343 -2.10291862863636 11.1591488509158 0
98.4945741220779 -2.47007357477509 4.82668347003878 0
-61.9411022514411 15.2236995029137 0.792229036506936 0
161.252820629789 5.60138949048343 -19.3845328944428 0
20.6256315899937 8.09435741252619 -18.2090226410064 0
-46.8747969679599 11.506438117675 2.28941362731049 0
165.615864422207 26.4811353989041 -7.09194069582598 0
178.27054740965 24.4529009826183 -13.6346245717792 0
142.040909976459 6.5681740323029 -18.1363683534844 0
125.366046113092 15.3407718005485 -6.32741268316071 0
109.252855240262 9.97587825870671 -15.6057248634267 0
26.0342923015386 12.9942488264897 -15.1008289947194 0
38.6791451246005 6.88393891901053 -18.4073083297593 0
112.357258048096 -3.94937406981814 5.32173695148356 0
191.871727305416 -17.1985874979055 28.1061468410455 0
168.839996400801 -33.0613109939827 -2.31344269915444 0
159.320310851678 -5.57656044724433 -17.1936286588107 0
-42.3997090980458 16.2938700349148 -4.95426775532427 0
85.6469485443982 -13.1020938553834 -5.33666108788126 0
94.4568051351445 -7.17613795210447 2.85911322415134 0
136.343861341179 16.7217281479973 -6.73475859085664 0
2.40135056656089 -3.94757321849105 -16.7259070722275 0
164.245645954695 32.0923575495882 13.0389348550266 0
164.395433029277 22.8407543941912 -15.7651662330503 0
195.774468019794 -20.8036388913972 -6.68531737462699 0
195.548568664421 27.7401464512045 17.2951752332926 0
-29.4505193210117 8.55670831243015 3.17140690551733 0
189.607296926307 1.21303249757793 -2.11398057620485 0
175.90695704073 -37.1930311670335 20.2910872874862 0
2.95820161380302 4.25259949325903 -19.0616389948517 0
160.582830659069 -13.4379773215712 -16.8306946036016 0
139.313244964328 -20.4484246948356 2.39670413018216 0
132.422572981302 -0.804738089364589 -17.8325858035656 0
114.91279193867 3.10150717058783 -18.1864787923901 0
117.209283457103 -2.93752621815301 -17.7181432520931 0
181.11981947121 15.4710780100056 28.1468649315011 0
176.096851880472 30.2831852471846 -1.64185167525715 0
49.6018094247757 1.92945789700512 -18.7517196564999 0
164.121783606816 30.8520290736535 14.8104047945247 0
167.811729980572 -28.4664324000665 19.0272563648795 0
191.997155257952 -26.5024259445767 -6.64583718520637 0
123.998052996982 0.903188716675901 -18.1696125196332 0
47.3502567855433 -8.35405052101092 -13.6716817693975 0
17.1023057676943 -3.66725711523938 3.16189039029334 0
161.638397704606 -18.6403436727281 13.920637883204 0
145.505637727841 20.0561741269253 2.12216076488857 0
181.652290361194 18.0784972909911 -23.9790791823805 0
174.097597035505 -8.3726202423449 15.5716508693989 0
-33.0983111836706 6.13682007200964 -18.5300161784184 0
173.186985147984 25.615724789971 -11.8794686500264 0
-56.8292144225982 16.7688758853987 -11.7958033226814 0
193.689109628603 23.289857391006 -4.71607104457168 0
128.555280454965 -18.1281924008237 -0.892247496820943 0
123.950382496989 -14.1084519073956 3.57176680720293 0
76.4718280357139 -1.71977112736008 4.86238581057601 0
100.858777728798 -13.6098087745467 -9.72178616168252 0
191.874619159877 27.5020664404492 2.35133416175109 0
-31.4839298142578 15.0863062073524 -15.1855100915514 0
10.0162130946136 5.88238889820358 3.46509627686626 0
-33.5233289859197 -3.09503577995166 -16.01005179344 0
164.6259194819 -12.0314242073435 13.7775485454373 0
190.30335713723 7.64526881867623 -8.10479985632619 0
-11.9951608407152 3.5920803703793 -18.9283846695129 0
165.758567086322 -28.3243266226553 -7.84284532879693 0
107.375394623415 -3.33613552237821 -17.5879660094898 0
19.7041869640076 -6.12118028100769 -15.2717310613153 0
-28.9979718447763 -1.154405298285 4.26303319221214 0
145.406217900437 3.62082256074739 -18.0169937908761 0
196.760992990258 -26.9072284624154 -3.30652072653488 0
181.811055248911 22.1742275811436 -17.8156753113217 0
3.07851318630819 -6.14989647054049 -2.80784781953496 0
167.232318395705 32.0843814474925 3.29485564197581 0
166.947630215184 -34.6544036878066 17.7577787594315 0
129.99145420767 13.2437890641036 7.64458686412674 0
150.724260208549 -9.89948810951628 -16.5652801701051 0
36.0489706783565 -3.77112721533932 2.3703177928795 0
156.835676083897 -13.3063350439838 12.2688876077798 0
50.9466693964601 11.7884291690621 -2.15395959707564 0
51.4020852922888 0.830701491164143 5.25171552584991 0
199.387984206532 -30.3303628294922 8.9108608678997 0
-18.3147633883793 3.30428092438909 5.62766055035265 0
36.6440062955518 -6.21942392984074 -15.618282620254 0
182.826630494898 -7.30646965148741 9.96005434358609 0
150.877857222401 -17.8364349611502 12.2308797301082 0
29.1631987482576 14.325992737095 -12.1322498888018 0
120.71552017092 -9.16871055427137 -15.4691246364046 0
100.817590125866 4.39544779776719 -18.0982175990079 0
188.855354081844 11.7419381801861 20.9688664008365 0
193.207233260635 -29.1107718637556 29.3939662109881 0
-9.44363991598103 -7.25724463155958 -12.7773430350981 0
186.135960592136 21.6639845021001 -17.4939767481358 0
175.314259275934 12.3418817597325 25.7570972781214 0
28.1846761035372 -2.92505833674259 3.86297154628073 0
35.3632175184165 -9.5293689547387 -9.27771784518615 0
98.6241216813961 11.5891736941714 4.24324532773363 0
188.755337358461 13.9107217679444 23.590059475888 0
165.811459021326 14.1409464815568 22.2103282930964 0
21.5500395459147 12.4684601005075 -3.52455765342366 0
176.836960474998 -32.3524499745936 -4.69621949651618 0
172.350400015634 16.2923593090666 27.350677203878 0
-75.8249043030172 3.8892990488567 8.92680010654477 0
64.5456560010587 4.81898453793132 5.79707207576721 0
133.074524396977 7.70609046392019 8.15338193918265 0
-0.923817325902708 -0.864864302350898 -18.2485483616418 0
7.5146115337398 -7.72648732385281 -5.93834226218348 0
84.8806403318799 -12.7136171457717 -3.79479926010759 0
179.956384987219 31.133627442201 0.760242220239757 0
157.700713863675 21.4519051762969 -13.4391968590482 0
114.35087468791 15.0131157865775 -0.137694146842182 0
169.449798824545 -38.3612533737097 7.86397182001356 0
24.885606632702 -3.0779165264254 3.56811057222327 0
188.410732591548 28.3855453206768 27.2244465969983 0
43.4971242360149 -4.67837436339527 2.49914402807359 0
-16.0753819114189 14.2233858263358 -15.5866722079606 0
91.4287827081352 7.35233679860316 -17.3894382297033 0
135.581945550784 15.010630976482 8.34303966314035 0
-15.3102481227559 16.937177193151 -12.0076638904649 0
168.812674661105 -35.849214335863 18.1544901072361 0
173.142539613945 -12.4305114244103 25.582689509829 0
175.291864216873 19.6213112351054 29.2153479521363 0
5.30907030833214 6.49883180240605 3.01726450786097 0
80.282589509597 -12.6034922498919 -4.81148831511623 0
-68.4017540122326 -6.91153960435348 -3.88318839115409 0
117.565319747454 -13.6130287340244 -11.8866878133086 0
78.1299433621744 0.926063827058011 -18.577945584531 0
-65.1088607124753 -1.56173387192255 3.12367176346825 0
89.8010382086423 -10.7351027416196 0.623513778519437 0
139.324520397999 -20.7579169235136 0.131953401401575 0
16.3100572064976 5.63131151557677 3.73735602448491 0
40.7158090577663 13.4718949491756 -11.8674150428822 0
192.393048630777 -33.160015489395 26.6142664319022 0
156.301353048187 16.2327015007852 -20.2227509012507 0
154.697339800636 -11.5876175033549 11.9410870164805 0
105.685068137646 14.2895331717851 -2.49641918158837 0
190.158143795977 10.8211814132777 17.4721793434074 0
153.658264079052 -1.94250586661165 9.98195612623812 0
189.903922961237 -12.42709200697 -13.3528308684339 0
19.5066177112085 -1.77862415383187 -17.9692086242487 0
152.475857092473 -13.2890657926201 11.2557153156504 0
-46.9600715683019 17.5753418639814 -9.14600005666458 0
156.837821141736 11.880430140395 13.3756541470654 0
163.268521330823 0.882757985417547 -17.9563810317935 0
73.0282297604915 10.9248173473474 1.26431776543572 0
87.1978432671904 -4.34925548652673 -17.3636232737653 0
190.990291031885 9.41306102020858 -9.01235548821302 0
182.536374415888 7.62497011038238 -19.6103213461013 0
63.6887967607219 -6.00299925813134 2.22886356445475 0
118.013371028175 -8.70965455181545 4.48210806060105 0
68.64319140448 6.6729285210966 -17.8526080710604 0
193.413480088316 21.4698287055342 21.2807641629838 0
158.837174825146 -15.776210794536 12.7743878242857 0
120.594710706521 7.96623241404826 7.36650502221724 0
19.6618017501 -3.89631915622949 3.1073643652313 0
147.62451688173 19.0307139994053 -6.25401460963335 0
-60.6410779222233 1.76342258953308 6.03473858472461 0
188.006549949864 4.63576795062635 -10.9327169859828 0
174.024732731162 -12.3174158884694 19.9537729423066 0
160.956314036935 -7.657752858164 11.9703322590744 0
2.3455814612426 7.40824406685854 -18.7989317596247 0
-63.1584962823839 10.9571711722428 5.86289478232176 0
195.508393826692 24.3892290789588 18.1214146091263 0
163.12732904612 -15.1874499064524 14.4793035875497 0
191.802456804298 10.4629003706198 7.5215599325852 0
157.903295350979 -28.137235337112 -0.87096167714437 0
62.49197116281 13.224443284216 -6.60762917942485 0
193.219267806705 -11.1220445890489 10.334206491339 0
-49.8978875362959 8.36492852216206 6.09946836594407 0
160.789949929712 15.6805812406063 -22.6142298763898 0
-6.16779562265863 -4.01910541424454 0.234146267923351 0
182.503393089824 -35.0068546827481 22.9000209764602 0
154.057920780075 -12.8176677893628 10.7080556846448 0
81.2962461596551 13.1719572671786 -4.08203126589519 0
151.697677665088 -7.08624441854156 -16.667897773095 0
182.034184008328 -2.54590093778618 8.36546897112739 0
65.6980882095728 -4.49374347639894 -17.1459138004655 0
169.443112292103 28.7873880419825 -4.19876579103775 0
180.172778278368 5.95741643912467 -19.6036976031132 0
182.796556870168 33.9680058107508 10.6765450197379 0
150.384853791626 -10.3353833693405 10.2846000646627 0
43.4926456308052 2.54870313728917 5.17524940960692 0
14.5626485001905 -0.130126520949364 5.82138059526141 0
184.214738575716 24.8655359361265 -9.46936830520926 0
189.764255976592 27.8640952303371 1.65604149866055 0
7.66037962719178 13.2911981730708 -4.20028060933167 0
-32.514552970298 -1.27751672710046 3.0760026808308 0
61.6184753115756 -8.7330753903164 -1.07826461727634 0
133.019731863907 17.0751214333166 -1.83336767078636 0
-46.1914991039712 0.51306695003378 -16.8857533520992 0
-65.0470910287986 17.9163548981078 -8.31125220290915 0
-53.6317545653508 10.7732269211602 -16.6871024805695 0
-67.2638249050254 16.5052889069414 -0.0414582667856378 0
182.010437970738 -27.0587706459346 32.9428770437422 0
186.489790358967 22.8350818188148 -14.4680549100859 0
88.1316070394057 13.1314159354616 -1.6445908120726 0
12.0984271278814 -0.424603786139863 5.73463760844264 0
162.281449214195 32.1389050078581 9.59605978480459 0
-28.9163712060583 3.23834628200585 6.07470844852446 0
167.663502620649 28.1065265305096 -4.93266268630968 0
165.527563595122 33.3239188960538 11.9022226927649 0
191.006164330043 6.23869195641119 -2.3299121553914 0
131.405509410479 -4.59033701108663 6.4563206886925 0
181.463116318547 14.212068477433 -23.9945673716359 0
169.992622054959 -39.4252038541537 13.0325234208798 0
178.875765795669 14.5424815417015 -24.8966347255438 0
76.4529478830407 -4.92548552746982 2.73190176747487 0
191.193037588378 8.79315547492499 9.4317066966216 0
31.4377138538229 -8.84811435124226 -5.23829554879725 0
56.7144702262719 10.8796791618083 -0.418745592989901 0
182.578178781767 19.3537410595409 -22.8115913678842 0
123.878213289882 13.0332746936737 7.23948649890098 0
8.12743429406935 1.57758560225044 6.41704081648423 0
14.221407804892 -8.42097181102585 -10.7735506319114 0
-26.0100022481539 12.8182219516789 -1.79160878060383 0
188.884865647482 -9.06926207221776 -11.6787008602694 0
112.770642467857 14.7205910303881 0.98977793433108 0
4.76877988841881 -7.60583726133442 -12.564835558064 0
162.674065448285 19.7042699823074 -20.5842433793446 0
65.6850356944623 -6.91750561597165 -15.6497764483663 0
194.674888787473 -14.8486283260272 22.264782621488 0
5.95746602349528 -3.3310026336186 1.51792027523926 0
-5.97463183394438 6.18788132883288 -19.0883836252326 0
-38.7545436796992 13.1943670919371 -0.802880761359931 0
45.4169539640343 -0.828294235561934 5.7769205886886 0
-19.6495368278105 1.06532534593858 -18.3847795902245 0
79.6670126672322 -11.6635178012554 -2.65608268144103 0
58.8010291793832 -5.88730514039906 -16.3534048746201 0
117.672859173168 14.3925372829605 4.67218261673924 0
86.9794934818383 4.35630773858632 -18.3479789773068 0
-42.1017831166047 -5.75954901971711 -2.84838607708341 0
177.282452773496 -14.3276143686596 28.3063769360777 0
-74.9565496630774 -3.61880509178431 1.61381362192953 0
161.257539277395 18.4547792525839 -22.0626832825011 0
22.0847040928597 11.3135396346016 -16.7873312388687 0
145.659806652188 -0.721760187736724 8.16349892812268 0
174.127031315892 0.732134297141586 -19.171575698808 0
152.483340091192 8.66476730383446 -19.2121010094375 0
144.625228708092 21.4290536388667 6.8884746682615 0
160.60864707802 29.4040616233041 7.46812230761868 0
-40.9435505168489 17.3103543264513 -8.25780309170055 0
-74.9245187255834 10.5134870909815 8.44601535621614 0
5.37362863328369 -7.73129479603469 -6.28606213815934 0
148.291569782483 -15.8890721347777 -13.6745849938661 0
154.305944323551 13.7920551728851 -19.963311243904 0
-13.7075206717591 5.92668382114479 4.40718571784318 0
-49.2973907573234 17.2555392922018 -11.0442565753318 0
84.1778325446535 1.11619858108515 -18.5492310971398 0
90.5545913119351 -4.34109486789114 3.7270823894545 0
78.9451909618035 -10.1487091527804 -0.485389026786834 0
170.077809461653 24.375396391987 -14.4119652910039 0
26.3028467394107 -2.57561273800203 4.60002596718925 0
-62.9143207325659 -4.64334410950054 -11.796169488716 0
57.2687820221205 13.2641321746582 -9.56480961938372 0
-52.3968568791578 -1.08042185862609 3.1122804044356 0
159.599674919442 29.9388249994765 10.7893461555666 0
179.420273616182 -35.6620533671275 0.466195149641709 0
50.0183366705783 -0.919845764468853 5.29431508742521 0
116.148181940756 14.4438240513773 -6.7901844700165 0
-54.0826505285621 0.325481288888201 5.55419314103745 0
34.1717997594914 -9.49787756075204 -7.28953515888253 0
-48.3846328264103 2.68699945873505 6.88587039026726 0
20.4726342041516 -8.64284229113074 -6.98115121665166 0
159.128217087731 24.8113346667363 14.5821687976321 0
-78.5532478925077 1.67133136124373 -14.5664692076951 1
163.559560017363 31.2421688856793 5.3871215566584 0
108.041948215029 -5.72131839157924 -16.8547268037367 0
-20.8101403364321 -6.23158608327422 -4.24726744627005 0
63.2911103955898 8.91762283266483 -16.7208838608752 0
47.0160835729485 -9.18196326341665 -3.37299833303062 0
194.030933505986 14.2970353791098 11.7460833397078 0
-28.6577298154547 15.4324677261423 -5.06702528037978 0
-16.9125972959678 -6.27723909672854 -4.14323812946815 0
175.314165355923 -39.569480727394 10.9073514758613 0
79.284786873115 13.1533342372475 -4.17947073132989 0
66.6263920498647 3.35386615900614 -18.5838332392246 0
139.476081202788 -18.9165026909527 5.69476530247024 0
120.205913652364 11.4893894736891 7.23985276116386 0
-41.6845644690464 -7.13767949457938 -6.63268252222605 0
60.8652755139504 -3.76672070175895 3.67796759791213 0
-12.7161986907496 -1.89826361342251 -17.6918369752908 0
32.4399225086926 -2.86560728822496 4.71039280035981 0
37.9408246491477 -7.47562354528938 -1.76764509378443 0
192.33059815681 -29.5865758328468 -0.902367648681554 0
181.281669164778 31.7182348984212 2.31849328899516 0
131.795839430743 15.9933362092514 -7.04101449528762 0
-47.6975183923645 10.4536983090252 -17.1774506226179 0
118.427955591702 13.8146618942777 -10.3752251252021 0
183.513820165011 -4.39949936787455 8.14255979502586 0
130.859496843853 5.31622400840371 -18.0938387521212 0
177.900664403476 11.673802622779 -24.0053908804472 0
-60.293220834406 16.2873765504096 -1.36288545204768 0
170.731757843193 6.42670921490239 18.4333148364177 0
168.556104060861 -37.4643691598457 6.950734504818 0
-79.4400918365235 9.40377371598729 8.82490347084224 1
153.000336392188 6.32695996450698 10.9619303708808 0
-54.6188384873457 -4.64169679931623 -13.4820053035058 0
94.9390062191616 11.6405877998292 -13.266391017743 0
-68.9309331827974 -2.48554405329275 -13.2723009612731 0
79.0831926145333 -6.07116811214307 2.31278804376187 0
46.9615605770511 -5.76519864608109 0.882641422293223 0
-47.046906656731 2.9667886402621 -17.5409235477654 0
156.447824021498 -27.2571353552093 -0.971369460858087 0
34.201992177163 14.1736729490113 -7.828020796901 0
86.2880786193201 7.55827294979601 6.22129200218556 0
146.411419998148 -23.1026065258354 2.22851178113297 0
151.128557559557 1.90515897152702 -15.2123939256351 0
191.222497187502 10.7089970143547 -10.9606869651245 0
-48.9556668366491 8.91431568809219 5.51167517381854 0
-8.82150808372175 -6.10979600594776 -14.6092233362813 0
-17.9731329067686 12.5608305341255 -1.74548516532318 0
10.7958108430447 7.01776185052275 -18.6620272874404 0
190.897965490224 22.6671059760361 24.9072162850485 0
184.664496777324 -37.2721738441273 10.1950561869788 0
-73.0853512349069 -6.99529862578946 -4.57148066589516 0
-71.3621540815338 -3.22086754585906 -12.2396663651472 0
168.565303887873 25.2965240369982 -11.7603026671464 0
87.0944591485418 -8.68970229659779 1.7054746011962 0
191.297254754035 -12.5005863278958 -10.0703187439924 0
-44.349220860433 -2.73069588082382 -15.4826609796524 0
181.790349343546 30.7726919146448 24.7728577088045 0
185.794499543951 -36.1528503257662 12.9418803153657 0
140.289569894287 -12.2702369193385 7.65576400617109 0
-61.0347025874668 3.49552287471815 -16.6784721538687 0
193.464852626877 13.6097140463342 -7.48964672260726 0
148.641688341177 9.0844811921938 10.6325381808602 0
171.102615604496 -14.4786582394699 -18.6529484176055 0
195.927406003697 18.5393983642815 7.72473660750403 0
167.19377377899 -37.7581830538281 13.9142937150889 0
185.882095111558 -24.3026047163941 -11.1430666653685 0
-18.7811347268436 -4.11866302188094 -0.410054342643657 0
124.396576082499 15.7522521662142 4.90255624005209 0
167.741156453033 34.0500467664134 11.6597157493434 0
104.065045748266 7.50762777134825 -17.1572452578161 0
-68.5699821535602 -6.23395836782337 -1.69890619152718 0
71.6779966151004 -9.92382472688078 -1.29067003013822 0
173.214873852428 28.0358403142967 -6.47361593520969 0
-34.2590372335347 -6.88684338904449 -10.484397916107 0
187.604590715239 -35.3600061560733 16.1821772512798 0
190.257256354014 -34.9164219081818 12.2193258110225 0
-55.4837660194836 12.022671186068 -16.0159444361906 0
-64.9057979865151 15.1754741617056 -13.2264611363006 0
37.9873446694322 -8.62064112714982 -12.6974611318566 0
165.825187102544 -6.85497876126306 13.8823683570614 0
191.234887948707 -13.1366510445021 -11.137975240418 0
55.1894162978108 11.9902367902571 -13.7219548146667 0
166.693869383506 24.4181162048292 -13.3911913078427 0
-27.1713006531708 10.7561894979294 -17.8287995137139 0
140.480313765593 0.0446363749322784 -17.6520619950133 0
-58.9813009162917 18.0423439699871 -8.53277625385141 0
153.269918856478 4.19561050286478 -17.6720595116131 0
56.2236261949553 12.2234219477008 -2.77625152647753 0
193.088930729801 29.0058658992401 5.66250238185503 0
-47.3371467005268 5.22561511543532 -17.8625749465691 0
83.6648763451855 -4.83275992873778 3.11003107614885 0
162.196744421341 -7.71043864084615 12.034895905234 0
82.7711796442514 -2.2828678672662 4.70685323847531 0
163.419709948055 -4.60683825369176 12.6038676267958 0
147.276378992215 -20.173354262052 -8.62235200926786 0
-48.7254693874881 -4.19330713956629 -0.384604644823314 0
119.567510879583 0.949459787082761 -18.1822826319432 0
182.630888457048 -3.40429751069435 -14.5451245427439 0
161.989039312375 -31.5880729841915 13.6745925046942 0
-54.7967832268067 -6.40775797219084 -3.89282742045575 0
54.7076858766419 13.0167970770952 -5.00411053395276 0
172.485562810174 -22.952710551546 28.824066434538 0
186.795106317302 15.7157293955866 -20.9258239609508 0
46.6653375564227 13.6368753464628 -9.81802135196522 0
141.195093039253 15.3487450589672 -14.0168398585539 0
-22.1453390127106 14.9001250076573 -15.3206374038609 0
109.169678159055 12.8018599799375 -11.626216196385 0
175.993632227384 -13.328882007369 -20.1738146123595 0
6.12954970364986 7.37815687571202 -18.7601367489459 0
156.066777023221 -27.6505604996015 4.65280721379139 0
-74.8670641603174 -0.498605689701735 4.50514658103109 0
-16.4755974958872 16.6282260290487 -8.83428363118822 0
33.2634868450437 5.7338951033205 3.88922495876724 0
188.850389920997 7.43709953573851 -12.0201901923029 0
156.548934951472 -17.4712793280406 -14.4935792542513 0
-64.5447902057165 -3.9760866709652 0.709473851435839 0
-79.2661017326785 9.74852810226801 -14.663412235188 1
155.037918738354 -24.7916593492951 11.7889506588478 0
-47.6532740417701 8.06042136250161 5.99516837961127 0
188.628625740509 5.5432938442723 5.74114905456539 0
-68.2946475973507 1.31165938822021 6.93387008510042 0
130.235284048488 0.13960615048092 -17.9927714539665 0
121.874392869878 13.609546744602 -11.7017678735671 0
88.9887555271454 -12.3297952177297 -1.61146148962455 0
134.883980405402 16.1092087523589 -8.77193920166511 0
184.604644753232 -20.4167745713028 -15.9758482113409 0
57.8009334927941 10.3282290328141 -15.774257799496 0
128.578676095555 6.224554239247 -17.9513668411455 0
153.875281540971 -4.25722808862062 9.96181381392034 0
200.205813758018 -29.2152146699417 7.80762680126376 0
-42.2067272371837 3.12134637510598 6.53638344628509 0
-57.2407926619921 1.96875111237647 6.12696697843805 0
110.783560725133 8.9324748372046 -16.4197295979465 0
-31.843946650753 -1.91084117445419 -16.788810886087 0
134.397455023662 14.7378214133041 -12.8022864197738 0
-68.4474432854949 3.31354049460181 -16.0226168729346 0
40.6813947548125 0.754383588038413 -18.7999744754845 0
187.693927517751 -14.1592552345771 28.3967448026748 0
-8.44679570678275 7.87252699270491 -18.6981017021361 0
56.335328518632 -4.90258419227149 -16.9470715128804 0
71.0599144786502 13.1669526015543 -5.6988268749129 0
-18.6027698886246 -4.7532824175017 -15.4860769165007 0
187.071727222622 -15.7181079854126 30.047021487687 0
194.257067725817 18.7488555591713 -7.54974943337929 0
189.545880257714 20.626109694871 25.9710269448462 0
41.7172477865897 12.850325488269 -4.51834790616003 0
193.358785571971 -8.06852919715461 0.882135697355961 0
111.027635847141 12.7887912173798 -11.74993251422 0
163.782298517793 19.5154290290745 -21.3312316444179 0
168.676422662758 -23.603391092209 21.3496248436348 0
-63.4600826029823 3.21400359617939 -16.480001962342 0
-25.80078841988 -6.36107014940419 -4.55666677472029 0
197.692233833227 -30.5479622780644 5.62517113680023 0
192.983777059276 -6.47212903857787 3.13377600907259 0
-32.1565466449745 8.67003112897149 3.70967851544622 0
162.597620169079 -32.1052426734272 5.37340777344804 0
170.172833601333 -6.34293810576365 14.9185995647555 0
-50.4865119174127 12.5186924054774 1.85868493800201 0
131.54241052367 6.11322218488058 7.90612780300456 0
68.9487208317595 13.2247760265382 -7.41870898919642 0
138.997037656523 -8.2797455402467 -16.5150805103504 0
190.402037515585 4.32695129765469 2.30758423487337 0
134.097067307935 0.307489214862384 -17.9028279953908 0
105.677399413222 12.0568179765289 -12.8982613956614 0
172.537915829445 -20.272728747234 28.2451681161827 0
119.06996131671 -15.0777817895331 1.57830103778412 0
124.074657823839 7.65777579997366 -17.5344789983372 0
62.1137270620913 12.0601231651558 -13.0782130826155 0
162.933409344863 -26.5066502806815 -9.19884411090538 0
157.662453048505 4.96523929328148 11.4624316974445 0
-17.0946406098013 0.401848539049648 -18.3679936300582 0
183.577496697487 31.4350935690673 26.536266061061 0
174.321688920934 -28.512976381464 -10.2311949707108 0
193.305256743593 -32.5908775924186 8.43207610128726 0
192.678755515706 -19.6788105336695 -11.7225879809854 0
33.0208845799125 4.23685202663055 -19.0120834775648 0
170.461930385705 2.95176920751489 16.4465407897439 0
67.1984574310649 -4.23731516833206 3.12178919039503 0
-44.3732916293057 -5.82751451282215 -3.00628988248985 0
150.017625679239 -5.21667692083602 9.64630222584371 0
-8.6719265691234 5.6155675316683 4.46029114676659 0
144.470567305718 -13.5914065839805 -14.6610255666396 0
-78.2122043996497 -6.7135348530466 -5.59683859823239 1
179.368114531764 18.0755574838477 -24.8178278004319 0
175.194921677864 -31.6594539999592 -5.93811094785004 0
28.3205453901088 11.8710615017056 -15.8666381987259 0
164.761839948146 -1.80225711763439 13.6000387228002 0
-8.60401297778958 -6.30030328518358 -3.69762763190966 0
151.539151004253 21.4053815655523 -0.20345655792253 0
178.352290984336 -7.47090912067098 13.4407630705513 0
-19.2652827247684 6.01426609313494 -18.839370269688 0
63.9255399919109 6.1858442084908 -18.0742280871338 0
88.5382424493553 -11.0959413408465 0.0406919176384546 0
-78.1956859586503 18.6527542831364 -3.10029091533653 1
96.7049910480322 8.73615320023688 6.28614482447678 0
41.5328780952844 5.79501597560901 -18.6327455181861 0
196.861246316843 23.8523880859885 9.64624074967392 0
92.5623044839642 -3.64545341476781 -17.5282961628293 0
167.371373166626 0.352717339645267 14.6588752693925 0
-11.1079147043349 3.25693446506244 5.9599711796416 0
171.114603231663 -4.25358638552326 14.6211972286448 0
32.2758258479506 -4.27606709557101 1.39398843924761 0
86.1167780857346 3.25500911811545 5.55298205906749 0
12.2040334426301 -4.06751781208859 1.40315983469316 0
80.7282393291129 -9.00406677947442 -14.2309156367922 0
111.998788504297 -10.9370794260736 -13.9432381285226 0
-9.45628644186104 0.53313617002778 6.22502832045117 0
-55.0870649246951 14.2530930763995 -14.6695111708072 0
143.719162179371 19.4489470168423 1.1224215796566 0
194.901248904756 16.5917225262618 -3.05791513051483 0
-6.16849790659766 -2.82523004998357 1.87694709834432 0
-49.5230318911842 3.09017657058701 -17.4263489112206 0
56.050568172795 -2.60975611939835 -17.959912579256 0
166.458800989644 5.62395068568165 -20.6603793663044 0
177.071714051993 2.40033916753902 15.1447683311094 0
-60.6244995687248 6.88039021191392 6.93163892121829 0
-30.9193444778659 -2.74181066413103 1.27518069826726 0
180.416289567783 12.8132300995389 26.1928967481049 0
92.7802304002851 12.2189591862192 -12.0852194145097 0
162.593561775261 1.81691684108306 12.9623724865311 0
118.146141445629 12.4136677087623 6.69064693621201 0
-0.020111358588393 -6.75921923872359 -4.13971000584074 0
189.183504690683 1.55163367215341 -5.37246678895102 0
-21.6063655040334 0.833640050137033 -18.2188820770294 0
118.597502053416 9.71048006241907 7.22790397844486 0
66.6652294368802 -10.4706021927143 -2.93743723522804 0
166.737168707825 11.340565616048 21.2767854444357 0
160.990386627983 14.2679819209981 16.267833716302 0
178.922943893502 -31.4103308161752 -5.61417060765915 0
65.6847583063767 -6.56918213272346 1.57287714581742 0
165.246849490457 -15.5680900045682 15.9825498030535 0
183.38159973982 -1.55849438636268 7.67751771907922 0
168.146029151259 -2.15725247293251 -17.4822634033912 0
132.946249425807 -13.1407168273573 -13.8024975927455 0
193.285495160469 -28.7116116903373 -2.4549242482153 0
143.769252077375 -21.1832713421492 6.9202628138317 0
0.842700572923196 9.4793122778816 0.237790427638554 0
162.227816109764 27.7748915548333 0.774523606929904 0
16.2264289878001 -8.63334249602119 -9.79675008426979 0
189.632903300676 -17.2548853901242 29.8288572385153 0
157.7247332101 -0.994629041665864 10.7494673069925 0
196.416529772827 -31.930297900356 11.1338932441884 0
-14.4836475513833 -5.18046024285387 -15.2902785122129 0
47.9200481746121 4.91857533899571 5.38510551975265 0
138.521016052201 -3.47394777284134 7.20545973409784 0
-5.64109976925096 1.16740513294691 6.6250548020937 0
195.365203085636 19.267337423153 16.1245391371151 0
44.328938097799 7.22318733826081 3.02266120700545 0
172.010975977366 9.10809834854838 21.8640199635257 0
190.08627632849 -12.9491475321258 18.2399028310024 0
184.622798318425 7.04494961844455 13.6879015058386 0
157.649240810463 -28.6756773025434 8.13159758929899 0
180.446325708169 31.7087412460042 17.4883846694081 0
167.29920666546 33.4858085697895 5.71994768240372 0
131.441608237726 -7.5711484313295 6.00065686665307 0
189.017808415165 -34.3348916646592 28.8310512870562 0
139.441603517762 -10.2484454665537 7.17097655733132 0
134.799514274135 -19.535108831944 -1.60217211927704 0
142.709782555894 20.850457674143 6.92432335106697 0
191.670875637822 7.53944946366919 2.02084634251372 0
165.812310381535 12.0595915561505 -23.3968954157089 0
182.55684938816 -36.5013229234445 15.8273560681601 0
114.786239684997 10.0907736808029 -15.7458850848646 0
177.019091218713 -11.9195232451683 18.3309656610517 0
167.470958815617 4.07128573470233 16.5402050732664 0
190.310581031892 -8.42262792461517 -8.48064453668294 0
188.252047859158 33.141179363129 20.5116453448832 0
77.6933752827782 12.8979150087278 -9.53001371373574 0
144.50589751502 1.26193018982771 8.22165068067261 0
187.600883823128 31.677112966357 17.2884131408577 0
-78.6644864279549 5.32329026354267 8.78671195062272 1
-46.3734651245705 -6.69246787054849 -5.11293623310848 0
161.006780631898 -4.6948525141425 -17.1906338139687 0
149.478231094198 21.250101475301 2.36343496707036 0
183.229689062875 -9.47340268572921 11.7792890791511 0
88.4417034837402 -6.33432613629004 2.7535816831314 0
178.988930554208 -21.1722835426768 -16.3105013242111 0
182.942688541865 5.11783782566329 12.4249126553955 0
153.59272077018 21.4665369862771 -4.89239587569148 0
29.755872041919 -9.31348232772386 -8.50018198243776 0
10.8465110301737 -8.36595148764368 -10.6920012160605 0
175.813124404102 -38.3557732613687 15.4586106190012 0
27.0966666392161 -4.63699195911547 -16.7003868145349 0
-43.4412588735179 -0.468681553069045 -16.7415114212408 0
152.754569252143 -15.185306983143 -14.9932533679081 0
163.117396892281 -31.0964021199269 -1.15236619807534 0
123.079207326555 15.3194933852381 -5.08388049555176 0
129.052676555125 -18.0046243790438 -5.72957709995451 0
164.19442224333 -16.8599822726594 15.455556539409 0
3.66638595832395 13.9749375467525 -5.03747244867232 0
125.994374518857 8.54918217536906 -17.3078071152471 0
-37.820260688186 -6.76125914327449 -10.2802253812008 0
-39.2467582686959 0.595394877989711 5.92224751859869 0
172.707214138123 -38.9562546274284 4.93188163825611 0
146.96060027634 18.4870661174514 -8.63856621996934 0
93.8230233159786 8.06392385152742 6.37585360295935 0
-55.6664497836644 17.8022153064336 -9.81316132916932 0
170.824970685216 4.59820242233602 -21.0695813751887 0
10.9710330069547 -2.73577846310174 -17.5494216833296 0
168.220942085505 -29.7616979225758 19.2178049629319 0
-6.83129952967403 11.068429249013 -17.6762070359738 0
172.235280975187 -39.8770055847504 8.95796183399753 0
154.824638853821 -18.623736383745 -12.9843996130876 0
126.377330219932 12.8326664551414 -13.9219533546035 0
166.850961739454 5.99427151169526 17.144716992255 0
171.425861899829 32.158815588903 15.6055994505555 0
127.124911258714 -4.64510496038765 -17.2631978218167 0
169.647575681736 -24.720699973409 26.177696114931 0
128.445040769764 -15.0836651239571 4.34091488745017 0
175.585509497647 23.5303831299351 29.6058120035058 0
95.0264723368796 -4.26369627764033 -17.2732868207759 0
111.559932957214 6.48380781936613 6.90111735689558 0
65.5152272540592 -1.44559830788799 4.50981155932974 0
63.77941770823 -10.6709002660402 -3.76348830448458 0
178.584739673786 0.662434605115872 -17.3922919209005 0
166.270105521467 15.1533908252642 23.5254018773275 0
-62.0945249069374 -3.04038168671222 -14.0387823460564 0
174.511269714662 15.6994001737187 27.8531869658445 0
192.806221239922 24.6053339405507 -3.0709825368066 0
49.2938032500754 9.00784894189426 1.25111497028399 0
102.369079643695 -6.99825469597029 -16.1982517766101 0
188.738767198383 -11.9206822035344 -14.2720827902703 0
164.769474784421 27.7232111224702 -3.16141605719591 0
64.6399766704755 -11.211884240731 -5.10082814446222 0
167.575422056399 30.8329950189166 15.6207465156101 0
-63.7671285056294 14.3431964231887 -14.1281724593123 0
180.987716001928 -11.6801584426854 18.0197728381761 0
61.4896351021754 -2.1622447302486 4.48475063892801 0
199.925038393289 -30.3368803326654 12.4421073941463 0
161.430522127411 -25.8016686608766 -9.24272159578535 0
133.165085417231 -18.0171472116298 -7.61149606159021 0
190.050617998676 25.9470948286104 -2.10052666756699 0
163.328492655078 -33.1951546166068 15.1995020235386 0
123.394091441531 -2.50072756715962 -17.7123217078419 0
160.01543526975 -26.1559176075261 -7.92622037534296 0
96.6404853163482 -4.1652297757572 4.10855330109188 0
51.6502654543455 6.36148285805988 4.14387472869418 0
166.826449397181 10.324353511253 19.7287983258521 0
-40.694545555923 17.3021088627651 -11.1731583053725 0
148.911973084178 1.24860788343723 -17.3312206067755 0
81.6542455252616 0.792812360943504 -18.5362725580209 0
188.883787102841 27.086295165167 -0.506887406445947 0
168.943626177889 21.9024071634506 -18.8477362060245 0
122.822862552438 -17.3911970607216 -3.87952233233364 0
184.77152890241 -34.6396536846126 2.62263763887961 0
24.4886579076165 11.9480588674822 -2.837464654025 0
186.992493420378 -11.5125156707631 14.6995016407587 0
143.329081056741 -1.51207032871878 7.80193125244227 0
-52.6919132516364 -6.82108322904695 -5.22987000480615 0
166.216258712209 -15.8977660363104 16.9415540353564 0
193.959606576682 16.3742149175798 17.4763553653357 0
-52.7624754560577 9.60309856926142 5.34060792669982 0
181.224630068378 -34.1944601498061 -1.10352305939085 0
173.84299213599 -39.7482553562921 8.94843981921881 0
145.587930693607 18.1661851311219 11.0099095026392 0
-28.2374287074899 -7.34178175595268 -7.71904609656927 0
115.079184748669 14.2198086340508 4.09720387353524 0
-42.2713690023264 2.1804821300363 -17.5686658669894 0
-15.9015320736785 5.37724169541641 5.08519751735386 0
-52.7892366086257 4.51278660779278 6.26073003022101 0
159.569869363185 28.694374179839 12.8144486823009 0
52.0294721554819 -5.89946003681714 -16.2001831727107 0
190.110217402928 -9.48632594229301 -10.0159866480449 0
183.311250276162 6.55713998539849 14.9143584386106 0
176.160740159234 29.2884139697969 -3.50725116585082 0
199.733066223265 -26.3320209472747 2.28985899696012 0
-37.1987598709246 10.9393336850251 1.5251701006429 0
-35.5568021934755 -7.3414196301934 -7.47657230745083 0
157.194571339654 -25.8866334004674 12.2899607774599 0
137.237676071134 0.308211573397358 7.52434801519644 0
118.488511703676 -9.2818470670941 -15.3313770713465 0
81.1939215750648 -10.3578120914214 -0.399261958790882 0
35.7894614867649 4.53086263166728 -18.9632473372645 0
-77.6692122228994 -6.99706440506424 -3.63725913233592 0
60.0300407345808 -10.2565773966528 -3.45810269464398 0
185.839842481747 4.75360101373923 8.21005309913538 0
-20.4496526525056 17.1082440079162 -11.5879452804657 0
-36.3229668370522 -5.47387074974957 -2.71395577490599 0
198.31995996174 -17.102914645135 0.583799967214801 0
184.289009316847 9.7959930347264 22.2417731785974 0
-56.2095459612313 -0.015134995947941 -15.9984207314294 0
-55.7319949671017 7.07008379258966 -17.3459167963498 0
195.182173608404 16.0857211034123 4.4123850192147 0
60.7605641969049 12.9867836792811 -10.4757823752427 0
-7.36338791633951 0.639917506437772 -18.5266585926676 0
101.484457002817 13.8581066975467 -5.92814510780633 0
164.078488085623 -22.9884522489672 -13.3066345075846 0
187.092994901863 12.3497374144038 23.470658284611 0
196.474134854293 -30.3001672481819 25.2753268578396 0
175.60189357457 6.74667692891791 -21.8315888436373 0
106.112360623089 -14.1065189488226 -9.58236161694243 0
147.1485947885 1.4017241942032 8.74865898388286 0
