40.2324370450897 12.3557467842616 15.9030725941904 0
-49.1449339957794 12.4031549743245 15.6702446036028 0
167.479927389553 -29.6866029725321 -0.104530259307691 0
144.579391140518 3.37870232279203 21.83496218412 0
100.940327114623 13.7987899550556 12.6925319647506 0
169.848580761947 23.4131078893189 16.9478324305403 0
129.355828303128 0.00585006962307016 22.3063497697345 0
172.224701479888 -0.398035893269241 -15.0736724303428 0
-44.4279626609297 10.5334276626381 0.954077217697296 0
136.789585116057 15.2283971616141 16.1918468779765 0
74.7393783513562 -12.0055619488872 6.57509649617046 0
155.394270113273 -23.2835774606787 6.29281681276164 0
25.763897089147 -8.50440799914617 19.0376458158867 0
188.072863107153 6.64370619038612 1.77522934300402 0
23.2269448542663 -1.15035253408481 -1.64629437637085 0
150.422221297484 -23.2028155065571 -8.47739311304089 0
122.139952212999 11.4895261341784 20.4372112307988 0
155.602513902991 10.0801536906799 23.3936795215144 0
169.702665433967 16.8406309190596 26.7225546904873 0
-59.1023147607915 14.3326027078788 12.0502030668364 0
96.5805962095957 3.33540748761923 -2.68948805289863 0
36.6813524390154 3.71165095409424 -3.02330156047625 0
175.515551020137 -35.6733919292831 -16.6101694965887 0
46.2515072046991 11.8007331345402 17.1096217900434 0
153.05600172557 10.7880779800874 -11.5447854411248 0
183.707231034431 -30.7744456611872 -33.2325303054063 0
148.302829454191 24.2505281221789 -2.6459338633897 0
163.763408008751 23.6306669450227 15.2455793150583 0
-63.8368867434983 4.23422202333003 19.2972364064935 0
52.6079556624437 8.83752369428305 3.46522717684354 0
158.497055346237 34.7638651664587 -12.2142385356451 0
195.708394627666 -16.0729961757138 -22.3823613824295 0
-74.8978688851892 -6.03285510315536 10.8722178808783 0
-27.4029618637388 -7.38073322152655 6.63155349513564 0
108.227459975678 14.3498959422499 11.8423322085563 0
187.882931103693 31.2193573867431 -17.4952534448753 0
175.699676303408 34.866518918199 -5.10893157957578 0
185.103425039811 -31.7240558242437 -8.71791258438146 0
182.194755517931 26.531938521575 6.76889570656331 0
151.665767325889 -9.9281001322857 17.2090099788213 0
160.994371118329 6.9396675462063 -16.8583461642295 0
193.435939727383 -18.7824085175392 -29.0344647119556 0
145.69520434267 -9.045028629467 17.751594188192 0
139.676070004452 0.251491182942654 21.4960925007722 0
-12.4256000582017 -4.72175405609925 3.74576808984063 0
161.795703821675 -23.0137680204772 9.91990178582831 0
162.406169864052 0.609757659350144 18.9207155208931 0
161.026061067969 8.66135494981545 -18.0510792376267 0
171.982824309237 36.6535742304179 -26.572541600822 0
-68.0395623122379 15.4073154582531 -0.185121149117934 0
120.665595813985 3.42386668751431 23.5164455428181 0
18.8192123388451 12.0714182707822 17.8537473303502 0
19.1253858508417 -9.97640008674312 10.6981707886491 0
165.493337536257 -3.55146412387315 16.8865020414838 0
174.138743180962 -8.8781016014773 -33.1805193388157 0
82.3724641119921 11.8058203581521 17.5679778355433 0
196.442405758343 -24.6234032741204 -23.5886067572259 0
171.345602213351 36.3108145262921 -12.4952128904267 0
170.760736846807 -5.31754297966163 18.4786573756593 0
-73.9414869893186 -2.15126218611326 -3.47564891060314 0
143.44155220994 -20.3135098880359 -4.88180865124315 0
180.038050970783 34.9566035199776 -27.0245469524858 0
84.9473294997101 -13.0286975743132 5.85247819005298 0
113.996132511295 6.03258166681114 -3.87847108858713 0
118.3470888156 -1.80485543243649 22.285722240186 0
54.7850074372355 -6.28202079242245 21.468263686551 0
159.722474607235 -17.4784592007996 15.5636981500683 0
-72.7409512741773 16.5172658810514 3.31313874272243 0
157.345993230391 -22.2062109740547 -16.7944749677397 0
-80.145915544718 -3.50926584502853 14.0496286286455 1
32.5071487062779 -8.41674829321964 19.3436800017972 0
188.946608343924 -0.587608791442327 0.846819834099294 0
-8.0470594490741 -5.09884392478998 4.44862532673956 0
163.650916006072 -25.0440397967775 7.09172408818542 0
-39.5135581433888 5.78041508069085 -3.02364603881077 0
192.668310973941 -25.3866311968047 -5.17217507148411 0
21.2275252262074 -8.23860348176009 7.79037472653819 0
121.896987647554 14.4702878506108 14.6990585027692 0
-35.0912167973595 3.60640212855824 -4.52792616099883 0
101.920907078974 10.2263119605917 20.8217480985995 0
171.590294274653 -33.9951991986912 -6.71787767434442 0
73.2522600089032 12.7529176886103 9.74803040720303 0
174.675697610533 -35.0061080365428 -21.5006066964521 0
111.42634737884 -10.1556855666495 17.9605006937652 0
45.0680052933168 0.088459720766828 23.7893777314857 0
109.396915633198 -2.55324463263281 -2.28920781950425 0
-56.7380009125579 -3.62026939192561 -0.426546988594941 0
-46.8096776499034 -2.15216127429423 -1.82291233770219 0
119.259618924291 -4.82030528799962 -2.75187446362109 0
125.14684208488 14.5019410932324 -3.74849954604222 0
154.00935525115 28.7927462866439 -17.0255364053109 0
177.054881243663 -32.6687554453691 -26.6788629599359 0
-12.5156311409099 0.991318557455639 22.9805240857894 0
138.15721372037 -15.9778253114128 -5.02672079558965 0
182.195293097443 -5.514378116621 -12.2805188944808 0
144.379968196639 15.169805169919 -9.23217343441499 0
166.089337910447 -8.49225868419634 -21.1056660764993 0
168.267970539032 35.2139257657074 -18.2019775493687 0
101.552043108841 -6.4888236996091 0.300779690233354 0
185.288006160471 14.1881053472648 -16.1024915764201 0
144.860796018016 4.05853151957189 -7.72548603899022 0
163.808931342864 -26.5864029281008 -23.0455352657426 0
-56.9785539896016 8.2345380010753 -5.25969486568103 0
24.1571920839131 -6.01748268356475 4.92375263893956 0
163.111625098962 -33.889294703543 -12.8773042150699 0
162.057663413717 -0.929209396174507 18.5097746441571 0
129.176998008718 14.8264614919071 15.3626172369973 0
19.9601018912623 4.32724293087117 -1.96964965729855 0
149.115789820181 -7.48724110293085 17.9527581973168 0
177.405192799201 25.2866479612555 -30.1450415660095 0
143.398534399689 11.2789468232536 -8.31219930570316 0
175.078122183927 22.7093733154078 -30.6512462969751 0
159.555976944715 -17.8458880726389 -17.9348572741992 0
112.816537946812 2.78219636122407 23.6935156795764 0
148.494920391915 -15.8919167380279 -11.5666161861874 0
91.8898474617171 6.19076608739473 -2.80743447592592 0
102.339383935876 -14.1835267751522 13.641370973243 0
100.824836110797 9.19289693808155 -2.49598351248747 0
196.921507026715 -17.0549094478286 -17.6533045313305 0
166.040372637037 -10.6532717034476 -25.7601633919685 0
123.792917212704 6.63717553954512 -4.40813069567769 0
171.56166239173 -21.3301576271675 13.0791112785564 0
196.852509800341 -26.4975136521255 -18.155630060728 0
189.506156148914 -5.72051340066359 -10.7396908809493 0
48.0404517688922 6.58162844272509 1.0881666020156 0
64.8231920286775 -6.31564677736269 3.06166537280244 0
166.328470697775 -32.7698277849102 -5.63573649665583 0
156.758404036353 30.0887783322422 -23.3118414614143 0
197.739048815739 -23.0450706787652 -17.3482226219149 0
76.9372494080365 12.3069645336054 6.12748202093958 0
128.964546139506 9.26782112621265 -5.43311498538411 0
132.244996944511 6.83070280704069 23.0727105060301 0
48.8643214594097 4.70938020917924 -1.76559968592267 0
58.9275710252781 2.95789506606574 23.9902407361424 0
157.898200355091 -14.1361409577559 -15.5827253898197 0
171.725259252975 32.0539683757483 1.01370623463567 0
149.594503932267 -0.242445766133839 -9.0692140519118 0
172.361074918716 -27.1813611845008 4.49740033746092 0
98.94901205362 14.0177187352617 7.53284767770514 0
168.869177479333 -20.7784329764319 14.189484056057 0
119.764120640201 -14.7981208803103 13.6142381801266 0
92.142309718507 11.0312647405513 19.4322921550082 0
155.146780994832 26.1122782430732 2.64635742065762 0
126.737767816906 16.2872779193314 8.21755554897103 0
154.952207241986 -17.4301377667019 -15.128832732712 0
179.40901006662 -33.6667326738727 -8.1312435279281 0
184.842261880657 24.5458886000494 10.8533615335423 0
115.662986124557 7.23377895361409 23.0707277475693 0
99.9297825720741 -4.10928183392418 -0.692962901017917 0
-23.3321193838983 5.82125969846834 21.95083443817 0
97.3529228528981 -6.66404213061696 20.7008777071079 0
179.237957794559 -9.26332339391694 -24.7956617261287 0
-35.5975323195535 -2.35455626129797 -0.836801908960771 0
117.784405731207 6.60744513212129 -4.13898038727756 0
-17.4233088737727 9.85433722022919 19.9768834348952 0
145.741693591127 7.62292080994474 -8.26640213699735 0
152.838123557884 -8.15340103307566 -11.793910932479 0
-23.2765647888573 1.84819567750411 -4.77264697961756 0
-21.1708534714656 -4.77068062382921 3.49691729578787 0
-22.0626108407499 3.99110480895416 -3.65114717980455 0
-33.5113081961659 -7.51388926529897 16.0643135004252 0
182.036477348903 34.632550041105 -25.714547059664 0
99.6484145358109 10.6005234427585 20.3328927868606 0
-0.959265038605663 -8.39590898898278 18.4412688301049 0
151.473947432912 19.0722286364879 -13.4557409307281 0
89.9265358556463 7.75738352767392 -2.13297445700252 0
20.4276925573398 -6.75414994479356 20.7647708302065 0
194.498447995336 -10.5855554002831 -17.4210877324526 0
-67.0000033929198 -5.66132235745536 13.3679650050506 0
162.180434923739 -28.969130522504 -1.17038804636873 0
172.050887661662 3.5816015109521 20.7852984791259 0
158.463083099952 1.81201678133933 -13.7615209902296 0
189.535162831008 -3.31881802119878 4.53811447766448 0
166.087892266004 -30.1269681290789 -1.04369918135011 0
57.6145412867499 -10.6403847202421 7.64346736200189 0
190.951187160794 -28.5519300006979 -11.4285888884053 0
121.340411619045 -15.5305090850884 2.00754857728754 0
165.275362865925 -24.7105295380844 -27.0476317286161 0
183.253962840927 -10.283887260344 -34.0758625438615 0
-20.6653376640212 -7.55360303604546 18.0685930389261 0
-5.05164038884483 1.11444490951571 -4.12318359809048 0
168.020303742414 26.8249866155936 9.35115300310885 0
108.975356789872 -10.376027039964 0.787750953225733 0
95.6608895384577 -10.397831128164 17.9275562779674 0
-77.2135696664737 5.26950160558245 17.305448405535 0
169.933752721863 26.9954040753659 9.48575991473584 0
77.2752427455424 12.7898282097565 8.409311228247 0
77.1323628150645 6.52437190371676 -1.49227052719284 0
175.770401018107 -8.0245950641738 -19.2671730391863 0
155.546857913126 -9.01062184410402 17.5179127103087 0
163.355394227054 -11.4812638544737 -25.9659487161516 0
-73.4042365973031 14.593214719613 -3.67354425614179 0
36.2468525165484 -0.358809699224 -2.24012680204479 0
-27.6993951800971 -5.55746727729921 19.8309685979928 0
-50.3642298506356 -7.07981733901643 13.7793836596096 0
171.643377513447 -35.8281578149542 -9.6914819483695 0
-55.3299741714023 9.88496540299523 17.6881290731494 0
166.195323811159 14.6431361465515 -24.4489427954545 0
-9.55590660013611 -9.3350191152346 11.2247467748274 0
179.369745703596 -30.952174198149 -35.6316995288836 0
44.2364894277186 8.39599934450031 3.61023472818443 0
170.771627705447 -28.1687757210034 2.87981275837185 0
177.54870988847 -31.6882027326628 -31.8310893113514 0
100.991736225168 6.47151638844156 23.3492232263077 0
-9.29346683957925 13.2441717244572 15.7517364225084 0
184.746077524383 32.6307459470273 -6.70759412663443 0
194.660882545181 -25.049413550727 -6.34925582814066 0
150.93206015221 12.6842242073573 -11.276855791894 0
157.542648444952 -3.83942069794198 18.6399100705145 0
-56.5542336059856 0.184060118483498 20.1041186502868 0
143.169515296088 -10.7535873178687 16.9297472819482 0
131.984765467396 -13.5999241810339 -3.39426418642168 0
19.5929915197664 10.3742563694639 19.9156359326638 0
176.433550022532 -12.9052533713535 -37.5106497374162 0
58.650219332082 10.0543846304966 4.47835491025546 0
156.360918736455 -16.346431763131 -15.620293936274 0
157.472012704763 -17.3713758161889 -16.2321851672884 0
164.760467471695 18.7935556809623 -28.5396182427308 0
182.597829950672 19.4109107717474 21.0266089834697 0
78.232105176929 10.9104305285938 2.5958374844496 0
183.363193634771 12.3094865625898 -16.2429411356828 0
18.1716648427415 -7.4452212590404 20.0821295382655 0
153.050216784235 -1.68061106577807 -10.8100170273873 0
-52.6183587741303 -7.10715474793989 13.0952550821098 0
173.94836899513 11.3045266936114 -18.395778112628 0
155.36158325258 -24.9574318389563 2.74183541216403 0
-44.9426660892832 12.0758229005639 16.3639976103166 0
-72.5723396680236 5.30387487268874 17.9108228085764 0
81.1007356290304 -6.59974824299082 2.11052009636087 0
109.878174172984 13.911081864311 14.2783897467968 0
-58.566625870024 5.78067247787316 19.5113346023171 0
157.971204442708 24.5086656338999 9.67241718025391 0
163.255939394967 -20.7086267358862 13.6207786458927 0
14.260379229806 11.1896724844615 7.94067200708841 0
164.084731862269 -23.3371775037194 10.1186268691471 0
113.336548215271 -3.9245690870239 21.5631091412621 0
119.432925249478 -8.41139304367442 -2.02288861164878 0
149.189124915094 2.54978932242585 -9.05457535303819 0
69.0075804120628 -1.96216316692445 -0.424879576326543 0
131.912477076874 17.4418383575681 3.65178324615249 0
111.004778260323 -3.1359082077607 -2.24733568214633 0
76.1770464377911 -13.050444082786 8.01210895705065 0
7.08338650170351 -10.0114560162925 15.8899578815858 0
-42.1966748397345 -8.13393242885632 11.4590671796736 0
112.423152562126 14.6974754490819 3.35072866107778 0
161.542967432396 -12.4252229050463 -19.4514246179458 0
19.695647019204 -2.16046620828076 23.2042004947143 0
-51.6298371457747 12.4024945217006 15.4837900900108 0
-73.8532605724592 7.06583456151949 -7.86124900008863 0
119.925019180916 6.95976570613608 23.1802780605342 0
171.583668834097 17.3891687557508 26.6946512199689 0
8.06374729718283 6.44049593416793 1.7018688262378 0
-10.2723982661178 9.61486498420865 20.3483652119568 0
80.111728850332 4.12159492553961 -2.78070485448703 0
151.628896677866 18.6687229018147 16.916489058238 0
115.349222563872 -9.18116390211591 18.5681637690341 0
149.636714047125 -8.44579290188945 -9.98043342883045 0
61.496143531958 -9.92823445799525 6.27091026187323 0
88.408276228209 -7.70012529743203 20.3310412416103 0
181.552873229526 -9.07884493022481 -24.4177628253511 0
70.3611522125599 11.3887411867729 18.0564060027777 0
153.195082093538 23.6356624392887 5.24222452028712 0
141.794562452169 -20.4627359916136 5.35134011034115 0
155.409089630041 -7.26552617606349 17.9852761567448 0
-7.96063026291328 -6.80163143362625 6.63023632983268 0
197.413334248838 -24.919340187256 -11.5573316790796 0
28.003037475097 -10.0693587223725 9.9994913312774 0
-64.0822524786395 14.4087609786806 11.6031991660406 0
79.4843007528272 0.704184919893201 -1.81908996860248 0
185.931810573448 35.9040449291294 -17.6459037592316 0
139.436344813303 -2.02632806795778 -6.33590539831226 0
116.678285987102 -16.1511257312696 11.0848489389234 0
175.853778771518 -36.6545107963644 -14.1271537627385 0
138.419422407611 8.22608522560525 -6.65167446896364 0
-43.5744163223425 7.06022514231566 20.3148890973995 0
-14.9000274461256 6.93709819227507 1.37325209491396 0
151.288565680562 12.054909791492 23.5525160097018 0
60.5810849701353 6.87697155892311 0.348018539839981 0
9.28304629839814 7.46060635759058 22.2102334107991 0
163.405882985895 -22.1379446148828 11.7056173177026 0
133.42670462624 13.3891686446404 19.0754192781098 0
160.533413347357 33.0042774094946 -18.0161016304024 0
184.883680606933 -32.7289051051701 -11.5061460167059 0
80.4115686306078 0.938179340468301 24.0429501773851 0
178.709200433493 -8.19900431406262 -32.9644218031124 0
173.167027063659 -9.8799049889038 -23.040215128713 0
183.951128328267 -31.3276098746272 -6.73895627098153 0
122.154008928039 15.8926714790682 5.95433957061971 0
-57.7105062467409 15.3200173482111 4.94211261653811 0
154.420004371848 27.9725578061685 -1.99031823871952 0
113.502580619162 0.34050755880256 -3.04774969081682 0
93.2190243105988 10.7389164675523 -0.191461028777931 0
-71.3197327300025 -6.98580222921355 9.20244253450979 0
167.682224919916 24.2472427359097 15.3054299896703 0
174.734983532713 12.7571610585781 -19.9415286099694 0
128.131391070888 -18.0733020324671 4.15639965792891 0
175.1713024937 5.12180596469256 -13.1374241025095 0
185.697418199884 -27.3014988681202 -1.60822603220336 0
175.485852486915 14.3921662699779 26.0658920681844 0
101.686330610893 1.41019874726549 23.7800320069294 0
123.707898500002 14.8050315862418 -2.28197543191378 0
173.337772074499 -36.5097475627519 -16.6366204308584 0
81.61737734269 2.11337885175869 -2.15881519343531 0
97.482820378499 -6.45114903669028 0.788096446919838 0
159.335105404803 5.34081064158069 -14.9564866069518 0
3.65312150784405 2.96267761286412 -3.46353535661454 0
155.244664451449 18.6770633204582 -18.4334367991063 0
124.808435100594 -8.98095696878496 18.5167538127605 0
23.0694097655992 -4.7285531971797 3.62402190376687 0
-12.3691012758676 12.5708817639222 8.22886496195319 0
116.197859116442 -7.60182523796258 -1.61272077060444 0
114.779862523118 -8.58506389556882 -0.929626626221539 0
154.33290862591 -9.02587588278947 -12.475168603413 0
37.6009126897987 1.37110525784275 23.6976040327403 0
130.571573696259 -17.2396884876957 0.793967342854638 0
7.60612397614378 -7.05292601095344 20.264237262248 0
-49.9213763130953 13.7793530558885 13.6346144891716 0
60.8184174520189 3.01372947680815 24.0103987635897 0
99.1160922088163 -5.80431232231314 0.298514858481958 0
105.645833731264 -3.84627883762325 21.9272177792405 0
142.307079135652 -13.1255311065462 -8.09189348255044 0
90.8798192756734 -4.19765068115084 22.285977633555 0
51.55213970687 -6.38452735079863 21.3807983401996 0
152.763005542433 -8.00489936123858 17.8026458820499 0
156.027969315879 23.4072913080145 10.4197897634665 0
197.413386760894 -18.0470974134116 -11.2813926859954 0
121.996680581782 -8.74885431866896 -2.49225806451018 0
141.343021375834 7.31237305861518 -7.3234551849565 0
89.6733359798984 -14.7656478566598 10.3423643943665 0
129.072309947702 -16.0588953435587 -0.104464933291667 0
-68.8076947348059 -4.59411196321801 14.831447644142 0
-20.1792820810837 11.2114867810406 5.61380699548996 0
-49.5328257670041 15.2223274733812 9.02228053966484 0
105.848382460241 14.4167336807148 5.84845443320413 0
176.848962893208 4.37112545027774 18.5847923821204 0
92.4782403536793 -0.390242540565287 23.6573934094785 0
168.422724456531 -26.9376638601662 -34.9280688031483 0
-81.1632353932105 0.701928437205463 16.5608192717522 1
175.156525225842 -5.21001060084979 -15.7876702684353 0
132.079650763814 -3.51833523519969 -4.86949796652746 0
152.89629980428 -23.9630208401393 3.3557570173921 0
167.350420749965 -1.10492587314587 -17.25792505375 0
4.76384650780957 0.282224534530405 23.3043978968396 0
179.237618514312 37.8541963541437 -24.2894910660204 0
-39.7661795684549 -8.26131942902753 11.0121203064874 0
95.2798594351619 1.23907364029298 23.8773658615553 0
83.2705300805112 0.711654385036414 24.0453783698215 0
143.070087206546 -19.8595043321637 7.46853563549786 0
136.21933122337 11.116556044513 21.6455130107515 0
133.618060724386 1.99972738198546 -5.3683135988496 0
189.261351905153 17.384601097751 10.9824528454297 0
174.62135811862 37.6324677362955 -21.6532239077042 0
70.1967014641129 -13.0115856680552 10.4344529617863 0
-60.8236717888399 6.97811970608359 -6.80885931813791 0
17.7897677087428 2.50203746001421 23.5267665792384 0
153.026985008818 26.8622800500294 -15.2538867461061 0
146.482593190432 -0.477462624530872 20.5535069330344 0
158.031966321335 -23.5797920608144 -17.541546920305 0
-51.0480930049743 -2.96913296652481 -0.931837682261299 0
140.938308719303 20.0282493262588 -0.214862403314942 0
139.591736372561 19.7091153055707 -1.75656077615579 0
175.499357784701 -19.2850492544069 15.04329453489 0
159.088603296416 -16.8550648869792 -17.2520876515207 0
138.065243743204 9.62941373906752 22.5497597827952 0
135.716234222455 -17.4234102952076 10.3613678123607 0
166.189201446535 -12.9960646788733 -31.4870027192944 0
126.320811343702 9.50184558510217 22.2424386231358 0
-42.149992609458 3.79660922137397 -5.48392012904246 0
99.2093298319644 -11.4374576702042 16.9345083354346 0
157.985687875798 -7.77744169319586 -13.9317728006701 0
81.5508739775345 -13.762555866975 8.00615975877479 0
146.638820305276 17.5685243856255 15.0261690070738 0
184.085319803339 -31.234260740917 -27.8135634567789 0
176.908787022763 -9.2873231975143 -29.2486475111979 0
152.772531480131 -10.8350645974083 -12.8114838873751 0
88.6066496891267 11.8108160689204 2.06589059005854 0
164.412855015024 37.3842370355042 -10.1649930529603 0
188.516709854149 21.1105309493129 12.0883264636043 0
59.1703380572639 7.44496290717828 22.5874592708055 0
-23.5218070889721 8.46021400998696 2.21326949893519 0
2.65156349530117 -9.8770306062239 12.0284033823403 0
189.641451680375 -1.88628280714751 -5.98512959921336 0
34.3958717289314 -2.31424885062616 0.450910073086892 0
-52.8795408906081 15.3047644213464 7.58128366976604 0
17.1918884043382 12.8175945415626 11.6414327853235 0
126.866044941314 -3.77534000187852 -3.96892518981255 0
-4.21530911565168 2.16810412674527 23.1454246207095 0
156.932203574942 -13.0335043713951 16.6135576302201 0
165.498866466451 -10.7863353021712 -24.259216965584 0
-50.5456267564493 4.96768840145852 20.4739003068142 0
160.862518499865 23.070244941378 14.9402942081304 0
-50.326144617055 8.54974042141783 -2.64457725996903 0
-26.0277446367467 1.28716806831517 -4.73747799195552 0
171.671555710325 31.5636390734788 -30.5489408062509 0
140.177978164888 -15.2839983546709 -6.47002119505669 0
-34.4409503237993 10.6619744842169 3.19146074925722 0
119.251475648162 15.5834821950639 6.32807985459699 0
54.5844312942653 -10.2992506131282 17.5785789879916 0
87.5781811205684 7.49845674835662 -2.04985890417408 0
184.83968720663 11.6864376839929 -13.0897649093835 0
150.544950941974 26.7490745355721 -4.42138249446653 0
39.9394899158278 -7.37058661367163 5.59292972742099 0
-14.6570600308357 -8.14312849029825 17.7976713559066 0
182.564154421483 -30.6274373041579 -34.641920988309 0
-56.5582616272308 14.2964773341266 12.3096100558311 0
30.9501375472718 10.7859279752681 7.44463423728105 0
121.154361819088 -13.4927854812854 15.1022327381353 0
177.304649997127 20.7098635445332 22.2726332516637 0
181.552785481594 17.4254588420226 -24.8542565751004 0
123.586177946242 15.3116259320554 12.2606957679752 0
161.142133548137 17.7958067537225 -26.6135311242936 0
-38.4835804611174 -0.0751524698337199 21.7717159171738 0
171.875653561191 35.0634910410071 -4.48529787746218 0
159.455207154585 33.6075229635509 -13.2964417490781 0
187.76501808479 4.10319601734885 4.0432897503717 0
140.618438597126 -3.72414925721695 -6.49423944984166 0
175.921777746236 3.84050829262486 -11.7023267338926 0
184.647109440643 -33.2285491965876 -12.5636332220669 0
183.33420513833 1.73232181956819 -7.56999985000452 0
63.865395127072 12.10043856329 8.25332697411945 0
-42.9728281590042 14.0651061449929 6.12331128433779 0
-42.2539820090418 12.6741261269616 4.03132037647989 0
173.688024751383 7.09309811833952 22.3103527078554 0
169.682540933071 36.0979021735348 -24.2151473575095 0
150.510057730444 -14.7660523364816 -13.1151782128738 0
104.860903972367 -4.74835719098272 -0.927757217056529 0
-76.1849201214201 -2.0696024664185 -3.77730043193115 0
-15.5335113852794 0.624686151722597 -4.28562946873064 0
88.0898847148693 7.75195478240583 22.607860304133 0
178.711970597576 35.484104441888 -12.2646576569879 0
-5.60769355680411 -2.4123192401487 22.6582639749192 0
53.1188384476203 -10.7468986718667 16.77003083065 0
88.1010524186445 5.63595101682945 23.5713641525086 0
165.167714624675 37.0630916778998 -12.526478692772 0
137.112333265018 6.56202214759582 -6.24925964307892 0
101.263172317846 -11.6271141652956 2.38405843412393 0
20.7144844389634 -3.79878269154948 2.64012309038728 0
44.4157590552421 12.3582078485796 15.6611075763489 0
189.068834076033 16.3301083838702 -8.10170398885071 0
-45.0520194108019 -2.48849381315912 -1.25939482679733 0
159.757357837592 16.8794276063933 24.7176748521092 0
179.646841880678 -21.5429256895608 10.9838793473385 0
106.34108849324 -0.178730797294633 -2.59954252384905 0
97.7487709673462 7.62046916289058 22.7757998312269 0
109.212094019498 -11.3209250477879 17.085752578622 0
178.450305068843 -7.46670698060563 -31.15161575154 0
103.361188516326 10.9760576814395 20.004337869336 0
164.149283025279 -17.8458486180412 16.3393421334588 0
121.925957625318 7.55376194890561 22.9968228269814 0
184.346122996814 27.6867122660323 1.66227057814524 0
33.5767038441987 2.59764300439859 -3.42915606357267 0
163.62284831356 -21.1746887805098 -27.0404364058434 0
65.4629373404004 -10.9624264720414 17.0209888144586 0
196.997479101431 -20.6614106200206 -3.85862756952104 0
107.764361460875 13.9355921859654 13.8364647111001 0
129.411312964714 6.40582977950512 23.2030786778022 0
121.237224129335 15.2850785862673 0.81570927227009 0
168.092941879308 -0.914624833977034 18.8395780407946 0
150.50431814894 -15.272571409236 14.6094292327444 0
141.127482458441 -6.03472386779076 -6.81342271372866 0
141.868804116096 -17.374515775853 -6.86375751615343 0
104.088974330143 -0.266946642595676 -2.46856822254499 0
196.264956112997 -15.8712643675195 -3.17489282344941 0
121.392177482118 -5.10019236200392 -2.97988502194364 0
111.822691078159 1.87045784572612 -3.12392530917962 0
160.564225174113 -2.70179176139005 18.4254341126065 0
106.246211914534 3.20391295560395 23.8293302309663 0
159.100822585841 18.0027418371065 -25.6258998275674 0
-73.7690740237928 5.49287278326353 -7.56749926844808 0
174.088783414859 -31.2278778353831 -35.5166984050634 0
-35.7367527245799 11.9922008031504 4.51073915447047 0
145.167522502724 -18.1771142581021 -8.61098507488034 0
165.862527112758 -23.9658596541886 9.37126735324276 0
115.335958403907 -5.05162776355107 21.0101941771817 0
-15.1212096717583 5.073675032357 -1.18369055487648 0
171.64852913253 -25.5278616437113 7.18568768273503 0
196.619277793996 -25.9886952550091 -12.5931830086562 0
111.045844251588 -16.3567086306468 8.9077189067456 0
147.091653758767 -6.39418408730252 -8.84207923779956 0
187.335291543459 7.06357728594798 -5.45397171555948 0
65.7916195834045 -7.65527270643671 20.3259729768986 0
-28.6755227431441 2.80795310772821 -4.57808156766218 0
181.524500518572 -8.58565328856871 -32.555995891036 0
179.541410080598 -36.2026851133464 -13.156438010051 0
0.955367048650283 9.3534069612249 5.22351815774808 0
165.776592267824 6.51199611313447 -17.973211849329 0
91.5631739913815 -10.2769514802553 18.1173876539165 0
60.6081757365262 9.68450519321312 20.5894590745362 0
172.084723669488 1.75185302074447 -14.807794126147 0
194.491693125284 -16.901532376912 -26.2367110744444 0
171.540293017707 35.871125172559 -6.17421948995629 0
-61.819271396484 14.4961621312135 11.6302256485989 0
-40.8283980075935 -7.11957717246172 5.99361955592348 0
163.636133400256 -35.4359993968901 -15.5783899919231 0
122.054873093481 -11.8623195540319 16.6301450413708 0
-19.4732795411372 -9.07887240223563 14.8297717759168 0
160.058881612092 36.0346627259748 -10.239541645117 0
-76.0670897233685 -0.151594835073373 17.2354199173285 0
185.693741080478 -26.0322669473623 0.152067205435402 0
177.272408881084 31.8082456445959 -0.864273908603283 0
118.020083576232 -3.21786475628065 -2.91363920558234 0
63.8112728080748 11.725252805612 17.2000175745069 0
183.985835993125 6.55609824647003 13.6160998516708 0
114.818204199778 4.85072787057864 -3.63425115708005 0
-34.8124961774369 13.6234709090112 14.5599121597054 0
169.033508103113 36.4288121786259 -11.5246294953395 0
90.4845496549191 0.159151992076799 23.8012083612615 0
187.204187745675 -29.3993154418329 -7.02898784598074 0
189.775600335323 -28.0906534054907 -8.14900152053155 0
38.5404794383993 -1.04582610349597 -1.56720729262543 0
-79.9726028530284 15.2914655077588 -5.0543739768556 1
-23.3860759292773 1.36137454632806 22.623768760107 0
19.3943642612823 -7.11148899308301 6.39494184245999 0
-68.5110071612029 11.6861483955247 -5.22732768201106 0
102.709686642255 -0.049686156449414 23.4687531676993 0
183.594352825712 11.8865572374672 -14.5418750203546 0
142.873903999285 -8.98399656137447 17.9223505694318 0
-62.9598939167951 -1.60927676317443 -3.20395287348823 0
179.497403075505 15.9857165308095 24.0425726014485 0
-55.0308567520602 2.24349221111772 -5.82171904531475 0
57.395664912828 1.20715818107566 24.0274636274839 0
137.500214474226 -11.0126012602343 16.9510467910612 0
40.9007342723939 10.3213002557294 19.5081787770339 0
104.404264036573 9.69661359726446 21.4067937412999 0
-34.1543166235571 14.6446865276713 9.54013389158089 0
167.28569956212 -35.6853659529493 -11.2487657413355 0
85.3488271857042 4.39293665669593 -2.61550127472499 0
-64.5361543646843 -7.52425357023635 6.56419462238207 0
126.494121044869 13.2785626348668 18.3618971925737 0
182.852544342595 -8.93570341866916 16.0508040540507 0
190.117857816503 -9.55656320994011 -23.5672232988881 0
158.591059515958 4.80300305385792 21.2827876719903 0
-0.864989622542608 13.4135365616647 12.8588088187391 0
155.442823158089 6.3631836955266 21.9313355477197 0
130.931149462947 -18.3900638687831 3.27655045541414 0
-76.809688251182 6.86385742974786 -8.24502587278433 0
119.98541937756 -9.35188430446489 18.4242489772718 0
-81.086023497459 12.5871421712841 -7.64807090551 1
171.404802455163 -31.9903500566355 -29.0832412417072 0
134.625670766437 -18.0977346833769 9.00745154453564 0
143.306305331442 18.0879898547491 -8.67499464678922 0
143.072692422826 7.33500375138368 22.7869568870212 0
166.702466522061 0.915228562965622 -17.0890943964136 0
100.763212381128 13.9793426996598 5.42873081028835 0
156.299250977666 1.89275681549954 19.580762241682 0
186.698431982941 24.2025425456709 10.937958341862 0
-37.1708997707354 8.1055511812234 20.2073163235624 0
146.199141337294 -2.22663762902692 -8.15422532573512 0
176.586230094786 -30.3591083781694 -1.12123778271818 0
4.79333630765867 -9.44521767764858 10.4142471913314 0
98.2885069282285 5.51033006356465 23.6065589806795 0
188.72972396793 -22.4977003896492 3.7633439954536 0
31.7351865705073 -3.20135204842139 1.65444166674009 0
90.7559582702855 -4.55655962858709 0.387338770232813 0
144.118500357672 -7.57218450358299 -7.82114835035925 0
52.8630761783633 -6.32490736246977 3.78767600797101 0
10.9455464979261 2.37306226684735 23.4731679700703 0
121.044286093898 -2.87834601112694 -3.34022817881527 0
169.357520963466 -30.6219163436219 -33.2848158699527 0
109.21130725615 10.3897529940942 20.9371022860224 0
166.038049539767 4.12531404553256 21.0841238708502 0
159.499539961178 26.3029893780143 -27.3132393768612 0
-73.2324384654356 -5.50922909973065 12.307895086183 0
-50.1901525143208 14.9022077825396 6.35075810740334 0
173.603383436202 -19.3369679487125 15.1743467096502 0
191.747025952954 -26.3919700443296 -31.837170481864 0
163.19370921547 27.3567134805175 6.26264770106334 0
155.328991797737 -26.3212264912482 -10.0897013257764 0
159.368582666048 -31.7971190183298 -19.8790045038822 0
-42.7944345119069 8.66601872735652 -0.411878361160424 0
194.116827943701 -12.0636522341342 -22.8726472709942 0
-78.1401763450177 12.1354751739144 -7.04036902177511 1
97.6734523476573 -11.672546593354 2.90828614403113 0
179.159971460832 6.73281685501042 18.47827715477 0
154.140376862183 13.0353424876344 -13.1643742024696 0
185.045978548736 -29.3359863426264 -4.23060691657074 0
181.575669087155 -8.22174411564612 -19.7150911090771 0
137.673427828427 -3.55830091101497 -5.91707947779629 0
154.839338839805 -5.31956086995978 18.5598607698021 0
79.1797215258962 7.67927197902152 -0.99683960119173 0
177.873875227589 -3.70590428947497 16.8417107668499 0
151.914428173993 26.8486608837956 -3.21196546283431 0
28.392789509486 12.6469447367661 15.6575450938793 0
98.2448391759428 -13.192444065913 14.8551095472825 0
159.733786810182 -5.07602994097153 -15.1754236732299 0
71.1119013037798 -9.95769249939276 18.3093300626625 0
174.941875706904 6.82021894241804 -14.1836226871825 0
79.6383144578526 11.6868865664943 3.68501499935296 0
188.464150265862 9.21341895010053 4.23391991064085 0
180.427580867815 -35.4406346666113 -12.5020778041843 0
72.359737802157 -1.95512506520647 -0.404753398757432 0
161.899351007674 34.1497339540322 -4.91910743143763 0
176.30318660172 31.803540535271 0.15434892757478 0
-75.2077082419215 15.8460273235433 6.98151003166813 0
140.488194058104 20.0159065018102 -4.34073715407167 0
23.3260755777893 -10.2800226527507 15.4364178221711 0
185.814612647362 -30.75190766209 -29.3659439798152 0
-38.6790001799537 14.7189794086061 12.0367253552892 0
183.077165164106 28.8011451701257 0.401453825630146 0
57.3478816786281 -3.37839977743743 23.0074110734543 0
16.7452605789658 -10.3653093870859 14.8426379515532 0
102.283190706277 3.06862896092281 23.879561937064 0
168.078589492903 -35.1573998736808 -8.87643543047396 0
129.587766546792 -13.0946283244165 -2.73111611170068 0
137.001339769737 -14.1143255460582 -5.27091138149306 0
115.272856529703 -1.42785258804614 -3.01167049994582 0
183.408191267679 17.2331828089843 20.5173792138317 0
187.07126958255 33.89587275255 -17.5134054053653 0
18.2561437311916 -8.60857195203611 8.54826434035173 0
32.327133722202 -10.5974262451118 10.6637446739132 0
150.331492379924 -5.67710197997693 18.6482378387543 0
136.488974737834 1.18373107900464 -5.97482883975898 0
156.467328621856 27.3542985416369 1.33783308077093 0
144.49897172725 8.75519622599359 -8.01958152414211 0
-55.4194055905265 7.56105012411391 19.1404565164138 0
186.223310012353 -15.7361232753517 15.5304170340885 0
130.067721698914 16.9284793240774 6.20993566181827 0
189.067227959389 -20.8685900080079 -34.9552583364833 0
163.726253789904 -22.4169153599488 -28.3499682765035 0
-14.3768701649104 13.8812242098762 11.5504617739077 0
156.663415783302 -20.3673125828469 11.361240355563 0
-11.1746132017423 -9.41661671720768 15.6172072042188 0
28.5812624609423 10.0823362492598 6.33341425082952 0
125.099272701349 9.31214387822379 -5.09866312575513 0
177.681956657894 -5.95284261223379 17.3965374043683 0
14.7810713778515 5.02348458217658 -0.249196218910859 0
174.168292286419 -6.22287776535522 -17.3432892589914 0
194.212083837387 -26.259269029476 -9.06626889197328 0
101.376029755618 -2.01790503827872 22.8435968936599 0
-62.9038612978563 12.9348386208749 -1.80665388152963 0
152.038724959011 9.40162619631058 -10.7936981494812 0
177.325490383839 6.84397317839242 20.0922296779444 0
28.6477090598342 6.49685760635236 1.94429083228923 0
70.9068642334621 9.14662854761006 1.4513650094398 0
45.3472575422186 5.25888587676273 -0.735968282140327 0
119.051807547352 -1.8002249896392 -3.28398390150093 0
179.608686865764 33.6257664829279 -6.02368466746294 0
188.625632359757 11.1538094782639 -3.44809283849047 0
-0.978052885528566 10.4840332021749 6.39156853297128 0
183.242008086374 -16.3318345420095 -37.6758672525527 0
15.8898902297225 -8.82445879948454 8.91833674741518 0
147.836928394037 22.2136521682997 -10.7717800403827 0
64.3776722483866 12.5731166758743 10.2936199798747 0
166.903255125828 30.4027137986199 2.96412695273202 0
-65.59809555727 10.7705497931212 -5.19550322847344 0
183.627424799555 35.0045903569776 -24.0337731206614 0
151.153003372167 -24.3189545068439 -2.84484399604679 0
193.998004088466 -10.7429958833218 -19.8914424054253 0
-51.6169074738164 5.72282537501161 -5.75213805574837 0
136.640845369393 17.7363760742979 7.18112990114221 0
163.034354889001 26.5973983809412 7.92049276622074 0
159.897569515896 -12.2471856023945 -17.0872630996218 0
184.136857478312 25.177731722569 9.10799966022294 0
89.9392099945467 -6.6613338979671 1.57720173360248 0
172.328907330315 -22.3972475996266 11.4889771180857 0
-56.1416911559159 11.9298162264707 -0.719122945321988 0
137.298917694548 -19.3639314776906 6.75264194203375 0
172.189334289488 -36.3228498453352 -18.5667402991678 0
173.383980264334 26.050064939447 11.5203055943089 0
189.862232897284 17.9790280883095 -6.10063534177144 0
163.263660489088 -22.1890487734297 -23.0569341676839 0
-78.1764221839341 8.95506200710683 -8.81371762217594 1
185.28593124034 -8.45390137188594 14.795767478143 0
166.708069620503 -27.232402604645 -32.8958376141081 0
70.1489875111659 12.2278533870313 15.903718510953 0
-43.7580010178809 15.0555564823257 10.6037005227759 0
153.364718479603 25.9914912342939 -0.0378586192342437 0
130.664390385691 15.4458116620144 -4.64260652118232 0
39.1381597194718 -10.2213998136039 16.8000800947157 0
-42.60690352415 0.488558400986943 -4.44351093304012 0
103.030397364974 -3.95746429901518 21.9493577052334 0
-26.3796058325397 12.6097479421908 6.6926377668994 0
191.521052810073 -21.2624183952025 3.68189993871318 0
50.7430259979349 4.92872752247589 -1.31936202608986 0
22.5773032550743 -10.6403408356452 12.4604245186645 0
193.526936613064 -14.9312642977319 -27.1354517774719 0
158.545154453547 -1.81979924181451 18.5950640472638 0
-57.0357447716865 6.74205818136051 -6.21849453182222 0
-10.8230192590437 1.22270612612229 -4.39977379540346 0
118.377387931754 15.3396993259643 3.65268127333592 0
194.447424003732 -16.6146148091408 4.96965265035131 0
11.9954295001238 -10.3139735582417 13.0521765815932 0
161.186206296568 -4.6414036298219 18.2385652188219 0
37.0107054169902 -3.22716198350661 1.59329072465469 0
184.332270689193 -28.9928903915069 -3.03522763946751 0
124.322123168642 14.717792904263 14.5401308300297 0
61.1165382923825 -11.4027655319413 8.22927216676809 0
195.808105409092 -27.5227623820625 -20.693131769467 0
-22.4043619626263 8.02048905479687 21.0910199740772 0
46.5932111263743 -11.4982020889893 12.3936407076954 0
166.250331640214 -1.39113748093028 18.0325770586873 0
168.904766305829 34.3689339820234 -20.5596466137195 0
181.630467996408 16.2365235475607 22.3275163757243 0
124.240765272578 15.9737763992705 1.58822672277593 0
20.646666254074 -1.74725454845816 0.00941045467700277 0
185.75328966047 35.3760028059814 -19.6858119342652 0
156.344639401578 4.70020329678636 21.0134698230595 0
129.57775498756 1.66993967111676 -4.66409433695718 0
27.8855153993051 -2.50366341991042 0.83485301744036 0
152.005460163662 22.1098755506383 8.03363339508523 0
159.179811012797 1.41492394794761 -14.762405579388 0
112.159656252861 9.32455884119459 -3.88410965770536 0
74.7335753933289 0.272957920940467 -1.60191855679567 0
18.6435042373084 8.65925898446383 4.61850469820489 0
125.319533002398 -3.94317609897665 -3.75659867206174 0
-79.7480238966482 13.5966484967349 -6.46445987258905 1
176.40805548221 -0.235375950470314 17.3968120663741 0
115.039296569798 -13.9970676509116 14.5045029859893 0
74.3082656843464 -1.3462702689313 -0.825904744406019 0
180.409520141846 -6.93547730036657 16.3815931033682 0
163.93927217643 -34.8587166521119 -13.666662288645 0
36.9477776888438 12.3245995353725 16.027125015289 0
163.783373497405 -11.0721234910903 -27.6219029907512 0
190.701536815521 -29.6207598264122 -16.7778419205415 0
174.977238388576 27.6471524790759 8.02186260111158 0
112.952180570688 -2.0814009891276 22.396671967285 0
184.497745073386 16.0710962479686 19.0945822204822 0
143.107927001891 -19.1205580916521 -6.70006878199169 0
134.627811793154 8.71834816903388 -6.02085667967617 0
166.069139806177 12.9918606202518 -22.9038972064137 0
36.9096342877624 -7.61068487407497 20.2426092355388 0
28.2743187706839 -7.4821224647364 20.216847407234 0
177.775792588911 -22.5082218482106 9.4492283953805 0
73.0682477105485 5.53553547937766 23.5938891533176 0
167.282706561548 13.6545349484323 26.7938946631781 0
172.01560487165 -12.1849687999172 -35.6439844788067 0
-64.0111374709337 3.96385371553759 -6.74136946160889 0
5.53322738227177 0.113482656999562 -3.75523653901273 0
155.187789699611 -12.5795250547744 -14.1195907216503 0
189.985109356772 16.3511098203462 -3.42161087245828 0
178.381090031166 -35.9398853956419 -14.9023298662712 0
39.0336222761102 11.3562247622466 8.52806161976921 0
182.987590148811 32.3822706557595 -25.4452647634543 0
178.873316516822 29.9118491955468 -29.0934265794186 0
179.449501968752 -32.7665240526704 -25.2091550254838 0
-58.5660400884711 -4.92281165118279 1.22463061112867 0
86.3440125590185 8.70690474869482 -1.01425598080951 0
172.352463489261 19.5337944763043 24.0932580422599 0
-25.3642434521946 8.96383093721335 20.3555515332869 0
59.2538099569206 -8.55224734403279 19.6541340010708 0
4.81235420733154 7.29962868857872 22.2189721268424 0
-35.6599169897329 -7.81254544788947 14.8914592273266 0
156.819423434805 17.4990204273897 -23.6353881050492 0
77.9514049545609 -11.7394678223823 16.3567992078916 0
69.7429284985541 -3.88492397601115 0.932044298589163 0
-79.077464003071 -6.9774647618165 3.24096834720415 1
128.694361493431 10.5298298408897 21.7116346520785 0
146.070597359537 -21.9846127970174 3.225632972791 0
157.810839034466 21.0576265439695 17.0217311146992 0
165.118830378373 30.1464635556039 2.70159851557425 0
-53.5066556669491 -7.61146553292002 7.12758998249885 0
53.3461648258641 -8.66273360371381 5.84798491907787 0
35.00032548806 -0.861865925449603 23.4953592407663 0
174.174039398003 -27.6657974881707 -38.0714037897951 0
-77.3646551718417 -6.5548515329022 9.41798489428326 0
36.7818850237305 8.68977912602448 4.33702123748066 0
168.336668923877 -28.8403811940646 -33.6983952271437 0
107.968930379365 1.65850593106724 23.693139327683 0
91.8062310073493 -12.4406777627794 4.14993825065224 0
-58.4953955284805 -7.6072297251534 6.99356558328208 0
185.645312293089 -18.6497949137793 -37.0997762194471 0
179.598590039819 -33.9260666473202 -21.6924090685781 0
114.653825802737 -12.3275848709911 16.2293740722524 0
158.54076340386 28.879758727002 0.642095984278956 0
189.689012223493 -30.319247438097 -15.4442833755247 0
111.838134546019 -14.516647464366 2.99546800705343 0
-41.5462795646743 -6.07167249340016 4.25961399841202 0
63.5071178992706 -9.09462194578579 19.1642246659062 0
82.3480108257947 -12.558748341452 15.2439010123601 0
187.868973744772 32.7464287656963 -15.4396599919668 0
172.275626309499 -35.0107137039031 -7.79887463288944 0
158.075897313219 -19.1992806531855 13.4209965733082 0
158.52366733925 31.4644117540766 -2.92741627141789 0
100.611086946468 0.404077422712872 -2.42515088230977 0
44.5197414987981 -10.5319870903585 9.243541434341 0
170.623481008477 29.2940619253967 5.33156048602764 0
152.777491601066 -13.4623296259055 -13.9624674449711 0
172.796084416147 20.9710345348389 21.7631778056298 0
-52.0919870705456 9.61393841953016 18.1915768984319 0
108.792955501861 -7.22144828915242 20.0449448867877 0
157.760507908225 -17.0468140669839 15.28187287672 0
0.4169329291798 -7.196188775033 7.18655000615454 0
129.36993888838 -13.8416336534474 14.6064463160123 0
78.9617897879741 12.8432468501132 13.8604299738374 0
-60.2809878164095 4.42710988479891 -6.60995121277448 0
115.057271595001 2.40710369506008 -3.35525091431279 0
190.173971427825 22.0931187272748 -4.11229145233232 0
179.62357324949 15.8687219145256 -25.6396859496616 0
160.327925958403 33.0118135668346 -3.9291704023776 0
-36.6922162854565 -6.69671267435271 17.1326620079656 0
163.240025014619 -18.9235829669868 -26.9065602411428 0
5.01592805722799 12.8742785197219 10.3463813633333 0
146.616778326236 -3.74394320876307 -8.47623993418696 0
197.407669015913 -25.4512916795678 -14.7426856733957 0
155.805422841565 29.8081782954521 -20.5675423452013 0
4.54554702684995 6.63182048126936 1.92584847491524 0
179.918272676102 -15.1306278471858 17.5727424955535 0
4.22161205433182 4.55146352717876 -1.19341510874841 0
63.2363013245712 -12.1132758190294 14.4751316489912 0
159.458222008422 29.7063429405382 -26.8385041420583 0
120.377561813283 12.4328795910537 19.0656916976691 0
193.74078874691 -28.7125051323162 -20.646606582522 0
-24.4983051930181 -8.87895824420069 10.7062469584922 0
175.104387909768 26.4955532978714 10.1189908162396 0
-55.8994492823929 -2.13007108515927 19.4984771513955 0
109.401371561241 7.48422250533698 22.9656302266634 0
-5.90945149362001 13.4558695773204 10.90006585221 0
-79.1073229230697 11.2382561502771 14.2071132036346 1
60.1050393275863 -4.92595442866155 2.26117871816338 0
177.807948515109 -34.685954823863 -9.14747174893649 0
86.387302480979 12.881446899148 14.6446392460891 0
192.459186555719 -15.504824368806 8.45977916363293 0
81.1848608721327 12.2766437945347 16.2919727628926 0
-12.555338779103 9.45898102700006 20.4328381920508 0
47.3450780199098 -1.35014009090432 23.5646591799687 0
151.615803918657 23.4425160300574 3.26250344121672 0
146.925465881901 9.22561034538365 -8.84596181384934 0
146.668021462385 6.09797774482814 -8.14214094050327 0
-29.1553636042339 7.83498774784241 20.8673468636189 0
192.237409419731 -5.42850197049161 -3.30856894119379 0
-11.7227832569552 -9.5763457206436 13.4737296377509 0
123.144947270068 12.0683280992655 -5.20142622741822 0
108.818876676274 -4.54126733576411 -1.52437822866577 0
73.6195606131832 12.805756186894 13.2518040190645 0
29.8954706408013 1.92576362163702 -3.37595528291931 0
-25.4780363044151 -8.84824966565437 13.8858905888248 0
170.342342311009 2.53372610687501 -15.8882604995712 0
48.5427604112799 12.0757372335249 16.2364276287193 0
90.2826910571207 5.32851834785654 -2.78751762518867 0
44.6266877786888 2.21831492443367 -2.97214852759447 0
149.237655362584 23.1463691634888 -11.5844881701761 0
106.873658630369 -15.7951575613365 10.5480330134417 0
167.380994211717 -15.8009706578636 17.4418641399431 0
96.3273812940211 13.5201792698405 13.0207443087386 0
162.624380939661 30.7784602590074 0.922942187301322 0
167.021008102441 25.0666469186386 -30.6565427590219 0
189.788999414194 -11.4010707770017 -29.3238683974693 0
149.742300840649 20.3462899972703 10.4197770539112 0
154.954858680234 -1.22618859561895 19.3147047531135 0
75.4881635472407 -6.96253459693867 20.9560927435529 0
175.194379329683 -25.0940133373157 7.09361785497929 0
174.850249476621 -32.5610686818816 -3.78799175640073 0
70.5364621333682 1.70314782701763 -2.06690759038183 0
144.24695475245 -20.8721026423099 5.59668755517071 0
146.478819478095 11.8558599475096 22.4973934713065 0
184.096159726864 37.346912215026 -16.0119704385807 0
115.027426547148 13.8573192760991 -0.342773118089772 0
-3.30840426291833 12.4153171286083 17.2746323577973 0
173.96958359804 34.9656161328682 -19.4344453958254 0
65.3570072836116 -7.84056318573908 4.10967527784248 0
186.998046667593 -32.420269502184 -15.3708803506512 0
-9.03777795158296 1.55421504361348 -4.32291230548559 0
56.4661792115233 -9.97036111011427 18.0038995921637 0
95.9811297415839 -8.38685993020336 19.5352267909797 0
75.3328591813679 -4.5737785788432 1.15451292920109 0
161.549112781665 -8.03442107798375 17.7291009500887 0
185.911911943676 21.7312716189004 -21.4305189883388 0
147.850983959036 -12.6037858822527 -10.7484978215421 0
178.804477926744 32.4737748848672 -28.4953610758533 0
19.4927443404448 -2.56191538877867 1.03893597692663 0
-20.7983451522336 12.2222589506354 17.0776283571351 0
-66.9524132175045 16.0049940186456 4.90606401660688 0
154.686276527845 28.3159205257407 -19.3344821695091 0
186.155928064119 7.39763870330474 -8.19211269144819 0
161.521237109248 -28.8828190954802 -21.2630852059419 0
190.347930042905 -6.01931803348336 7.23209972441116 0
104.859242923078 -13.1022846460637 15.2627497560401 0
37.3602392044771 1.55021295209387 -3.07138674657831 0
11.6705701711533 -1.17479646288723 -2.509482975055 0
158.862983278351 31.2787815280851 -24.9105657425941 0
68.5135204557595 -9.23294209577205 4.82184876864275 0
111.721774613992 0.217011889629882 -2.91871079175813 0
159.621739426389 -0.352816821633967 18.6865817643683 0
133.31717318402 3.60866149705907 -5.3039081818672 0
45.8447705159134 -11.1464854325904 10.4278009374975 0
160.591743561138 -19.5040900902009 14.1527849675452 0
159.122398312375 19.7609121107817 20.6863470036146 0
-8.6922380340687 13.6799673899313 11.371440648037 0
171.098136023421 -31.1444067660026 -33.6659964822337 0
101.49247325451 -9.12735115652263 18.9040201249133 0
128.183216067019 -1.40123447345638 21.8427310552682 0
168.540397353339 -30.6249374655765 -1.27287140489243 0
177.426032016258 35.515826053164 -17.3915982908051 0
179.894445821045 38.0686107428036 -21.6381382166807 0
-62.2555502082754 -6.05709881618816 13.5349426168551 0
42.3087525386803 12.1754367692943 10.4379174045174 0
85.6113459441503 10.0828696670232 20.4240627361372 0
32.4456901645727 7.23315509274327 22.3366087501323 0
189.376501167591 -27.6832441497212 -6.50912365324077 0
-68.2040817403719 12.189647231676 14.3371293506422 0
