16.1719732802575 -22.8215752428707 16.1775152737597 0
198.772527333668 -10.6994950903838 -22.2057867916989 0
189.426404129772 -4.7192626243469 19.2447408922755 0
109.503119770709 13.3548545072947 12.8112300736636 0
217.278723881031 24.5085186281741 18.2432967221884 0
235.826309956266 -32.7883683906043 -19.7853207448264 0
154.614863854899 12.028603784829 19.3367998025649 0
46.3553874509682 -19.459597089399 9.28281831439677 0
229.015084222595 -33.2683507223378 -23.2689933759888 0
233.112794826981 17.1581648310599 -18.7494157996159 0
82.9645078297485 8.35427979803672 24.0617900466693 0
16.0703169556769 -5.96763081952741 -3.26663603324954 0
192.548171108514 1.93948647146626 -11.6601155486967 0
120.749201333426 -4.43093645887009 -5.06871583868574 0
187.57114180227 -11.2054755365473 19.7418148937145 0
235.706979466191 -17.7638598307712 -25.2494245818495 0
237.722831945633 -15.6048972087405 -3.69796084846805 0
219.359438589794 4.23891311804103 -10.0107931274495 0
227.164715789555 30.8263945358899 -36.74554511493 0
232.239228819055 29.5000850787043 -32.6013437899817 0
201.534754111893 13.4086530507764 -16.4915739118438 0
201.340609742155 28.1198054070563 14.6656698813916 0
186.585608271262 -4.49155839222464 -12.3528349988724 0
196.576729443642 15.7339340499518 -13.4311149189907 0
180.307531112359 -21.5072796890654 -0.362442770121457 0
101.125159167295 -3.85782980155836 -4.25480984324486 0
208.460301832404 19.0441624170757 21.3056130805255 0
142.911824753237 -14.4780733611701 19.8439237561051 0
210.255871142855 3.11585802904589 21.0646963342798 0
240.211618209952 26.7953096461478 -17.5339119548415 0
162.38093334758 -1.50946828206934 22.1423355015002 0
220.856898147349 -20.9537275604496 22.7122271810025 0
205.028641324633 -12.2108009819152 -34.6158945054661 0
193.912548232551 -27.3984935328279 -11.0097894039948 0
208.022198133441 -29.3307308727985 5.14558069866096 0
173.122726642802 -1.64011859916939 -9.07053347737736 0
142.472806980919 -18.4016095818936 2.27027197085925 0
29.5559378867273 -22.1442896261926 18.3975213528294 0
79.3053080353718 -11.6949105809666 26.0622823212449 0
137.329191513688 -19.1993167704598 11.0986393273972 0
200.208512897263 13.8705509993907 20.5418336242629 0
51.5785921200482 -18.9224459751785 22.3961650543156 0
172.284862752071 6.66760155014874 20.7977890052633 0
233.675676443485 34.7298268460251 1.93434806102074 0
207.366828443924 39.1749744143766 -35.3630284326123 0
165.127171265972 -0.0778075355726575 21.935595451079 0
79.8357974799481 -8.44964645922186 26.8839389392519 0
173.023602209734 -19.9943442754216 9.8062457879878 0
224.094657266784 43.8926026374821 -18.1285905775209 0
38.4877048986218 5.78909625239162 10.6574912931732 0
144.755168262932 3.40299109215808 -3.31293488812422 0
230.624472761348 28.8409308014444 -34.0493949921866 0
43.2258183848984 -14.5179828866717 26.4842645930588 0
227.426386303674 0.0715400385940652 -9.300067268308 0
239.263688152744 37.0067929517471 -19.6985271433178 0
10.9671353317129 -22.8906693847893 18.5375012328625 0
192.807808319619 -22.9142989289633 -17.5461283031193 0
198.328271355094 -32.9833840599402 -17.2121944111332 0
197.161832701702 -3.0542193197863 -15.115937345433 0
190.154882860746 -7.37041668384655 -14.2914307273813 0
234.275306252562 39.2313039187497 -9.24823574034607 0
213.254460282074 -8.60660484901702 -34.3762114939587 0
30.285537340058 4.6012902324626 25.7132879626207 0
235.497377515088 30.5938945890737 -28.9988843902112 0
140.503261352061 -16.5658207868154 17.4714199955647 0
142.864238346444 11.0820445166331 2.02215087266128 0
106.835553361041 3.78387804376276 24.1949197578618 0
53.9528002888399 -21.1616039829107 14.8825001955881 0
192.50687347119 4.07821411001329 -11.2268457117886 0
56.5386262914688 -11.0446861640475 -0.0608459688601578 0
31.9113476341111 2.93070760785833 5.19234560421921 0
31.0085244270754 -21.0194828502528 11.4310034691184 0
172.774935312444 10.251977421875 19.8457467449061 0
27.0403464867541 -1.05522033489652 -3.45634139095001 0
223.154333288503 -3.14972782278184 -14.9421875236817 0
39.3634503061022 4.25157472424295 7.65249798119325 0
238.199041532969 -18.458826520818 -1.65120100055591 0
218.874662696926 41.5504892695438 -0.932314708134648 0
190.688949270225 -23.2023305834924 7.93456821688657 0
207.334011404604 44.119993415662 -2.1956730092903 0
132.324388102663 16.5503718532994 12.7164819389877 0
211.924847206043 16.7843050770024 21.4540678433141 0
144.772313362074 9.59036157924989 0.30197973423833 0
235.056239499767 19.8850621426483 -20.6990770787923 0
214.430024785827 -9.74491256205239 -35.757252479992 0
224.286979118204 19.0671272436153 -25.532987748771 0
181.861865576592 24.7636985336447 10.7511680322824 0
206.599402589653 -32.5444031561618 -3.89832419677624 0
191.107493004334 30.441277647536 6.60439417665731 0
237.443787553073 -16.4091876038622 -11.2660445415759 0
14.7751362888439 2.22566892677547 26.7671864942924 0
126.33854758242 2.24869947271067 23.2907082801319 0
194.100671751711 -25.88458192192 -0.529291195493732 0
207.985947239963 -29.5716620139093 -31.3274540913878 0
204.911932483957 -31.2524415059824 -27.7914188910251 0
54.4575394658372 -16.1633940118216 4.59667327572798 0
9.72554105849852 -14.9161255595078 3.65142513290341 0
42.5633378282732 0.266420096226696 -3.73698625351116 0
232.518995591922 -27.2988144032693 3.50773510038541 0
2.03770546185057 -11.0831225690374 0.658114227471519 1
188.094420747748 24.5200128096925 12.9874008450616 0
237.64373157612 28.5597750270276 -25.435797949425 0
209.889556492494 17.7935517571116 -22.2055083290855 0
233.012660873581 39.9817898777845 -10.1689176087759 0
49.0710733128628 8.03068908791746 22.737824335217 0
209.017793574235 42.6789149571814 -29.353539011534 0
125.331954237771 -13.8356588819548 -2.89964334390201 0
235.569147689032 -11.113360069427 -8.87072226839288 0
231.232815105129 -18.4526945685374 -33.5869416109322 0
3.34170077949478 -5.07712082580239 -3.73921768047105 1
62.6472881258554 -20.5002369126464 17.6985522135377 0
207.17869843613 -7.54339342865215 20.0553837121478 0
149.963732934887 -16.493007891947 17.0456746764476 0
218.847377246835 43.2105761347024 -12.2602444869511 0
87.807939974814 4.2465187274864 25.2239325601159 0
59.7759458416499 2.37934496423142 2.55155916293449 0
29.969189408995 -9.76977213285605 28.153326211441 0
231.806831191742 31.0740527975879 8.20593027057861 0
63.6350629346722 7.61774450114151 11.9103260571156 0
200.519289894272 -3.7232425298616 18.2516993712947 0
183.490189915503 27.5616985788989 -1.71187585116267 0
219.443120604339 44.5044188934589 -21.9349091225775 0
122.831222990966 -12.800002435838 22.6023985347272 0
92.4928519118233 -4.42670198958749 -3.92169691950718 0
229.716354351446 -19.378099465032 -35.5223771180627 0
87.3778964408727 -1.5226672525667 26.0822046930609 0
169.847261190915 22.2126518813609 3.78137342393326 0
184.5873611102 -17.2632528050648 16.8716949918461 0
153.938382080115 -19.158635854226 3.49765174598336 0
90.3589096029008 9.81373073750232 22.9531263672495 0
74.0395822224038 8.58912235216209 23.8419759513593 0
187.802350967667 -3.51499644244611 19.3992525609656 0
202.724195043816 45.3466244522456 -15.045917427173 0
193.649839078488 10.7554266696218 -11.6128578709724 0
231.606789232541 42.8588899898471 -28.7799173608776 0
163.500033504451 8.42961559631764 20.5310344907213 0
218.474876462597 44.2864450410896 -29.9466882666295 0
128.719842968474 -6.94379926382312 24.4465567650373 0
236.649139391696 -17.0034493794802 5.6785106599009 0
232.712709561738 24.1541664801483 14.1882509625283 0
236.377091025655 -19.0900374803293 7.5149355443967 0
167.9455012746 16.988909983151 16.2983389785443 0
193.766406847996 7.06147721709298 -11.107544792391 0
201.205525784152 28.8548421028182 -30.1397534842342 0
17.8778921069887 1.53014004413597 27.2993384551497 0
66.1009174854974 -20.6569347834081 14.2594566761124 0
192.081202649766 16.2840372188001 -11.4640809858287 0
126.243754508737 -19.3226379333114 9.10753061187952 0
205.869223120392 -29.4399583255034 4.01934877326994 0
129.929221264232 -0.506643959689784 23.7968726109226 0
229.808310330895 26.4304239996982 13.7052055567328 0
190.147518484278 -24.0773144954897 -12.4896323685165 0
209.880728085694 23.0935076943131 -35.7003804289083 0
39.6005664990488 -20.2648491781656 10.4658040617899 0
205.822296155837 45.6177942227829 -14.040892065518 0
196.466431036075 30.9842343534497 -15.4909813295797 0
180.629875344231 4.54760685523927 -7.82829809784735 0
201.115907350356 15.7195840287024 -16.8286848890871 0
120.0894054379 1.74012508322267 23.672082287732 0
107.354224129184 -10.172833428172 25.0660162421928 0
78.7702205001397 1.01997104748062 -1.50392119242166 0
193.085764842398 -16.9086024819317 -19.5389804659525 0
210.960757496195 -32.7838554079289 -3.20074069563974 0
205.138586400585 17.5967698631555 -27.1198646000752 0
171.899197619557 7.34930670063843 -5.42848187620843 0
25.4714505798986 1.50426623589724 27.4633386462428 0
205.813105428578 45.7018464637655 -11.2694624569058 0
22.0852698282314 2.11055845699667 3.98717440991415 0
31.1184981667726 -4.03342665088792 28.4095815087503 0
232.132504487017 32.2965628627532 -32.8477222047273 0
202.342664720525 26.6615477528474 16.2665708031619 0
218.705218738449 18.430585482501 -23.7767217308289 0
34.7576054272861 -7.81601179701563 -1.66214974857201 0
209.969700212127 0.203508295838075 -19.3621928015382 0
82.1481548046008 -18.4033284071826 19.8195208304941 0
128.892532137148 16.0577573964006 12.4375862929775 0
155.048507574599 -12.9040221892571 -7.33728712321365 0
220.139296608392 13.6424420198642 23.76136354318 0
148.366665970231 -18.8042002168097 2.48339261595858 0
213.828086342037 20.1323989619261 -34.132090845982 0
165.743434138768 19.5892160716853 2.51940100707174 0
193.678163685051 -18.9964433093846 -19.9582379382914 0
159.315567551389 10.2076545069662 19.9122892024108 0
211.983703693524 18.7104035685235 -30.8068135826514 0
194.313234094715 37.5915145050831 -8.10740654717319 0
129.67861615365 -17.5255080645895 1.29910296062591 0
236.559760619156 34.3229635675739 0.0284846894497574 0
138.216324384749 11.3182088413685 20.1281241259312 0
153.201340204686 -0.797316399282985 -6.32148608710488 0
50.1685636438958 0.117760077661729 27.6254719537103 0
156.133594582657 -11.2486595708498 21.0832234808902 0
143.123321781636 -10.0233355238727 -7.17708141959957 0
229.896983030239 31.0905044873654 -34.9097247029036 0
169.369404405388 4.64165311461922 -5.81517722734469 0
191.11962722354 -2.69206235065116 19.0290649448515 0
211.916581061797 -30.5524933488471 -29.7929750675668 0
145.699786026267 14.4073775355787 4.54750426609023 0
231.572953368885 43.6047768828627 -21.7095160345855 0
62.7181693803561 9.61693480487469 18.2471347852775 0
201.168276783558 -15.3313551730303 21.0001156100406 0
235.528254652011 -29.3771758684775 -8.59868902268718 0
200.58402454469 35.4988689486628 -19.181500837492 0
3.22803535207973 -0.296062927606611 0.109445590514084 1
203.046893932985 16.4289803779808 21.3415102123509 0
208.899580952817 9.7009492902897 -18.4951259086326 0
72.5764066266322 -9.09842312545142 27.1198423601194 0
197.921268636331 19.3467173796145 18.7869510568152 0
232.064846152354 6.47499401598002 5.10278909081288 0
128.18620008591 -9.47682452585942 -5.68837786867774 0
72.3390877308929 -2.54501848141814 26.9271123427654 0
159.200726273044 -7.15957250935435 21.9849213975607 0
98.8762687404188 13.0218526580918 18.2476861932331 0
214.250427426646 16.4425104609839 21.3195384307058 0
226.774240360757 34.3561925230886 -36.8211983169771 0
188.338201355781 -15.932082328649 18.5481917509279 0
43.9439807296379 7.88601147585842 18.3588282986392 0
228.233975467394 -28.8140449416411 0.261999707466703 0
190.443535644016 -24.6717557710097 -5.84624504648766 0
240.239002986819 30.8165713158083 -0.0181382482660693 0
194.401093961184 -0.00148002670215474 -12.8005813252755 0
211.507018426006 -12.8776994166164 -37.6014427629916 0
13.2907467278475 -19.5900772318867 24.3944985723937 0
153.157441576077 -15.6782271454757 18.0650038364805 0
200.827000093513 9.47561952436402 20.3897198061197 0
185.502349946032 12.665094631958 19.0685403808588 0
36.7792250886345 -21.6750464076164 14.1842336081467 0
17.0688141351619 -22.5190646074564 19.0869344409663 0
163.699218887887 14.4194777688666 -1.34476858251306 0
205.401609295861 -25.1730825569853 16.9216942374852 0
218.287199453921 -7.67010150861933 -31.1005017955784 0
234.306297837501 18.0882551865919 13.2223565630698 0
54.1817487436931 -7.61242562195559 -2.35118623451215 0
225.306785959171 -27.8057358266221 8.74592593131993 0
217.874744573129 -4.88534584011746 -21.4045409376008 0
195.211409636387 14.5507956180434 19.5516623859498 0
207.987123176112 21.2007063449303 20.6140557061545 0
232.30611698564 -31.7344349292228 -13.4579412582621 0
184.281886285888 19.9831165591502 15.7267449230957 0
107.586752253672 -19.6414477087723 9.40490471638384 0
240.667736597209 22.1532152327122 -8.20578012612419 0
186.742854330035 16.570080190613 -9.57324582284026 0
202.906443000006 22.739465147676 18.6509775645073 0
86.4177380663629 2.42234677334433 -0.208732990655518 0
59.1574014090676 4.50863546534466 26.350987103753 0
33.6472830807738 -21.3494510562305 20.5681337466473 0
238.938770202532 21.3120564302377 3.13500553213617 0
202.103192090264 40.2058114523223 -27.6198809962816 0
60.9797579709304 -0.233125960440495 -3.85046460211054 0
195.57554993524 33.0254529840593 -14.5827154118325 0
107.618069896187 -19.4682743542531 13.5869223665614 0
77.5464522696725 -18.4736949111271 6.30751649674145 0
8.21896518653611 5.62485962072479 20.8750533864584 0
191.02751355988 -13.8533000076912 -17.8214377104976 0
186.129334490384 20.7576885373324 -8.06904362089816 0
209.251705065495 -30.5171843108072 0.671666182310686 0
220.939738573422 1.1735002807418 16.3448578254369 0
215.816703641259 -7.48441061774449 -30.0020131375917 0
235.498067755138 24.7629209833399 -25.8282101234788 0
230.190417380491 36.627571978876 -0.6549844487489 0
107.451507539193 -1.24526484654799 25.0573669947848 0
240.212848085974 21.0412622907677 -3.49394731122771 0
219.531943462857 -30.1139004824129 4.27853980096091 0
120.941235519721 6.12052127665845 0.9609235867977 0
238.656391311811 34.4690804863369 -22.7884194955382 0
184.710979795808 25.3278940734619 11.0045747471033 0
234.86863500334 -32.6540625606044 -25.6858828458213 0
186.45509230919 28.5290223065629 5.50865067710115 0
78.3613873420555 -6.56569757888409 -3.70709301143308 0
5.85497751559049 -5.10543444883555 -3.85348074851987 0
198.510546289348 -29.5293432537217 -20.4133156272176 0
210.686842132228 -32.4837658515898 -27.8144561322371 0
226.896650909877 43.5877447276929 -18.8321150788157 0
56.3541884878041 9.09884605602631 19.7640584781451 0
118.493472999917 4.9744720596713 0.142297372167313 0
208.530793549911 -27.0263861360633 14.3493625959324 0
234.581605728816 21.2205195697082 14.349674720308 0
145.656030191416 12.4488823632302 2.6353082782479 0
230.18251988922 -16.2508506185147 16.0699096670297 0
99.1642169521874 -18.8888126632766 17.0990788389896 0
199.431097352959 29.0911270961666 -18.7025482334099 0
206.633616710688 -27.0558582623087 12.975986584147 0
133.237378815057 -19.2771210015305 10.383694821237 0
58.2127256238553 1.58068479226373 0.611715030447944 0
184.421404178845 28.0856635640702 3.20445941168099 0
152.559158526938 -14.2452337991128 -5.48209631182307 0
188.929409276485 4.65919503119808 -9.86467854159857 0
207.778063883921 44.4705597175837 -3.96381763906666 0
1.70377442620086 -17.1203812472189 26.2706001089075 1
176.18866439062 -20.9374220833167 4.89307568399245 0
0.235894055146347 -22.6122320143043 11.3982397568981 1
231.60355099785 43.0546438635567 -19.6737197696735 0
190.50501798515 -22.0804179340801 11.2327797326656 0
184.318027588787 22.205870762618 14.1163298827534 0
105.764476929479 0.871969588998414 -3.20774757645683 0
200.543432158591 20.4151389887257 -21.2745578104344 0
19.3972037913472 2.77791515240244 5.65983090671362 0
151.330011563101 -11.6241528287265 -7.57148720900716 0
178.176133061668 18.4840228029623 -6.56527277173966 0
156.802381215012 6.89595607067021 20.9588935196096 0
202.767570398674 -19.191623358391 -35.4420717084125 0
224.96150871146 -30.8127621660103 -36.4978349100722 0
231.115603139177 -5.97418326988839 -15.179281428778 0
238.459582822195 32.3427528613113 3.42820100041783 0
77.2618699627868 -9.25336023320748 26.8805114883668 0
49.311999363231 -14.8886706365263 26.0488646004947 0
47.321734628094 0.947411265045718 27.5377549947797 0
213.445117994115 8.39061722138579 -16.7509118892984 0
6.39288746284131 -17.879381947504 25.7858177639623 0
209.185659803917 16.5641330615173 -21.0213200862388 0
215.255895744889 18.5542519757904 -31.1408456878409 0
41.6890246565857 6.44203302339289 12.1848120472349 0
139.46594213495 -4.14567580555264 23.7025036621829 0
172.961591945863 -14.4325336199991 18.8078802499461 0
233.519094602428 -7.13621611919184 -8.0050457386253 0
222.115523047547 44.1540183417032 -19.2209219696429 0
159.883956746335 -6.31048333857121 -9.04549830821083 0
210.750476176834 44.8285474395263 -16.2815769801177 0
195.511685182455 4.52318260475184 -12.2195142993771 0
99.7968977239095 -7.87936925784481 26.0769654181801 0
226.013444351612 18.9997819179762 -26.4193473511807 0
137.423023113065 -7.68367651144468 -6.96432662079849 0
179.739234709265 23.1263977143652 12.2930975522185 0
197.970245864099 19.8429534844745 -14.6891951565226 0
175.073273133636 -0.171695678199545 -8.6650861332446 0
180.358533232372 26.1352198204053 0.824116590994142 0
216.617894393133 9.80774168311596 -15.6242542570641 0
233.935295355789 14.7506355981616 12.156306784447 0
233.535356530729 -19.4998532735353 12.8425411224605 0
100.487550754762 -17.9358624070311 3.95100013431124 0
142.015306452226 16.6105123173713 8.79229938022291 0
58.3606849063916 6.13392784126459 9.03532482136446 0
177.114110120105 -0.676412035470461 20.8145870721672 0
128.094291957612 -19.1177321868899 6.46714649707341 0
198.281420589106 -15.1540809917663 -25.0084501605519 0
173.174578003089 8.21432091419316 20.4021603765234 0
16.1611193969796 -1.15195074840612 28.194429766926 0
198.751013387537 22.5225787392967 17.5863469948591 0
236.708492565902 -14.9939788912801 -14.1219671527708 0
219.045239747241 -23.5606785214003 22.9598520127736 0
225.513017132426 9.01385529462775 -10.5015720371266 0
184.690885640843 3.95142773478912 20.3162456971259 0
218.607522034327 -31.0514051489554 0.283144286319419 0
181.723734009894 -21.5859231037402 -2.92234738868027 0
176.916491464654 -20.0283751726522 -6.15207399654458 0
235.680369787896 -13.2397109850306 -20.1607490244305 0
234.32330342274 20.9149157857816 -23.3433056108456 0
230.629713629251 35.8825238585767 0.786217181579298 0
65.5806599062887 -10.5913904178566 27.1251824795013 0
223.232778055047 1.77310927060718 -9.83735237191327 0
222.664610021802 -8.48690607898058 -33.8056736093514 0
169.986987284761 19.2374623476344 -0.645282685463463 0
21.1974907427601 -8.46193820917787 28.3919707946876 0
230.61592461324 17.8221495738505 -21.0174725496743 0
188.804509423951 12.5873921078056 -9.63597720431402 0
204.192769540408 -9.81227567701163 -32.291454011768 0
204.469157236817 39.6207716425541 5.13849762834037 0
111.143014281473 -0.957220543988057 24.7496620024305 0
36.3493949945777 -9.23009736943641 28.1657902792191 0
10.1778564440701 6.05588837047958 18.3218103595411 0
114.787953273176 -2.85846861289355 24.9247997016383 0
188.979564457347 -21.6936258089877 -15.0114524087697 0
121.001249463189 -2.04608685110171 24.4076893473734 0
169.983994067477 -19.7707755561591 10.1931032867917 0
196.160621405172 -6.68334478453812 18.4477708680326 0
196.453063023267 39.9065802340601 -7.63123977300587 0
83.5375570848373 -18.0553914980893 5.29372017620351 0
209.364226951735 18.8631261580388 -31.4167847797497 0
199.810601893664 30.6992221377566 -19.5720584418311 0
123.778902919233 -8.03033673788319 -5.77835481166228 0
11.316497439825 -17.6040204797536 25.9043086736127 0
168.883254393336 -2.31683053810231 -8.7310837340355 0
176.681582693941 15.6171925095585 -5.75671754653736 0
156.547058219175 -16.3725988877381 17.1449288922761 0
164.426230155069 -16.7803162140363 -6.35641981939922 0
4.98391114703332 -12.8937020136531 2.01352252047075 1
227.612166608821 17.1386045840072 20.545681504555 0
179.284788601438 -7.29543210768165 -11.848089363101 0
227.283274159853 14.8547939603252 -14.911365895546 0
174.12653325859 0.674300674551821 21.1581692318259 0
215.586126514647 26.3884172050557 16.7230829708447 0
200.896854379556 44.0810793358938 -10.1242210991761 0
233.059142592114 14.2216472335995 -13.5967692849522 0
51.4220481556407 3.0256601338849 26.9164430759023 0
38.1440399099141 7.5299268757426 19.9243605884216 0
140.130709522298 3.92275694429049 -2.54601977130497 0
220.71935187283 44.6647715186658 -28.1878422710839 0
158.582246529201 -18.4321593944381 13.3750889148946 0
209.11198184738 25.561051968005 -36.5102776765009 0
193.720566192637 14.5226935756342 19.1395970827808 0
201.035529714898 -11.5457317256374 20.3363494099702 0
163.794602100002 11.7106251918093 -2.41013401924844 0
185.726394179209 18.5947318928204 -8.28888590501219 0
175.264494997978 -20.5044631471963 -1.35356607556534 0
210.377521129362 15.8425034561084 21.4581749047717 0
111.237483367297 6.85033730375451 2.88849587360195 0
212.429959205059 -28.1018881782403 -34.0950846349595 0
153.173754996842 -7.51574683639853 -8.28808845929864 0
218.990486646047 -23.4907592384005 -40.2424458412313 0
212.550111210246 -31.7638204852018 -0.750813991215711 0
192.697203298459 23.3662333341037 -11.013642539198 0
212.871190895597 -36.7753233561382 -13.8631083970433 0
73.0271111307276 0.174298304928065 26.6038409731908 0
83.7793675360387 -2.6791019148164 26.4306533357633 0
198.633733480958 34.0795794452449 7.85351272861351 0
185.722764552368 -16.1931662534485 -15.8415641231632 0
134.159723386618 11.6909959101397 4.4382101767847 0
61.6455428669957 -13.9768187521676 25.9017131001372 0
230.534421693703 -34.3606700733408 -24.3292455139841 0
19.2163157050805 6.26497773921597 20.2806345969768 0
196.355931474765 34.1270764015273 5.81545822887033 0
98.2762116093211 11.784976799072 12.8416427875687 0
227.744730215714 -11.8172460292294 -33.0562880527399 0
205.438160868712 33.6102809340944 10.6663261167038 0
52.1883928311998 -21.0032293817401 17.828217967439 0
192.250430579925 0.82580581006133 -11.744017069553 0
112.40273956718 10.2448996085941 7.18351487265041 0
214.906210025097 43.6801807560612 -7.72042822558597 0
217.384424728761 -33.2729102952571 -23.2413689195063 0
36.9657258448406 -9.27639377308209 -0.472337358131521 0
92.2497161258851 -15.7027622940823 22.6067402209729 0
234.342794608661 -33.7481916362398 -23.2841459846497 0
166.963609448117 -17.4462937280526 -6.2737595483722 0
226.269132823645 43.9873424926789 -20.8094110124927 0
187.598315534648 -13.2944042376325 -16.4578975480004 0
206.331438946705 8.91113995332616 -18.0434236919784 0
13.7374147128011 -2.65464430009953 28.4641472538975 0
225.194381829239 -32.6827510707513 -32.2467208687193 0
151.41133971751 7.71956227719903 20.7713522321665 0
203.668111273613 32.9941643743419 -33.3367497044426 0
82.5844937286292 -9.63167335642404 26.5769267707806 0
195.333345060225 -23.7687138521039 10.6171558389679 0
211.766397935474 11.8455797955243 -18.4727906227371 0
193.488007197076 3.57318881492914 -11.2593036608585 0
223.371187712965 -35.1621276956781 -16.3899919870917 0
55.9220636815377 -20.1790844467781 10.7229959005591 0
108.280288768359 -16.8579160066856 1.53765571429132 0
200.175916761926 -22.8514274519607 16.747604635073 0
206.990380096487 -0.0160648898937513 18.3993959582442 0
142.24030346241 -1.85589766968597 -5.76278957617787 0
222.73394930873 21.5556957342619 -35.0197641714556 0
96.1295787200792 0.98670603666394 -3.24659451826199 0
194.728010605858 -26.4728375927506 -3.32549962752205 0
75.8901337154795 -0.427634448115241 26.5080497837328 0
227.097959541461 27.2455020937825 13.9725831322587 0
207.040542161492 -33.0796747959908 -22.4363492148355 0
52.1535131320536 -20.3357369656267 11.2887830720391 0
226.219946384138 -33.0089064668931 -22.3067080085532 0
214.63410751408 -21.5521492914785 23.7375335797437 0
153.935869352783 18.1128941038854 6.5843205978383 0
74.6338755088542 -20.232196126096 12.440524902696 0
207.024816988732 20.5073933101563 -31.8294863285819 0
225.791723278794 8.19717500903123 16.9866682521699 0
27.5745960880504 -22.3349352861082 16.8587607189542 0
181.489554496904 14.4926485362592 -7.8638580649731 0
17.6525833645039 -12.6622049830886 2.08673975411294 0
43.8329775941323 -7.20026226314866 -2.48008484359212 0
198.697339429725 38.3184746585153 0.59154723380713 0
235.137794387581 39.972536910287 -10.9243076600901 0
227.307357059791 44.192087475462 -23.2120574105555 0
70.4520375640187 7.2896510092226 9.49138370380794 0
136.71368940847 5.90393842196138 -0.790170202911836 0
226.982313750098 -28.7052317276583 1.58694826955106 0
212.957109309812 -15.2597122490688 -39.154768013198 0
22.8801223513432 -22.5518651412051 16.5490466125361 0
65.7613949467706 -5.01553068098575 27.4717683956692 0
235.126826060364 27.4849091236 10.0954523138946 0
93.174987150065 9.15850623863542 23.3572238944067 0
148.391192263994 -1.61426799037807 22.9696080773968 0
191.433621989651 -0.49431950601378 -11.9912894173379 0
209.33488078095 27.8922665420047 16.4344022650669 0
199.627577498456 32.4898228645545 -18.4144901003784 0
194.354288489959 36.9317704687051 -13.3925639301347 0
214.676538731912 -14.4767508787946 23.0125989441216 0
226.372280284724 2.79520789956395 -8.9628699605399 0
220.787880391213 -5.52862914924615 -21.3459416760388 0
239.465812288281 31.4454699811189 -21.0973213474352 0
160.00732184348 14.4780610453281 -0.326814086343721 0
95.1826256692309 1.68356785196866 25.2428194394795 0
208.002634687345 0.656732694339486 -19.4570993617587 0
200.06084586785 36.2553698497378 -25.3478485676325 0
88.5048766029012 8.62717129174955 8.68568681035048 0
230.493998769705 18.9057135537821 -25.4981611545863 0
100.974964577099 6.49244938000116 4.25806493661843 0
183.548410867897 0.20807720666435 -9.96505703269824 0
4.1984986956621 -21.2828844220221 9.66829776968949 1
226.31420166663 -8.90429911357195 -31.8772849866456 0
236.243615027936 -12.3506199198727 -2.88126948451998 0
41.8513830581328 3.2211774989884 5.93343456428527 0
84.2767123471517 1.57730974126869 -1.1364142057906 0
32.5451669198045 -13.5674982054059 27.2031996262734 0
210.949786344228 -27.204202297233 14.3598316133621 0
236.770148321445 -24.8624912807865 -24.9782180269133 0
223.689522039945 -31.7996008807024 -35.1761053653236 0
209.957801942658 -6.85997713805988 20.0899690286362 0
190.147404145059 -15.1279130034647 19.0794027966457 0
116.512526344044 -18.7900005850863 5.12451071816421 0
228.317476993965 18.6511719687549 -24.3868966255052 0
121.813012818037 -18.6521811864456 4.66391737256444 0
186.992328432754 29.3928750933166 -3.54038761942653 0
235.587305130301 -25.837174260625 3.61654134095819 0
212.633693724305 -20.8347615806072 23.2955398959196 0
232.705125370027 -6.60566039854375 3.96186374625048 0
225.160636034427 18.3306507281414 -29.5006151826542 0
5.36072173149884 5.49517217688521 20.8933844385838 0
53.9274080145055 -12.8697683274556 26.8196962402195 0
232.942730357704 -6.02320375534507 0.0927223817850293 0
191.540713432855 -26.40448733317 -9.5001425897525 0
155.130135372326 -15.8482246104369 -4.44711679475431 0
186.746053250144 -21.9203813571746 -11.495899573247 0
202.997443937345 14.4820877525515 21.1934619693656 0
198.128625133698 42.4529067243397 -11.7764661408828 0
32.8640461893091 6.12927087491608 12.3183346395364 0
87.4197313131735 10.4148779468217 12.9535022156268 0
215.262125786812 -14.1993945160731 -39.17339394967 0
218.505832250575 -26.1180020435503 15.7632129766458 0
146.958026859584 10.5689325636667 0.534170613712085 0
158.253027521227 6.56879819211903 -3.43047044033761 0
235.778536736944 26.4551203121334 -26.9677745815485 0
181.182922701274 -2.66537619643391 20.4336378082109 0
126.422571190288 7.80504987300961 1.90217121606878 0
194.915801386032 2.14106800724375 19.219062132349 0
184.038809387495 7.07208245443651 19.644579391345 0
219.940133156898 -7.20359721592467 -29.5091603633079 0
135.534176138655 -13.6301237546804 21.139673181509 0
196.280910218392 -26.096129988276 3.79907789673081 0
65.2156805730535 9.39542883112319 22.2403223801158 0
168.742587496799 20.9592304032481 12.7672643425952 0
214.700634652529 -5.04849125730225 -25.0464396451527 0
230.514989011431 -21.9393186006418 16.1573389459773 0
24.788075645557 -13.9034371865677 3.11486554780701 0
31.5580392682079 -6.86687830726811 -2.83589448259187 0
98.1047146183464 -19.0990867375162 7.05646692842321 0
238.849572425883 -24.7311350245696 -16.3263169171683 0
191.191953638045 32.1339549285595 -2.3512273230296 0
232.867147106969 -18.2020847612825 -31.0217643761902 0
238.016835565701 -26.7578031197586 -10.1147201940215 0
215.806623673507 21.0526390735064 -35.2548073314235 0
204.641190893566 19.2818126166858 20.6407684527148 0
39.0939625248233 -13.0822110623444 27.2040022069486 0
234.976730756012 33.8196815564616 1.60823248952809 0
200.028406022498 33.0092623978553 -22.7964892094082 0
110.167247486734 -19.5807860348851 11.5988322799006 0
91.3621069898369 -11.7470340866467 25.4269285096139 0
212.878106622745 39.5395217869806 -37.4410475767123 0
27.0118346058463 6.33097194994443 13.8134281269 0
174.194349896845 20.6308486133585 13.8402134043435 0
2.99467088166048 -8.06787521717868 -2.05301029112573 1
134.528594246511 -9.74500039132509 23.3258136792618 0
183.69632335386 20.0263105147516 -7.53873748161443 0
188.043693663575 10.5849944048596 -10.1906467350458 0
181.489472152971 -21.8498499452122 1.78941619658789 0
209.065824098969 -33.4104959906962 -5.3822339014969 0
229.861088654195 13.4812790364647 -13.1763635125609 0
22.2171443524948 -19.2750736490601 8.09082625621876 0
187.707127913925 -21.3964712887252 11.1518353995347 0
230.861816877413 29.8243705916264 9.70988787607917 0
163.711616528489 -1.60638613684245 -7.80402841226074 0
209.599117468332 -25.2557907757889 -38.3344390396991 0
199.422202514952 6.52147724996305 20.058669324285 0
51.0847758424589 8.60385156965123 20.5748869472929 0
24.046822360562 3.62266241956969 26.2099283134662 0
179.531276374796 -19.5509426893754 12.6031996888211 0
96.5661593128367 -5.02592074705337 26.2005985759681 0
211.117113013858 -15.4629678569788 22.4117769848454 0
147.291720654688 -15.2311442855201 18.7476018164244 0
100.883310581991 -4.87771447481315 26.0149625051253 0
11.2479426766555 -22.019166251562 11.6414562070513 0
25.5255320574746 6.71639956960974 16.2591187943724 0
214.956161229544 19.4298710042845 -25.2145260803793 0
191.331517336289 -16.6882729821253 -18.5984803727439 0
221.945794624017 -13.8445360454026 20.9169978723563 0
216.94305793341 22.5280216619159 18.9296332655346 0
48.0049129635731 3.29047504513805 5.16140696102036 0
224.806673755916 44.5632397024486 -25.2361221331437 0
155.732271494566 -17.6536419161026 15.0304458772098 0
203.253779703398 -21.8192407230515 -35.6602200059866 0
224.433665986859 -14.678315428855 -37.7526204679539 0
66.1150126690762 -18.8940346142769 7.68071540943473 0
222.251408162679 9.20477671321694 -11.663261433747 0
236.673615981859 -22.6842636841928 4.63673755426707 0
220.758657232367 -6.08493691050346 -23.08458914153 0
188.257263116517 16.7752384036751 -9.63640947556492 0
124.113216414575 -17.9239131537849 16.29995851223 0
9.89494064116139 2.97955147943746 25.8909050035995 0
105.097976822363 -19.6589002980859 9.46305416475959 0
75.581990954554 -14.6524257672583 1.63774017533914 0
184.212747573625 7.14488337811176 -8.25052632038023 0
186.399663963891 -23.130813568884 -2.1702639805911 0
157.628660331114 19.1460444658953 6.74028331471362 0
230.485393977433 -26.1107877835843 12.8365845301427 0
223.460288792622 -33.0769297108842 -8.97660070790902 0
77.0963176200094 4.30646566900505 3.95726678590721 0
217.909416674463 42.7555250123036 -35.7551846146717 0
214.481762896953 40.1195080017976 3.74424852639861 0
78.7645219075755 -17.0491401088622 4.00083198568701 0
59.9546969338191 0.189677640292043 27.2821938866851 0
167.8350699215 21.9659182408037 5.12767735087776 0
82.050191726629 -15.7417760035181 23.2783800737962 0
27.7470396077707 0.67509765714531 -0.943098818685434 0
206.597873054395 -8.05430107031406 -31.6682266012237 0
209.325706875753 8.63869838182928 21.2008589950966 0
11.0390853270791 5.70434300755024 21.1297762184547 0
240.786128181519 32.6683380814703 -3.76902593756682 0
154.841717365017 18.9331163362658 13.2223766158284 0
212.525513015485 6.55332260604549 -17.2993462536655 0
51.8747924232657 -2.52750886979248 -3.8502774228831 0
114.929141267363 6.48532378947874 23.1909349536185 0
220.299749983478 44.618424699261 -24.4244514509513 0
191.552830895226 -24.8320562285557 0.373730593242482 0
197.475794435105 9.76272055818727 19.8859354562174 0
222.221923806837 -11.5645894079652 19.9234764577444 0
237.503596426073 -30.0430706231271 -20.2455262882857 0
73.0876399617865 1.73424642773891 0.202069918112489 0
131.85841728363 12.1790560574496 19.9434682421565 0
192.183257157911 -20.7124972348807 14.9479039772371 0
188.91478084727 -22.4670099401164 9.12775806691331 0
212.181154355368 42.7671760900382 -27.0467083096539 0
213.699060756616 20.4218290636402 20.73176207873 0
234.143518732092 25.8388534294175 12.1007096803882 0
234.589183426896 38.4008036916014 -6.37689714317768 0
49.5058376668908 1.01127338396164 -2.20084659988837 0
71.1317179362544 3.39200394244737 3.35722853135278 0
69.7865422238693 -3.47633165953912 27.1645036433891 0
203.149566014689 39.9264593596066 3.53682325406865 0
219.690615596415 -12.4987894516838 21.3132740430371 0
182.656341302043 26.1190349754462 8.55404248359906 0
215.68118699163 36.2516597963303 8.15155863624686 0
208.630459949273 -7.05391398285739 -28.693077192609 0
57.0271663871372 5.83129157800863 25.7038716770263 0
208.098416769314 -3.19668428957725 -22.452839400143 0
234.245603332919 32.7106384265845 -30.5679074710393 0
150.446112073066 -1.56431780546041 22.8485570738084 0
184.653019842957 -10.3635399479869 -14.1235380712415 0
233.389828743116 -26.3756780895022 7.73478665349307 0
223.634160233811 -33.452030264008 -10.7156609922893 0
198.979248692604 19.683680568788 -15.8975684232567 0
208.30115696679 31.0549110792258 -36.7325429138819 0
194.177232197734 7.94262359947143 19.8682396821838 0
209.425044426517 -9.94081459508106 21.075564456669 0
181.570756152808 26.9114618219674 3.48002606869937 0
175.235157792379 -1.11832828377976 21.0186220052443 0
98.2183506855293 1.12367063566976 -3.1863866081487 0
197.964193619342 4.35485766305409 19.4091177164343 0
196.596067424057 11.0874480362653 -11.5794366318378 0
102.792836464093 8.80645347735994 23.1828343834989 0
71.0025782190381 -14.9573638255312 2.27606218900375 0
222.452158138293 -26.8737509922639 13.9094579676541 0
192.044355963482 -10.3960086687085 19.531882577027 0
5.1933827323952 3.64875849441372 8.16299741444701 0
214.252823345965 12.3951784073045 22.8634629210185 0
119.767505890661 -15.7958943015288 -0.648554123982672 0
224.508904547284 39.8992650076849 -2.24129691943476 0
237.320126959942 -19.6135782028805 -22.1228327882677 0
230.345811197021 -1.36665651972731 -4.45321306408185 0
210.851459246254 18.3453769327196 -31.4087567703003 0
226.418329679128 -33.4106727695584 -14.5787975114425 0
176.414292247919 -3.63667294543154 -10.2568026648907 0
211.844016571751 26.2358470048677 -37.9179495524655 0
194.231926460945 -25.4437217961458 -16.9030470986416 0
202.576517091468 -25.0255005692269 -34.0809514699167 0
202.554730355016 -33.2095403851532 -8.76915205356634 0
131.534769947597 -16.0480933046858 -1.06952189352178 0
199.458454175487 -27.9358361911594 -25.6292509281557 0
226.095930678821 35.8898018869465 2.97232193329563 0
28.0428565473572 6.79741949006303 20.5199665216139 0
196.670318285524 6.27751670736605 -12.6723607899374 0
8.35347434003615 4.69213524270604 10.8300423878754 0
185.847425218243 22.9063471741682 -6.90541696747784 0
48.8849906493298 -21.0352861877551 18.4326469088995 0
25.3757718921603 -13.5678533663573 27.3886111270309 0
74.8973081925512 -20.0487519264535 16.5674721557607 0
228.776980589985 -2.32994310520832 -10.6140320799234 0
94.7135640663913 1.98972381296382 -2.10581197774665 0
200.248454739996 0.110145120544818 18.0633383463724 0
166.498698343548 -1.14952146437148 -7.93698627151661 0
197.60787216217 29.4191005858581 11.9551676095361 0
168.020703415397 17.9235399063955 -0.798571046984904 0
231.861035442693 27.3456432635859 -32.3068215556336 0
133.119613657861 14.7568953494738 18.0376480179416 0
189.252964849463 -0.664695860033372 -11.5252183322617 0
25.8559304454556 -22.3063479267104 18.6914913843541 0
193.656135792166 -27.2836492141546 -12.8866447345116 0
216.725919805004 -21.5025162788828 -40.4438922038034 0
224.25113487394 -23.4312501673115 -39.1835062583682 0
90.4989854265297 -19.6826596630749 9.75746397740119 0
87.106642093036 -17.134102832275 21.4330005661321 0
113.055366579905 12.8202980899872 10.8515948494848 0
203.492217272616 9.22747391017167 20.5759864000722 0
200.405742422614 38.023472503757 3.48830428965269 0
143.165984575385 1.63045937749436 -4.07706356634848 0
215.711722437928 15.2580246754854 -19.1186557779631 0
72.3878511750125 -19.7392199977919 18.089199047911 0
86.1850481502373 -14.7768043073667 0.938459086697131 0
215.560609684441 -1.15421470193447 -17.7854127014221 0
210.535172036294 -35.3626133452932 -9.30815559798747 0
59.8027608259471 -19.4958620313706 9.05376087823615 0
72.9054317501735 10.4337547264809 17.4310965719898 0
222.583009773415 12.9030551406482 -14.5208839637884 0
200.647680189093 -25.5837090487836 -30.9177429861202 0
174.913681763942 -17.5264834788921 -9.30305729908668 0
192.15568016863 -25.5428219450692 -5.91498800510004 0
96.691447716317 -8.22895596709518 -3.51895968012878 0
89.3109595159452 -7.34988379843247 26.5728947752942 0
96.7070255573011 6.39904617404092 4.49680790744568 0
212.638678793383 43.3303094169406 -29.908287254398 0
212.934479435223 44.1811753051947 -31.8327221291145 0
236.167629763154 -25.2025058025572 -3.45716930103173 0
211.728401193015 -23.3342898447717 20.5523752105362 0
209.801875164675 -25.8836723111397 16.8121484944977 0
75.6398587379815 -6.84824700273728 27.154596611069 0
51.8493387011184 3.18363304061103 4.61676615744233 0
200.146655332329 35.2030241873312 -17.5415555966286 0
120.534513666517 -1.17789638344467 -3.70436633565028 0
44.0373808029491 7.3280811216087 15.1638795139814 0
38.540829760836 -15.6513248643096 26.0673565536316 0
85.3471143206988 -16.8076401348419 3.21013298451079 0
218.593112826959 19.0173802661177 21.2473670258498 0
55.1364830635305 -3.1971205517453 -3.70423804722051 0
174.088015177014 -19.0307433131918 13.1183285435448 0
232.802822520336 -29.6135235030305 -8.54104013511082 0
196.82783014543 8.32132111551357 20.0348184889097 0
133.159840056469 -14.8863916631348 20.2055582096752 0
202.666463320264 -35.3163571226676 -11.875492810814 0
69.6382122220582 -17.911271807176 21.9206452325344 0
212.334066964948 -7.08621252344717 -29.0198086492526 0
219.488425433773 19.2521915977956 -29.056310304765 0
238.284729349713 24.8300325702184 4.60149146211332 0
203.609720296407 28.7580353170955 -32.5759184258288 0
229.852587104911 42.4013623327412 -31.3978257905208 0
205.637112848391 40.9615254690385 3.41479255383872 0
116.899366735379 -8.41006734171355 -5.0738830534656 0
171.298892471328 -11.6912520191512 -10.8648677475342 0
41.4275359705844 -15.8759379991903 25.8156842891754 0
213.950513928078 5.64042844622505 -16.2358097174768 0
141.620533047956 -19.4226867825998 7.89682402962477 0
13.3362694210489 -8.63048450864199 -1.27384532865536 0
191.697004559614 18.0829367485201 17.8486515564139 0
222.680581704334 44.7788265998539 -28.6514325858534 0
168.422274522474 -14.1487346129901 -9.63170697742757 0
118.294562319949 6.49541912893737 22.9549421311654 0
229.658408427108 43.1649169074344 -18.0830570232626 0
190.067015645001 -8.86837242728064 -15.3187592541563 0
189.982102567951 23.9264617785152 13.9462149531237 0
127.032454306706 6.93404138103031 22.1940492958179 0
211.68268805825 12.544616309735 21.7456365499749 0
134.184187627816 -16.9272146997063 17.4381024847529 0
178.201856818909 24.390931509368 -0.665024274874785 0
183.523913351636 27.3514191925096 5.65363583303757 0
82.2744271911649 2.09014394491362 25.875250002807 0
197.73564560351 6.81184285172724 20.258697276404 0
224.335330165226 -31.1792694103517 -4.17149857782351 0
232.021507942794 -21.9280300998618 14.3390550926332 0
192.615819100936 -4.59140223148442 18.8670078447485 0
197.267378250241 -27.8630721168363 -19.2736605155513 0
231.806500540187 41.3142969918996 -30.7681954607301 0
213.784108696034 38.0599777341534 6.84786493371459 0
64.2876920784974 -16.9777355169649 5.01949486359768 0
209.443247546582 -35.3458604941894 -19.607422044997 0
221.802404962677 26.0171814288352 16.2542057685122 0
232.543415208934 37.2474762192378 -4.65921941562122 0
80.7829146800066 7.62058670760603 8.35533675654267 0
187.863745313157 13.0361593106404 19.11409550009 0
178.319200208557 16.7726172410524 -6.74631706036271 0
79.9420558313843 -9.24347206105253 -2.36892126630269 0
217.785215615126 -1.15656283090516 17.7625287291648 0
223.207042207009 -32.6411850792564 -32.9155448781405 0
13.9734168146586 5.71209224727073 21.8024441191059 0
140.329327062316 1.04580473773359 -4.12195897690049 0
53.52058533144 0.292924643449188 27.4776765853067 0
67.0175166552966 -0.314746888324757 -3.51100236145708 0
22.0750430797649 3.65574028285499 7.58547002104377 0
184.367559012997 0.121347227592601 20.2675302112021 0
111.913020249659 2.05217752351646 -1.97793451514529 0
156.378169844487 13.9407378643957 18.4405486600535 0
228.151022532392 7.41845986590623 -9.27720826346885 0
98.6771267581627 3.81308128223395 0.807975151640527 0
202.939665569343 43.5563101685033 -19.7093234266504 0
96.7010070276012 -19.7856380546227 10.5690697829497 0
56.0478811854442 6.40499504107352 10.0664964936891 0
213.4492268366 -22.7926138830615 21.9903510333325 0
215.94144073398 -30.2184187538898 -36.4264510554937 0
200.948244900769 -31.7063452504052 -8.24896697077227 0
182.227460149226 21.2610041225558 14.4852183806513 0
97.0505652674302 7.06989301315622 24.1057127193668 0
187.560403819098 0.474321193690569 19.8914327922418 0
227.686407474295 31.7798390451631 8.97951545747586 0
217.508005581422 -11.0055418364585 -37.3542668304419 0
183.084127191155 22.2971723838326 -5.72221293100753 0
227.294494205233 11.6963862010773 -11.970137968223 0
229.628936234259 2.84248780839283 -5.631004856062 0
237.94724877389 16.6944704660203 2.72454652644464 0
199.299172851079 24.9350318979282 -17.9652064893411 0
118.428844284153 -19.1225396341091 13.1947758194261 0
0.895585379369695 5.58738349859666 17.3961572087826 1
214.089799735014 9.54817306653543 23.4863058790913 0
240.058030323724 22.2039321623869 -0.5540676496199 0
195.390620676766 13.0117926760102 19.9776278259473 0
236.079614649936 -31.3513996191812 -14.0919752359875 0
5.75992439495582 2.11470048810815 4.54934612413084 0
191.997604789671 7.10362179290576 -10.7881541724234 0
229.392286439198 10.1944215306561 -10.6193594111675 0
203.378582658907 40.7854757028954 -25.8542744282207 0
100.759713195422 -1.07552538729102 25.3663682590442 0
213.723864861675 43.9867188615831 -12.7456176800883 0
84.9895568321281 9.6718985300169 23.071292807741 0
233.919002299013 12.3978340779868 9.92665194276911 0
115.894072380109 -18.7941778828639 14.8606722067894 0
230.675304617215 -4.39662509871391 -11.315414609868 0
100.897484434387 2.8472095096522 24.68120231258 0
187.643463739274 -20.5567106350387 -15.2773979742072 0
98.7974853709769 -16.3021663740719 1.52487126717119 0
55.2342369703478 7.47055350545488 13.0904323406574 0
75.8177744536113 6.50633909291898 25.1396392990076 0
113.086900368523 -19.395511654411 12.5083811572078 0
157.443916602123 -1.27158414074067 -6.97443119901626 0
206.628559279755 43.0298839072842 -22.4467879332557 0
200.526160404463 38.2238585366179 -29.0423280555963 0
223.664950275127 -28.5677150504497 7.50396092046084 0
173.18394896583 -10.1256191681361 -11.2685860677713 0
228.702099987088 35.1795834755619 3.20498963056106 0
184.142266517124 -16.5161192494153 -14.8621770188795 0
174.004016476344 -19.5967437778537 -5.81939885212766 0
203.992713933404 -6.74343284596979 18.9220024164872 0
150.011835687726 9.69903959051453 20.3009734696291 0
20.8367415313708 -22.2202089800201 13.5627599198179 0
113.520659759281 -12.8990730365733 23.2268330445303 0
209.702075634279 32.2574961020479 12.626854063665 0
103.328063861495 4.87160154780242 24.191727208168 0
189.336159353533 15.4388604371259 -9.99990575861784 0
204.992987678547 42.1086204133563 1.64950260422862 0
39.5127424169928 -21.3379440702163 13.1759692556805 0
189.816493066963 -15.4198355581182 -17.8029352464533 0
204.27660324478 -31.4624606399359 -3.13735918927524 0
167.102575058634 -15.8637818105816 -8.13081823361483 0
80.2442821121831 -20.1599365773801 13.2751392350888 0
183.177522577189 4.6739251916602 -7.72984385928082 0
41.7139436266146 -19.7077472919696 9.49589894756766 0
43.1588350160902 -9.90457496963478 -0.218750326844599 0
219.111730603705 25.4191196598264 -38.3508078633175 0
178.748812321204 10.9023941251884 19.4694837271336 0
226.676162293278 -21.8289940837716 19.5674048964541 0
176.026719121072 5.10623929590653 20.8635392790285 0
101.598987916241 0.209464313642016 -3.57269025962412 0
215.820796194382 -27.7895278892209 12.9286026743801 0
194.216077107981 10.5085926976971 20.0085683267236 0
197.988553013514 -4.99026777852196 -16.2683403630419 0
229.704672136148 3.33382850368607 7.81349140463804 0
170.715187111788 -0.618204395921679 -8.31477937186735 0
138.680482048833 16.0861187284054 8.8823075681873 0
34.8313593753206 -15.3316796105648 4.21931025598271 0
227.394283815598 -32.9519205765615 -31.670578347546 0
127.245487547679 11.9970561706927 20.2525795221005 0
230.545849126237 37.5869637530952 -33.515541371903 0
188.534166622861 29.8760919075115 4.11011599949174 0
139.758299795588 -18.5965344549785 3.28148957565129 0
201.896139144606 39.5145604213281 -25.5049862894364 0
115.002523610604 6.36670969051517 1.73554670910392 0
209.803114242051 -27.5916711744697 -36.9682741239585 0
215.284584214987 -28.7675749913998 10.4661711100059 0
205.248641591984 -34.1827732126614 -18.7357618314248 0
233.831608721092 -33.7837054367352 -21.1148548726913 0
84.8651201645615 4.1348203957063 2.51676819045763 0
222.448483360785 19.3549628049616 -32.9518313691075 0
222.334422950048 -30.1731187913098 1.87454590547026 0
211.885905589042 27.1200129610122 16.9015683406555 0
179.992170404311 -12.1361179470297 19.7121265287239 0
201.534120670527 18.967374726587 -20.685127110025 0
217.656518497779 -28.1752843140886 11.0225904291157 0
209.221350882872 -8.28798628573176 -32.6856571613128 0
224.313069411406 9.44436000669048 19.0584724074029 0
222.399200827144 -29.4888947290043 4.81578979919877 0
200.695814907901 -20.1155327073988 -33.3585846467575 0
231.909872705489 8.88038131191811 9.49145391996097 0
204.2517638187 24.7868078799236 17.9253715673688 0
207.550339784441 -35.3352695807167 -9.47065280247655 0
205.044838751071 -13.6691368800052 21.5645141472135 0
150.016785458804 -7.78167305366518 -7.95896432145386 0
107.444996801463 -14.9561421471551 -0.519481755481444 0
196.734294575823 -18.3940282170022 -23.1613767687636 0
240.984961597086 23.7619676814047 -5.4122904065882 0
230.25896509977 6.19220814852428 9.26250881129921 0
229.05757521226 -29.0322667591109 -2.52382865008335 0
197.321327066434 12.6349752219193 -13.6629864565174 0
145.252252890833 -8.79475398669498 22.6110927270737 0
233.615340296388 29.560958078987 9.19362521069225 0
228.493749093287 14.6261968810979 19.2048402097384 0
178.869673595705 -9.49894741750885 -12.3670411942794 0
209.860852607994 -28.6781687327956 8.87335969639667 0
225.60232423016 42.0589927073985 -10.4647054730462 0
181.978767236843 -5.81295180276186 -11.9209425589601 0
71.4122270197587 6.33983037750067 25.2914575203892 0
185.023029560333 24.4500923641811 -5.46804557022896 0
230.045766132494 23.3416200100594 -31.2740737161516 0
