-46.5782742062709 -4.5750007126477 -16.0327278323028 0
-167.405075899619 -5.57224431479379 -8.01416968890111 0
-134.49645334077 21.3643443037431 -3.77107471732151 0
-179.956193349655 -42.0009491411213 11.200613236917 0
-54.5431230347575 0.148146645891664 6.33346721697433 0
-172.496086750703 -34.5613944808509 4.26067195094002 0
-144.319475997187 -1.81798683498467 27.446130873307 0
-142.910618764946 1.62053787691913 25.5807055058707 0
-68.9009531652931 2.23800013009893 7.7651708984049 0
-164.837789905956 24.5287540680235 19.4301473902871 0
-171.959763953681 -35.597101875862 -9.57760841744367 0
-43.4192726055529 7.63088674025678 4.16792157966558 0
-181.609847061815 -17.102906306665 12.4387930114746 0
-160.961840165345 6.74271647576789 21.6704753849048 0
-160.248391289816 -8.81845250733147 -7.58303734879837 0
-124.198251078843 1.11046688828855 14.178224818676 0
-124.762448074899 4.04768072496424 -8.30460054370476 0
-187.242154671132 -43.1268156178921 13.0161403868281 0
-147.777167391092 -4.81223688344015 27.5043186775589 0
-41.6642435136599 -5.07189035220965 -16.0076585947688 0
-130.21471462771 16.2929387755189 14.9396669086327 0
-189.093001695581 -48.5076503940064 -1.33322141449721 0
-130.961028316887 18.2586424680005 -6.77895099657687 0
-1.19509332714616 13.0053631950561 -6.95843253416554 1
-99.0638443342497 12.6891939528723 12.4938592306996 0
-39.7512333524058 -0.528115422460507 6.04938592644776 0
-153.223008357202 -12.595354269854 -4.41901405145382 0
-0.552190669745058 -1.99505369930458 -19.0263057032127 1
-183.271838262778 -4.68840353119235 -10.7317082692202 0
-143.350914828359 -3.93807922075427 27.2456399846454 0
-110.537661968899 21.4682703002849 5.18365403071891 0
-171.505085333147 -17.9698842216005 8.81666766480693 0
-178.71537059987 -36.7746978290376 14.1932778079363 0
-96.9903057930883 17.7677441919673 -6.52670060554689 0
-75.4054385062402 15.1562612012011 -11.8965040043229 0
-155.63815831142 24.3553556090326 16.0144906086843 0
-201.01833774094 -31.7203851557835 14.4766094350536 0
-91.6301737869048 1.06146157674518 -12.774759771034 0
-41.8443706740959 -10.2195512901545 -12.16111736172 0
-207.701377066413 -36.9592875648882 -1.59050617892621 0
-180.99014646661 -24.4104129846179 14.8623024364952 0
-48.9897934559244 14.5261397368972 -14.071761602003 0
-87.4265952222362 8.39594863408083 11.0618868975931 0
-28.5509829371524 1.60737833164749 6.39462110819907 0
-166.174491667454 34.2049357045213 7.79279267156442 0
-75.351153213348 17.6732194645399 -1.84262492277579 0
-3.81265725982816 1.45522169562535 5.80497184424949 1
-64.5721532949549 16.8487486022588 -3.52918612538826 0
-180.360097153153 10.971306191786 5.22243053291372 0
-190.889328777272 -44.5216715157004 2.93088765191411 0
-147.148645960253 -8.24332859695535 24.2918720061373 0
-155.954614836702 -15.2494474253171 -0.0675741311962957 0
-172.774005552485 9.49886336534362 -17.6042593857751 0
-178.497555713376 8.52387781179245 4.42134732122101 0
-69.5616165541035 7.99379906993375 -15.933746096961 0
-35.8756542315837 0.487224904836647 -18.5163374156439 0
-175.716131333136 28.0240974592402 17.1472078064476 0
-97.5798773468881 3.7273585295356 10.5082821123271 0
-36.0404336213841 7.28313578082735 -18.440162947113 0
-67.9035564787307 13.0699803826711 5.4653462453331 0
-102.980425643113 -1.87844493190176 7.33435935561868 0
-95.8807853133543 -0.149406745402688 7.80640636825775 0
-189.230307855354 24.2571456400311 -6.3650258157605 0
-107.401317507561 -0.753826782306955 -9.87121382018407 0
-118.634080410935 -5.85448531056799 5.77326170279686 0
-93.3961351105968 3.02341861259883 9.85288805975863 0
-101.232669443554 -8.14784530115264 -0.358882921613812 0
-129.640117434759 20.4071590648533 -4.16923153254398 0
-159.416952110237 -16.2489274351454 -2.79505792719954 0
-137.498432821012 18.9135750891631 14.7668661330434 0
-64.9551046188266 -5.1723616377251 -13.3446907047772 0
-183.317880041648 27.9924438315764 16.9876619813438 0
-79.0200296698824 -9.25241717256457 -4.11988353104403 0
-76.4284269870356 6.79579292617148 10.0758134652215 0
-200.710000432739 -26.0834141979933 14.8026524921388 0
-140.927913250649 25.6695794271972 1.57693984531767 0
-184.871585637489 27.9440635144787 13.8599029088915 0
-140.360175296714 8.93891537972029 20.3186495347089 0
-187.687336110853 26.3626448428539 -5.25498627985201 0
-168.704843331278 31.4752350792065 11.6704112416967 0
-53.3511972898048 2.54389258803413 -17.5963712008162 0
-139.461396557514 20.9100535867623 14.176900777025 0
-201.556898978424 -29.5979006809505 14.3648719783523 0
-144.22865195018 -1.96304202978409 -8.75613187726969 0
-187.138213150042 14.5734758464666 14.1498460216379 0
-168.27513567951 -2.07669355214231 -8.64245287873525 0
-197.156010666527 -11.3669048434318 -9.6963079077112 0
-158.816872913062 -0.0104333434410913 18.3572812250851 0
-13.187871927803 -11.6559668230914 -12.4044203323798 0
-188.772217428847 18.8557946839181 -2.45488256494 0
-6.65832787077739 14.1363060783622 -10.5436653003273 0
-45.3973782529761 -11.6299234419906 -6.55943812394774 0
-206.206785014325 -36.042578686893 -9.88835999899393 0
-93.3579187111756 8.06633274543771 11.4610802191667 0
-185.33175450186 -13.9428990913414 -15.9758005921405 0
-181.558352658609 12.9081088594217 5.00302657577527 0
-179.243542616611 28.0734450589281 -9.90379222229439 0
-167.435532307735 -3.73704109923538 -8.20064636828393 0
-195.754219941689 -12.4494417604879 9.72617719625535 0
-184.683733285594 0.211007291008881 1.40583737546389 0
-196.655815971432 -44.700699770291 4.99157531253934 0
-107.259563238323 8.34010459981888 13.0986765518086 0
-194.013729652056 -35.1365373518437 16.9970190438579 0
-75.7064772550615 -4.74055973271467 2.85369745567425 0
-172.611514296248 -34.4949369238871 -10.9789975927986 0
-11.0990359949526 7.86049613977658 -18.8793017494873 0
-156.564299278217 4.3162844946121 -10.9308342310284 0
-162.869520302137 -1.35412449734735 -7.94521373000705 0
-58.0655047462489 9.31436570760932 7.02817515905759 0
-198.841567954709 -41.8382906610377 -13.3427305931536 0
-104.071930386164 20.4346464982185 0.909560380728746 0
-32.2921928199189 -5.34146015356627 -16.4956473118344 0
-153.411950421447 33.1420035023546 6.22864697566145 0
-84.6170460899887 12.9446618505311 11.123766866701 0
-195.680890930429 -45.4732256556321 -2.77601949855231 0
-58.3126239794596 -8.28137276770222 -12.0027963298246 0
-159.235711315962 2.9202648260251 19.3428819814836 0
-153.630116304716 14.9112473567352 -7.93237406275185 0
-179.787732404114 -38.6024343428777 -16.3977639215505 0
-176.721914317794 19.7926743826257 21.152617486392 0
-176.594119840302 -14.8950497533197 10.632959849919 0
-163.611033171178 19.8846470761968 -9.68542535942551 0
-180.720793397787 -35.0701751968016 -18.7750634778261 0
-132.098964259224 8.57285226091482 17.3309730520625 0
-182.91031048264 -40.1652482735347 14.1548543550854 0
-161.972121704578 -15.4435240749943 7.48508278286123 0
-56.993352301249 6.1811572417287 8.62693408263966 0
-162.210247050837 28.1577973595939 -10.5793245511819 0
-136.896848598201 11.0589979072832 -7.47837308311325 0
-201.006506605186 -43.7607267089317 -6.3938582113277 0
-126.771542323165 22.1143876101938 13.1788363812427 0
-109.933722692878 -3.4316076497416 7.584776859926 0
-78.3050959767811 5.45338487025192 9.72790145504834 0
-129.0830704667 23.7505213122082 4.86765107768692 0
-48.115164569902 -2.57138878321402 3.43931561202127 0
-190.399849440567 -18.9729801174331 16.5417387489422 0
-9.45470953118764 13.4978616672293 -7.17487802929949 0
-139.157133793717 19.1684119076619 14.7726727500485 0
-172.170842465499 -22.457151838648 7.27498649487952 0
-95.5961454788069 19.5522143286334 5.63083558307495 0
-81.0786023636981 5.09217735453087 9.86237060255046 0
-180.205238283442 -16.9579315444649 -15.7272509687248 0
-80.7824273727828 11.9823444851841 -13.7110978269864 0
-122.430058920421 18.4159223675163 14.7914784548597 0
-16.5013912129388 6.85495046824956 1.45644386049714 0
-128.276463403936 -6.52825834109924 6.19891052599772 0
-176.294063675463 7.13096732429039 8.77297610899737 0
-102.120979453584 3.83640785158491 -11.7650039490766 0
-60.7331770765212 -0.425376850699457 5.31566090267855 0
-203.957444883569 -39.75471065256 6.93957543222305 0
-177.750015789206 -12.7984837525876 11.034500112134 0
-42.8428926303726 -2.30257709091128 3.66261297026222 0
-49.8072774147106 16.4999088458026 -8.73737683917426 0
-56.9004090625483 -1.78239312920084 4.27227741961308 0
-164.264542602125 23.5224490739965 -11.6668591273849 0
-121.624515919345 22.9820294794205 8.61212358191879 0
-145.033627494038 14.96427070565 18.220842788747 0
-31.8829005249198 -3.06867859524399 3.08973918560002 0
-118.835130621 4.14290487848803 14.1552463504417 0
-92.3295756035559 9.06874501794085 -13.0974321451604 0
-73.1123703140297 4.16773078881086 8.98302553541615 0
-157.772043414716 35.5031538663965 1.75954502380557 0
-125.07095883316 9.9001098263513 15.3169080789654 0
-191.094697409564 -45.4371360010031 -12.0421717299111 0
-120.268499564191 22.6515031744454 9.87811373802831 0
-160.380890914187 -5.69936778182879 13.2952468565712 0
-167.028448721643 17.1389155950092 -10.4545905961041 0
-158.949467983272 -16.3537981968963 3.61423160997257 0
-144.299272439925 -11.8168940874879 -0.646753398200354 0
-166.49194320992 6.64539887175149 -15.2927241064098 0
-169.58395517602 -9.3813053484464 10.6096579668921 0
-125.579406544096 5.58679687873221 15.945591895063 0
-92.0675858573955 13.4681032825178 -11.736711744366 0
-97.195021236221 16.6538127177662 9.99730223000621 0
-139.237743837561 -9.54156309335527 -4.0498355413621 0
-198.515988687415 -32.4175338182525 15.9115675979093 0
-94.3302030804712 1.36879805873306 -12.4344631630178 0
-168.653586187139 -20.883872407393 5.66360352388868 0
-161.149909229794 33.1573494408181 6.42175959340493 0
-143.758640370191 25.687155703325 10.196404702048 0
-178.208873713117 28.9714790292827 16.4426980498891 0
-19.5543555744653 -3.31759718620179 3.29963137591263 0
-127.993041087327 -7.65646724078898 -5.6367289094043 0
-175.011474719949 -17.0865565079483 9.82368430332446 0
-151.880852855377 25.5404112345581 13.6904296363406 0
-178.215119657399 -23.4558783645979 11.0775288462508 0
-166.387467775459 9.26881468728376 -14.903256487129 0
-142.149981487135 18.8925977892546 15.285271055742 0
-80.4581476697669 -3.17447706089781 -12.6366421135439 0
-148.301408314175 24.864954784432 13.0313060033247 0
-93.4133105793645 15.0381175096591 10.4356219982601 0
-125.930082166735 -8.57383587296471 0.582227096378117 0
-185.786650019003 -15.3615810790347 -17.1405280355517 0
-1.60009308972485 -11.4427274736271 -13.1742295547671 1
-129.867282871987 24.3145570181908 9.36530897539916 0
-141.835107638961 -9.52674867897273 -5.6319144443934 0
-114.258742630911 11.4888357348838 -10.0925938147947 0
-88.4689798040966 -8.2266278578416 -6.91485782500434 0
-183.419057050944 27.2094041423852 -6.98619765132243 0
-14.0641088173958 -9.91453691911123 -14.3059514480521 0
-142.801426751331 -10.2078940177216 2.87794668137886 0
-40.2507231472417 4.50898170168569 6.67810908512785 0
-22.3837855046945 -11.2430217259424 -5.26683542533147 0
-117.200419705337 -4.34194605412054 7.05045262712454 0
-163.503786414572 -14.5146926956931 8.72705208376126 0
-169.579067361008 8.71365637704235 -16.7530155571824 0
-105.77984763931 -0.770090084391952 9.13191968421318 0
-178.577470549304 14.8949435239294 10.8033089605056 0
-133.742047884346 13.6392185437265 -7.81748065830297 0
-22.3145303416911 -3.82892756221264 2.69487994562339 0
-70.4615009869788 1.56680678241235 7.16107671733526 0
-114.947316642558 7.54597130060629 14.0293151696396 0
-150.298734073001 -8.61328024171959 22.1904392518776 0
-20.3440159171471 -12.0848012376473 -11.1192511343026 0
-69.9219864569704 -6.08488708529521 -12.1117220379191 0
-161.580192594315 30.5781948433256 14.1486314012909 0
-63.9650185795587 14.8669392561821 -12.9649180726473 0
-183.487350252791 -43.1905594666662 -14.3475113198091 0
-121.840413304904 -4.83365800384858 -8.34566072634678 0
-138.105408904665 -7.86535348248891 -5.73453932939034 0
-15.7565658601184 -12.2470982426598 -10.9392586266731 0
-163.553263773944 32.8567831877398 8.07843835139636 0
-13.8918097891411 -4.56919250813898 -18.0141270719336 0
-154.152713683598 28.2430757404136 13.9173100283706 0
-119.679480587749 -1.87699530415081 9.7621123606644 0
-184.561629718634 19.9081142784853 -10.7118736279859 0
-110.174827755961 -5.26372497758803 4.98634708354781 0
-183.251595992615 3.36884827561134 3.76081072328178 0
-59.9257073265053 -6.43873515876778 0.696693911459014 0
-122.312104441412 6.7662796468331 15.1362373904861 0
-112.703462706581 21.4725344414562 2.49220917057417 0
-177.757625770422 6.1037158188777 -12.4167519860227 0
-179.022225660685 -27.8833899122148 13.7754943746317 0
-205.651283680026 -22.8564768717346 -11.8353581663198 0
-175.524380564252 -43.0908791811319 3.32739746097396 0
-128.280280409049 -8.44734888098589 1.69636584289334 0
-168.488413615504 -7.28093572909838 -8.29108059482757 0
-21.6439343955561 11.1182822083524 -2.308726079329 0
-12.8064524460863 -3.00021050180637 3.91810778967926 0
-172.284977307936 -32.3323342552127 1.80978526241603 0
-100.771761933002 11.2834099808335 -11.6272939338034 0
-132.857740295537 -7.25200793619546 -5.40127617399123 0
-37.278294693595 -11.6968458742896 -6.46569181290278 0
-67.3466946675867 4.97136443588073 7.24094233438821 0
-152.946496589099 -12.8973256672577 4.12758098135284 0
-40.3720950602943 11.163313595667 0.284977931762879 0
-184.147554472066 2.76051053957552 1.58650818459525 0
-153.260876321289 11.282281128707 -8.46944878017888 0
-84.5363073457116 -7.08093829709711 1.31450558424434 0
-121.091277230825 8.20019628229085 14.9902328017342 0
-161.030756946285 -7.11681876294655 12.3474420365324 0
-49.5839054105266 -9.19568511972954 -2.14420207398222 0
-89.056630711158 2.80791214616935 9.0194478590556 0
-153.436472638689 31.1924209698831 2.32296589548356 0
-170.770662063635 35.0925560750412 0.132663371711952 0
-33.2078924495821 3.01178901927889 -18.8287876451489 0
-171.960990991482 -36.442549828045 4.20180073825017 0
-131.476934624948 -8.37113535980022 3.51965944848546 0
-70.9936621510176 -6.8356796824627 1.03199743808956 0
-179.984331564976 -43.3013622781965 -11.9661717332803 0
-174.642609627189 -42.5823273822657 -3.7903901630738 0
-160.488270803837 -3.56619379572837 -7.23425952450234 0
-152.298361933873 9.61770355140275 -8.31978107815532 0
-180.384125681607 -36.8092469905726 -17.814011930206 0
-105.355890130222 0.770013814742305 -10.6625514604424 0
-188.238870999922 -8.65400019768996 -11.0449966466767 0
-171.821257932734 -39.1652418316272 0.279113092629882 0
-171.270449836125 -31.7926952229869 -3.52241499588246 0
-169.811838870728 -10.8898083003022 -8.94455676640772 0
-151.204237729175 24.4957738362648 -7.67159193198551 0
-195.061262244831 -45.0831631410652 7.81577080670746 0
-152.753720182406 -13.4865712596917 -0.860669542687517 0
-6.05081712928487 -8.53612864026263 -1.25201892473518 0
-54.958100394356 7.02249187666264 -17.4281572042965 0
-166.314107941383 -14.6215075102102 8.98578624114615 0
-142.001899992664 -9.46248178855858 18.7921358955302 0
-19.874462015121 6.59518951636167 -19.058844545321 0
-194.836004418595 -8.51654631205254 -6.10509581088317 0
-207.640235785978 -22.2039901971107 3.90579012801045 0
-38.2126017649116 -3.39054287343448 2.75266213378291 0
-52.4115556815216 -4.45508083533818 -15.5780227979939 0
-71.2075049208403 -10.0658138705197 -5.65171638387748 0
-34.8807282805624 -11.4879941623274 -5.99349765833801 0
-180.804268482905 29.3720668150461 -4.61171738002951 0
-178.469715184272 -45.6732621567348 1.69642147628295 0
-186.365340408792 24.0787752612303 -8.35325542400401 0
-8.67450031581191 3.71170341639368 -19.4528837748512 0
-169.668165691417 -0.250674801744305 -9.78153856709121 0
-143.268444533612 1.60328317520814 -7.35708408181269 0
-20.9015576148538 -10.3550346911938 -3.89540392032431 0
-176.280395748968 31.2585711458206 -7.42078503808485 0
-24.8416888857249 -11.0930105789329 -5.11460051147216 0
-155.829378155382 31.6886605750266 8.95262567527593 0
-204.960523434466 -18.7367991000702 -9.49282626838669 0
-177.247489394357 -40.4446912715102 10.5730965018581 0
-157.912203035607 32.6808563011271 7.28085730752131 0
-71.4827803473002 5.09293458944073 9.03417620018216 0
-190.547941670187 20.7104795489686 0.319973067407413 0
-167.105803087789 23.6376371828288 20.4458736128062 0
-29.6873692590225 -0.660605300013948 6.32932637354821 0
-152.561868092273 33.8192569883762 -1.74829612016522 0
-130.45021632936 22.4538808671253 -0.668156183609669 0
-79.1274140631627 6.77303886540019 10.1153899861928 0
-139.640869241442 -5.98188426448792 12.3945950869761 0
-174.446243468245 32.432336604565 11.9800380489284 0
-102.848093165568 1.41991590953578 -11.1515460464259 0
-184.071021410487 -14.9691448304773 -16.3322767013176 0
-131.167733426812 -0.437504811202198 17.1550245097084 0
-179.708770413056 17.4005599917746 20.4724054886291 0
-191.690741061099 -21.3262591147811 17.3900083126495 0
-4.89909755666424 7.21879357032211 0.30475024842665 1
-185.91444455936 -9.06868334510066 8.81736348102678 0
-142.037553430362 -1.7864966660631 26.7158552420314 0
-129.993623770486 -3.72562679964169 -7.64419105659519 0
-125.640007738952 -4.25670866829239 -8.15281010475321 0
-170.095974698994 3.76740546927635 -13.9781943134114 0
-204.847538773206 -25.1280369595856 10.7521024181334 0
-57.8029801679664 2.64924963725318 9.19505753657617 0
-122.788556587315 11.1012506347259 14.5345868579548 0
-141.5493888748 15.14626041299 -7.42874670901096 0
-160.905825772287 -15.9166718151344 6.01183196892683 0
-185.496825843509 17.198918203819 19.9607431155974 0
-158.758541257952 -7.14364016706412 12.8652125183981 0
-6.52942102534853 13.1990153322374 -14.9678193757686 0
-119.126729651064 18.0031802791008 14.4570662109754 0
-93.3327232518782 19.4728197213709 4.51891050352344 0
-101.885551823517 -7.43925976136166 -6.21735968214182 0
-187.260349832516 18.4197435425718 20.0725117796682 0
-28.7496312991482 -4.35477187951544 1.82136489864414 0
-128.602091785976 -8.96157872658743 -2.2325063966745 0
-165.883908340495 29.6635156107681 15.2729570424308 0
-162.074837110076 35.8815846199836 -3.73147942533878 0
-186.564599231039 -46.1500481919168 -11.1497977183462 0
-198.382618405302 -14.1229320359003 -12.6915853640468 0
-150.755886924311 -6.81409286487307 24.9749397323801 0
-185.528706993119 -18.8099616035168 -19.0800220459092 0
-155.856293701803 6.05116690958377 23.918290950343 0
-38.7843702292906 1.8069027369934 -18.558451969328 0
-63.3057749677427 16.4143069133025 -10.4422415329003 0
-203.55937524072 -14.3472426862628 0.513785157293919 0
-154.702259882722 31.5176071125255 -6.19321910497335 0
-206.059310328646 -17.7708175539272 1.97285544600591 0
-114.350812612947 14.298714341181 -9.3869767932127 0
-156.785847177006 24.7727370524725 -10.5678744347744 0
-164.185625253192 26.7208823803517 18.1230143227195 0
-14.0830183092617 7.67908012610347 0.569681104625164 0
-123.417485599417 15.112877837071 14.236563365644 0
-131.564756867481 21.6485334503808 -2.54006642973964 0
-44.3063450625973 8.22244598512548 -17.8376041938061 0
-174.599760939493 -41.531482086177 4.85181278409686 0
-173.075452758773 10.9739546232321 13.9220702670421 0
-206.517781263398 -18.0511322189892 -0.590336904529672 0
-34.3133567362464 -9.61611905563012 -3.13044181812921 0
-161.317748834763 -11.5917951494275 10.0261199752015 0
-141.758385973654 -8.35803692068072 23.1478501556305 0
-123.797798364228 11.9917247379737 -9.0929743874482 0
-185.00509108504 -15.4724693949925 13.3980969341286 0
-176.270463887934 14.7451988248859 8.37662367833198 0
-133.995859102423 -6.39027679618077 -6.24607241613899 0
-78.8323687493652 -2.73357480608427 4.52515149026875 0
-143.286580365338 4.67964708746815 -7.08506141151747 0
-4.03536922569342 2.75296567568024 -19.3515375654518 1
-118.575699917916 3.18352881577042 -9.12987200328442 0
-8.3123725338911 2.31704141132097 5.44374578681926 0
-184.093410868097 -1.13465111568849 -8.79011399246063 0
-194.226740282653 -9.56506195929778 3.91458408668017 0
-1.10022225947603 6.04119488349152 -19.2562970302606 1
-166.891360503685 -22.6973380757446 -0.192468606787428 0
-176.727926988521 17.6547187050242 21.0916373012671 0
-150.899628104889 27.160529786978 12.3045559542579 0
-0.311277895267073 7.5667369531566 -0.106904296759032 1
-87.9784638169992 -6.34479094427718 -9.3832626885064 0
-74.1250688446252 9.76526216597213 -15.1413211765052 0
-204.409829144302 -15.4722286633129 -4.10036173097052 0
-126.816132250962 -8.75839373695214 -3.06840299753002 0
-38.3933048542855 5.21581568125715 -18.61868844736 0
-156.86182881051 18.4381932869355 -8.30745427900892 0
-140.214582570449 -10.0914284007414 1.46422088642929 0
-184.641035580235 15.4862221384229 3.76939359311143 0
-142.496956524592 23.1049688287791 -4.52841315000662 0
-122.339373183675 13.2069820277758 14.1005347166239 0
-172.021209212678 4.15604796811432 -13.8613974790401 0
-164.446286688118 1.55968383336741 -10.8910528363738 0
-200.305726457613 -12.8283817551526 5.32667562290427 0
-168.060159468041 -0.390277002161279 12.6262941670318 0
-68.8495406518697 3.73671442458417 -16.2535263285864 0
-109.343105420781 -0.702219476407326 9.56614264351574 0
-37.0448970860799 15.78159521876 -11.1971658117614 0
-146.365543713051 25.7936854254226 -2.83053448317288 0
-208.162579319014 -35.543190361265 0.31022363514638 0
-35.7844273055368 -4.29663509451264 -17.0864984717367 0
-197.62194134716 -32.345887290622 -19.6136155544884 0
-174.002164053011 28.4573576345474 16.6785419787395 0
-93.1152752217919 -6.27545725243888 2.20548068572764 0
-173.224172723288 -31.2780546404929 -12.2806621098556 0
-178.375093459145 14.3960144436732 -16.175571561339 0
-149.795752791528 6.86130508529606 23.9784056658645 0
-176.488952350137 23.9741965657938 19.9496453243851 0
-128.719742320755 -2.79839672470259 11.1867141771136 0
-150.064027805789 -10.1983209093845 9.15184389838161 0
-189.020768346026 17.9237928823503 0.0127554238137785 0
-177.245600564348 32.9553801805918 3.55965040066922 0
-33.2328410821598 1.2125280062736 6.65918071361113 0
-76.6922491333129 -9.07934904309208 -7.5185180618752 0
-171.341501861693 35.6244315908581 -1.75670328584525 0
-26.4703625138214 1.42904697288369 6.35347856152297 0
-153.777513834065 9.72070546521843 -8.98658103192837 0
-95.159987062994 -8.01877115590325 -6.19739799155247 0
-62.5230604230892 5.53703679882551 9.15593357914826 0
-102.904520730841 -0.878726627065736 -10.373585846987 0
-104.366001740357 17.9623084763447 10.7998007533802 0
-196.854035443755 -40.0874182559336 13.3831628971697 0
-158.144471405557 0.247021015782767 -8.78644872423635 0
-188.00386327254 15.3973479125405 17.8474037749318 0
-171.634658068001 -16.2107119355754 -9.58988914198086 0
-92.5827287333007 13.6764365862716 12.0389633350578 0
-182.019550026853 9.07177770357661 -9.32356367288275 0
-109.226165956137 18.0082127590984 11.7774358771729 0
-90.7878690795671 18.2327258425146 6.82509951888669 0
-182.468969873256 -18.982873500585 -18.3024614543154 0
-140.99786653147 -4.29416235622254 -7.84787319001043 0
-165.645265519717 5.42246943883788 -14.6517605315581 0
-162.963776122673 -6.74739781958446 -7.4838979457761 0
-171.264588531926 8.53725152047425 13.3757419784586 0
-172.807193833202 -39.4180992844311 3.35614509527748 0
-22.8745301049028 1.20363877837933 6.21325409035996 0
-91.7399817696006 -2.38536112327168 5.95532487175795 0
-0.146410257818885 -9.95182379024416 -14.6453917226367 1
-134.528631531796 -3.50289182363483 17.2010146765566 0
-101.585948174634 1.1564112995139 9.53007131803345 0
-188.424797192017 -9.02459938855907 6.83655899993473 0
-117.485836273557 -8.52039526967095 -1.95342017458716 0
-137.725254480951 2.14436072057262 22.6572620141754 0
-176.788676817069 15.4086417389744 8.88387382690661 0
-188.400481297458 16.2887369272093 9.29358033298014 0
-53.5658283069401 2.75464520368602 8.13280288880157 0
-169.097459020363 18.952519439023 -11.3411357764425 0
-157.734023600955 -15.8809551571466 -1.44592863566645 0
-10.0714759383919 1.62925682353748 6.0263239041145 0
-185.280345509345 -5.2947151052252 -9.84953312121089 0
-76.948899189939 -9.30243586498419 -2.84803241775549 0
-188.595755854118 20.2907733886684 17.583530129303 0
-44.8514801952263 -10.4264929941727 -11.6291454884901 0
-120.356163983909 22.6400474147761 7.87497500491278 0
-86.2463287396327 1.17829330966207 -13.659967167116 0
-163.70772153368 30.9922843196572 -9.70969566263071 0
-165.650192884317 -12.5857333024823 -8.15084953634225 0
-67.524724351457 -9.97574221997635 -2.98776863503785 0
-62.6209570785453 -7.62400406815865 -12.0209361733941 0
-33.7685189082699 -11.5125331850037 -11.0787671332328 0
-151.915067646439 30.4817639602959 10.0624478476189 0
-122.5751875068 -0.183427591123496 12.2379446308739 0
-170.963799225146 34.6474219190735 7.45762797131488 0
-161.518973528363 32.9460493295764 -8.49192010350547 0
-155.774828614135 3.3497117991246 23.5183637213826 0
-159.549560682244 24.9365376596666 -10.6846661958274 0
-13.4943986599738 8.15317098889094 -18.8564603871649 0
-0.621027690794985 9.5463682409935 -1.94387798633785 1
-95.2889381219142 19.8362309048553 2.73492890782129 0
-101.407300500561 18.9124498359324 -4.13425816216408 0
-38.8084771065102 3.43335068298252 7.15363053309041 0
-190.518845768094 25.7918147411327 -1.92832796153172 0
-177.368884413723 -21.9280277700705 -16.4210381975857 0
-139.24667049043 -6.8351546951947 16.0791269331893 0
-26.4203985792935 6.34147246808335 2.90729109642454 0
-84.8891082869385 10.4817701971895 11.6554500803278 0
-49.5622318884341 10.9110681765107 2.4589949218797 0
-177.780626901859 9.07305167746197 6.02067108973372 0
-123.474522733765 -7.05697696216748 4.62771925162396 0
-18.6674352307427 11.7754571848587 -3.36468271986108 0
-157.732010388696 -3.41125969024633 16.5827614595796 0
-21.0603666650398 -0.47948948233495 6.09207368098967 0
-171.732948797537 -21.0952182840644 7.72524617254312 0
-43.9808673423428 5.85000599601859 5.94081840960991 0
-189.383975801425 19.101358725384 -0.790100033123319 0
-116.033631130618 0.228198473415479 11.0054198364971 0
-155.649170177548 -14.9214141855469 2.43813289469644 0
-156.710486407591 30.8507978198269 10.4552706937093 0
-73.7992207506494 -1.16073700977569 5.38140231983781 0
-114.822033357943 20.0206238331451 -2.55322688126829 0
-142.102131699485 11.3152493674509 19.5353574640711 0
-135.539695873582 -6.78262579394492 -6.04283076756206 0
-198.835085205866 -25.2479957630244 -18.9163621102575 0
-145.498127080515 26.4771129874933 -0.805656338939713 0
-35.8606481474486 1.46817989160007 6.82929669862688 0
-162.821171757627 0.228373370857162 -8.43246955166764 0
-114.039199451619 -2.86879252868377 -8.34326543757087 0
-136.655238388132 21.8033014663157 14.119874031242 0
-160.840480948322 12.1156194814608 23.3809840615265 0
-122.050099738172 -7.00049047179399 -7.45775459855391 0
-174.376852398847 21.3151956414 -11.9388519812046 0
-157.759704161736 22.1815637296298 -9.31168339369643 0
-127.920773435729 -3.84649406577546 9.52882141712723 0
-205.869267744047 -30.0011158533435 9.76741229654223 0
-167.504087441166 10.3072061017982 21.4752545308353 0
-137.671026491233 -9.69672697131831 -2.85195127845904 0
-182.483943875956 -30.7129513025046 17.790058504104 0
-77.7376858259808 3.59131040093768 -15.1871152804799 0
-26.5525079235153 -7.85197185696647 -1.37927789602006 0
-75.0168919981539 8.24370102043637 10.5600839957148 0
-32.0778362077637 5.20983712389405 4.7098329072067 0
-140.95274739456 -7.43011900692945 16.1330449464974 0
-31.3268534142368 -11.3077416592396 -11.5780221890899 0
-131.7160399457 23.0593725656562 13.4581683902426 0
-205.336817945115 -39.9256534684916 3.28895624519486 0
-182.674715944325 18.5560521318543 -11.6491740931747 0
-179.749452825932 -25.3826376646542 13.5325255465056 0
-189.184181408279 21.4576979574841 -3.4372093487793 0
-155.732331557785 26.260207346108 -10.7173050710689 0
-204.434913722321 -36.4336284664226 9.12491078481947 0
-78.3694031799247 -0.906065035413486 5.85166463742338 0
-166.386175680754 8.13636929110833 -15.4992713469308 0
-155.855918395053 30.331707186593 11.5501923330743 0
-66.9980785310462 -7.4518691953913 -11.5474602252114 0
-188.868003047206 -35.5953832690402 -20.5460565996627 0
-142.671874649587 -11.4269617899331 -1.33609578366073 0
-48.8795099012779 -0.630605647934211 -17.6843240170667 0
-111.145431518223 12.4509063058897 13.4878422935496 0
-169.259302356613 24.0498996294353 20.1408841290209 0
-177.673683995149 10.492831793713 6.23872193227566 0
-170.378805228405 -1.86799296245808 -9.23091525329946 0
-172.797236436091 -8.150944253484 10.7408428488332 0
-162.660055150662 16.1777287130426 -9.38005213836261 0
-118.226311339448 2.76942267467004 13.3517966720071 0
-64.3402311059299 3.18581236380476 -16.7113031214446 0
-71.3597970393749 -1.5182049504143 4.99522478163037 0
-154.52489867159 30.7833595956894 11.8046989187068 0
-177.33537206586 14.2214293256041 7.4401850234114 0
-191.659287971765 -44.6959401150142 5.78636731245181 0
-125.761292451476 -4.60374917591587 8.02987360272645 0
-120.903983416491 -3.59748062258487 8.16354484533076 0
-168.825510765113 1.54817707936004 -11.277814716513 0
-126.976233154276 8.325759055161 16.0678346804206 0
-151.915031483346 29.2757701274937 9.75858676519075 0
-14.996378034541 -2.08092412365986 5.3996172443602 0
-185.954146118314 -2.01699164422766 -7.24945894320243 0
-92.2022780188122 -8.46003091571516 -5.63574411611695 0
-173.946689270883 11.4911502352447 -17.8072681191657 0
-158.67153077651 34.2797266269753 3.95067109344861 0
-189.411502871744 22.9457675180998 -2.69367893289268 0
-63.3289287804848 5.14220877001517 -16.8329108352282 0
-103.864234233203 20.7331772701139 4.28020205030582 0
-18.082719346297 -9.4513613107219 -2.84654892853729 0
-171.856887266227 -34.4110662015664 1.86012499930803 0
-41.3107314567408 6.04563425645205 -18.3861135606593 0
-16.8987531326041 2.30631133069966 5.7037325652169 0
-189.381434436759 20.5408791969664 -2.06796874636195 0
-187.083111163707 27.1547109494738 -0.0551737409768297 0
-162.516237481027 2.04721269786328 -11.213609151688 0
-52.9573822256502 15.8358440482496 -11.7700558643052 0
-45.8728882610521 -1.54349634336554 4.26785281587775 0
-51.5751014945449 -3.85335658084539 2.2112970588248 0
-201.724751741474 -33.9912260880111 13.2777967430598 0
-139.696460925377 -10.6456627414958 -2.66658072664137 0
-153.651880385952 16.55145617165 20.0377550490125 0
-178.863039151563 30.4602401741829 -4.73994877403661 0
-4.1678579219755 13.572300499315 -7.98212395319456 1
-169.281276015766 33.7771332462165 7.54345257923962 0
-161.603998993835 34.5820941782336 5.62599386312731 0
-133.459432523943 -2.96365057872372 15.0715700752174 0
-55.9809461635687 8.41286974652908 7.19474111129053 0
-163.267862847258 31.2954490099631 12.0447492253669 0
-181.044736899354 12.1944157472517 5.85048401649028 0
-149.435391948993 -5.89978922310966 26.4201343038901 0
-99.3476425053111 9.13742051710291 -12.15882728537 0
-186.27497731583 27.686312029351 10.9649488392789 0
-142.499420199119 26.4521764519242 5.0998014785722 0
-188.037195640835 -11.9626224502598 -14.5707456647278 0
-127.446221688737 23.3509558372364 3.62758711879922 0
-171.789516804231 35.7856616862752 4.09798905300146 0
-188.924579565793 -24.2769837375891 18.4394320379974 0
-176.150092279517 -33.5117800815395 -16.345511948535 0
-206.201231341901 -19.620497073924 -7.91944826093755 0
-171.587665106874 10.2288270401494 18.0707796206789 0
-181.265787094584 10.3186661887974 4.13661486256086 0
-167.068616007356 -21.8985342171544 -2.62037573628151 0
-168.497009312369 -10.8501009882611 10.3074214903315 0
-50.4904322595872 13.0648758270968 0.0772341509249799 0
-109.457020103216 -4.13463147292085 -8.40569741134143 0
-76.3777862275844 9.27700672555957 -14.9761649612564 0
-67.8210743520047 -10.4227269349564 -6.18800840441694 0
-14.8379722972909 5.92365554515379 2.23948278174181 0
-28.2427619852744 3.9418274095165 5.67248680524366 0
-189.795718276338 -37.3524790685489 -19.8062896790891 0
-207.249054275931 -23.8144646137823 -9.50782153106346 0
-177.403820199574 -30.2020289045539 -17.9623867573716 0
-171.587637388479 32.3234939585423 11.5863308731804 0
-100.07986045304 -4.4923288711971 4.83377080563636 0
-180.862980466475 -0.697959181847099 7.94579696341792 0
-178.043860858665 23.3688099771571 20.1920858926444 0
-171.354022272365 -36.7941474523394 -6.83517992026077 0
-9.84426978686439 14.2592334875756 -11.4117898787774 0
-147.096600085752 15.4523504257945 18.5830407646536 0
-54.5291944210665 -6.39504461214139 0.412329671430224 0
-154.243604628052 31.3591671217022 -2.31599170323053 0
-204.442322134005 -30.9436434882498 -14.569972856795 0
-24.7678772124812 3.35444730027191 5.72492939420802 0
-183.636388465167 -47.7767897471955 -5.11983600995043 0
-133.576667458203 -9.15874631598976 -0.212554139494774 0
-140.286239925377 -6.38185088788162 14.7936492024533 0
-169.401204331 35.277197777817 -0.875218934521396 0
-150.208044590191 0.494166547599944 26.6859359244122 0
-183.461098025859 -35.4120189795871 16.9689598297025 0
-173.778161050592 8.7169135795295 -17.2067093546723 0
-188.613344577236 -5.00717909001927 -5.54376340171847 0
-196.648917405326 -42.6702321924557 -13.8332459133005 0
-168.278565518336 6.71295946969853 -15.6877561725813 0
-204.080076312221 -16.7570716252534 -8.56539657818311 0
-177.075310962558 -41.6626724871705 -11.1439393446987 0
-65.0366531977812 17.0170305500996 -8.66839969646077 0
-179.437453100569 -27.8875144468906 -19.2947673342208 0
-145.002988740086 18.9321302266771 15.8295361845238 0
-186.211104432298 14.6181334502084 12.2728791192679 0
-169.84678449004 -6.04603911997224 -8.66523111615603 0
-186.09013414321 -2.06561281589071 -0.75376397536614 0
-178.353766451322 -43.9861155420881 -9.08321735045778 0
-183.664250565063 28.3922198980086 0.385544838616766 0
-7.50867601215738 -2.9061996111963 4.30970712222009 0
-207.348527189446 -26.7674255244371 -10.4288448555836 0
-191.645689953376 -45.1271086864322 9.65311120433224 0
-172.834006657895 -26.0698195246907 -11.3643418935748 0
-98.4718884992825 7.01697826464198 -12.4586284212684 0
-206.814775538426 -22.3304515169097 6.14027029922153 0
-172.537960485691 31.8320943274587 -8.63955065273035 0
-86.8531476381945 4.03335788504128 -14.0203134056681 0
-79.4132363055926 -1.19088929861115 -13.9449433937731 0
-179.979888020161 5.02486061152036 5.75621247855591 0
-111.103747434013 17.453613336329 -6.73983897914469 0
-133.578144690891 -8.85916526741705 -2.96057214602078 0
-189.133258535966 -20.3854137465121 -19.9732464924101 0
-146.204405481683 -4.4903662405282 -8.56245118011739 0
-173.114051094565 -21.7239109740778 -11.2597415978995 0
-12.5648181463701 2.70387103463999 5.3465872565342 0
-151.147489943188 -7.35388467838239 23.3356139378618 0
-171.013814669434 -35.4133529880592 -0.762858690396252 0
-182.662570109458 1.97339003282459 5.0048087782289 0
-174.211396518749 -31.8592941913639 -14.1002445916057 0
-175.048421340992 5.16979746075878 9.66802924374474 0
-102.242531686656 20.5711460668942 3.20816050129864 0
-157.457389204407 -8.67215937413407 12.0401030209766 0
-88.7819312220291 18.9868105115128 2.5348186806169 0
-33.5976409913183 8.57614711832512 -18.289881177861 0
-4.60808160792823 0.283365100836231 -19.3210625464384 1
-175.367093138971 -4.89739905309043 -10.6584650396328 0
-192.206798553109 -40.5663479856531 14.4924721555909 0
-159.118742081687 -3.37700338979806 15.4841428304081 0
-21.0661864662059 2.17999938941454 -19.3068569451346 0
-46.0480944626426 7.47991597109827 4.90239039804951 0
-171.088548681342 9.47428988799186 -17.4015567025834 0
-176.396654711095 -26.102334826523 9.21211344441473 0
-115.687825117285 14.992300992143 13.7501957122872 0
-196.320349220185 -11.3771109252645 7.52282741187531 0
-60.8142018759431 5.51726096341949 9.17366983010397 0
-55.326434634701 3.87185511769086 -17.515906610532 0
-157.325950243927 33.8170821217868 5.53236396145877 0
-180.771496987057 -21.3050373559316 12.8990415837078 0
-7.91243551440204 10.6317513467988 -2.84166073016567 0
-206.949355190207 -28.2827688788083 8.21500796945886 0
-199.763643109615 -35.8858087421546 14.003745065535 0
-174.27793090796 12.8416150786365 13.2885933604255 0
-86.1970718922909 -6.01371938415465 2.67226342432167 0
-202.933951485405 -13.7474269017722 -3.52926453349224 0
-169.050756283636 -22.7447584477916 4.34589536831691 0
-169.561662204714 -17.0419833756565 -8.23179759543063 0
-36.3377854605492 15.0703229376143 -13.1976010212114 0
-178.185372383455 -39.1626183719159 -14.8106621424952 0
-187.840567363293 -33.7821835887345 18.1010276438191 0
-11.4282103466098 5.77810510525698 2.19658044885772 0
-142.638192306639 -7.24079087468274 12.840531862335 0
-128.034650402525 -7.88887478636309 3.85410657893153 0
-172.63007095896 13.1176619774676 21.0623914834256 0
-18.1305058663486 0.996693688697245 -19.2353073879388 0
-155.300441481011 33.5937342698405 6.67333808023923 0
-140.008829013324 19.1536852109033 -6.91251602062717 0
-134.17872260976 -8.94843410390752 2.893007313359 0
-144.504770093531 8.06151371539248 -6.87029355611744 0
-81.1781625419103 10.741482229783 11.1490960400291 0
-176.5163887114 25.7791273267598 18.8375632810849 0
-56.3270963873368 -7.96779382217521 -0.652155979623432 0
-63.486678183573 -10.7875721987439 -7.07378398686113 0
-145.874811771729 5.38782467762548 -7.21839658382903 0
-15.2549241047281 13.9144278304294 -7.60981830031252 0
-174.249282035044 -41.9839290169731 2.43459795734332 0
-186.147312332117 26.2548401836043 13.7993787590578 0
-186.334209555953 -26.2981804971265 -21.3988663921453 0
-183.943009785522 10.341597220499 0.852513933142911 0
-158.237880869967 8.42473109826572 -11.9991663800346 0
-150.384203077022 26.0672115985361 -6.00197131345483 0
-129.560565880202 23.5181374846082 2.75944516419433 0
-193.538973294448 -46.9149107790804 -7.54203053644608 0
-185.161723501861 -37.4775441593446 -19.2986292953842 0
-82.6532012870828 3.73651433234119 9.52401623579743 0
-190.809879116164 20.7284679702321 2.08665388011409 0
-0.656436287327593 11.4954821319872 -4.36814661389853 1
-180.614881342337 4.6639087917346 -10.0689934447274 0
-135.263566617588 23.9236671708523 0.61423821121346 0
-122.026848267436 -7.55629775260441 2.70864801875944 0
-46.2468851551943 9.5754392854395 3.02909003462591 0
-74.1469884316491 -2.70570567171363 -13.9863615677285 0
-181.769754182134 -14.9489499901126 11.8180127800735 0
-184.126034358813 -47.506192128838 -6.79560277073419 0
-184.824993542226 -44.0184218683547 11.6252304629839 0
-81.9169202344296 3.7908899253687 -14.7514270289678 0
-84.8805593711373 1.8594453905189 8.1199174155983 0
-145.02188650686 23.691605410453 -4.85136288938581 0
-166.049175853762 -10.6799936051327 10.3183913905079 0
-80.8863452379071 9.76450384500679 -14.3755379705965 0
-35.7685357471895 -4.23307294602899 2.01357286687325 0
-73.6677434637556 10.3253394502242 10.3495915150314 0
-62.3547199110578 -9.2996166012253 -10.6805205112392 0
-169.211891642345 14.1081731604928 23.0971796924752 0
-176.80647907912 14.4661192837126 20.2743238163981 0
-95.3813059208786 4.45771693063688 10.7226176204246 0
-147.775613212149 5.950391587053 24.2878117994763 0
-163.111631614443 33.1460723603364 -7.8514308274621 0
-187.969478621833 -17.8990239193224 -18.8933135926199 0
-11.1250682799742 3.73994725157684 3.95637864728862 0
-38.8755667354729 15.1859223648802 -13.0185580851502 0
-166.798692131529 10.5826804276175 -14.4841706460896 0
-153.722024217942 29.8131098559959 -5.21124023554601 0
-123.858764052409 20.3162166419231 14.4838638961102 0
-189.919172978509 21.6804547734671 13.8442346990729 0
-153.323647120874 31.7293184757588 10.2153752842082 0
-151.475657522847 -4.93349540224527 26.2443013956062 0
-133.007714109807 -9.16564473869858 -1.48361961505472 0
-146.253675752561 -9.88768248963243 7.07997948942559 0
-119.388160903313 15.8476335157093 14.3839751754392 0
-67.1679238587291 16.8327177892245 -9.45699257173828 0
-121.690007809771 11.4034540481841 -9.33629031699913 0
-161.863436360658 8.50633432018689 -13.1365874064399 0
-153.894782631462 34.9710513885868 -3.13955388864867 0
-172.359890900771 -2.64475361149895 -9.60513042026897 0
-174.484179391825 33.5612146392743 9.51512942464207 0
-24.4444396725181 -4.52812325723285 1.84190223116216 0
-118.655829376515 20.7034076999781 12.1943906551834 0
-36.2588647844653 -12.0077241331206 -9.36053934908441 0
-74.064163512502 -8.97838307239285 -1.32944135114014 0
-137.278593183728 23.7951801883529 12.9993938816863 0
-34.854057780053 -6.05436070755654 0.319549365695132 0
-74.2775804943691 12.1482892701115 8.93886747307251 0
-90.3293330914195 8.6793690610965 -13.4188723499725 0
-27.5727321277846 -0.917161181590513 6.24688514011084 0
-117.658642951796 14.8796514023864 13.8867983788469 0
-24.1203624229505 15.0458728521952 -11.1231372905974 0
-189.780240846416 -6.75858947985959 -5.54219588157592 0
-147.646218468288 -8.81652550992953 13.4209342312066 0
-41.9229699863107 10.8941461870077 -17.1208701443131 0
-69.7902009901342 4.23998653826401 8.61527615765207 0
-170.950470796169 32.9150266456657 -7.66536742245258 0
-191.717101368461 -15.1209296772159 -16.7917618869648 0
-154.185531197704 26.5660432970901 -9.44205139164339 0
-187.081094690732 15.27004687821 10.7568300151106 0
-152.52071410189 -11.2789316321113 -5.78355852532519 0
-25.6625930990969 13.7495382044007 -5.60877960609893 0
-76.1066163098347 -2.20536289322726 4.68345187237667 0
-100.543797939375 -2.34653895959462 -9.96285384586896 0
-169.075820230375 -15.4093701923584 9.06384745790774 0
-164.705907883605 -19.2547693868033 4.31748907203626 0
-179.177986214374 -45.5775275744207 4.23584055536401 0
-164.779812022177 15.6049564749033 23.1825812515466 0
-172.917562604217 26.1828153665254 18.5590960310736 0
-141.198715346909 -11.1410498918602 -2.43085440148718 0
-158.808105148791 7.12608010922533 23.4269028141071 0
-154.2491552308 22.8843807216393 16.345875596778 0
-101.919449544651 20.0929307367568 -0.0876107385852956 0
-186.1132925243 13.0194015779191 -5.66745839941374 0
-173.657751615845 -41.7184645702266 -0.224098479848082 0
-185.451247653411 -0.0138457764989474 -0.34880287568691 0
-139.414969400343 -9.31224539315927 2.67023998821763 0
-141.052520672493 7.34251186406643 21.5159420028396 0
-178.924505607954 -40.885512434375 11.6281046292844 0
-175.55377087268 11.0211211803053 6.5513068901456 0
-160.686575393619 32.344427233329 7.18647509609973 0
-123.381091365105 -1.69642447055726 10.8621467568924 0
-79.1651315107623 13.0371690071153 9.38185675048044 0
-63.6098915183755 -4.88343165730011 1.94393145061307 0
-189.292244532534 -46.5377729311971 -10.2542729786173 0
-173.3429108976 -37.865405352784 7.32571870130118 0
-78.8084971821745 -8.85863480400749 -1.65990115582098 0
-179.184614511362 -29.8184497580156 15.4342164448104 0
-67.4235888403234 7.34910201357684 -16.2047865377879 0
-198.890578614491 -39.8934355762277 -15.1954235487729 0
-33.7849389510391 -2.30487377109591 -18.1517234272227 0
-148.0072158679 6.82846589437735 -7.397542900405 0
-179.975225031712 14.1756894725518 -15.2026955771512 0
-173.140733880907 10.2537133411712 12.4269823761046 0
-73.1470200955756 11.7970110577171 -14.6333833148997 0
-133.226700601288 24.1862442494922 2.87130054359735 0
-111.41133765952 15.5812947418552 -8.75181765968135 0
-146.2536565819 -1.21323677827869 -8.74827283109053 0
-186.988034949764 -15.6344656217513 14.0093685102589 0
-165.781241267663 -4.00974262890788 -7.79465892398353 0
-62.1870587740102 15.7673207053093 -0.743820005484765 0
-180.111665436812 -21.1420638063361 -18.0495016069668 0
-130.914956829854 -6.87155058423824 -6.05566819768044 0
-106.020148328682 19.8964262443413 -1.53283367861212 0
-154.103583865887 35.0505911353701 1.09709027907737 0
-92.2838831784587 12.2173247623255 12.6642535740496 0
-130.434822432001 14.5568205077658 -8.10926314491098 0
-144.772430757871 1.72421083435941 26.0449280252552 0
-159.815914024991 34.2937557986785 5.41563288991454 0
-176.958336248546 22.123626598198 -11.4488167087089 0
-193.965437109312 -42.5968648238549 12.3049571658646 0
-6.68242505060731 3.3900543920421 -19.4237849692102 0
-155.785226737581 -11.6844850301383 -6.4210686635014 0
-187.60492189276 -3.62260078021649 -3.27094927346541 0
-59.4353011782423 12.9156507981999 2.79242952209503 0
-49.100812849897 -0.765840749128453 5.10536361170037 0
-205.201178923633 -40.8986475723015 -2.46937696331876 0
-183.314179754963 -12.3479816215052 11.026603090398 0
-180.871435740427 16.6351221282668 19.9822372417269 0
-68.6340676326022 11.5105812867991 7.66298852296485 0
-87.8281536806334 9.91374866679957 -13.5674028608912 0
-165.33265399396 10.277835832634 22.8332796392297 0
-184.178691614249 -8.09948785213631 9.46435830351085 0
-181.208097991138 15.3364198875698 9.8332602389258 0
-26.2679649671244 -3.92300009623069 2.3399577542934 0
-153.733271460607 32.0277384780912 8.50963920253646 0
-165.919663448967 35.8367460500936 -1.49115305527698 0
-125.453284785367 13.8180404351196 14.5560318675685 0
-163.778878605021 -4.82417799459407 -7.20812843263816 0
-55.5187523187759 4.66642745144705 8.6243818764773 0
-128.511305148132 17.3378903483789 14.9172509938825 0
-68.864721897827 -8.49156304831966 -10.4842014491248 0
-18.6205654830144 0.573055819218721 5.99641765264846 0
-122.41378909246 1.41936158180669 13.7495306179664 0
-120.415947710411 2.04601660998252 13.5768148310256 0
-150.284819228949 19.8678876189369 -7.6039203832757 0
-94.0836915672032 9.74903737451101 11.8557851810216 0
-60.7010496735912 4.98247015430594 -17.0316040965107 0
-182.569524498306 -45.9904731902337 -9.61623487686979 0
-108.083554557378 6.79149949916618 12.7268902371346 0
-186.193162960424 13.7502521882828 -8.12007540142541 0
-184.88373619734 -13.5804350623328 11.9015915499869 0
-28.6802961156482 13.9317011757709 -5.47596722717553 0
-65.2424043057569 -9.58526840414926 -2.3241005880807 0
-197.142710404104 -46.9959577882141 -4.66645282229117 0
-175.762337711358 21.572426279221 20.9503676294256 0
-203.659292500451 -38.4924900078339 8.63105081031541 0
-179.506900593044 -44.3647040854973 7.56242513235709 0
-190.004064146642 -8.21412903100268 -2.84534041864174 0
-166.429463933233 -6.883921184354 -7.10871070506899 0
-51.9111408828217 3.41460107870725 8.00598335949643 0
-78.3353416541434 10.1585730847274 11.0190890889025 0
-166.339643861024 21.2246004413958 -11.9807908294871 0
-65.6901522688425 3.21935243110182 8.04446564560196 0
-178.430753610189 18.3693087319077 20.8675297415674 0
-167.691887274363 28.7948517911792 16.2123628475178 0
-181.035084277124 1.38213095105004 6.78575471537699 0
-156.387308379654 20.2766989407272 19.0097356990617 0
-148.295528122841 -1.52778642957809 -8.72130379558614 0
-91.0706798805578 -5.31863052367356 3.56841589998354 0
-184.896878471588 -32.5421695515076 -20.9643378386572 0
-179.296926732617 -22.556471232142 -18.0010834417348 0
-101.173887919345 4.93108846634802 11.397118188211 0
-22.740511625683 -1.35486210424135 5.8956058502718 0
-202.951768609403 -14.275529798276 -5.68436251956074 0
-33.9135741583204 15.5602159588337 -11.4124059405061 0
-131.764006687616 4.19793363403243 -7.37202730364944 0
-119.915705275053 11.9817061883169 14.0302143065414 0
-65.4094283765418 -3.49206122613403 3.07441407996261 0
-39.1609645420565 -5.8515352380715 -15.5089130184797 0
-163.116958840646 -7.87949941390831 11.7384960051056 0
-136.628420681108 13.5629005774469 -7.55953307810437 0
-172.780986273113 33.1872331771033 -5.14038335237334 0
-157.746512714745 15.6451358038899 21.7375106584237 0
-175.233294881306 -27.2316306651251 -15.0295531433945 0
-155.114894023724 30.319596507602 -8.89030008628547 0
-9.39617611300585 6.75422878214197 -19.1246149308118 0
-182.032187286907 14.1232232288781 6.3108324941186 0
-171.13675534838 -25.4426482441249 -5.62877168449246 0
-184.469159657414 9.24841019451924 -2.86113413863592 0
-96.0040115847738 -8.63952920394916 -3.281136967492 0
-187.323441080554 16.9145917349637 3.89758612243923 0
-3.70751166661236 -12.3265072956653 -6.24718879421192 1
-145.942139110447 -11.8305593649151 -2.00117767861821 0
-61.4132949146574 -9.53228879678958 -2.32178693091804 0
