-172.706983730574 6.86363801014708 6.57193206854986 0
-170.333324077943 8.55131893213349 18.8168469065226 0
-181.499197007607 4.25544644208867 -1.31273110881941 0
-183.186021534971 -2.29322832161363 -0.596009298772332 0
12.1381620127722 6.48371968591994 -1.83241224525532 0
-59.8085243313464 -3.41597913648556 -15.6711663691237 0
-124.457991683876 -8.30777022987595 -3.97904847447668 0
-140.894400504836 16.5276714899846 -7.30165377839402 0
-98.3251539921125 19.2163396626108 2.524991686953 0
-67.402656607687 4.41190271170678 8.1805578862753 0
17.562778033054 -9.75817006994358 -8.68005159565615 0
68.5616069141476 12.213112471005 -13.8990996333877 0
-157.20162390794 35.0189643454161 4.91247730997971 0
-160.422918232459 -5.75184458031327 -10.8132412058077 0
-169.761150084667 12.5457784640758 21.6823802684181 0
-189.370847131487 17.5068079120556 11.2523706780915 0
38.6657699617277 3.70333255894903 1.38554233296018 0
-189.30867176586 -42.2782639875336 8.77889885994746 0
-201.654569108546 -24.8041017356916 -16.2373858899133 0
-120.720657403348 -1.9790164280972 -8.24457540218163 0
-197.177678087619 -14.5091204309427 -16.2948682743224 0
-190.562531176782 -37.4579529623877 -19.718678498237 0
-166.56309994179 -13.4114119266063 9.39049583292066 0
-30.0013830600994 14.4696293431096 -10.6364640544495 0
-178.260925062605 11.7700209172559 2.97865842532467 0
-186.611403447074 -43.453872119616 8.26920711683411 0
-69.9156829617503 4.80589964769476 -16.5146949392369 0
-147.797814519458 23.1087950367073 16.8000597292075 0
-200.386133058767 -26.4919433673033 -17.5647303515809 0
-183.711855405145 -45.8173997532523 -9.6666059430704 0
-107.411517914331 2.58980527726708 -11.0697326241978 0
-49.7560316806473 13.2235660475092 1.42217010589132 0
-112.116978389086 2.63099007540598 14.7741554039814 0
-141.60648212401 -5.78287748689732 18.2722591511538 0
-64.2479671945352 14.5087062497423 4.40731346426967 0
-38.9078696667524 9.78973142003718 2.07542076176912 0
-184.589643079337 -3.24347897396819 -3.4389796041724 0
-140.234353779998 25.9236933344994 4.79269310359981 0
21.238730536804 2.97077699983221 2.98728212628641 0
-178.244311991926 -39.7830776773588 -16.6767686094095 0
-153.465841109534 -0.53133725148288 17.128118341861 0
-48.7980359496792 2.15349283383683 6.63041285743855 0
-155.792926012907 11.8802298670455 -9.95864150851345 0
-158.602228511366 -11.1557884135593 9.51467328408532 0
-189.115434912939 18.9075725829513 9.54237460418401 0
-140.420089341042 -12.1327951007077 11.0788041747196 0
-177.392320886686 11.3742564919637 -11.381689041669 0
-183.546290794161 15.1675317166634 8.08212866869425 0
50.0242570444441 -12.1003053974344 -12.0358180105515 0
-171.027354616893 -25.9435895521317 7.89659889321554 0
-179.802523357798 -10.7634215586847 10.7817914312009 0
77.0729199677287 -6.12102539100929 -2.34245922204917 0
-177.681760671573 31.0346513049998 1.9379921097097 0
-5.57430746047364 -4.763101904142 -0.521926597848026 0
17.7074149005562 10.430320817193 -6.32266591465921 0
-168.243679665733 -26.5186286484495 3.73939901702408 0
-121.823558534047 -10.6189204476328 2.96081832552477 0
-148.505488694295 -1.97592337000405 17.303928074194 0
-157.423798680212 13.3175828436788 -10.1535440767785 0
-199.305207745278 -32.7821077166782 10.2454290063725 0
-156.190524830204 -19.2277406403173 -4.43927506836608 0
-143.187733830833 -8.6607411340025 13.5396875173012 0
13.2532518611426 -8.65065326531184 -18.954994206165 0
-57.1393372673027 1.18847486718916 7.34534089899919 0
-182.141407932371 -1.0647405829299 -8.51462995404789 0
-146.534989331401 -1.07304512347188 -10.1634525401361 0
-163.808853469695 15.9322651974999 -11.4717745617192 0
-180.931042000775 14.7058557451906 3.66095828876762 0
54.2870674766293 12.0222735385255 -14.062814243395 0
-187.297659167182 -6.53636614277045 -5.04369328062241 0
-183.20114362552 7.50685421049798 16.8706568272747 0
37.5578024752343 -6.37176656817713 -3.39144295576381 0
-178.317373794521 -8.52180709618966 -15.3300286286752 0
-25.6992214193691 -8.54616462198902 -14.5126050959843 0
-148.491404484585 26.8991628165445 10.9771204206262 0
-110.322685937294 -0.0882324073877801 14.350879168323 0
-47.0951911362409 15.2368070450249 -6.89988953988142 0
-128.100948364285 15.5510689177395 17.4938152462631 0
38.4152203296583 -2.58482148910435 2.63801954570555 0
-56.4680562702224 2.85606522484345 7.32247327243216 0
-150.320094690224 19.2665543558295 19.936169485758 0
-170.596290346985 13.630375031807 21.9686577881292 0
-155.485001403561 1.06210142450767 19.3754808708166 0
-31.2849266142196 7.45386716854285 2.16759943169262 0
-151.651340501022 2.95433089217321 21.6067281519456 0
-202.705014353458 -17.051430134032 4.81531777811734 0
21.6615869685861 1.93464029110103 -22.9181822750361 0
-166.516342226006 -16.1898320632368 -11.8208190560932 0
-32.8384231670807 -6.1457482170559 -2.27524328644054 0
-130.077192133071 4.93661140923991 18.8490173656879 0
-171.369935342622 -39.9696824745173 -8.35933934833705 0
52.4291870353048 -11.8507567829733 -10.7043373448339 0
39.6790968343143 6.10616039168449 -1.5061531478493 0
-191.331893780492 -45.3044023011477 -6.60060429860069 0
-147.445395991408 27.587231137602 8.82644595836039 0
64.0380001945598 2.900995111385 3.26578360685271 0
-112.759835053302 19.8945745235013 0.770920599846148 0
-179.265795109161 -3.99988194519421 6.2381492849419 0
-173.173913891236 -16.4014586352025 -14.9789001921728 0
-163.952949075075 5.28946882666456 20.3206581821444 0
-191.209688470126 -44.8436064515178 -9.65433938738696 0
-180.913381986989 -0.840529822120708 2.78585091828141 0
-171.585926559399 -27.9235948738759 8.17829709728619 0
-158.864859395492 0.527414022576409 14.8747152611913 0
-178.12586886263 31.6757653699989 -2.90013449995856 0
-177.072252923167 24.8725751150054 19.4865852466832 0
-185.920646942263 22.4608591167791 14.1710446403378 0
79.0424073590594 -5.11413278502234 -1.23409174688385 0
-164.170024818956 31.0938798181818 -3.62648862475606 0
-38.9677938343548 -1.06690096764569 5.1736753712845 0
-78.3227053156125 6.37268663348126 -15.0504672515912 0
-172.95972296911 -32.4949371490675 -18.3224241513942 0
-164.293345080814 -22.9589895976089 3.56599117120567 0
-41.5979531302447 1.30980333807236 5.94414039323656 0
-130.459818558135 -17.04240826529 8.63890493889876 0
-148.092751323814 3.78848838230208 21.8871562364876 0
-114.969783050065 -9.98049035359742 2.84851563857676 0
-182.882159259355 27.7455871117057 11.6465390592181 0
-133.847722504131 13.6097180008499 18.596743409109 0
-194.160335802855 -11.3047638382083 -15.2325150633689 0
-195.444930147318 -37.3780607063674 -17.3159333838088 0
-167.83338363038 -35.5332439121493 -0.902344999803912 0
-162.48950207678 3.20870130758448 16.5398982899263 0
-73.5374347392557 2.40637795024417 8.60819487457859 0
-204.967777974437 -19.1688009741481 -7.22125778937337 0
23.501181791803 11.0333275319896 -7.53059505573618 0
38.5106412372917 -10.0403169191211 -8.31995670914361 0
-98.0130102837135 -0.992744191761734 10.423757796271 0
-205.561829845496 -20.7294567275557 -5.74233480412905 0
-115.940155319685 2.70510104247435 15.5334885067765 0
-40.5774978294245 -4.52355853237026 0.967467686536482 0
-119.149630915906 5.69815867986239 15.7127662329911 0
-70.7338733800633 16.1694405444946 -6.78372030224701 0
69.9433310908429 -7.9245160898678 -20.8475810556706 0
-74.0895928112434 1.00374412860011 -15.8216813366032 0
-184.568023323128 -4.14174215017228 -7.06654065383901 0
-131.051478931212 -11.1384193170773 21.8524281277057 0
3.92548075543442 3.01747846324141 -22.3572554664328 0
-164.769226827998 34.1300876805688 7.57930448144726 0
-65.5953822724025 16.332024231079 -5.22245318362873 0
-68.687803824903 -6.05592161083237 1.10311039804586 0
-173.766601633073 17.0876009606689 -13.7546143840562 0
-21.19084272117 10.0063588450174 -2.23304119755555 0
-155.664705783594 28.0048012794316 -6.5110485380048 0
-174.310888437972 -40.4860753427991 -12.5741171251357 0
-133.813387747978 6.6079959037364 19.5163467371029 0
-167.916449258613 9.66787382958488 12.3572903603863 0
-170.019607017634 -24.8355965329175 7.31942597836083 0
-66.6759470811375 -6.99711040874648 -7.62036750832314 0
-128.779712651246 -18.6632203018085 9.21428460761243 0
18.1114452549568 11.9415072480383 -10.0084820515508 0
-177.687783421297 6.11658405977441 2.82689967175218 0
-139.72825923748 -11.600956868756 -2.57700365622005 0
-187.214975374652 16.0470292658371 10.1216447476667 0
-178.592642152932 -44.8809689140894 -8.14662859354973 0
34.5671496048185 -0.114371757289678 3.86997277839782 0
-188.464230588263 -21.630771018437 -23.4256438630901 0
-183.066688366772 27.5957353000537 5.63147955713671 0
-186.784266404159 26.5604168628132 6.74768845924158 0
40.9501028488285 -1.06936003183354 -22.8884694909579 0
66.6866614120783 8.22270586153241 -2.25960171574342 0
-23.286988898989 -8.88078124689664 -8.75039049693001 0
-173.674851378481 28.8054405521444 -5.08015963287877 0
-23.4938244541848 6.04462749751726 -20.2897674024761 0
-127.503082101569 -17.8042423426839 8.74622248166607 0
-61.6331860390705 15.895845085003 -6.50288311226511 0
-93.7133123941117 18.4402553426967 5.76542307471622 0
-10.0629474932547 -7.48665441922739 -18.6166700232567 0
-12.0844183787504 1.31674399778329 -21.8474879170353 0
-156.013975253391 25.6653342079766 -7.02383775633215 0
80.6651000956406 -3.31520189607452 0.394990965836691 1
-164.300914516327 35.0280924019425 1.80386284995061 0
-170.001433461442 -31.8290560010011 9.49751362693385 0
-200.660759393278 -13.4268399796317 4.18816475060964 0
71.9886950177272 -3.00813596966496 0.947758714793564 0
-164.974280538717 4.69987632633321 12.7407308404256 0
-177.178406787389 11.6785197917337 4.25569679233404 0
-168.895010868499 9.39792245387367 14.5498367871203 0
-189.357346407026 22.4790966655792 3.46241415373149 0
17.0601613654679 12.2669251274647 -11.6446153043941 0
-58.8857922298258 14.75085988509 1.86001982150461 0
-174.065944907743 -9.46645125528626 10.2755603799881 0
-149.182363035137 29.6635705165592 1.09778685459138 0
-201.426181423617 -12.608754558007 -6.50916453556532 0
46.6247985484079 10.8781556303051 -6.83775195845707 0
-181.91100230607 29.947043643965 1.00352304035277 0
-145.014262008447 1.78897106862445 -9.72971253320706 0
-169.060871046462 -35.0936185080448 4.95778337280162 0
-80.5294968328988 6.03293184439224 -14.8362062331425 0
-177.366295345598 2.97614956113182 -11.1998673678493 0
-160.794346222163 29.406558808195 14.1483138226508 0
-197.744685711564 -39.9353829331442 -12.8571789425025 0
79.3291030229987 0.312004041769108 -23.8232093060053 0
-157.027650308649 12.1179564387439 22.8621847531539 0
-163.69320994188 -11.7757101045836 9.28519783750012 0
-83.0261917714727 5.19894171283091 -14.6355866188789 0
-167.56395244518 -23.3527325509711 5.867417945934 0
-39.1709800624804 -5.5492406863712 -0.935209107366217 0
-93.4450514878959 14.3482248933727 -9.21981892645998 0
-34.8479240380171 1.3377402267093 5.27481334559342 0
-79.0905619726762 14.8341751950393 -9.11214763270044 0
-158.398245912637 -0.189758757030864 13.7279687208378 0
-191.574443531735 -42.5018172121328 0.77010898640483 0
-127.863708521129 20.3027812780384 12.1158898853377 0
-164.077395855246 33.3594912758254 8.99866211525608 0
-79.9167911594229 11.1432567305808 -13.0461574138072 0
41.4722683505796 -8.78295281105654 -6.39964863445604 0
-160.922994933996 -20.9323175946498 -5.38232089824196 0
-155.758848565923 27.3548212580518 15.0506732772236 0
-152.594467048752 30.9742448375079 -1.82887727626916 0
-168.190162852955 12.0854830720213 21.9102819090252 0
-175.717039420644 -34.4985328528652 12.6216704490175 0
-171.285374090816 10.3275942815924 7.87772516039564 0
-185.290484537927 25.0257255494382 11.3644354862733 0
-41.347313080912 4.9047368940778 -19.5391719207738 0
-181.773802586325 -45.1476227891664 -10.3771700390085 0
-171.219328428839 6.80284178505298 8.03659415288959 0
-44.1161758369965 8.37613956979193 -17.8551899912407 0
-191.57758915079 -42.7073485580129 3.20045876957342 0
41.7805528674661 9.03682712667964 -4.32901290080939 0
34.9521968822775 -3.80365343298829 1.16999868558448 0
-189.379181215715 -42.2586694926917 0.500168591750366 0
-161.754956090281 -16.9455849741857 6.84066961761576 0
-82.7398599368269 0.335614969732914 8.87996633491273 0
-75.4522777832881 9.72752798538861 9.60589432188437 0
-104.80428181098 -4.20550637157529 10.5047839692344 0
-8.14814968720981 1.14076352533396 5.17818528740999 0
-124.625432582356 -2.31382965439152 19.3958336220886 0
-6.33651397838006 7.02655011561774 -20.6670945269056 0
-52.572765243013 -2.1755165265703 -17.9403609563009 0
21.6185298413113 -1.42476262845454 -22.6332479526415 0
66.8489536396055 -3.14821756080028 -22.8950383056689 0
-145.786276606808 12.883456165047 -8.67384842128268 0
-164.936132480249 -22.0099816044944 4.7746062988628 0
42.6056269761856 -11.9030683152368 -14.6136385217329 0
35.3800432682686 -2.70174126526317 -22.4885325178655 0
-69.6254102677486 13.788371353168 6.2155434283001 0
75.4756804997487 12.4053443012512 -13.9735984327044 0
12.9371731659004 12.463907910879 -12.1286983791988 0
-41.9622510978576 -6.91225334359203 -3.49002166258183 0
-41.470041813216 9.32144350393453 3.11720768774147 0
10.1798803982042 -10.8177824190746 -14.218047871919 0
-23.4552858663953 3.62453161214575 -21.0106011001061 0
-203.25135719896 -36.5964042709076 -0.384951269495627 0
-140.160499933868 24.452400134731 10.2726942594145 0
-168.716015450722 6.13042606585089 16.6987983141275 0
-166.14815173248 13.5989313829347 22.7603531210423 0
33.5241065821526 9.29268522522424 -19.6351157610257 0
26.1054161809938 -11.2184107051028 -12.4124863638332 0
8.21633711452733 7.30074225772584 -2.43192768443634 0
-156.458471591861 -4.78321024085988 -9.92932486426148 0
-188.574658291627 -43.329367216882 1.75505413052965 0
-202.908894640024 -15.3948420302407 -8.67707284429106 0
47.4780944911025 -10.599271220326 -18.476981254381 0
-166.018730271148 10.9252193332835 -14.7096932288328 0
-3.01300452602266 -7.56465202662132 -4.80238702408769 0
-36.7636651434021 9.46048390100816 1.81524080717094 0
-204.887968811856 -33.0218081562818 -5.839319707993 0
-11.9263970771491 -2.75351871632832 2.45746850917142 0
-164.286947225718 -9.81588691454718 -14.0649161873717 0
48.1559710902912 -11.2500653550123 -9.84069477486222 0
-172.308196200926 32.7643975694444 -3.01396656780061 0
-173.298158860777 32.3523628829097 5.80015680817833 0
-22.5577447713018 -4.00698463196599 -20.3826604875774 0
-164.653729865091 -9.81915280207673 9.72371353132134 0
-157.786855402769 -15.954045120028 6.76924116263473 0
-14.8960484075833 4.67310402347917 2.57812867743444 0
-158.167704724447 35.1816017167073 3.91290060110503 0
-123.701968854643 -12.8515398564551 6.35893625907293 0
-167.640114976602 -32.756776712713 3.60327228388055 0
-96.5134328725052 -8.18082172451055 2.66606553864968 0
-172.626557572689 32.2871490218355 9.07474433048998 0
-146.496667167202 -16.5755196956897 0.843855558917659 0
-97.06060337788 1.34882278407406 11.0792074590407 0
-183.298920967941 -1.95140738194664 -7.17255317964901 0
26.8308123861854 0.818253452372148 -23.006604969968 0
-111.830543026091 -9.59237421590143 7.69705310311468 0
-109.526180204655 20.1770892930773 6.94203003438826 0
-173.066179153334 -35.1605660889617 -17.000480402201 0
-15.3964987075086 -0.54575501349989 4.71598310331844 0
-178.029383890474 2.17653849954545 4.11168189382079 0
-63.4013709682199 4.78128434388939 7.89397226295932 0
-105.065259402185 0.635986904441985 12.5310791008185 0
-131.230288356068 -7.64658996392352 20.9115589329561 0
-53.2338230949242 2.06776178525743 -18.8357471758296 0
-24.7567658363978 9.78367747555069 -18.2052983633286 0
54.276932503788 7.69722585446426 -21.2148125377707 0
-130.347744780142 -2.57216438891338 -7.99179413104868 0
-188.987052734926 -14.631643776944 -20.4097062784094 0
-124.022471286615 -18.4716162924864 13.7472911388572 0
-105.25578621869 11.4942083687789 -10.4139099060236 0
-196.742434108016 -31.3229075068271 13.0086388982975 0
-144.748840974005 3.05494074098215 -8.9874811997679 0
-39.9772241583067 11.5904972866214 0.407546243795445 0
-170.779460866524 -37.8672503991379 4.34816401450066 0
1.40955465711548 -9.54217871455701 -9.28937717999764 0
-202.031401338584 -12.9064702916176 -3.63663355479552 0
-168.816915699612 8.41265861173603 19.7498198549236 0
-175.690214426023 -2.68699437400826 7.90141510353127 0
-154.574033716835 1.96900622115204 -12.5909581865165 0
-122.691111735447 -16.2205854580541 17.2631577999934 0
-60.0269762194952 13.1850502772118 -12.9852046728663 0
-146.703012349202 26.3907524904064 10.4997973276555 0
-188.533876559894 12.9476342473119 15.3735333204166 0
-140.875778701183 1.18941487759674 20.8261973713229 0
-156.288148813792 -12.1152881946379 -8.75119435963462 0
-154.107066123764 16.6789686303414 21.7625173866697 0
-41.1680785724238 14.7323785569434 -11.2148635070328 0
-133.391012622181 -5.50663100275791 -8.68693623903777 0
14.6954900043088 -4.65028531412541 -21.5830549304526 0
-154.139274893311 5.5291730996767 22.7167141761288 0
-192.991092333939 -7.9492453748882 -2.30151518145249 0
-105.03046140696 5.54484596522575 12.8515943004873 0
-195.935782953364 -42.5471412360266 -10.6807041817392 0
-133.158825699493 -3.69272983061233 -8.80602033731737 0
-109.175347470482 -1.05479004831903 13.4917244335846 0
-136.225734051571 0.58335624342282 20.4325270243645 0
-205.928236144652 -21.5227134195387 -0.770869347654766 0
-11.0076822788984 10.2113523050479 -18.2183898356534 0
62.965191999977 7.64061851084244 -21.4636615136514 0
-163.614705708629 0.142016122402399 -11.676445123781 0
-171.726492069015 13.5057677040506 -15.1128744848713 0
-202.626544389023 -32.1854250228956 6.47806267045016 0
-12.5866077883662 2.43779552157574 5.04451428125206 0
-19.0135517053732 3.27647424549299 5.00433347560159 0
-42.1444315508433 13.2014481229001 -1.56175493445103 0
22.8079785894263 6.22572915543273 -1.73508795750708 0
-17.8358926093515 4.62868548532262 3.00573602252776 0
-164.259889331188 31.8344229263529 -2.3256123317456 0
-167.064085051352 7.86678367557264 11.3119894859726 0
-187.775016517701 -43.5426384478719 3.28361941721979 0
-170.796304762403 -3.67284143150789 9.63172880104303 0
12.7090263134021 -1.34372315052482 3.87426135154922 0
-84.9723012680744 17.6821052571606 -1.54635643645181 0
-107.740925232461 12.0653779512335 15.4479407667982 0
74.3195574953166 0.875408955276837 2.70640007457504 0
-65.7997707283216 16.5555222063218 -3.08207129280472 0
-181.156169483784 9.79211373050157 20.1288090930627 0
-166.30744390968 26.3450977435194 18.5050229412383 0
-181.882440318256 -34.7398684554123 -21.5940006467014 0
-141.700161600801 18.4318540445071 -6.82371434652775 0
-142.400920337245 -4.96362991511474 -10.0070893233713 0
-153.216950373122 32.6317328796393 0.158225175796399 0
-169.264743064476 3.40648001301075 9.06141519523512 0
-44.9395432398003 12.0062934844766 1.51936814355055 0
-161.488830426073 -22.0300696418806 -4.894156719398 0
-143.494416993181 23.2998442442106 13.8785749094942 0
-197.910722813693 -41.8740374205565 -9.04445104064275 0
-122.281183559802 8.51090503819907 16.4127730818187 0
-192.581841170706 -10.7745807583523 7.84777549112344 0
79.928175437662 12.802159186157 -8.04046077806654 1
-113.701871715245 -4.30560583621346 14.6863721937973 0
-186.906408484013 22.3753174150217 -5.19980860118991 0
-118.800923643308 21.2874226061131 5.01610089889745 0
-154.955200643571 -0.166304624118021 16.2164515885291 0
24.7127787767282 8.85241878013032 -20.094827445311 0
-54.5428461732539 -4.52303536495203 -15.496044308141 0
-186.094387775144 -7.32797409045692 -12.0056499824 0
12.3461377220129 -10.9103838196506 -12.966522016841 0
-5.42784880294398 -8.96715659172352 -7.84433463560701 0
-156.889788011923 32.8909574182698 9.31102241532139 0
-102.438345306278 -2.12507156721348 -9.33542057943925 0
83.1625661007945 8.68514471990835 -20.8787685079869 1
-163.757859049063 28.7040588900593 15.2367295526807 0
-162.330881549406 -7.03606208509218 -11.4959372049827 0
-93.9332448622986 15.1731515133463 9.94262828142481 0
-166.685941339436 -29.7648456148905 0.161499396822782 0
-175.087796457016 -23.2478303264107 12.9158714615761 0
-21.7863470816359 -1.59288011869441 4.44307581793146 0
-107.956061106769 17.1499215883697 -5.07397955868636 0
-183.810103360483 7.13952753032 18.9955552459999 0
51.7432940311542 -2.31907610078537 2.26142312448777 0
-159.803728912345 22.8273389649676 20.5079955145229 0
-176.553407973931 -8.57933166274147 -15.3797213746425 0
22.7314984082797 -11.0893790103759 -12.3362161672652 0
-175.539902666006 32.1819780639631 0.534841586569877 0
-115.043714660804 1.26853154714772 15.717647325755 0
50.2027401399475 11.0477051427751 -17.0776751230703 0
-157.214592888868 26.9164045295309 16.6854040080537 0
-135.810206300299 -6.2296157047392 19.7169873470612 0
-171.821984172366 11.994356617293 14.0368342380879 0
-190.183183441679 -18.9057516037357 -22.3062093880117 0
-145.960757525194 -4.15682053712415 -10.0139744295142 0
-6.71924958612358 -9.91382577128738 -13.4191444263492 0
-182.044986898389 -4.46306425819281 3.81257686433212 0
-132.624604672813 23.6537294387453 4.71102547894104 0
-122.027818596031 1.72214961620091 17.3332031835574 0
-22.8163022042463 5.31006182297325 2.78694468795582 0
-176.256606316063 -21.1792351797436 -21.1154136870022 0
-95.4274014228434 2.49756518467347 -12.7640671749129 0
61.7591164237272 -12.5826941090919 -11.4699093773074 0
52.8841642717239 4.71447133185108 0.376835865487794 0
-67.3808643334106 -6.12862978938841 -10.0186731796386 0
-33.2598063359312 -7.58593213717273 -15.1112761593529 0
-146.367700920057 3.39024249406232 21.6816029158966 0
-189.89185666848 -12.8114480016171 12.1048093185334 0
70.0652521967019 9.7048822683406 -19.3514098103055 0
-72.0676727182631 15.4988429339473 5.18117475362913 0
-79.4228814573664 3.69110378510185 -15.2988267101764 0
-191.202718747758 -34.9433538899 -21.0994420309779 0
-54.8388361927652 10.2403450691542 -15.8489401484845 0
-132.48353652581 1.71979057208179 19.9808976728575 0
-57.0964940771701 7.60442815459205 7.83917584451838 0
-201.610897945114 -29.1146231203119 -15.7130968823344 0
-31.7461449422117 3.00765646525633 -20.6391856227745 0
-66.9740546735895 -5.11736402617844 -12.1356745823242 0
-89.2911671211958 15.0618559629044 9.29170946011689 0
-132.853953257886 -9.9346653047182 -2.34718060830439 0
-192.478378657875 -44.5387571211854 -8.14103030144814 0
-137.39408453382 -14.7148798480739 3.00769105990679 0
30.0543138681233 -11.0592729955052 -16.0205280489698 0
-165.511275392077 20.2373646429695 -10.6570018315781 0
42.5151825478457 12.0491883288356 -13.6533866443166 0
-140.301379802456 -2.53798074416886 19.7404744197137 0
-138.888229727798 -3.22011130368485 -9.32964061885706 0
-44.6919334571413 -6.49928933187581 -2.41089033675112 0
-87.4576651102312 -0.676097486472353 -12.6603356394134 0
65.0554372768654 6.8613825412076 -22.0725790077089 0
-85.703615664746 15.2697768156089 -8.20232820747347 0
-97.8702205779921 9.80844321761002 -11.7549498843319 0
-114.727919280307 -7.19401085092202 -3.18505619648993 0
-32.4066724477415 -8.411062990176 -12.4770067288516 0
-144.445423244771 25.3227365064112 11.2269632576913 0
-145.953595666684 -5.80538098837812 -9.40363300414756 0
63.5389953249022 8.88981294204223 -3.25192709519008 0
-132.298352050109 6.41226635900233 -8.56124589400262 0
-164.655059649805 28.1333474531754 -6.062058309105 0
-153.874016222913 25.3141400779665 17.1715316333455 0
32.9974588660672 -2.84752473609128 2.54955414324539 0
-171.480248787592 -27.579181703117 -17.5109958121131 0
-80.3470946246697 -6.8331937779195 1.13386625796845 0
26.7195636540047 8.58309578345452 -4.11773766239734 0
-91.1498212208083 16.0003427819316 -7.00750569108801 0
-47.8005684377189 -4.08469386563517 2.08899597957815 0
-155.782414666924 8.97105386112267 -10.9443330946144 0
-178.659151833152 13.385866588182 6.07672579569533 0
-169.698194991082 20.8034298146958 -11.3470012424923 0
-163.124499794137 -21.0661152284722 4.62551054264924 0
-133.151382059545 -14.6620806269693 5.1764356518462 0
-132.703184749667 -17.8797894565348 12.6353006151701 0
-166.162504399804 -16.9811763975346 8.16210036450788 0
-74.4145320862838 16.9743289507756 2.83751483980273 0
-164.472728093881 -16.9290325193349 7.65052058639534 0
-115.306559799351 16.6395153411468 13.4402345209401 0
-119.61206546675 18.5204787725215 -3.88487912883918 0
-117.837030979408 14.1175558887256 15.8667987162077 0
-35.6938413477579 -1.47558695095554 -20.1684367156749 0
-133.675580290812 -13.7267317959759 2.47203709556525 0
35.0890004560437 -5.85410496481577 -21.4775116983419 0
-19.3646213332997 13.9647762576133 -12.2759465128537 0
-185.608188820261 26.5289794526578 6.60668576613322 0
-98.2321978902075 -8.98243894282957 3.23157830873555 0
-173.762750459692 -20.8196735972041 -15.9305159526393 0
32.9010170311546 -7.99073376428676 -20.4198501816289 0
-121.281543647949 -13.6074799416006 8.66168701786739 0
-187.928617396653 -8.21057061294393 -12.2709717840569 0
30.3185334659245 10.2683595389539 -6.22631131647534 0
-73.1549556536728 8.3736354967054 9.31611696813752 0
-52.0854187085414 15.3161987933885 -9.31834440135055 0
-128.284129127248 -14.8202691209887 22.1243727565528 0
-158.577506898526 -1.39264040939529 12.5363313693025 0
-182.033927152645 9.30382606733331 -4.12727106900702 0
-126.28627599832 -18.7377057534763 16.4610033636718 0
-95.4751982092537 14.5129162764775 10.4650743085463 0
50.3023978296901 -12.0717628733778 -15.3713791076401 0
-44.3420084135798 6.86091413075441 5.64983824887191 0
-31.2814978169563 9.78867696442377 0.0863507484107084 0
-137.079206543169 9.61627306582427 -8.76729855222277 0
-102.377814708578 7.04024114987902 -11.9389878109866 0
-176.352486832273 29.2305520750285 12.4809852791551 0
-45.1275307923504 14.8601710458064 -5.1151636620253 0
44.8338549091288 -11.4015413032332 -10.4183933801679 0
-174.305949018786 11.8952724019127 20.8614992522508 0
-97.076785613129 4.17169006804321 -12.7431610741233 0
37.8308549316617 10.3654315541909 -18.317619968037 0
-182.666494694873 11.4479202672995 20.2920204484815 0
-32.2728163188065 4.18739102590484 5.47542061318143 0
-0.606419652616293 -9.41250094471859 -16.9440107316468 0
-150.759125902238 3.20867231478712 -11.4326598732096 0
-168.406063361998 -30.9369265954705 3.8266535378418 0
-150.76012222913 30.7324706858134 1.13192830742774 0
-111.690946816659 0.633702375608065 14.9457484629017 0
-184.29211167636 -35.8545626847925 -21.337263343008 0
-70.4361257158208 16.4224840582252 3.02057889689615 0
-128.35316470706 2.8198056447593 18.7655529336416 0
-78.3696994079242 -1.83014647704083 -13.6402084885627 0
-31.7178576276004 -2.36184940790559 3.33382382184553 0
-167.604917014063 -30.1045686640583 -7.53193115871813 0
9.00952596438463 -7.2988913830139 -4.37256354706648 0
-160.884713844135 -10.5799362289043 -11.4660132624143 0
-137.242586966043 -6.10339324385864 -9.34068010207141 0
-197.49110824629 -35.0740526068676 -17.3246917778273 0
-131.268054649517 -13.3643327660077 2.78004990208132 0
-171.629877060295 -23.921898247179 -14.0088141333709 0
-128.733315893861 10.7195750174739 -9.08691923008926 0
-102.824894036607 -4.45900343456714 -6.56187037926171 0
34.9873448258179 8.97496513961624 -4.47033690722 0
16.3946384183552 -6.99810098528054 -20.5086571212652 0
-144.322290009926 -9.5438349012259 12.1210567983027 0
-160.963312082341 33.1984779070273 9.50285542500099 0
-96.02294484634 5.61444191501815 11.5864044777372 0
-136.104480782733 -15.0957894014859 6.04355097940708 0
25.6957422772361 -3.40948856408512 2.02016567229056 0
-57.3460345647218 7.01159536191762 -17.4418796609431 0
-75.9420138982713 2.50414465216465 -15.7912378565754 0
-189.393303739531 23.7313546495272 10.3506708065277 0
-169.617623289885 -13.0659739535393 -13.9021248940004 0
-85.1311116291908 0.943821992559439 9.30866224558269 0
7.32895136263255 -1.97400203465264 3.61093439288735 0
-177.354451291547 -19.724129063828 14.189606479185 0
45.1477271693015 4.26575121092534 0.564055042629623 0
-59.2332008388098 -7.18447082697471 -9.1532423298663 0
-178.177852993538 16.0175623792691 -12.2750555593564 0
-180.779317010491 14.4845558481568 -8.21870827164709 0
-162.193463762803 -11.8453495225257 -12.8142849110088 0
-105.759076889499 10.736103145608 14.8174411942924 0
-115.856160666563 17.9580441267399 -4.2612441711217 0
-160.840437725366 -12.24985390521 8.97178343218121 0
-118.88991744492 9.73708344781886 15.688064084647 0
-131.332388103074 -7.20505050999721 -7.91059401023881 0
-83.0845254452588 16.1223402925385 -6.74557208622129 0
-162.507432582182 -9.33408949437251 -12.4240499490838 0
5.7599705282486 1.21396180154894 5.05674104384704 0
4.36254770600203 -6.99350266774995 -20.0196185840975 0
-48.617242423233 0.128828328021964 -19.1436841517046 0
-181.493831545955 -0.144320280109148 1.05192885673045 0
-48.4020632084138 -0.480449048149344 6.00934489013421 0
-98.1769710230858 18.4670552098804 -0.882135744126605 0
-152.76824742806 21.757622751237 19.3913628364522 0
-181.89870262622 4.8615706512457 -3.38879385554679 0
-193.191671254729 -9.6837148642949 -14.2070224564435 0
-183.757736219887 -3.1175324120905 -1.77098952778917 0
-159.174298135673 -17.9843982258701 -8.83504413086519 0
-12.8173350952744 -1.33749292949269 -21.6601386772768 0
-129.786068964488 -2.38492461099323 20.6132265407506 0
63.3935158648007 12.3101429477818 -10.2074236922138 0
-183.864984846994 26.2505299744387 11.8838230212649 0
8.25794356467826 -3.41561590047854 1.9591566913614 0
-166.588887473173 -14.8300137804651 -13.3895645038939 0
-36.4193395110211 -3.07731205101967 2.56471984931228 0
-177.348731997681 -45.0444810395613 -3.31304892798575 0
45.2498553469227 11.1710772040125 -16.9417764089335 0
-168.215849726982 -30.5401319983146 -10.8124198956813 0
-168.296123917662 9.76250688911451 10.9044707362522 0
-171.715137922018 -29.8339367540027 10.2159342881408 0
-174.292566080196 -35.6019007556527 11.1575980812088 0
-202.879624508858 -15.0364000397723 1.15732834242642 0
-22.0997422451559 -7.7252414960024 -16.778111118484 0
36.2247536121002 -4.6142237484882 -0.858072799130153 0
-115.609237685049 -10.6010795920663 9.77284318357922 0
-196.441277498206 -8.9659371116616 2.19510424594997 0
-189.884856118463 -41.9909707381614 -15.9249754633298 0
48.9778489949754 -9.5404438316647 -7.21813340134028 0
-163.587530478815 1.64010794000347 11.3224980644 0
49.606294911473 3.04951808241161 3.72460231589739 0
-15.229278270648 13.23029900749 -14.4408952799106 0
9.53149409993485 4.8760260510445 -22.0624250233956 0
-171.041439373012 -6.31110670759546 -15.6938516015699 0
-98.5926994527019 -6.09435169458369 -4.05391754309359 0
-130.845292072084 22.4878981450984 0.550359204989082 0
-119.028415002445 -13.1141443075734 11.4093563242011 0
-172.326266051101 -28.7271087793169 9.49640747086055 0
-102.039492934216 14.2676881187167 12.5322946410347 0
-187.646695085 -18.1298749371383 16.0565346798824 0
-146.078381655157 9.69365345150842 21.7811070371938 0
-122.50971486857 -14.5699220038653 18.8672958610576 0
-114.738791174948 4.04163426939209 14.7387815989267 0
-154.956640925026 -18.812521323551 3.88937508686029 0
-162.677799379097 17.0430480761536 22.7662868933497 0
-135.606856455997 -14.4062407781178 13.7234339344417 0
-133.734023906515 -12.6102484597806 20.4326658763914 0
-97.4879199762676 -7.09727927955139 6.36066388470113 0
-203.41336351875 -14.9915968696608 -3.85452884420088 0
63.0757964014039 10.5820803549036 -5.27076633871838 0
-181.283322560448 22.5824631562482 -9.29835571505382 0
-172.827492002793 -23.1260258687516 -17.1702138872443 0
-100.178698049687 -9.3693496860034 2.80582883504682 0
-178.621960526801 21.8971941151873 21.1194337823424 0
-135.099455517553 3.03837831213094 20.2100733638394 0
-151.858595005189 -18.4297112054737 -1.42376142793578 0
-14.7946842235857 11.8209384285322 -5.94253199523447 0
-158.523286634353 21.5222590486042 20.9733240702417 0
-115.613964144586 -0.169128910088752 15.9566700578054 0
-120.5201557628 -3.41213642017813 18.228930431051 0
-57.137720535519 15.750475013771 -3.43807709723457 0
26.1153052242044 -5.12551605025745 -21.6248140865301 0
-96.1180768252243 18.9993129472773 1.56537960420043 0
-134.252596806711 -11.0114104145695 19.9567284533637 0
-170.671062469004 -35.2569635560112 7.61770878702043 0
-159.937738325824 7.74811328864167 -14.3175511094481 0
-132.992723923908 19.7495289435293 15.1003381734591 0
-97.8397408591034 -4.5284480496108 -7.08226280636154 0
-104.855020560834 19.3067757800046 0.600531931801904 0
-42.6967801848396 14.7750765104141 -5.83635277865583 0
-138.757708948763 1.07155172121151 20.6715598690021 0
-78.2627738818392 5.13516338961365 9.12105870851724 0
-134.35634472204 -9.81474623581449 -3.33311435227516 0
-178.172161070141 27.8742611954949 -6.31056237954486 0
-190.923014038386 -16.4033716195601 -21.1455992213965 0
45.9587679321121 11.7338652347278 -9.1228651170685 0
-184.863968036246 16.5123934031876 6.87026569914317 0
52.4997368112437 0.608387186657866 -23.2136222106723 0
-83.2878181066835 -1.54571000991006 8.3367644774106 0
-93.8430427601098 18.4862155158812 -0.450097164485135 0
-168.245110267335 8.47122718907606 9.95627791793262 0
13.1104649078119 -3.19686737719436 2.13970043060935 0
59.2453366527182 11.8924864812294 -8.58655247767849 0
-174.742941631615 11.4037153798591 6.53751024453716 0
82.6210041824635 -12.0197451134459 -17.6465803451943 1
-180.133140759037 -8.2023700160837 -15.2373013482254 0
-146.329893984844 24.8821531497373 -3.77204453823655 0
-172.179317761377 -39.401959322393 -11.3433372434518 0
-131.683205025296 1.65296110718521 -8.23688282158736 0
-53.0242122103893 13.4162576249096 2.23057262663323 0
-71.1670230028807 -7.03260198627342 -5.95252128280285 0
-170.867584713657 -38.3490014973805 -10.5476712234849 0
-202.95318646829 -27.4057676464626 7.86585290496577 0
-127.415132959531 -13.0742165296921 4.93860393975479 0
39.3835279546265 -4.63428074397558 -0.977166166306402 0
-85.6988083781396 -7.07698039344765 -2.55453086299297 0
-148.079141423948 -2.31080285884599 -9.59665470529511 0
-185.150713621988 27.3351125506703 -3.10152351188299 0
-24.6510809040356 -7.63784144808977 -5.15847207211645 0
1.84469968122435 7.90482558563076 -2.66215385771571 0
-70.593086420427 7.91505103222712 8.96187469825321 0
-205.103139100258 -21.0706522074559 -8.29153781709454 0
-146.358188747051 -9.91638188358209 -6.88549073449465 0
-145.407940752742 -16.2151220433511 2.8568220155133 0
63.9130265689938 11.8862872572196 -7.84249508915663 0
-37.5565968240465 11.9002860739612 -15.6759026081403 0
-196.037796439678 -14.0755775205342 10.6771370497034 0
-169.837095644183 33.8432863135863 3.93549986380287 0
-156.044312438696 0.929901368819146 -12.3717924252863 0
-50.8064600090559 -2.4956045310579 4.23032342428607 0
-165.250388558044 18.0269288720737 -11.074884484754 0
-9.48230737929204 -2.87836722973693 2.38131219125114 0
-178.652952436423 5.6985519204733 1.75375801589449 0
18.0177547813415 10.3777597889777 -18.4759731252803 0
-183.375152060393 -1.51494457094213 -2.18810101221959 0
-199.134057431509 -15.425904488759 8.60774525168388 0
-190.170198679947 23.0341004849315 9.21625410423481 0
-126.572563415792 18.6484409928948 13.8931783324217 0
-199.572596403096 -37.1518601448718 6.90826383825303 0
27.7727540446944 6.68239857833285 -2.19443224048688 0
-62.0017671202933 -3.89296142405474 -14.7556788846541 0
-177.22937690212 32.1238614226523 -1.87887229346932 0
-155.635203868009 31.2505293701219 -4.71466267041792 0
84.1894108325522 7.98643386590387 -0.578887365390793 1
-168.142345306331 -28.0779530714052 2.12217671936044 0
12.8919157856827 -10.3488004332237 -10.5495667749495 0
-120.32008876872 13.2514015841598 16.2156265910519 0
-140.375552673176 23.626598805597 11.9661530999354 0
-189.007537205805 20.6390305750863 5.09703848906186 0
-162.194388421022 -21.0061409966626 -6.43663618448017 0
-183.415502700499 15.6762268580471 6.96927620716999 0
-171.750932707335 -1.63593544941314 9.11948696989232 0
-120.354312264955 -8.43820704917634 19.3461315336908 0
-123.119434312817 -10.5972700717101 2.56510678419171 0
-167.421128365513 24.5661717188623 19.7983072423823 0
-17.713054782932 13.4185050599752 -13.9683608883897 0
-164.853996658105 12.3785804108183 -14.1255571255805 0
-141.639860302193 21.2257088427157 16.1374230825058 0
11.6202470255283 -4.19492177631285 0.222961928607511 0
34.7365863928648 5.71919878934857 -1.15402961414286 0
4.66291889559154 -4.69148636542836 -0.499261628159849 0
-41.8272177499924 -3.03321206029093 3.00596309134963 0
-170.277285425069 -10.827591614291 -14.9424572779562 0
-3.74894018882662 -9.6332570828662 -9.8446941676253 0
-200.993980212727 -40.0783677587895 -3.65564747133214 0
59.0793447728877 7.46529166233533 -21.4761662638071 0
-181.688330567868 1.29137928245679 -7.28663794451919 0
-173.244130955655 30.0155809055747 14.6904262552783 0
73.4251460803589 12.0853690821438 -6.99373421302353 0
84.5926156323988 2.28143666125318 2.76477733039786 1
-189.507392252448 18.8454189026806 11.2342849395803 0
-93.4317864044048 -6.89633274774796 -2.38597530737414 0
-96.9503130454492 13.107678359979 12.2007150118823 0
-8.5273224726957 8.54716140673271 -2.40327233411545 0
-102.360787391241 19.19500879556 0.818774886838534 0
-195.878022100314 -10.6344124117739 -13.1693367826978 0
-92.6322803499662 7.38391184178969 11.3661013229456 0
-55.8534596987504 -3.95875743054234 3.00910276003696 0
-174.766619878312 -22.1020005368657 -20.3276807297258 0
-115.43381379196 20.8923374847384 4.12169140395937 0
-73.6053183213731 11.130981665721 8.94392850588032 0
22.2486856191339 -8.78558374359551 -19.4139443593452 0
61.2387888314722 1.81599094135854 -23.4467893922517 0
-185.26859694994 25.9118313391955 8.21418416030648 0
-124.338677453528 -0.858521549254053 -8.57444912831664 0
-31.1179310712671 11.2413907415469 -1.79802990237508 0
-173.25484598336 -41.0254980646426 -10.1006151820213 0
-43.5337867239564 14.2383841980128 -3.52430116863199 0
-138.190046049239 6.51116563895508 -8.18699395109639 0
43.4410328492549 -7.49153221016708 -4.81583329153043 0
-184.668402650388 10.068648416524 20.3032598431772 0
-69.8331430644742 -2.30939576349045 -14.7858321891184 0
-139.816774141959 -14.5733278862957 7.86611867005462 0
-27.321291455575 14.3370099252405 -11.1212736711635 0
-167.135845670423 5.22274661395549 16.2327744974441 0
-176.962622685778 17.4423846214098 22.5678951038184 0
76.797710350612 3.9096502703527 3.54994490427512 0
-178.84019706059 30.7089813822513 -4.40552342199263 0
-103.660458745897 -2.1138112087563 11.2720408439748 0
-10.6129627770766 -1.79721745662779 3.9790530489717 0
-50.7527791767927 -4.4442349144104 1.86723740298033 0
-31.6469101102814 14.2396916588591 -7.13848433684589 0
-168.349418001263 -12.0948632582534 -14.722322843562 0
-201.43914824049 -15.0809500407386 4.88342189198931 0
17.0193886858566 12.1732233583311 -14.206926841903 0
-28.2917764298243 3.47864460876475 5.69463446683085 0
-111.060502874952 19.1439671208145 10.3638161980458 0
-161.226652108166 28.8735319859916 15.4376713839275 0
-138.869557899371 -1.56073056257368 -8.87435023649303 0
-58.7277772902667 -3.57440535597036 3.73287651950763 0
-99.356332649457 15.8796359800488 -7.14203220021356 0
-170.608696651956 -36.7133230010633 6.1468444113617 0
-174.464656157821 -43.1369049486576 -0.963411563789143 0
-29.0226486682341 4.57073234055406 4.6622413771174 0
-27.1176796699503 1.13214325704023 5.29736945121074 0
-140.995949879588 3.37202903968866 -7.96398461145445 0
-172.181848019038 11.2970897084385 7.51421840755174 0
-63.0288013564113 12.8040002347062 -13.0978696599567 0
-155.103355159415 -16.0148984035864 -6.44389034716819 0
57.752647087526 6.67793260225196 -1.47287610542283 0
-62.2103348797854 15.0477067525962 -9.58258289598366 0
42.5448924539053 -3.29075967604397 1.87160874101563 0
-93.0428581289437 9.27287752949499 11.8306781092002 0
-49.476404944086 -7.42638544968875 -4.34424460958669 0
-185.808266213423 8.50508223531224 19.2083970375498 0
-184.811808361491 24.9906896271793 13.0711409786524 0
-69.7379588099104 7.5194274961995 -15.8703076939491 0
-184.442337859567 -4.60139798650197 -1.11645422487367 0
9.11642615970093 12.2398574534094 -15.0338906566273 0
-158.071226356591 35.3057811901618 -1.1542412174152 0
-155.460798631519 32.5012927762114 -2.99867264957883 0
-126.794365466255 -18.4551263909175 10.147784513801 0
10.9843283317101 -0.0762248435494208 -22.6461595858407 0
-152.889048178693 32.8770486850072 5.6406126245712 0
-20.1071743778189 4.59456236436519 3.38650175164491 0
-50.7565826231423 -1.25197955111147 -18.5465085598793 0
-122.754542890988 -11.7310140510068 4.19313643133396 0
-117.087549074937 18.2786780464448 11.492252634166 0
-108.155328150661 1.39125948030708 13.5319723147851 0
-189.663897329974 -8.82121532373165 3.8705628280501 0
-174.783830882786 32.3804686537574 7.32785559320621 0
-153.019834151235 4.36686797820314 22.2403101263725 0
-169.982825068191 -26.0585697862854 -12.7631202523258 0
-141.471174976086 -13.3335115101031 -1.37585287066743 0
-168.802283722812 -36.884119260387 -7.67293573341544 0
-178.388523819039 11.7009081958902 20.5715036700931 0
-142.430886681864 -6.9764479998922 16.9923149940121 0
-172.988983649223 -14.1043147168427 10.8087953270416 0
-184.39269409099 10.6791566420107 13.8827666222817 0
-90.1045184883494 -6.07779527991153 -5.64363269088137 0
22.3518718864396 -3.21396717899085 2.37674757064997 0
-10.4154086230429 6.58822113429901 -20.7114694456558 0
-1.81791983273232 3.19244914584853 -22.1105486275392 0
-136.531657294732 -12.7353473298997 16.7244509420652 0
-84.2718581642247 -5.8935358500829 -7.03041090975018 0
-165.665786331849 -24.6341451394159 2.97930134848005 0
-172.661508605193 16.8531791099585 22.4690151010533 0
30.0100807182391 -10.4294449004889 -9.35087815274264 0
-94.9277991744739 -0.386367267659261 -11.5464171608517 0
-148.64882394186 -1.63491657998441 18.635787113517 0
-202.987679774067 -25.2971772068811 -14.2816969790901 0
-152.298405715552 31.6260481089213 0.724202736130391 0
15.7923356328327 7.18531099662077 -2.66316197531137 0
-26.7553589113117 -8.88850139285534 -10.4852224497835 0
-176.669175485945 -6.25456139293021 8.724516093802 0
39.6707379435517 11.351360738683 -16.5839446290581 0
-52.7938265674665 4.8605815779844 -18.5629761766795 0
-201.139129345424 -39.6501439734562 -6.14082539037897 0
79.1378019651182 -9.93768904754767 -19.5419367596411 0
-4.47492193772429 -0.327828524785034 4.62423763940616 0
-161.117959071395 7.45806702403361 22.5523231092346 0
-186.345221301954 -27.7815971711602 17.1287179955683 0
14.2256788656591 0.957134752343615 -22.7649145698862 0
-81.7818412592039 12.5934475619907 9.90553343103449 0
-181.6869441953 29.7346807790922 -2.03848419844506 0
-65.1578977703561 11.8317052945142 -13.9192087869613 0
-198.704030805861 -25.8616857602763 12.7612396795141 0
-171.212652462001 -32.422985965324 10.5173709412781 0
-86.6729941615094 -6.14475948651585 -5.9937983553312 0
-96.2833121027707 19.1430494771357 3.02993888945359 0
-11.052940782445 3.94972072720615 -21.6083962650824 0
-183.566919260555 -5.642062722322 3.22658882911764 0
-71.3895157480219 -6.60575993612066 -7.72192920464823 0
-179.780105360245 30.864225626822 -3.04422699743755 0
-122.919046564584 -8.1083029774682 -4.18327797644419 0
-150.093032765108 -2.0838989451875 -10.2973349582686 0
-59.6173929875589 7.1568431219763 -17.1748200018372 0
30.0442556052933 1.37706882144202 4.52944226250495 0
-156.693881104426 9.19297829158122 23.0925872316053 0
-141.385086458032 -15.1027628841447 6.35186254402419 0
-48.5950037176852 -4.65913387269444 -16.5371319631931 0
-173.834647120013 -29.4155764830208 9.81228965317376 0
-175.603284829563 13.2632116214176 8.99831343555326 0
-187.913129300787 -39.7995026768857 -18.5356403063567 0
-54.4160531826039 10.0725649146723 5.93025914709792 0
-175.000823057438 14.8244863373894 -14.4180133853822 0
-159.911841504983 -21.4410941027207 -4.97650714532542 0
-128.308926551271 -18.6353153284646 17.2252761416589 0
-118.503319274697 21.008230212536 2.31817282191916 0
36.6894409161257 6.7899800307306 -21.6786498008443 0
46.4942701213637 12.135910260594 -11.8161923649632 0
-130.333847607612 20.5206587813951 -2.87692671522451 0
-147.548128768449 24.5202729774272 14.0943607325337 0
69.4472717331338 -3.79436141133302 -22.8040576870118 0
67.5408171180474 11.6517318193165 -15.7132539467632 0
-175.384273868468 25.7341707858411 -6.36248687779657 0
-87.4696850304358 18.1135761112823 -0.478407604326874 0
-91.0388974698375 10.8593014178317 -12.0334522945381 0
-167.7376788291 -31.5116780077978 -8.67732449078504 0
-170.626989139138 26.4724704108248 18.9422743173131 0
-125.355671607627 -3.94558951407444 20.4171590986189 0
-96.6105714234613 9.45621583827974 12.2963839611824 0
-146.117229067827 -7.84276085790998 -8.06214850867019 0
-129.189874602375 0.966817830109816 -8.5287740315868 0
-158.772645159112 35.8441532563002 -0.128548718462927 0
-174.622760707365 -26.7411255091398 13.1002877569465 0
-78.2964867819035 1.10244748518155 8.84554047944944 0
-148.906997025365 -6.4315167921348 13.1684925517527 0
-25.9628792058782 1.82737167736096 -21.0940055882875 0
-127.757869994298 13.1714478686322 -8.38860087039526 0
-124.031464627159 -8.60891692244414 -2.60491438774174 0
-165.048943112984 -23.6432160388113 -6.90387102467489 0
-59.3938167481912 -6.0188893549629 -0.0491004044773338 0
-14.2006694589867 4.0091081835817 -21.4452560388239 0
29.7284965547074 8.3765110188295 -3.84084788186579 0
-176.22135339858 -8.2048578514775 9.51042770293945 0
-186.856039290352 -42.0389785852046 -16.604540094822 0
80.3455567340445 11.7618484795711 -5.35523023154376 1
81.2445367003263 5.38409624762694 1.96589750999996 1
-203.706880140261 -17.6344297503885 3.29469715612779 0
-146.140905013182 22.1582650251113 17.071672740297 0
38.1867152601028 9.66141956963303 -5.12906589872397 0
-172.321306405566 -18.8214705813042 -14.2756113444761 0
-128.631206126443 -13.675952851559 5.466169881801 0
-52.591482392657 10.6281151119557 5.34224534999987 0
-110.990344091612 -6.24365925291956 12.3111994000464 0
-167.319690924173 15.0863031700212 22.6055557953643 0
-8.26612211543512 -9.83444958265413 -11.3732730493398 0
-175.597812135439 31.5911056558294 2.6811942391348 0
-185.321612869501 -45.6662775422944 1.15715862134573 0
-90.9296505249116 2.20645611200085 -13.4344512093781 0
-178.583684892306 -12.527485771147 -16.606709968394 0
-29.0836076064183 12.0837497242525 -15.9595724205665 0
-163.771544891752 19.2910298503595 -10.1421746037866 0
-103.470864804825 -6.10466786011361 8.40760941793107 0
-144.599175735257 -3.29352583843022 -9.87918931238724 0
-5.51256183678829 -1.58463473045901 4.03561614271291 0
-189.268979803354 25.6108912762352 2.09000129318983 0
-10.398011444838 2.06109487927138 5.10272929688336 0
-128.612999597647 -1.631502265403 -8.07905741519007 0
32.8485890396957 -2.72379392180404 -22.4630972882352 0
46.2216081622548 -8.52378713551379 -6.06433818738557 0
3.21890420353687 -6.18233662589926 -2.63933786811206 0
56.0253895126636 -5.16891419757944 -1.6409849607939 0
-118.246826661615 16.7425691933759 13.9831652568768 0
-117.162271896796 0.939095636977244 16.2401099948716 0
-188.541854550084 26.7186564124879 5.21370598798833 0
73.454402856936 5.21969427723799 2.24282504612756 0
-50.5184521031577 10.3849128523687 4.98713752364076 0
-199.465886368727 -12.7129903167619 -11.7114370723831 0
-130.338111588491 -18.6203937260644 9.54467066239657 0
-151.481198801646 -15.4474682431436 6.70715364167108 0
-64.6254304544894 -0.758024614595643 -16.710604263784 0
-160.097891948812 35.4920895413101 -0.655283069120008 0
-64.8485208919296 -2.0196159050637 5.9126728208246 0
-176.024050064617 11.5253444449417 5.47983012805534 0
-142.73884467388 -11.855236969193 10.5411121015538 0
19.6175665268727 12.2691132458532 -12.5450023510738 0
-107.904448824058 -2.1824232453135 -8.79451441657095 0
30.6303597172699 -3.22160579579838 2.22533398699691 0
-109.296393635415 20.1043891000907 3.19261011616718 0
-171.393692012322 12.3999444470124 11.1750275802509 0
40.6928043593733 7.6956207560137 -3.07367090388454 0
-80.5682104629013 16.9779887326095 5.11673192223646 0
-193.297346985663 -42.5125906338546 4.66157777911247 0
-188.389307038081 -40.6727077316061 10.5678525586278 0
