166.613384820469 -20.0782699660521 -12.6077833320909 0
177.769294553326 13.4332506261218 -20.9982028129981 0
207.404098379837 -14.6933049416547 -28.4351843236994 0
-23.4711911043979 17.3521525545983 16.7684915514311 0
219.244348519061 -27.9183486367294 -5.61255478291936 0
190.398196656201 17.9703557655296 31.2279838503586 0
82.477893040761 -9.0153112797367 22.3914154818563 0
-11.020397085545 3.51465500466584 26.8872072750398 0
-5.50555728703815 4.69915027717001 -2.29656170636057 0
144.687116543871 18.4434616462032 -4.7961047037957 0
187.777754573758 25.7536760882063 -33.0505059461928 0
180.936456826683 34.1225475832622 4.6569883200497 0
198.317187078973 -8.77370379576796 -13.6206056642448 0
149.737227574506 18.9445694219641 11.7221097477896 0
162.632192506985 2.82822923253465 23.1686041119972 0
176.525142724635 4.99375804675063 24.418355644629 0
214.219920631569 -12.7612558063756 2.54067180421722 0
153.173493951892 -20.8359482120625 10.4466020319225 0
168.695639042156 -2.73298314220456 -10.5630372408833 0
-35.5960968306988 -3.28174323918604 0.100600515306204 0
78.2167832949029 11.2530642776823 22.0281860240651 0
164.739882944487 -22.8805149752451 11.3357080062959 0
187.058140477289 -6.17343620900397 21.223462598367 0
42.143993601003 11.3040558221913 24.008588155108 0
209.779938730456 -37.131663309692 -15.8626762311896 0
168.274040868145 8.11802745615531 25.3112152046406 0
171.281198210557 -14.1594406446657 -15.1041318456756 0
218.008125954627 -22.9052436915321 -17.0885352471851 0
210.812876612377 -28.3482064480397 8.05870279305659 0
209.215603360899 30.5181763820221 2.42750693277073 0
184.433917215559 11.2527381858088 -23.5043585329013 0
200.862429772292 -28.5824824125825 -38.7164267150854 0
195.633039673482 -13.232539508994 -28.0611688872616 0
30.6798147778111 -6.28442927121272 3.95597553673993 0
-21.8111329851186 9.49774486410341 2.65347705185829 0
-0.109627202432223 15.2890333270494 11.1149084198349 0
206.475103923098 15.879707840534 -23.8021818406033 0
111.690199235838 -12.836464854847 19.0963713293866 0
203.014881058666 24.8730877538766 -30.3080351806012 0
184.505420029276 29.8889066693575 13.8676480692734 0
198.282094663768 -39.4346459767355 -25.334959166303 0
117.825634774978 16.6845484540496 0.884713307993443 0
173.141411879794 27.5392210697926 10.8774376808008 0
181.8456713735 -2.41611290164657 20.7736129559872 0
216.810953022062 -16.0971100814259 -6.64741574751365 0
18.663183394728 -4.88490244924042 2.83757838133409 0
2.22884224588591 9.68066057201004 26.2931740506319 0
81.0322099422956 0.914957365306264 -2.9767692024629 0
-7.97326205335373 3.948066006995 -3.44932459201003 0
144.976322727846 20.5311148365283 2.61950054960079 0
206.728171477106 10.0863587117602 -18.0755816419992 0
175.066621681226 -35.1008314320842 -5.92253498376805 0
177.433676844341 18.0297457833859 28.1598337724868 0
155.480923804328 -17.9613278257267 -7.98205113944063 0
173.316713849395 -21.6212789494453 -15.9410315290196 0
116.870999430396 -14.3570937603802 17.5744135013049 0
141.458538229583 -13.2649920131084 -3.70690488716379 0
104.007993429615 -13.3495704706022 18.6479963073998 0
179.768331439108 -15.3665604516096 -26.2110213471623 0
175.944342681394 29.2620565310923 10.3227168385564 0
197.14474892612 11.7108838492315 27.5783050716956 0
208.493146637914 -16.1144854305312 16.371585658909 0
31.7894866536277 12.3686298802558 6.40552181713283 0
-28.1293477759371 13.9647409149283 23.3852804132388 0
179.576354850843 29.5511444958393 -28.3444961109239 0
198.490570514586 -40.9647114950613 -6.82394309694215 0
209.004526705513 -0.851305563258681 0.160804650213782 0
-27.4325167336544 0.240453675083321 26.1616158905067 0
211.704658555198 19.9713630435645 14.8773630591253 0
59.1661390820689 -13.2873498781203 17.0668421790179 0
216.180537980693 -21.0108057066997 3.90582072204201 0
25.7275083700797 -0.35447623902375 -4.08881663402114 0
21.6797650987575 13.8649808076797 8.83673820682563 0
-30.7429746731299 17.7644207092288 14.6116244021972 0
211.51194369309 -7.06866967752714 -3.56935954175223 0
193.954716303275 -1.25315015907167 -13.0387111689983 0
95.6464728895671 15.8158011024057 8.90976804578519 0
-13.7861837002714 -3.37421870913624 25.7494485549836 0
163.201783931328 -19.2429129185678 15.3876668272558 0
178.880341582552 27.6633347391112 15.9673244825917 0
-16.2801960856764 12.8375042083715 6.4570567463023 0
46.8563560015711 14.7898896763222 14.0799411314458 0
194.408313602229 -9.16718580470256 -16.4417023616582 0
210.475091556642 12.1985702835999 -11.8993245307405 0
119.744214237394 -10.1420335875646 -0.909655235530398 0
157.0234458156 -7.60195193935813 -8.09131633273174 0
166.853972582722 27.1593879697454 -9.81435106195422 0
-27.3852455799474 3.27596533820062 -4.80809405161256 0
-26.5399850189574 6.57238230190708 26.5338551944524 0
206.327712061778 21.1386821024789 22.6814046437722 0
186.425002970495 -12.5602655491208 21.7165142199656 0
42.8269890263928 -1.61570323142693 26.2821780336206 0
95.27281816797 13.8789907607369 0.403314808153516 0
202.813843548194 -7.22266241414428 -10.5921833288848 0
204.987035500894 19.0169824482586 -27.1596426502398 0
14.6561725605049 -2.49433701991228 26.2549879230939 0
194.809847203616 -33.6540906849305 -39.3005901460299 0
-25.2544917447534 -3.44735707749895 0.305732218329079 0
206.042937146623 30.6385232895619 3.27682041359415 0
147.889704382987 13.4977692185865 21.7117358770195 0
-2.72095159391371 -2.3141199152904 -2.80359591096386 0
179.858831931279 35.7725518191031 1.07148272476934 0
176.573146959146 27.2167449869176 -22.4497394571616 0
22.0617758111173 13.5608936428949 22.4317372418127 0
203.525879576699 39.6600170272466 -26.1067132446844 0
184.50181993673 39.6474312153139 -16.3748089297331 0
196.948121919916 13.1019080421733 -24.3154977767902 0
203.459661602398 -36.4349250545739 -36.2213018503343 0
-32.7190292771261 3.41242533500118 26.1947182982718 0
151.85302988276 8.91344906692033 24.4076057859638 0
82.7662022919555 0.670310000242129 26.4517180022575 0
185.096200609355 -31.0791040979681 -36.0411001996628 0
176.385519648795 5.67589132235375 -15.1487722288795 0
155.867498786648 -4.90066152042732 -7.75044107904111 0
211.738835897928 30.7661758496195 1.69720253124166 0
174.230596446745 3.05861137430561 23.3981713530985 0
205.355927989965 18.6089611147693 23.9159017264234 0
45.2979088679543 7.20028477985408 26.5003403587779 0
196.451406570191 31.1664060164882 9.46498873010483 0
210.753416730112 -14.1657698277566 12.5810686326271 0
191.330386062605 33.8801181889736 -31.9511924241649 0
57.044167551283 2.84667042593994 27.1410467717619 0
214.738159708696 -35.9327852202411 -26.360552757825 0
83.1004043692396 -3.89265432706162 24.9833342869172 0
53.2954108918116 14.2516613707361 17.5055887958818 0
129.80002314069 -13.7172283766555 -0.183520060852439 0
116.385413012879 -17.2273645777612 6.97541012931096 0
7.57452753677787 4.67140836775149 -2.10149915767928 0
52.4635450897301 -2.49860426323074 -1.767312001495 0
-7.42003944774571 15.8882248194514 11.4900683024977 0
183.562594243656 16.8496683231167 -29.7439992025431 0
189.28755885536 9.10316196732281 -20.3779029716618 0
213.22873286233 -17.4550021589448 10.4692062691965 0
203.632105005636 29.6639760555367 -29.8354253595953 0
194.504065680556 13.1338492819775 -25.0033531918448 0
76.8737664490129 0.00305096049220897 -2.7965164789205 0
-32.4637968814458 -3.12334255304762 24.8252652816984 0
180.649545895175 -34.7264230467042 -21.9637905572741 0
116.502672129906 -13.1074954123117 1.69233889276094 0
22.2678350575415 3.18505273419109 -4.61390804787653 0
202.796438789986 -10.8955943811888 -15.159610734169 0
168.56351310158 -17.7451777327564 -13.3920781706902 0
164.693307659862 18.5003241803076 -12.4364865678644 0
197.296107918034 -40.3561395103294 -14.5778711827117 0
207.223022795618 -25.4522060157182 -35.3354005226327 0
151.911609603091 22.3767785402848 0.983293109157549 0
201.089841995069 11.3209725431131 25.0661239067873 0
24.3944716522881 15.4404224653674 15.1559472868339 0
114.128712655755 16.9878682703616 6.2536076149019 0
197.500717417878 9.3374876833154 -18.9513809207227 0
211.737812893263 -32.9491483147202 -32.2319545534218 0
173.186952356087 17.8120518807387 -17.047570693495 0
25.8829988338244 2.3728217429288 27.1269687304135 0
199.998378425725 -11.6172383553362 -16.9093087658583 0
177.560066914941 -5.68798310430912 20.7174439962494 0
184.486101309146 -16.3246637809151 -31.631029820165 0
208.889888969449 -2.10773676119924 5.1440379586636 0
161.662177276699 -23.0431211388323 -8.15476416941769 0
204.228427536438 -32.8505349074875 2.69892932773183 0
-22.8611770119103 17.043505200976 12.7861328678686 0
179.471087228269 -12.5302531164494 20.7297293945075 0
208.464143341544 -37.4613897072164 -29.7345833295957 0
177.34629772493 34.4741259638421 -16.9803946884964 0
203.578009609855 -37.60639566591 -6.71381511961424 0
165.539503315803 27.0202755522142 -8.18243200728365 0
96.5369402947691 -11.9454263609605 3.0608846227118 0
104.275757044642 -16.6105297773441 12.4248566939247 0
207.749754954909 -1.9059817354207 -6.4123402879488 0
167.776201819103 -28.6237238069818 -3.512792399369 0
184.064243154218 32.6459314035519 8.89233327398878 0
74.2804802966175 -14.6592181421988 11.6886549724894 0
77.9277910931297 -13.8049884412871 7.92382099847612 0
186.537250861419 32.9161128414737 8.84921965730322 0
145.749477676296 16.2652884671004 17.4367562223896 0
35.9363978825442 -11.568866087085 19.116392273357 0
4.57656959115987 5.08803574147373 -1.45470960471991 0
209.336065364135 13.9883085729115 16.9582331376063 0
140.888948316699 -2.00461214818588 23.0403994779318 0
185.662300517868 -24.8884297839268 18.296025786441 0
209.969911737133 35.8653378843938 -6.29739066494402 0
130.717702068571 -18.5105824633502 8.72084786023331 0
180.930742541573 -9.20568803676844 21.2000744556542 0
208.782451922036 -28.3163773604449 8.76858739920966 0
209.195251655232 -1.81955453124229 3.34256930802507 0
175.761361478805 38.2587740145133 -9.09856802547882 0
-12.9060366478151 13.1835359469206 24.2722492292802 0
196.67626628639 -6.46537164531671 -12.3724014537171 0
168.780784212924 -10.8424017520461 19.7471345800366 0
193.562030462091 -8.51196060887985 21.5044525936919 0
211.507719567399 27.1489733370284 8.70861371170731 0
-33.5251167605463 -0.450693108120995 -3.92781885734595 0
185.012833386811 -41.6407324578484 -7.49664499254636 0
182.475598063382 -0.858245839381606 -16.5502672479993 0
215.036428330007 -13.2891727195159 -4.10403702273271 0
196.52042879075 -32.8306475954078 6.36317931992806 0
194.757666300442 -39.1937555084866 -24.9916456166403 0
183.741287977393 28.9009228097082 -31.4374078611535 0
206.416165564934 -22.9486945190632 -35.2031240865791 0
178.351368371385 -38.9804318289566 -13.9727608034574 0
86.977853584216 -11.7766640958419 20.3949958305431 0
176.711049793308 -12.2056667414607 20.3970754370038 0
207.465534028718 28.2607972804119 8.25900976841278 0
38.3549960876776 -5.83600960537608 3.1308651344573 0
191.02441652435 -12.3381448900732 -31.5585210198478 0
181.121506429089 37.2955864338039 -0.547384326935197 0
210.960506732768 10.5362755401805 -6.98565457873055 0
204.337060113268 -37.1779831449554 -34.9388929450749 0
178.386772653931 19.5585449325549 27.1880895340009 0
-1.4019745166085 -3.7799887358041 25.7832785204922 0
165.421258808764 0.576698591869433 19.9876606178767 0
192.0236374924 39.4732105269774 -15.1384870134252 0
179.094341837212 7.47854800340859 -17.7745054078069 0
192.331133873437 -6.43488713015531 -15.8672805634297 0
141.81065006477 14.611625039749 19.7421343160651 0
182.891853290117 -6.94480320211362 -17.8666761273755 0
166.039583397922 -9.70925329470074 19.9856910462867 0
185.764306634709 37.3431147938522 0.956386910894054 0
180.8875299274 -22.3798142405324 -30.5647114976756 0
173.684039125436 10.5831787889881 26.4341909085901 0
195.947005032457 -3.42763826130918 19.7993039928596 0
195.752388350697 37.7239385729518 -15.6750952816705 0
109.481503578321 4.93112837774742 25.6418958367014 0
6.24771381764345 -2.4514824104499 -2.52035898057458 0
-19.3176514514342 -8.70720250781831 12.6687415380804 0
118.177596380941 8.64525585321084 -4.9214231106229 0
171.854416575567 15.7447880587676 25.7614989006888 0
175.844877520813 21.4610874375942 -23.2120701442481 0
186.889602816902 -0.690869408286055 22.8474901251002 0
206.847072846968 24.0005753923814 20.648505960191 0
210.164023725772 6.4682384975028 3.25910092839011 0
69.7559367472238 9.80606037983812 23.9992985965617 0
81.7361867628321 -12.0125677812817 4.91983586200248 0
187.178403802321 23.615637227069 -32.8856475228236 0
164.032176811832 -7.9251537999096 -11.22686733355 0
216.638498926938 -37.0538715672871 -19.7354809455874 0
194.843865100322 9.23080198820765 -19.3040794480123 0
214.56015532024 21.6488430686223 0.386962770298941 0
-19.9562079635125 16.8135909583578 12.6417552583974 0
123.41303030704 -15.7247251132315 15.8586281033506 0
177.101230581191 -38.5548324134642 -6.88374187483258 0
211.160317709071 22.7119561537481 15.3336678503114 0
182.043960164424 -14.6301590330646 -22.3472718758627 0
173.519197714528 -2.5764461848421 -12.3659875060359 0
184.632406800342 20.9163920533819 29.0353675255924 0
72.2351448132244 8.84902202529519 -1.08011763113304 0
171.383184410032 -18.2484110791478 -15.3448128303709 0
218.317212278813 -35.2456298864042 -11.4304333316764 0
171.52312680046 -7.11474562131025 -12.2940659562791 0
94.3366148183736 -10.3111630066634 2.11846943978944 0
174.896048235551 -12.3703422053661 -16.0206349305996 0
124.28494712693 13.0400645402907 20.2108867363199 0
184.050542758794 -41.7117907893589 -9.71040372433103 0
179.200153696902 -3.45191454052846 -15.4653095039709 0
48.6458905090678 -8.61843165427899 23.0923361879348 0
148.826832151275 -17.2510110308409 -4.63906541348543 0
200.92726975737 28.3539129983768 13.7498094431431 0
173.467961650092 -33.5279460451826 -6.74566905723424 0
206.751705124525 6.39822943868869 14.7455056910499 0
209.48380089029 32.9797435781574 -0.923365908014326 0
178.567371992091 -9.97588211453308 20.8042099866677 0
171.154316812437 -22.4698338167195 -14.4780019111417 0
186.221642388811 -39.6944148112546 -1.73943164270139 0
174.752796055133 -21.7307404027206 17.0489943399931 0
180.864472981458 8.86901748286839 27.3168586157868 0
173.940418806221 -4.47882708338876 -12.6130948472222 0
199.732478804624 23.2093970741485 27.0669780343287 0
57.7066632087248 -3.84184582567986 25.4889499758028 0
209.911609332583 25.5993593674633 15.0277748660642 0
17.9120471409498 -10.552711847917 19.4421968145481 0
146.239112261041 -13.2628903124332 -5.18969660119452 0
209.113267968446 38.5421239566829 -12.5427365069345 0
173.176505095489 20.8992131606267 22.0352562597399 0
194.959273647388 33.0820359310201 -32.1746479018376 0
-9.03758578098831 1.71116191033162 26.8552092757382 0
174.638340828668 -32.364728965176 -13.6679490488138 0
130.328645832463 3.13547982101706 -4.91887560255858 0
30.0807516327994 14.3424684654695 10.1445099413581 0
47.7012957679409 7.45231452569751 26.3485821528933 0
188.252710412341 7.47379148336232 -18.7032575870405 0
212.869391768119 -15.1169494635648 8.73950615372667 0
147.909119329172 -8.39559881236671 -6.37642806108907 0
123.003259252844 7.74703462026984 -5.02257226896852 0
200.955769973777 25.1286621611307 23.6535827561757 0
184.127592057822 10.2380946571658 -22.0481259422009 0
169.454456197461 28.0488811027274 -11.7780614613127 0
206.261947861776 -37.1989723172228 -31.4106962182874 0
203.890662498051 40.5600200113057 -23.4558652773355 0
100.450783373878 -0.861034938755519 25.564293148226 0
204.021759237052 -11.663261970536 17.7531790732857 0
193.096472190818 35.3959441572705 4.59399716657307 0
201.223433174177 6.09949704894029 -13.006017270893 0
8.64005941813686 15.7672745190096 14.4075972980746 0
-21.9202369071522 11.5085349633332 25.3799124495737 0
2.40869225591478 -0.716218016602324 -4.15606821364098 0
202.172675163419 10.9393514625523 -21.9000276554922 0
91.6596589625916 -12.0005867456284 20.1282202115142 0
6.3896521926115 -5.40373057097178 3.44765735755338 0
29.3512169570918 -6.70456833781073 24.3029645241005 0
160.633044548898 18.7069601970036 -10.3076940851365 0
181.089161978515 5.79814316332762 25.7525003092738 0
212.06030381942 31.75348787703 0.186861700810261 0
81.4347997839357 9.16532694604917 24.1847058316772 0
163.872675115519 -26.5987147354952 -5.50792933209197 0
150.63345347379 15.682810181801 19.2866061921355 0
74.0449590893297 3.63824020280059 26.8182545413107 0
36.292389638414 11.7911124500306 23.8413434509134 0
-40.0624992916007 -4.66830658224085 23.0055084518033 0
21.9102588056046 3.94052553539474 27.2308246250488 0
49.4606191453012 -10.7274805539016 7.58196543174008 0
169.239563097837 -15.4864939116862 -14.580406369834 0
151.445402132592 -9.82590730698986 -7.16183872627248 0
197.438970623849 -20.5770381606789 20.4895827699327 0
132.298121621636 -9.71759815421399 -3.11899143428946 0
196.386445185704 13.9863879811787 -26.1648229341612 0
207.418588454728 28.3573852417262 -26.8555688079879 0
141.323249265272 19.4140795782434 -2.52085769729913 0
-13.0970851123785 15.3278738871018 21.7041154270941 0
203.532071706406 36.0990048621688 -5.19401329705017 0
123.742598249061 9.96103067670407 -5.12382295267188 0
31.4530583740706 7.77174179241982 1.16165763105465 0
212.799225165054 13.7331709611388 6.86925889889071 0
202.025056366212 1.09843439988099 -7.88698907750948 0
-32.1094585859088 6.93993220967707 -1.62898778385473 0
215.308996611675 -34.5476305323965 -5.40594163235269 0
167.390422084507 15.2784102152756 24.169892390868 0
19.098071134986 11.5576655622444 5.53951551319342 0
74.1907961966617 7.73914049702277 -1.9476977338521 0
166.155027312913 -24.5380870362276 9.0193732502426 0
167.778056251192 -9.65646867399605 -12.4304828404358 0
200.742850279942 -19.2839408657034 22.5289480268102 0
201.835152419244 9.23240805239947 -18.9368975855423 0
135.616718483844 17.163946912747 13.1246914340999 0
20.6967779664737 -10.8419491886617 13.8765847110278 0
200.779859770326 8.04023497047502 -16.4686679109799 0
159.1021771951 -11.0365832786147 -9.86006107584011 0
196.083295612387 -2.67133878349812 -11.616553022343 0
199.773770649065 30.5092219780858 9.01099372515663 0
68.9909838420393 -13.8602663272319 16.6301019594872 0
183.417020541983 13.0521963277476 -26.1883824331474 0
150.083645703044 17.984705962153 14.5008587042994 0
54.5367256144083 13.7323299926152 7.47815776961065 0
215.200956007145 -23.7731137295536 -25.6095039119362 0
64.8191405663235 -4.93272988181525 1.14992438541144 0
80.6828369764455 5.39144183699432 26.2435425518051 0
66.0203138828595 12.9771485326764 19.7740166300502 0
38.3707903453911 10.2692709328958 25.094411088041 0
195.034389023843 12.8855060147857 28.8447884521191 0
180.639820279645 13.3401484117877 -25.6318984552987 0
3.39184217629013 14.6646404234316 21.8850684137363 0
137.307907701117 -16.042418332872 -0.0539022756367896 0
209.340101579335 39.1159779326134 -16.2123410495375 0
-10.6509062028336 14.1897157912205 23.2128304551835 0
159.268707480898 5.3524707866284 -8.48013518395008 0
17.8679834953315 -10.9882051136034 16.0906288401839 0
207.78825052398 -25.3615040279802 12.4009800519422 0
102.399956179813 1.7172913567001 -3.46255338725345 0
0.656886682638099 -7.25900199767362 6.8642935461087 0
187.304643489405 -42.1958254803682 -15.9963104827804 0
196.433879064431 38.8705171350701 -3.21652727389056 0
176.105392951632 -24.5376845614259 14.5392995453643 0
81.4695021689152 -1.4491031978465 25.9649673351104 0
106.88130460318 4.77005147911646 -4.06698479361682 0
196.045555897437 -10.2219879534214 21.0213548216358 0
89.2984759141425 -12.6733889538051 19.4931289734206 0
176.5520621684 12.9361914678462 27.6424394844375 0
203.22048650924 -38.5114552334143 -8.70522783549672 0
180.744654852809 -20.9196166008682 20.233055744924 0
186.252017559322 -41.0351229822397 -21.3784818392364 0
58.3915761668887 -4.85227688042458 1.37843981935994 0
202.350493593815 10.9972304090183 23.870935252471 0
60.6606129737094 6.51497865438491 -2.0311448802139 0
184.6923417209 34.9669773822475 4.28002800789881 0
180.971171615352 2.1191599072067 -16.6622696226856 0
187.591077681115 -36.0875824457193 -36.32481201381 0
214.946916241102 -37.7610956638139 -18.2491118707506 0
200.412195238763 34.4172645449762 1.88663051099319 0
188.492057107666 20.5901435656416 30.9552815082813 0
191.736992720533 37.1660358987879 2.70005603380464 0
203.691271329933 7.61495441275058 -15.3565230115427 0
-1.54561529491159 -3.66616970058368 0.42939487605265 0
203.487978253085 -36.4669105159275 -3.96286993033867 0
178.105735685018 -36.8303771935456 -16.0697594908158 0
210.519693473486 -15.8576880329902 -25.9799571321958 0
40.4970793119153 7.70399533207461 0.362726372855172 0
169.71143611558 -17.3348200121076 -14.4721908926455 0
178.124056689852 -27.1604478470972 -22.5435341932951 0
-29.3777493248243 -7.79803351189848 9.14893592153452 0
187.351190685535 32.6120038059623 -31.8919494464727 0
100.568757755818 -12.8429212196476 19.1904338685679 0
213.018867010317 -19.3227834657375 -26.1703119219157 0
142.882623420441 1.89707398443319 -5.95091504381318 0
-29.9758227260004 -1.62696300507605 -2.44132691087142 0
51.4823222371019 -5.96820665982925 2.64493793440656 0
33.6138329648937 -1.51808839547029 -3.68389626262127 0
172.915515175394 20.4187995763846 -16.6150435697213 0
171.300392171424 -31.7532028041314 -7.89732797467788 0
208.386721817262 -21.5757473753235 -33.2235226293812 0
181.030371578914 18.5655608408491 28.9567594558387 0
98.1197382411485 15.6877300211151 10.8985154384374 0
204.881679136727 14.0867154154558 23.109451179835 0
-24.2328637334091 11.2174353072469 4.11064071900241 0
201.574852219132 -30.2988989941711 8.67369869998792 0
184.870567963653 -28.5813998443958 -35.9641472850251 0
63.7083463355705 1.10139843134324 26.9767015260198 0
186.672218447349 4.36462856902667 -16.8547924380237 0
-23.2103524014923 16.5891337441556 19.5574782798043 0
156.749730048299 19.6041377457338 13.0218803390677 0
197.215809595612 38.5931869965789 -8.7451333441643 0
178.014558390226 -32.8061152669671 4.19576378781563 0
-21.0174657514717 -5.46765817778396 23.9529631159808 0
181.538625060963 -15.9775217512861 -29.1300914375759 0
57.3612507986726 -1.39466948724874 -2.7286642904665 0
153.91537129871 22.0817926472678 3.29228976377363 0
73.0216835726758 -12.8562992084916 19.2202307647992 0
210.492346455496 -38.6782774298935 -26.9098426392391 0
41.5759935811652 5.3213495576795 27.0389127808154 0
168.772893251064 16.2429974796046 -12.9224485856068 0
-24.8376163477861 -7.19271552707731 20.9274963238117 0
179.763851420397 32.0204151458048 -26.9725499340822 0
195.11501263212 25.0464786673412 24.0235767421405 0
70.4422540277983 -9.88794791324328 22.1326519304465 0
198.407213710978 -11.7573655193018 -18.6612746384025 0
-26.0429126116664 -5.08140469619117 3.51940639700125 0
139.79706991226 11.1741602858116 -5.96970971972153 0
191.745316586715 -39.966959031169 -3.70529515027764 0
-10.1686536998404 -6.34817439780635 5.71546703080831 0
-8.14437832331125 16.2118152534829 19.2215111393682 0
133.707895376388 13.3732412342196 -5.60875552860476 0
201.658828923155 36.3485810996433 -13.3605894120226 0
172.543592332684 7.40737031251352 -13.438562733703 0
173.85991705722 -3.88647216890263 -11.6779205785468 0
52.473000213458 4.83751152019185 -3.59568045758468 0
205.777415868833 11.1443152697719 -20.8644560502426 0
47.4099107551215 -12.1024154272286 10.8339464560688 0
180.368057518157 33.6388450024587 -25.7898641695874 0
201.828774493936 -19.4711660553709 -35.8215279941311 0
-20.7116571349187 -2.69791409384588 25.7490998368005 0
-2.30146802828502 1.39301281567271 -5.14403606687238 0
132.414268365288 10.3696987763513 -5.50559478086199 0
210.463946667762 36.5380268316585 -8.01040746177966 0
142.848756574065 13.869664399973 -6.1520925065618 0
178.739046967365 -23.5082444746558 17.3985528355484 0
211.25162299266 15.7045701100967 -15.2032664708881 0
-29.5534217688559 -8.49015982966821 13.9541172449633 0
188.12624329469 27.0776030457477 19.9887534047384 0
140.412082672577 -0.0178269942586688 -5.65013879703574 0
173.2868564138 -31.649935309863 -11.3196355605136 0
193.098093629048 -6.61819259094908 21.4440261221204 0
194.244453672589 5.2203838400727 -14.0084899113907 0
169.735485749681 -26.2170338607506 -10.4518258118827 0
181.153013181954 -19.0089560686639 20.9209211270865 0
202.819654876281 -29.2983511386946 -38.1456787520571 0
125.423969546 17.8925157623293 4.70032727702369 0
175.034151612203 19.232178382474 25.7322652697652 0
177.416455814515 1.36053476844805 -14.543111513072 0
207.3431399154 -37.1889259746315 -30.5425494516969 0
170.930828449017 28.6221832400625 3.59964634692473 0
181.773212986326 -13.6016039736259 21.483659144378 0
187.85930115757 26.3766655207872 21.7857231259211 0
128.649694406256 -16.0596006239666 2.53565363467307 0
195.247514156462 -8.33667220007305 -15.4070351049913 0
209.985265388705 23.2420346921111 -23.0899177106966 0
163.174077372262 16.7641383119203 -11.5448489399917 0
-10.9249444182096 1.41546910227115 -5.09205848226548 0
-14.3691445702566 16.9201057340261 14.2770119905479 0
-18.9575430340536 5.54614675083615 -1.84525563037452 0
165.033473925378 -26.5502276764058 -0.981686710222463 0
133.450533743104 3.12253914412239 24.8985932777051 0
46.7252092163557 -2.5102483177748 25.9659575487836 0
19.8891930907099 -10.0594504000232 11.0937778595639 0
209.262369063196 10.0071918881305 -12.0702034356876 0
184.093213671752 -39.6954005365073 -23.0796569562786 0
215.954173532541 -18.9112714950153 -18.4656399100257 0
213.83042689617 30.427572115737 -0.959067025635643 0
208.318607920147 34.9902689453838 -3.72392769296857 0
127.788332491383 5.79989095238547 -4.93741129626613 0
173.938783312856 -27.9906246599026 -14.8086792007713 0
11.5481305782851 -8.01700665300283 7.64695540338905 0
192.375966011784 -28.1935819817537 13.9705595837896 0
-6.1888697596544 14.9772430115905 21.9628004874463 0
200.488540526537 4.31863280690642 20.7562274493657 0
-38.5168870134623 7.66355987704377 -1.73908232568008 0
110.43096205605 -8.87971110013193 21.7797240214131 0
-26.599638508138 9.29758828645183 26.1259820009091 0
-0.518692109013222 3.07759260684958 -5.02999263510477 0
180.652362444974 -35.8383266693443 2.31605344492795 0
-13.1258782723694 -2.57221275413975 -1.65203843572358 0
89.0036522944269 15.4968662860325 9.74993873118415 0
84.3959950843873 8.29658542846981 -2.37166267246971 0
49.0088452175847 0.566911416074947 -4.06987874484526 0
-41.9892323001911 -6.34202410440816 20.0030924417272 1
161.057558840191 25.3525299571644 -4.23260984679561 0
57.9726739495701 -9.90836031379981 5.35712963854784 0
189.596732592977 -23.6543074178097 -37.2853047839404 0
206.591941765256 35.7251022158227 -5.71020065454293 0
160.886303266465 11.7964484844575 24.4075643577216 0
208.604997863001 3.40157090018845 -2.52106259037165 0
187.930310015177 34.7506093900194 -30.9562399741347 0
172.237450236624 27.8873855884591 -14.4576881981043 0
88.3214122982752 -1.51598450720096 25.770967578862 0
195.920083362886 34.1342240231351 5.16783483294432 0
139.897434898106 14.1899416283246 -5.8565717109997 0
30.5308135086002 -10.9365629371209 19.9241984389426 0
180.54573754181 -31.3305220289779 -29.6305933414232 0
182.135803193518 -22.4868673497735 20.0196840918759 0
169.803937546995 33.0528685982964 -5.83739556176705 0
15.7766468073736 -6.59720803642547 5.15927371721827 0
149.487152469398 5.08876890486882 24.4188999701377 0
190.124806448683 -38.2903390823841 0.0127643579856341 0
209.382972425579 19.9489913804479 18.9854740737122 0
211.735865303733 -13.6154994065003 -14.5320891530369 0
120.406573362325 16.9571881059947 9.4135987749945 0
194.188162078642 -12.9076022535381 22.3137869281267 0
-36.8353291064449 17.9507105985692 13.6377849308214 0
168.785942702108 31.2445916500558 -6.29675472961547 0
54.7944032301672 -4.03691214864163 25.418531462008 0
185.163603786601 38.8050687294542 -1.03981747272998 0
195.119331428164 -16.6781221216219 22.7633028614697 0
172.502969044624 -33.2600017086189 -9.05358469068382 0
167.621690154759 18.1773887677732 -13.0517018158804 0
204.189898780909 27.9330812301926 13.2836900803822 0
164.27082511951 -25.894595870708 0.824623833480259 0
117.062265292831 3.3023523341411 25.4582309779001 0
82.7828500034331 13.3237694187512 18.3608391934763 0
50.5480964248883 14.7393358403244 14.3934546934901 0
186.027416045117 9.92588627631119 -21.9192633222249 0
-27.0475240234105 -8.27387951423441 16.8498910647314 0
47.3932611975626 11.6625351547249 23.2269860855955 0
200.201942312757 9.80072934425325 -19.7528379034982 0
133.522313297986 -18.5492486034067 5.58656551344113 0
214.098687289892 -16.5814680302619 7.40517353401319 0
49.4285556233002 0.318607494075922 26.7653002000323 0
174.616547446848 -10.2669335233946 20.3914095922763 0
76.6121099927284 -14.5950147830401 10.4162024741902 0
39.9310408103648 10.452685921325 3.5357261370033 0
170.172439117408 -8.80857779666392 -13.1223792956485 0
52.2610905172477 -7.86177365656275 23.5391542181451 0
196.648066683286 -39.247313069642 -24.4585354870352 0
67.7069821377462 3.74242668111473 27.0261722178767 0
123.771347784925 -14.4503915684116 1.77249597931981 0
208.006663843334 3.14548167883692 -6.11477234354515 0
159.774909027034 2.9608193910067 23.3662452785033 0
93.3765425253137 9.37313099998842 23.7413546830053 0
146.134218743044 11.8838953349085 -6.61236910221916 0
183.464705217132 19.2277269418175 29.7326398631915 0
185.139040305531 12.957282343363 -26.3175114660739 0
-10.5407031591878 3.45582093301171 -4.28266551210757 0
102.228055240031 14.9061231427928 14.8938669804061 0
81.6340078476849 11.7932995005258 0.18537326149497 0
212.452726082942 11.8426462250414 -1.50398603179347 0
213.025492289897 -22.4615412082761 11.9859664621392 0
157.462630975334 -19.7615611774375 13.5583985092309 0
170.577244545836 2.99485801061332 -11.5881767839906 0
108.20336552937 -4.89808981299061 -2.28333309929802 0
204.789954512118 -11.0364136289215 -14.2237778846762 0
188.167056341514 36.4556565589375 -27.5517490144354 0
101.849604652657 -13.3586349908292 3.70324133226476 0
186.851650890099 22.5455813203003 27.7227873487799 0
174.608070783831 6.87156209014572 25.1087514998701 0
202.164579698036 -33.743412678094 3.33091717807338 0
133.189619589589 -5.46999207232049 22.4175166137262 0
195.039946937083 37.2715371507901 1.05419738015339 0
109.774684706535 14.1187768544943 -1.69564980347885 0
161.567161828386 -11.6515409657466 -11.0908641685899 0
32.7840272402934 -2.58529797699998 -1.20714460385572 0
163.916262613871 -5.36174896519775 20.6765992351685 0
32.1924684191209 -11.1372928598153 11.4785409732435 0
91.6376492619614 -14.7912990544772 16.5452216665526 0
200.512393668112 -14.2282150739446 20.6122081929148 0
63.4513842180892 4.13822678176618 27.0718563638881 0
198.799184106396 -3.00258292509561 -8.88113818594017 0
200.753308357655 38.3760492205196 -20.485718635356 0
38.5265477983627 5.06175241377278 -2.75310596641246 0
193.265524309861 -32.3968663347859 -39.2154140168262 0
161.951344816072 -14.418176943698 -11.6654846926085 0
169.279683984633 1.5841147115046 -10.9906186618579 0
209.839695321685 -17.6976518179497 16.0526822937336 0
-16.9809090502041 14.4176639157982 8.33464059977095 0
188.627281675612 -31.7252961872767 10.0969589965481 0
178.666347034514 23.2643922594184 23.4081477765015 0
206.595174327161 2.27990646086275 11.0979176359114 0
197.837757160533 -16.0536129517113 21.9943084566095 0
40.6276182290642 10.2034914836264 25.0638872394944 0
187.185398364623 12.9774866000373 -26.083063639936 0
208.557164628256 5.59257236234708 -7.39028136671145 0
188.298940367805 -30.0746646096201 11.8988604039676 0
209.197311203108 -14.5518796528878 14.8795923687736 0
174.583381088903 -28.7230572174664 7.60516842294647 0
182.239990931502 -13.6761802292754 -20.8368144183889 0
-41.677791518271 3.12322907820028 25.6326808847385 1
88.4794931163995 11.9798980760069 -0.59150776126143 0
191.024573503119 17.1766522406594 -31.638604160697 0
58.1061048215885 13.1339583388717 20.0367098746368 0
-16.4644483024902 -5.24168458418489 3.72207642395132 0
173.599285112858 15.4661180605313 -16.6594062255134 0
55.392948162788 -8.78380784881062 4.57944448790541 0
182.910854352245 -37.8676412707963 -24.1429200748193 0
-4.75042563140031 -1.07251446374761 26.5024566998653 0
191.513818558324 37.7919460698367 -22.4974334564399 0
217.959588228798 -31.8654362634516 -20.2239401006158 0
153.497203376321 -9.92215154975879 -7.57973603150193 0
171.696142572061 35.3884078580185 -9.18667795424468 0
176.422254559532 19.4041307990979 -24.4434018426487 0
163.442701667456 -15.721106321334 18.0686435993115 0
211.408553057423 13.3133709571967 11.7583445715677 0
210.49684165725 20.7064221211249 17.0927816821041 0
154.091773135155 -5.96548665672569 -7.40304162058573 0
207.409132452051 32.5436000276592 0.203407862315073 0
200.683708065042 11.6566134045322 -23.2278519018373 0
196.726623763636 -8.49320601389304 -14.4746779442472 0
204.939476472031 -13.8729492168201 -29.642675301232 0
199.775342250588 -26.6587309612729 -38.8203475586653 0
185.280960323102 25.6507016428081 22.5288381353265 0
-33.4561093781778 -8.25246371204952 11.4841634671908 0
5.15326887857597 -7.20997785047458 23.8076276020038 0
177.277516039887 -34.8171181576219 0.691111036259812 0
87.9861260290647 -7.6292690726724 1.05937913819667 0
40.347549551422 -10.9099860577444 9.36099396639955 0
-9.06017084512795 13.1635995046022 7.38473957924526 0
56.0703918856757 9.02774200270329 25.2366833061433 0
-8.13498518300283 13.3229294260577 24.1000359803751 0
201.911772425041 32.7264840139396 3.17937464721118 0
170.541988871906 6.48961848522175 -12.225604372846 0
176.674751982469 15.3902372390264 -20.9881024252329 0
185.610900022612 37.680590787836 -0.302037138842327 0
149.891708645875 21.2016610631623 3.64658916313208 0
190.135043678014 -13.7947059972374 -27.1414424603262 0
14.4117082370168 -2.14255041619636 -3.30683452890666 0
166.864466426116 -11.8667761299499 19.5839377228013 0
75.466463983589 -11.6929339932107 5.26922235792433 0
195.951892804396 11.7939998006624 -22.7086240505535 0
104.307979547219 8.7173009437855 24.1407039515578 0
214.759170852239 -30.8423002372932 3.35825151867524 0
186.210868973433 -27.4079353391918 -36.585088980484 0
218.337178516062 -25.5826415813819 -17.3630361205326 0
162.474305750262 -25.7926800169726 -4.38953764075381 0
128.268689283878 13.6655640726375 -4.83221567744829 0
36.2389743095065 3.52393220361815 -4.45542969046607 0
191.925794265411 -30.5655860968942 10.6608409656086 0
77.1322703251795 -14.961788440602 13.1697918024947 0
184.550240845364 -33.1703450746641 -35.2328830563536 0
198.490399164257 -6.89780938231323 -11.6470255758838 0
51.4936592354289 2.09726531298359 -3.96466484091769 0
199.984654456845 18.6668013346052 28.1614069572724 0
172.79978558588 -27.1812635224343 8.92211817986249 0
204.017429790659 -34.949758355864 0.263268961499318 0
68.6235645830354 -13.1118800076953 18.5245699390363 0
191.755987149198 40.3713630117937 -12.6606461708544 0
-31.7009583441984 8.4994519523442 0.37005755986624 0
62.3783720815077 2.22365508521209 -3.47746052251485 0
197.208035641634 -25.807886685053 -38.9744430334869 0
166.834143149087 22.6939986232878 -13.1292557268262 0
183.250247263943 41.7522446975754 -9.48084273144405 0
176.824434684263 23.7284938391197 21.2137617870902 0
-9.18610751476259 -8.86698479932839 11.9710432345999 0
193.690931370053 5.83459753175095 25.7684333722382 0
205.532664353789 38.7735606219802 -25.4055424066836 0
144.710725158631 -3.20951450383723 -5.95341381194852 0
62.8608715309007 -5.39979936749691 24.7715791784196 0
5.43080456950958 4.02942302225104 -3.54480166254809 0
152.273745943701 -7.35911624926085 -7.22346141106163 0
218.827262903303 -21.7737816919244 -9.03416427385366 0
201.214881176534 -16.6101257435682 -34.2451026938008 0
-2.76584329687059 14.4005128880457 22.664819686139 0
88.7866896434723 -10.8646409444692 3.1159695474974 0
200.110552471304 36.0939815898364 -15.1152116738895 0
142.305999581422 9.3618230868355 -6.14692804607152 0
0.407629074141587 13.6728118550183 8.41992285838301 0
190.504873316421 -16.790377881603 21.6657723933265 0
163.703323546646 -3.11998147908669 21.1239222628053 0
203.435038412624 -38.7515368750255 -10.2063920878252 0
150.238266617321 22.3590849867053 -1.54420873869517 0
-4.06877749943001 3.8182548360814 -4.04623686762643 0
197.19998649935 -1.03894038542511 19.4263229737861 0
33.3906700233028 -7.64309073920151 5.28427198476822 0
156.581919681787 23.2028987024187 -5.40186589495135 0
196.881120425868 29.1798189562936 13.6119529856843 0
17.0494833345487 -0.443390452882038 26.8117967616078 0
79.38952844472 -13.0147090587388 6.34444193281588 0
215.478084355924 -17.5459676981385 -17.2962716804285 0
179.414773029266 28.8050131717646 14.1587429281208 0
83.6845336070107 -8.6981109651402 2.09389723353017 0
26.2085044741775 -6.68284516589268 24.2618217835306 0
180.530569199234 -38.4314350411719 -0.773802748523466 0
186.545715677626 31.4941227115597 11.1434566155276 0
197.094375589909 39.0449050096134 -5.35330049214972 0
58.0499554198775 1.0292807892613 -3.4640959528826 0
-12.8217067859503 16.3124764437765 12.1262510010839 0
179.569222156633 26.364404564342 18.7777650273439 0
178.732995107111 29.8962787959557 12.0327731758928 0
124.8560181412 12.086870015502 -4.83394340635993 0
24.4316375881015 5.54287601970031 -1.17437521230401 0
106.941739718033 -10.0707780190662 0.583358321244718 0
166.938756653552 28.6738146135861 -8.18508255952134 0
84.1927956427714 12.1021561539284 20.6841747615901 0
213.326763245204 -21.3484245380927 -27.4556822982039 0
171.788285382944 -7.8231269612372 20.0440064984464 0
76.1128078960062 12.3977228801946 1.63522945133616 0
219.035684242 -25.0760863991175 -5.43203600583885 0
185.093804176772 12.119483195619 -24.8391073953143 0
184.849408029281 -42.0192696497564 -16.0426226490019 0
167.009182405477 -1.93872668775172 20.9686221002526 0
176.943049780337 -32.580613691623 -17.3384196293121 0
53.6112722484335 -12.9890679303386 17.2899648087137 0
205.242536128402 -21.9970064087124 17.8672380896262 0
132.227603170231 15.2150443519584 17.4212656859839 0
211.873673586584 -33.3350618257785 -0.684987959387506 0
178.806900722071 -16.0401698216743 -24.2624022348923 0
205.242284558304 -39.2000023965319 -27.3952326717938 0
199.750232325839 37.7236813149358 -19.2404263871261 0
14.6679711604869 -9.64444437253568 10.8538639267585 0
57.0539265090321 -13.2681717548824 12.0815481540639 0
203.389486009674 2.72442321762903 -7.93475682175439 0
160.122204740777 -15.2955370984383 -11.0592094702802 0
186.60870172769 17.1892187652744 -30.897782079144 0
-45.139744962505 -7.11067351365041 7.20950068624937 1
175.20479776573 -33.8819782018414 -14.4688575883628 0
201.510650794702 36.7741350937751 -6.65718221635848 0
208.516290571632 18.1948713222653 20.1085851079153 0
206.719247161818 -14.9805458541569 17.5698837825726 0
84.0766791716255 14.3051179927004 15.5698845176199 0
212.166298947633 13.9757421245074 -7.56963364810405 0
177.768235887365 29.9085585916466 -23.8492509208676 0
197.976824655041 -10.2258169796383 20.2156565421757 0
203.227314673316 -34.3200806562666 1.7987135944542 0
176.780256811927 -37.2151819910221 -13.9881899448654 0
176.487402909486 3.13786423688747 -14.551860143063 0
156.911620492472 -22.8040789044579 3.18038749167669 0
205.535607012184 27.6408686341488 14.5891681947873 0
176.341207650938 -21.5183121332199 -19.7643592298484 0
180.607740999662 -41.0296778080735 -12.6585171150301 0
119.799931295922 17.4310635923801 3.12362316479145 0
140.673535145379 -2.68772721940604 -5.54515212629772 0
175.990453635395 31.0262833308176 -19.1151984412089 0
12.7768482077439 1.92166942342971 -5.18413960865733 0
177.840908593664 18.1290122092967 -26.5296074827137 0
186.586858747086 -0.85908567535501 -16.3288887976483 0
-41.9139844868605 11.1403369075646 24.6510695456058 1
189.70695850124 -36.3651649775205 3.23013568056561 0
163.170085436293 -5.33792649856936 -9.06081937926327 0
208.749604671948 -22.9427076796747 14.8908389263161 0
46.6027700109534 -5.17169536960322 2.15911939689655 0
177.015987618174 33.3944717548413 -18.326186841024 0
172.299358654852 -31.2244811652814 -1.63647296788581 0
191.037045768675 -15.0961218744496 21.4788772757275 0
197.798588090062 1.79762779492897 20.9270504865493 0
197.495737178918 22.0455608126233 28.9890560417323 0
175.437464263631 32.9322377418215 -16.5814764386299 0
188.39746040484 -25.3747270669129 17.8801991608082 0
180.721658095935 29.7692897392698 12.8304766430225 0
-7.47109207368995 -2.71276232274851 -1.76582651568142 0
165.559673084372 20.6160893653265 -12.6782032191271 0
69.0484054691956 -14.3128250196883 12.1766363238292 0
-13.3843815325716 8.76868482513013 2.25855063700479 0
197.527289850739 6.17915370206856 24.3858338328523 0
176.958254205842 2.50626777243213 23.1826292305772 0
196.202520590026 -39.3124319091263 -28.7317479062595 0
66.4969662943769 11.6943092788371 2.24728768685068 0
172.58381813958 -15.1573522637669 -15.7663953600585 0
71.6371846035215 14.7972876455861 12.1755287976127 0
-10.7360008206275 6.44763328264814 26.9210176194499 0
211.418969771943 -9.96922329589889 -9.10565360431781 0
162.460638564058 6.96446197067183 24.7090599673825 0
183.040605972124 -21.3623381411445 -32.6128323656391 0
78.7596690612806 -0.39819761328062 26.2866958751529 0
38.4035089599169 13.6932283424296 20.7821707867444 0
195.737126914317 -10.1015686033089 -17.2912349241531 0
150.077056805469 -8.22319593091506 -6.84005362402034 0
42.2887293420117 -12.546562128128 15.2834493093611 0
153.272267383194 15.0507056630439 20.5872411581653 0
174.756760165972 9.60287171860038 -15.0812106967298 0
7.01321700942302 15.6358944873706 19.029957056464 0
-14.9789089021251 -3.7003925209567 0.580977388520935 0
29.2885998124217 -4.3813467184408 1.97361602677978 0
65.5638283091127 14.0991059124595 16.7154344727576 0
137.231267017687 -19.2231831339235 7.89730658904532 0
8.92172535450955 -6.79179418601321 24.206637302772 0
184.445425846299 -23.3055788544284 19.7247023126573 0
130.861499916764 12.9643777441096 -5.50545594969555 0
175.990704364248 -5.85629887288458 20.3932611935635 0
160.618066993586 -24.3117235146991 -1.06737286569503 0
-10.5831385208748 11.7703961750094 25.3401355037737 0
1.25790200550828 -3.81145018872356 0.776095791589098 0
190.466355682919 -16.5957781310019 -35.106710243491 0
12.4351109603918 14.2319787343452 22.0785964605544 0
204.951701136094 29.6180444099301 6.55151981253874 0
198.897835718873 -11.7414174634644 -30.7548595205577 0
202.865685739589 -33.5219482685221 -37.9135860979686 0
0.218815351696402 3.86312571711112 27.0431829830525 0
185.100922424505 -40.8600060173894 -5.39894326957351 0
207.182689019608 29.7122823551519 4.16470375906915 0
215.166299963896 -21.0691109080803 6.9470989778456 0
19.9939586149572 3.6809957820704 -4.12060377072152 0
196.221607659836 -38.7082795449476 -34.5998305463619 0
75.752555186846 14.9372083421881 9.10028929486999 0
177.843606550866 38.7508470414737 -9.56925469143789 0
40.9387725421062 -9.02860266959392 6.21893464403947 0
177.593207955401 7.83558058129727 -16.6801837480286 0
71.0983409522211 -8.83782120352206 3.29014729222426 0
207.152957403409 29.0776157250454 6.12100642395836 0
200.600057168043 -12.7595237355668 -21.3449846843094 0
207.749018532798 -7.23434461986695 -8.71889862416637 0
74.6912240211449 -5.17681541383091 0.310767222628528 0
148.8070193949 -10.3433320538438 -6.51647968728834 0
29.137041554232 -0.402245809430848 -4.0178273483719 0
75.9069759408208 6.18408196168425 26.1047932429736 0
197.464297319201 1.50796723161605 -9.52386560330254 0
177.787651274015 -16.1917963050784 20.3257853415596 0
36.8182752746744 -10.5979231213496 9.34098457807478 0
206.022481977992 -13.1617788328044 -23.9006159187644 0
210.708910104553 -34.1579481296463 -2.37356729396516 0
154.043910978824 19.4454080216144 12.0919888738073 0
178.747910847936 4.46765003842838 -15.7089282911083 0
156.157055237948 -22.5897370710814 -0.59444366939025 0
71.4375528632944 -13.6987947030884 17.3050469579278 0
177.522697417138 4.04067360622361 -15.2720680462279 0
203.788456790232 9.68149508847026 21.7072870537925 0
212.970670359098 26.6466125654917 5.71589976376981 0
196.500544020211 -12.5619900361652 21.5057544214686 0
189.240103744207 -33.2019982071967 7.45665270446001 0
210.219463800084 15.5721783984749 -17.5720924169642 0
48.9201621354453 -4.43828346975634 1.32312381411141 0
200.034819568003 -12.7485924047204 -28.426131549237 0
53.2553529966414 -11.5435032179751 8.38197283007942 0
214.462973449235 27.6179982595464 -9.7229099796254 0
210.073561872956 -33.3078483211496 -0.299941584711425 0
178.910742183973 -24.8733482118276 15.6042841837657 0
201.727188127237 -39.8813941952775 -8.75250976848449 0
-17.0789089641263 11.1285816059031 4.55047233747271 0
178.06696568705 21.9290849484077 24.9117461274875 0
2.53944513090474 3.96674001353447 -4.38002099300469 0
208.94085550003 -12.8876206741936 -19.6510974988093 0
-10.9705273954323 11.9303225306799 5.85877615799375 0
210.008369628343 -14.8264844050169 -24.3537433889618 0
211.522065925196 -15.7371321614329 -23.4912264066826 0
196.718189357846 -34.6928223064608 -38.9870417003739 0
192.540966691403 -37.9721056127121 0.225010377610342 0
158.972468066012 7.80058528875612 24.6879318401104 0
85.6787590149093 -5.94565227794163 23.9746239860331 0
207.987911421226 16.833213750529 -22.2793045322145 0
78.1383499348675 -2.821857113389 25.5351490698385 0
192.991656280724 -36.8143617583978 -37.5161546218057 0
181.367098462385 31.191452307257 -29.1826870224666 0
43.190820745711 6.5659055499975 26.7481554463081 0
185.487081067814 -35.388032682524 -35.3620479392832 0
62.5167332889587 14.4079991762965 8.78047611505865 0
207.18566217551 5.01759990773222 -8.91259782731405 0
107.399755804261 2.88719214285585 -3.79548859940773 0
205.701723976388 -5.03628973275111 -8.15817257531208 0
194.064037369546 -4.43802340079376 20.8798699028373 0
19.9197838953427 -2.3903729517984 -3.13526840054735 0
4.53569418308246 -10.0286923877426 14.5039846566219 0
204.727855979511 9.64102854071719 -15.6518523053261 0
156.190185181942 20.510861253499 9.99697274639795 0
168.442124313483 -0.4130700447956 -10.3368879625707 0
182.796437993485 -41.3959050872387 -16.0750784526381 0
15.2617648351892 15.1369895550171 19.845621838849 0
199.342234252031 12.8171792408494 -24.7286975784855 0
201.784693051083 -12.4547651950971 -19.4632127555919 0
98.9785787245465 9.72672155177811 -3.00864713956804 0
17.5533326381474 3.68249749248696 -4.28929639677985 0
47.4790117916025 -12.279466577937 18.6484290754291 0
82.2462330423397 13.8575933612969 2.79839022014948 0
66.0477442395267 -3.55432640450167 -0.717676304738715 0
159.795929407695 21.6882348391306 9.03990788611242 0
-29.6357254764784 3.69902385351364 -4.68295772409414 0
180.060954319298 20.2716992086469 27.1854242405547 0
8.16232066785686 0.411825336228847 -4.56821583735359 0
125.090465519129 6.38611978113052 -4.88274572794581 0
217.669971355557 -34.0489033826597 -5.80463790722104 0
-20.8395046915332 17.390627338177 15.452466672762 0
152.451228418955 18.579407123618 13.8340490466389 0
81.3772590220225 -2.93791330822277 -1.60166281795757 0
213.71536143736 16.7351471843409 -3.64141543348981 0
119.581191995602 -5.50954162166958 23.0580741273369 0
-41.5481114306026 17.2207062486917 9.32047568320819 1
211.546184768379 28.0193845552288 5.93728958711273 0
201.091029624065 -39.7233284218575 -14.1456548359792 0
217.860835452451 -35.1882870654896 -9.20758339977019 0
213.101473185368 20.3020435464504 -14.2456341768202 0
17.5168093751036 4.4913208703621 -2.42884994421778 0
171.270378679995 5.68331200743082 24.5094159600861 0
217.034642309759 -17.5791220853092 -12.6145544062815 0
208.968224539301 23.1182397273195 18.5320357453571 0
18.7202314615974 -3.1499588809082 -0.410632667810415 0
190.998653868053 8.92567129242984 -19.496865933601 0
102.28354091722 4.0217043865797 -3.7589880339494 0
139.058316804755 14.587832897258 19.4699778087456 0
71.3588556251826 8.05944952811419 25.3386364987926 0
169.077427792958 22.8239377264834 -14.2020675490279 0
88.0654410789034 15.0746441866785 12.6546818747656 0
