-114.015959997515 2.01236925617585 -12.8420861030287 0
-34.2805435356858 2.36000936361077 2.39306299998898 0
42.0517053979308 -15.668530496964 -6.43524072952903 1
-195.55074320664 -6.74553172790337 -9.00548033274459 0
-173.093849615904 18.0761868802258 17.3877295242644 0
-33.6496523180588 -8.51417666210043 3.0418446199197 0
-30.7846041340498 -7.55349048696156 3.63383803233349 0
-140.73655788521 -7.23051871532288 -10.7103220339278 0
-217.99962079962 -26.7178228167519 6.23439732954387 0
-230.68982884337 44.8732184183277 -4.78655925074804 0
-203.960981577297 29.6303364443742 -2.57009511060036 0
-155.568782125108 6.29559947949255 -8.46002088578021 0
-179.506212538453 14.8773843064059 21.602639785202 0
-234.855929718784 12.3795424733527 -6.5216456863253 0
-206.557725114937 -9.92073094005992 22.7622877436837 0
-150.281951939145 8.53840605175149 -2.00986614920555 0
-32.6234221195164 -6.64767395204121 4.56212627369533 0
-158.293137361006 1.99851005411232 16.0158172689687 0
-207.67584540834 -10.927825179172 9.61335679610576 0
14.9691926840442 -0.092135844464052 -21.1923218977979 0
-196.612007185832 -2.68771040221824 18.6379626073362 0
-34.6600332659704 0.904168790588235 4.58032015796987 0
-223.185517070362 -15.9115911298721 -8.36793582798414 0
-196.144597135164 -2.58421203957133 15.8046195079198 0
-71.1158628587287 -5.04368581395017 -18.6369763214476 0
-83.3129848166345 -13.9159109962717 6.49743480024818 0
-190.550000935687 -27.2192176684907 -5.46118396552981 0
-198.571445269081 9.71295192164409 -11.2205398105866 0
-107.226029070666 -17.9809588384044 -9.76613362570059 0
-62.3763784294678 -4.45654498778612 6.55779980406925 0
-194.586896253802 -1.70733772568926 17.1229945201399 0
-203.174771672386 -0.540655383688835 12.2216146208379 0
24.3263935229444 7.52366220764664 -1.7441511362081 0
-197.72525558746 -0.597038225341336 -11.0547480293933 0
-104.288330688642 6.99724953163068 -9.84080774397842 0
-215.662953133071 41.8511221092781 6.33703317856823 0
-218.247117424677 44.7877218149518 -10.3945283101801 0
-216.688834757425 -26.6663827771194 14.8819249720632 0
-91.5523362821805 -10.6844455561721 -15.8740324429554 0
-223.517309498338 -6.41529465449653 12.5150704639385 0
-86.0346261951549 -4.39956066048995 7.53862268659075 0
-222.186805744624 -23.4652220092979 14.2672637683935 0
-202.637706161992 -17.4091171826757 -8.90370545145118 0
-240.238724674071 27.6027349269776 -10.8662842496857 0
-169.120747469157 -1.30512747346463 19.8874192281422 0
-221.720473865521 9.52872424402436 -0.690368035383013 0
-206.464347337362 -11.3399186964724 -12.2836929578732 0
-19.8577823993385 11.199665799309 -8.88961791726375 0
24.8039074467067 11.7831215074858 -13.50489971488 0
-179.686701472413 16.0789701103623 20.168085754357 0
-219.311326435856 29.1339142142781 -24.0296345850147 0
-193.902107541502 2.76256330618917 15.0395542596479 0
-220.100766851565 15.533177611921 9.2895657742482 0
-119.792175918816 1.80911678373321 6.80198065926687 0
-213.786521589383 42.4699062940022 -8.9817986772488 0
-190.274595541306 -12.4314414144501 -7.29745313342322 0
7.28411800966808 11.794091293434 -11.1174798028313 0
-170.87078762989 -9.35574296288437 -7.45155569212703 0
-26.4147414998222 -11.3964590153765 -18.9501928852329 0
-209.091474149368 1.70586626513211 6.05639527496275 0
-15.5703013485505 5.35431664392902 -0.648301542659825 0
-144.86710995462 -6.49363095170921 -10.2925559868797 0
-173.882685907662 13.13457754445 24.2702893681599 0
-73.7001356811417 -3.03566548924042 -18.2963496697775 0
-178.914543386022 -25.5757147862091 6.45034992769831 0
-234.113206236244 27.0321649855677 10.369329042369 0
-110.318999725019 -8.43633440152078 10.4078341185685 0
-205.610060948411 -5.99006875865277 17.7014935877293 0
-211.037186698313 14.117787476956 9.21707633499007 0
-37.4921133461477 -5.53836599302483 -20.4249287798929 0
-225.165590047841 -11.6676979033055 -0.168108254331856 0
-228.785313794184 40.6474003606454 7.53340291602637 0
-57.428067078254 -16.8908953655482 -1.01755702373953 0
-150.769927645711 -16.0833783969439 15.5590916643184 0
-205.680612975011 -6.08374854309102 10.1992100882998 0
-130.749955966325 -6.69681304800506 -11.9029168555833 0
-126.989948480767 -15.0870908697554 11.8560434759099 0
-135.92551936331 7.75690987860136 -5.21321844041072 0
-183.906627699752 -8.59749095515209 -7.33422530657178 0
-73.5333507750024 -7.75311870800888 -18.1730508258694 0
-1.77898873301315 10.9778853411015 -7.81005055231309 0
-203.05841293812 7.79508596869737 10.4417311623444 0
-116.849908759408 -22.9994454331893 -0.879950379737053 0
-57.2452956421825 -10.8767356814016 3.54731032638235 0
22.9239750994149 -7.75278483275841 -21.1802780818912 0
-77.9106014050514 2.99703602256077 2.88674341617972 0
-190.665464342991 10.5668161218 12.6677816846209 0
-224.415925686713 11.9156983705523 0.471443199227427 0
-224.750424116467 -10.0194724596605 4.77247999222914 0
-88.3557826562673 -17.1244118826999 5.124438948366 0
-238.608170831191 34.5705851929248 1.58256178352491 0
-198.827436685664 16.5611038037381 -9.06516329552953 0
-108.631225649418 -2.20507769113239 8.43684971514329 0
-55.5677424124874 -0.515490281081477 -19.1878198280995 0
-129.776167074998 -7.89662911281697 12.2862095162118 0
-200.531582910475 24.6498576998495 -2.59701459370545 0
-89.4329803593734 -10.2793980043095 -16.184494933883 0
-107.385789283122 7.11652354934106 -1.08530760213804 0
-229.352113313332 26.8333826171824 13.1938126674141 0
-201.096109818353 -10.0759259201141 -11.0063988011401 0
-207.11075318478 31.6067025796772 -14.410771855469 0
-221.547919381578 -25.30996093138 15.8970673950226 0
-222.99871004769 39.2203041408381 10.6357941381635 0
-180.544285213111 1.26963574629662 -9.07030287143557 0
-177.242651278192 18.4644086468165 16.5347789493637 0
-125.137903722152 -3.33603720401514 -12.713217150452 0
-210.673461863009 -29.921991384901 6.3538648517299 0
-41.4889313802333 9.66779263779394 -6.49647402527636 0
-130.30925999044 -17.8678361478247 11.1266071393193 0
-191.932318378168 -10.5618575197512 -7.7517892725658 0
-22.5636090639895 -9.66046978338416 -19.8581301481695 0
-197.335363513156 1.43082580451701 13.8581095842714 0
-78.8413348450997 -18.4340560200777 2.06348029092594 0
-97.5838350004843 -20.3765793162272 -8.56009757808962 0
-81.7407048203371 -18.7404249535469 -11.0768888543177 0
3.98785280609104 -6.69536494516279 -21.1785185817524 0
-123.589746924854 5.29527551400219 3.08414275718895 0
-197.7263381889 21.3971951772769 3.56471038674538 0
-163.496485779749 -21.6146150058814 11.3124000770258 0
-195.025173518962 -1.29368309211372 14.9468742679505 0
-117.576669396449 -9.85074410131721 -13.2017993401204 0
-172.865170160558 -2.768391893132 20.4783842696956 0
-201.509614988475 0.367325010351338 -12.4085494120421 0
-96.0604488516063 -16.0185905557267 -12.4289189823579 0
-15.3654667924306 1.20981078839058 -20.1327167423243 0
-231.183268048452 16.7974343974666 -18.952919671979 0
-207.568665931922 0.73870046543621 -12.6041841625131 0
-198.184696883421 -32.2015494831133 7.6104768701357 0
-19.5966970710493 3.34643407190406 1.49721812538665 0
-58.1507256341525 -12.9136831203385 2.4163697230286 0
-227.319890890988 -7.06222975650269 13.0934227843937 0
-121.735329813708 -13.4501415090642 -11.6290329538074 0
-138.033073341015 -20.8962575474884 9.5639475561816 0
-212.258384556661 -28.9668747634854 7.57592147698462 0
-214.163838759965 27.9299319655273 -22.8346242395916 0
-129.661810925222 -22.6595439212579 4.12461862075644 0
-138.232064839147 -13.509288023618 -9.84539314570032 0
-216.106128166634 -4.32489929805376 3.42429628222172 0
-223.177933790241 -9.84408632447898 3.07319239752686 0
-95.5886250693803 5.17662174037334 -13.14575141547 0
-215.341461421636 1.91077324408863 2.96892587903721 0
-205.246886862205 35.0970136886057 -9.52038820343426 0
-97.2745375203764 -17.6954352926071 -10.7292749267054 0
-89.3148220547875 -0.579225897703643 -16.2333746646506 0
-225.799428401665 -21.5011457728959 13.7495489444201 0
-147.265335721862 -17.383679089653 -7.09849758586877 0
-177.152600376247 13.6145965243305 24.1522620946244 0
-221.292183634981 15.0327447135926 6.98044119871919 0
-186.174989508842 -19.4838286625833 -6.2916225705056 0
-147.472477561785 -8.65664760961428 14.6047183357732 0
-124.309089997074 -14.6857623566606 -10.7156066284952 0
-210.588680577997 -7.56141918317671 17.841426811398 0
32.8529603966778 1.43660643326816 4.2842157695366 0
-159.487965210286 -5.68626122330049 16.6623914305649 0
-229.387181943572 -9.34484732113577 12.5412260867352 0
-52.8748128919733 9.90016536133529 -7.57730945988419 0
-230.458957585619 43.3603398820663 -8.57593771089143 0
-204.70431866761 -15.0011883466866 -9.58534148977655 0
-204.859472688524 20.9808117015544 6.85662007884036 0
-42.0199811446688 -6.42566426892415 5.39048636141615 0
-212.190567720623 -22.2110299262341 -8.28976088071487 0
-188.629932205885 -0.21969014930287 -9.19379542929135 0
-91.729985216769 -14.5194685862663 7.67254969480362 0
-219.006161727624 3.36216401149948 -7.07636391854491 0
-157.536857003416 0.528982010321929 -9.56834754493542 0
-215.519449231755 14.9084057759168 8.74167701410186 0
-85.7664909412913 -12.7781601055834 7.82170373111849 0
21.1534622781029 -10.9603814780739 -0.0283330445565203 0
-9.47833716745311 10.7354745680382 -7.50158579483746 0
-208.369914215109 18.7866544169207 -15.7025873576229 0
-153.076885336956 7.39105207424554 -7.21516950861619 0
-218.072473841856 3.13587677992728 -11.2136189102611 0
-39.1861238366887 -7.20763839928624 -20.0409177155899 0
10.6323632236061 11.768694902811 -11.9252811621298 0
-231.182039439172 11.6161098685245 -4.08700626049216 0
-87.5511416290561 -8.69921301670886 8.89682078432627 0
-188.773551568895 -20.4215824464937 18.9059957123142 0
5.83147951056764 -4.72002672740206 5.09330853348324 0
-92.3351597497735 -17.1060687361612 -11.7474690774983 0
-65.8427368499251 1.25523852534243 4.06525400619391 0
-203.647493344504 -19.6544415975535 22.2241949957739 0
-181.53254129845 10.5325442210741 20.490500215184 0
-208.736263332366 13.3131227608087 -14.1594121897799 0
-119.319171436161 -3.67894677447378 9.74556455788453 0
-221.215609284211 17.8765067120975 12.3842103611496 0
-177.710952235158 12.9544964338495 2.50539613247138 0
30.1592480764916 -3.93109409278842 5.13693651709991 0
-16.1021891618993 -13.7813404059744 -17.8236723814393 0
-226.920690344335 -21.2410498165918 6.62167625494409 0
-128.942733424359 -5.76419530456038 11.7671379535158 0
8.48450811031745 -13.1729449663854 -2.3382440345483 0
-149.800285210145 7.16048905244247 4.99150492841901 0
-218.164420379947 18.1191002874656 -22.3942084534622 0
-150.852880584477 -17.8483538891846 -6.68793068641116 0
-19.3307610120949 0.169071658153078 4.68393476449701 0
-184.516499439378 -20.3369902101641 -6.11412428265419 0
-146.625812984127 -12.5979731425613 15.2594395068727 0
-214.168849545881 42.9062520773653 -10.9483766648903 0
-216.651285600753 3.51918411799175 -13.0527455158085 0
-207.300576166096 9.84239363145046 9.53106275731178 0
10.8214608767832 8.63537420628415 -3.4053584628801 0
-47.1255771718763 -12.5560644315183 1.45912381478343 0
-17.6733709341214 11.4435772710856 -10.2560601425869 0
-196.777632138006 -9.07183259771616 24.1981250989474 0
-155.736769850478 -9.90935467539256 -8.60018093299754 0
-132.620327266112 -21.753511841608 6.77623239254662 0
-102.721334103489 -2.43578496588765 8.28080386744804 0
-211.506961742966 -3.28442474747021 3.78667187076764 0
-23.5358775291375 10.8770501743021 -13.1045156825693 0
-231.264194534344 44.1242476448362 -1.19834055713037 0
-217.315010926551 5.20974672865104 1.80349877507653 0
-192.270304288745 -4.64392785923674 22.7660951421263 0
-174.488715365559 -24.6696525720787 0.683926403080078 0
-207.165492271881 27.7592651147062 4.36621069908655 0
-1.95128012294689 10.1514963539577 -15.552242484312 0
-220.895512254213 42.8266167612006 -1.91670326253642 0
-63.8470385153573 3.38177844634144 2.11349268550358 0
-210.766444144622 7.066951665547 6.06125197779055 0
-164.515943884131 9.59585305767442 5.6931905541764 0
-91.0320601640925 -14.9717515568244 -13.6380958860427 0
-150.706564584435 6.64367032957107 -8.18086460895172 0
-79.723054169835 -3.6130898083956 -17.7524840283609 0
-165.141907857522 9.63249912038828 -1.38353251992411 0
-176.083640960136 -4.81309283988068 -7.97979435964147 0
-164.22552930599 9.41308742530824 8.6170533211451 0
-233.882843215866 23.031894020791 -19.7636605636717 0
-223.993172137192 43.0590439702145 6.03572408267163 0
-180.310410959486 -6.81741492929821 -7.6088518567959 0
43.2955193211659 -9.93773626089753 1.75010560137704 1
-204.611133731425 -20.7438536933007 -9.37850684211318 0
-182.670100567051 12.8787718160352 -6.24391077702254 0
-129.872431637986 -16.7853539699822 -8.77060405324408 0
-6.60165870316927 5.09914675027198 -19.2266911997777 0
-214.578000676892 41.7737099178314 -14.7720290348119 0
-124.988035929666 3.28932119472477 5.877517735265 0
-49.9386657142807 -4.02275914072112 6.00259807682427 0
-205.734055133954 35.9822297561783 4.61971063559071 0
-211.409892181619 16.6921104417026 -19.3791199808787 0
-231.464809543919 -14.7031870718022 8.92534639109617 0
-209.564867059627 -25.7249877176245 17.7683398321554 0
-87.1810797293108 7.9317447386434 -10.3248866908083 0
-180.719839328921 3.1349330354765 -9.50026555294426 0
-239.37833078584 19.2504361360639 -1.3526622977721 0
-60.4057698980994 -4.70159441674275 6.66118462977341 0
-102.876854050662 -19.2304218767708 -8.80207956827931 0
-203.104173428347 -30.8004886252253 10.6831041960166 0
-102.828612119549 -1.84849801811193 -14.907311472418 0
-206.659215517047 32.753764527851 7.45080802839154 0
-75.9792246682759 -8.61843277622456 7.89815696385957 0
-76.761701619217 4.17526403225269 1.51665961004013 0
-209.245370661838 28.0962948458949 -19.1539162288832 0
-149.865599817551 6.02826618220366 7.66748653722826 0
-209.34122590774 -16.3672183883408 -10.5025764242273 0
-202.094400843283 -32.8655514874778 4.11782360029049 0
-207.280172211185 -9.61900565329546 8.14950904739433 0
-219.064229305532 3.36650209162387 -4.10601256549606 0
-194.284044425512 -32.3500434021081 1.01847792407521 0
11.8937888127418 6.18192141226389 -0.803472127896687 0
-126.77077008349 -11.5847272093927 13.2689458889171 0
-231.422412151827 19.3915116679045 10.3720734259319 0
12.1448249922815 -14.1602773547321 -3.54954325185516 0
-86.3221981374017 7.40443899440102 -2.61701809347687 0
-240.36595758871 22.6151847917253 -0.629996062595697 0
-174.036786081405 -5.29782225303194 -7.93055519321516 0
-214.860842221491 34.5623385084035 -21.1858177146703 0
10.341151916798 -12.2697971565885 -18.8490715459732 0
-189.053235622583 -14.0971083200573 21.9408044522046 0
-213.374440019737 33.9390212534566 11.9230083146839 0
-222.908776672684 -11.8796839465609 -7.82787257103654 0
-222.902152234619 11.8550298628829 1.6845855593642 0
-9.94343412823571 -17.9455193031908 -12.5953222010464 0
2.05499963490387 -8.42806216353489 1.87205597505602 0
-228.388766499775 44.4387298567321 1.05122226986321 0
-217.46943741285 -25.9845986229951 16.7211100072712 0
-175.262782084493 -22.3198375205146 -3.9314263456106 0
-133.013651100731 -13.0640357385053 14.7218699892175 0
-187.346669712999 -19.8336865116978 18.9860389983627 0
-229.847810819235 -9.37782052279062 14.4497861096479 0
-215.787163335494 -16.6704868313167 23.0010742268213 0
-29.4215071539872 2.6483967743692 -19.5086690815343 0
-202.320399383688 26.4164200330974 -4.04629683874184 0
-62.1250450124501 -20.6393799569683 -8.22403504244222 0
-137.673356613162 -21.7690714605063 -3.50866652780986 0
-183.634763831361 9.84254523557693 17.5890263744296 0
-219.416279636919 -22.1651676717729 20.7252140627104 0
-95.5970369886781 -22.085478506881 -3.9563147761828 0
-184.711030997657 3.57265061247189 -9.87286277940219 0
-20.7561247974259 1.19204398352158 -20.0763854879978 0
-178.608460102797 12.1736698518911 -2.98796042716387 0
-219.561822345365 -4.42952131433788 1.58050108605593 0
-169.067519436289 8.44221829706987 -6.28800416142905 0
-153.078392965224 -8.6300605449242 15.498480595942 0
19.4932344251464 2.64381268496967 3.45398134775569 0
-178.396078781254 -23.8948916763385 11.1355955790017 0
-226.144699747357 33.3718197536031 -22.6764919879949 0
-165.020679985176 5.40517523210596 19.3855482645949 0
-218.650267125689 -9.70531758932157 8.42903105984777 0
-126.269907269765 -8.41792741252212 -12.3978564188511 0
-193.517595127299 0.0756374639477707 17.2461130110519 0
-13.4051449953679 -9.02062046574177 -20.1908402236045 0
-143.287719806279 -16.9862355950109 13.990207648345 0
21.819280562967 -4.48619461656315 5.01028140806026 0
-216.450097742606 -8.05236297954001 5.67751429434143 0
-182.182640623506 12.8472707745909 19.0969056341742 0
-165.30300902735 -22.4788039584811 9.91664377938135 0
-203.184117220235 1.49841325457079 -11.9546191544388 0
-212.057645229523 32.7741643075132 11.6453078489996 0
-23.5652337197807 1.03417476006008 -20.0661451075851 0
-218.252927175666 6.8432214089888 -14.5214811822035 0
-53.2080020232026 8.74958642601519 -5.11822592956772 0
-211.857198551121 -16.8918901814484 22.9414036810615 0
-118.145769223591 -14.3343011414859 10.6209180926551 0
-82.5387539263119 8.69694807095743 -7.14597466774946 0
-57.923518376969 -20.0723831389869 -5.01325491669185 0
-186.007642861976 -27.3627006964909 2.5123114241259 0
-161.600936152871 -14.8303882067805 16.3404085046311 0
-220.118295928643 -24.741802119304 14.0231302723101 0
-217.199502966091 42.9186561300881 5.44872773186692 0
-204.081230041072 -2.06193451226124 -13.6026139332758 0
-113.082913466195 -12.7329262185871 11.5336838656526 0
-164.529779894653 -18.2420534521357 15.4009333242894 0
8.46989561307601 -2.3067585949467 5.11885405492803 0
-73.81356824288 5.74132587109637 -15.067975770337 0
-116.271648288525 -15.4965009021793 -10.9598003252974 0
-152.74566215429 5.78104781689212 9.50852145632681 0
-197.622225464962 10.9572019145988 10.6890101559122 0
-219.70140034269 6.2799269200026 -1.01877106963432 0
-80.2196405727169 6.88048072384153 -12.7095430514467 0
-175.879326952769 0.0884557946885941 21.5522392715295 0
-177.007614658424 -12.1396509888533 20.0174246749882 0
-131.04366766546 7.08990461928607 0.482221123259943 0
-69.4958799720886 -19.8177466927118 -10.404309717965 0
-130.79010087765 1.81416876331147 8.23088568690796 0
-166.312940240417 10.0094663482829 7.2446375826617 0
-147.364658721782 4.29177306711738 -9.90485454708598 0
-217.242216799808 45.7484652599572 -1.5580898803274 0
-183.628963033439 -20.9919011834526 17.3642600439453 0
-115.75805656759 -0.12712662158717 -13.1825659811233 0
-125.663928619867 7.68587364514393 -6.14333915304328 0
-204.752352588768 -32.0420515676908 5.16490736709995 0
-147.69203554268 -15.3441562073469 15.6070309407514 0
7.16863923022736 6.38627566429744 -1.16328632331902 0
-53.0482544765099 10.2917923868476 -10.562430451088 0
-212.680758107214 -6.6576499232022 -14.5494986395198 0
-196.327650112301 15.3941674196519 8.7427703311018 0
-207.679764582434 -17.2929898946461 -9.75598328961348 0
-125.401901735771 -10.1680990811733 12.6248293025481 0
-185.220115439652 -4.31873434541957 -7.9959684699245 0
-40.456501314813 -17.9493622198601 -5.23810757925022 0
-170.898436169906 10.2319937905476 -1.87971881754678 0
-230.231337869983 -17.6132711768002 9.5513244566357 0
-125.752829085936 -19.4715246523158 -6.76553666390091 0
-210.423311326238 -4.43021315137896 4.3426295160391 0
-222.877790698475 33.5981529528633 -23.0666893733633 0
-9.18975641452466 -5.90855841872702 4.11974692579084 0
-238.111000553808 36.4085900597305 0.345172765561782 0
-144.451515724164 -4.60812038139241 -10.4775859346936 0
-38.4628123134041 10.099911166031 -7.30180428284041 0
-165.609004299435 -4.0195916660619 -8.54236219601567 0
-194.130322067317 -31.8684985306247 4.42207023492888 0
-209.476808165799 -25.0303146586397 -5.47162331477295 0
-210.951111423181 29.6936746947779 11.7570324726308 0
-100.722438924969 7.56399066843658 -9.15572617216505 0
-141.234099150229 -21.414726537681 -3.84832103044856 0
-201.407277845044 23.8751899189685 2.42192514580966 0
5.1742887419796 1.40904627900938 4.18759364854201 0
36.3010405502444 9.06789243528511 -2.91876748670064 0
-229.100651412056 25.6016714883351 -23.0302368122424 0
-219.698293541312 44.8085717784391 4.02937514738227 0
-170.311647874811 9.52048981621994 23.7778961581231 0
-181.080497186229 -20.269474274769 -5.87464796594485 0
-230.202069996095 40.2421843497871 -16.2428376497898 0
-186.518017569522 12.6384514563723 13.4764271846207 0
-238.836725480926 17.467130097721 -4.19560551063795 0
-220.373925771688 -20.8863735558788 -7.27214927034842 0
-210.181705897136 5.49713952882412 5.99518821161944 0
-171.361851010424 17.6673961249342 18.0532762261526 0
10.7137963819391 -3.5359329039663 5.40351384820851 0
-189.290029542577 -16.3410287959275 -6.88960304030666 0
-98.7640226586909 -19.1979913986669 5.25604923963247 0
-112.704699872933 -14.3508170098509 10.001512674306 0
-66.2235972891257 -18.1995261758883 -0.686621402288128 0
-99.7544091861412 -21.4106383352578 -6.65952706437345 0
-209.083874695429 -12.5157596743775 10.3232828302251 0
-54.4988828691514 -16.6206420928215 -1.30417094847358 0
-58.6514612177534 -9.77731559810909 -18.6473848475888 0
-70.6133555541811 -0.809084183615294 -18.2617470184785 0
-147.643670429369 7.20501344169833 4.02140585534395 0
-176.00687738499 11.8425085660822 0.586127424459318 0
-101.429307902531 3.56797613258254 -13.4414825897819 0
-142.534482395858 -23.0810923136595 4.14953256708594 0
-192.774245424644 15.6399759760939 -7.26434034875241 0
-174.421262029737 18.2949468350258 15.2160388608208 0
-219.458629248325 -25.4062165789917 0.690750558353455 0
-221.756581296872 -6.94374447501186 21.9679894698376 0
-212.442899046799 -10.0562038156614 22.247393913505 0
-151.924844574518 -11.1273241012275 15.4367424395736 0
-173.488204789963 -9.76158631127963 19.6787178084879 0
-214.272883965531 0.328952239040538 -12.4566740144699 0
-88.4311419559428 -21.2614726441089 -6.52704258500929 0
-66.2150714879898 -20.7213438956323 -8.58861453439403 0
-169.578009272557 0.0714915325316449 20.4525092973886 0
-46.6298770124801 -17.3720088947098 -3.19405006089915 0
-215.762552080703 -12.1207537626454 12.0386249307337 0
-219.432097265843 -23.1005630620347 -4.23413163783853 0
-212.093719598328 42.2334958792597 -7.15174951912255 0
-221.156886187825 -19.651180545146 -8.26080494671311 0
-164.188409272823 10.0084116821256 13.8896110282461 0
-101.038455612365 2.06302099743992 5.24925867129923 0
-151.042601418309 -12.631767420828 -8.77490156416852 0
-22.5170767262367 -13.7554656041197 -17.674312402305 0
-183.42927701652 -26.321325719834 0.311586069383022 0
-140.540797542575 -9.45904920687209 -10.5045282980173 0
-145.247607277112 7.06796380636213 3.45839643136109 0
-151.466813684199 8.21887629992946 1.41772475801954 0
-0.505745441051929 3.0608340760351 -19.8954900504377 0
-90.4163293934509 -9.49811274206301 9.34744409647887 0
-35.5734617314335 -4.35555741753936 6.28542306841125 0
-135.826195718704 -18.8244777321329 11.7071019711017 0
-202.339209430139 15.9397587125675 8.66246401769692 0
-226.65719139765 43.5973367607843 4.00973419802535 0
-110.146579999338 -13.8071535456616 10.8634913551478 0
-153.925734882019 0.778384160288305 14.5161273683558 0
-203.647723622699 -15.9519064328235 -9.13460690773199 0
-22.156364155684 -17.9675393016878 -13.3278482427045 0
-135.15377312811 -7.03059155272873 12.8081769420064 0
-168.519851001987 9.39880273671093 22.6334280888014 0
-178.184350913388 2.9009543832752 -9.49073171401591 0
-224.009240006631 43.4466041348759 -4.63529051965935 0
21.0053673876414 1.11313827326695 -20.9205869779366 0
-7.10045859196822 -0.0926239463275494 5.2093610775356 0
-208.51335337028 26.4132502106266 -18.0255014364763 0
-201.438185431469 -28.4011979100681 15.4874021422562 0
-225.720451175803 -21.9721452280447 1.88710235755578 0
-179.689395746623 -0.913156984899056 -8.65333067170277 0
-208.947397456138 6.49045679647153 7.20883400968679 0
-238.084589360128 23.7790880195228 -15.0631671355782 0
-163.067027539712 9.19708972610167 14.0464729825103 0
-225.224774981793 15.7685447300866 8.99571335196486 0
-143.814915886292 -18.2936838426187 -6.66105815740033 0
-174.879932180866 2.24081050993252 22.3240456815982 0
-213.065901873184 33.3535226313583 -20.8901972278497 0
-203.653647715298 9.23339553282069 -11.9304114950843 0
-210.958128119915 -23.7793655776696 -6.60686846881504 0
-228.026406083936 -18.9817829920207 0.535440847869127 0
-190.832519021292 8.45347691269346 -10.7821334863518 0
-191.045541083106 -12.1443650312245 22.7389971840379 0
-97.258709535972 6.73490143069134 -11.2536875021275 0
-165.511686917382 9.94155256082169 18.8661661664449 0
-74.762611088149 -20.034958632936 -1.05448449186358 0
-216.072273079401 44.2454594170836 -7.86720463252015 0
-205.84889300866 31.9620530025652 6.18849660001174 0
8.80468066688428 -9.5770081746423 -20.4044971684984 0
-207.432174931904 7.42196576692318 8.9078102054901 0
-211.912895475679 -10.2235183663059 12.2942054825602 0
-49.4268968101634 -14.3992015832474 -16.7364365900658 0
-111.420582879244 -15.1129283779162 -11.726645662403 0
-210.01603620362 34.7100661654779 9.59828583650411 0
-58.9288267060326 0.306883567698647 4.99957124015714 0
-224.947053823813 44.7078489178837 -1.13494008271034 0
-218.694738045006 26.0928868284209 -24.1602405616618 0
23.9601695323863 -4.97950921600315 4.49033526286737 0
-218.892668440975 0.675921703374538 -4.11878431096168 0
-22.3500264396156 -11.1992831101873 0.35420437989987 0
-206.327196630554 14.1963534611254 9.51274560184883 0
14.0984456197286 -1.47548564644433 5.36769250323317 0
-77.4814613718766 -20.9534381533466 -7.83918678037326 0
-100.879042714834 -18.3069656808808 -9.82344853490596 0
-206.757590636692 -31.3830779629265 3.67453953392581 0
-188.412413401869 6.03186160702486 -10.8022659592136 0
-154.796404117108 -4.08058945805329 -9.40862048572689 0
-218.56675212574 -8.11068375481652 7.89518957367228 0
-213.311204630794 43.9200251975832 -3.25156489443595 0
-188.960610480631 16.877990569686 8.0787512842726 0
-220.40094313513 24.5000793031824 14.7264480531787 0
-186.211908854523 3.9529804944309 19.1355825346537 0
-44.01090873646 -1.95757264047753 5.75111650209692 0
-136.378179624105 7.9217885209264 -2.42242467252575 0
-210.446445410078 19.6311330338784 -20.0122596001661 0
-223.737038220329 -6.03519168145899 14.732331530065 0
-41.1184186956557 -5.26765247481294 -20.3194678093229 0
-86.84094741019 -11.1926338361238 -16.1111520551272 0
-215.923096118333 21.3112681195373 -23.1149293760885 0
-206.227003345594 12.7408009924057 -12.8231939846309 0
-188.491555410002 11.6178433327046 13.0690532692084 0
-204.554944263495 26.8880487401284 -8.09901938869784 0
-214.342909334758 6.75006146202978 4.23918575401572 0
-205.745858366779 28.9309640395476 -10.3403846758939 0
-121.521902643661 -20.0644775528732 -6.38151590242301 0
-184.810491356799 -22.12164845172 -5.75681234686159 0
-195.806968521585 -25.1193317194494 -7.96690288829831 0
27.6888429587774 10.8879459785023 -15.1468205059322 0
-179.830457535969 -4.04098589350098 21.4261621858656 0
-237.617152836023 38.0519956851882 -7.85267694624098 0
-20.3594659758733 -13.1016681962517 -18.1345836670322 0
-129.527746905304 -11.3760699299936 13.5434343564996 0
-117.77708949079 -22.8740863091615 1.50727608025179 0
-222.133274849517 -8.58187299438847 23.1528762010218 0
-219.737738639849 42.0771296205937 7.65155154398216 0
25.4459379497931 -5.63221617392548 -21.695349024802 0
-217.382662006462 -7.8922470778464 20.7954588461663 0
44.1583058423326 11.6542578670709 -14.6871025709315 1
-136.205733701016 -21.8722781527836 6.98053234742078 0
-206.719326366742 30.8958389560146 2.46052042285493 0
-85.630340746047 -20.3234213435718 -8.90334575182361 0
-22.1692208190997 -1.08872522600843 -20.5658312242714 0
-204.700064098079 5.56030711278544 10.310097114364 0
-167.327415044537 -20.7502318060453 13.6756778864441 0
-229.53869777253 9.1232347981902 -9.3213685684485 0
-213.882272259764 -28.2942768656883 4.72132031616998 0
2.51977202432337 -3.88392630698459 5.58638893149729 0
-179.608814108374 -10.5607105036227 -7.03023164266529 0
-192.735800839542 -3.36807487237812 -8.88658779351341 0
16.8735098851907 2.36618661902659 -20.4243074701406 0
-79.0496373428151 3.98673567359379 -15.8785188593476 0
-139.796833991698 -15.3312119368773 -8.86634744050986 0
-222.764992033424 36.6893614550095 12.2902127058106 0
-21.673108772749 4.70778143611315 0.0143344973905935 0
-17.8471500449032 1.55068384695196 3.84617484616311 0
-228.500227467895 42.2397931447265 5.90165150521165 0
-191.362791262609 17.8327699776307 6.83826582837558 0
-183.754225648529 6.56755646372797 19.6499664407162 0
-166.307696762045 14.1493867436809 16.386429541798 0
-145.161429044855 -11.081655951249 14.8354812732816 0
-14.0256905075542 7.82678179581616 -3.40321836802297 0
-204.058342909509 22.3208175842815 5.58293638443781 0
-222.494687470756 -5.54143936118849 21.1667541649889 0
-81.0154843117417 8.09012602076204 -4.24337551024389 0
-113.311487400848 7.4368962536482 -8.17266655974695 0
-173.29646980945 10.9628941319898 -0.636020819282997 0
-225.794608394053 32.4710881441062 13.5247297013858 0
-205.670548025022 31.4478329477878 0.86396704772643 0
-132.868955511142 5.33650396160235 4.19636079647956 0
24.7473994990525 6.19149169810425 -18.9679978964167 0
-168.025697723306 -4.56001595581876 18.8966668238486 0
-95.264780461546 -20.54854743304 3.0428139827752 0
-43.947184100399 9.08107989984086 -14.7257913523297 0
-61.1126637592751 -2.87764187200648 6.07838996036303 0
-206.233061238681 22.5489631820818 6.71456876495765 0
-14.6532099845221 -17.9567826317049 -8.02705389251968 0
-29.618128363839 -14.5211228449063 -2.02040902200592 0
-7.03448074887349 2.09365770267453 3.9490961118867 0
-98.7614590372531 -22.0627047744301 -4.18622383857672 0
-143.087276993713 3.27225081992753 -10.4001592318341 0
-198.571769573611 -32.0385332300878 -0.842915392701903 0
-216.107369500693 24.2715014157333 13.9818097607763 0
-122.694620954218 -9.17155401819901 -12.7197432667715 0
-200.671224983767 -26.9629181843192 16.4004868214858 0
-185.358540753624 16.5845928452066 8.13253157437733 0
-200.609936591264 -30.6697996588314 10.6530050042381 0
41.0289622017975 1.79784392452119 -21.4397152026564 1
-223.907801192109 -9.73073948574672 -1.8167080438931 0
-25.0420246076726 -9.31939295760263 2.04225817032221 0
-52.1125284814125 -0.402447535176333 5.40274670581899 0
-171.784665894472 -9.54994812473835 19.3273748314485 0
-219.806345657193 -10.01274045369 9.79911699506052 0
3.23164612528721 -13.3193052157311 -18.0151467594356 0
-208.717722848306 11.9727246326299 9.34092324597435 0
-187.652711755271 -6.71241855327815 22.3424117818903 0
-224.162937275899 20.195536203708 13.582671345542 0
-114.652315012745 -15.9142285396475 9.33572764612117 0
36.698931371953 -9.22571413631823 1.97459998011784 0
-166.781042321002 -8.41132263763595 -7.83617010535647 0
-229.099207714454 -18.4310387773822 5.60642531176687 0
-193.848482474186 0.756390938262774 -10.205134385397 0
-192.243113840703 -24.9769732019635 16.6391045778981 0
-204.315126433517 32.2458628755771 -5.72021438803771 0
-209.710312548112 13.8737241695592 -16.8559163350116 0
-219.850277255464 -6.62500041704665 3.12671420884108 0
-180.859279285247 17.7092023164057 16.8284684382403 0
-32.9068687266636 10.4234948519918 -13.428611743024 0
-29.194148101698 6.61853864649265 -17.5833987064988 0
-22.2122920479553 3.53369656516586 -19.3518053351383 0
-233.293656965813 27.954986300954 -20.6303373822837 0
-228.327291268714 -7.63943024640174 17.9079903417814 0
-54.7320428250753 -11.3787089907498 -18.1946604641254 0
-97.7647757380846 -6.22152322822997 8.77759857736879 0
-106.352197731116 -21.3145138563785 -5.65782880635212 0
-120.281024912849 -18.772282798923 -7.70287209357867 0
-61.1327801095958 -11.5292416902455 3.57439789752251 0
-193.560357008333 10.5995226321237 11.693734462552 0
3.85192105962164 -9.304237780931 -20.423304157291 0
-193.871256335854 -31.2172231647318 1.15273975362746 0
-63.0474751837272 -9.3735017503973 5.35187293274073 0
-123.679355448974 -20.4561675335952 -5.87718631065566 0
-188.869093904962 -27.5941363854872 9.58016788813664 0
-220.416034473535 -7.33968042435073 13.9711897565656 0
-67.3315358245641 -18.2281040152831 -12.3082528688979 0
-218.261631384159 -14.7769323345558 23.5550300431131 0
-240.483688718597 32.788089381103 -6.30261030848418 0
-213.167433631952 -9.372864029896 5.97562765498038 0
-204.280160531924 13.4234381596322 9.4585777805112 0
-47.4888493230456 -6.91515144447381 5.39031837357193 0
-240.290404994266 21.1703021211304 -2.15268345514886 0
-190.746602344044 -20.90694453569 19.3074347532645 0
-226.036459570202 -22.2876175895181 8.80144322430538 0
8.67837282076709 -3.80023415408323 5.37804962298746 0
7.47755600794692 4.51492519309155 0.621467087097294 0
-164.196493554046 0.990663332658607 18.7132653592486 0
-20.2104944397778 -11.0722811867863 -19.3173528862169 0
-102.601439236704 8.18413006154129 -5.24808389946383 0
-144.774169708209 -11.714268136741 -9.65859268935457 0
-219.895798085298 -26.2891701488395 15.4466863674837 0
-218.181633967284 4.96151044848276 -13.1462363682356 0
-212.282142630098 -12.3930905059949 22.9587663523613 0
-7.2235098118363 -18.1626210263021 -10.1660279287614 0
-206.314118537085 -27.7502077738617 -3.29659033558562 0
-85.4291717068688 1.25040617445016 4.84274133933123 0
-204.105094871222 22.0135249681688 -10.3372361492157 0
-210.854878300354 24.2357673955257 11.9149567768889 0
-204.794737181248 28.850759640591 -8.10118245591706 0
-219.390331773497 -16.4972883332664 -10.9598969078734 0
-118.392137486714 -4.77334346519381 -13.5037098070708 0
-47.1688214080511 -14.2790662330185 0.257948884890796 0
-204.697870163074 25.6301832019904 -9.330993015387 0
-212.700450177019 36.5844802477973 10.2227531605799 0
-121.597098491899 -12.6095436353163 12.8235351497927 0
-12.0703334798572 -17.9711138354827 -8.1883340371567 0
-205.65034682258 32.2697468024465 4.40231884354 0
-86.5050918345186 -21.4791127937046 -0.989643209167188 0
-233.467948546757 12.743085063935 -11.8524648854686 0
-79.0262476950556 5.24654857829027 0.209505303120172 0
-51.2325304909633 6.17885346004404 -1.62214305361172 0
-174.84678471999 4.60694417921151 -9.65521866249448 0
19.7596423505142 -14.735192812466 -4.49765022471682 0
-208.385293729646 -11.329407218462 -13.0043456480325 0
-41.0193835730895 3.61031695072451 1.22072343359084 0
-193.937763108872 -4.01902492051697 22.3840035873713 0
-213.884565639108 -10.3079333122716 15.1760693841967 0
-73.6261666974101 0.539028653848475 -17.5948184099817 0
-178.339519106582 12.1690404936141 24.251549162194 0
-215.28548558471 -8.37485100344009 21.0528526698565 0
-239.556352040233 20.509183460205 0.0235809774862067 0
-42.8870481742539 -15.3997264907299 -1.34876281859902 0
21.2593687839843 7.13781324286763 -18.4352254940924 0
-36.0076634811203 10.5297203263977 -12.9007729974835 0
-237.587083456035 18.9527519426762 -13.1711430184189 0
-186.86860615237 -24.2460483009926 -5.22842422999084 0
-25.9756933608883 -17.5296275095466 -6.24846889227594 0
-219.110767482468 -5.32226698635819 -6.68418759942252 0
-179.667819734919 -17.0750961524042 -6.42507124035727 0
-176.459803704954 11.3327799598167 24.5442067371245 0
-202.058528824431 20.5773388828403 -9.20086817548299 0
-193.732048859669 -5.09325676275988 -8.82892735586511 0
-211.08648607153 41.380506686823 -10.8186711276066 0
-0.355048401188087 -11.8175195554991 -0.965496800385744 0
5.47129520812633 -14.0602389079964 -17.3063682723523 0
-85.9324018010072 -13.7788288072075 -14.8435093773646 0
-201.834209846566 -13.7346245029362 24.24295658026 0
-163.810630666266 0.552565674946577 -9.27340594415018 0
-4.90509141707145 3.58273213900513 1.94453130704058 0
-151.135969296316 -21.2884336272853 10.2339760755523 0
-181.204955457877 -18.6184915999791 17.9532441709976 0
-177.82990519057 -1.2361876513736 21.5420110303881 0
11.9880088786533 -16.8977811199023 -13.5993292022485 0
-214.17757608319 16.211682277559 10.3097656913116 0
-169.720397499626 16.8594426724695 18.2294318492399 0
-50.383573602256 10.3534477882079 -9.27430605998282 0
-170.975152053181 10.9330830720708 5.01108390169795 0
-28.3445466770321 -3.93419402225046 -20.7442403726255 0
25.6390946912922 -12.6665484489616 -18.5124513086302 0
-159.944203413359 -0.882922404675393 -9.33928940358777 0
-222.520439224476 23.5212703076518 -24.1846508625896 0
-173.564649977964 8.77882861013449 -6.61194749572807 0
-58.5728600206358 -3.3225216055929 6.19524258353444 0
-217.873516074668 41.7833245977566 7.57786371196335 0
-240.180279495343 30.5901570722412 0.926005906740573 0
-204.962084875818 -4.35685642102536 10.6714851306747 0
-156.181714861513 8.79590241832297 2.19932279859099 0
-207.687384641884 17.1722297384529 -14.4664145173936 0
-171.263171227379 16.6812302183678 20.6366180658032 0
-209.56644762308 18.2884532808014 10.199224858982 0
-15.6114160862496 -3.87449416996364 -21.0730840819226 0
-216.063013602008 -2.35770721948631 3.11051585464892 0
-153.191035069666 -10.9024293994006 -8.81708600866314 0
-204.815322524441 33.0231751165234 -8.05940783092268 0
-219.625767513729 -7.22701336878286 16.3672517292405 0
-205.846004523472 -6.8363234486829 19.6464912643045 0
-214.206562234376 -5.17958761535242 -12.4540860246006 0
-198.987060276873 -15.4842431869195 -8.19837250852973 0
-75.4921741124786 0.436115848678728 5.19090857401247 0
-129.857743174246 -9.75040834580865 12.7656686734643 0
-102.784459285231 -17.6447366885758 -10.4054872670126 0
-195.636910568388 -4.37899622300423 -9.712799295001 0
-39.656919701027 -0.990488093753288 5.55840935411405 0
-222.532365748961 -20.118915629106 19.1712609302495 0
-79.9402517434409 0.883315850418077 4.80674976078075 0
-28.0685263765987 -17.0780917008457 -5.22783742903681 0
22.2414100731898 -12.5841552090898 -18.5788863880121 0
-73.3501078724255 -17.7405379270139 1.58396557281184 0
-237.420117068016 35.4765779119405 -12.8898298639329 0
-1.90777593624393 -17.1797154958469 -14.0230359015261 0
-115.09464370864 -13.90313676596 10.424182295907 0
-221.261925690561 -21.1158393195298 -5.5760254919599 0
-203.96361498612 33.3410994320209 0.158204265258705 0
-236.814365941968 27.9780071937228 7.70669098464904 0
39.0089465401911 -16.612100739982 -12.200000623361 0
-218.284686692227 -1.57596067400709 -6.83773263774744 0
-235.434804028842 29.6737775071867 8.9645350067387 0
-171.943632897949 -6.32465366968052 19.6728289427173 0
13.1436087447712 5.06044816100968 -19.3244215021632 0
-230.058533893685 -10.3213426356054 16.1715850526043 0
-171.226401838613 10.9521660370129 2.72284808738588 0
-215.865314257558 25.7793927465273 -23.6365549263335 0
-230.05230722662 -10.5043134171781 11.225158522696 0
-204.371629178663 -7.30534954309505 -13.7495795690962 0
-206.551032134941 37.8134512367925 -5.60334729335167 0
-231.29310359381 -13.9874802805973 11.2049764289743 0
19.7922795765543 -6.93829215366282 3.0708235124303 0
-168.448453711632 -9.7846408382581 -7.53041577257631 0
-119.733539065081 -22.1410766483766 4.10593863879586 0
-191.1977382152 18.9319951469027 4.57474247354777 0
-167.053391420357 1.95076511912777 20.0182989023487 0
-190.711101191866 -19.3842773949753 -6.51370619731745 0
-209.478803547095 -22.2418395558812 20.6550227631511 0
-131.010472670345 5.16312389383987 -10.2278653128175 0
-123.680612255137 -1.49021728809396 -12.7731845836398 0
-214.274611523248 40.7323564763431 7.00427894379867 0
39.0054022450714 -14.8676537263981 -4.5068329625138 0
44.9746164463257 -3.59185768366632 5.53696835674542 1
-221.315344910437 10.711891354316 1.29691349584274 0
-239.622510624169 19.5253710605339 -7.57044871704004 0
-199.262760145788 -14.0830944179217 24.287568786801 0
-13.4539055653832 -16.5514023492715 -5.48150676715748 0
-180.581602047953 13.2482907685811 -3.0921294399961 0
-172.979970376305 -16.0333887363008 -6.52929976530169 0
-157.998075098277 -22.3569811730946 -1.51315133489632 0
-56.7217099799431 -6.89331375247971 6.19781206712625 0
-153.258577600724 -22.1464139920294 8.86989431955412 0
-60.5209021735631 8.69916474163368 -12.8957175209344 0
-9.44167461627162 1.70235035875676 -20.192275708353 0
-122.735940512203 -22.8794745051023 2.16452878968507 0
-178.204801155587 0.961703901768193 -9.08823895108703 0
-200.601743543902 20.6160924973613 -7.90776985118225 0
-99.4610254051486 -1.26710874586599 7.68753217079891 0
-61.1026623450388 -2.51319227554235 -19.3100583724582 0
26.7247188114666 -1.03174503040419 5.21395542653638 0
-228.899035717314 -14.3779590425604 16.6767528436664 0
-214.998247010483 -10.3480631348261 14.7510326993289 0
-218.850139133957 -8.63788532231963 13.9101093173031 0
-87.739399683901 1.948835483611 -15.7567814412983 0
-24.7746096277174 -1.76455085348815 -20.6197307924076 0
-232.205670565136 43.9056813568776 -3.62481406436655 0
-6.4275749350732 -9.6121779131025 1.04789262902456 0
-204.997881182676 5.38123654930941 -11.6794509705362 0
-189.118663965668 8.31462655636094 -10.7597623777449 0
-45.6926428095642 -6.11775485535204 5.8937193992707 0
-239.519232161071 21.9702611294902 1.74319499049733 0
-85.1382054357744 -7.69570542687828 8.29172362636584 0
-220.541984529092 46.2249276075258 -0.51819504668993 0
13.2392206622731 11.7977848496764 -10.2685870607915 0
-220.707358488392 38.3617168952975 -20.4164055331832 0
-2.54304316233649 0.139473720238395 4.87299485754397 0
-178.172024125705 -24.8834970741972 8.63447738123351 0
-218.715561770874 45.1683767683579 -6.03416360152864 0
-189.917052384264 18.0831367245401 6.25598275138087 0
39.5716555167717 -10.7982296171035 -19.5527605005536 0
-214.311462528591 19.4551577508312 -21.9153609321981 0
-144.630761159304 -1.36678983413199 12.5301974605426 0
-140.402323696769 -22.3788274977067 -2.1816781207847 0
25.1586045205823 -7.03596310733571 3.12429103739091 0
-194.904126639124 -22.6516830752921 19.4306815947684 0
-138.542958949046 -11.2688502871638 14.1247159274667 0
-57.5564759164711 1.44275198833494 -18.5242430762953 0
-78.0345168749007 7.83581703407074 -3.70391947444568 0
-206.498947697873 28.900918406746 2.594175810965 0
-226.765432116367 30.4309891104359 -23.4304859035473 0
-210.389534318637 38.8744798549013 -10.2967476153996 0
-166.711423888278 11.7433143143993 20.3379621306147 0
40.8880079872588 7.63972348853765 -1.28392673848974 1
-109.777593236905 -5.11604106260395 -14.6607002673295 0
-224.836337626959 44.3410434998464 3.72338886501532 0
-201.558610056707 18.376841486286 7.33870469227789 0
-228.630760190669 -12.6317209827593 3.27654914704735 0
7.15594706627818 -16.9040583152388 -13.929155731843 0
-162.480194580109 -13.6643125447672 -7.40675567071028 0
-36.4824141555603 -18.0666265329502 -13.8253655240649 0
-240.252043697525 24.1868999664901 1.19409531059194 0
-7.38052217800737 -12.6884243390002 -18.5186542525837 0
-202.396720963786 5.45169549589402 -11.3230940451611 0
-191.784344942334 -1.38922363030349 20.4543705808893 0
38.6581198284114 -4.15939921586067 5.13124378690754 0
-236.810061067836 33.0179743363618 -15.5981704866199 0
13.5499119410431 -5.86707128278826 3.66983315041638 0
-227.139874368079 -15.5112298391215 17.8680089321869 0
-210.318260478484 -19.6032510166048 22.1262364939592 0
9.28352800230091 11.4821182156649 -8.85532967061665 0
-221.692777955295 -11.7187161855214 -9.12765127116623 0
-218.618410899053 1.68810460371247 0.0772002576977517 0
-13.0738701526374 -18.3256055373896 -11.2066626066019 0
-43.6940158722513 -19.4046347269312 -9.96846037597008 0
33.9688950092099 -14.2291739235461 -3.52243810790598 0
-10.2593022363334 -4.22008776308328 5.64897947760809 0
12.0286137801246 -8.4708244380206 1.89212317857666 0
-100.42012744332 1.36321931970059 -14.3630470693547 0
44.4092509007188 0.984351364183407 -21.8602889378881 1
-127.175716676082 2.81792822570748 -11.6209929543936 0
-162.180595743402 8.8467422052196 11.1896916721799 0
-9.6480818570695 0.0135712467025391 5.23776843228558 0
-146.154850359114 -17.1897829818363 14.3740412155265 0
-162.429565413342 -23.7981506733798 4.20167483572409 0
21.4038565582927 11.9179620363126 -12.5252481745174 0
-138.812712170485 -22.7408768173681 4.95696651617438 0
35.9726385127214 1.50311599151367 4.20386097017242 0
-105.909591972485 -10.6583756235593 10.5544958725911 0
-204.847626349465 -10.9793665359395 23.3821553682725 0
-198.417963768521 12.1879878032931 9.99119912392435 0
-173.383577328069 -11.7601322937534 19.2255385993813 0
26.4665741220441 8.66705042721722 -17.4869378884731 0
-170.645204046826 11.2989411321625 7.77275049423925 0
-90.4692039115632 -4.72298719983544 8.36927598998022 0
-149.114392773833 -18.3144236554313 -6.39290162666477 0
-196.307420994455 -1.09711918379281 -10.3314719507483 0
-163.415303544978 9.65010468252717 2.18488699079699 0
-52.2237451784915 -20.0754108706834 -7.97399007716674 0
-213.792904549123 32.1872666872335 12.6615535463879 0
-130.396313717118 -20.8225902923658 -5.21327005646902 0
-219.077374213194 3.75052497332201 -0.67208867824381 0
-115.488485798633 1.65739292740228 6.52578053633663 0
11.7808121052219 -4.9670459380647 4.76671689067909 0
-107.947974051165 1.54729720987212 6.14513205401477 0
-82.7072782098644 1.84383370821372 -16.3893236197132 0
-227.169281627505 -20.6869950701279 2.08159086160205 0
-112.124106900009 -22.9085457806581 0.441959686253192 0
-119.671472153145 -19.1174415484096 8.73763173082043 0
1.28865811264738 -6.79286154846208 3.07422561273912 0
-205.705322455688 27.0267786856048 -10.8335018844777 0
-110.066691698384 -9.25758205900843 -14.2660436629268 0
-199.600057285596 23.8868479144152 -0.151292516205901 0
-74.8684306126402 -12.2445414291357 5.64513135600449 0
-152.222534101806 5.44191983144845 -9.00510415358474 0
0.702271929287999 -14.7856634562079 -4.14332860181498 0
-228.043859449749 -20.2086492756556 10.6838782548189 0
-208.262613065784 -5.09542429716535 -14.8283655016314 0
-211.494750526879 40.1214792552882 -10.3831043809837 0
-159.668998317844 -10.2937139660943 -8.09625751230649 0
-34.4462143335991 -10.8869431166464 -18.980198289955 0
-206.645534214537 -1.68940772765428 7.3459620257057 0
-68.9595855928566 2.34373248901645 -17.5208711109326 0
-116.522331527365 -22.2426924271752 -3.52122138281324 0
-206.030248186691 38.426924327798 -1.09757939113393 0
-217.438038366177 7.38117386153124 2.29893665764697 0
-173.650696221191 11.4100582966823 1.80067142481594 0
-217.871251992674 -2.38227082052635 2.02025847965666 0
-222.680840952138 -15.719728203308 23.3008915471173 0
-217.928827584787 -5.21295039869165 -8.62503364209069 0
-182.123534997038 16.2448824651896 11.6472038591183 0
-214.162220258432 -28.1270540378987 9.52151680326252 0
-32.172298213286 -12.0666327177253 0.562858740785507 0
40.1672663304006 -5.1532829616174 -21.9608425186338 0
0.883913307524838 1.52374690896483 4.2909440883414 0
-210.259858359121 -9.11372670922308 15.7257338581679 0
-42.1805565910256 10.2286405779361 -13.374967750803 0
-157.828475797823 -20.1518028773154 -4.59716519368653 0
32.8314354453398 -15.4538959328927 -5.84070527716941 0
41.6036982571976 -11.8306168073873 0.00312637371894911 1
-31.0909098694258 -1.00179327330502 -20.3324462296858 0
-209.708895370121 -28.4735833477267 -1.81699493611521 0
-65.9843946035216 3.73581167124676 1.83392885969115 0
-202.895935468865 -19.0868356962407 -9.36781214466777 0
-224.990494544458 -21.238024117206 15.2131311638013 0
-194.082742455695 -0.39606164089033 15.939801456394 0
-211.075191204361 -29.641310996789 8.39903807585651 0
-223.944704501719 10.017325697924 -15.9164595538447 0
-215.617814402919 8.55292671811963 4.00420924048561 0
-162.071546022642 8.57757984606514 13.5204358265623 0
-212.710943376057 41.8229773072374 -12.8604155255767 0
15.4567371177972 5.19212395736654 0.129237430831292 0
-10.6624639642513 8.78230504646565 -4.40553414435487 0
10.6781076619773 10.6481036074912 -6.43236364672218 0
-120.009568189466 -13.8598167371471 11.8910762925803 0
-158.875230692021 -1.07220672871199 16.8463739969578 0
-182.273772563858 -4.99260553704905 21.608277096083 0
-194.379311185414 -8.17448339964365 23.6289704825932 0
-107.101867480877 -14.4527501865807 10.0441358606358 0
3.64542576582864 -5.5554477805936 4.33290754120275 0
-213.162126067405 6.68678571944669 4.7953258357021 0
