-240.06098121888 24.678550617182 0.519867686704115 0
-224.333590959404 38.518643211752 3.78178931610049 0
-33.2203589339382 -4.40056531820593 -20.4117832888648 0
-189.3970802075 35.0504500831456 12.1983316211313 0
-71.2703623530776 -5.16142998271383 -13.2520986196126 0
21.0144251929118 -2.06740223430049 1.87616924077575 0
-163.710205799322 -8.92664858076163 11.535461527538 0
-148.332755723835 24.4913171599821 13.9051774401978 0
-239.183004305166 26.2098267374783 10.1883189449229 0
-243.042882898473 -11.4051359654037 -2.99682190966978 0
-228.498379766966 -2.81852108720744 2.3735611651634 0
-198.933010114186 1.38102343619351 -14.3929789209904 0
-96.39059276623 12.8369871791298 10.7071319031697 0
-207.779309318659 34.9928642643661 -9.59064751266964 0
90.3902428422399 -16.1809290268915 -18.9584480961465 0
71.7968766811397 -5.28050714636575 -0.607777636702227 0
-151.216157363698 -3.5251795148019 -4.57199043560714 0
-236.615938092832 -9.61074621897074 -1.86675574356147 0
-4.72339830107955 14.9745686176023 -5.15971788752773 0
-189.098664434141 27.3445842998312 -11.3892363003272 0
-238.578618188243 -18.7213674194367 12.7081527223064 0
-146.310833954794 15.7658045601158 16.9413190857844 0
-107.331015583872 19.8536776053671 9.48090439259573 0
-164.62331468786 -6.61450015306681 0.96736718353441 0
-206.637504570419 -38.9813713814064 -1.52066951691356 0
-221.426572416027 38.0391553620462 14.0295650551922 0
-232.664168834652 -55.7323874367304 9.0342337161336 0
66.8654310065214 -12.8068283502511 -22.0072127545516 0
-151.264828234655 28.2496482766829 8.62992211774452 0
0.422082404042617 14.5923724467828 -5.23161894403313 0
40.1964908537908 7.7432215536373 -26.3141512667906 0
-85.38645068819 2.66095037255752 8.44753432819007 0
-230.645989679599 11.4562754820539 13.3203412245455 0
-231.586764578361 34.3381137080972 -1.10695456627247 0
-172.004293193115 22.180784237725 -10.1256959733587 0
-234.031565082601 -11.8791070833425 2.99075902991398 0
-224.559626287558 -54.0430034896849 12.6080667855031 0
-228.601120115186 12.7347527346053 15.0247873324204 0
-192.452373796334 -1.21805142282209 24.7741320788347 0
39.0843884041816 -6.65391733384782 -25.6860032248671 0
72.2240166011212 0.88155341555551 -27.8868992060503 0
-213.471302491238 -29.0624655747044 -22.3431379346763 0
-34.0224301935545 10.1007531735742 3.38592440779776 0
-199.391089697578 18.6959890952502 29.6494978323455 0
-5.9462380528537 4.40635400401687 4.84882433894998 0
-85.5507136138728 8.25220983916198 9.55256542617881 0
-216.757591008028 16.3369867130177 27.3875243682336 0
-197.795603888006 2.61504405508274 25.6351194774527 0
-236.354814151194 11.4390933345909 10.593039610402 0
-123.549248985837 0.561673901886997 8.97328308055911 0
-231.308903829538 -51.7405812716495 15.2220976835108 0
-2.00964486169069 13.418207569002 -4.13294816326192 0
-232.588974929035 -56.2662744998303 -12.3317603818969 0
-154.450830256976 7.4244207592111 18.1277625961694 0
82.5936709902509 17.1346574727621 -11.1086646818234 0
12.7450941448366 -2.0555469558552 0.917792369859541 0
-200.305173564325 36.2172451595626 -11.0036178253272 0
-65.7535780642441 15.6187951827902 4.49066380424992 0
-234.169291186947 18.7421445720468 -11.3239167002813 0
-173.048432746118 -16.4364830947387 28.2160352054285 0
-51.5459498042228 6.72022049063348 7.28533049675078 0
-155.215820857741 2.15393485105986 18.7431338403117 0
-240.580780758587 -12.4771706205314 0.219321633852747 0
-221.091961045578 -42.3744264934783 -26.0771064346219 0
-242.95144237903 -20.1002903697428 13.2683574483253 0
-249.743269582471 -25.7061995672163 8.93820693614356 0
-246.964589873177 -50.8379069945399 -4.0890477526324 0
-149.101408043868 -3.69114160292669 -3.20453250758626 0
-252.360345590443 -33.1721761400394 -10.2982256403166 0
-91.6623298232338 25.313291601218 -4.76858419790703 0
-98.3418969337359 14.993919411369 -18.8054783364741 0
-190.698425079277 20.9540677036909 26.7437113399181 0
-87.4913590618844 -4.62375550653603 -2.70385532695141 0
-239.967842156651 20.2642541056237 2.88241266147669 0
-234.353639464876 -52.8963538816473 12.9238640203218 0
-223.842799931043 30.0548691630268 22.7431682771714 0
-221.602579252851 18.1387004655207 12.587288035846 0
71.4217232270499 -2.46220202826494 -27.6716221760473 0
27.2378697201347 -10.3154241457703 -10.0425032675561 0
-227.65546720116 0.530607051713383 2.22425445910497 0
-225.789962924926 37.4489611404709 -1.43401585784435 0
-10.2539185708328 20.8548699524877 -12.8223862089053 0
-222.332471420495 26.8488978771554 -12.5378775911628 0
-226.442403804909 35.4718731988302 15.7213147839904 0
-76.7760930756331 21.8796007347187 -13.0421832688445 0
-232.33402526865 -0.644968753742312 -3.42550917352504 0
-14.2287996377104 -8.26230559161481 -8.63882794531362 0
-218.767339957638 13.9120842313087 11.8997091819471 0
-240.236019135054 27.0460958477166 4.81849427889268 0
96.5998047352829 11.1069637099325 -25.2509843802 1
-223.707495219173 -13.8948732800334 15.2748785368307 0
-210.851566963211 -52.6213238785564 -7.2828941515703 0
-158.920420400823 21.5137236697073 18.9994235828558 0
51.2278960396463 11.1654565273698 -24.596359193568 0
2.21158769215307 6.93258658498869 -26.231448140433 0
-234.392174272179 15.8638092522284 -8.53022830890992 0
14.1625675583176 -0.353119646982405 2.34715187572488 0
-68.8454262724214 2.01930035583894 -21.699557429889 0
-235.318153662196 -7.22543967461626 -3.84481766194666 0
-238.102117257306 -45.5446022971749 17.5643726919947 0
28.134913482899 12.3574370393977 -24.0790388589905 0
-224.867007012425 -43.2370060932156 21.0018670016331 0
-188.619987462319 15.4642665061157 26.7554129358275 0
-194.882701148144 0.131737593479085 24.0326647243212 0
-232.439291655183 28.3843928923472 -10.6812664465774 0
43.9590777386226 4.10114178973489 -27.1530998053671 0
-33.7013165648451 7.88479231550603 6.58542391423398 0
-202.742626289147 6.34829775154553 -15.9091350397977 0
-195.466735492209 -19.357835635153 -1.98497485800411 0
-245.066800333065 -26.868246186566 -20.6608743045655 0
-78.2192425996176 -1.52472736361223 4.64138733612198 0
-99.5386601389762 18.9728112045223 -15.4891783055289 0
-182.733314524493 6.46950227690455 25.9912024108367 0
-32.4224784348236 3.70712510126296 6.10534158349114 0
-24.2195278152157 9.76541803651662 -25.1808537490604 0
-90.0144869640902 -5.44165889214691 -8.8072655122398 0
-167.044678568189 9.39360310740726 21.811251347198 0
22.8446649021271 -3.73920204170976 -1.98878389753822 0
-149.801633690177 23.4002878864422 15.6787886310668 0
-175.112972697497 -10.0120420907707 -4.25383602476118 0
44.4004647449357 -1.66283475273436 -27.0909581288704 0
52.3179524040115 -8.76148290324429 -5.35627165933028 0
-203.700455071334 36.5784128525436 -10.0234434426159 0
-17.016974720092 15.589828684159 -22.1171662920377 0
-149.14957745273 21.768216796308 -10.3620423467558 0
-196.851006347688 33.3434078540623 -12.2362457548413 0
-166.181418681326 -11.5540879195764 12.344862033116 0
-130.663137836879 -3.8485125912328 -0.999130497726055 0
46.8810883393889 -12.0858306552551 -19.7644717065395 0
-248.71702787517 -21.749488682526 -13.2689262936596 0
37.8547596335044 17.7127569003525 -13.149683671358 0
-169.744120735653 -6.66314205398331 -3.92141365613664 0
-198.685735438941 -10.8468791582628 13.5916390249772 0
36.1969446050799 15.2549395046139 -21.0678395317658 0
-170.612192311306 29.8781296534739 -4.90198317544404 0
-27.1083221763392 20.4630135915388 -17.1857638207291 0
-191.910046887197 -0.868920069724105 26.2180673303195 0
-100.818154923087 25.9740164433825 -3.29184861425607 0
79.1628218083525 12.7889289437681 -23.3759974058686 0
56.6791897486875 6.20412402106251 2.39716853654802 0
-56.5230288116649 -1.89407210661998 4.01674027417265 0
-143.623645346615 18.5866391524048 -12.4264221133087 0
-142.873180097604 16.8934281773134 16.6661167623435 0
13.2553059773715 11.6407525134059 -3.14471086259586 0
96.260421281278 17.570032168739 -11.171521374194 1
61.2319528705607 17.0522679480785 -13.3804746411303 0
-123.26689488051 26.7103187540338 -3.65302761276176 0
-173.781001459113 -11.3944433948754 4.72385713566142 0
-227.806810809938 -8.67082222730343 -19.3267345455775 0
-229.267301977764 35.5637977342488 12.7303282163644 0
-212.782966443832 -52.9311710593536 -11.2083391551285 0
86.4989487460694 12.5258783180127 -23.8302591010496 0
-195.194140220279 -20.1951408487226 5.15303547290794 0
82.6496298576035 -12.4411144323918 -7.94193252102236 0
-80.1822481942641 24.0797712891829 -8.05876656761209 0
-201.855233756399 -22.1335290185645 -6.96114179667922 0
-197.004724391749 42.9123171326491 7.18563519354065 0
-210.695088309855 11.3470773510774 27.3651558476695 0
-204.295953021033 -17.1679559708893 -11.4187483365243 0
38.0756022406202 14.5138262985147 -6.72539853910284 0
-190.447636268409 -14.1388663501586 -5.64911496578334 0
-217.399808477927 -16.4361915960508 -20.3079335987423 0
-212.411539964768 18.3062835907395 -16.5732983615174 0
-221.276984997113 34.4261290395712 -9.27022850703778 0
-55.980143823162 -6.69487961142709 -6.40179825288913 0
-230.973613402929 34.3710960562311 14.8143421981617 0
63.9212128472417 3.76902287356284 -27.5581124381462 0
15.4240053470921 -2.04111619047137 1.59888796682035 0
-224.798216371136 -58.7782555449901 -4.58033559641858 0
-136.557819423075 -3.2740967572623 -8.21776876175659 0
-237.782134776954 10.6930279964798 12.5232305670898 0
-42.8469599464401 1.25827316583642 -24.0449614072832 0
41.8508194588273 -10.8004896344399 -21.9413051568131 0
-220.12913280068 -43.6653918697225 19.6330698814242 0
-41.598894991806 4.37527476685027 6.26970184504142 0
-240.814492919389 -26.5927570390481 -23.6945115612197 0
-170.126173284614 -10.3209190922246 28.1228557057465 0
-61.6309323879381 6.59110497729901 -23.864969932633 0
-236.961524806375 -32.3219148932594 21.2842077040838 0
-236.258813132551 23.1961753299413 20.0224559524987 0
-238.334489955867 22.907775690197 -5.23224448355402 0
-116.868402267791 11.0839779935482 12.4954311451203 0
14.240744549412 -2.7990824854585 -0.908482022463034 0
-40.5704011728545 1.22671279987712 -24.3010064752921 0
-191.804886335795 36.6526800660207 10.8057198107296 0
-207.08475640263 7.56019700690262 23.6882789831971 0
-135.511072563329 12.3608427905363 -14.7106067392663 0
-162.037646021108 18.4740967066643 19.5760422835135 0
-171.871931059072 16.225725410773 -11.0014213311241 0
-183.427464661934 -14.6722362909701 6.27299902452542 0
-45.9593328690931 11.4931550919683 3.44874460007191 0
39.3114188337216 -11.9462576707742 -16.2889754461273 0
-183.888611598706 -12.8456872645099 -3.28798585284654 0
63.5651135188393 2.96454918238756 2.59961606395431 0
95.126039446889 -11.3392285881672 -4.90841328943743 1
-247.87419641694 -35.8239051348008 -18.3274899485041 0
-207.884672066543 -10.2087152684495 -14.0660339599396 0
-69.2079953274415 10.5048002385601 -22.9476046020329 0
-126.162432807536 -4.13473367145292 -2.20978792460534 0
-234.463195485607 8.23961374627386 21.3723393755784 0
-251.141854035058 -44.7764216813379 -1.74785434011557 0
-197.281152822504 40.4638336456272 -7.80418151384247 0
-181.993555684956 -15.847174538008 11.7683997635608 0
-107.135078292503 19.8067583338626 -13.7572336203924 0
-149.328051374759 16.6822002374124 17.3687033664392 0
-206.532835769309 36.7648609405006 18.4971489875072 0
-156.010640729285 -4.81973043861916 0.540632635866977 0
67.4024989569882 6.19375417978328 -27.2122387679337 0
-228.508402080053 -52.0621954081576 -19.6049626279004 0
-143.89737461392 6.81698331639594 -13.2624558673172 0
1.58965667197381 19.1746451948767 -10.1777349134196 0
54.576750934239 8.52912312044948 -0.0648450675622914 0
-181.684503589603 -14.5553452435003 8.06407002582679 0
-49.1493609876804 14.2489159513931 -22.223231623748 0
-23.6583783793742 -5.71161050072346 -20.3591049620423 0
-89.614640935616 13.1272361777292 10.1232290080657 0
-243.07336217248 -24.1344569061901 -21.1781902438134 0
-112.316611235267 -3.40065542003848 1.13359056235865 0
-44.5089141493931 22.8818354686957 -9.38808571774223 0
35.4436936614008 6.56805381466672 2.90158723049065 0
-249.613200643986 -39.5625561783484 9.96323942512129 0
-186.642730889465 26.8314563252725 -10.799135200748 0
85.2241571896127 -13.9844542225481 -22.3373661255905 0
-222.721689706252 -29.0146058785783 -27.4545744631146 0
17.9808681610786 14.1810556589685 -22.7550972464567 0
29.4956386935004 5.51146085888958 3.34881578592904 0
-34.2704962036801 -5.9863522099238 -18.1484760143625 0
-207.501137623993 -32.9680765343995 -10.4358699260394 0
-88.6336094440257 22.9029493827308 -10.2652632590179 0
-104.073631916539 26.39731362894 -1.96957625919299 0
-245.821322870105 -51.4868090766945 1.70898343195705 0
-204.283270063086 39.2188789537814 14.027455920058 0
-199.334359530116 25.0681733593843 27.4798392991464 0
-49.3696120097609 -7.09846945676766 -12.6306297461372 0
-68.0668255651518 13.1810182363298 6.86786411729431 0
31.402619473371 12.4792373919768 -23.951733175384 0
-106.490041442446 26.8466971934591 0.423129786581803 0
-124.563214865824 6.89381611067616 12.5213907326021 0
-238.566971256188 -35.1454915517213 20.5889002141387 0
-213.572559989805 37.8206164760878 16.1528253207492 0
-141.666787595941 -4.04312102631546 -0.200762708716516 0
-222.789169335804 -58.9768833186226 -5.54208938154256 0
-0.928127571351644 -4.02788026673187 -2.84020528159152 0
-59.2698198128267 23.5688465592771 -9.92314282219433 0
-155.452286117808 -4.96478670404655 7.88730209259593 0
-25.809001455263 15.7972300879412 -22.0092676185912 0
-43.9148640717959 -2.74057554465047 -0.261740068511923 0
-210.206357367838 40.7761519758584 10.215476782653 0
-237.851709890559 -14.9415335793706 6.58756311136636 0
79.3502353284812 4.35604787898359 -27.9301281015752 0
-207.891584929993 -20.3035404370224 11.2368404505448 0
12.5323022722433 -1.31499013518067 -26.2267984794864 0
-69.6242490435795 23.6243120615923 -9.65145823786625 0
-215.109709151739 22.7089065788834 27.8620281309493 0
43.0493815719089 10.3665461796538 -2.17143391719416 0
-208.178440492329 -11.1314492000103 12.5799606107018 0
-173.157965273152 -1.96148524436572 -10.1538858962275 0
-188.965017110868 -8.67461881260129 -9.97344371535593 0
-195.636429817878 36.1031388398405 -10.849861211335 0
-155.068680414009 -1.25333708603251 18.3516798844332 0
-125.444970280156 27.5674309586434 -1.31539419961576 0
-231.463668685921 10.3702897924362 15.0890422100507 0
-72.4449038357443 12.0002919636377 8.23579428724825 0
-61.1060205415502 19.3759510648103 0.911059960148674 0
-150.361673062021 -4.4324122621285 1.87002128731512 0
-142.381440085447 25.9255137645656 -6.14961282907644 0
-218.741949976399 39.1535222344106 13.1050288394689 0
-82.6329565559106 13.5790884922243 8.78813294690961 0
-44.4766840810462 17.2846513258483 -1.6175140500652 0
-164.316703000086 -11.1706986942247 12.784470681479 0
-137.073247341936 -3.88791126941795 4.59302208904595 0
-212.430207354734 -27.5794213102916 14.0474452570875 0
-212.558835981987 32.5611042997303 -9.75905183748259 0
-251.597745720051 -40.2432122844072 5.38939535696183 0
-241.637761171667 -15.7765084615337 8.46071235333316 0
63.6778752938282 7.80048882620865 1.29658567579472 0
68.3587141193399 -8.83123373756623 -4.57027577252059 0
-217.903524978891 20.4596557243979 -17.4022674487699 0
-214.512911198116 -52.0294323389271 9.89945808663126 0
-14.177845239856 21.0103851788795 -15.1809569373151 0
-212.586827575733 11.9856462596994 -18.5804580720444 0
-217.516568003319 -54.9736875014666 8.04041407713383 0
-156.497223338517 -4.99610519649621 5.9088738410659 0
-40.0442527904831 18.8635754871571 -3.84962318623517 0
-155.505234166375 23.7407366573646 -9.08596226304156 0
-135.26895986686 2.36255751514666 12.259946758761 0
-99.5886602835978 -3.65956189297856 -11.6216231839502 0
-246.531496256801 -20.951825403607 10.0549325941783 0
-86.4168295583838 0.591154293009019 7.50821161848406 0
-225.880508042134 27.6702463732333 23.5005020531493 0
-192.965635088694 13.2079141089603 -12.1713932423298 0
-138.784398662162 -3.90285560648812 -2.51407761616704 0
-130.732992389548 10.4575036302621 13.9564809278304 0
-55.1653938962167 18.6568909107652 -18.0582900055389 0
-21.814796701161 3.39889339599266 5.24217716762684 0
-206.579603619489 -32.3008492815306 -7.80410888754984 0
-168.841913775619 1.09623313443208 -10.5303211371137 0
-121.858566495188 1.82732969151232 -13.9627399293752 0
16.7105717729834 0.0348081393338759 2.35516861262759 0
-120.877973290686 -4.07929485143336 -1.22400377789384 0
-234.521127975276 -13.2472240009902 7.50511005391349 0
-26.6253341360706 8.45688088677812 5.36542144653879 0
-77.0346935741873 5.25324495769276 -22.0786065178019 0
-122.633697301059 20.5528217752623 11.6349809987677 0
-192.67799882083 10.6333862042833 27.3177394043251 0
-214.603257578348 -42.1642672656366 -23.1548796640898 0
-209.585392656239 -41.4900180352126 -17.9795174466686 0
-40.5810447265452 11.4823636910218 -24.1795682503467 0
-211.315980174879 -40.5819659960231 -20.3764198439104 0
-160.040947214459 4.99731611858742 19.9957492503478 0
27.5030242065201 18.162473779751 -16.8537986162903 0
-189.552911366297 7.8794266337644 26.7712897997995 0
-203.275844294202 31.0286689716367 -12.2733400474138 0
-132.377056443713 -3.65716831310451 4.31516569836467 0
-225.145040172455 14.8186548274388 18.3254712680756 0
-116.570118656721 14.7921245624135 13.5188642572635 0
-250.594151998315 -33.4119725981806 -14.2146146411233 0
23.5443140302693 14.9781447642876 -21.88091669472 0
42.2910172861972 7.82146780144981 0.848208797702678 0
-190.171868088467 0.957305419690719 -12.2712839309283 0
6.39866879788993 8.80823612132445 0.214044227149437 0
-210.078787626008 -47.9731188166697 -14.9871005305362 0
-128.146101638348 0.958402608048329 9.72806018343746 0
-234.209217383651 -12.1811715790154 5.33228256642529 0
-121.840140487874 -2.78671144775286 5.1073816513272 0
-210.125329280669 -20.9576555383317 12.1372197975783 0
23.1192018431672 -10.7847688246787 -16.6621125216968 0
42.9137905357679 12.9164865619148 -23.4323876391789 0
-154.374294759547 -4.9216946346191 4.31975030195498 0
-237.401442201539 23.1086740999946 17.880569018911 0
-189.426909789807 36.2083755423968 -7.57730091552585 0
-121.556903946312 25.9172819602474 8.14507513345815 0
6.64540785329779 -4.95951044205652 -3.61947885327743 0
-41.9420407173706 17.6934077387432 -2.52587452608445 0
-160.210611617863 10.3585045234017 -11.6173587198079 0
-93.1156962232958 1.05732128957055 7.90189922917124 0
16.9532937070444 4.67387114858535 4.04008497923652 0
-123.825228914297 4.99473968473123 -15.1748424524884 0
-127.080808540942 27.8489502704841 -0.540218864853572 0
-207.136251232722 -34.6430969489289 -8.9362524789017 0
60.0749261825322 -13.4816726279906 -18.0469875069004 0
-225.947069009269 31.1102524546234 21.5916856210257 0
-152.001990822153 14.9628394046072 17.675321078434 0
21.5963334127659 -8.28840579023735 -6.65557121085761 0
8.28738495220403 -9.40437419345801 -18.3849728750919 0
-190.795930855426 30.0086771946215 -12.1820534765514 0
89.3121977989167 -1.41243583673023 2.69652445514299 0
-72.2878720322215 0.475996324316803 -20.2390689577011 0
-150.1207942964 29.4717974288259 0.197066496033248 0
-212.494242750648 -50.8922460423503 9.0028061984045 0
-207.98623102689 10.87236368267 -17.1676727293523 0
-5.35947381314812 -9.23864363729046 -11.536020873778 0
-196.176790732157 40.4898420465643 -5.48790202398415 0
-90.6691040132633 -4.38449109679576 -2.16096731741551 0
-18.7462230074888 -8.44540992000749 -10.4838673337728 0
34.0056178345718 -1.46880890582193 2.25328317394125 0
63.2290244048523 -0.0521016057181336 -27.5772378674151 0
80.9809066427284 -15.1678021592381 -19.1394721584445 0
-223.26786877218 7.13117749760534 -18.6480924999408 0
-1.63473234191591 3.42319654159318 4.20354319158527 0
-231.710919744708 14.0614827840482 2.09275755418376 0
-185.061574099903 13.6146752276343 25.6986420236813 0
-190.9814817911 17.9342598704191 27.204426411925 0
-175.083017814825 -11.7749775816802 2.62904649670544 0
90.0962010661498 8.24752610285816 -26.9299321122544 0
-197.133257706978 -11.4197089447809 -10.2435588585064 0
-213.046402094333 -39.5765374747995 -22.4912489976563 0
-184.105706014114 30.921009728021 18.0431152484174 0
-235.365607687349 -14.3351035920229 -20.0909054799239 0
-176.404017525185 -18.3586431872854 26.0460001185902 0
-225.93110271168 10.0440453908987 3.42004946247575 0
-199.138501555345 1.87190030495212 22.0680434825609 0
-40.7276129347872 -7.41852987990095 -13.2382385121014 0
-222.569617025485 17.7488925617016 26.7667371411577 0
-105.104742975154 9.90704964996139 -19.1469950724197 0
-177.620026218376 -20.3107993035958 21.2588331021773 0
-129.340526317442 -0.402693562791204 -11.8917324750386 0
-99.2063321069279 18.535569848053 8.64974989934051 0
95.3965837277244 15.2831112158603 -4.41949102798 1
-203.77581501558 40.8292834502483 -8.61200178962713 0
-191.174046208467 -17.032619413747 0.205297209294269 0
-175.910853709349 14.3753410772726 -10.7709783503712 0
32.4310142664556 10.3639675911569 -25.2597876777006 0
-32.2728768701545 16.3853442163928 -3.09068683031859 0
-247.494703318381 -28.1943400873738 13.2469272335388 0
-237.607079005571 -50.8200264061903 13.4657964449586 0
-115.359882017636 10.2103519055453 -17.635957663264 0
-3.80905197251804 -8.91106000960946 -16.8535646649629 0
-96.6079635596504 6.64761215025507 -19.9421684068548 0
-104.564825216868 18.4439042548055 -15.6149002923476 0
-241.612083013824 16.0610039069126 15.623834481858 0
-179.085810312654 2.21199629799976 -10.9913455454274 0
-184.771787835658 -18.2318677517622 22.4607316812844 0
-55.5239697925152 0.772763905110433 -22.510671276648 0
-226.574987698595 -57.0885876961812 -10.6836952101002 0
-198.362352747915 -1.23001061179481 -13.5776874739884 0
54.2752862776131 -2.45243847546743 -27.2030039535155 0
-125.698394657523 1.66474456565556 9.9218191969577 0
-192.260331236873 -4.26748500417218 23.5400530554491 0
1.13532900469659 2.5552378946578 3.56535785716841 0
-238.509719795085 9.00466529881774 17.5879076633869 0
-201.611451779022 44.5131603635923 -1.65640377222896 0
-61.2966026333148 -5.85078281591366 -4.58900488935974 0
-77.1111076311692 12.4844354246039 8.63326840968757 0
69.7161104266043 2.55931530402835 2.58010658501787 0
-8.24946939298193 -8.99736785764141 -15.2689515971813 0
-28.5700698998054 -7.94354515952574 -10.2059676476987 0
26.2864105580855 14.0352696387978 -22.7388940073548 0
-147.970552254755 -2.53741529169727 -8.38678077754356 0
-139.353489446154 17.3783682413658 -13.2841572862914 0
-233.457619300418 -56.7353575024432 -5.32454711994078 0
-220.646242311809 -25.3491022513789 -25.6510783230327 0
50.285779052624 -1.79981995825994 1.6021542359397 0
-238.300050783144 -8.83494636880948 -9.02375274652598 0
-218.274636863125 -57.2008251527505 -8.30095345876016 0
16.5954844163244 -0.422743912849546 -26.4506433025018 0
17.1911509448137 13.1803636232373 -4.65495297918643 0
-17.0551110649809 8.31143181641568 4.16602919154094 0
-170.428452459589 27.9321837881133 -7.25903600332727 0
-159.599265352918 -2.81161304767017 -7.24422594743209 0
-34.0190990314379 21.1293463451278 -15.8742430648492 0
-134.530296984213 26.7651696831858 -4.21981110781448 0
-203.916329252369 42.7127899190026 9.02803161622442 0
66.3768135900581 -13.9033868851126 -19.1330674023928 0
-226.7978537093 -57.0755800687412 -8.88792631263026 0
-249.09012732375 -45.8090509994641 -10.9292538039492 0
-108.78670227231 3.28179696700379 -16.5012459236954 0
77.4212983603444 -1.4657228994343 2.17570429076875 0
-249.689065580217 -40.1930788066243 -14.2419585508291 0
-11.8580059978426 9.36113824647429 1.12266488588389 0
-201.83159762324 21.1778563048574 29.6638258734485 0
-133.194641075459 0.742663509786357 -12.2912199038291 0
-219.227772378692 -53.5838399586627 -16.8392996970164 0
13.5418940911919 17.0392470242052 -8.29169408337442 0
36.143063835492 3.89597328397456 -27.0166777279483 0
-115.217675583647 -4.06317121857 -1.37865510483046 0
-172.291662988587 -18.2322701137512 18.2052488319757 0
-222.28631549603 32.23486763822 21.4474801331119 0
-134.467747766505 28.5249524747054 1.12241472466932 0
-227.253013017046 -16.1407851213555 15.743643026938 0
-3.51603639940795 -1.31976993630812 2.32271486833263 0
-152.815989217372 7.06241289312469 -12.3020098112182 0
-231.148871700016 5.68162638591461 -4.42529179816905 0
-215.297180539791 -21.639482890234 15.570089405144 0
-211.034974934001 -28.9880316400232 12.5044480077478 0
-184.036624141196 4.38928538495604 26.4849238328205 0
-115.518655280773 12.6040088623819 12.9477488756963 0
-87.0112544731366 13.7804678248646 9.4217231854572 0
-203.078108506597 42.9676951883252 7.0852466028084 0
70.0451618983465 15.9948237763614 -8.3183030719119 0
-226.881779962911 -13.8404090413053 14.3943413750481 0
-209.165945422301 -42.5218851437887 9.35674920497529 0
-69.0706235349637 -0.982448717166949 -19.3135490408466 0
-86.8499651760837 4.68565882479959 -20.6870532074449 0
-207.752429699967 -31.6739937612721 7.54378467029109 0
-212.662090209824 -2.96589110746623 13.0342917083425 0
-82.6935699837738 -0.594731587890922 -17.9702595414953 0
-139.359075066811 -4.00526132606004 0.426873409530708 0
-204.355957043405 43.6857818951375 4.50749927837026 0
-186.784868747913 29.6171225377736 21.3612514326263 0
9.56088144066613 15.0965761630698 -6.11528898915184 0
-9.33209526247713 -1.30655204684659 -25.3756159571457 0
-237.021541612483 31.1893911455869 7.13776687000853 0
-198.915002448935 39.017673140422 -9.99174384518888 0
-41.3225303837938 20.6004989128708 -5.51368654606019 0
-233.577792322925 23.1584982509077 23.7002829022087 0
-221.52853294917 -47.4299272348006 18.1949112026621 0
-244.646311721383 -40.6191277766274 15.5618774204402 0
-231.497460363683 23.5332708397389 -13.268829729321 0
-171.278130069525 -9.88473341032761 10.4510220599743 0
-89.6429368387847 0.227248817679746 7.43798342442621 0
-227.261554245272 -12.1768006123395 -21.22549157616 0
-0.345276735210749 -5.92643252687428 -22.9017025181629 0
-50.0999789212335 10.1019550927178 5.44218897659223 0
-120.293650981174 17.1955048772071 -15.2825454138468 0
-61.286431068072 -1.16465989544274 -20.2358437796477 0
-107.060201601651 -1.36118151906339 5.81729726779088 0
-232.856180078373 17.5968992707664 25.3766831621427 0
-183.384121418893 34.4002390005277 7.16947742268331 0
-218.626937838612 -54.4616387736737 9.71646042566629 0
-225.026793591032 13.7563149952738 23.1970575961945 0
-108.102018288319 15.1620613329678 11.6031225858682 0
-162.483561765043 13.0519106283846 -11.4833490267366 0
-77.7646215283387 7.90389353577983 9.03314785423204 0
-246.196480483177 -18.5562294118973 7.99454472467779 0
-34.7549244146384 -7.32822482055358 -15.5260292759791 0
-205.099222153594 -29.9071684392589 -3.01712104051447 0
50.2775397908827 -9.62441595167475 -6.62725384244677 0
-158.773454514452 -6.28865234296676 9.73874782367581 0
-216.916212927863 -35.639799216469 20.1726620788436 0
21.2570013659524 -0.749737830883814 -26.560098629273 0
-63.0493430171445 14.7227600018541 -21.2726755180344 0
40.2587119083516 8.77931030840909 -0.510415612397526 0
-22.8609402249235 20.5884938004118 -17.1762323041613 0
-213.884563607595 -9.50903947993126 13.4911698758678 0
-181.849129664231 -6.57892792197683 28.3078453710731 0
-56.3107354559647 6.59388964809863 -24.2931156446258 0
-63.3024377413277 5.68858721830765 7.6657177478653 0
-230.304904688895 8.74107080438517 -10.4773261174081 0
-22.725198255484 4.92212637917351 -25.8825530585841 0
-228.794298897248 -54.3229996302294 -5.22668660677155 0
-139.061446190674 28.1869173935012 -1.62777135076059 0
-108.671296684034 8.2517042633524 10.5763261996835 0
-7.3779084515894 6.63535952015579 4.82675249942054 0
-206.275787124845 -47.5372029860691 0.279789389772424 0
-129.059587101446 23.8724113138045 10.6954998189585 0
-192.092318832743 7.11975015837038 26.9741497137556 0
56.660610093004 15.3281205166773 -19.9134475271881 0
-120.903457680503 5.3309186886367 -15.6730066475536 0
11.5822688663215 3.36006495617125 4.15962043480191 0
-94.9565658877858 25.8372560582163 0.224583251358346 0
-231.321826713093 -22.9938533150174 20.4205155672434 0
-160.712404594255 -4.87181930196384 -1.95316082606931 0
-95.7572875990872 1.4691568087171 -17.7270428264132 0
34.854120843705 6.19938695381078 -26.6668007810831 0
-226.665072835816 -2.47390177654838 6.00157941629252 0
-236.941094802685 -15.7743465127326 12.2267441998325 0
-114.48254423458 15.7837609002309 -16.699052548305 0
50.0828794868487 -12.2085799656493 -12.6830305537126 0
-168.583842616233 28.1334415416247 15.3848605741903 0
51.5613768316846 1.77883438595198 2.64896923437601 0
63.8974113624378 -10.5231266881327 -6.96501813542688 0
-225.857742809035 -56.1806124773175 -1.88265457898475 0
-186.391384611576 6.80010269143908 26.5520806767802 0
-2.52859533635212 -9.40155986753547 -13.0777024038381 0
-179.227634058489 25.2080749968132 21.7397266991535 0
-180.432899726565 -14.0089473218269 7.24821899050717 0
-134.81226452425 -3.82294877197047 4.18431103385994 0
-135.052227637874 8.76084809486943 14.4108327279396 0
-229.189694433697 -6.66953438542326 3.79511302014029 0
59.4866650298223 -1.00398952533836 -27.4717662064739 0
-38.0537042773765 -6.51842757869618 -5.99996978503764 0
-204.792448346481 15.757727220414 -14.5627045811156 0
-201.583382252252 -25.0579891368073 5.71938811079321 0
-211.975090299181 -49.9445660855412 -14.9897547547798 0
-221.276509674155 15.8055937742414 26.1556592057971 0
62.1284511038674 14.6016880439243 -21.1870347520719 0
19.6084422665098 8.12682735909238 0.680850687231216 0
-88.8551887288961 8.07668456190932 9.64431644807044 0
-128.771152227508 15.2571160937052 -15.2203828235965 0
-217.678298098963 -30.8969764017738 -25.9557950854524 0
-193.249372057082 -18.4042857848619 0.149944137485656 0
-235.007296995509 19.2040372520918 -9.04274912628295 0
-214.206951865731 40.6221448924778 -7.95399009963682 0
-177.272817625115 18.5867111945465 23.351539372987 0
-209.637103660803 -52.29613821442 -1.04537330428468 0
-171.09422794403 -16.8498818013369 26.3980682697659 0
-176.086576259797 -15.188604750701 29.4448845461023 0
-154.572714632705 28.8286499905709 8.26470925844348 0
-202.629494053269 23.931312949452 -13.4642784553842 0
22.1912079603711 -5.30034198644926 -3.67644250491802 0
-223.605251771605 16.5404843236685 26.0046756150208 0
-7.99641084342071 15.2198878923994 -4.98392530696756 0
-173.714187342684 -11.2818401858374 7.56418556125954 0
-198.930390167052 -1.76796472324219 18.0280711654849 0
-211.974328900507 -37.9458732765624 14.4200285105365 0
-36.8326386944783 7.98316525337166 6.70410144812761 0
-203.000622553437 -11.5907353565848 -12.1703699707733 0
-37.4489580617999 -6.25854811849459 -17.2225157228485 0
-44.3747717750138 12.55518025092 -23.4751324568505 0
-181.804834665475 16.7831123215063 24.798141264243 0
-248.248174958973 -45.5650338226514 -12.7933938932068 0
-151.573534512838 19.337508448209 -11.5775566738469 0
-140.739374148851 27.5475114730946 -3.39292123728465 0
-175.803507676076 -12.1015094462168 4.47080398207931 0
-188.986719249253 23.2950730960838 25.0584419171937 0
-245.483935662871 -40.425913057911 -19.6134748847783 0
-238.512380715033 26.693357879901 -5.31714010206223 0
-27.9853162526872 -6.81675960106878 -6.66581196675173 0
-237.674395506008 14.1126116911316 22.3446472171974 0
-239.457019412338 -50.3564304482217 -17.1857465152326 0
-180.671304690472 -0.602661419860815 27.1389554417579 0
-97.5138564967121 21.7241768813949 -11.7393489667047 0
-142.463568647848 22.2081973936618 -10.1837637255029 0
93.8452065985079 8.57703176465116 2.34758948425536 1
-253.764567832358 -31.6986609226831 -3.0973968932095 0
-206.708647273174 -41.5661247814222 0.885293365778972 0
-58.2550466351908 8.67807444299803 -24.0962182104924 0
-51.1489532500808 4.1549541923307 6.16796733935056 0
-234.199688102873 -19.1739467303715 -23.4340852043342 0
60.4749023122576 2.12011976267573 -27.5954461337674 0
77.3476577416385 7.41383084257031 2.14107440160467 0
-248.233465118102 -24.9076800975744 10.8284341278601 0
-206.490253762759 -5.36347920542583 14.3388542530229 0
-213.790934402994 -35.0985140323014 17.8548026035074 0
-233.340002016583 -57.042239842501 5.57630435285708 0
-167.113508525345 -7.66220280831545 0.241085691369102 0
-189.70953339273 31.4523726706908 20.470873888233 0
-154.559706432055 -5.84030044315065 15.0655353993294 0
-186.724553619731 -15.5327303325743 21.5653929067619 0
-72.9323025546502 19.2519303523426 4.55225096850445 0
-208.658467452008 10.0647069442333 27.5559355348537 0
-218.250055292177 -55.9686679886787 -11.8162736541452 0
-219.318693854429 30.7258864283831 22.9718832154257 0
-207.584031899466 15.3420363680172 -15.0941962828552 0
-215.718094307532 12.5932076628575 13.0460658799357 0
-241.5634690053 13.4223259354408 11.5514014991303 0
31.9490262265357 18.1362802017812 -14.3618581162822 0
-54.3932096102533 -5.92681739006947 -4.75637241338024 0
-222.663743162378 -1.69279906264363 9.5544780628267 0
-183.117561784888 32.6423386643241 12.9453426808939 0
63.0033241090087 -12.4447851399111 -22.0504533087426 0
-152.943469096548 -4.51408399598684 1.33774177407297 0
-229.369212768551 -44.0544498473734 -26.3449843007479 0
-79.626592020286 8.4529592920054 9.18871389326713 0
-200.408770792641 2.90347716642597 22.1513440469077 0
-141.527279513439 -3.90426393298152 6.35692578263075 0
-70.3162911765719 3.53177207085659 7.94325797508212 0
-30.907049646748 -3.11901033467047 -1.19400733558052 0
-26.7490796466531 -1.94362485377188 1.83175102943335 0
4.16169697621573 -9.21910483013564 -9.78911964771982 0
-14.4682598445697 3.9243471209354 5.11448074993237 0
-184.758232997105 -13.5928270760928 -0.964729854657809 0
75.0157375805676 14.6619725955209 -5.74183289618658 0
-215.832960416383 -53.4090822218236 -14.633579075054 0
-163.798395590605 -1.25636572747626 22.3018458770371 0
71.0676789958178 4.69237180076533 2.72836024400821 0
-111.664655205928 -0.789464386817515 -13.5509939725705 0
-95.5217088550645 -3.63512658590895 -12.2743352720154 0
-19.3667937333007 6.67633023899795 -25.932297031096 0
7.04490232326538 12.435150374138 -3.64058668766632 0
-233.78466327814 31.4679694359116 -2.45505026738803 0
-173.137036947501 -9.54416356325269 -3.73810805297925 0
-234.455372797387 8.53084077872887 17.5907271870599 0
-224.753029890927 34.9635428572292 17.9113778915645 0
-64.728893913925 10.6896086471409 -23.2440427539151 0
-89.501354277978 14.1422432389422 -20.002023127367 0
-208.180550258375 38.7557984286019 -8.86460416644495 0
-212.292635185005 14.1231203084909 -17.3774028069329 0
-119.558531407986 3.44735482311912 10.0342557925283 0
-163.70143164147 -9.50408341486199 20.97849470746 0
-207.32502371304 33.5389249903814 22.0353092488126 0
-131.24605856594 17.1786856983633 15.9117851080099 0
14.8880793665548 -8.84019222160447 -21.2564246008554 0
-239.48269832547 24.3461982401982 -3.47013175133118 0
-213.364236324882 -54.6942108311031 2.81124064933184 0
-18.5128557301196 1.49031681741128 4.17796570992096 0
-33.8193358834301 12.0801794003151 0.826148467187702 0
-229.341844999268 -16.4833240494193 -23.0396565180889 0
-220.465140098908 13.8993092685872 25.3040145001155 0
-206.610564358879 12.4729979976214 -16.3661067225171 0
80.4155413858828 17.1928424743923 -13.6541827001614 0
-249.838136942656 -21.1829226774812 3.47844198285068 0
58.5137381288966 -7.50398568139216 -3.70485833110756 0
-240.462789699972 -54.8222664415342 2.11589675366319 0
-82.4549777244532 -5.94347784799259 -8.94191051297548 0
-234.214195472884 -4.31295967704876 -9.3154670935627 0
-244.765655717963 -14.5455307580134 -10.2920934906997 0
-53.9080922854982 21.9346995230422 -14.2219052149559 0
-190.815103262909 -17.2727840082422 2.03341136675919 0
-195.176472883204 39.8679160188969 -0.821088347699239 0
-207.014535260891 5.82912820925238 19.5550986822739 0
-208.928620738181 -40.2715239656419 6.97888866564228 0
56.4616730629642 -11.059995402788 -23.2726606883865 0
-39.9648028858415 -2.44126649106179 2.42422343456476 0
35.5936858208377 -7.78326240432125 -24.6724881164229 0
-245.451641864458 -30.9117048064768 -21.2434423447313 0
-98.1784541409058 -2.17967140667689 -14.0674950945194 0
-156.626750897374 26.4368845076026 13.2862264425241 0
-114.619452989514 26.7868882969227 -2.23963910033586 0
-224.75013992954 -47.6801514049321 -24.2036149157303 0
-66.9338087250654 10.1253100469288 -23.1973225392031 0
-209.168812481391 -50.6978366941976 3.15745238699231 0
74.6181349960598 17.0213965935233 -14.4614347049099 0
-186.802491204878 -6.99814820737306 -10.1566852032397 0
-139.183162446038 3.77782894216727 13.9945369303415 0
-150.74122560273 -3.96689554345891 -2.20025788089823 0
-209.366233857249 4.04762742467134 -17.5895003918667 0
-212.422515432322 9.59085455031408 23.7193320741853 0
-139.635701227152 -3.88426804262399 -5.38239169191609 0
-223.210168389256 -48.9720399999697 -23.0046421320308 0
-38.8560868411115 -4.35717428404615 -19.6810474239826 0
-108.104607389607 18.0784600744014 -15.6927007315886 0
-32.9129621404364 9.09592183631413 5.31231722528114 0
-200.288165301451 6.28437710013732 -15.0655297722782 0
-97.3743432927285 26.0181068727208 0.0847501407380335 0
58.079798974131 7.92815311769644 0.790105006733307 0
-42.8432100647575 23.0644799276817 -11.5909388434391 0
-32.3322210046417 14.0745571129393 -22.8988727515139 0
-28.5582462079026 9.27052699995653 3.46330857729768 0
-94.1548063716445 -5.05361385714148 -8.98456129114354 0
-211.672224454919 -3.89280212751993 -15.8948472212734 0
-41.0288847313343 0.210953833545189 5.63314660853493 0
-219.279795272899 -36.5735274894799 21.2086124678927 0
42.4095173462379 -1.94029213153948 1.2720327633791 0
-229.33360454603 -23.2376383577231 -26.1448353544729 0
-59.0466555465605 22.4211604030765 -13.4307764357217 0
43.5928480695266 6.60208243238295 2.49217958017021 0
71.5307146268731 7.29836248989898 -26.9852945796584 0
48.2751095966189 1.29782123243626 2.7845098857933 0
0.994158694431904 -3.08174172610733 -25.135599140086 0
-214.277696088644 41.6184146358258 -5.40749732774208 0
-141.666167549567 14.5850172142341 16.065132909911 0
-93.8136821874093 -0.429875425284518 6.31529294353618 0
-125.367337218954 23.7861627504107 -8.45034766735526 0
-232.706920053828 -55.5255103586999 -0.84788256265466 0
-72.8701344048341 16.8801524764458 6.19778648666532 0
-211.487366868401 -7.54141029081153 12.9342932343609 0
-64.122577960893 22.3871793386754 -13.2604630256612 0
-173.797555595001 -19.6597012029473 19.8558066156639 0
-205.515337559808 11.3017935728107 29.385983849105 0
-112.584647548309 15.3825468703928 12.2904417564867 0
-202.949054674368 -22.0039585665232 9.48632159153876 0
-211.850629768989 30.3111099728322 24.3127824610504 0
-44.1310590035695 -0.384724451054962 -23.0354486046479 0
-185.547495331974 2.13879222778601 26.6917009481277 0
-218.663734742691 -55.3796372383829 -13.4350589067586 0
-171.302727541344 -9.72698382184115 2.63232428644441 0
-205.907455358222 44.3324313101923 0.639084548853227 0
-225.750047589702 7.55171690665913 -17.7015935261068 0
-133.967458476245 4.63299388748194 12.9871198083015 0
-87.5231566229605 8.50420359478454 -21.5169416749377 0
-174.513140058097 -11.4501521655208 -0.195849646558241 0
-195.235099388102 1.70752971414288 24.5303012776347 0
-201.966746714967 44.4143422103592 2.95155115207421 0
-125.021657354131 27.9397853895735 2.32574331717177 0
-67.9087139929186 21.0437206684752 -14.7850100115696 0
-236.617193197674 -39.7507888849588 -26.0382244664425 0
-84.5551505866789 -4.89159889892815 -3.23982773066078 0
44.3835430117697 -8.58256863169638 -24.8107960293547 0
-235.496683247477 14.8221524831361 5.9018070973864 0
-206.177696502379 -41.3249536658129 -6.03553642519899 0
-197.129758440105 -21.2081287342054 -0.699404187882065 0
-238.39836291038 17.3102984695129 1.84831985115841 0
-165.892666071873 2.65562325678342 22.4278729413961 0
-176.033051707209 22.2890717092595 -10.0621156070521 0
27.2487050054092 -10.9383295481761 -12.6407745873508 0
-229.819184667508 -39.8147800508563 22.1208382040999 0
-93.6913910202915 19.5422207696658 -15.0414084365966 0
-196.070042704041 1.97980215580876 26.0425787279736 0
-185.722623931465 -14.3545627303556 25.0832253928378 0
-226.401552661911 -4.95784982998401 7.6585101832411 0
-235.181585686854 -40.2524091746212 20.9805348963938 0
33.880138663428 -11.5293774724258 -14.3910091418807 0
87.3908956493559 15.129606047748 -20.4683490172315 0
-193.692595064038 16.4838251899167 28.0284687479549 0
-230.716596768507 -8.01589410468092 -17.7590637657611 0
-233.16196592276 13.8066533139945 -6.8700000824538 0
-250.963324202455 -41.9203450767566 5.47338097711837 0
-224.808359440913 14.5055073387704 -17.7089039410102 0
-250.195518873944 -44.4362558517385 -9.67514602212008 0
-163.253837358141 7.52301664797107 -11.2184399234919 0
-223.698747478026 10.0392940474488 5.07197196800967 0
-222.048053949608 -58.5381067470788 0.943486742577225 0
-218.827949674261 36.1910819596398 -8.88359576531128 0
-88.0932763526609 4.82380303278878 9.13228644367108 0
-250.993131824386 -40.9555265050413 -11.2873043469677 0
-110.402309955183 24.1605234329756 -7.9902736238193 0
-41.660042012851 13.3060014325717 -23.1572601866669 0
-195.372685561007 32.9341602367143 21.2702142018537 0
-186.71945618218 24.4631677561342 -10.0962045238826 0
-233.066624097397 -14.4652661102814 12.2912623688899 0
-88.1586591537597 2.38519304716815 8.55609445503253 0
-178.544563348943 14.3112082809277 24.2864574362702 0
-25.9135320590755 -6.74732470955819 -6.53259962672265 0
-72.28345599456 16.5190738017375 -19.5519866148864 0
-238.994577294344 -24.9299311822104 18.9710843429518 0
-205.755147511692 -9.46593615194885 13.1395448149595 0
-210.78192591274 42.2208295295592 -8.51233277978373 0
-222.253944028758 -50.0735335490652 16.4640428857814 0
-172.260911005735 31.5130512778996 7.62871990358018 0
-219.367073677998 -51.7910731416657 -19.0815702067374 0
-37.4214608152661 -7.41914817137174 -14.3905891183387 0
-151.670263584325 -4.56248196909247 7.92238911013234 0
-217.79556067531 4.63379416849873 -18.2124320776862 0
-198.396619865062 -3.71467114994424 17.6525390553683 0
-202.403647809688 29.0277938909117 -12.9049975972533 0
-5.20566599437871 8.46832568142403 2.13128482393529 0
-176.484951159407 -10.6432014924239 29.7387928550914 0
-15.6517204040757 -5.58942373618806 -21.5423014933401 0
-138.386283625862 9.65563847299189 -14.3078912025749 0
63.2906260087941 16.0710187807983 -18.3270421657509 0
-237.029046842167 12.3222438493796 8.6868398414427 0
65.2951712042649 5.67859688740792 2.64247422051425 0
-164.169455264752 30.3062022128426 7.7499392214813 0
44.8468717006929 0.423402768513655 2.76329371428418 0
-243.062155577654 -49.3212412250502 10.7442685593382 0
-67.3778811450137 22.8701042096155 -12.1058366973308 0
-73.8539240390012 12.7378268065432 -21.8636996605177 0
-73.8145941398156 1.23947656272376 7.28769048913157 0
-211.239682917318 -14.2312282498243 12.9679950110428 0
49.3650569363008 6.56804788145896 2.2676488205436 0
-243.582968383867 -44.9863169526606 -18.8943415723374 0
-170.633441651442 0.383926346339572 25.1970895871244 0
-209.05395640619 28.3373247052042 -13.6874033439556 0
-223.588831659733 15.9680206976622 11.9743730964539 0
-211.433299288537 -31.5882268341206 12.8799187659832 0
-227.531348579501 2.76454960183432 2.2101957805495 0
-99.9665352373058 24.0446689933045 -8.34624578400577 0
-16.5832293315708 -8.04867933589068 -17.1128238633719 0
-239.044622290647 22.5094882421479 14.9742759154146 0
-223.645419853139 14.8202744957162 10.0452893638973 0
-219.549953557908 21.5014962773082 27.3224522123863 0
-81.4372588896785 3.37275186901414 -20.8165281093028 0
-200.291394199826 -24.3228595133018 3.56433503264329 0
-202.128492786852 43.9634779121983 5.42348284396374 0
35.082118334922 17.8513325381027 -15.1160141792296 0
-229.267203782811 -54.8061022330331 -2.8666231549074 0
-229.340400643804 36.3578173936048 5.62868093317294 0
-182.510856569414 -6.801219142399 -10.412791001753 0
-206.679898505183 15.1596897201534 30.2778990577563 0
-15.7023550008252 17.4072974624162 -6.16910171915362 0
55.5699707855668 -1.69015662349484 1.66040710976664 0
30.9313941457264 -3.55616242211451 -0.501632862787236 0
-229.503784448817 35.7042948227272 9.81149216361858 0
-231.055599609224 1.40788006768393 -1.59334986230652 0
-189.124190091247 -16.723333679181 4.80169898902023 0
42.4245786854223 -12.1845654852317 -17.1988397563977 0
-192.590968080652 31.6412791208861 21.4701890303953 0
-131.499908276792 -1.17548375941914 -11.1978479812275 0
-166.706525567352 -1.09216879478026 23.7041068119885 0
-179.862555334965 28.9864170854875 -9.10175254678301 0
90.6580733979741 -14.377260424786 -9.4366781594837 0
31.3282101514852 -4.26012757855894 -2.08956266270054 0
-95.8605833223823 -4.79740577487426 -2.99904355619362 0
-48.4568714870584 21.2388491412756 -4.90547542479852 0
-219.597638909704 17.2371820918233 -19.3769710198251 0
-201.149632215167 -23.599687091762 -4.69284692458191 0
-186.3150004263 31.0992685539498 -11.0686787938482 0
-232.594111212577 33.481240442068 12.549214517213 0
67.9351849517874 -2.73443299578831 -27.5403915433576 0
-204.082532158043 -28.1740100498778 -0.438380349314207 0
39.7574462821015 -0.396545686697994 -27.1546330055587 0
-241.917832702896 -44.5735650859675 -20.6588377922658 0
-84.6407494102616 -0.76012901327256 6.12736926102746 0
-226.289166155946 -39.2476297358027 -27.9435560657115 0
5.50303184662415 16.690945137701 -7.32955645640963 0
25.5608916391946 -11.0354203947639 -15.145871778025 0
-242.022424073539 20.0408399410732 10.1173977210587 0
-215.1652862446 42.4773995222363 -0.291719242902817 0
-35.6291487375088 -4.14423925040639 -20.3772218616003 0
15.0832840605464 16.0712803614657 -21.1712655569616 0
38.0032788662184 -10.6930519898283 -9.67276929664634 0
-159.78347445559 17.4145087334779 19.2477663060482 0
-23.0486638392992 10.275725535168 1.01642964241812 0
-169.138545948279 12.4652206452587 -10.9795095470585 0
-223.425843495542 36.1553308066645 -8.65584913199449 0
-212.325570163677 15.9394501536045 -16.561959912628 0
-210.932850235735 -40.098971371433 13.8961720417621 0
-112.3714559123 0.186537921860488 7.74835200215191 0
-229.381922445002 3.52408546402251 -15.6823866725162 0
92.5344361454693 14.9172813019281 -20.9568787871181 0
-162.853508059728 16.8546164302986 19.7977831915917 0
-224.494991000066 19.0344527186986 26.2859205581853 0
-191.555823882995 34.8852851097899 14.7006506817949 0
-213.47810033512 -31.3566081749328 -22.8812112955241 0
-208.766552820832 35.9871675280602 19.3112665721611 0
-230.58690790446 20.611458765363 -14.5273660919101 0
-220.488073642084 16.6541116750734 11.4308036659991 0
-36.689289190893 12.0972584945465 1.18165428515887 0
-234.202108878877 -4.78911333611129 -4.25362621116144 0
-164.710245232792 -6.4893499739389 6.25069263229303 0
-243.734553073761 -52.3089797229952 -9.24283547044422 0
35.3329703117777 17.5577245999377 -11.3586816418104 0
-201.141201808274 29.486241737917 24.9806011237406 0
-213.443903031159 -22.3165662557724 -18.7438801915578 0
-178.343065800763 27.5293216688589 -9.37829393674667 0
53.1527704836314 15.2364067159288 -20.1948800918401 0
-49.1473252677133 23.0592967726786 -8.81734788253992 0
-231.345724504501 6.38065468285103 -7.50517607211512 0
-21.150848572061 21.4289738940984 -14.4459551717424 0
-212.66217560981 40.2683676599362 10.6391488725761 0
-239.73173082241 -53.5451416671619 8.16355092792257 0
17.3798296774334 18.2604994284728 -10.4713180132604 0
-229.344719529884 33.0119077690449 -9.41543726306197 0
-181.550148267621 -16.1961166368091 27.4696522275048 0
-228.18384387171 36.6748363722699 2.52178450709527 0
-203.754657829893 -22.6303891072244 -8.76269589175917 0
-168.717035625247 -5.34119996668675 -5.96270013061236 0
-233.292690611675 31.1320538845247 -7.52035249979093 0
-199.27866030023 14.6310231130881 -13.5004157684489 0
-176.202348913329 -19.9155736246978 16.0193173967677 0
-205.589234352977 -1.66276642816237 15.8843404561695 0
-173.103742194405 12.4574550805419 -10.7122763298143 0
-162.898533886596 22.1418784306272 19.5171772864917 0
-58.8440364676726 22.8064198141864 -5.13649583205601 0
-220.134056163481 -29.6673776060576 -26.7915428372567 0
-228.178253144393 -12.1856859171741 12.3684766454061 0
-240.702084997002 20.4254450312531 13.1606798604988 0
