72.851703750547 -13.6141805788527 7.80742517903367 0
-61.886672688417 -7.74396045518342 3.12807981874799 0
-197.428603620326 17.7483385478184 -18.1725502652612 0
-90.4475281648434 12.9550986096904 -8.61993377732666 0
-188.600497877911 -15.8604503581733 -15.1245632512278 0
-129.300689811821 17.8432219528729 -19.6653851354563 0
-198.472860213622 -9.97360733815198 19.4854628690989 0
-74.6093798602493 -4.18455951412367 -1.94117715768911 0
-160.253540478101 29.3191916522177 -11.9335898107179 0
65.0424900046187 -10.6858423405184 18.9363828029862 0
-215.257725852165 -33.4947822438946 -4.04182460849314 0
-157.765344520269 28.8528748790163 -10.3787436812378 0
-3.44578159927564 9.48209610287065 7.91930537002854 0
-147.895957177611 -12.6111502355775 -24.7952549211016 0
9.05793004989765 -9.67999249880424 16.4314929039326 0
-188.49302989765 0.880814131615225 -7.63653440337401 0
-186.008784996822 10.9411195720383 13.9991668739435 0
-44.4729131888171 -6.43423896726899 2.09811711889126 0
-174.579731103262 3.95932653462025 -13.3782600903983 0
-203.955434755485 -7.83573628556251 16.2758243647486 0
-199.111730283989 25.3785578035833 2.79401908261242 0
-77.9277295075846 12.4107158605339 -6.77270605425169 0
-182.391974670714 35.2157922232951 -2.4639005514756 0
-104.024967367979 19.498717823456 -3.47274019845233 0
-185.242687207174 -41.7293104382073 5.76043249650977 0
87.184293622997 -3.0165976347679 -0.259955258199136 1
3.80129989186583 -7.86773877874439 3.64371523671675 0
47.5459057824488 0.343118011297296 -2.17201527505083 0
-199.158910096969 -16.6476970789515 22.9471698421305 0
-107.869365913228 -0.352059979174812 -9.71696031898439 0
84.6808736946233 7.28146924696516 9.66689583665057 1
-192.989003094668 21.6036820949949 -18.1302503748342 0
-179.273295738661 -29.3228820102002 -1.05334965406072 0
-198.842322549522 16.4428497513849 -14.6825447990368 0
-107.267293546556 13.0023804059501 -14.0257764874599 0
-162.88328679811 -1.27392190878837 -18.7762649814129 0
-139.203758388074 7.12333413718585 -18.4692981629223 0
-178.692171583996 9.61692588569019 -12.89867834483 0
-162.918234386043 -1.11912168672013 9.19338531160631 0
20.9428352149985 6.97518210752135 7.58935960533582 0
-117.952309700507 19.7890842751621 -6.35349531400556 0
-140.232547689493 23.9264956865385 -14.7354761001447 0
-66.809296913597 5.83342533771653 15.7583767120327 0
-186.09327029989 32.0871602786995 10.4400159361055 0
-160.975205440582 19.1103804319151 7.22088733234039 0
-115.416368871342 12.1002337330666 -15.7709541034775 0
-188.163193645341 31.5565269040976 1.58358888875293 0
-168.101109213029 34.9596266960397 -7.4996159029759 0
-198.834142074111 -2.44518808706794 2.79540324206498 0
-169.854681373411 16.0912199403328 11.5619956342301 0
-67.7932909828155 9.74523737336194 -5.92845904436938 0
-8.96322365295239 -4.88207017310674 -0.00974059308943142 0
-200.843492753108 -11.014020231365 19.9225364590341 0
-215.354298794927 -18.509139589064 13.5659796456501 0
-214.650421694462 -35.6565850123584 -2.28296901881861 0
-172.702463945641 -17.9250450268197 -1.10476011229886 0
-154.862504393305 -13.4182219872055 -14.8953222154758 0
69.4670082480608 -10.6968590948265 5.23473523347277 0
-150.25956356401 6.84715951951733 5.82016606086673 0
-110.673794245004 9.21290905538855 8.68086141977975 0
-160.896053246457 -3.77779273046519 8.58805706823268 0
73.9769629287737 1.14690880016263 22.537724341609 0
4.3937558658386 0.481597557478424 21.5736954073708 0
-2.00530593843279 -10.7948577661097 12.8736097825461 0
-147.922128424144 -15.5157213668932 -19.5462314343548 0
-177.220202246101 21.7175209964116 13.8700636690002 0
-165.577116632312 -1.26979854748065 9.63950853566196 0
-46.0851444243821 -8.32084154214813 4.47957294411539 0
-137.348909546115 22.536454280559 -4.92470593122063 0
-191.148252289417 2.93677933241045 -3.90699118891177 0
-147.790955086513 23.710575262241 -14.5420898751077 0
-218.228832332629 -21.3842677363927 7.52816305415478 0
63.0318455446479 -5.95285032295795 1.59909938541089 0
-199.152927469349 -37.7264829592056 -13.3886351312701 0
-134.99949512583 -3.79147492482695 -16.7743885963401 0
-161.838671917566 32.7320763033804 -6.54334861203328 0
-175.18053540958 -18.8001915659202 -4.18964616202955 0
-186.481031780921 -40.5273546869387 11.4326436863861 0
-100.853299892856 15.5758689542667 -8.6929417317072 0
-84.1540119499326 2.57948404286379 -8.26488857825257 0
-120.415432053938 13.7957612017742 -17.1197476665491 0
-202.36709078018 22.9564596217577 -8.75366463339179 0
-200.825980873357 17.6933696484412 -9.97687759661845 0
11.089609100264 -5.39707874764319 20.5473282125001 0
-194.605712658321 30.3250261931395 -8.56293436273129 0
-162.749227420388 33.8741972704058 -5.6156611182635 0
-159.681071127883 31.0340785990262 -4.44189019957227 0
-162.133557226669 31.4492230331518 -10.1524293577666 0
-138.54906236441 -0.243342396815213 -19.9295873347164 0
-177.772463249666 -23.693880271696 5.33315815337297 0
-207.786669068591 -4.81454479760939 4.02732647727274 0
-134.389843626128 7.47365404915668 -17.6420939773629 0
55.4698728419532 -3.74203316996787 22.5204454729335 0
-141.978068007644 -6.09186832319561 -6.5277897728647 0
-184.85208953544 4.5402000455859 -9.11489757285659 0
-161.272567592413 17.3294787546647 7.82227449309169 0
-206.390981307002 -3.88031677116471 2.73330287317729 0
-169.241358944889 -14.2471529763867 4.52233170035525 0
-204.769771804651 -31.1484025767553 -15.6863079867146 0
-32.3000464455691 7.29248403998571 0.878746113696218 0
-200.893278873629 -7.74757974224471 -5.34294875961256 0
-202.388634967587 -25.990229419918 23.6595789979891 0
-185.330122052721 -16.4049501222659 18.1282480295471 0
56.129604075896 -2.11068793699147 -1.47925992172603 0
67.1126123569624 4.53344244547031 21.2497261116114 0
-105.299179613203 0.734333874049205 9.42973492404515 0
-156.904708521729 -12.6239046745712 -18.9395205962014 0
-194.927949395295 0.480337649854347 3.09769580419344 0
-202.528114510488 -5.68229858302383 0.397995920203165 0
-182.403303136556 -38.986225763658 6.48179489270665 0
-181.294538553707 -15.6384420512503 -10.79834534446 0
-193.395161234349 18.0711232281852 11.935628990657 0
-204.73560784726 -17.5256218626981 21.9707447978961 0
-193.607863300698 -44.0611967828719 9.76741469049638 0
68.968362964477 -13.7130876775285 15.7314144649141 0
-67.3599412690299 -7.67991740286344 4.06688662535022 0
-153.509521090233 21.6631967877679 5.45491987028236 0
-123.488137837667 20.3932988705696 -4.37218203693842 0
59.7695338049594 -13.9143358457585 10.012288109181 0
-51.6505867938655 11.3459239734171 0.00548157705181923 0
35.0569196944838 -7.43813581777047 2.60631745446531 0
-166.322965811148 -4.40917547485989 8.94477268438397 0
37.2918437816319 -6.60314443067817 1.8765414960433 0
-116.019132787987 -2.08755857791898 -8.68788228924055 0
62.941280272774 0.163379578197237 22.837255539607 0
-140.424082257637 23.3542897427931 -7.77996040830054 0
-118.249175185416 -2.47929430666345 -8.25544990177012 0
-6.16139894670911 -10.7928495344103 12.3496328662139 0
-179.335717342856 -27.4272700479032 -1.56578634213918 0
12.0724026523317 -0.571882351949422 -3.37778884720354 0
-175.142478195631 -12.8218361153545 -10.1787182628562 0
-202.539458882832 -20.549476727538 -17.4736466261448 0
25.4666838643207 8.88510728130941 13.28685765995 0
-206.722849510414 -7.4238756925296 -7.15138942745924 0
-88.7634916527265 -2.82744607959603 9.91293530278793 0
-104.958322016876 15.4189746903725 6.18718112876529 0
-178.654191545688 36.1683291920102 -2.73014839698882 0
-133.294265522302 -3.5638994318575 -10.0501765777722 0
-112.346010499334 5.1899470490292 -12.8770395996545 0
-151.067479859545 -12.3272381519852 -25.2140634194321 0
-66.540640191286 13.1750014744172 11.67966705137 0
-190.819187742931 -2.72387655519476 14.907960157466 0
4.53116098068269 -0.0886469075261971 -3.43220081297219 0
-180.099883947894 -24.7031231199069 12.8311768678955 0
-209.709176203046 -8.08972757554931 11.6726416327687 0
-76.4685962402546 11.1172522072861 12.4146805048618 0
-164.12105503124 -0.550812681487658 -18.1068450583425 0
-162.305607510631 21.6650704914998 -18.7633835753503 0
-162.019882494467 20.110526582525 -19.4043668193023 0
-75.5089294282195 16.2070887996514 5.61063118520118 0
-156.942042130023 -12.6728330776666 -17.2862449240751 0
-51.0041289811234 14.1713292384518 11.7683484587291 0
-187.034698618836 30.7195007003644 1.66029481828561 0
-46.8430932801695 9.88969060278215 16.5119875794771 0
-88.5345369141071 5.10261444238508 -9.14282647490032 0
-127.277860944918 -5.0970399950684 -4.65731913183265 0
-180.306991485455 35.5698680551334 -4.3546129450004 0
-141.171896130092 14.6571360710364 5.64535638585756 0
-153.839037800334 -1.30505686550223 7.94941556581994 0
-180.795372985878 4.4694364538815 -10.9798001434048 0
-172.490259916453 -14.6733052162312 -8.37018429251516 0
-180.195899407677 2.7105858325683 -11.0577132160424 0
-41.8695455448016 12.8081799126851 14.3676311495449 0
-58.1132019922917 12.192084960899 14.2297646123686 0
27.6091925586792 0.492432063980483 -2.94072365703754 0
-86.7654120122829 18.1632084722115 1.10042547837715 0
-38.3387451195558 6.27615153672971 -1.6372664939529 0
-185.396239670388 -38.56516748962 13.0948826661316 0
-165.148284297932 35.8785533856179 -3.62798463802708 0
33.5969220785752 -0.129153337016831 -2.68822848135818 0
-184.410598509466 -11.7572470056217 -12.0126098429704 0
-203.760279774918 -27.7495886413386 -16.9554758453022 0
-157.134245387309 21.9970140212375 -16.9413249779783 0
55.2291897401165 6.69265759778015 10.0291307056226 0
-183.50345623745 3.34410276214977 -10.264968483399 0
-171.648165599208 -5.48484439449192 10.2154111004735 0
69.198694061966 -7.46993628934748 21.1149254651375 0
-152.072946045959 11.788884771501 6.10208265223435 0
-179.687383666694 31.0857743621777 -13.9867269194694 0
-193.374309000535 -32.4913532239749 22.0923617541238 0
-195.132941993894 17.7275799663863 0.613054408900968 0
-161.615235796172 13.4595211500898 8.8097083127418 0
-38.176312411461 -8.69200284581072 6.03568266765037 0
-182.435961306215 -34.6094380958145 -7.85161103927031 0
-145.911724669961 -6.2562479355062 -24.8210776347477 0
49.3338117465568 -5.7323797061287 21.7351743761413 0
-197.263097853574 -16.8537861315503 -16.9532902872966 0
-180.116094145137 36.1994788763833 -0.212000753913721 0
-179.636086593157 -12.2688865028119 -10.9096222904335 0
-199.679025812343 -2.40662386597428 6.00213153695979 0
87.6302320622734 2.05631522102286 22.0447618551739 1
-157.372410164045 29.4207719446777 -8.6513157209763 0
-2.02353053471432 -4.23711322499422 -0.991631065655271 0
-187.745885743625 8.36826787224033 -5.19318545146419 0
-212.326740423993 -20.6494071452604 18.037088846285 0
-17.6301350833326 5.52518702875637 1.50345218567274 0
-28.7122025372835 -6.25203812608983 1.9718529595187 0
-194.550238445161 24.3604319269022 9.43378581307021 0
-120.828503556092 -4.26921171059226 4.12621710221126 0
-82.0487922925247 9.5837004982718 12.5020428225581 0
35.0503159388993 -12.4677950652271 9.76256081630078 0
-91.646293253942 13.301720137833 9.09788406367654 0
-198.445981379128 -2.06683261387771 9.63233108094121 0
-183.05110545163 21.2236823830188 -19.5767512109301 0
24.4341180805764 2.88592529485955 21.8813441288259 0
-190.80711065893 22.6788215203257 -18.2754439423704 0
-187.302048957303 -34.3008526556623 18.8417060867199 0
-192.857349498029 4.85623574874116 1.56872837039593 0
-124.503243000227 -3.48367226049397 -7.06055865893823 0
61.7654307268951 -10.2043300399869 19.2425276238516 0
-186.697150686631 -16.2887670207161 -13.6126322223954 0
-98.5050004773587 -5.94289895070369 0.360038264568835 0
-12.8465889600057 6.93818981050803 19.6266167030598 0
-63.2548805488305 -2.8233161137244 14.2198181788242 0
-161.120758182343 10.0737651242228 8.17598180801014 0
-170.664650938052 8.59724592928577 16.2139360866099 0
-189.168176672129 -42.5392637657395 -4.88722853235614 0
-197.60759653726 -44.3132473197386 -1.40319140021317 0
-153.888976331655 27.617809508203 -2.90791189257891 0
-36.3634624885351 1.5934674263034 19.0834419154363 0
-216.724025103903 -31.5971879895013 8.06595605531649 0
-169.978839705949 36.7324227189969 -2.56798674015561 0
-158.905003019031 -10.9024973735276 -17.110607649227 0
21.9410088733603 -8.21267669358575 19.1666721443265 0
-194.319319072068 17.5410858051501 9.62812429904672 0
-123.229013277588 3.64208206220862 -15.068214569787 0
-200.962435756742 -7.74433562543735 -8.11909399397337 0
-172.066788253639 -16.5930219918145 -4.99393732695192 0
-137.7748235861 2.1864816682931 -19.1822588163147 0
-138.971336584726 -6.31598822571472 -19.7903644175551 0
-217.634005910297 -21.0502890690867 -3.30012659943868 0
-147.12292772194 3.21054037290031 6.02533834895579 0
-123.582762298911 20.1580749623427 -15.3876109314252 0
-175.71779782252 -7.88992189169543 11.1898386697299 0
-186.242022854584 -22.0318595549802 20.7738175296287 0
-64.7338098631645 3.89181980840945 16.1889955630155 0
-164.486965478898 -13.1847195889817 -8.47521277907048 0
-162.340135926311 20.5434984556894 7.66928506188959 0
34.7873671734698 -11.4253679416835 16.6195107724495 0
-162.930632206437 9.12924654093587 10.8724145552538 0
-191.607381979996 -1.63006222499759 -6.27574155963667 0
-187.406441392626 -5.30543561127018 -11.1551568205531 0
-194.299354186776 -44.7053019110036 -2.21572001381381 0
0.702177299096792 3.73214007903572 0.096239519590484 0
-178.353583891916 -20.3165400175363 -5.42838135644281 0
-169.895343259318 -15.616358671057 2.43557450885766 0
-163.455564104939 -13.0880718886386 -6.26846945581719 0
-136.02566782571 22.7086960114938 -16.8088375746038 0
-207.875280231223 -38.7565933728303 14.1416244348924 0
-182.870802329553 -39.6543470935715 -0.593319877598592 0
-21.8764832637184 10.7775502674302 6.5660170045368 0
-191.328060671968 5.7557909414338 -2.48863480292616 0
-73.00601090412 15.4215292327128 -2.67670856299945 0
-61.7785939993364 15.6455868361336 5.44960489079208 0
-179.885284015935 -34.4489408792698 9.56547086437895 0
-191.945096524087 -27.9814005537077 -17.3597300738184 0
-190.138361430148 -33.2318006830791 20.784835837411 0
-83.6962117489117 10.5372408118427 -9.07784454253603 0
-216.799776947599 -28.3899386420929 10.8646524803632 0
-109.00136136775 -3.95363208279996 -4.04585202356591 0
82.3573319344348 -5.38864537274169 22.0243927399367 0
-211.465374781219 -24.8261226713698 -12.9929344367816 0
-187.807548031412 4.60269763547333 -6.41143946164795 0
-149.370249124298 -14.4073023370231 -22.3849441982419 0
-181.191697280292 29.9333785437175 -15.1814241867165 0
-148.615800148963 4.80656195133709 5.80697034828681 0
-177.43160541579 19.8853743754701 14.4275865584805 0
-64.5196215966745 11.9875490930602 13.6184904888598 0
-166.195990916313 20.5462167437078 -20.5485437936588 0
-178.751116584828 31.7311889349018 7.05116704710044 0
-155.508373419538 -4.80130865871402 8.48700708938195 0
-173.227049781777 -18.1794418555599 0.48621801079135 0
-130.612583026444 20.9347304573749 -1.90563401923068 0
-165.619064829041 4.46811332367084 -20.477099684555 0
-198.904467578179 24.7976697961874 4.65006497609123 0
-134.30485636913 -4.19819683547165 -15.1863190369114 0
-202.893069773919 -6.90537880106869 -3.83311499066029 0
0.9409471409601 6.43899389092178 20.0602179705983 0
-180.681923490047 -22.9758182357067 -5.52250539053624 0
-183.00825872205 -3.94041759132812 -11.0646417366038 0
-163.48399397084 0.441110489802902 9.39422379803296 0
-197.562989300106 28.2878359539734 1.71817238823418 0
-182.632355497544 12.8414197466145 -9.80317548092738 0
61.0048954851435 -9.09052675759206 4.15504603725739 0
-80.5330555534106 14.7424782044488 8.42990145349962 0
-188.636879756036 -5.82217756450851 -11.1298917429021 0
-195.773908701692 28.0912178776507 3.40787192835382 0
-166.303763230864 15.6385132234617 -22.0282012609152 0
69.2002160204474 -2.43211492410716 -0.881880280217616 0
-201.120041295157 23.5533193153398 -3.87918922941149 0
-25.4712406313129 6.05512709665269 19.3483643023879 0
-108.119107100762 1.45360334021031 -10.5967565397908 0
-172.291917307268 -1.68706308818794 -13.6682497386981 0
-149.129225723675 -7.61189797790305 4.84498230537435 0
-200.692051852366 -41.3853747731752 14.8714852743215 0
21.4237509758079 -4.15079078596495 21.5518439861187 0
-194.475886252223 -5.00362521236193 15.752293453137 0
-179.048393239206 -30.2953375248485 8.30453891351508 0
32.8355244876437 -12.6667354118511 11.5079795317908 0
-23.2608741751656 -6.00426824410148 17.3069756517919 0
-10.2807219798932 -10.3201661237295 13.23542589436 0
-89.1747279450264 9.89411140391505 11.4122434151206 0
-183.96074675361 -28.7849106656336 -10.1398225189588 0
-47.2122223895396 -5.73331733046277 14.042537244572 0
-97.8044177003456 13.0536171641365 -10.2144588954541 0
-147.96970295462 24.8485016113037 -11.2638793603973 0
-185.014007410124 14.0712475924161 -7.71075895221997 0
-180.540782261999 -6.92324492740323 -11.2906964455503 0
-108.71771092793 -5.61290525112075 1.76659875966746 0
-167.185646051317 -1.5126644987713 9.65956426151187 0
-181.54482775459 10.6468543580073 -9.7462741921214 0
-48.34904885301 -4.25776282971742 15.4666524129998 0
-153.289887971227 -10.1253770690013 -7.1316053356717 0
-194.016946818072 16.5106295636974 -6.17048261425286 0
-197.678266342484 -1.79858752118109 6.1206233134963 0
-187.354911677434 33.0608164699481 -8.68768678446099 0
-141.835873796994 -6.33139379036726 -10.4371026498694 0
-176.209769178652 2.16630859721742 -12.3737591455854 0
-145.565693011578 -8.69871748580143 -12.7084752525602 0
-181.36554397856 -23.8522001161508 16.7109762573521 0
-182.715734837887 21.131359875063 14.0638948609234 0
-15.3501876018437 9.74728979416261 6.48177915911288 0
-166.389829523844 5.40439416892506 11.8753051435578 0
-160.067915563137 27.3952350196282 -14.9770488068895 0
-17.3649750742026 -7.84905017766034 16.0452254488821 0
-94.5967200314294 17.3301764795884 4.63300065781074 0
-84.5183408176246 13.7475596890734 9.40806926771887 0
-206.910674519588 -21.5048641973186 -15.8377286503538 0
45.4997528826543 -4.8976170325572 0.542917611988074 0
-86.8387462459571 17.8051841941007 -3.06562158422186 0
-181.557604740305 -25.7244826850636 -5.31104398768557 0
-191.17428882952 -31.7191832694544 21.830257282727 0
-36.7612211461179 3.71245939867313 -4.37048980306123 0
-150.59347142865 21.8629870148975 4.47120356409723 0
-217.284741586479 -27.8890403187144 -4.08264228515379 0
-178.673986731358 12.9048157130262 -17.4723054223733 0
-181.834919608159 1.22249069494294 -10.8783018043161 0
48.8289943145096 5.87996973981355 7.73449952674391 0
-87.5189136907823 -6.56233414861019 3.7819708164229 0
-218.58769285994 -21.2654989932399 4.3216032467512 0
-178.909827250606 33.6255479220231 6.1049378979541 0
-200.192386378745 -2.68089351420011 10.7864984631148 0
-188.085002707367 -32.4994110398758 20.2374683606833 0
-163.198184082509 -8.35535334459162 -14.9439357411939 0
-167.42073661025 10.7151845868375 -22.3186140497018 0
-199.837934825936 -44.1516307612493 8.92978157250163 0
-137.80457479758 -5.14480989712313 -6.76395257465602 0
-159.629029489904 11.8277917122463 -21.1097069616742 0
-154.927867300902 18.5635336269436 -18.0578145554424 0
-212.449950222065 -27.8394111971968 17.6630943719319 0
2.4445354472964 4.87146390034961 20.8859603092464 0
-183.761635805348 11.6761324185878 15.7605019511969 0
-152.094478472813 -7.41915819901954 -26.0897742257969 0
-209.247047647244 -12.6254951756412 17.2699060971701 0
-37.7651811383311 9.51358804830577 17.2959800335598 0
-98.7507943816054 7.80474064618452 -10.9894596025978 0
-191.48564931741 -9.71230159027899 18.2123093582713 0
-119.221948239113 -2.18134594820874 6.75609488511419 0
-30.8933566117335 -8.61839709996311 12.3175792228043 0
-199.643457962339 18.9917799156886 -17.8286483596311 0
-198.041214093542 -43.7642521523183 -5.50878951085574 0
-186.961504785654 -2.22521202817403 15.5167867918727 0
-100.904757687174 6.84070416164134 -11.0936094474672 0
-122.080880279768 7.88207309425579 -15.4925918119267 0
-146.837127493134 25.0701576791424 -8.94328625508133 0
44.7572825314661 -13.4220800421432 12.278803543681 0
-115.216253442795 -2.94571491657525 -7.26778856913471 0
-186.875068943429 19.4645406233261 15.7241707463454 0
66.2182730754116 -5.81875047706399 1.418830100454 0
76.0482314338083 -13.6567039962052 16.2846153273644 0
-182.846472214337 10.683790309898 -9.5698035858966 0
-99.4433626343233 9.79973901510451 -11.9249189098779 0
-4.147007532615 -10.9199626521881 11.1194371325532 0
-146.425430486306 -0.449560474112899 6.79279838467964 0
20.3084418423215 -4.98654632993433 -0.313624437446332 0
-180.626504385615 35.6962379662128 -2.88268930838472 0
4.33002217964621 -8.16827321296504 17.798796172103 0
-177.258869801412 -23.4169916919991 3.19672532662132 0
-117.216724490997 19.4087817532216 0.437458906854157 0
-210.144198491585 -31.9314021026251 18.1393804301438 0
-37.81675367389 -7.02323542394587 2.98678290659838 0
-138.710235596059 17.4700007671001 -18.0395143436951 0
-195.688255551081 18.6423389455306 2.94028141735043 0
-149.453829092303 2.40434148687697 -21.9930526796093 0
-30.0797258070649 4.01853012018108 19.5359204060955 0
-119.964594487023 11.2293072742326 -15.724038189236 0
-9.99100857603272 -7.5134324126106 17.2116096462691 0
78.2987500108642 -8.6672581168706 20.376177120717 0
-154.357920422416 27.0249650102017 0.794372180198752 0
-14.6166735516456 -8.42806450649965 5.50441389167147 0
14.3305765284789 0.139619566979582 -3.29045084091023 0
-74.7424446121882 -6.84003639906447 1.96387567975415 0
-196.990111658236 17.1094799746413 -7.00466953538763 0
-199.299510468738 -27.4853369171455 -17.9367634853073 0
-106.992630936816 2.27305112658872 9.46997788928779 0
-70.0387447607361 -6.16011490573062 0.817138610671745 0
-192.47101632761 30.0926345035537 3.28713139248786 0
18.0927685967296 -10.8871840387388 15.5702981488984 0
-194.05965362089 -6.15479525482233 16.6113645552948 0
45.0805482229987 3.89007422836205 21.6009657126546 0
69.6026893160582 -5.52981940431331 22.0890153221934 0
82.3101291018548 -3.55398230774312 -0.160358633386663 0
-143.457237920461 -7.32282620180255 -12.0526017065896 0
-181.399925220304 -38.3843985041723 -0.119300121700017 0
-19.479924928523 -3.25927559365699 -2.20577025471069 0
-199.57629632654 -43.3777435443494 4.07868598727208 0
-85.5924836447768 16.411943028483 5.90241695778816 0
-198.4320096016 18.9960219111721 -3.51996894162611 0
-166.238342266002 22.6198369702448 8.6833737345804 0
-194.412891944171 -14.2076378314004 -15.8544797096291 0
-81.9550360372472 4.49366009344643 13.6426836428729 0
-188.571035101071 -26.9576503967405 -16.1564822962183 0
-96.8906372298772 7.50111532721515 -10.6197878347177 0
15.1271010414756 8.88161062054021 9.97719336759842 0
-21.3004801916712 -7.02029402884901 3.26296940106296 0
-135.220344181477 13.7582236877491 -17.6509355386594 0
-195.370079100208 -16.1928089791242 -16.7159473339995 0
-136.972906881653 13.3490019391661 -17.731244886976 0
-180.321419428767 0.890089010057897 -11.0944618623179 0
-187.7746127557 -24.2109742545567 -16.0788187071342 0
48.7224407784659 -13.0310621394359 9.36476511717683 0
-173.655304442018 36.1385914633065 -5.01222717027123 0
-189.579931367569 -4.75475016274078 -9.62015297663768 0
-117.971210148354 -3.4062162749037 5.69986436219745 0
-151.979497730661 10.7648678250643 -20.1231666446169 0
-84.6258765413761 -6.6463832586409 1.63463749733512 0
-171.406453088174 26.3229787804171 11.2335118752322 0
-194.13031006985 16.5493350245632 7.55626139058404 0
-196.347793551181 -32.9459876125339 -16.3369088371059 0
-33.0272183825189 9.56559196775893 3.22318783986469 0
-197.688505432149 -26.1196415387004 -18.292145033281 0
-29.7538469674821 -1.83718286139791 -3.42586486524784 0
24.0147676215019 8.39021621237986 11.4240869273731 0
-206.393957273197 -8.8624672842883 -9.36227891359356 0
-87.3200743653365 -3.06841295958855 -3.96975486070657 0
-205.739008814278 -40.8085634476524 -7.17405362216471 0
73.1947836602493 4.54468584123766 2.10240538218879 0
-131.093103403916 -5.74704448216941 -0.105540370952585 0
17.3039798118817 9.28200622270407 12.015518509208 0
-181.052864800373 -1.66479976876553 -11.1317640633334 0
-168.079918521106 -9.31221863618548 -12.37715789043 0
-214.078008009596 -10.9484767217335 7.80927395259453 0
-183.784228218065 -17.0783439023743 -11.7404003825349 0
-141.044089306044 -8.16460855610114 -15.2342562987919 0
-192.202092308005 1.24601848340206 -3.61073420882437 0
-190.548332541672 2.68431555786956 10.2047587308282 0
-203.00545352482 21.0633474290536 -12.4671086562917 0
-143.276388693827 -13.2473821922326 -19.8666506840521 0
-134.390962034968 -4.10660118188635 -13.8855338428709 0
6.06087983841468 9.81359832974143 9.59671643483663 0
-15.5376159412124 -1.93759662172632 20.2954632077722 0
-135.37253500829 22.2108895995483 -5.92743617378295 0
-164.597400423555 35.6218968539303 -1.0432820779939 0
-140.677186344428 1.71460188307661 6.19867368275617 0
-216.156201754078 -22.4278201330048 -7.05935002244651 0
-196.046249590757 18.6541684613871 1.4547461296135 0
-69.7469905438627 -5.06008973062484 10.7112925692025 0
-104.191293263112 17.7004793396921 -7.26282802249197 0
-198.37511886972 19.4903746974979 -1.81289481118432 0
-185.179156662468 2.83883915650312 -9.53362983108581 0
-24.9901323812735 -5.6271505774579 1.10872453434303 0
-123.300373556336 13.7250563696042 -17.1909565188528 0
-110.564900579736 -4.87298976722577 3.62663291429341 0
-182.551490601596 16.2423926963119 -14.9446643564135 0
-179.830166233134 35.0624346969475 -5.99462527535444 0
73.2292670856043 -14.9663238542872 13.117962194541 0
-148.291718652084 17.0557365878974 5.78713507920521 0
-216.177755154936 -32.9645093989936 -2.23191457918055 0
70.0487300416798 0.705957850844703 -1.52112031549966 0
-137.204786128542 -6.369760762519 0.249629404663638 0
-2.61884193276139 11.7219748005034 13.3252037511138 0
-119.662120554455 2.06321828870956 -13.4984688028401 0
-183.608383202807 19.6472213707657 15.1852380277076 0
50.6174681562178 7.68637910912392 13.9897288694373 0
-57.8624085921609 14.9716571243546 3.68479373772746 0
14.964167605681 2.12412730275725 -2.53033657803234 0
-17.532350017311 7.10542227463679 19.2864730464882 0
-73.0568672443622 9.6519902772284 -7.21629908063063 0
-17.1642284773459 3.00828293545146 20.3945694224692 0
-30.3222114851188 11.0027012231456 16.6285415426232 0
-123.684316154626 -5.49071452141636 -2.59550950022881 0
-62.8677119828704 0.863513232072782 -5.71909418873428 0
-91.0719783102744 10.7790744646909 10.762379715456 0
-97.027387501195 -3.5920915946787 -3.73102531558265 0
52.887886968698 3.87216431051391 21.7239342450832 0
-2.46333927283484 6.16977670465654 4.25724460412261 0
-179.290230410878 -34.1097407215251 -3.14015537301627 0
-195.233656295852 17.0616041668448 -16.2317338061792 0
-141.321944730868 -5.70897424239968 4.86295077188897 0
-81.9847939606808 6.65484138176229 -8.61663088954671 0
5.81350545971188 -11.3861170558588 11.4318369197624 0
60.4235045331056 -1.34171741553676 -1.59510852211299 0
-158.671316442596 4.41282237361738 -21.5177674313359 0
26.9316588440223 -12.0176510496983 9.50447841269875 0
-16.135110774218 8.44817598088043 18.5085362728686 0
-212.007094249265 -36.4948871486631 -6.57907305022651 0
56.2055216375953 4.91880322868254 4.94018617425076 0
-148.344021134642 -13.1279796806499 -15.1551229713205 0
60.1071899379109 -5.04664165115537 22.1509242935459 0
-214.151443628203 -10.5818677203141 5.72669147780998 0
52.2887705569073 2.4959575831409 -1.20516464179201 0
-169.19700406253 33.5803843630185 -10.1072833651872 0
51.5638900534609 -0.743533137741673 -2.05765486374316 0
64.706822885488 -9.90803344380149 4.77981021262122 0
-191.737298239936 -43.2311753958059 10.8702617161198 0
-52.4905480150365 3.85651149177251 17.5776857309105 0
44.2059606981164 -9.4871482456421 19.2839705001255 0
-81.6001958943619 8.11730366569962 -9.11666915578514 0
-191.045843496445 26.5968371362411 -16.0278050266214 0
-137.753838476354 -5.69248882929081 -18.3421035831059 0
-162.719269630102 26.5615769198599 -16.2553825283403 0
-181.688291019157 33.3355024984713 -10.3961265368436 0
-201.357013837188 23.0899303544055 -14.8444234878784 0
-180.587624483398 15.3958397199322 17.8366158962943 0
-155.965554724478 -13.2882593062133 -19.89192843779 0
-147.727956576659 -7.06530313011508 5.45431375488302 0
-194.70972302749 -41.1471758722422 15.6351042566018 0
7.36505779496284 9.3923105890925 17.5964375493587 0
-150.059759695197 15.6464362498055 6.03486166395231 0
-202.834789285369 -3.05584744025724 8.98546030251785 0
-94.3587082215914 5.59629803202408 11.6492972453489 0
21.8337661159171 -1.82179532185377 22.1159664699975 0
-190.873041109023 18.5613152360048 14.4786496045197 0
-201.969420613794 23.1950448127101 -12.9430133856284 0
-156.515323452118 10.2919857902947 7.04302838762668 0
-12.8399000726461 8.73694805190632 5.94757896791877 0
-103.179712050632 13.6310915691359 7.60541173268871 0
-163.41557522832 -12.9896494885842 -2.75441948105204 0
-171.944933495584 11.1235622190208 16.2524656504682 0
-206.027376820044 -8.74636852310469 16.1772645366931 0
-132.219640683038 21.59717632457 -17.3741854985527 0
-203.969669261226 -2.70226342229094 4.32907952815612 0
-199.011591536017 17.5845233206888 -17.4951611803107 0
34.4964711178308 3.31632778995389 21.8813150107522 0
-203.813838552728 -12.3443346195181 -13.7900731290582 0
-183.158713343257 33.8047372943409 -8.89062501254308 0
-189.395830317472 14.7317361401432 -5.33260224813709 0
-70.0416449469333 -4.74742548821391 -0.837628256188686 0
-149.131138565995 2.272716906652 6.451671148155 0
-197.990817736813 24.2604756024878 -16.7198816782051 0
-167.95417345386 9.43120065397869 14.1845907903287 0
51.9822194425713 -3.64306150386328 -0.836764242868393 0
-188.285282710633 -18.2878058225428 -15.3873019144312 0
16.6494397250058 7.08421264954318 7.10930006874386 0
-181.215287709927 26.604103131127 -17.9947385780872 0
-176.415219025788 -15.3957046283257 -9.01278936266853 0
-67.8098073969341 3.89323713521967 -6.97142597671699 0
-133.757567136221 -0.437019496213612 6.63387798545889 0
-181.639587594653 -28.871610888324 15.5982078964028 0
-195.886882997384 -3.6735137111339 -3.58212817498627 0
-86.731144169198 -1.13932489622477 11.5291929273452 0
-5.75533524609008 11.9576274131142 13.2141234501883 0
-17.2564117063703 -0.0473005884211552 20.4322475886803 0
-130.577095512119 19.4149406504457 -19.6567333374783 0
-96.1762299420125 12.7493286114295 -10.8290478606393 0
-166.136958733739 14.1172496668189 -22.233590314853 0
67.7242404984333 -0.323615819430118 22.8565218751014 0
-166.483658048432 -14.15329036797 -5.20237732641347 0
-52.3760489320072 6.14347279094869 -4.79666364337821 0
-184.277401458783 25.5734989916885 12.1212247076842 0
-210.775293712068 -32.5596267898653 -11.437587878218 0
63.6658959743048 -14.0548155795079 9.74893985517399 0
-182.705016016749 -5.49687343240666 -11.3227719015692 0
87.1493759870632 4.87764243173711 20.1056328998726 1
-7.0481729741464 11.8566367279844 10.8590255856718 0
-122.093123359454 16.9704880974508 -18.3686313047192 0
16.4746020486485 1.00118688705544 22.0180126138595 0
-195.090686020198 27.4563909765455 -14.7380562263665 0
-112.327454878917 1.26490059283183 8.51167827656615 0
-98.6416996187551 5.9198522437764 -10.5693643897788 0
-186.507464455693 16.3934034694663 -7.00434832435906 0
-167.296139075528 12.6881710194553 -22.583627835993 0
-163.965772929485 24.1025666493384 -17.9692368846156 0
-150.118256391923 9.81692903963616 5.72110465036361 0
3.26997014855612 -3.45984517916147 -2.41794489653066 0
-194.839707656077 -2.74891863018943 13.1307246101155 0
-123.808778865969 7.21689272300549 -15.8121884755791 0
-109.52185535758 19.7040787415127 -3.8698693477562 0
-163.845200074087 -5.0514872595811 8.87847866938617 0
-186.763887061581 14.9112254927213 14.4793903573718 0
-209.716881612529 -26.3636611179598 -14.2166419484229 0
-169.269268986716 -5.65432928976014 -13.4925696756584 0
-163.477487885427 17.7296188704981 -21.0075853162944 0
-188.205441224525 9.54753444522891 11.8890533057375 0
-12.0379131360432 -2.21700663914414 -3.56336903410199 0
-145.533757000908 7.07118090391243 -19.7406621814514 0
-209.35116283935 -36.8905446495985 -9.38141175280909 0
-101.149472652976 -1.08955623839269 -7.90380246307707 0
-142.910798395996 -5.37043910355569 5.40245000977582 0
-193.292140918948 3.61357171289068 5.20477160714719 0
-190.966072561685 -16.0266707384081 21.2503883328436 0
-175.340779116247 30.0973924219588 -15.3446482301809 0
-191.712157908009 -37.8515252441131 18.2701437722061 0
-11.6493293171166 -7.32076227061267 3.56004042707488 0
-79.6610372486564 -3.81797106384894 10.3979547310718 0
-120.60554740292 19.5169808638453 -8.8073875831348 0
6.82274657579717 2.6907158719045 21.4592599140228 0
85.400462263021 2.74601361804609 21.7246612266445 1
-31.9357334274073 -1.59530221248946 -3.66107154468237 0
-59.9129537705861 5.38687683608963 16.6314794797448 0
-202.744007695664 -32.3753374493887 -15.9188007929518 0
-192.745585912335 7.37362239940113 1.28395660979848 0
-157.681517693785 -8.53257363476315 -23.0855750215051 0
-160.775056477973 -12.4255936920829 -10.1384879426374 0
-121.948396334882 11.2907223863251 6.86383879072387 0
69.5526912585709 -6.41332917810504 1.7806169889445 0
-86.8493333608025 3.79788423294062 -8.62754142920654 0
-178.566860835247 -16.6056607030614 11.0400032344885 0
-104.370790110377 17.3719280619306 4.34011918702805 0
75.6070694520538 -7.65031594233208 2.6645529860395 0
-178.832827856114 26.5865400575153 11.1253400992757 0
-168.429607715395 7.74668046625456 -21.1300996957051 0
-184.770519125297 -8.08106548480636 -11.7610390427041 0
-201.534724566594 21.7234653820893 -5.01797963267117 0
-205.63349263641 -3.6144700431123 4.19656578410091 0
-21.042398577886 -3.70764825992239 19.2423431579412 0
-161.176746837779 -2.18688212707105 -20.2525517780702 0
-218.472446352785 -24.1282205858994 -1.08597649054997 0
-117.496778200032 -0.732556477276971 -10.5264890713633 0
-25.6390798378031 -4.49280187318703 18.3093739509464 0
-198.25731704219 -43.7467741908309 11.2355726945981 0
-92.9412665229688 -5.74188707950288 -0.41377783695279 0
-159.599044097845 0.13745572351156 9.12259044613557 0
21.8058412874961 -0.789797689591397 -3.08940142941474 0
-177.79979528628 9.95393839196693 17.8654121753534 0
-15.1604519242851 -5.2080018170111 0.556971542910606 0
-50.7057412437318 0.999839864520889 -5.37880987051859 0
-198.210417485415 -33.9063341203338 -15.9059461384166 0
-173.36150563487 11.4769649039276 17.5627369199639 0
-214.78811569566 -26.1571683194822 -9.24162997757754 0
-143.48598517676 -6.8970351653312 -9.60965743455788 0
-55.5036321173377 13.3149388233185 1.27719074119593 0
-194.387599771428 25.4041892630184 -16.746862784713 0
67.9772697142992 -5.29930360292987 22.1532484265698 0
-190.257872411569 1.98533770148692 -5.14085568615347 0
-128.845788860363 19.6850862810642 -18.8914358922198 0
-163.801376379015 34.641663263522 -6.79481378467691 0
-185.987649654023 33.8427130525575 1.51495891758847 0
62.763088499198 -7.86562863866801 3.05888385558518 0
-146.578523662871 10.8673117042014 -19.0393635985917 0
-136.78345916592 7.16868920036804 -17.921313459934 0
-136.911344791776 11.1436201746147 -17.743927104142 0
-60.7689866250218 3.24820698710531 -6.11449349474762 0
28.8723705390082 8.36366532869936 12.2405649254092 0
-213.181165475671 -10.3540509329475 -2.14458930632991 0
-153.5007163737 14.319075081877 6.45821570418658 0
-118.278728439428 17.439047182216 -17.4665333597146 0
-104.458388719114 14.6883467082161 -10.5492833303313 0
-57.9796842069027 3.57575711142586 -5.98047195346406 0
47.7409716210993 3.5661674205789 21.7351215369357 0
-197.430527061955 -7.90281094186779 17.7434757127807 0
-42.1367779187119 6.30561845740278 -2.52819400349389 0
-37.7895538986689 -6.21539113351964 14.9702336684503 0
-30.543185834527 -7.36427181734857 3.79362815148938 0
-130.457174527152 9.79669151433322 6.37817393645752 0
-125.606238288461 20.0838255795168 -16.4843720193432 0
-72.0659456833405 10.4240658225687 13.4287450790998 0
19.6392037452961 -7.61301568439027 19.5487204552126 0
-153.420105929172 -9.53662010876056 -2.3812659487737 0
-130.980066472097 9.54724225982308 -16.9665726790662 0
-199.016007201077 -43.9885689362713 -3.30278330087618 0
-193.96755056677 0.0176893274212438 2.0885962758646 0
-39.8775234731303 7.5550134315685 -0.699934716179937 0
-155.064863286445 -4.82913352018981 -24.5128939950708 0
-159.704000871436 30.8873531744596 -7.93751589916665 0
-181.69342247013 6.14345438293406 -10.508966121962 0
-56.7580832366517 -4.82402914021087 -0.0991697815327783 0
-105.938139352369 -2.95786668785674 -5.5649744319688 0
-173.237387025136 10.0300708345405 17.8414557965357 0
-186.860270614438 -7.9014493894217 16.1426856990314 0
33.8313143026818 7.52015088919124 10.6939827835797 0
-112.044557359983 17.2795550768362 -10.483346453495 0
-191.414293615588 19.8410703523647 -18.3835442800251 0
80.4476224788049 -2.50595106427319 22.7639404036023 0
-172.003132076517 0.226131139089311 11.2159312945764 0
-16.9692208632413 0.177002197601452 -4.03130544803424 0
-192.233952396708 -4.66994979043731 15.7480427011038 0
-2.7873080430708 2.30240760178479 -2.772358282485 0
-118.073092016368 12.69010505393 6.81637751747762 0
-163.362941913883 13.6967210062778 9.6115211589749 0
-125.251181428639 -1.50793210491245 6.59093821616132 0
-215.131084971692 -23.7384179186054 15.122210338263 0
-167.16671035275 -12.4383070452091 -10.2703167680283 0
-113.825994011981 -1.52482559521161 7.45752306028903 0
-216.945447834484 -23.1683608370715 11.9208634071807 0
-143.349848177313 24.1568615769884 -7.34696264956566 0
-123.024359891311 13.4748930503247 6.1869889185041 0
-169.802532935611 30.0585751842022 9.70445356966371 0
-138.632109726807 -6.03708819369501 -1.97312576278023 0
66.3326461660342 5.55740019769233 6.00864490137079 0
1.5757407663646 -8.4874281342758 4.61270483607794 0
-194.857769334614 16.3771097926941 4.27522687574187 0
-108.877034608568 18.7714025125614 2.12368650507544 0
-160.275007791793 7.85838354568817 -21.5803784624648 0
-51.4835863943137 -0.200834076061665 17.2752836600483 0
10.9569901786286 0.206844358274349 21.821591159472 0
-158.98147728376 -6.80505341928532 -20.4388798367191 0
-198.772959816961 26.2667971297134 -13.4797394832084 0
-146.181326106109 -12.3464243362553 -24.2562647318741 0
38.5638493400502 3.54520922050001 21.827540272149 0
-198.216912507728 -31.5103003159193 -16.9390597292136 0
-178.607675690538 30.1074730946151 -15.3585842753657 0
-168.995340857108 35.5244411158445 -5.89277630529546 0
-52.3024545400365 1.61435310979543 -5.6270430011262 0
-198.092312154683 -42.1779585590362 14.2553792312094 0
-180.058122004924 -24.6955998721901 -3.62349764132985 0
-215.19881567939 -27.007901840472 14.4624778793426 0
-63.0780025865591 -0.684590526745344 15.5625691317651 0
82.8871961565843 -5.74570044254061 1.20888293391413 0
-151.161278117088 2.21899272890435 6.64476862385031 0
-85.8384417185547 2.64567533815969 12.9523697483011 0
-116.142006143884 3.17264245775044 -13.2918696068644 0
46.4930842596707 -0.957914140324311 22.7941330804824 0
-187.108547805648 -41.4686029541123 -5.02879781631025 0
-180.916967526766 -19.03435522002 14.253454135539 0
-170.232057502204 5.16708469601629 -16.5753517364882 0
-211.696026630643 -8.44532199844419 8.07477837801932 0
-161.694135264642 28.8567861742212 7.47959127571881 0
61.1102157138523 3.61046946712404 0.832792634160691 0
-45.0713383564236 12.6403111118481 3.60999531421706 0
-160.346478005834 24.9287755689682 7.37220267235503 0
-32.3893355680559 -7.34208601039992 14.413616924025 0
-207.412008178419 -40.5428744046668 12.0773750378214 0
-69.7031449455517 9.69483191565575 -6.34822586942739 0
-196.365668367595 -0.807209156143327 4.60674649895869 0
-151.033653662023 25.9031952865871 -11.1964983575043 0
-111.004751170797 -1.56614951333881 7.73154738215069 0
-97.9899060695855 0.970288901933513 -9.02759175657548 0
-157.942514913605 19.4372701716693 6.86137906171991 0
-150.596827060547 3.62983971578437 -21.7969897766105 0
-15.1493623473977 -6.91588684218421 17.3462973354367 0
-192.300500878662 -44.3580661934142 8.01620638404087 0
23.1536620529358 7.41253697097951 8.81194560186011 0
-148.600641872291 2.61621885739597 -20.9859606328802 0
-194.769301792855 16.6008312319739 5.95922038806471 0
-124.077319770642 11.3751039985994 6.64039093443849 0
16.7807721261935 5.58375746461422 4.97501346526519 0
-191.402549366459 -35.9334853898897 19.71980902391 0
-145.995896354621 -14.7756689332235 -19.042670460324 0
80.6963501225885 -13.2285150315325 6.7057244714891 0
-22.7718236565705 2.40473483838956 20.1205632834857 0
-114.393189888398 16.9046535880985 -14.9064294400033 0
-146.653374936093 24.3075471261497 -1.01289868471108 0
-185.478406618068 34.2101252689544 3.50850464198193 0
-210.222604005444 -27.5692441903662 19.7655431812338 0
-179.915340647554 -20.7229738766617 12.2756855659654 0
-209.711353872349 -6.25387049477423 1.85266682727306 0
-79.9623588208436 -5.61847890936109 7.80153428636604 0
-46.1167282962434 5.9645543334528 -3.7336075364496 0
-180.007990198375 -28.4441382743319 -3.16091723532802 0
-0.768891417483694 -9.10479903665622 5.7372194134101 0
-195.153457338433 -11.5611051390475 -14.7712085728157 0
-165.283801167011 2.95569634893214 -19.3303266804535 0
-207.982776833402 -26.8129944845433 21.3948893464083 0
-52.0450282105333 -5.80764598128178 1.12399083276031 0
-155.63673000329 6.99756286425811 -21.2858750025343 0
-17.4071676789925 -9.82226377510032 13.248429728921 0
-213.442636173527 -11.1333741773102 10.1007120441671 0
-8.42933419393768 6.97388995088215 19.7174400872399 0
39.410242395146 -3.43675708101832 22.2372643726132 0
-107.965025276346 -2.74622290910162 -6.12653662551845 0
-201.890907149617 -43.5863386169647 7.44506086219053 0
-68.6583444688995 5.09479187771988 -7.12399512840139 0
-102.112285475808 17.6180572847227 4.11343545048882 0
-165.145749842235 -8.21765478532886 8.08166759747114 0
-147.221692453702 1.31335244466885 6.51388665875917 0
-150.27495149717 -0.699830201449962 -23.8584746246287 0
-103.096628888212 1.50804774604551 9.96452162232036 0
-196.991308983783 -32.0018237939347 22.8197895456153 0
-192.821551872094 10.1952175510417 3.02517704184193 0
-171.348851975618 -0.851031627191611 10.6144766977326 0
39.9563773417234 8.61113666705391 16.1398503019277 0
-163.812317172414 19.6345882120802 -20.2293641590476 0
-47.7039071335579 -1.9243886752331 -3.32511535190477 0
27.618328379212 0.401641949642413 22.3388004239108 0
8.49463363042828 0.605095544654302 21.7568104871458 0
-85.9608672324046 -6.22537817069983 0.246512309140601 0
-174.669480698978 19.775935669327 -21.8087814797678 0
-172.552778577497 22.2725677218847 11.5913550119608 0
-10.5896440950626 6.48349175987687 19.849702070387 0
-154.739614385931 -10.8438921383426 -7.08684059045963 0
13.3433797356131 -10.9319899416917 8.26606158033391 0
-135.769804021723 8.90211147139939 -17.7480537443976 0
-61.7390627010312 -1.34322202557812 -4.31623865934921 0
-145.063289057834 14.3036747769431 5.78312709624208 0
-194.067206972167 -9.12516081759213 -11.3804757997068 0
-120.13502689006 -1.85067070676931 -9.24037551247945 0
-214.287277242954 -21.95137784562 16.1753714266905 0
37.2213991299274 8.48351884401241 17.2397831484993 0
-185.484785293143 -42.2077952673194 2.06591144804041 0
-179.915105125047 13.070413913463 -14.0368867465739 0
-190.46745739498 18.5904355233303 -10.2881456761802 0
-170.74207516672 12.8769984340059 -22.8479685056344 0
-15.3762155434286 -1.9655689249172 -3.54773465675653 0
-61.6616495270001 12.1844913073729 -2.41986410772793 0
34.881199079969 -12.573840823142 14.0096639334991 0
-195.364014777373 18.6896648046081 -18.256865565365 0
2.67470690504459 -11.1952490768008 10.7316530772137 0
-131.00021441974 -3.45800005940661 -8.45184006427554 0
-74.1315673451582 -7.36297495976232 5.35334909243223 0
-93.5753816227671 11.8082925111373 -10.8306857115334 0
-187.944436923934 -43.108584859021 -1.64193778917271 0
-178.448385006554 18.7892070039857 -20.9795971674529 0
-167.622204124412 29.2137129521472 10.0186977573041 0
-178.790951059667 -31.3790874982116 5.5998301098559 0
-140.765039773016 22.9755776328536 -17.0941659711192 0
-143.266110745707 19.1620312052054 4.39269547587435 0
-100.101864245936 -3.35307174087434 -4.40120419718095 0
-217.080336176469 -31.7186611123098 -0.831755677120398 0
-55.5799874613144 -6.34358558441899 11.5413989051144 0
-194.882321574495 -8.65535578856317 18.3847518736562 0
-182.140549470144 22.5929859512434 13.2550056367356 0
12.2529717120811 -7.81424477026953 18.7858080572362 0
9.75764763877572 -9.09778553757291 4.98840215743067 0
-188.359032774284 12.4185872881087 -4.57052764453114 0
-200.546269490954 -43.1366820651348 -2.8198513434929 0
-53.7371576233981 6.9246020914889 16.975642757666 0
73.2974840679894 -8.06213176992866 20.7810257861881 0
-182.453379040194 -28.405793808525 -7.13244489242194 0
51.6260169758303 -2.33278657907586 22.7413216097556 0
33.5424095917505 -10.9016658580075 6.72159810149843 0
-186.055158300299 -14.8314142218255 -13.2150978534307 0
-157.045562331544 20.8572346769934 6.4615190818714 0
-215.88143043252 -16.718841245457 -4.60165486176242 0
-167.918412518662 24.0304025596002 9.65301847257987 0
-201.989570299865 -17.7202220013931 22.9844318871351 0
-178.873349626134 -35.0079104188657 2.61122304600416 0
-137.224169992406 -1.83654533057143 -19.4642109603569 0
-198.155555070332 -2.79505485986331 1.05116763388119 0
-122.547880608389 -5.02050472233684 -3.95292573050132 0
-170.287903650404 -10.5383934458915 -11.2490891387262 0
-62.4627258153893 13.5448882934296 11.9071918865172 0
0.0278785827971657 -8.94454040473719 16.7172730374847 0
-202.35993028403 -41.900381680153 -8.1100285329181 0
-206.805883721832 -13.1822979584058 -12.7505709413632 0
8.21233017056049 -10.2247578546134 7.09967390304048 0
-140.208714214991 4.28572515419514 5.7131521448348 0
-54.0664679486472 4.73258436544893 -5.78621351056196 0
-181.211360269437 31.9738489231133 -12.5877007633311 0
26.7985496374376 -12.2249037795988 13.755135536569 0
-98.9283029335681 18.1319407838818 -5.63010461898223 0
-176.274690039229 -21.0159103202607 -0.0488941304560497 0
-9.89140439093205 -3.94742534039018 -1.53790899353935 0
-189.569617814379 3.32244544932142 11.6099702302811 0
-200.359452121404 22.9097609739364 -16.2191860683207 0
-84.6957487808618 7.31622062850649 12.8123974210087 0
-185.550567912729 -26.9401283984783 -12.6661584001917 0
-80.6980065189218 1.6606721624323 13.640534659229 0
-50.3423146018139 5.33632106379431 -5.06605951031822 0
-214.797341676194 -12.76157190717 -2.26995379524483 0
-152.761503566505 23.1736348938626 4.55000642660848 0
-135.362130883761 12.7616410054278 5.85343075812263 0
-183.101202187443 14.3161278851531 -9.01926285172731 0
-94.0325284585015 -2.39026167859537 -5.33030726083978 0
-141.608282255866 6.79039246266634 -19.0040327765935 0
-188.787399493241 33.0944803234084 -4.65044605493963 0
46.6490746923802 -9.69258406448856 4.92947954291336 0
-183.918909437996 -34.2696525567313 16.0701976408375 0
-169.45208850672 -15.8053731439459 0.304721994829853 0
-199.955169552572 20.2074862783986 -3.37825304521372 0
-182.24942992213 35.3783555531153 -0.268705279629588 0
-189.563193433118 -6.9559016384429 -11.6404891451431 0
-62.5389012994475 1.26766868882884 16.2245403464807 0
-162.788600275501 -12.7829804061366 -4.60617764815255 0
-91.9167371811999 11.9864944288625 -10.1689280036531 0
-118.050576847665 13.0380226171635 -16.5810330712135 0
-175.904946775804 36.4509082316331 -3.66938825366106 0
-192.767050277132 1.25564829302991 9.58997896960184 0
-60.9560250085059 0.739498654137384 -5.63382089559594 0
-91.2502005962827 2.85760044402476 12.0546563894231 0
-191.603664583522 0.0714267147833025 -4.9706466211119 0
-147.889426309035 -9.67231199117134 -26.0285963128297 0
-184.32177420035 -9.92049021580891 -11.844768247785 0
-86.7384670347551 5.47146093590793 -8.88722187473475 0
-182.161995063694 -3.96396854641732 14.3204279138241 0
-95.5879247611441 -6.12592609198804 0.483665154353278 0
71.382730546047 7.03187704592351 10.6268705734579 0
-82.9717158967491 17.8109927331659 -0.779748472946161 0
-50.2732806375687 -5.78380821181001 13.3311451881102 0
