-128.553943337611 -7.52888842892474 2.71623442992971 0
-183.585134854621 -15.4955067134169 -11.6877630050533 0
-195.431296062649 21.4904222361286 -4.91394160484711 0
28.1616564804356 1.65587284121884 3.78772068274415 0
-105.554558834877 5.69205199698061 10.3619231893393 0
-161.046390331076 -14.9691242784054 20.4507379955692 0
-184.212927352064 -39.1809977689921 -4.3909193831495 0
-93.2249443719187 15.0979554594143 -12.1396046196234 0
-189.753043016652 -33.9986141072541 11.1131609090846 0
-67.4389837430569 16.8847709080357 -13.3030892767801 0
-168.855714787169 -15.8297584946049 -1.08802682392566 0
-150.401817553013 22.3743996796722 1.71759029659215 0
-198.154158239504 -19.6975454220248 13.6004038389193 0
2.13635582770336 12.4962262171227 -3.88734023956956 0
-71.1884721946363 14.5775703842009 2.7628575505523 0
33.812634718853 -6.7255966381252 -19.6374403413991 0
-185.163048521872 14.2475801994466 -10.0700893058287 0
-163.213390369735 4.39516669503484 -5.86934333443824 0
-131.764989652141 12.8797224038851 15.717558445347 0
39.3465472756048 -8.75627932932765 -14.9118635558591 1
-177.040828399053 29.8917280218233 -0.406954196994963 0
-220.741182390153 -19.7914530850919 -2.74921425483524 0
-142.63981927126 9.43692875604606 -6.7484881926962 0
-210.345744050764 -11.4675048921107 -11.4664565382181 0
-151.865236543424 17.9962101888632 20.2940292202408 0
-65.6394414962392 -6.41105131114977 -8.45032986671998 0
-23.8421898394697 -5.30554936160107 -5.28131594926394 0
-201.254682413493 10.8073958389027 -5.25748329579268 0
-185.983608294617 -23.7994271494762 5.60535522299362 0
11.4785984053072 8.82947321875631 -1.52311085097358 0
-174.184079461903 -14.3490549678905 -7.37438033597993 0
-163.95672726313 -14.45322727553 4.90333549790317 0
-203.641420874582 -14.2358462979015 10.0109518172011 0
-8.24787888338395 8.77392590087314 -23.5746076908665 0
-132.932706623995 3.1998719331025 14.9591158704351 0
-113.597171667418 11.3737623896759 13.3118250463323 0
-37.5182552748624 4.87529434367985 3.43767457223544 0
-208.130472954081 24.7272417003169 5.18240643510415 0
-38.0961824670058 -5.77527119021495 -15.3541062478661 0
-218.193221873876 -32.0788931999231 -17.219883248467 0
-56.6536790930193 10.3586439594538 2.38298915350882 0
-183.967972411992 -38.231791092694 -1.79863795462416 0
-163.00643949334 21.6586102692333 19.6149400316391 0
-196.334400027565 -22.4319886234644 14.1450072826931 0
-206.524457641327 5.70087345063979 23.950671192382 0
-212.842083935242 18.6560214914032 7.55619183882386 0
-59.8628575634932 -6.43758364379334 -9.51196697212709 0
42.249851038089 -8.82326396954134 -15.1280188754752 1
-205.830973362359 -34.3750489628609 15.0916148491908 0
-177.166052466073 15.2614476271038 -5.72625741519534 0
-197.546720425355 -49.2007322142408 -9.06372628477419 0
-201.260654365859 -4.14764596985654 5.26339922193992 0
-214.208764050515 -12.3701415857954 -7.40979260979989 0
-189.593803712257 -29.9904320054979 -20.3223793422638 0
31.8806217452269 -8.47638635502414 -13.625975621043 0
-74.5846718084417 0.208506574326404 4.64874554839024 0
-183.33425823296 4.67651963466637 27.7781254753403 0
-176.027765728051 -17.3327973677345 -6.99413717198048 0
-207.383508621859 22.477990616281 17.3672828996707 0
-203.769418381053 5.7854410380933 20.5530000844833 0
-75.8719542916342 -6.19688956575519 -4.99651045672193 0
38.6394376707229 16.9081428096927 -8.46960258400249 1
-195.074830835024 -39.3854702879565 -20.8207680686783 0
36.8985142894767 7.67443526702061 -0.679790622488391 0
-82.5577523151349 2.94378220358359 6.80812371578292 0
-211.241224613135 -46.4952559875445 0.487956879858178 0
-181.32247112189 -18.7450554610094 6.96051948890044 0
-212.661530905928 16.2070315942079 10.4955215494766 0
-71.14612555286 3.28482350666838 -18.3595971974492 0
-192.417909411338 28.8622021576819 17.6503493767197 0
-173.983521098071 -6.70184809462016 -8.54588362013004 0
-177.609373804546 -8.09184510952042 14.1961436020304 0
-202.697914033199 -1.85148703421877 -0.13799440748111 0
-188.63461012075 32.886440937509 11.7731732677795 0
26.2689368821736 -2.23152609777599 1.58400652498339 0
-212.313367801888 18.0571746399343 14.6771709926397 0
-13.7772242193898 -7.35524940412169 -14.3001007327059 0
-188.565406068726 -28.8002658103105 -19.2408608213323 0
35.7824168682129 4.34969342619226 2.77300718178644 0
-109.802585055905 19.8893827773979 0.31188521899874 0
23.4666831750573 1.93444419706883 3.91357702585286 0
-189.037572449661 5.02040462371794 13.8948422909545 0
35.9924669255475 12.3176027140104 -23.2158945835607 0
-213.460306992972 18.0413223900132 9.7067818074548 0
-32.8287369747354 12.7989180811182 -1.97957272702336 0
-110.993797670966 17.9846546999923 -6.6267473902495 0
-183.943109375277 -31.3038801516251 -6.81068869465603 0
-132.023093686885 15.8786164893716 -6.16829984565153 0
-179.04489941796 14.2770654656322 -7.00208609693218 0
-107.187651473499 11.2002652355602 12.4971756000597 0
-52.5013675573724 4.37881326729484 4.91278469379171 0
-102.59279556058 6.07159020509169 -13.7030206855721 0
-70.083050209953 7.51668198145719 6.80037996205805 0
-105.987247564224 12.2014750781799 -12.1367063195897 0
-74.2786765412845 14.6308922250192 -15.0463072943875 0
-184.164050074401 -2.30499251554058 -10.143920518669 0
-136.928884548063 17.0032393607513 15.0134645312646 0
-196.016685415402 -12.7359984713821 -16.8104584984626 0
-198.849319308345 5.26436476685247 -7.2788151768554 0
-131.269544938329 18.4973700383408 -4.03950033175656 0
-56.0788593082502 17.7355897913211 -13.1566410168136 0
-102.697751135142 19.6270475495122 -1.9163949563181 0
-217.004817567988 -28.160338618099 9.45490694838892 0
-207.157515495498 9.49771080528836 26.4542856666674 0
-174.698766201399 10.7247243636893 27.6920491822929 0
-188.52096474829 -44.7235964319693 -2.04146857715345 0
-177.213309181918 18.8806931468995 25.7270175523227 0
-199.366459861262 -9.73884048337061 -14.4940309747897 0
-185.72779512259 4.18526648186217 26.2258500376004 0
-120.769852855385 8.80213642745792 13.6849388237368 0
-208.301805342912 -18.6352279238066 -21.2389695880522 0
-54.6151023541241 -5.83587515935765 -12.875251099658 0
-118.233553818156 19.3960818037969 8.23040865922887 0
-206.066986347723 -46.7513724536814 -12.054182058245 0
-12.6933497118345 15.9041485693585 -18.9546334453641 0
-204.202218361575 9.13591153487974 15.7783511360051 0
-117.170594302611 0.708888078519678 -10.2368428110626 0
-30.3632830124796 8.11798039886706 -22.6176130961612 0
-126.934137746282 1.79989066781568 13.2899495338092 0
13.7140070463768 9.89306787127161 -23.961187893909 0
-184.062458098529 -7.22132139592815 12.8078138599194 0
-209.831030211077 -38.3944541286704 12.1976015380743 0
-156.507957404344 1.04746389569751 22.4125411909651 0
-153.023794048045 20.7341119125767 15.720695487632 0
-60.5020114952311 -4.04679777914354 -15.0287054445542 0
-33.668990941645 11.2857629905626 -21.0842339687295 0
-199.348110366992 10.0346453820845 12.1190956094602 0
-203.816770605836 20.6668430467453 -2.12544954756088 0
37.7641878205585 17.3105948260294 -16.976511525325 0
-211.696764825033 -38.9341109672443 -20.1677575506657 0
-47.9526559810795 13.3487736997998 -18.6603747435029 0
-167.437571074985 21.6570640705479 21.6480104697579 0
-194.058664285526 -34.2477616147804 14.0421868666382 0
-110.155723174827 16.139249848938 -8.53854431915088 0
-69.3488319918845 -3.06723398073911 -14.930861712526 0
-198.953865682713 -47.3936732719391 6.0782432244055 0
-182.532604714311 -3.00734323709999 16.0689124305757 0
-168.422006988658 -8.14274899918725 17.9813083595777 0
30.3757285911661 -5.07627963349187 -21.3186301550951 0
-190.190298828457 33.4525470939016 8.801808262404 0
-166.536287128946 7.31619947894472 -5.89645668074017 0
-184.440632918841 34.2791383359568 8.79200476399254 0
-13.2618311818052 -3.56502864593954 -1.64940532828259 0
-118.388898707079 20.185605217307 4.61106307933253 0
-208.59022212774 12.9914839849126 24.0190365855761 0
42.2929725566205 5.50113059691203 1.16338440669062 1
-64.3997100856922 -5.72914309010226 -11.5183134495951 0
-180.003154654825 33.7743459431545 11.8132026477336 0
-197.642933367796 -48.4896092730391 3.17629978286821 0
-198.456883650013 5.89598916877612 23.9051213724694 0
1.08075191457398 0.461316535441821 -23.7411630445661 0
-41.3555115308958 -6.64722118517931 -10.6200340748926 0
-96.3332163880774 19.0074548484745 -6.02834298771946 0
32.8664682078311 14.2398003715257 -5.54369751561062 0
-191.556964191401 -29.3373571842112 12.4008061588903 0
-137.327913082832 13.4009336735465 16.6084527484792 0
-159.088945427637 24.3985938803798 3.71379208529302 0
-152.707260841386 -10.9405554957918 -2.91729911694039 0
-17.4027241846821 18.1748948121922 -9.82120629933511 0
-112.73973559147 6.9656665653624 12.039660272625 0
-14.912130120376 13.6108540750875 -3.73335569944736 0
-192.21859493156 26.2699113855947 -1.63098032834968 0
-183.436990145952 -35.39871621328 -5.79924411594197 0
-19.9006224666076 -0.769669940586175 -21.9122757070843 0
-176.984309520865 11.4576199052214 28.3906394560697 0
-144.212064710575 -3.65597283707511 -6.48401370127686 0
-198.619870470999 -48.5664762764317 -9.83245629198413 0
-184.156686657791 -31.1545402464117 -3.64334737145556 0
-35.8900391667966 5.94308092080794 -22.481957060799 0
-149.672959543214 11.0319290647609 -5.7914165414162 0
-14.5493623860661 18.2933252851716 -10.6265667428681 0
-139.971526662191 15.9028896444656 -5.31393770165654 0
-90.7229516218853 1.27402940936965 7.33342862239118 0
20.227652166654 16.3412437144617 -18.6333544466009 0
-151.559833617818 22.9695489227762 3.38398028354811 0
-15.378839334126 -6.8929485981891 -9.5771279170702 0
-194.001215377402 -20.0144310886098 11.9515554465717 0
28.0210596920989 8.98106880582649 -1.74531814929013 0
-31.5561116484836 2.24559889511574 -22.3983136789766 0
-190.309397632474 -16.1830598657864 11.0741385612326 0
-199.370436768128 -3.147987405459 -11.3030929478171 0
-152.558693540646 -10.585013922618 1.71127199280571 0
-146.385020066704 -9.65566048639915 3.02396601837941 0
-195.725805639101 -41.7359759725055 11.080690219584 0
-73.1108216098561 3.16264696016524 -18.1074193697808 0
-48.8923461126855 5.71310808725926 -21.4069089848871 0
-54.6223314272044 -1.13879169758726 -18.4174331955055 0
-165.437334185823 4.95960334325392 -6.26107134801999 0
-140.454784534383 21.0680598311942 9.73041200752505 0
-204.029978603104 -14.405495985133 8.76656358399556 0
11.2810686753142 -4.16227773144131 -3.42023715057543 0
-80.5029817968992 13.6306749779394 5.68518946998374 0
-111.200900267366 5.23666678697167 11.2451187064055 0
33.662518678149 10.3833001462192 -2.78984936191857 0
-151.251510107998 12.8221747965418 -5.34614406108019 0
-100.099205218205 9.62440569888308 -13.9949212859141 0
-181.857780100448 20.0451671388769 26.1846524979996 0
-61.8532493532132 -2.70826275789551 0.829875073494139 0
-170.000591028999 18.0728116467137 -3.63287038039566 0
12.8494986951433 12.9821277063062 -22.166401149527 0
-205.058901110213 -26.8052762975677 15.8387669692145 0
-191.908812098635 -38.9092769115088 -19.4556079526669 0
-188.485446424795 -8.28232806207429 12.3251782520873 0
-160.212028624535 -16.5086466819839 18.2840335361092 0
-207.323090981631 -39.1959297365973 12.7823479336823 0
-22.9984507335762 11.8988783317344 -2.08256115014737 0
-210.569185096757 -45.2947605407973 -13.4794729097487 0
-195.824380510954 17.4066649838261 -8.49657493062037 0
-80.3423913593651 -5.05319066378351 -1.29252466117996 0
40.6350924135798 7.23577377715203 -25.2308437049236 1
-165.63197729134 -0.221822250593289 -7.56124685047818 0
-110.630653183792 10.5132934223102 13.2019595428452 0
-155.686363821032 17.9872780405656 21.238924601053 0
-200.052820366179 28.6323897872145 5.29263523759748 0
-117.167042432313 18.4651629551942 9.7290912943724 0
-203.273642294969 11.722500099351 9.03078211286054 0
-99.5406649809915 2.04295365665273 -13.4511478341211 0
-111.524517045294 -4.19038438290366 5.64776195921619 0
31.1990761628326 -1.90500560122624 -23.5860415908468 0
-110.309906327001 14.7629101879896 10.9582764789898 0
-75.224220089118 2.87004576479019 5.9911064989982 0
-57.9966220634772 -1.37188698099369 -17.8402946169712 0
-152.18821226243 22.6486981565862 1.56833086897333 0
-201.620389786644 10.4411426028361 5.78001944654428 0
-78.0286467508867 0.8075110946477 -16.5024206963523 0
-173.588048965693 -18.6228524912555 -1.65165353602567 0
-202.069191775782 -8.55237470233272 -12.5751818643453 0
-173.619332129758 21.5328430506803 23.7054377538883 0
-205.05413659559 23.4197612918173 17.9527074761254 0
-83.544513876501 9.82765748696249 8.84702433504032 0
6.84165552076652 16.648089297575 -18.0818605564875 0
-215.600846391296 -39.5250655549203 7.34365078568417 0
-23.8130411269184 -4.14527378282755 -19.0405210350894 0
-187.031633200319 -36.153705742119 4.0882377682103 0
-147.829917315336 10.0522187640063 19.7235555988972 0
25.4258358934517 -8.30724662647342 -13.8194997140524 0
-112.097191245354 19.1938131240131 6.79411958531122 0
-70.1386857561327 -0.784817866065401 3.27366591084275 0
-219.226792148597 -38.1956192534641 -12.4211565579744 0
-159.980281227591 13.3794125833148 -4.63409817058758 0
-108.723586908548 10.6785037951639 13.0753881172346 0
1.37705270788857 1.28969865990099 3.74558790920251 0
-178.829303777406 -22.2049362089326 -3.80363451222502 0
-61.9186047381355 2.46668422114994 4.728635669991 0
-206.632617213745 -46.6528773395318 -1.0537190052889 0
-173.529589264099 -16.9957414452892 6.10326033216545 0
-165.322453510182 22.7983366488649 19.618152091609 0
-184.963068260712 -28.0000527091087 -10.9550949004634 0
-206.932352194264 -23.7402106993538 -23.8941312064105 0
-142.11306377403 -8.1210671188668 -3.48127558254554 0
-58.0603423597213 3.12629099347141 5.37054246505467 0
-193.225267601371 -24.0730314354777 12.3234529686834 0
-3.00483704259763 17.5250921097581 -16.1205610498309 0
-138.692842878911 -7.19104617233319 11.2438899379997 0
31.1910866636029 15.2524477129479 -20.2846944865508 0
-215.96864221646 -37.0619724589571 8.5767438191048 0
-167.445706867696 -10.0204939190966 16.0681918378127 0
-207.912924562893 -47.1976333233321 -0.314731906413816 0
-145.046684324169 13.1695564526057 -5.91277178660606 0
-79.603305990804 -6.28172619795557 -6.25621465795744 0
-128.526795903524 -6.84038580665089 -3.40395803198907 0
-17.4534446959064 7.35463927099746 0.250959993538363 0
-130.794190414639 14.0864797997207 15.1728498197894 0
-219.66058318294 -31.4296931071797 -15.3307114213864 0
-66.0805628336515 15.6889800243457 0.576638029469127 0
-89.431960474544 13.6847129874575 8.01380562840939 0
-208.341183084784 -10.6897582472297 -10.9394780057775 0
7.80278820681137 -3.39582744941263 -2.22674074458853 0
-35.1950749151802 12.6894191912334 -1.76554408631663 0
-209.472192245571 11.1511085017686 15.7849331332846 0
-101.537272814807 -6.09201713981937 -3.98042957130461 0
-186.596966380152 -42.3300659431413 -0.502744202441893 0
-183.689500541602 23.0872646541496 -4.23258700964421 0
-139.798165433876 -0.82126984731482 16.8789112386677 0
-205.593950704228 13.5136431548934 -3.9864529901746 0
-180.17930378718 -11.5561034646352 11.383586900973 0
-143.709424635077 5.0521677496801 17.8074495651764 0
-145.419634069822 7.15254197280386 18.6448249258656 0
-160.826924116822 -15.9986194930952 14.825478213365 0
-207.8591572258 -41.1059964622564 11.4327674112618 0
-141.239512084275 -2.37358547726126 -6.8937935056651 0
-185.883017013224 -25.1217456245461 4.51737118116094 0
29.7278847267518 6.15540759655198 0.332037872432892 0
9.89286605807035 17.2696752017835 -16.8601541974677 0
-206.144408172982 -15.6607185716168 8.75759690455667 0
14.3543677131155 15.5986639946318 -19.7791977321043 0
-39.2235348737542 10.9507693596621 -0.32929542492105 0
-195.930299722588 12.2050398528987 15.6406036168355 0
25.0331319057481 11.4932174457434 -23.4481942608085 0
-185.042548883934 -32.2831992343943 -1.07148656316955 0
-78.8830613997517 -0.799645082364728 4.03669345771158 0
-210.181995960739 -12.0628377211323 -13.7404121062722 0
-58.9646177512587 12.2301468462945 1.82647523194922 0
33.8861371447858 -1.52321174762734 2.40233934149493 0
17.824796309345 -5.80722470222933 -19.9984936574029 0
-180.669194788107 6.53063067009437 -9.93769964293044 0
-157.956642275582 -1.82138881316554 22.7169124696203 0
-47.8046597680518 -5.47945991355219 -14.6502858840699 0
-80.5481745350295 -2.45242031674555 -13.8438652624268 0
-177.629112855717 -18.2003978542018 6.23399450836767 0
-50.2103118656609 14.1541276589716 -0.928124134293484 0
25.2338515938871 2.5497985402096 3.90213426394601 0
-139.19586280749 -2.73261988732443 -6.72148511481641 0
-52.3094184609836 -2.19061512961961 -18.0537274620603 0
-44.8660454353271 9.77490781682829 -20.9791784165727 0
-167.391206575496 2.34858446790703 -6.95949724139943 0
-172.397545990927 -17.9177770761597 2.43590088830053 0
-222.643722795022 -32.2847132166983 -4.59869681708186 0
19.9676214542647 2.00979319695156 -24.7198346089653 0
36.2280508672869 -4.30224333152655 -22.1321326210009 0
-151.37633634228 -19.3862937221061 17.7642665431364 0
-104.22915540015 -5.7834007223116 0.851084492824774 0
-156.781253931972 -4.74367948165147 23.2461197635045 0
-1.00911000952891 14.1795750895976 -21.087940763471 0
-183.638499629551 -19.1513102570443 -11.8257835039868 0
-202.937331049595 -2.87618289490403 -4.20254931764092 0
-129.312812514493 20.2765636836467 -0.773407393731499 0
-70.1804005609036 -4.77293688119116 -12.5612470018397 0
-87.5834007721947 -5.8421593525224 -2.25316344895804 0
-193.986438123113 25.5732603624337 -0.895277280435351 0
-70.7222135453204 9.00287034539471 -18.6655929427224 0
-144.870330704252 -9.17252473448448 7.54003932765263 0
-188.449188463587 0.970143797538141 -11.0179756428767 0
-53.9333818275932 -3.27639479416027 -0.472777419862329 0
-23.0365428655999 8.91398696509156 -22.8301179087934 0
-74.009197003825 -6.21948836171449 -5.54946226781175 0
-203.563193217618 -31.7404673395826 15.9631660581539 0
-198.344443249986 -20.0231329411939 -22.2613271453092 0
-67.3135487806111 3.85518605896505 -18.9668375297459 0
-199.176636810029 17.8031279847981 -5.68952671354929 0
-176.823265509078 -0.94296417049311 21.180827458399 0
-170.961142582052 28.9036853565064 3.13628467951302 0
-210.752918492249 14.2175763209525 15.5934071262241 0
-156.541566213435 -17.6421305942267 10.6803484291092 0
-202.328166015086 26.9869470057736 12.2345475471271 0
-178.388221913715 0.504438627617403 24.4942953310311 0
15.6160319801896 -5.12686265891371 -20.5968155795833 0
-136.144504640067 3.35184015877461 15.7490045295322 0
-11.4007995723539 2.70853794950973 -23.8115623756249 0
-170.062158253176 -7.28110070948451 -8.27194110365735 0
-193.847395430878 9.00450144306726 27.5890053721694 0
-114.257703685449 12.449109293291 12.2133487199284 0
-209.569000283096 -41.5462727988793 -19.3980479211384 0
39.1945299318465 -1.24003568034757 2.27521203853144 1
-210.481456759108 -46.6888770745782 -9.04747980647967 0
-52.4591505305103 14.7046736766524 -17.2361888059937 0
-189.916694091947 30.6171897406049 15.7555970946076 0
-38.4874682354126 4.99310600106446 -22.3179244250755 0
-192.198954382775 20.1390394881871 26.3417941089075 0
-43.3312675148916 1.73237145510348 -21.2078653400842 0
-105.531501816606 -6.06722917812975 -0.268521361788379 0
-7.59398614900831 18.117416626875 -14.171456355402 0
-20.856203986474 13.4141874425342 -20.6706502666251 0
-208.969513000869 18.7326578221367 18.1531976842348 0
-65.1712593141763 13.5902063068958 -16.9091077032575 0
-141.684200943177 21.8536668399675 3.87314654202624 0
-141.382832542573 21.6243064145586 7.5520885587153 0
-109.166249780601 4.95689863499995 10.8326949341935 0
-40.2847402267687 18.5985882654815 -10.5794179220202 0
-32.8507308886617 7.83558560003985 -22.4901990530305 0
-207.378305125949 -13.8467436208406 5.8394387062219 0
-68.4768860367498 6.73275018983929 6.87502933505276 0
-160.980180676807 20.190025895935 20.2756473347761 0
-191.510359338015 -25.7755678413594 10.5569367851868 0
-88.842318813512 15.5267693944094 6.23618824123075 0
-142.919875181146 -9.06636709470463 16.089223704917 0
-48.6439662623585 -0.00785825263082946 -19.8023999517754 0
-151.433410697805 -19.3026648459069 11.9500002801837 0
-164.568806711086 13.9575401823136 -4.53326931672746 0
-123.040967767364 17.8011680593702 -5.4039263001146 0
-119.759148555718 16.7024902581753 -6.68209821034984 0
-42.3287723902728 5.3173649865875 -22.0248528666503 0
-97.1355886152999 14.8611466114086 8.85289232449804 0
-140.884971300576 14.7566422397002 17.2798121581545 0
-123.33146325288 6.39792220638037 -9.98910375956812 0
-170.171438122684 7.82381118253366 -6.37670718820237 0
-62.2188875980281 16.8292673093692 -1.85411750643502 0
-66.0090902373361 1.2865269178761 4.58649557032795 0
-137.02705810466 2.23332289568478 -7.77089511410316 0
-93.8807231008498 -2.88436450223928 3.91688356622581 0
-4.56267744138505 18.0136057397319 -10.6350130183423 0
-154.193665669928 -11.5437161541008 6.36009108562072 0
-180.567445086274 -6.62862439915097 14.3701283770812 0
-197.537885482322 3.97596269307841 -8.59608280705075 0
-164.66023820294 25.1376493641192 15.2246697527802 0
-171.719678090871 19.7073343412167 23.9187470224261 0
-40.3781994188739 6.61222934007327 -22.0596713695425 0
-81.1024547310571 17.2124101689622 -11.4028969589797 0
-152.512631454521 -11.462740815399 24.0514108939411 0
-79.8725144280766 8.90154675930684 -17.3947467359162 0
-167.724459465533 18.9693160203526 22.9967547930629 0
-217.592849152558 -38.7866497821647 5.4811926919382 0
-138.466559735785 4.63002705682661 16.2202113954225 0
-211.867788922007 20.3834465600516 14.420609087183 0
-175.459024347287 21.9180008050337 -2.88823821731792 0
-161.151032367634 -1.47956759014214 -7.46419090179877 0
-181.255214676186 2.12914240695877 26.5613239069822 0
-109.736678701195 -5.56152586685885 3.01474391727304 0
-189.601171795962 5.9056287082004 17.7103616132879 0
-220.591996777404 -26.4436558478105 -13.2091197276426 0
-190.303833512124 11.7877481725919 28.5836024772389 0
-198.702446793826 -45.0322586827056 8.74891695691869 0
-186.31435230719 28.7719586184379 0.311002096587812 0
-213.538435004352 -20.4229188079409 -19.4782543025609 0
-206.419075044697 12.7775634129829 7.19851050739138 0
-184.124243436966 32.5661136386298 12.9563228691856 0
-126.21186541874 18.8345983881908 -3.95343039039374 0
-201.844248365507 10.5478089817062 8.0524964689835 0
19.3236910119497 18.0701104476679 -13.0825227226523 0
-37.3525921125194 17.8795489266132 -14.2899181898742 0
-125.875406535217 14.1584898496358 -7.86431013603606 0
-202.795259661688 26.6570953781444 8.80869878395872 0
-214.326712345279 -13.4410960683352 -11.4283605483828 0
-50.359471441097 8.08988178381994 -20.9930284546785 0
-110.980611618768 -6.25664412258783 0.73324642127432 0
-221.488797823515 -36.4422890439401 -2.47082776695633 0
-74.1332638231692 -5.72070761086484 -3.27998585123533 0
-172.875715478074 30.2215938532331 12.9817807084921 0
-192.794044261578 3.43755616033024 12.8162684174389 0
-191.5663006106 19.4108568998172 -8.34745688920572 0
-186.322500672035 -20.4855004947922 -14.0101135990081 0
-142.55943736833 -8.94147748913898 12.9817965235944 0
25.1059570958493 16.284566201814 -18.5837951667135 0
-65.2901773287953 -0.345372244302231 3.33981459032419 0
-171.994417815467 26.7761362733257 18.7118528124879 0
-51.6716355261797 16.9880468263744 -14.7762138795601 0
-191.796414052596 23.7323631495237 -4.52272394595554 0
29.7872334138802 4.81680110941653 1.84513871129171 0
-66.48876974166 2.89286417908008 5.18479097089 0
-151.443284784427 11.4206245672629 20.3822692723191 0
-187.245981987556 22.9929519325998 -5.41007153384844 0
-209.186034720106 -10.843225772904 -9.05412161010275 0
-200.194616372226 25.6108681294906 8.30504794105314 0
-161.316703039235 22.6140215090309 15.964627396738 0
-18.6333598835791 -7.21380874883395 -13.2019474213733 0
-194.626970168913 2.49301651561383 11.1815076489601 0
-191.526464610743 -33.3469510025417 12.9269487877967 0
-89.1032809726592 2.79058014749372 7.53822978899167 0
-151.039295506216 -15.994626276809 22.8613744910867 0
-85.317888173592 13.8829846957913 -14.2379825954737 0
-210.965100675975 11.9815866039279 19.0424665625661 0
-210.895753436058 16.8029624908983 16.9674855857333 0
-146.10470464331 22.2875491039065 6.49253655118974 0
-142.682169225008 19.3669834249315 13.7867494101199 0
-182.983390218359 -13.0821723588931 -10.8069610195432 0
38.1374728089378 -7.08465566824016 -19.3598348715532 0
-98.1698120966582 3.38822308430478 -14.0918730052107 0
-186.516380767799 -29.4081290456627 -16.5258632027354 0
-173.539863058391 -18.6910719696865 1.03347371635084 0
-153.431453123048 -10.4425907872727 -4.817221041029 0
42.2595523500876 1.1824106176515 -24.9437399723699 1
-177.008847236331 0.11298834112677 24.1887535711215 0
-129.134589683241 18.976582928855 -3.64626801839366 0
-16.5118459128675 -0.168722228828195 2.87354185166313 0
-197.479965103623 20.4677770831808 -4.01636075984954 0
-201.936654004206 24.5058018128271 0.24761828462375 0
-176.631105794752 -0.364054718349712 -8.61358157152142 0
-88.6095363642919 0.809954114504873 6.69746156549839 0
-213.489157056943 -40.4652356385653 -17.9419022203583 0
0.772212861871454 10.0044271330723 -23.4692330431659 0
-102.533507788583 18.9205857847076 -5.5957490635596 0
-40.6133555236601 15.1815386438199 -2.76501896758502 0
-156.621661305949 -10.5171996366702 -5.05611314255468 0
-79.7986370678232 12.4594599679389 -15.9952084599418 0
17.4326025548039 -4.2251704573534 -3.58476239244159 0
-209.57309649205 -39.0494571592541 -21.120687065418 0
37.1717446814929 -7.55692151341306 -8.16552444144078 0
-203.378888008345 -6.76500306617244 3.49874905934659 0
-207.475687700683 -10.6384356590871 -12.778501099739 0
-121.090151883887 17.0311777713004 12.1809313498504 0
-87.2606914187449 4.20573543145074 -16.1494368739478 0
-192.362135876561 3.03910119083755 -11.2027711883695 0
-220.220344998264 -33.30821175418 -13.7481476734132 0
6.65275010871115 12.2974946312219 -3.89331036247636 0
-185.732539721022 -28.3914027807796 -13.6266004334739 0
-38.7875960425053 -1.61496131054497 -19.771419267432 0
-151.218027457042 23.0825911953015 8.20815509442025 0
-99.0975582711773 -3.57183109548148 4.01674048468012 0
-207.338987444489 20.0629393955408 -1.1532151975173 0
37.2770410793605 9.89766918331967 -24.5306095761578 0
-146.12039635529 17.2942552393554 -4.31577489466798 0
3.44927929267569 7.92739711084798 -0.759153986986899 0
-75.1777450421501 17.9802968425463 -1.0817743850546 0
-156.343118933679 -12.0205690545897 0.153397398297364 0
-181.967478284986 16.9459526874949 -6.10305412947827 0
-155.489598280881 20.6412802090927 17.1565456539808 0
-167.780432044843 28.4446878597377 7.8471191333632 0
-205.805109814095 -12.3343560681789 -16.4714095885955 0
-204.459270362363 22.4365360532516 -0.576792994883824 0
-202.172518080951 -1.57832348156291 -4.50594556866223 0
-77.3861870770874 6.28294502806204 -18.0329524156328 0
-99.3946648077887 14.208635826784 -11.8798672377185 0
6.09330770559685 -6.12826647700957 -18.9625815868941 0
-45.5274885005261 6.3112724318633 3.33434847008157 0
-37.4030986641118 6.5262850934742 2.19438859268582 0
-67.9112427043872 14.6529141947734 1.93875162341059 0
-18.2941999815077 9.51339377910307 -22.8390410525456 0
-108.210569329844 2.88581553123167 9.99207044871457 0
-142.83441219455 2.76005570805287 -7.06392805872076 0
-53.2037196151229 -6.47204898685951 -10.55357976826 0
-185.253906998875 4.92974745273959 -12.2177165434944 0
-193.764944426031 30.7303549687916 10.6698861319387 0
-139.032761885065 21.6561524334498 5.20680171571384 0
-133.756229468518 9.62644317274618 -8.06745455192857 0
-71.7769284364724 8.27280902909948 6.90538746144772 0
-19.8410563468177 3.58046126347746 -23.4700402961622 0
22.1312954022397 10.9865127701945 -3.24757489903809 0
-8.55366594419643 10.9899739420623 -2.47880028028266 0
-54.6533131769191 -5.00829001418228 -3.62785206559484 0
-185.829643340989 33.8546946773821 11.2661750021469 0
-208.423955648747 -32.4623815214947 14.7472294718311 0
-78.5784280317382 -2.63538872937685 -14.0412913025638 0
-184.731420610062 33.1474640576656 6.84655072324466 0
-58.986678315167 4.51607797821861 5.24084587270306 0
-217.644047717779 -14.9765114860692 -5.49671768205369 0
-179.832541328527 -23.642659469151 -1.9951494144426 0
-45.960928027288 18.4241744568291 -6.6259960511662 0
-36.5466693765395 -4.34560958334819 -17.6223835238323 0
-148.495009874942 22.370259364991 2.69439036584399 0
-74.9542937214948 -4.80617183409873 -11.9296150716272 0
-208.007733973791 7.88404561350301 25.9515655049053 0
-190.785001755627 23.8877744925104 23.6577600006765 0
-177.750546092104 -21.8381312057438 -1.7543646133046 0
-193.49271189479 5.24464896433943 22.8904550272431 0
-19.1289142514423 16.6276758537628 -6.36483930695591 0
-208.049088261911 -13.4329361386528 -16.8555552560502 0
-118.326333600894 20.2518783658334 3.24166438726242 0
-184.035532280482 -1.20295729465232 16.1724760210167 0
-144.090971864535 22.1031442105435 4.34791378081452 0
-61.0581565998373 11.660731644326 2.52380651530804 0
-116.976446398909 19.2009172477971 -4.10967283170117 0
-123.018943506715 13.8540892820827 -8.4097941947599 0
-9.20646038990887 14.9227512953756 -19.985483913674 0
-198.41717287097 -6.35661649405576 9.80566524957718 0
-125.273263461056 10.915085234875 15.0268335454449 0
-201.781609301684 7.27231543237121 1.34574309950514 0
21.81512320995 7.02523823083081 -0.222343470175768 0
-84.9212885671009 -5.34156720290928 -9.22405259572733 0
-11.4488991375093 -4.44099051150211 -3.23929156640607 0
-1.84497028051553 2.91637072659011 -24.2645687082007 0
4.41743376624577 11.6451830696429 -3.38506302050196 0
-75.8041101289166 15.540773883699 -13.9628272317822 0
-94.5438611457644 -0.769162587057965 -13.1141820751291 0
27.8326013750084 10.1397436240281 -24.1959457585875 0
-70.5815841514565 17.6493174148552 -1.54535206303571 0
-189.115274273693 -33.7787670480258 8.20328356132644 0
-144.559666538337 14.9237758386801 -5.31902255762859 0
-85.7683560495537 -0.294755676734482 -14.835266735967 0
-191.841522498407 26.5556527572373 0.439849202313616 0
-133.28301608279 20.867602487263 1.11618778435769 0
-204.866791461986 -20.9712744894238 -23.2180893820189 0
-59.9884582169302 17.7610972081195 -3.57932274850644 0
-169.348923904295 -10.6979623956332 13.8024470231919 0
-29.8396012713705 -6.56745424669804 -14.352787584969 0
-45.8110364488572 -6.24220246999563 -12.7667537701153 0
-29.6685105377417 1.37053764759866 -22.2406478755927 0
-155.853097959849 21.8459145460659 15.2486342210327 0
-171.458659719314 30.0140201699266 11.24062196523 0
-22.3578385346697 -1.29768901124963 -21.3785805989874 0
-48.1503797725753 -6.18782489425492 -7.14131840700538 0
-55.3851945209098 -1.98020556719346 1.44278522273497 0
-57.627091037109 -3.73772144870939 -15.8263098078795 0
-171.222800652338 -8.86830256364797 -8.02985567391501 0
-133.564732612551 10.2007839777179 16.2297099956147 0
-22.6829795947202 -1.28060160506616 2.08314628315317 0
-108.443091683426 8.07007600614762 -12.6081298608427 0
9.52484997639798 -7.73825681170857 -11.727492976704 0
-124.87960654445 6.22508818141106 -9.72145943171387 0
24.3320731939455 6.60224273630596 0.125266085002197 0
-147.367846783784 7.78331981926174 19.3142164939158 0
-184.976381061306 -32.8088651039595 -14.4026232391934 0
27.4521399056508 16.946188980765 -17.4230990832725 0
34.3910112277989 3.12278598229248 -25.1791565846636 0
-33.0149665747502 14.1994716121136 -19.2701867995402 0
-118.959161633005 7.16969065100434 13.011756386364 0
-198.894577943456 8.48257252004684 26.9886220883166 0
-209.940201364908 22.3963302939235 3.19293255873198 0
-198.376196023292 -3.59509256912476 9.17541752727746 0
39.3646998469903 3.28789713371088 3.76337476543717 1
-193.378591682927 -38.296174994655 -20.7515987640775 0
-45.71321312137 -1.57622991771345 -19.1822322825144 0
-186.304805463771 -19.0236793054326 -13.7822470316054 0
-46.0088161411237 17.4161055307959 -4.64926722345286 0
-71.5006770776222 18.6931329261891 -9.5499297118823 0
-196.109143976796 -4.4706528076311 -13.0995924172237 0
-158.267670443675 -6.77963512990289 23.7830965455525 0
21.5891864385321 -4.86992456477776 -4.5145354058985 0
0.850801344622131 -7.36903514292874 -16.5159591298071 0
-133.04386722847 -4.64851921471301 -5.93779167280174 0
-94.6469145367434 -1.25137436509211 5.62581334436645 0
-202.859990955787 -47.1630432181538 -10.7133029845688 0
-177.412034469374 10.9090637470901 -8.67309298304198 0
-168.338745034496 14.6818532686696 24.5707667158937 0
-153.610696943637 -10.6858278150876 3.22652479131163 0
-27.4903887826831 -0.0859016061112119 -21.6701423643716 0
-192.573442938151 24.9538417622811 -3.49171917401563 0
-172.440767663315 23.772857911042 22.3604416029659 0
-102.681421853962 18.6675199477676 5.05215737631061 0
-66.7254730574637 18.353800713577 -10.9361905503141 0
-213.123180579683 -41.1742522692449 8.37941756907156 0
-148.651647078471 -12.0835486095419 22.5912840733506 0
-147.254625585806 20.5181707769404 -1.78450071622262 0
-88.0653322399823 11.3928065037921 9.41531559573452 0
-41.1628620679204 9.67249365078411 0.704665081991855 0
-124.368969807231 -6.73290341573433 4.73097104430002 0
-184.114781755002 -29.2606642117594 -7.18531928412868 0
-145.859155893038 -14.2823240389755 18.8604713099162 0
-61.2556784096484 16.7228907298796 -14.1491658154594 0
2.27386469866582 16.5924326481631 -7.6212239549996 0
-103.572660076008 -2.69728089212334 -10.3866876478852 0
-201.147427508073 -47.08124291942 -7.3370354984343 0
-18.4292309908534 3.75789238122966 2.98562999012371 0
10.4779128399408 -1.06210798109611 -23.3759521452236 0
31.1447986775581 4.23176193184533 2.74644821870664 0
-63.5649962260051 17.6578762205892 -2.99969170096693 0
-199.530731047412 -26.4273300830846 15.6698446720715 0
-165.788377098553 -3.32778229068393 24.1778196099477 0
-47.0824616487868 -4.44047912482303 -16.4276552889577 0
-42.0761672142945 8.19301511293956 -21.6928015453483 0
40.4053454744658 5.73905061045015 0.771169259072049 1
-117.828067089899 12.2178810594015 13.2754766443801 0
-20.3848996432333 -1.63199267258113 1.55791174793791 0
-110.130994629545 -2.53606867392304 -9.6430523522274 0
-186.477239131006 1.52201585280808 18.441028055101 0
-134.269770431783 -6.3191418847757 9.1349662898136 0
-207.79946644628 -9.82305859946981 -9.31642980074415 0
-174.392571507443 12.3540052100184 -6.50082881865507 0
-190.282970709343 1.66159235598187 -11.2290682304053 0
-63.7587073820539 10.4055273797352 -18.9068978756682 0
-164.978819267585 -5.33937526689653 23.8240426196405 0
-18.8369748412801 18.0004567437497 -14.1201646367798 0
-159.96972245181 -7.6050780247279 -7.68229516936807 0
-135.393066978309 -6.74362434911406 -4.03587937720054 0
-86.2849910965008 6.51372009364517 8.66948363737993 0
-170.608043305879 1.85509161931277 -7.68669271030787 0
-60.9997963692264 9.09295605896749 3.9911741495464 0
-30.2401189529895 8.59697292142687 0.187166837588961 0
-91.2006546068099 19.2582229601532 -4.93834935387592 0
-189.280595546241 9.76992754328811 -13.535962795834 0
-109.708867552422 9.26665061931459 -12.178852095836 0
-186.77679103147 32.9639464844434 12.2037351119561 0
-113.852727096415 -3.54869762844095 7.202329789982 0
-188.622726513985 -2.42630846435195 13.5241707557059 0
-51.9377907658256 -5.61407963394546 -13.8156838076136 0
28.5382885264818 17.768317251881 -10.8862409379182 0
-0.215709926336355 16.105678378868 -6.87895597450466 0
-98.540524813449 17.2214739024088 -9.13804052898212 0
-89.6448619645705 14.0721962173723 -13.5320222659827 0
-188.867859084181 -21.791434545502 8.7316554765003 0
-120.074346083166 18.576226552279 10.243909186792 0
-131.076880309168 20.7416470544845 1.15990488006038 0
-201.945479731975 -38.7439823711687 -22.6283173658522 0
-184.031652537244 15.7401222909989 -7.96427261609269 0
-149.543351206746 -4.90083607471944 21.683827401732 0
13.1964065507072 -7.4047113467983 -17.1027542768389 0
-220.563234930714 -38.675902156692 -6.27704750774149 0
-158.37764940683 -0.122781765793383 22.9212293742797 0
-56.8941498563377 0.903174686687837 3.83010642557935 0
-216.899676708989 -43.499695953128 -0.646942718054367 0
-179.373846457611 32.6998446370939 13.670382567121 0
-156.320374860623 10.5849217984917 21.5839792425449 0
-217.792714600503 -42.5175749767618 -8.42958654073864 0
-72.3136511624394 -2.28767076066852 -15.3074783250485 0
34.5961955999144 10.0473606912275 -24.441719220508 0
-37.7708371012977 7.40561652705599 -22.1433093035874 0
-150.72842326437 18.6577140081437 18.4938619461459 0
-196.106694920338 -6.50384025866933 11.2615757106033 0
-192.446035815061 10.9499530634234 13.5549162155382 0
-201.374977942207 -47.2959377315815 -10.669459518639 0
-177.310220181924 23.933730767015 23.2660614391764 0
-35.7288795055239 -1.99444834965716 0.737216310789432 0
-210.49549095837 22.8260011877851 12.5646969530039 0
-194.944886772008 -43.449439172195 9.06823069833736 0
-72.5330752060759 -3.77785333182969 -13.7845740984289 0
-188.693278137679 25.1381094261241 22.7097488325157 0
-208.067164752334 -47.4754355467009 1.76121234672457 0
-44.2093024533357 -3.85717276606848 -1.84390026816779 0
-210.247335127973 -10.5468231965315 -6.05369418016128 0
-191.791188418633 9.7315983489259 19.0299898916391 0
-158.00026988019 6.39386183843359 -5.33775920883929 0
-181.71066725322 24.9842077002442 22.8304482782385 0
16.3530398693033 7.79119155988683 -0.820778619931387 0
-163.401455890134 -3.05783873562144 -7.77854050046952 0
-146.559074231925 -3.3372440111706 -6.3874279135121 0
-62.0910365732706 15.4341606326629 -0.160025904098043 0
-87.4872264666365 -4.3040477478766 1.04891515390869 0
-205.192724202408 -25.7488765664216 -24.675196381458 0
-181.921080808455 1.58655874425422 25.0619529007015 0
-221.573653139558 -27.2428197598319 1.64007134696608 0
-199.745591132824 -21.4432505649097 14.7123289429858 0
-9.71638139651902 -6.58954939383556 -7.68764270012336 0
-150.884442889911 6.68767257523935 20.1815744091843 0
-188.699752878113 18.3219840804972 -7.97256924656216 0
-197.185496590563 30.5715204370239 8.4413646572526 0
-200.41961267482 -18.2907107860493 -21.7273646502628 0
-179.185319947287 9.13694626837687 -9.66153127935043 0
-5.4235305241443 -7.32170654912597 -10.2137433175233 0
-178.372017222142 -12.6849149927027 -9.39818244401019 0
-185.148842614188 -40.7395737393672 -2.41329141240977 0
-12.7556823644948 3.56248855726179 2.97800108689497 0
-124.379004500225 6.54996465392506 13.378281828216 0
-189.719940468499 30.9832504992645 5.34469958867134 0
-62.1946436016045 6.10362322286292 5.86975222090536 0
-190.543795588283 -22.3505807159852 -20.1189848803562 0
-173.350975248515 -3.08609170246855 21.4010147262286 0
-180.89209490116 -20.3802590260696 5.35306311726426 0
20.5298053489889 -8.15369090844029 -14.7219453743796 0
-123.778847699818 20.5786327343928 3.11228281606294 0
-41.7418872400059 11.7758212750929 -0.513943868850087 0
-77.9133303502645 19.1049970014953 -6.12608141757801 0
-179.184672265294 -1.71780842215588 19.2011438791515 0
-221.318853944017 -32.9150852722581 2.30649228047573 0
37.4121779144702 9.88524494632015 -2.42537647263491 0
-193.071637719434 -15.110722540364 11.6577561174959 0
-49.2637958834188 16.9800350010929 -3.68112030179926 0
-193.769145529133 21.1238228886453 -6.42627625506149 0
-157.604505509693 22.2891403507706 -0.552193539114278 0
-206.359684195638 12.8611873091349 9.5974392934315 0
-164.697329804376 13.0724966289531 23.9899258090314 0
-19.6343031321462 1.3097198026375 -22.9304047080585 0
-190.294643412209 25.7618772255114 -3.3026104637082 0
6.37581326066094 -7.54133480416552 -16.6099302173628 0
-205.226518614008 -46.3864978388885 6.53875889196716 0
-115.928196166676 -3.79869129230488 7.50988600544904 0
-127.436592479281 14.4061848700438 14.7010721281105 0
-170.707990106201 10.3259073785489 -6.12262372669888 0
-157.416238599507 2.69222846936297 -5.82322787444015 0
-115.330149595184 -0.752211454439226 -10.0222226303484 0
-39.7487987671217 2.37089120998279 4.00263882569907 0
-172.898280002132 25.8214638669423 20.7628097697268 0
-208.173247336743 -22.0598217432732 14.290802776095 0
-210.203386849969 22.9310545259953 9.84210645551916 0
-152.410621504875 -10.5573204161058 4.65312665000887 0
-53.9486942366104 -4.96264226104302 -14.6992494515949 0
-183.655226210597 32.5904623414495 5.28219906019576 0
-212.460966698406 16.9450387783501 13.0038114223273 0
-206.177397270618 -16.6223029137358 11.3228051064543 0
-200.181329838695 10.2931916995847 15.8634495561273 0
-194.821172498942 6.42017360444129 25.6982829093763 0
-150.185053896132 -19.0048577490837 15.2657347905851 0
-174.539831817062 -1.92707491014399 -7.92712637190411 0
-198.97109274098 25.5582619648744 8.10680555440668 0
-62.3161541714862 -5.04536855203642 -3.02997490136468 0
-186.048071864552 33.394593889489 7.7767110410318 0
-59.7889695066456 -4.17077066510699 -1.54121029029822 0
-179.93763113982 12.8522742749884 -9.02047120019783 0
-115.188880874309 19.5510518374415 -3.33814837908888 0
-177.93092771074 -9.96641397594293 -9.28030721068081 0
-163.714669073173 25.5479181695503 13.6625056623571 0
-25.0904250095232 18.5141367354543 -10.5530790712176 0
-33.8858743215772 0.606457097077819 -21.5162223163223 0
-68.923887468334 3.32330094274534 5.58715043874355 0
-187.556080869405 -10.5017685661441 11.8732310470235 0
-33.1398770812756 4.19799194475466 3.35106563207417 0
21.2207062964368 -3.08371690087301 -22.5614214218216 0
-215.629825067423 -43.06543987407 3.27477043113784 0
-158.452043973458 -17.8011193311375 19.1681455677622 0
-91.8201906605306 -5.92124485148728 -1.89627382693346 0
11.4641724518582 -2.41720246449182 0.754569538525758 0
-23.0246938802623 -6.13661948378872 -8.10138174771319 0
-213.050195182798 19.9333565253886 9.49983714279524 0
-168.462908197582 12.2190569203265 25.3319478743042 0
-199.37044197076 -37.3739245206582 14.5270053237498 0
-184.403898951517 -26.3691869760323 1.64883958205358 0
-45.8894749510546 3.96097852315421 4.51389948230049 0
-30.5290925885838 18.5808014934735 -10.1547607648944 0
-199.526321002097 10.5453348039385 -6.71188590343385 0
-155.382131583127 -12.8137955782672 7.94042503718943 0
-51.4192334041455 4.3749186551733 -21.0957465219636 0
-42.3665361553473 12.3884972705298 -19.8177890128519 0
-127.630344434389 3.37113747195206 13.7362084538426 0
1.22010651977614 -5.81820363752087 -19.0901940023233 0
-159.744216321349 -15.0000022203932 10.9551466445192 0
-166.812876131172 -5.66653690650705 22.9471417068469 0
-117.831583417006 4.14962246579963 11.9902734997108 0
-37.6349680257135 3.04383595472365 3.75796251631453 0
-135.185555817774 10.0920945698213 16.9519458509428 0
-6.97281924921307 12.611336473698 -21.8066886170879 0
-53.9248066621596 18.7141118526795 -7.75034928888137 0
-217.369433075563 -43.5154032132794 -3.42192240454871 0
-204.243387147503 10.7049225429044 12.5198043059487 0
-45.762703233694 -0.307242893318326 3.08345435055225 0
-199.001509680846 -1.44197508244217 7.70223392182106 0
-148.251270540331 16.2018893438188 -4.78119623994042 0
-121.82549421163 -6.84306170280351 2.2765837077518 0
-184.445157421196 -21.7108852170494 6.14749286176567 0
-25.592575079508 -3.9546458175806 -19.095960463734 0
5.08836568283761 18.0649640846895 -11.6779923082599 0
-159.349386714981 18.1988465736397 -3.47525577195691 0
18.4831001156345 -1.18086382373835 2.8633087617597 0
-202.267539226341 -0.240035936931678 -2.44339651644683 0
-56.736690107183 17.6508390103271 -3.82070794858878 0
-197.938633409292 -13.4969865811616 11.4787076479664 0
-72.0743479945782 -5.97874708219794 -4.21092328090292 0
-149.416135429098 -2.94092187440387 21.0316877706827 0
-58.1318206151853 16.8022097399685 -2.55202902206451 0
-71.5515162117883 -2.56844991235518 1.54577295007695 0
31.4810562148663 10.1237243330304 -2.66481402873256 0
-91.6395639913746 15.1008026735571 7.40228220638069 0
-194.260523956119 0.80925371576481 -11.5199219965361 0
-206.348755524172 -46.7267845922224 -7.21285444062343 0
-75.5614850288535 11.5210004634923 5.87578869756418 0
-24.6968938683349 -1.64776511179892 1.22070170244078 0
-171.02917897382 30.1194841597508 9.58436823343224 0
-202.087857768507 9.76522173129859 14.8574735966356 0
-104.46515126043 16.9896073978716 -8.63477385814055 0
-87.8172242596589 7.74276755523803 9.29669929079712 0
6.22126789195845 -7.92133694062878 -14.5146274340042 0
-167.024246485678 25.0759020380869 17.3547830807333 0
-101.487292900874 19.5382211895871 -0.515251196883189 0
-134.080465070232 3.16076799107989 -8.2881635428868 0
-177.59186609234 3.04333551678439 -8.99944190574199 0
-162.384927374483 2.3021525520225 -6.06912164415291 0
-215.874007581373 -13.5419525547347 -7.39410733789643 0
-128.31245484688 20.6052607857811 1.05346716742576 0
-109.927568068049 -6.431268156314 -1.51819247385401 0
-188.4858299404 4.78792660385072 25.8424918252123 0
-149.420420120187 -0.170301930500098 -6.39740683227171 0
-187.31162109834 -18.029559790962 -14.375941598712 0
-144.994698498994 -13.1465765298788 17.4051597768257 0
-57.0297727678805 -5.80685325994992 -12.4943080171625 0
-151.346451653622 19.6362437244916 -2.6870874974639 0
-201.463869505533 -44.1700292777067 -17.9837084429363 0
-44.4013314613093 -4.09458636725778 -17.2178965212421 0
16.3053277795241 -7.22566583153895 -17.5782813325017 0
23.624880019537 -2.60654155256019 -0.017570353263089 0
-205.842021241074 5.08177914489993 20.738897890353 0
-23.6403200626963 2.24367281306356 3.60215954804759 0
-156.157764794319 19.9308357127878 18.7462101199875 0
-205.669387710283 14.1722006676814 3.70819411192118 0
-198.327723611623 29.6193408612251 4.71513163006074 0
-201.236840379714 9.20216224927789 27.0369583957942 0
-116.840744802931 20.1435360842232 2.37212596998764 0
-210.098691766544 6.00476211714188 22.7055715355939 0
-199.008474813292 -33.1067497498019 15.6736485540963 0
-199.232411107515 11.9384264753474 -7.84064382066036 0
-201.128976836975 -16.4673311484127 -20.699201906355 0
-170.960969319674 -13.4825845992161 10.0287262062468 0
-220.55380256313 -26.7796088460268 3.96338513172613 0
-222.21899873512 -30.8401948230203 -9.44852853777233 0
-114.634140655023 10.4491521697674 -10.9908346352518 0
-186.270093978652 -39.5678786301377 -12.1638224285988 0
-196.367858552428 3.83129245243073 8.78965605531315 0
-125.262924548983 19.9456084024106 -1.61903988316478 0
-203.36908547785 -6.62387892606505 -10.5164836997457 0
-183.080215787396 33.9855789683086 11.0645864773663 0
-150.94019491325 13.8641676809005 21.3384496657037 0
-143.00039566418 15.9646419892823 -5.2075217684648 0
6.09762455505384 7.21301786655963 -24.5434791253722 0
-86.080370797575 3.96248617700204 7.5340090113781 0
-198.375397945741 20.3780044342565 25.4996341592106 0
-82.9952222276367 -6.30125981957291 -6.00531005239831 0
-184.058240347069 -35.5641935759495 -11.8659722311387 0
-28.2889636068165 6.01436697733255 -23.104697835691 0
-143.610292746684 -1.63058203765113 -6.68650424757531 0
-206.748640835054 -19.9106414632688 -22.407958834718 0
-211.497573547293 15.2292645047712 9.64019429999541 0
-200.084111909117 9.32221099557101 11.1736402318761 0
33.2805023789404 17.6681029567867 -15.0148562568497 0
23.7804831236064 -1.30953436562161 -23.6605500792584 0
-200.217295086242 -23.9878727528441 15.2866307568433 0
-55.1078078341326 7.49755960821977 -20.6794016331963 0
9.44097169269522 18.0759738367834 -12.0694119396392 0
-87.073093494734 -2.4200973723499 -12.9986332456946 0
-51.0286711326538 -3.30950634006114 -17.1664590707866 0
-158.615905379541 -2.32289619785253 -7.07333614407646 0
-10.2894828124554 9.21509810025027 -1.24965519409725 0
-0.760124298022669 7.29638124376078 -24.2269163955374 0
41.1970597021713 -2.07643077293983 1.65712489520578 1
-158.902440895485 -4.72052963504345 -7.66365314008278 0
-184.038833147155 8.18080894408686 29.0600168855934 0
-93.8994364712168 19.0543521443135 -6.06862297954029 0
17.3997362961881 -2.65216641171969 -0.521040054310765 0
-2.53586780663792 5.38421976150622 -24.3344878388491 0
-206.009658034765 -8.04016601048248 -8.26095160481288 0
-73.678134132429 9.85409487906095 6.60931782827177 0
42.9558748225761 -1.82607745007513 1.8600424449159 1
-182.146000109307 -23.2640701254981 -7.68963484261704 0
-205.055569457354 26.0371228428523 7.26591631313168 0
