211.559923629894 20.9814842943746 15.8730621296077 0
213.816943941517 20.3655376564864 -13.2647610716605 0
175.201410275787 -37.6000175393188 -9.01194250505591 0
130.637644498063 14.6926924586506 -7.17904746171406 0
102.34429567122 -4.24394779907404 -2.43284373746928 0
194.981493788452 36.3709519522168 -24.6935389898801 0
169.925194276819 11.0446031308248 25.138114712515 0
169.499610717792 -6.49511756945128 -10.5634262140706 0
178.798398988913 30.8395656089688 -23.6912381687663 0
10.1799052741074 -2.66318931659846 21.4256804261172 0
75.1886052898059 -0.805573576097251 -2.0814324830044 0
96.6649462284055 14.7097915107599 -2.00337392200822 0
179.52254694318 31.7677276839069 2.26982832139792 0
155.029567862877 -1.61235813876774 22.8647958461303 0
162.756026112649 -6.68726239352527 21.4293464680771 0
212.378477881956 -5.35030946974207 -9.8706499962469 0
58.8089603937375 13.2226604562901 21.0826785505063 0
194.377420920888 25.1567253936834 -33.3410064114716 0
188.889109014959 -43.3203792393361 -4.65391518450511 0
162.492474692802 21.0207904599488 -13.7575714870334 0
202.221856010946 -0.958234029649477 17.4010164012381 0
220.788131963252 -20.1550820188452 -18.150411819988 0
127.959255428179 -16.7682535718254 2.57760203005678 0
144.55757135038 5.21451649646705 23.8635778723655 0
49.5640051127964 -4.37651485443746 21.5964720934064 0
147.348873649538 -17.3115194362268 -5.3333302618368 0
64.6048898448358 8.01733426705197 -4.09366090120233 0
42.0786672587103 16.1806483661464 19.4747797211835 0
211.646145184266 -1.76882897599103 -2.95742076134238 0
210.764183566888 -11.8999453601955 15.9061276088323 0
180.623892955704 -29.9457538453245 9.19826880063976 0
150.030033547388 -5.93128506086892 21.8267260231342 0
163.9825648151 19.5228378733875 -14.4871010821758 0
163.824097813833 21.6036348378063 12.8636406812661 0
178.688628943034 12.4922306469611 -18.3130366658665 0
201.306826733968 17.3635492209048 -29.505119047239 0
118.93317745148 -3.68211116761442 -3.70722233157169 0
28.1656268177274 -6.31253583792778 6.88341551580387 0
157.786285483682 5.51312688977676 -9.0627245138958 0
94.3305056535606 13.1054777327842 -3.03336423437059 0
13.9497110353154 14.1850330620393 0.631485190052221 0
165.374191151445 7.4128517099337 24.1777276079148 0
145.10371917977 -21.7135638803711 2.97577528232078 0
117.732752466728 -1.87568715048434 -4.0141804840181 0
75.1521974784482 -5.41082007340098 21.4681431607793 0
124.999138571714 -12.8926631190698 -0.521596846492851 0
130.775091535465 -11.887890031781 -2.69902559198308 0
198.900457910414 -39.0188883460064 -30.1642538507668 0
164.202655535775 -12.8802826422586 -10.790830902578 0
112.541324227097 -6.2785884048488 -2.43459244940548 0
217.169800151051 -36.5379566449725 -23.7532318023593 0
9.00969163407902 19.1276145239075 5.18845162395866 0
198.169459294459 -28.8435047220733 -39.3546751561082 0
210.177361265407 36.7413966873706 -22.2537603549812 0
126.523210670205 7.18224047633913 -6.94398580328783 0
79.0436140506099 18.9482267119547 11.0094637609441 0
175.522468985346 27.8852639518755 5.88221221988631 0
119.014304713435 -17.4163279502865 6.34134230710879 0
218.860212635986 -31.3789605629534 -24.6875835500085 0
7.16468657029137 -2.12458773880593 -0.740485489031087 0
132.524644934331 -8.35846822983132 21.1025372131302 0
212.331268884631 -14.7330905193514 15.8113104500464 0
211.816468752282 10.9841601287026 -10.531212204495 0
170.461082881035 26.7705578545206 2.53922288446186 0
201.555175466038 -35.0246469453503 -37.809625574439 0
168.384123899364 10.5021918821446 -12.4262745646802 0
135.501672536142 -13.8018677048192 -2.86734967709822 0
203.705802105103 4.50659039616771 17.4609248845779 0
114.094329768915 14.7291176841524 19.2942753750476 0
181.0904584076 7.62539289433912 -16.7974871879293 0
216.335563379333 -29.3752258629162 8.06326449987105 0
172.680941417593 5.00026261661671 -11.8673453523604 0
47.5926185061268 12.4011064622813 -0.727740368477268 0
203.739905949322 9.29066171381382 -20.9377950652107 0
211.514429193396 -4.35140632984818 6.54946971908213 0
201.365135577876 9.70567927686457 -19.7407510778526 0
181.513797090094 34.1161797248155 -20.0604945165862 0
7.39179554791179 -1.82795118813021 21.9367437855043 0
136.817795357228 -4.20771939321053 -5.04774575121644 0
210.877514321901 -11.0609541921259 -20.5499622170184 0
119.850865765082 -15.7521029103229 3.79609821679291 0
149.392594958671 -19.2209317718293 -5.43294265267178 0
69.0840028784727 0.830337185209624 -2.76943213139336 0
15.2751219554965 21.1332861352552 11.617479044545 0
200.241482537734 -17.3695282554085 -36.2380117610512 0
207.082941251597 14.1865927025721 19.8538960113024 0
159.724554606924 -1.96497502226518 22.6094521250035 0
174.280011104565 -0.504755097806686 -11.6960179610879 0
180.395165882157 13.3103270889846 -21.7183755666374 0
31.2639021348142 3.65193730476495 23.4396829719752 0
2.51063068867408 12.8214571179848 22.2733477313916 1
70.1855566674572 -3.89333272193567 22.0715748320082 0
158.955607058196 -23.6356323155157 -6.60027724927067 0
59.8255358710444 -0.953519573193328 22.7504180901593 0
44.0042878276001 0.842981644856592 -2.42562104932593 0
212.824078053661 11.1091439820022 1.36069032658378 0
181.001088871208 -45.4619841736862 -6.51922852535033 0
71.8608915779275 14.8790685781656 19.3915159095422 0
40.1729261902172 13.8099247138782 21.0872336441528 0
198.302194818239 26.7730299811552 20.9748787366618 0
191.586349311486 17.3369054880751 29.7257888005327 0
165.64311225633 -19.4756900040388 15.0109048384358 0
175.337094850647 33.34714691779 -8.68267313988578 0
200.351254354991 32.6334546991424 -31.9128401599807 0
13.6720848012295 10.7712697840882 -1.35909105084971 0
213.672105724545 -27.1811491577093 11.9076933461944 0
157.836102098266 22.3766600257014 7.17414028218475 0
66.478897428914 4.17096601725264 23.4865272449821 0
98.6331310460312 1.30201924480226 23.7109917926889 0
212.144419224399 -11.679831110033 14.0615814138444 0
201.236637275007 35.3250889446553 -0.598965785159887 0
163.458885031774 13.0080474941791 23.5519048380031 0
208.982489304974 -12.0047343480678 -25.1043893212498 0
191.418318108362 -11.0960147616981 -19.61887188041 0
178.533057833318 11.1401011183133 26.5971847156232 0
104.900602462344 19.0768556292529 4.92972103844628 0
28.1494272531552 -5.39138311984628 20.1076706094343 0
9.47401594867615 20.417548294695 15.8847223303489 0
10.7142792168521 8.52658139621759 23.2761225865218 0
48.9529835526836 6.24772872661329 23.2262557015065 0
133.562179936979 -3.92901964245635 22.6822480256695 0
158.967307460507 20.3237968596958 13.8343918949303 0
187.747051161876 -37.6994174211973 4.77569619329998 0
170.402387612735 -1.37132812951382 -10.7432293577115 0
197.968159374117 -14.5279606530461 -30.5338382857424 0
212.171264364711 13.8194227749044 10.4427045726378 0
175.279967744731 10.3019643844229 25.9240961727028 0
39.1628379729141 8.61949734372917 -2.59982603072515 0
173.809706216292 -14.9421896101898 -13.0614705836042 0
171.189971187922 -31.7315868770867 -2.74363500505463 0
179.779255952427 -38.237881616281 -18.115067032677 0
185.724209154723 12.431617143057 -26.2300666623246 0
214.622865179761 -8.99392220490936 3.60877861770028 0
123.802128375412 1.10222478420716 -5.29595053605376 0
116.009196717067 -12.8681698237526 18.4146174671748 0
211.039532337344 3.93712551365864 3.53105589474887 0
190.072489959504 23.3979411817757 -32.857216035236 0
35.6276368207687 7.18550234782322 23.1787477583495 0
194.412703325005 11.4651799483076 -25.1545767573622 0
96.2359577590822 -0.831633552991776 -3.02962419593682 0
76.2282322428455 -7.12309374513949 20.7379414429316 0
30.9766984756114 1.4959867561966 -2.81670415852964 0
30.2675717100725 15.0870232445021 1.58011152476653 0
169.670571342598 2.76534785138231 -11.0695911536322 0
41.0971861109564 19.8425301399995 11.3453478360946 0
127.898515574631 5.27671845394971 23.8275108573677 0
140.26266019877 18.9906202423016 13.3462095848955 0
194.754334016596 36.8688541471296 -28.3654307178713 0
185.973548331183 -3.46563884455557 -17.2048334900876 0
204.394378310173 22.7760460229941 -29.8913616402826 0
212.748263320554 27.4402577854869 -20.2599872573666 0
189.638759382238 34.5889556262361 -26.0496599390267 0
76.0231388765303 -7.45982236374165 3.35287663217983 0
108.908585129672 3.69813015623691 -5.18072237803106 0
200.510048573307 36.7826308239894 -27.1819786763317 0
17.8507112864387 19.0021428296766 5.68882705844406 0
167.154468904499 24.899721406887 5.38336014025102 0
18.8486306118295 2.60807335009462 23.5113079535898 0
60.3859352441139 6.9713437428757 -4.92206705783783 0
40.3100899586745 19.7023423875682 13.5955014995013 0
11.4784973885417 17.8688001277857 3.7214168865131 0
180.146529344433 -10.6571572979949 -15.7126394972757 0
211.527264892298 -6.84905926513513 9.53875460622235 0
173.538620030459 -28.814832534571 -12.6573946094811 0
208.984774288922 6.05022232484117 12.0306387160499 0
209.615238584545 4.48431432445932 9.93788236474115 0
2.34080312184054 2.11529262393279 -3.46859086288503 1
168.745968487294 -19.7192563471195 -12.0499754478243 0
18.0125813617932 -6.12115768526605 7.36527410075509 0
149.350126101522 -11.3973642337296 -6.32009671263763 0
184.344997365332 27.8755140807684 16.609849381653 0
220.753926155461 -23.4591584106714 -2.00639116841192 0
193.072582530654 35.9213391789188 -23.292183344472 0
5.9373524531557 -4.69176978804043 5.25175755645305 0
80.1520195735629 14.1742579688251 19.7138573995316 0
211.944364515788 -10.023208437221 12.8211093700277 0
206.167636279133 -10.2081305340157 18.6274391905776 0
177.130118818544 7.11904977335627 24.8872395385129 0
218.688311469734 -35.2850335759848 -11.5764750160333 0
192.832057224536 -25.6779440669817 18.784789604543 0
178.829614091738 -31.405406527489 6.53896371851156 0
201.264561551251 -41.3717188044992 -16.7234113703838 0
128.959200028525 1.13044727071295 23.8706281027097 0
122.806796666924 8.46537429795811 -7.02007299322462 0
24.4494173527595 -7.99144347119547 12.9952491983556 0
168.11485915243 26.987562628505 -1.896493363942 0
139.814590151946 20.2307740994867 -0.201605226619568 0
4.47714375699601 -5.8150406744608 7.68269811744194 1
184.924522097862 -43.6281079777314 -0.806076328615976 0
208.241725489256 -9.67596467709011 16.6455719775445 0
59.3367465153923 5.0244604820194 -4.6684879997386 0
82.9161794918474 5.664159531934 23.6437298927632 0
41.2646412502476 3.43082345300202 -3.92316666951788 0
193.477810716068 -15.331880303832 -25.0328786422426 0
216.725493773972 -13.1196766290957 3.28705309873662 0
178.438543676893 1.48107210892945 -13.4799143657727 0
25.2355539045275 -0.478189260818206 -1.90721034676228 0
215.728392843489 -31.7221228160284 -29.9470376691699 0
214.117994159062 -6.1838092392498 -2.01920058723576 0
75.3934879754299 3.8141595673903 23.6090054451781 0
169.46557315415 22.3064096983424 14.544629188748 0
118.640061676976 -8.85200600835036 20.687945469914 0
200.53964453584 36.9350866074678 -13.4066214612196 0
193.473135909925 -30.8882654778957 13.8803203370559 0
121.951524114785 -11.7109135399848 -0.856720517745126 0
161.808019095431 -16.274564460504 17.4120483775596 0
200.376686287761 36.0868948124146 -29.4312782914331 0
170.954917033855 0.215611484422187 22.7927512881143 0
203.281953436277 -39.1602190767486 -29.8740689190068 0
101.292846507498 -14.6444710895272 7.84258813809045 0
26.0962849873176 0.378655775469525 23.1126453029651 0
206.045046959262 -4.0677676089675 14.9216779857891 0
169.104600913643 13.7600244484323 24.5614019440764 0
156.489498137036 19.8939119195209 -11.5467236895645 0
113.372831657363 -4.04145630126664 -3.23186757165135 0
111.1992973342 13.4631198406828 20.4000582487893 0
169.987752973733 -16.0537797388101 18.6621344228236 0
147.735268087807 -10.2706932908528 -6.04405551359984 0
203.024117629539 -9.49308091016289 -14.9162654544796 0
164.884366706433 24.6818103873875 3.83697062381223 0
138.373216726443 -8.97938297623702 -4.47836791240804 0
190.998964355759 -16.3955692169767 -32.1237761287119 0
109.657811966036 6.53563845326732 -6.12105179801732 0
203.953005753423 -12.1606712560054 -18.9750640171288 0
173.097701370023 -22.3587767194082 14.0525271895918 0
177.952648860516 9.26007820223615 25.8142405047767 0
133.388189600599 8.55154369269125 -7.51028534881203 0
218.051456725387 -22.0546930394804 5.11690982568658 0
29.6445752812216 6.6467207613884 -4.00542373104816 0
125.603673271404 -8.62610183347744 -2.93439233944182 0
200.373326965699 20.557297788774 -31.2739961464199 0
159.586884436877 6.6506003603602 23.8600749266806 0
186.57721129296 11.6637311809654 27.543734210334 0
185.438813882496 -44.184319434193 -15.5638223331349 0
182.811180470926 -44.0042846843181 -11.0379737438541 0
165.2406264576 -7.44024721979425 21.2978537887571 0
208.875764645253 -20.6308065423592 20.0066505443171 0
148.939496453731 21.5877096663439 -4.34892452034224 0
71.8370883341565 6.77215674314365 -4.78218689307748 0
201.823668828557 -14.791235963778 -26.8357725616541 0
162.208911775212 -20.5864735734529 -9.72564041609991 0
210.986148391792 -38.5600650616534 -20.0347565053604 0
178.066004617922 14.6803248127631 27.0490707688095 0
180.88378419425 -17.5024911813318 20.4871513280951 0
107.9283861877 -16.2191513656054 9.11804343693309 0
80.8555819098706 0.678710090980972 23.3630872155559 0
24.8865066437468 -6.52108035053092 7.43510885893079 0
77.5215374719054 -11.8092328078309 9.06404983686419 0
50.3149036204077 19.5951222929656 11.8555887790931 0
198.696932561493 -5.84671331991976 -13.636423429284 0
74.1952380863923 6.29725458651085 -4.91534534040799 0
190.492603785559 -43.8389399478624 -11.5199928913757 0
165.898075402119 -10.3973873450393 20.7732918671171 0
135.315853405832 2.99110106694588 23.8589516727338 0
59.7116791524239 17.2616742120718 17.4486867384735 0
196.135450836747 25.8492311830216 -33.27281178744 0
101.189580055853 18.2823770122209 12.909298668603 0
180.897523877748 31.4102357830505 4.49415418110739 0
174.72468503037 -14.7418198546119 20.1079874508535 0
3.20120872569062 19.5078056720983 5.22063797818963 1
55.6289518416771 -4.62162956752009 21.6095880752337 0
65.0475924135936 -0.954577002890638 22.8382320816034 0
214.261283131652 25.1286169583966 4.32614175810479 0
176.528713456797 -26.7998219474277 10.3845715030329 0
211.283446747509 30.6029352154621 -23.2336045268987 0
184.89153454501 -38.3101920117843 -24.017089898592 0
123.137305077482 1.23338009341921 23.8840197215063 0
160.205017584311 24.1906614200729 1.06987787419852 0
215.590215490789 -37.6941331633562 -19.2789572725301 0
142.383440362868 15.4187719083007 19.5990264937278 0
148.138575725349 1.88064887385562 -7.24154263340039 0
211.026110788169 34.6850663360585 -22.7818562205235 0
204.201411330453 -30.6989163312107 11.0871384706101 0
188.642092515613 -32.5289310855549 9.95591989220027 0
151.643783453432 19.1765433141686 14.9288552516165 0
187.29107303376 23.1129709663908 -31.9935126911856 0
3.38647638024202 15.660510702727 20.9442045293644 1
30.3065594527491 11.0745012788637 22.2957885922953 0
83.5958277664431 10.6065584767512 22.1072827196452 0
62.853894527974 17.0500015333338 17.5741231267755 0
162.393124242396 -25.426383646761 4.41242340402125 0
203.33546646322 -19.5286093905162 23.0691263217644 0
181.330753641575 -21.4896510613496 -20.9809778576669 0
86.0213737394313 8.25942041153334 23.0652182333099 0
186.603156357421 24.376007283074 23.8925294671219 0
3.06637115595177 21.6588904237999 10.4111646247062 1
187.206644765566 3.11626025196513 23.212165144692 0
184.457587559576 -30.9887258974895 9.9162362183702 0
155.653428935339 -8.00874161968267 21.17613390295 0
213.653583717993 -21.5231577424383 16.0413368070249 0
216.508287223537 -10.4834043748642 -9.61386250249587 0
155.209107371962 -24.2564953339624 1.6890555910607 0
153.831434817284 -3.99994447167813 22.2879866259147 0
102.530300167703 -1.95725594806503 -3.00222065901279 0
144.202280119661 -6.18745905867411 -5.7155049891711 0
23.622995872483 10.3978339015157 -1.43863750894311 0
150.738258876909 -22.5389924680318 -0.49331194939274 0
184.71338851607 32.3245677769971 5.72845245075406 0
109.950697392502 2.45145227570472 23.9477571869789 0
147.879967093284 16.503898992719 -9.40520899535532 0
48.8169014625453 19.3562166384086 9.03809978175059 0
183.554464479806 -35.5039126533532 -21.8652543544349 0
184.682975095356 3.35138084042233 23.4971280246713 0
26.2258478074885 -3.0228736106234 1.57266230930952 0
26.1542709695331 -4.56485910826082 4.60409149758037 0
164.362464167092 5.47861413512447 -10.2794278041256 0
174.302866976755 -36.0441569820336 -9.82480444667483 0
206.831484120969 -6.3055021965761 15.5102141008704 0
161.80436237069 18.2193041191608 -13.3701080476093 0
201.377300423569 31.9637399766534 8.53538510505578 0
175.965107916587 -7.96728311257615 21.2739576396199 0
181.809845314197 -16.1502401334617 -18.5304252946092 0
166.976291111281 -2.5172104040797 -9.77625790698701 0
42.2774860438401 14.3920683049732 0.958047285102532 0
86.2213493301276 -6.8816885063668 0.729665944905243 0
198.15689931847 -27.0247296647634 17.1330457439151 0
200.483837350601 -5.58816324194828 -12.8110923231174 0
168.969750709162 6.05409823291195 -11.3791740236474 0
179.134573099813 15.4980067119629 -22.3170313450963 0
162.353628274193 24.9400178485317 -0.168024798371629 0
220.645639764065 -32.4638903767955 -4.92749375504278 0
178.132343893454 29.3681311439537 5.71359724464324 0
200.140361672603 -41.5495895518907 -18.3837955791652 0
71.3845410817548 -8.18880022845147 19.8583548398227 0
166.66006532169 -21.2381303330146 -11.198954470955 0
199.668493089321 -29.4668680069823 14.0539856256564 0
210.313114676454 -2.72290965287158 8.2516001919187 0
208.646668262669 23.6686001023976 -26.4161420910762 0
180.871854347098 -1.89619975741729 -15.4492313451435 0
129.469812666445 -19.5292868221063 7.03949600173423 0
172.449136986418 -4.59761431280446 21.5461428142885 0
202.600392465511 -37.757560137958 1.29065292903521 0
114.956426523051 4.10726562285054 23.9515964299927 0
43.4138358253906 -5.451938143676 4.91386345848363 0
139.756504860975 4.70584298052609 23.9106971575701 0
89.5081870320682 -13.6284255463291 9.81183935056163 0
208.861752117612 -35.3442868218874 2.56385692038762 0
142.913692714414 17.3530464675337 17.2078067021904 0
188.482422836587 11.2823345661587 -25.7241059096404 0
59.2956688439794 8.45253073828289 -3.40834702906942 0
211.916087175277 -26.9445704710905 13.5301982585681 0
205.612106902726 38.4119319280318 -21.0861101920791 0
145.283716721095 -7.93524748828872 -5.71398274363445 0
190.048023302807 29.7684260088104 15.3746011904483 0
189.792396374719 1.94506495029768 22.3492682275382 0
205.803292601792 -15.9326759025913 -34.1677334630598 0
37.4752673186701 19.8298703228363 13.6332968627991 0
56.8436475652032 -8.69531233351859 8.00939837299046 0
189.374188867742 -34.5162148460987 8.18623689372072 0
123.685106463664 -13.9651140992152 0.911834757237405 0
170.797909128316 13.4620048316201 25.0959361317637 0
31.170974576277 12.7012726405413 -0.133035988950803 0
205.608966922503 -39.5864411833496 -26.6329899307507 0
183.134225242343 -7.20045329842167 -17.3908166558761 0
147.494083313103 14.3983066869937 -9.43498904677688 0
69.7785063816878 10.9617343773697 22.0139161650628 0
181.688718496741 -25.0912400662535 -22.3249974596496 0
194.168002881223 37.4252267028858 -18.6063408816106 0
191.93060834292 5.90470405479523 -17.708973682622 0
178.324447047945 9.09607380047138 -15.9401744970855 0
203.13761827441 -33.9939982653777 7.42181847476455 0
54.3678225613659 16.753824175301 18.4504243892537 0
60.7378477664641 -10.3049820893592 15.9356815475282 0
176.605616521085 16.5662993731606 -19.1319150954452 0
205.214634140785 17.2403914364176 23.0316760401207 0
188.997884095301 11.64464234256 27.5402847735183 0
64.6598094803751 9.89328632417102 -2.90938002387199 0
173.322313476878 -18.5518304677863 -13.3921010939651 0
220.808497329007 -18.3732683166752 -5.57362609869453 0
13.904193901175 -7.0888499496705 11.0985775119622 0
169.165408423328 -19.883653855091 15.5106251703315 0
110.882054921379 7.86057222090547 23.3658901907514 0
210.545550566571 38.1896635625829 -19.441469487393 0
195.632792490052 25.4282655878482 24.7473764725339 0
191.733059288769 19.3755029129866 -32.0282708793195 0
200.819022995456 -36.1906373045077 5.06240498761615 0
211.650855168251 -1.74821472984579 -1.32088647640615 0
124.707573109071 -18.6192512318383 6.54582489742617 0
54.6024023006385 17.0947170537825 3.65567885137767 0
159.656270881378 18.0215685930173 18.3566524579329 0
162.280935333669 6.92985676293325 -10.0840764500267 0
170.953496003571 -21.1394624446845 14.615975516418 0
188.868805495336 -30.3777035291317 13.3569794868459 0
92.1324692016223 11.5083659093227 -3.78011129887303 0
184.638424370692 -15.3453851930961 -24.0622333955316 0
210.749170126369 -9.29526768028192 -15.2910919429498 0
136.60871888678 18.9693124089596 12.8680502509595 0
213.348105038277 28.4498742346824 2.35540834513483 0
191.448675496806 -8.85889496834469 23.3390344908692 0
181.923983822609 37.9619547589779 -12.2204471246902 0
88.1108111308342 14.6554116712998 19.1352780509589 0
181.477971153204 4.19502055839045 23.9750092476869 0
197.390778795988 -14.1277095191952 -32.1067885398422 0
216.335694013811 -29.464315525289 -29.328798175276 0
61.9636295651538 8.34313122253517 -3.65795532848536 0
168.026628185981 -6.65005334798749 -10.2185567502724 0
191.220023657707 32.5258855907106 -32.0300318356455 0
115.007013552597 19.0214796930607 10.4825838241387 0
215.359946196226 -35.7768670372651 -8.30863613862475 0
176.991307255625 19.3974202835855 24.2680934286245 0
220.205853215971 -16.4020364290329 -10.9848846346278 0
210.542458181845 9.97471035102313 -12.5752750109711 0
179.177185790863 2.18077194724226 -14.4788368180143 0
180.137498441228 1.05449713612241 -14.9173336740383 0
221.46284489127 -25.4031644408605 -7.14166797963158 0
123.577856375423 -8.24250525582217 21.0048492277845 0
207.373024661945 37.7207585541065 -15.585910068071 0
181.5628892677 36.4159707015375 -14.1534107548006 0
177.937214141973 -27.4011250071793 -17.324037800251 0
111.363019413125 4.88130863655743 23.9392698577683 0
203.790955196328 -31.9771820395975 9.93194034614634 0
34.7134142679114 12.1340892778832 -0.518728078630776 0
203.027627656373 8.48746080989988 -19.0486873172139 0
184.776572152929 22.8641673427945 25.2431311441878 0
184.065952963662 -9.7562644343034 21.9094280794285 0
220.94506728102 -27.0717245155404 -1.84979662477929 0
123.796308187552 15.5784091766889 18.5950349184722 0
200.980825824916 6.70890673962898 20.7927192562673 0
175.242875551579 -12.1459939392712 -13.2722072308706 0
178.599309792299 -27.9283297226206 10.2843766755415 0
215.743150149226 -37.0937103781682 -16.3863501099106 0
121.808846801672 0.54828648525308 -4.95404130084897 0
151.908906315497 -22.7083885972628 -2.21439203897335 0
200.936349032633 -39.3531186337359 -0.801658851491949 0
192.461032704004 -38.9374434440283 -27.9722226995172 0
208.614608537631 15.8838301109282 18.7322036557219 0
202.849054351345 -32.620019368438 8.93042164529389 0
192.852259759903 -43.7384691243064 -11.7824622857434 0
172.341674241557 -20.3941193636428 -13.2694556680584 0
5.71761504581043 17.8961557442055 19.4186730684625 0
187.494419233363 -42.7357374617119 -4.30791961006927 0
206.157054617907 -12.7398614726645 -24.9518936197684 0
215.334358719696 -14.3897241685594 6.42642334634358 0
87.6280032916517 19.0407948148437 7.72438097626262 0
170.661898952729 1.17168327495534 -10.9176757186753 0
181.500441357832 -27.6290428876306 12.3802831883109 0
47.1248388292329 -0.651010503722328 -1.73247260251085 0
129.476800844185 -6.57792711110349 21.6843382682694 0
149.214500297995 6.60543525491994 -8.33264034248629 0
160.844528338765 13.527789216539 -11.8049302659481 0
71.6132440163987 18.7402787604429 6.5915704644791 0
125.36528651621 -15.9530009033857 2.48504402770735 0
106.948368081308 17.4910554858603 15.066388618448 0
118.688336263146 15.1372791318712 -4.46125886181028 0
157.672354984611 2.91710979513076 -8.62070706925709 0
84.7069835415172 7.32212560278494 -5.51133608803684 0
216.907173193346 -35.1088186898639 -6.62565792991271 0
153.343085341759 22.7767253619074 -1.07127199604005 0
201.754121802859 -14.21530946199 -29.1351441812241 0
16.1734698962575 4.9398461765264 -4.39790725031663 0
193.772421802772 -2.28398469203065 -15.3471107714923 0
158.482820724243 24.3310318746897 -3.01703457605123 0
112.002362477529 1.055266074023 -4.3580489265721 0
130.507243575473 18.1580731938886 -2.89808446846682 0
198.596639379242 -41.462831240517 -14.1331025015088 0
37.198163211136 0.0564673100657468 23.0091429380381 0
214.558889568333 -35.983626155882 -6.27495598068563 0
202.054458626905 8.03349843727143 -17.6961000918311 0
151.477925486968 22.3307237047402 -2.28370682695256 0
86.8626033613859 -1.47578257198485 22.9491802609834 0
163.623282219159 -21.1818825460787 12.5789373996144 0
80.3699162187464 -4.85555633868862 21.7765205962211 0
139.559184065947 -11.4103498840753 -4.29512641935629 0
20.3055508026468 -0.521705414007802 22.7917346203359 0
212.333159549326 25.4449886586738 -20.8586478278388 0
97.0622683824034 11.9253548341295 21.3564558205271 0
152.467573736848 22.372119687795 1.00194494240745 0
123.304974771549 -2.29147599990767 23.1971001978277 0
181.094994136887 24.7282565153701 20.111000035574 0
42.1974409372035 3.67284623882504 23.3636926838882 0
4.21591063813585 -6.53225564561658 14.931567776648 1
182.651296759883 -5.47058138341202 21.6724084346322 0
180.904082577313 27.9712597710727 13.2376820635241 0
17.943624522991 12.7035930340014 -0.174485926530274 0
83.5080767450828 13.2003583485824 20.4503933498837 0
186.813361859768 16.3870311666092 29.0807472232006 0
194.632826182636 16.5494025155568 28.7663142902427 0
184.902237453982 -17.9084465066274 -27.2497756699423 0
198.178337109625 29.9872855100306 14.989620423345 0
198.492734559365 0.294030467228452 -12.3104677300819 0
214.932462381852 29.7873225285121 -5.42529384370475 0
163.887846841462 24.9944978249052 1.51695200048177 0
213.739153018454 -11.0491436736052 9.63190150756671 0
206.997441472072 23.1642163684411 -28.0219768142113 0
213.451792400422 -7.41654788985106 -9.75444964914495 0
0.815700291995899 -1.95401094698264 0.268716983334966 1
98.4911006835524 -8.90763976224488 0.832571486752085 0
183.27150893391 -30.4145417766071 -27.909963510085 0
114.084777438167 2.32062247687229 -5.03500881372094 0
95.4962716595543 -14.6178661204815 11.8503240192816 0
93.6947878854016 -2.168343826559 22.8170350533842 0
209.608213641024 34.7119113763065 -24.9504630987331 0
152.181341123404 -19.6659402489272 -6.25261875492568 0
17.8860938665474 -2.28197756351906 -0.444509906391912 0
176.630242980317 -8.57987299783628 -13.028599568692 0
194.67477438808 -34.0741739387773 -37.9619391078276 0
109.828550661256 -2.6497308053008 22.9113212310279 0
193.989340643726 21.7060089080388 -32.8969228292922 0
195.755058321601 -38.728987350672 -29.2942722516906 0
217.330671742405 -27.4086304018175 8.4499863296884 0
191.427712453436 24.5510125391176 25.1689941241622 0
193.527197272543 20.8142389357148 30.3001107057114 0
2.22623616067368 -5.32883286567248 6.60627042347331 1
156.49418515927 -10.6338705884611 20.2442191830188 0
197.53244018389 -38.8435723355571 -30.0636712304066 0
157.728562524975 21.0884622702869 11.3627206907949 0
151.106627961915 -3.50575421248887 22.4133777754102 0
66.2184911266367 15.7964577328236 1.20492829984414 0
180.781146525042 12.2413087646371 27.3474791510057 0
208.64803735106 -11.7804249820166 17.8996364767335 0
13.1100985688566 -6.59667754988863 16.8843148771722 0
187.528204576916 34.5976054303699 -25.6188483901657 0
180.776079663604 -21.0923509416619 -19.0037279003097 0
146.348075027402 21.2707518031236 -3.62164769167361 0
76.2255140390489 0.599808239186026 23.2971149218501 0
212.329108222487 -3.71003383078479 -1.37398517383548 0
105.247198614453 11.4405861666548 21.7753142181755 0
33.9635459103033 -2.99006672204613 0.825134711611827 0
40.445991193078 6.68003629226977 -4.07429201364487 0
82.4622132578263 12.7181961991449 -2.56677466077577 0
220.134697620939 -34.070326976806 -18.2497267613411 0
168.484727380002 -28.4979379483932 -9.03977976112778 0
132.791460333749 -2.62952925622746 -4.92931254052741 0
126.184583681146 19.3392278252694 1.13771171777212 0
211.375362531435 11.378742222496 10.6584856166892 0
124.633619696443 19.609980424554 4.13868065978316 0
160.753208758863 22.9455452032262 7.02938477863798 0
80.5707373889007 -11.2285871338362 7.11720165996325 0
191.378656725752 11.8150338201941 -25.9599397042465 0
176.146931938905 -41.1386691818249 -7.64739365553471 0
209.844361549381 7.62602496051298 11.2943358687 0
192.218596761034 -10.6405901385457 23.7492665158326 0
189.369772768215 -7.17140999991003 22.4902501026534 0
176.519265488116 -34.0920272056023 -16.3386583443956 0
207.237451830339 29.1413464666665 13.3305567347594 0
66.73245790944 -4.41624799834085 21.7535800631 0
145.225680081161 -17.0267651931673 15.8435965345882 0
205.667878234241 14.6513723150122 21.5830574877585 0
84.2049580981122 -9.8116597289461 4.67022814072139 0
204.637484291655 36.8150397746846 -16.6736552596157 0
135.30746163828 17.5320802658781 -5.67617739532922 0
79.66451066561 13.7156806256582 -1.65190667811001 0
96.6922758018535 17.1276849630782 0.760720396920434 0
167.018013520627 12.327552263327 -12.7712367704583 0
15.9714544949751 -0.192518241225317 -2.26326794634958 0
207.732208035718 7.94932383928656 -15.153694372526 0
49.3995805880968 19.1794386227954 14.4480233057918 0
198.804647766805 -35.8552439958793 -37.5767222348924 0
196.335723741666 -36.6651434993742 -36.9036143351573 0
202.335787804459 -3.37676824687505 -10.9173205622926 0
86.6277413312737 6.45906945389651 -5.24857071333851 0
170.24252761302 -26.3694496624354 7.59903038927403 0
161.47079240894 -24.273037643878 6.824849412429 0
154.29912910826 -10.7724873249257 -7.38851153891156 0
169.414099373259 15.3791057080599 -14.6475934950046 0
178.583566122646 -3.8433286997633 -13.8489044408042 0
12.5766712083765 -1.19223836060233 22.4235030267805 0
211.667306697807 -3.52093483776753 4.91648283894579 0
9.2866999177869 7.35499488345798 -3.71464591455515 0
220.140299937483 -34.2776782442655 -12.3747799383548 0
213.430147138041 -5.13864126603098 -4.19100351064762 0
68.4050971933236 -11.2399101896432 10.9825964408557 0
175.597047597582 -0.867314004198147 22.3615695887509 0
196.527186491642 -38.7499198107217 -33.1621733496259 0
145.141563421786 -20.6023726682526 0.0935920099954984 0
123.605899753126 -1.28090586068307 -4.53581166086827 0
218.531162041222 -20.3742696006895 -24.2220369896135 0
23.0369371636474 -7.40767684391807 9.92868278486334 0
123.96323067553 17.5872716704664 15.290362610727 0
178.521236079686 6.67087276961738 -15.2016067408339 0
110.907437698585 17.6785361336011 -0.189595607420287 0
21.8077603305751 -6.27036826866231 18.766521782517 0
189.30799774784 -24.8160195675922 19.5321545306098 0
202.035039284747 36.0041818832873 -3.87014447732776 0
14.8708144353316 -0.627909671691245 22.6961494884514 0
125.146578855666 -6.60249470030414 21.6888750838635 0
147.966764521273 -17.4207990397587 15.5824674002321 0
192.674872184101 25.1630110191776 23.845255936912 0
175.390185297277 4.25434773606396 -12.6305109548439 0
220.083567016935 -26.5800999493765 2.7872869808259 0
71.6329954220804 12.4624681766026 -2.02307555565137 0
215.218593840501 21.9988274144838 -4.26024543093679 0
158.833919133486 23.8887687329809 -8.14360691118008 0
180.10595625208 -13.3139325579409 -15.6777706857648 0
188.85148340555 -44.0799993139803 -17.3690275735663 0
194.691564223834 3.89193512078769 -15.3138735607309 0
12.8866979093721 -4.52772701724911 19.948901588755 0
179.223340207178 -5.84733138383908 -14.4423851582616 0
207.077337374152 -4.64879255100254 -11.5048707882443 0
134.336839167874 -15.8657977084352 -0.66578379407106 0
201.494566842151 37.4833360233481 -9.31879891916386 0
206.217760462872 -40.2614132800183 -5.87812513245571 0
107.601751923998 -12.8033421143367 3.36196160342172 0
213.377520264389 -9.74656619993193 -15.0928610233595 0
155.802505999733 21.5407999158997 -9.68516487046364 0
125.063427827483 17.4578630807382 -2.86577325142462 0
16.1018137889856 -6.77512562059936 9.24140196437721 0
204.192221271372 -40.9028132006274 -5.16042691955511 0
174.90955139447 -4.78422007050814 21.2997464127517 0
198.885366089221 35.6632237858174 -19.4838545492256 0
180.847674729933 -44.0436473674069 -10.0928280910531 0
81.1036288024877 7.02833831023061 23.3964125246776 0
67.1540490126021 -9.1220137264975 6.71740092018822 0
170.452791117232 -23.9731934463977 11.0958894642547 0
145.646686916391 -15.097510319805 -5.28576360810891 0
188.145314591274 0.575525630581022 22.5999253833899 0
208.772409964843 -32.0751218959158 8.19933471007709 0
183.292223497642 38.5230339815322 -9.77948533027835 0
168.212562910615 -23.2365520751222 -11.2151147133653 0
147.102928451743 21.4325566161459 -0.923576997003938 0
204.010389315513 -2.58424869611699 16.1988765498801 0
74.2858663064395 18.3017972485756 4.83638349858781 0
179.977103676741 3.5462693969993 -15.071679781868 0
179.334430350976 5.4044373589273 -15.0623291855417 0
45.6089615706816 14.3462352567796 0.853475485742321 0
179.034667685759 30.5222765035314 4.30744721191642 0
199.879410011256 -39.305410745229 -28.9759266856838 0
151.452234538921 5.76802678101921 -8.31320311848903 0
76.2793338271502 -4.36494930339596 -0.508971402924278 0
95.4526626874569 0.229666444841195 23.4487615436403 0
14.7845056234617 1.4808071149201 -2.88208434423046 0
164.948139835634 -25.7130843828485 -8.086303202125 0
197.87547240611 -11.7130165931223 -18.2533606501386 0
209.948494446604 29.3833888891609 9.7404236146135 0
187.465943762166 -20.3764536409306 -32.1309196771138 0
34.198657918686 3.33132265594535 23.4247264667248 0
171.313817369278 21.3336998403112 17.6705424529373 0
121.301476360244 13.3993271856583 -6.56824251824424 0
207.037443967618 -0.273094030602163 -9.28935316879534 0
80.7915143238657 7.10407461792837 -5.24398452287371 0
193.741493196576 27.8338642200514 -33.3179896298419 0
19.9399664583567 7.88390490907528 -3.30015230705675 0
152.655529117197 -6.5474050980743 21.6284703096299 0
193.084474009279 36.8243259662772 -1.82483323464104 0
189.279016057777 -14.804449630405 -29.2121682049606 0
63.0671967265311 11.9125930909187 -1.84907779770947 0
31.5003430117536 20.246436598371 12.4980230309107 0
208.552955821099 36.4261632559696 -9.89891408611338 0
203.776425644936 -9.22825699110217 19.645999014449 0
201.109223088107 -14.1567951092046 -32.9148099684353 0
111.01903256195 -16.855199367893 11.2730262584809 0
212.11449564246 -35.2364934797755 -32.3073774697194 0
22.7008355909743 6.70058386883421 -4.05414872356743 0
198.469346068491 -31.0683802180806 12.9257413416748 0
174.660509998621 15.6902241842355 25.6854899966182 0
187.959382914507 -11.9305804731747 22.4691265634554 0
135.666514135716 -19.7274978446851 3.75971102400272 0
189.354930642126 -15.1307526907676 22.5656066701655 0
32.1828722970338 -8.42806606638489 15.6400418780423 0
211.609633758871 6.17517551117271 1.61085309738789 0
171.211041516758 -27.8720752106336 5.78393092761456 0
2.49059557482233 17.9762095230723 19.394771422595 1
214.700921145433 19.4166128452957 1.44817305328967 0
189.934300441286 -43.5793518313452 -6.10926744224615 0
214.928587765678 29.8238709902843 -8.27877572681554 0
221.210305370618 -19.3703899041932 -8.96944704543396 0
191.763188279833 -7.10383600537101 -17.3247858403794 0
141.201558135444 -20.9046282604955 8.91178783846835 0
152.070527116592 9.35714480683676 -9.20553406731186 0
183.358507547882 25.962962440652 19.8830319146017 0
119.080029977763 19.532905011344 6.52119074276136 0
96.4246578805403 -6.31449543347992 -0.97532245301876 0
172.408388601184 -7.52702800396346 -11.6651256529803 0
132.668104202963 11.3017102238213 -7.95699423231106 0
213.329808972407 13.2418854419562 -7.58062328724626 0
122.908120583583 -9.59194254507148 -2.534000117697 0
125.04942859756 -10.9465732041736 -2.15684776363882 0
84.7384492669611 11.2457813661518 -3.46030560666776 0
169.301989460616 5.44825018597226 24.0708389528216 0
196.791593834909 -40.1227096701217 -25.2490925589472 0
64.0639573524371 -3.63372433464585 21.9824139446343 0
149.90986290374 1.65096838001293 -7.3585208072747 0
157.70134975686 -14.3073571475789 -8.5867480182912 0
191.935215354029 37.8822235330723 -19.1505926854772 0
57.6540295821426 3.11587350808077 -3.82645176155038 0
151.599148396376 -21.1246191027254 -5.28219528945759 0
194.261216254623 -38.6128097868446 -32.9868213121286 0
143.801283095374 20.5849390850088 -3.54744389333899 0
207.431511028318 -11.1023117236848 -17.3733629391486 0
217.761663610813 -37.0359084725232 -20.2892701284684 0
133.714010758993 16.7321823113671 17.4103642714045 0
192.474156756512 34.3950922820724 3.65130244485982 0
209.731339419968 -29.1375571846768 -36.2022887484397 0
200.135343461692 -15.5330743169028 -25.3995457403575 0
76.2335856052498 11.0342243708608 -3.14433613403483 0
192.395781026463 -15.9188525397307 22.4928313281822 0
161.955557079739 -7.12620756866489 -8.21776773992054 0
171.834682815136 28.7002250137832 -2.59529562201794 0
209.292887328093 -5.65184337599818 12.221270743346 0
48.7758051051133 -9.67945700288421 14.5098637343129 0
191.283625666399 -32.9927569910221 10.4350525282642 0
0.409108029772722 20.0142307947968 17.277508158384 1
177.649825846953 32.929638014876 -4.06539563823365 0
211.91972361853 31.8013137747877 -0.833209459644069 0
20.9306283157092 -2.5262406376731 -0.255584746378831 0
184.249658354678 18.4646266145349 -29.1647352400171 0
163.795843499247 3.16716347016331 -9.79972001055906 0
204.289086966624 -5.13312828029873 16.924618078197 0
160.508545686575 -4.55376555506744 21.9842884509968 0
174.98303243458 30.4833385628456 -15.9135856808609 0
5.45619988940042 0.939777096915184 -2.98500841149013 0
180.763803045658 19.409035996375 -27.3634733233189 0
145.953408385556 15.4660706271898 -9.08295234923843 0
44.7835413511824 6.95296266802972 -4.04958236449462 0
197.132759335503 -0.096699274149173 -13.3089085793836 0
139.377580471436 0.953242696813391 -6.30663213418693 0
167.04095544096 27.5241668840147 -10.0047578011792 0
141.439372152458 19.5207392098516 11.9191955438878 0
66.477557243194 -1.15751782967087 -1.64352215340886 0
208.296955386807 -13.5341378912537 -29.8713811173796 0
188.723971736958 38.7923081946254 -6.50624956134445 0
64.4218332860347 -2.33837332679396 -0.80680245434595 0
177.368917142706 -19.3112427717193 18.5485338335739 0
206.407621597393 14.4618799940752 -24.2467871240797 0
146.898054198094 -9.88282410431586 20.5204446675494 0
214.397811428753 -34.1350913329008 -30.8514499923882 0
189.153058003081 -16.3802200735512 -30.9356339959223 0
202.558561619848 -11.635297406131 -17.2904255458713 0
175.876297784628 -17.4471476874007 19.1661502422714 0
105.53833634062 -2.308257155405 -3.15255665323831 0
183.251614636536 -27.0256580534471 -27.9065868917324 0
169.631689771359 29.1486323778035 -6.32182752357238 0
195.410276017712 -4.43716160357342 21.3807358002759 0
170.585702876739 7.50926695896452 24.6946874819664 0
39.3594866782784 3.78095025233601 23.3875372341733 0
215.307451187698 -17.3122178192491 11.9093792852675 0
193.216042748948 -14.8096986002656 -23.6399993634646 0
211.33049592784 0.808673100137891 -0.900977182085996 0
64.5612788466238 -10.3709607584344 16.5328380829172 0
71.8056625171284 -11.036414236944 8.97379297548263 0
72.3406347316976 17.2368602447741 2.78820086595849 0
115.323190151734 1.40068421612385 23.8512266176767 0
186.579860827795 -18.0436619759345 21.8453555617507 0
182.449032146886 -25.5825594365508 -24.2969816903336 0
153.819178985934 21.3710263161263 -8.7306567288311 0
161.131194014125 -15.8791575919339 -10.0391654393704 0
190.31197730229 -8.39851350907352 -18.3509216525263 0
141.533817208054 18.1689392813958 15.5368469508907 0
214.218692484578 -6.97104812374228 0.951485351230991 0
128.523907665407 13.3840140965824 -7.61618640058639 0
92.118318289397 0.0404666963426096 23.3638539025186 0
172.071488466837 29.9396839588894 -5.85564924921042 0
100.966228903893 5.72014000730278 23.7268338313024 0
177.195737939942 -38.7213909448714 -4.19318748305699 0
172.053424959835 -14.9616661177605 -12.5034590074841 0
174.601033389633 -37.5504140676348 -12.9611489285564 0
157.962071528111 -13.4585227823603 18.9379335748091 0
162.65894432716 -25.3473956712886 -7.1623135223511 0
36.5289597027159 17.8651712750565 4.937012889851 0
156.798824476988 23.9639250110004 -3.88823369441727 0
181.934866935586 4.74098857782668 -15.8961578472889 0
205.511668080642 -13.4935177483424 -31.0052060555583 0
210.289608007259 36.2377822322269 -8.5719485237661 0
56.5572459148078 -2.7323542193794 -1.01036450209126 0
84.0964893036384 15.0501116366055 -0.840105707144795 0
77.601387491068 11.3510245656217 21.7019925825025 0
0.31849073085541 4.96750794493023 23.7325281967754 1
218.372701532234 -30.618656715937 4.08479705757277 0
182.200480363863 -44.1691258083668 -8.83270342076306 0
179.621951727762 -41.5126278023905 -14.7613742555425 0
200.609211540457 0.586347191600104 -11.4995557520672 0
48.0464599587291 -7.43856833696372 7.24877732883395 0
209.062875977105 8.69086341646288 -13.8613968582847 0
194.138785627831 1.15990251848898 21.5581774008577 0
69.0250661897946 17.9253438973872 4.21843292518951 0
176.760380945281 29.2447572591514 4.01980525205559 0
168.864931057402 -24.861262427906 9.18643802760018 0
77.3720492772751 16.8427322903282 16.790704691793 0
131.987272252137 -7.21332474223419 -3.94448994736489 0
133.226920846423 10.8832330169626 22.4834425036526 0
197.450431893529 17.7835116644776 27.9849615709431 0
155.058870643348 22.2882920606918 5.17576466982479 0
218.970944277749 -36.0205184912625 -18.1431427553688 0
115.242007484035 14.9188427076007 -4.31892796521522 0
193.984051378279 -15.4045112602148 23.8477358415436 0
204.479972813942 -12.8191327982641 -20.6392460740074 0
154.246191543242 13.3356927806871 -10.4454644091909 0
64.8427009588535 18.281154463315 15.2261875570675 0
221.79571664375 -24.9511533755555 -10.2264446743333 0
103.979232742012 18.5374356621886 12.2819983626485 0
188.483831678234 -5.08672033797596 22.327271481029 0
174.662665123755 18.799422427593 23.2589436852742 0
132.075456248343 15.1461049447254 19.3414362164875 0
135.096399063844 -10.8713555703137 20.0059581976242 0
177.720162083145 -25.2399565597446 -16.8806854411724 0
96.8293433831813 -5.76381808237122 21.6144889627717 0
10.9602213707522 1.06284557851167 23.2328947153413 0
190.979579530292 36.9611090396526 -21.314868262748 0
178.535823650078 -26.6005514159664 11.8371297040847 0
89.6581054458037 -5.97129442636294 21.4355958959893 0
211.71457553957 -10.0231807229571 -16.9103546255943 0
121.400188886705 4.77592220658329 23.9210133897048 0
185.801753460109 -21.7344130091135 -30.777771649668 0
54.0327390593755 -7.09987777211634 6.09715434706273 0
201.998970717433 -7.47040406315346 -13.4096602313602 0
205.170033789225 -29.6255970578576 12.6692274983855 0
210.601259389624 26.7943940800851 15.7581631483499 0
50.6528208026189 17.284549656267 18.0411742940374 0
209.502363273874 26.1128179912485 -25.8432644985353 0
153.252751129398 -21.6908252116125 9.64122819517688 0
145.259808468254 -10.2631366572708 -5.70035381183307 0
179.022475539378 36.892460545106 -13.1310767622989 0
191.386107605083 -15.0878617329486 -28.5556572695411 0
206.08919067502 -27.8159341549231 14.7684410773278 0
184.586876448307 -21.7929735877175 -28.9130380711956 0
183.402148035915 -24.465759248627 17.2506474428111 0
140.3794354041 -20.9991456273066 4.61521959645685 0
193.716942997829 -32.3443123955432 11.6817735611304 0
135.375892722399 -20.0036915726104 9.81544232442869 0
72.5529362924225 5.29764702430729 23.478878582632 0
167.780320820559 -15.301526289936 18.8801987596594 0
91.3505469520781 17.4601947319031 1.57557231169167 0
194.754915889662 30.7143563106155 -33.1278688071721 0
179.612660244044 -1.54073334903605 22.0964869937078 0
215.080269617598 -36.55291713582 -14.8342355873401 0
212.36660076191 10.3719306777906 -7.64912126417679 0
213.411403108416 21.7074503767243 -15.9673810512756 0
141.505601884839 20.0821347481223 -2.61562111469312 0
197.56460606845 31.3477721700448 11.9677896203323 0
106.255033136338 7.74772557207182 -5.99342128077441 0
216.264692939703 -18.4188024429745 7.58949269701834 0
160.619027047318 -26.1419786182005 -1.28238670015242 0
210.177929020148 -35.6384728154822 1.02404248341029 0
4.64285668267102 12.4982041569188 -0.723990171687605 1
33.2497094024912 18.2202506932214 5.41242661745811 0
152.16298132412 -22.4617443474798 -4.05079394098124 0
188.441182253735 39.6839306242288 -11.133427924548 0
193.119096864969 39.8343190642221 -10.9513906094857 0
99.3585928223632 -5.70481085864981 -1.58351570043552 0
187.742623476621 34.5064806577076 2.1662332718307 0
183.36513436339 -30.2473379974763 -24.4558203757963 0
176.771721436281 23.0144508925806 -22.0364477794861 0
220.10733308075 -23.7951321285546 0.400649843029158 0
46.5372096905249 -3.40069183926684 0.955641529643288 0
197.426149838863 36.2967719623562 -18.6404111587363 0
50.1184307135847 14.3935581751214 20.5324874697175 0
68.7576167693031 -1.76533715133998 -1.41105321198563 0
198.4448908854 10.6610539949677 24.7202611060751 0
207.889605820654 11.5314561903909 17.3355378522398 0
146.863172647367 9.53430657065481 23.3496577843626 0
155.933723992149 11.7374168051948 -10.1634173947644 0
134.468076307719 19.543271524812 -0.575100567323421 0
209.729994752102 2.27055585815089 8.46378554069748 0
93.683668607364 15.7159235346652 -0.816319178420733 0
186.088364248236 -8.16790692465914 21.8201613656546 0
204.866742027417 -40.8357076807985 -12.1729326237678 0
203.546474608266 32.2268591754614 -30.7276348600584 0
184.23709419333 17.7441812304967 27.9138462713609 0
126.5900269478 12.566120099523 -7.64957832552958 0
210.155269325093 23.3147544684366 -24.3888308679576 0
201.09396322331 -8.66554251120824 20.8037889322777 0
195.982422370893 -7.16697780138371 21.8796278071244 0
174.527290275244 -26.6681319095205 -13.8689664773914 0
211.713307696874 19.5322114048279 -19.5597309128982 0
219.096602163415 -32.888586935661 -1.43919697559297 0
125.263029478664 14.4621381454177 -6.34966713807937 0
177.558647619719 -5.19288491166772 -13.6640262236589 0
209.989102118083 7.83870331454424 -9.88240124075604 0
141.637619690848 -12.0573622899602 -4.69361540576943 0
195.59401692133 -42.4192431082771 -2.634596247896 0
42.8275867604549 6.10948959390634 -4.34155006836632 0
170.890663416778 -18.2016669919003 17.4653181811127 0
186.416205140594 -28.7565343961849 -33.4790420367735 0
132.224401462007 17.5839838997134 -4.30404750892326 0
199.497749813865 27.5454331045088 19.9782654101342 0
155.292163026898 -12.5552383812927 19.3320008915971 0
202.02949206245 -29.0293335679941 14.3853740689303 0
186.145572457851 -30.1468010951055 12.0774302055342 0
206.634079922019 17.1999216711842 -25.7069390210225 0
44.4227925695887 18.4757362368114 6.51962301453546 0
200.208024758784 12.7452760903074 -26.2009523649394 0
101.309296080782 -7.99145320379682 20.8343314177469 0
193.907086004799 39.2213434188735 -14.7846100437912 0
52.9605435681516 15.7602885856859 1.9664614142594 0
3.22368906465057 10.2395025647186 23.093629633453 1
91.0888717176871 0.430762844305314 -3.20871457226433 0
202.844285278411 37.2586929064177 -20.8265447586473 0
147.25559593252 19.2681754956334 13.8887267053361 0
215.131645080023 25.1051392241067 -4.11608443226537 0
162.982721409129 18.4652869066302 18.6295308640405 0
197.100588315243 -13.0568267494802 23.7307595542051 0
194.494617166239 13.9949650074067 27.8836328994084 0
147.375236247846 20.9200573300414 7.50840187266751 0
196.0379522457 -7.91004934404233 -16.2135438706661 0
135.831148578715 -20.4711593712989 6.72230349853474 0
184.836863542801 31.4836211660541 8.43232248295836 0
172.137401743187 -9.29663622713671 -11.7099439174434 0
200.733884008821 27.9851098296077 -32.2387546423813 0
58.1075119766546 18.3897060096044 15.7184107701163 0
198.195475517864 -8.46662380244167 21.7841269621138 0
183.296709666297 -10.5948221105211 -18.7492544697221 0
199.578353325477 -33.710062345061 9.35889871825971 0
37.8097852521883 17.725571548986 18.0997646139499 0
