-193.751597715037 24.1093962775232 -15.4225373564449 0
-62.4643614801027 -4.2656239039785 3.84355097103366 0
-207.477541795292 -14.2500148369575 -5.46337825438502 0
-144.547325032352 -22.8593148561648 -3.08952228052925 0
-175.299248394666 14.7637676333166 9.42174025289659 0
-209.398335881644 34.8699567549511 14.5992983092351 0
4.35257204884733 -1.29624068217841 2.14220158402007 0
-49.2803799711725 -22.7101024424888 -21.3656363710078 0
-201.568097667834 41.1775697229773 -24.5547989755387 0
-117.604383149612 -21.334988417372 -10.2380144807272 0
-209.184566852032 -25.7188041282406 11.271316692983 0
-212.824143005321 22.8899057413318 6.54538793901907 0
-98.6268742285363 -15.0633142196349 9.30459668687118 0
-99.9290631102847 -0.156934559145627 -12.6284956858408 0
-121.846395329036 -14.9860224367935 -11.7102796647735 0
-181.378391865747 10.0993287493542 -5.02086851892761 0
35.4216912241004 -8.04950620048238 -27.9247555772285 0
-136.251280368454 -4.833408939862 16.366151663772 0
25.5525982827311 -17.4209506150793 -8.49185055066054 0
-86.7695236386051 -19.144311223842 3.8607714821382 0
-157.519475803741 -12.889989830335 -4.52586059845347 0
-199.645583977612 -4.81726966579891 -9.45387668329058 0
-204.329965245586 14.3370618991566 10.2230007699761 0
12.76908977105 3.17184056277653 -13.6586811933934 0
-187.858430741848 35.0097440942753 -12.8519338351932 0
-126.655418428628 -9.12978657823345 -10.3939247326391 0
-178.213147438425 -2.01918610548638 -4.55642662220978 0
-8.04054202684818 0.378513730242274 -9.05317185684704 0
-5.51171241711694 -23.2356815610191 -22.5843360498176 0
-43.9575945113633 -0.158627134675002 -6.79492005394586 0
-52.0609270651308 -28.6554377401904 -15.378232448451 0
-47.3834496510918 -0.0654908145418132 -6.4798379055292 0
-214.416467090684 -15.5133225443288 20.3000313668962 0
9.66765433269294 4.1209494960085 -18.2724589698269 0
-183.711918713022 6.83252739702976 -5.56830351857041 0
-190.52828179468 -34.2887514888951 5.73738008086239 0
-209.296049722703 -9.17401359092039 -3.39073146420997 0
-175.147443563099 14.7147205723857 0.63222816109885 0
-45.0223460847804 -19.6178357199581 -4.58400683721334 0
0.246278772497373 -20.6570569928261 -9.0920455251798 0
-63.2511252867497 -7.44695045637926 -21.6132676035997 0
-12.4637865148949 -16.2628060313966 -6.57022490363613 0
-2.12813597494805 -22.4619237893893 -22.9847891438012 0
-208.769379719409 9.11503754144252 -3.36752631503761 0
-169.280344573723 10.6397091915473 22.8431700979584 0
-196.585832695928 42.1849372088506 11.2446620071993 0
-58.3781736521832 -28.5749090740515 -14.849522736659 0
-203.965190246228 23.7622823059797 11.1120996533921 0
19.8661417526174 -25.8730679073227 -13.7864170643771 0
-117.516719270974 -17.3546028346352 -12.1001851120568 0
-200.070420043125 -9.56643539853099 16.3701780135577 0
17.4835831520936 -25.6762944778468 -19.7408179964241 0
-175.841414498812 2.64981321897916 22.8458800524466 0
-39.0282930235842 -23.5737526463133 -21.366297230512 0
-188.983020403049 -15.6130183880081 28.7169741756555 0
-113.648745165728 -15.2427732255243 12.1092724059175 0
-129.132309537852 -24.6172649601468 11.108488267997 0
-118.205087113248 -25.8088942760409 8.51670103338698 0
-25.4344452980397 -29.3431152034286 -12.423330685824 0
-212.69217684999 55.1304436798601 -10.1875937396314 0
-82.4730873914204 -16.3286123311347 4.1029921889109 0
-82.3174421127203 -5.30217051734353 5.90244721657689 0
-213.961779215508 18.244096016825 -0.725964920767791 0
-146.016065870631 -6.96063659767577 -6.42528820221259 0
-114.494417898199 -18.4184719567859 11.8274400073102 0
43.0765005335451 -6.67924216904828 -27.7423604416994 1
-133.508978846513 2.239113730948 7.51352960192793 0
27.4602474760688 -0.723115585969982 -4.65224126011575 0
17.0577378287675 -14.703261156605 -27.1765308388227 0
-194.080784850559 8.04499576038945 12.7257740556106 0
-24.7259388661588 -1.43785248600629 1.30031644476354 0
-33.4011704619818 -18.6754273790216 -24.1885977655975 0
21.7847455114598 -12.0645910141971 -27.8204956937296 0
-198.939391767232 -32.152989172519 13.4845860518863 0
-203.970430677934 22.5177939331948 10.9678196175311 0
-60.7318729958144 -21.1485729582995 -2.56188828541737 0
-154.142881458401 -1.58103947363583 22.9120691996788 0
-213.933970563439 54.1167670094507 0.517766980395916 0
-190.888686300484 28.3502485161222 4.70597337437698 0
-201.708003753583 -28.2221762236958 19.5251452407926 0
-108.771996607861 -28.3958219982909 -4.59540966972939 0
-122.156365784059 -0.174554541162725 6.56876447936681 0
-145.908781364756 -26.0108399005405 0.233403979488711 0
-220.789794404697 22.5725385240496 -11.7920303341478 0
-168.843930352161 12.7091852175446 6.44580130076643 0
-174.243050149616 15.0068735826877 7.60954415708668 0
-156.553737812186 3.98048470713291 -1.95552428286988 0
-176.052729198982 -1.0626045390243 25.1163346293906 0
-199.848240582194 0.696049006040434 13.5075386546806 0
-184.697492761404 -15.622805806967 28.3203306866361 0
-80.39899477113 -5.73910525214314 5.92007607818068 0
-48.4122627047962 -3.11922902480125 2.29537632150292 0
-200.35734952219 11.8081782425284 -11.3347717011491 0
-58.6266689401367 -9.61062345526819 2.30182142280378 0
-188.34603207615 -30.2057673156146 18.8295452054574 0
-226.304160690618 32.7711258070081 -5.24005220094714 0
-205.665224423312 -22.6450909066925 23.3263088422811 0
-102.386251735469 -24.0420544112045 -12.0685219819404 0
-208.852390847885 -26.9643128202987 4.93878204403681 0
-95.572751984188 2.73263200165025 -3.9813672802664 0
-206.904690730805 53.9270798685864 -10.8370475401346 0
-47.9224050368965 -21.0579073709799 -4.46784391535823 0
-208.145326643848 54.0875292931314 -14.1940687881074 0
-154.422002495143 -8.8603453131205 21.9513848657957 0
-194.449510165403 -3.88784023085827 20.0637333256495 0
-89.4467510940073 -11.2452702985052 9.34001099958438 0
-22.7575002933735 -22.2792859407174 -7.75855029980807 0
-181.957231289579 -30.9341783684161 6.29590393693216 0
-224.758231871081 28.9335825983067 -0.56315535999074 0
-121.409042773058 -14.1311913204926 13.9651085622625 0
-139.904165389679 -23.8211768523438 -3.03180524996541 0
-122.513642421846 -1.69655862678113 9.46646125267966 0
-24.9061179944582 -1.44508758619143 -3.6433427280327 0
-218.688026638744 37.354835371377 10.538335268442 0
2.36559353497929 -10.5942551831069 -27.408255214318 0
38.6373295670116 -23.0039628775608 -21.5554514534434 0
-187.206767850611 -32.8072857939925 2.28357530339204 0
-226.349723707653 36.4027861624145 -7.78136443429929 0
-194.817775773119 1.0233272761801 -7.7864075919919 0
-181.558721908415 12.289014248651 -4.78369994963791 0
-176.970593033162 16.3633422010287 5.19778603753723 0
-55.8797474464659 -9.78447963336569 1.7303304125939 0
-168.943525396532 -6.10475013512597 26.1281956538662 0
-45.1366553555194 -9.95655862723044 -24.6337860872414 0
-164.712230722663 -18.221511337549 21.7573014992703 0
-195.088465677001 -25.7938661996787 -3.00294822867039 0
-153.308234988503 -13.5403913537135 21.8527715434901 0
-151.682731804322 -7.77524784660102 -5.53280425788468 0
-140.794504273926 -6.91223052981613 -7.45560364907056 0
-136.274877120373 -18.0927080653288 16.1450530037743 0
32.8719019825606 -9.39358803109752 -28.0182888710484 0
-157.031333148534 -21.7000107827835 17.163349828219 0
-178.98060356404 -27.0699424064796 17.907409366118 0
-188.275145922174 -20.0527484158726 -1.86401275054025 0
34.3472077880804 5.308322264974 -20.053538416702 0
-5.36735950861763 -13.6515274380059 -5.55544747407638 0
-24.4071658886793 -1.69202755255378 -23.6029573549719 0
-201.348088462807 -7.44265117545102 -8.69780805833288 0
-80.8836049765846 -13.7215415860906 4.91948894636528 0
-200.310497972757 12.5741991779941 11.9946958786023 0
-29.3642844065385 -4.72000846995528 -23.8587919812963 0
-201.449461424826 21.6894511725983 -19.6877512534175 0
-0.0509960281596775 -25.9668207274251 -11.4804028293046 0
-65.7882958884969 -29.6614773864215 -11.146938952036 0
-182.373427703591 8.14311980175622 14.575734708249 0
-183.628326165647 -26.5684425755126 -0.697908494021641 0
-191.359304630123 47.403056291042 2.60467723895048 0
-189.856026958603 -24.5756315566916 -3.40848587372377 0
-102.542606760414 -25.6747053503577 -10.3517291637307 0
-214.918846590824 48.3893965489628 8.15166177493204 0
-212.783260317632 53.6315524920568 -13.9337275254521 0
-213.966294081658 17.2126425746257 -9.94102147543998 0
-108.063649516095 -12.1025064598829 12.2221534130933 0
-189.422912739873 15.2640495218051 -6.8545457920271 0
-57.9445877402316 -2.98209540925625 0.209714902802272 0
-135.564378784378 -17.6978517860131 -7.58947997626393 0
-214.657349834111 54.7899250150921 -9.47434708448061 0
-186.556990385395 -1.66360580896771 -7.40973968567411 0
-218.670183012862 26.9295812229605 6.61724819594664 0
-211.20230209778 54.9036920593649 -11.870963411214 0
-217.672619586435 -10.174715923481 13.8226699676012 0
-185.374773927536 -5.94014678682486 -6.67512184867397 0
-39.0473789491055 -2.20504255556329 -1.75111352932921 0
23.3121527465472 -3.42783146945386 2.98063212213827 0
16.2774954091923 -6.21337291918994 -27.1578009103398 0
-204.085232569416 -30.4841357134161 8.21897845166369 0
-69.0722857678241 -9.97129300334517 4.48696907755782 0
-159.673173053715 14.1707399534976 17.6723719190342 0
-83.1511411142479 -7.50811927343725 -18.7417587306312 0
-12.0365213596538 -20.79949982668 -8.11187642957556 0
-92.6827311100627 2.55773075234267 -3.80980250225878 0
-23.357004891489 -23.3732169123494 -22.1320501347004 0
16.2052190510876 -25.7807528962277 -13.2279742968722 0
-126.974780698702 -16.1428255669827 -10.2431355046948 0
-154.781849431143 10.4821035161376 17.8568810936792 0
-200.167653073814 -9.6178902082797 19.004025737008 0
-155.814304887354 -18.9866835967894 19.5385296581314 0
-197.213367639978 32.4107001473291 -22.2246235745788 0
-198.278417877592 32.1463415898853 9.40398239060526 0
-206.701092847728 35.2350799236497 14.7625868143249 0
-159.072689414144 -9.51867509589314 23.0090529180996 0
-157.094536442953 10.0996868784716 29.9541445652056 0
-204.526654565382 31.731145308642 -25.3752196135185 0
-67.0116871231141 -19.2929617267696 -0.660952804584131 0
-183.988146404517 10.6136899272864 -5.4802617712567 0
-166.530877280015 -2.22845546242366 -3.88422337890606 0
-137.851353617127 -14.4633939252238 -8.27663454364532 0
-74.9021803894526 -17.2690843408064 -20.7073608666015 0
-149.359358823841 4.49091475220979 2.84075164803768 0
-196.862802589674 34.2887284866312 -23.258908025945 0
-209.084223697068 -6.20745216229005 24.8853856511826 0
-197.843960888659 13.2334448633219 11.9342152128012 0
-93.5245726928779 -13.6146906418045 8.64240139701403 0
34.2465036183384 -14.4175736469516 -6.65148469626048 0
-57.8792430518004 0.242744909409244 -5.48829160834786 0
-176.34040764528 -26.0881934798373 16.9530160315308 0
-121.117433279506 -12.0628258396223 14.6672436770826 0
-6.61094350904469 2.51115660788587 -21.8992819417647 0
3.50458626712941 -25.5674725075334 -20.6613417534187 0
20.6557673341446 -16.1326639379097 -7.69422675689585 0
-32.7660781053203 -5.31849285629353 -23.724606351806 0
28.3065673422074 -2.52572470435306 -26.5639360837587 0
-64.0718209292758 -21.0806862755306 -20.6817099820226 0
-220.483592916557 41.0412775989102 8.26550031533308 0
-8.91926932697283 -28.039078198422 -17.842471152617 0
-195.060595752599 -9.66164582483609 -7.62029737445904 0
-213.003303465433 54.6294632019127 -3.36194617892093 0
-177.477213546759 -8.73438017854664 27.867032487282 0
-151.78094936209 -16.0675441162163 20.6436309273802 0
8.65173871442752 -1.78935565399565 2.5788892711758 0
30.7202960591381 -12.7675309187094 -5.52246277615141 0
23.1762891679051 -15.3155716767997 -27.0675090635493 0
-188.910891384344 7.22533597753491 13.751763361425 0
-190.659383108928 -11.7989822306988 -4.77116406096495 0
-22.9734510899057 0.351815151908548 -22.7392674446664 0
-120.330988326731 1.01856028529601 4.01655331853808 0
-93.2778112447579 -15.5275651140402 -18.064659062268 0
-192.862776120506 0.708206137609883 -7.96185425455051 0
43.7141189005632 3.72813502858858 -10.9242518493863 1
-206.25157697137 -5.39085401024289 -4.7054287371856 0
-15.9173742138051 -6.35589497474923 1.68027874081406 0
-224.05773285392 26.4162105374447 -8.94409932198548 0
11.8932384783315 -4.26810815379332 3.45092048884455 0
-153.180504433642 5.02528421347427 5.67164733054743 0
-112.889039833654 -24.9433250156488 -8.40438750127089 0
-206.795614634262 49.0495941930867 -21.3500318096112 0
-169.853218952004 10.9683834565545 20.7883074874917 0
-196.345013328973 -29.7092977040562 17.682691740788 0
-77.3589468602891 -3.74361019261213 2.61156044103367 0
-197.002999971725 1.60659815389825 -8.15133938850153 0
-191.142557355708 30.5738213243256 -17.5840037936048 0
-165.137462152316 10.502129996359 5.19420017312036 0
-212.392557027496 16.1640565446093 0.816319570018345 0
-29.0419929974642 -29.4892107207824 -13.022123900348 0
-55.3434018253572 -25.1533453838797 -18.9342101536015 0
-205.429206001093 53.4818566269046 -11.4673568826576 0
-102.73368558135 -15.3280114173723 -16.1231064658185 0
-109.07386579114 -21.8079057953547 -12.1171210473068 0
-161.389197232274 -25.9977030808902 3.30882824402609 0
-171.388155467435 -5.39921243529416 -2.77136171862501 0
21.2634680525815 -23.5676276315563 -21.765214097202 0
-186.939402795071 -12.0447363647347 29.1392415981491 0
-152.520796801423 4.98004970231835 3.61326263474559 0
-76.900690504126 -16.596243966912 -20.5775374343154 0
-158.097236298579 -19.4322707058643 19.4504984028475 0
-208.706479120784 -26.3707229310681 9.50953873836964 0
-206.841133006743 -7.52954265857328 17.9687799153332 0
-189.118296885677 37.3833428331734 -16.1031954678197 0
-71.3957509828999 -20.3405113850124 -19.9725005558041 0
38.5989585552261 3.79467706247904 -11.6861481813579 0
-179.506791484373 -28.6015798029633 16.3159578312383 0
-199.318687457733 2.56917892730718 -8.55179593416162 0
-157.282433221459 15.328629270026 27.1593458097158 0
12.3605311505255 -8.50832684525345 -27.5301093443857 0
-188.286778105581 -25.1159783606512 23.6633496570601 0
-173.59009447318 11.4300362871541 -2.61554864289198 0
-10.8139949243227 -8.46819532209025 -26.5788562905213 0
-201.700065110326 -25.2334636650176 -2.06470300604536 0
-180.701316523721 -5.65891774707166 -4.61528526424387 0
-9.25175060586739 -17.6405970030918 -7.2865884430595 0
31.7259257238719 5.20359734377152 -17.8834895344753 0
-126.188209961025 -8.69341882892038 14.8683161344409 0
-67.3913807063531 2.4824251384561 -8.16563838889547 0
29.6813188826838 0.213792962151874 -6.87818689689142 0
-219.935732159902 39.4178519076893 -19.5574356333369 0
-51.4575050764386 -2.61837672706362 -1.1001931357389 0
-119.942883680645 -13.972931655999 -12.2409739163508 0
-223.988331516565 46.3733091767054 -6.81236087757021 0
-203.56788242296 -9.46435166499136 27.3685339037062 0
-121.711766717718 -28.3601770427764 5.5415206859095 0
-8.71272216905804 -24.7082026470647 -21.5786815518007 0
-124.45818142692 -25.9301462124077 -4.1265211081281 0
-205.747888527412 10.0452323526125 -9.72707740119854 0
-206.679099137256 29.2172784756964 -24.7851014646471 0
-166.657863316366 -4.70854048681289 25.9407055683571 0
-160.602609667687 8.26377815774772 7.38750938412457 0
-132.073524915199 -18.7787040409289 -7.90179989459635 0
-222.202851143478 47.8858824864086 -0.776316893550051 0
40.3520156069982 -19.8413301594613 -10.0643908597292 1
-187.800327654325 36.0927827019209 -11.4675967799631 0
15.4328361386962 -19.2068021486937 -9.12259998341603 0
-21.1468047338172 -22.4726041433988 -8.01162248425564 0
-142.250129215541 -19.7561827894083 -5.28188971560035 0
-209.090427349595 -2.83294170896866 2.07305934696523 0
-155.270240475158 5.16849962673939 0.589702933808554 0
-148.84381686325 -2.89796378641675 20.2754979093118 0
-136.4700226939 -8.43551288816521 -8.45066992570278 0
-38.7067670342161 -16.7088606573634 -24.6202590503316 0
-207.230345463852 43.3341199973491 -24.433008968044 0
-212.093811387413 -12.4360199426541 24.2496622337943 0
-196.957994642315 -12.9188345295183 28.615828706773 0
10.9659920675367 1.59706643132204 -10.8960643120454 0
-72.5936447089156 -19.5128446374568 0.409900446084451 0
-11.8313377447795 -0.174033041684496 -23.9265451400461 0
-159.403782757139 -19.7460473274181 -3.01332173641744 0
-29.047640069155 -6.92104423997116 1.66223128155482 0
43.0583561129465 -16.2369117141497 -26.398268328766 1
-210.674920137942 23.6608713682579 8.85012354539692 0
-122.687225260054 0.945210349065991 4.6689617218082 0
41.6089842658958 -7.07104402438314 -0.360828541505898 1
-173.23327962535 -24.9019406140103 17.3213647010086 0
-46.1833842611441 -14.4443495294808 -2.76939775244004 0
-212.077099017122 -17.6158600599008 0.704626394349927 0
-206.428050791507 -7.21352252383649 16.3680953117447 0
-179.094646035244 -3.66479422871756 24.148781865818 0
-92.4839087509059 -21.7936647468842 -15.5780369030229 0
-216.737518163543 23.9845961063802 -18.5832222588231 0
-167.248704575258 13.5861717210035 25.3163587678216 0
5.81959979162431 -7.29355330965409 0.147777422181511 0
-127.151838171287 2.96854077443932 -1.68004040592157 0
-189.117912852979 29.248227667738 -12.8615014664868 0
-133.933293509303 -27.4056572828045 0.0134633135605504 0
-210.893229458525 -6.59921651849417 5.30984782658557 0
-145.646935715382 4.23832939408897 16.5146833963413 0
24.5759181938105 -26.1140081437802 -17.6162282556679 0
-164.66940671296 -0.698976941200413 -4.11040648502169 0
-63.72327146434 -28.55876329316 -6.21875195489243 0
-203.49375389442 2.96795967946037 -7.48064908026839 0
-95.0931293863824 0.534422769033387 -0.00383206405255571 0
-193.347838189717 27.7375077818422 -17.8913799841499 0
-184.057117270462 -25.3837426085521 22.633399083192 0
-94.8293225317898 -3.08816865987209 -14.2783577002715 0
-194.112014346879 -23.6761474986776 -3.41165015495479 0
-5.14005291153084 -0.46568221139264 -6.4995335854576 0
-72.4983916923797 -15.3992686984587 1.76676891403178 0
-209.123969669519 28.614478267126 -24.3344397591549 0
-189.725440504892 -31.5327290840656 15.9544443926136 0
-36.7712130539465 0.401130681549789 -21.4594809474105 0
22.8281461978941 -18.3776186300435 -8.90801896307111 0
-226.489573074983 35.74073298431 -5.38845941014473 0
-189.886639502863 -9.02263265074354 -6.08136762100624 0
-170.822422570839 -21.0543967664032 20.9275038475261 0
-188.250071942485 40.6012507297286 -3.5479478792183 0
-19.9235229488369 -27.9343113381751 -10.6381963375581 0
-187.620016659697 -21.5128648851885 -1.48792454119552 0
-217.881615695051 41.7842340720775 -20.7478854750418 0
-61.4315129929061 0.394964375822982 -17.5466694766051 0
-39.6050957810364 2.51135731149425 -17.5309180839292 0
-169.730648041817 12.8321650759847 17.2650756666477 0
-55.2097359998625 -13.3981553846023 -23.857627684109 0
-222.318204888831 23.0971084036008 -6.84334638146525 0
-213.667181885737 54.3201693436005 -1.36788662498112 0
-14.9361670822799 -13.5262207801205 -5.08004243280094 0
-7.48252536970564 -7.84297699936783 0.0215037549396795 0
-196.041240282817 52.968704712407 -9.44904395498149 0
-90.0242300051216 -22.7482615190974 -15.2973028614649 0
-224.977787170469 44.1229525376372 -7.46123859959586 0
35.8950213995027 -0.958122291365015 -1.21742631193675 0
-52.688601347547 -5.12133136929391 3.84627188075517 0
-166.525074952667 -18.2591825476243 22.0937226225863 0
-203.677394461332 10.8915421125887 -10.3820807380552 0
-204.397312821302 -9.83767651313062 -6.67675522260705 0
-188.513293603556 27.8701197685553 -5.21596668945786 0
-201.720664537312 33.1198098860784 -25.1204444987477 0
-34.280037409814 -27.914054554301 -9.54997457041157 0
-224.540501734433 32.5560932082855 2.9144541486829 0
-161.745764872491 -6.30657311431353 24.5179442776287 0
-27.9865564263128 2.76635380683548 -16.1045808160241 0
-136.780132593103 2.85865474478827 6.55786606784871 0
-179.363309398768 -20.3142953787923 24.7216709207432 0
-122.084351634569 2.01904528674572 -6.37156104481281 0
-156.674869484679 6.76933663105059 7.58237293342602 0
-166.583607490005 14.7581898611364 19.130638793988 0
-147.921203044801 -5.01374492385879 -6.29670092611177 0
-200.664837823308 18.8077813870066 -15.5396657003628 0
-215.62185829852 -12.4666778618776 20.5900956801487 0
-210.326560581022 12.3499110196114 -1.78916343555513 0
-211.858429736454 -23.0700201546345 8.26025858568347 0
-193.668362573069 -20.3746946469486 26.4021269993268 0
-203.118232210279 51.7783454394434 -7.78884027771631 0
-151.532850836456 -6.39062522263126 21.2644981058428 0
-126.649610373611 -11.1801881152971 -10.6058468249265 0
-55.1917076727593 -10.580320127569 -23.7090300761143 0
-197.500332940784 33.9518743854873 9.47966469135791 0
-103.775229331971 -7.9495316926174 -14.697006563696 0
-174.045106668888 -0.0923237793782186 -4.21347707339048 0
-222.663264774565 48.3247545184142 -7.14079917420346 0
-199.223413002252 -11.9636442860067 28.3882935824861 0
-138.953636234037 -0.473584579153643 -6.8839649255158 0
-66.9874060820088 1.55127177880701 -15.2632779469096 0
-141.217208716403 1.19736432578752 15.9620353326894 0
8.79285264623524 -0.886930748817313 0.584458045525158 0
-215.851417609177 19.5311320011723 -14.207325571984 0
-80.2127385210486 -19.6146306383557 -18.9125909585489 0
-30.7278772343622 -20.111312363091 -6.48452652861777 0
4.87349373958774 -1.04487800156065 -0.535679917194377 0
-72.6535247017834 -11.1202560826801 4.45728472340872 0
-69.1526361066234 -28.6773142006264 -5.65470331361496 0
-197.706254184978 20.2763177669149 -16.6289387387752 0
-207.735898418768 47.1619811489351 -22.5594300816008 0
-157.352182906781 -26.1440980946895 3.17938930969168 0
-69.5461871034958 -6.44997890122894 5.21771155252724 0
-6.81478851391492 -10.6961849406629 -3.20794739049124 0
-183.043942380509 -4.66488614803709 25.8726876285798 0
-210.067875248766 -24.8314088693789 9.04679178823022 0
-216.065952737973 54.0939141846932 -5.49151703296041 0
-64.7985512219242 -8.22096169358367 4.31084003001516 0
-209.50056264207 54.7031314879041 2.01266142643346 0
-35.1222332687869 -2.52737672008991 2.55455111635263 0
-160.768062273025 -19.8270804469816 19.6112482825815 0
36.4230395472882 -5.57738814388992 1.27861227501364 0
36.1655164382894 -25.1418884809825 -18.0895424365383 0
-102.189518423926 -15.2537835125809 10.1124856631447 0
-215.717017168413 -18.9672974838451 5.58781359125658 0
9.53175234775017 -14.8332504172247 -27.1489385532314 0
-219.68137058884 43.1978124229624 -18.5925061484668 0
-149.52949790521 -6.77284984573187 20.5671229108487 0
-193.62886500401 4.83864079040503 -6.9316037551802 0
-186.857587664185 -29.9252822524587 18.5334649534134 0
-176.172870697282 10.6611789107555 -4.33476121629795 0
-49.5162614303497 -17.9699279548939 -3.60942058319979 0
-170.659879030302 0.456600124111568 26.9075142362942 0
43.0934391534849 -14.1288714273007 -6.61126673708817 1
4.02946213648186 -11.6212283296203 -4.41313853102766 0
27.9532001957132 -25.9024164244968 -16.2262736044111 0
-196.970240002302 19.2005946050671 -14.7800867479455 0
-122.351837988063 -7.31336990409868 13.3061795424255 0
-199.15573736646 22.0308512637535 -18.7999102636327 0
-107.884562105698 2.45936093540413 -4.48068710569831 0
35.0120393598428 -0.763343726660085 -3.88832738409261 0
-86.1681831306617 -9.53573391186741 8.76160309405326 0
-37.5290735006934 1.92475508017923 -12.031620822514 0
-208.055497487261 -14.0320109314774 26.8598563141013 0
-0.0845520056553117 1.46057656049747 -23.5415766676838 0
-195.551191628005 -33.9499570610508 11.3953454520195 0
-218.676579472425 20.0731234096738 -10.0776687782784 0
-40.5891247301802 -13.0116928316455 -2.62363972767893 0
-109.01284589851 -13.6218786143485 11.5569836199562 0
-84.0691144057883 -5.08601014065296 -17.1929297699409 0
-78.3310760894464 -23.6668508210114 -16.7989243813299 0
-50.9977766118157 -15.5668551232102 -2.50215743969797 0
-131.32785836841 -2.36328884568652 13.0820724382151 0
-150.204207317652 9.77046773989406 21.5710246888175 0
-34.4629656860997 2.61861071235722 -15.521928269661 0
-193.11803317377 32.0552797793827 -20.4905431149158 0
-115.712522505138 -3.66825962777927 -12.4664885086156 0
-200.284429107774 33.369906015588 -23.8996428842244 0
24.3387335115991 -13.150365551808 -5.69788335547162 0
-201.367601835997 52.1489608115436 -8.74709984904399 0
-80.6717662265589 -26.9503582406754 -13.4345928932966 0
-189.201203947225 40.0166463560513 0.716126650682845 0
-208.749436234035 -20.8150693674142 -2.28569598947697 0
-189.231612844036 -5.47886378735605 -8.34282375973083 0
-198.815571788348 43.3702213754379 -22.9422864393299 0
-9.44533764410054 -22.8250264832674 -9.00491614431657 0
-7.84166981491296 -24.4634094647701 -9.78670720892363 0
-197.57938040921 -2.10645424496065 -8.6789747476395 0
-21.1412601342468 -20.6684661197174 -7.38363925475089 0
-115.87833188007 -9.56207199830346 -12.7300283804706 0
-24.2594930046641 -9.3765759181577 -0.95172455519831 0
-181.114266455005 0.562589724029878 -5.82651138058324 0
-200.658969294372 19.4438811299951 10.5895905180818 0
-180.565057290666 -14.6414743678302 -2.58660133634361 0
-199.120006404233 43.7723589605747 11.8905083320308 0
-132.865429828755 -1.23017722084867 12.7768738218425 0
-121.855965314878 -10.5207145568487 14.8409648299841 0
-154.242575468838 13.3402671398546 20.0220272897642 0
-148.631875977907 -19.9947725031443 -4.20708588632527 0
-224.084071709703 27.6625522068278 -11.0069121162093 0
-225.879543771377 40.7240060979017 -2.15800724379348 0
-108.328824970078 2.61642784836004 -7.03369294610716 0
-179.243476154314 -11.0281131812947 28.1229708528173 0
-81.7666113296497 -9.87960402001744 -19.8200778848848 0
-191.90126240343 -2.69747329862075 19.6133692069776 0
-209.313376605587 21.5963610871548 8.9227568355548 0
-206.987410378203 53.7196156381561 -15.015057411721 0
-135.664027071842 2.97627694047487 3.89269755617489 0
30.0303584828874 -9.32887475835205 -2.79445342623043 0
-217.080036517338 24.8666661566097 5.58238022124994 0
-32.1224706658889 -16.084974218242 -25.2896778921482 0
-92.7939603728727 -29.4561519149189 -6.35816206427509 0
-87.8546529023165 -9.88119293443926 9.24085339887193 0
-174.791272185034 -27.1040253226885 13.8955964354979 0
-122.948599305615 -16.5592888708961 13.7406366602466 0
22.6918227405045 -2.02294352098261 -26.1496420969759 0
-205.669801014752 -20.8669057473619 -2.68662989858922 0
-46.7834609409675 -1.7784896163494 -3.34622056507974 0
-41.3535829986277 -12.5313366325775 -25.1689561793318 0
-51.0770113774779 -29.6582689778017 -12.2720244728009 0
-182.502991210249 -2.35552424436696 22.748871747016 0
-191.271864986737 37.5607645377322 -18.935155551689 0
-104.23344119507 -4.15146261145837 -13.2840631734356 0
-51.1698740584276 -10.4830255214827 0.450584975066114 0
-178.116428555443 3.9164784323151 -5.6919997173867 0
2.1102370843784 0.207687343490959 -8.64802224438719 0
-175.890472657733 -12.5452905388255 -2.73219213505308 0
-211.603198449319 38.6842616325775 13.8756680092324 0
39.6043977504941 -13.7092739159421 -6.31123481124053 1
-200.665017803043 -20.5288105194589 -3.857524423456 0
-176.927475886002 -2.92368029420824 -3.95047150343209 0
-87.7635185482773 -14.418750476924 -19.2374231114022 0
-167.224406701529 -20.0591074525866 20.7956475980045 0
-208.111405496544 -7.49465669019005 15.719772843747 0
-192.746034957631 48.5539959733533 3.22812068208487 0
-212.906600558775 20.3661793864294 -17.6713741751833 0
39.0384357859458 -7.75454272140358 -1.02055089497052 0
-90.9449683112558 -29.5429919050168 -3.89601579319241 0
-203.071637523346 23.4083623830675 -21.6030007638897 0
16.2002625944488 -12.2109551760709 -27.7331364738889 0
-190.949312177892 34.1102910649818 2.09696224810385 0
-140.455520977053 3.22681591436481 7.07828108171464 0
-118.117449331477 -14.8896510706162 13.0100957660188 0
-189.389739425033 5.17255042345772 -6.08581030260522 0
-170.451689784548 -19.4284522708655 -2.12732630748158 0
-100.324518374768 -10.2559440600798 -16.231840116496 0
-203.196652775453 13.0037356388238 10.8059000044116 0
24.40008108547 -0.500651718163483 -0.0393320351836825 0
42.9158335075957 -24.4566752819696 -18.1223731204959 1
-213.39544252884 -21.5087282874593 13.9021968770465 0
-77.5011390162934 -27.1162669039563 -13.8097278864391 0
-197.396945271612 6.95176886307206 -9.25489832690834 0
-48.5693171178718 1.55510052729966 -17.715695155222 0
20.7457655072835 -9.7133947533502 -3.04060984273856 0
-71.3144547950619 -22.7525195791611 -18.6117941263726 0
-141.515833793939 2.26600387112514 11.9915563713518 0
17.1354365420205 -10.4726577625449 -3.67140091106009 0
-203.906642138328 53.3068833609214 -2.88915215313326 0
-213.317237784099 37.3741476349345 13.5448948791417 0
-118.106212379643 -15.4321752257323 -12.5387236563605 0
-118.361670319866 2.46296739414163 -1.83204440701238 0
-173.849104383942 14.9593226295233 6.17611623450028 0
-187.476189858756 4.34680013224446 -5.79497353886696 0
-75.6856620798565 -6.06061173624933 5.82507354584539 0
-101.917578407245 0.488361438015668 1.44771273167508 0
-197.595286598436 17.7022735594234 -13.459071676088 0
-199.552459563398 36.0728615705922 -24.6645097086613 0
-50.4372759503052 -9.87669884220592 -24.0885077442269 0
-30.9627061890868 -12.9856037465807 -3.44189390720679 0
-219.368234569175 25.5503556175827 5.03633039412743 0
-206.665283833247 -7.12677090814765 14.3842949300731 0
-143.76486583587 3.15917956762834 15.0345326820889 0
-206.125136281363 3.67536673571252 -4.93967003353784 0
-195.043045046755 30.0568383194792 7.3192141365609 0
-128.387370079214 -1.48164364719035 -8.94575281739577 0
-111.475463748406 -16.3439556207241 -13.8938572833767 0
-19.4915395267012 -23.8137324088713 -8.62773569441076 0
-35.7158671717215 -16.9634441875284 -4.92954458679775 0
26.1618934006333 -4.17915430024026 -26.9357570332355 0
-186.381111241572 -8.23933340956382 28.3059236453405 0
24.1626350837214 -7.76783909256133 -1.00876980978291 0
20.7011004632903 -0.0144527365927581 -7.13581673087081 0
-131.353671367902 -23.2212073585897 12.4205642708323 0
30.4221212852408 -7.6818926073514 -1.00707429077449 0
-207.642451139902 33.7224538067293 -25.6081469755123 0
-192.17573215711 16.0740435831233 10.0556715543076 0
-167.097040311292 13.8638200348732 16.6216363980342 0
-176.809474673984 13.8527305805524 -2.48239670358699 0
-190.348074145212 -17.718209349302 -2.81147996886728 0
-67.4412729534007 -9.54035808935673 -21.9028237397074 0
-194.050450907929 49.1745740515632 4.09071897497916 0
37.7984279298924 4.69531216929763 -22.7423688385017 0
-186.278763245505 -6.6604007623631 27.0135916998268 0
-104.951575692861 -6.59123594040615 -14.0123225099074 0
-91.2270883935494 -14.4187668360613 -18.6313892974571 0
-194.975752709661 41.3650184065281 -21.4965709367716 0
-119.758113799189 -5.50257213479036 11.9620930655845 0
-4.38056727760382 -4.75173714847501 3.49377865664219 0
-210.454442918937 53.8353285979246 3.8642806768469 0
-224.353028129774 41.5157054922175 2.30396558092068 0
-184.083488266534 8.65421397922402 13.9551274485381 0
-2.83813803607973 3.33374183072966 -16.3791541867869 0
-192.491400973422 -8.39123605564015 26.522994597845 0
19.183015533922 -15.392954929351 -27.0673732154493 0
-205.186394257173 -7.60107947910218 23.4548753678023 0
-145.210134356827 -24.3852022780877 12.9986437273543 0
-73.0460739269565 -2.92663605014285 1.26930853942494 0
-163.354799301317 -26.160242395918 3.84361614670057 0
-191.739705185954 45.9822305282341 4.54422588550732 0
32.7191162555798 -17.0329534965388 -8.33916164851628 0
-186.119736503859 21.6481223175389 6.23612549570696 0
-169.521845018628 -26.9359230652996 10.0627360384092 0
-164.362609542028 -25.2618235326223 1.70607474792666 0
-206.812785414342 54.4248284318096 -2.76384938276456 0
-219.018140133023 46.8634674429006 -17.1553624098958 0
-221.514111426047 49.4401430363566 -2.72531258596119 0
-120.54960672336 -17.6271470471229 -11.2554007759672 0
-30.0976809706606 2.80305981812475 -17.4766174455248 0
-142.333837690865 -24.7284989764393 -1.77698239676009 0
-184.232216092227 -21.7742642967378 25.3792170651214 0
-212.665613516622 -10.4877026364289 24.1442515577335 0
-107.120559465526 -14.9645046677471 11.0241292616461 0
-203.250237712975 17.8716103372566 -16.2175271641614 0
-106.285119927212 -27.5421352585907 -6.77327161847607 0
-215.127280221325 43.6369375784328 -21.9309803590883 0
25.7063326213041 -0.681712676236082 -2.39409224843999 0
-193.845959720533 47.4316914345761 5.8517082883073 0
-16.9765198924151 -25.0211319577893 -9.26641429839122 0
-190.111262342794 -25.8145470429725 22.3776329613895 0
-90.6719002029478 3.04498726553171 -5.7974625239162 0
3.43351296857874 -3.09977915989866 -25.5123054149577 0
15.9027379095877 -8.97755298599923 -27.6819585730377 0
-209.407327877369 29.1133789710886 12.5433602563931 0
-23.0608855881903 -13.9019850890527 -26.2363335466062 0
-175.014195717497 -24.933676930788 0.414317605840629 0
-199.436667544372 -6.69291370359112 -9.53939411472436 0
-203.938730372355 46.3746650966132 -22.9718752924221 0
-178.435218049673 7.17504726132973 -4.79989470030941 0
11.7973738845531 -10.5648038187571 -27.7173006069757 0
-206.219610247045 -6.70776212758316 10.9582235160845 0
-205.194550460981 2.23417072300565 -5.32625656830716 0
35.6333991137333 -25.1474266827148 -15.9080089612507 0
-206.254462124612 36.6545476540746 -25.7543755384556 0
-168.704971937904 0.0344865508367112 26.8437342604311 0
-176.407890289739 -28.6601119288939 5.90920838865068 0
-198.761847611879 -2.09189702789998 14.8901473057501 0
-205.234500064505 37.5289765392905 14.6371713407925 0
-196.328966116075 24.1942754349837 -18.6263271936279 0
-175.781932194199 8.73322462318542 16.7861445336333 0
35.2090710268782 -24.2030990876304 -20.3743062082106 0
-215.553895174392 36.5130824999121 12.6848009892863 0
-153.013597755471 7.15604412967518 14.3811067719056 0
-80.9633778651025 -7.3065418476268 -18.986780329959 0
-42.1888498854863 -16.7022159682368 -24.4264128144432 0
-185.611849282668 -18.2763576157465 27.5372444282712 0
34.7906159107079 -14.0026744508024 -27.4596971568964 0
-159.868550515918 10.8267027010221 14.5059221417691 0
-180.772240661902 -9.47385460760539 -3.34534122727969 0
-32.8760331835975 0.75243505366822 -21.5925341936431 0
-64.0510051890885 -23.7366707481534 -19.0146661809502 0
-78.362466110792 2.82870252388581 -11.221737155108 0
-30.0614936415281 -1.02693012718115 -22.8023740931241 0
-168.536227115939 13.3259919864834 14.7960880334839 0
-51.4690460367187 -7.84329367352373 2.54744385300213 0
-118.395591400125 -2.10371796415355 8.56167980306172 0
-225.117837132664 39.2835902817836 -11.9599105588979 0
-197.850925314647 53.6466866006762 -0.131550526770942 0
-184.234090943801 21.3015930657072 5.23787477860033 0
-176.928400796788 15.8740778813074 1.09094767124333 0
-164.49685940119 -12.8776249589531 24.1272555633438 0
-211.499879310253 14.510886779567 0.871454034541778 0
-111.385951254121 -10.1572384114489 12.5770080968824 0
-30.287973895942 -5.54327156982976 3.10421138909212 0
-205.87639008012 1.09782997681049 6.82397684526586 0
-174.287983625579 -26.8868661922605 2.62831727297751 0
-211.704400472649 21.5640656089843 6.65692380500399 0
-94.9710221422308 -10.3747550146138 -17.4206240863217 0
-211.263052594617 42.5931459666653 12.9512819058177 0
-128.742573046855 -7.85459025291274 -9.7582609067106 0
-157.979099140292 8.36309944175543 12.2050532862401 0
-186.040721920514 24.5509216576522 2.33087625714449 0
-145.52567138363 -20.3056690271406 16.7276077266777 0
-197.533195128476 28.9674860354744 -22.8464325913987 0
-68.9540640347252 -19.6207861990754 -20.6352805619529 0
-87.6847385333121 -14.2659709333792 6.61619796481525 0
-130.104010438745 -27.9744601985686 7.6882296987182 0
-205.821622931203 49.5849301958927 9.65701276711492 0
-198.2060857557 -28.8789972481433 18.4176191448437 0
-157.536675698387 6.16329021183963 4.21034140649385 0
36.560817008177 -2.22183676035941 -26.6117786217524 0
-207.237301565579 3.78689902014219 5.05903605360024 0
-223.241729069319 27.7604771942905 -13.1815062870597 0
-19.8210693447302 -29.1974766368348 -15.5743841683899 0
-93.9085382297754 -28.0482896634108 -9.446950027774 0
-214.746260351714 32.0682890947913 -23.3544075555098 0
-188.64510374965 38.7184929015268 -1.88956217781421 0
-183.867860303262 -10.8431070300106 -3.59504031483486 0
-194.811050673183 23.5637595142488 8.53620345687372 0
-95.1083323852361 -22.4748984401729 -14.6526154936803 0
-48.3880170177688 -10.3571201804371 0.190427319643549 0
-180.456562867385 7.97032976338213 -5.05204925232367 0
-217.751011465548 -13.3947957950367 16.5499319170033 0
-212.54647899411 44.7688057259046 -22.5915642438814 0
-202.199485885351 -20.7462561686194 25.9459174282896 0
-151.113203299394 -19.9875042296862 -3.86387449393318 0
5.76105787276477 -20.0553124866266 -24.5439182333282 0
-194.91687941977 -2.94138799794438 18.3800058739894 0
-67.1751946943537 -25.1553664974624 -2.78457726458439 0
-97.9610102522516 1.40703617477128 -0.687690698325897 0
-136.102144203725 -11.8280688976429 17.8374401074268 0
-120.436269687743 -1.09617088704338 7.89520544220439 0
-30.2387524981545 -1.71429116140427 1.57830788591438 0
-204.403117266671 -12.7327624828556 -6.89264429458557 0
-171.43175089995 8.28085406219423 -3.68735313547114 0
-116.860104922286 -16.7336526422001 12.5797517985207 0
-128.464665697697 -17.6298216667138 14.6430159019533 0
-194.860505533988 26.5797393617739 -18.9755252625429 0
2.83192791710276 -7.94814811969809 -0.402631180943588 0
-4.27396534825758 -15.1841836295673 -6.42513157624563 0
-97.9416504208587 -12.1234972966928 10.1062842709802 0
-109.054069579334 2.35966089687092 -2.47757338191939 0
-171.771745021718 14.060980279652 4.88230596846769 0
-123.67614600174 0.163593899997406 -8.71196118513146 0
-216.064212188048 19.4935784988384 -3.43944768795297 0
-145.267047879598 -11.1880740180409 -6.78488751897811 0
-147.290403180379 4.22383165458137 5.68982127394191 0
-207.118310230356 53.204905327448 -9.14136937939443 0
-158.539770427868 -0.56878661609517 25.3820949439497 0
-197.87106706348 -14.7272456455785 -4.62716726800192 0
-44.2468344355752 -29.1627784899964 -15.1271860755056 0
-151.790139833404 -12.2779262224817 21.4324376425738 0
-45.4568665418172 -29.3651617694574 -10.8033538926965 0
-181.811713005974 20.1543511444838 3.10099401714586 0
31.2344987815065 1.30734964392796 -25.1316664096839 0
-75.7944180622525 -14.3612254300736 -21.1821037176995 0
-191.476554906381 -22.489414782572 25.5445290811794 0
-208.534816023588 -10.0315637326773 -5.31127632336069 0
-183.04877518201 -8.7137359008375 -4.2000782866208 0
-121.316726296247 -15.7186374101556 13.6266651379486 0
-202.595059916926 13.9592324452762 -11.2354570615123 0
-181.686697587689 -25.3984749948214 -0.460955555925165 0
-0.622827995492259 -1.04008757144171 -0.300935200890887 0
-155.620854586976 -2.40745989639366 -5.40016192771571 0
-173.700909382855 -13.6886662701305 26.4446054082326 0
-158.678057200728 -17.2735281880123 21.3435608896331 0
-186.840253623377 22.1475053461143 -4.96705725661325 0
-88.3732974188908 -2.34835456005738 2.12088914510927 0
-118.343116463364 -7.95465825100958 12.6799916438729 0
-100.242489822424 1.96668826304656 -10.2157265686591 0
-225.440934361931 39.3299795306916 0.743680450102285 0
-215.389365503014 42.4769423962796 11.4819126845614 0
19.3144663880769 3.6601628125254 -22.2418541798272 0
30.0692719300311 -19.7737072441686 -24.7235093967804 0
-111.182067419216 -1.69041494600945 5.96380850182671 0
-217.210511832202 28.7709705868859 9.2326271341567 0
-99.1813740800072 -7.64407192085076 -15.5195077351057 0
-155.850066427519 4.33697437961728 26.7691401518514 0
-170.737183701927 12.0994324419302 -0.102156245599521 0
-121.051648329301 -9.20092372188507 14.0616493971549 0
-28.1668095957322 -1.77034643844815 -0.654429818370273 0
-164.183820864339 -14.4171684999903 -3.47009937666811 0
-175.968622902874 -18.1947880126756 24.8738516249706 0
-169.579483767663 -22.5259799476538 18.8648203057232 0
-153.770223981294 -26.2176993630329 10.2805687300511 0
-27.7688281653529 -20.8053110209846 -6.90873209599247 0
-26.7890043236969 1.24478886166486 -11.1656072987028 0
-151.14625066276 -24.8873705921242 -0.406659979951412 0
-213.380868291237 34.9085580985608 13.6540242723032 0
-177.459083423514 -0.209068838880616 23.7163679355924 0
-196.08474178128 21.2141153125942 -15.5352510172865 0
-200.482258365714 31.7093120756448 -24.4818237692961 0
2.39855025344001 -16.0330956403477 -26.6155526850014 0
-211.826367933515 16.3511474600879 -11.7843286299041 0
-205.387913920405 17.7771412076841 -16.4478900762899 0
-171.461636931532 -18.7037765160193 23.0819951560592 0
21.9406418029759 -7.09155711063571 -27.5395419305102 0
-209.991343943158 -8.26205363311637 26.1573557469658 0
-188.243268247871 -28.2011330468753 -1.28875703384007 0
-155.180345000855 -11.1970871555872 22.0295231703605 0
-16.7226911852509 -0.411701870337438 -23.7601919736255 0
-162.104947753585 0.667691743892043 27.1037041548071 0
-195.231479015929 -31.1291253139282 16.3178369415379 0
12.9061728630941 -0.960600472491588 -4.6467966199163 0
-193.2219864569 -14.8299388951447 28.6934413881832 0
-210.324477232747 16.6282405792069 4.42000459044693 0
-5.52445475049002 -2.10342000822605 -24.7979967311458 0
-78.6076178013308 -21.2931920614596 -18.3308725168996 0
-72.0962013152515 -5.12074997925873 -19.4326049683513 0
-197.389573314749 -33.719727043073 6.15002850588491 0
-154.995114777777 9.21627757291191 28.6592665397455 0
-183.850055633328 -10.9882831643042 28.8980051085287 0
-126.128767414163 -1.03023613056172 9.74597054926025 0
-104.157301487198 -29.0790534285658 -0.625910916981313 0
-101.508984970335 -6.92030082647134 -14.6909446301052 0
-170.739967330343 13.3184277598127 6.93677398416164 0
-204.159274411857 -15.4572725813111 27.6048196937714 0
-171.028791919701 -4.52763696485134 26.3167529089905 0
-204.149591542343 -11.4862880787091 28.0105144121558 0
-142.63754961223 -14.6436722914109 -7.17609594967502 0
-95.9492252344358 -0.908408841356167 1.75985994158527 0
-215.74649466289 -19.0102973002958 9.62987040735863 0
-147.452009981486 -7.93964730716972 19.8284385960605 0
-186.178952531523 7.58413335191187 14.0550179473209 0
1.4775738911833 -1.95284177670238 3.04230073054511 0
29.5540680855356 -5.86711392349527 0.965712004181078 0
-222.833717792613 31.7876460109532 5.62063315812801 0
-105.462233917795 -27.7675175310821 3.10985839688033 0
-15.9795152053152 -15.7463792668831 -26.1527509316052 0
-201.632608735409 52.1955615135082 6.05967079911088 0
31.3143454797942 5.09896595666503 -20.7653008713428 0
-154.740336046149 -17.3496593237004 -4.41806551679608 0
-177.433622159127 16.3585558220771 7.25301479455028 0
-36.3369452810153 -18.1892713303942 -24.2600997776467 0
-11.4201917378563 -4.21951620043386 -24.8684608117378 0
-80.4405286759843 -22.832791806104 0.823851092911403 0
42.6067279297341 -0.508110174251027 -26.2016810929396 1
-171.773324172509 7.21330450485963 22.0873097784961 0
-36.3314513878064 2.39301422196838 -14.0087421166526 0
-204.717743630572 34.6586039487483 -25.6648758835932 0
-213.363665986887 47.1903513532401 -21.0266860028988 0
-39.823742231523 -5.44688878334307 -23.143109720956 0
-12.0045506707859 -6.48353710154558 1.56490278883512 0
-78.9179193019947 -25.6201931144482 -15.184528996724 0
-128.5871499765 -4.53663824358546 -9.54018422834022 0
-102.848382193016 -5.61701078346799 -13.8740105563496 0
-221.183044782413 24.5910298532829 -14.0604529831802 0
-216.959262510609 21.3998168426374 0.055146543916724 0
-189.973784390415 43.220375004524 -15.3301749268876 0
-222.092073282927 22.6356027946368 -4.23198168085917 0
-170.088028551995 13.4026820466546 5.19543662954526 0
43.4628236472461 -0.86354490966062 -1.06240319907638 1
-62.4082514535837 -27.5071740381607 -5.15217864516396 0
-199.926566526691 18.0133466550383 -14.1197925840122 0
-60.892623498726 2.61688272550473 -11.5101282814757 0
-194.951261518299 52.6192888571686 -4.02072711629982 0
-210.529996554091 -22.6774779863079 17.3529888645966 0
-74.3440526294869 -24.2620802777686 -17.0007537177942 0
-43.9718002323209 -25.7210784058978 -6.75560076045727 0
-194.446884375533 -4.66782315190115 -9.12520421835798 0
-96.537689967504 -12.3026412813869 -17.4778005266285 0
27.7164658003573 -7.46801269762695 -0.718776172881379 0
-185.409921717361 -9.02316779232799 -4.70597391827251 0
-112.018843775969 -8.1204906888538 11.4687905707816 0
-76.7667352516498 -29.6333228302242 -9.411127744501 0
-206.361970340276 -10.8488112532935 27.7072542559167 0
-43.2911215323167 -13.5632523748487 -2.6481970802437 0
-128.430063807217 -22.1567887556561 12.7995539315362 0
-197.265380916199 -33.0536700492801 14.2079511047656 0
-115.790248449329 -28.7205280495746 3.63912120225279 0
-212.882756487071 17.317472906984 1.30604134310193 0
-33.9347763996574 -22.8994008182662 -6.83962099736795 0
-111.494322047223 -6.66988591522053 10.7052153380575 0
-201.890429839939 -10.0994759272852 27.8068832342268 0
7.95904857861955 -17.0875868081055 -26.2905213386413 0
-188.925298583644 45.2503828925072 -8.89234055753722 0
-183.330938874926 3.77585383931423 -5.58439195428668 0
-211.311422415075 17.3222015210337 3.6573252840258 0
-205.273074859385 -27.8714007237859 15.1565840952191 0
-126.465786894779 -19.2800223052142 -9.00531286491629 0
-219.269165134253 31.3319442646169 9.75342480328724 0
-216.523941681323 -7.64412742104732 18.4709199069795 0
-52.3844723314202 -23.8886058924944 -20.3070907079514 0
-188.115484543261 41.0939498715326 -0.506153322722243 0
-215.250698923123 21.2652387426123 -17.1233379075338 0
-202.022063450722 -23.3247548142495 -3.96205521371655 0
-135.800862185959 -0.152872291578298 13.1415451264841 0
43.8327889172732 6.08877015768047 -19.1355265670855 1
-174.923215233379 -15.8341419073301 25.896000962635 0
-147.773007705893 -17.7194371747531 18.6105847133258 0
-200.23400713435 42.51778122856 -23.7376156002439 0
-8.71867882553885 -26.4184811851452 -10.885721818555 0
-13.432903321379 -24.2369803082841 -9.19352675284694 0
-29.6587182664114 -12.6472672044962 -26.0108036404052 0
-54.5998204695481 2.10605929174653 -9.8202746088716 0
-193.504719179302 -6.00037948603203 22.9984701651632 0
-179.849152244699 8.2076335872301 15.3116877547203 0
-209.879217837606 -7.71784060289539 14.0385659104093 0
-193.314478055711 29.7592171198433 -19.487684960718 0
-193.603701176224 -25.7553192037607 21.6440829739665 0
19.6760596455377 -2.29035447168838 2.71424896213155 0
-184.777263251747 0.604929845996901 -6.79687219624306 0
-184.266796151398 -3.77191066444007 23.0241041611685 0
-191.317963022969 19.3600399807778 9.01976041970854 0
-216.771449891402 53.1561773915121 -10.8620320879643 0
-21.2637368621968 -10.0178524548256 -1.74944465329279 0
-208.094549767247 20.1223769316623 8.09778252424969 0
-119.182256665449 -9.43660289886188 13.7089097410849 0
-114.036940997187 -28.6084071837261 -2.22522904026307 0
-83.0323455500942 -19.0108330631308 -18.7176816476686 0
-188.658625747886 -18.7231606006499 -2.31241860155321 0
-10.6129451683567 -28.5898279785828 -13.4497343729332 0
-164.209354227289 -3.92345540940302 25.7554410754394 0
-184.366562492636 -33.2339578791441 5.89817408201563 0
-185.078850174595 -23.3619873708697 -1.2947954494863 0
-199.781422548208 -8.49643583952293 -8.93233043654262 0
-3.51070180545969 -20.0947957776358 -8.62621111947703 0
-179.684285019771 -7.4705552446195 -3.40260879467207 0
-211.342522253574 -24.9224157054384 5.97694217574992 0
-205.485446756629 53.5965104047647 -14.4330649590511 0
-145.500876807174 -17.0034389806377 -6.01633986100753 0
-196.282197698473 -4.88472000689549 19.7200366090604 0
-216.799628271561 38.9202455883108 -22.2119091001738 0
-205.399593168274 3.10846804440709 7.34057603520348 0
-123.894403896255 -14.7627774455205 14.2014113141827 0
-91.3920796063312 -17.9580462466892 5.94748301781547 0
-189.97421711624 43.1845004141159 3.53537303713741 0
-124.886721167492 -12.7763419102795 14.5851841451068 0
-40.3733490956501 -21.4031182105425 -22.6430190158313 0
-149.311311729917 -10.6522648753736 20.8422626350415 0
-214.315495538855 39.1164955071842 12.8540900136537 0
-200.098574854277 54.1872894384441 -2.41526733472662 0
20.422329257299 3.06844715786778 -12.8535458773374 0
-210.504458662473 -13.4208380692563 -2.82061254132853 0
-43.3555139321258 -12.0297576124659 -25.0203342908055 0
-154.96897668091 2.38041747496217 25.067667439919 0
