-27.5056919972154 6.09841102408625 -6.83268348092027 0
-197.905630162362 -19.9829886642098 -10.7080230854705 0
-213.610001671786 8.16569848185747 -29.9776530804013 0
-38.5194828325442 6.86797187467956 -6.3663677244614 0
-168.636266638251 21.8153733844131 6.9471661223063 0
-1.25264344963 16.057607718771 15.0138164050829 0
-174.4927708246 8.08346213498277 -27.2573287980151 0
-217.27743759755 21.1489491900238 -20.0818817294943 0
-187.485612276025 -12.0182895292844 11.2004985180077 0
-153.415199166612 13.4150788357627 10.3580644182151 0
6.02147470812745 1.29167864555315 -5.71331905278852 0
-2.13827962067472 3.91064676508417 25.2807743045648 0
-212.260428601521 -2.44559823832365 1.60327966588084 0
38.3032014478001 -0.235855714052877 -5.67323607174686 0
12.0198102875972 15.4907008370414 10.184081609833 0
-102.408144559056 12.8301063153409 -13.0323649044535 0
-74.9686683873013 17.3885287340582 14.2177099423032 0
36.4771279910861 -8.74073234689075 22.9220518710931 0
-6.58448908549634 1.79724697803766 -6.26430952053954 0
-151.970280302706 16.7914624542668 9.24563349181199 0
-115.645440975645 8.27243915332653 15.8329599934607 0
-153.6393210384 -9.73390537902897 6.28191670860334 0
-97.1720286289985 8.05992892967731 18.7492729247555 0
-161.336909906048 25.2743222307848 -9.88204922549354 0
-226.017368103846 -7.51762324573969 13.7747930395262 0
-184.364255363662 2.3870288447526 -23.1351184569156 0
-179.10279929905 34.6790159132381 -11.2557144474089 0
-194.00947104491 -36.3444112196388 10.3475578404609 0
-185.462902264254 -1.73105392032598 11.4010546355287 0
-203.48304919265 28.4140466966062 7.60901819261488 0
-210.561525665487 -9.95190332931761 18.1900871081829 0
-200.72701997399 -17.3602471521418 -13.8416628037921 0
13.1237708258582 6.68012595779807 24.4164896186787 0
-133.918636599873 14.0745317922734 11.441813872143 0
-236.366934752731 -37.9985888524192 15.6980432903012 0
-219.297870206955 9.55373263191395 -9.6088250762896 0
38.27598218922 -5.58212440426004 -1.97308510773234 0
-75.1324671141945 -3.42841657702761 -7.15426530134699 0
-212.987614313453 -9.30401527875105 -8.49015451062905 0
-205.194402949688 -27.4524623685251 -18.4251493256626 0
-223.683220041277 -10.2111083454441 -12.9783479156795 0
-179.245607400882 33.7072452533095 -13.3833410038856 0
-30.5190185304171 -2.3582085623306 24.2593957238876 0
-215.161123239181 17.4603584811636 10.0269769318262 0
-150.226216443517 -9.80589609100086 4.67396702378074 0
-38.0831350348713 -4.75752643956208 -1.2017366899638 0
-189.067974291348 14.0022904005767 16.0957269453207 0
-70.9954589696284 18.4624264516781 3.81644900834984 0
-220.303102327927 17.7719478618805 1.87706747886357 0
-210.019648179781 6.55389234053501 -24.4155705126611 0
-99.4809653028636 -9.50942392200282 7.09313854717863 0
-88.1877920517418 10.8906311467056 -12.1993339041134 0
-171.111969788355 -1.40475802275862 -24.6117380574138 0
-113.423404089595 20.2802206800202 7.42020829455774 0
-40.7426978825375 1.96439686198576 -5.90490543262258 0
-203.553136835199 21.2743314762799 -29.255806039768 0
-156.667403892082 23.820331334375 1.19928598425011 0
-196.207030942082 2.13481066408523 19.9610527160653 0
-237.638432436951 -42.0775508134247 2.7833401763722 0
-50.071360524553 -0.407348208086986 23.8685889267277 0
-120.761618998339 -1.39860605753715 -10.2256520755798 0
-67.7291506262931 -3.32401959578517 -4.19897658133356 0
-228.21421399763 -49.8929049355995 10.3959690154801 0
-102.677418580582 -8.11988788024927 10.6848377616742 0
38.5829185740347 14.803081210535 12.3290212944126 0
-156.326059797053 -10.128971640875 -2.79769365957308 0
-103.048381448134 8.32764235406262 -12.1293360960229 0
-80.5380346710371 17.6345075930984 13.6559847607516 0
-67.7891215929528 14.5521808782571 17.7788558789325 0
-219.35191259801 25.3011624847229 -5.7695257057948 0
-223.349128226281 -37.6403149781821 25.5949469091132 0
-202.575943345841 36.7538102417037 -8.56118916149477 0
-63.5984039581058 -2.76515929130549 -5.68372307360134 0
-154.340863136777 -10.4879925432635 4.11266759485962 0
-15.4602135837655 0.424429113124119 -5.60849614243815 0
-182.724349633605 -20.6621508995942 4.14321648841443 0
-172.940262484551 29.4986079364123 -11.1702725273797 0
-143.308906579054 14.3689756065654 10.6741051407163 0
-180.426135112419 1.72588705133492 -24.0691862570661 0
-215.189940273306 -53.8711513829106 9.27002107433288 0
-220.794130627532 18.9203790357344 -16.4386237243275 0
-82.9329756588702 13.2309978055707 -10.1408362626644 0
-200.785030375583 -14.4304184880328 19.043896046646 0
-207.825311378704 9.96953015695099 -11.0074934187817 0
27.7017984364336 3.9191566054506 -6.23927063401839 0
-179.482571153212 36.429340985832 -0.400716827711385 0
-198.402836572669 -20.0163612022624 16.3772852471356 0
-200.653797320778 18.8271302090553 17.5999607757732 0
-37.1733714192227 -10.415782265486 16.8542663021056 0
-129.6610281392 1.08191533162693 13.2893161848624 0
-221.421893932832 -46.1250623650997 2.74837784234279 0
-155.807204755765 -11.1231808238877 -6.4731412891777 0
-234.021305545699 -17.8324792872507 16.3481630400513 0
-218.803655434232 10.0381911619147 -7.92111399088604 0
-146.354526427588 -3.06800405643172 9.58866193974683 0
-178.222623748795 26.1721938339126 -21.9885855432355 0
-184.25861271905 25.1764931779701 -26.4443905008007 0
45.4480274796382 -5.04285470750764 -2.68382537060032 1
-128.195197998159 12.4523919508257 12.6859989840308 0
-196.22360521025 -25.4417761654473 15.7102460168002 0
-217.889119494225 -52.6096238624215 8.41417555849872 0
-188.266992872712 6.88836915408743 22.0821648023423 0
-195.234538341096 -41.6791945963141 10.5557793688404 0
34.6777035334941 14.0834555233667 6.69529844220425 0
-195.118203490277 -43.9459483475515 7.42902992232972 0
-151.778738719288 -8.85249341458152 -20.2209031042722 0
-225.654018862728 -6.86160732024042 -4.04171027467591 0
-154.091878711847 22.4902784821788 -14.1067945157869 0
-41.9124642247469 5.09912683732462 24.4407046730621 0
-127.500294445761 -3.02246087418824 -10.4463132535475 0
-215.098582459789 -53.8501619650967 -2.17006801194124 0
-42.4835085014893 3.67402953559255 -6.3727039375936 0
-70.6113061343563 16.6890807437343 0.845735144383 0
-183.720036845002 19.6890515639338 10.3269486404838 0
-53.6917384612523 7.11792009990787 -7.40810434715005 0
-185.353692113611 -22.3015319093421 4.74663000901808 0
-162.609256052587 -15.9408994357649 -23.3556986736604 0
-151.959229120802 -3.11768964099283 9.58424678436843 0
-29.1718724316165 -0.0237931548910386 -5.7203251155028 0
-203.416541701914 37.10038720051 -10.7767086823005 0
-153.334361660112 -20.0345560330137 -15.0890115243864 0
-145.433354159583 21.8292964510494 -10.7222919263269 0
-179.19820351337 2.56111698566129 -25.4124539855439 0
-85.8601563080614 -7.7059931202838 -1.04159821551424 0
-55.5927149504982 18.8405253550433 9.42953334458816 0
-84.4739346916783 12.2062808460179 -12.4341367819695 0
15.8206691200451 -10.9563584405038 3.83947058547388 0
-161.113608987243 -6.54623398048301 -23.797452800653 0
-174.97170534323 -9.23940310769123 11.4830058224096 0
-173.045063034885 -9.57365230128078 12.0041730135701 0
-70.4555215779571 10.8142663989844 -10.4305912341357 0
-29.262468248502 -12.4077700687061 8.35602722211009 0
35.7020111680839 -1.74140562602803 -5.38539796254457 0
-163.002370022256 24.662404014793 -13.3307239164122 0
-132.643708129819 2.4537067358677 -14.3099612090054 0
-44.6127876106779 -1.3482517319497 -5.03810175327869 0
-204.823064332373 -6.55181860524169 -11.1696689812573 0
-189.349984263393 12.2702338290372 18.6271904860682 0
-217.337715161763 11.7931374883118 -29.6639452345802 0
-150.424775903041 -18.0593039197594 -6.39887433380536 0
-179.371824981225 6.64121413486751 14.6750331634534 0
-183.324856040207 -5.76678739521795 -14.8917182875013 0
36.9481662567868 -6.44959970222127 24.5232879786899 0
-53.1099562388653 2.39548554016605 23.9253831206031 0
-211.820014817463 7.0343553855746 -26.6124588976328 0
-155.341305931046 -19.6007648640803 -17.7964172641087 0
-136.530066231537 -9.07053711620185 4.3601869474558 0
-215.829121754024 17.477775913792 -24.6103443027543 0
2.49957245462523 14.3718187660629 18.1967848008515 0
-160.005911123977 -15.7113739433637 -10.442605560778 0
-76.6785559428008 1.38881908305153 -8.24236560067144 0
-182.40423475073 -12.0100088956458 10.4811685600085 0
-196.541217964228 -22.9107168306154 14.59663470772 0
-211.273308208934 20.106269564872 10.6990453275019 0
-44.8606257040511 11.9648273397478 21.1585327984769 0
-175.845066896623 14.0806718335866 -28.3896646498928 0
-188.756642695441 2.64571019685652 -22.9970163389968 0
-193.634187963913 33.3720584725766 -16.3097272649116 0
-210.697929520887 -9.89326190775109 -10.7659837701225 0
-126.440909462502 9.64564951081361 13.8075644951849 0
-217.463636842516 -7.85906573001436 13.3081027717044 0
43.4957048413092 3.32095221489193 -5.95822690137091 1
-180.177762535029 2.44113255500523 16.186050920269 0
-212.898043651182 -1.94242487840264 2.84543183096787 0
-222.618929916199 15.8950218787631 -5.06113720394302 0
1.96616354133169 -12.203764270675 16.5753950898575 0
-210.641764308243 -54.0968648108457 3.94404600129281 0
-215.915379573973 26.1916166386789 -14.4324094244487 0
-224.117618315203 18.5974046978415 -12.1816452751756 0
-193.124031043756 -39.9144175214795 3.89667322899443 0
-16.6109027942423 9.13276995676431 23.2934290937851 0
-2.24348960230299 -1.77844620853289 25.1737851592943 0
-120.104707990163 -9.0772032722941 -0.561116982315757 0
-211.180384699712 8.55863328335512 -4.68634638176626 0
-188.00803016913 10.52612402478 19.4171548060463 0
-207.765174073463 -7.93329855980178 -10.2989839679222 0
-231.574190409363 -15.0756801375806 -11.4914053700273 0
-194.540333608349 0.852835263943556 17.6407734881361 0
-220.65426417016 17.6661419950093 -18.264478135566 0
-217.09237802072 19.8741168361129 -23.4379272865597 0
-218.9255898482 -15.7239165623925 -18.0805552407211 0
-207.836202166505 9.22984321324357 12.7225152863528 0
-162.362066581433 11.8637177546348 10.0144843342825 0
-192.582728851022 -28.084192106429 2.69139688036174 0
-162.259670683161 -17.618026034438 -11.9395851536857 0
-231.838777370351 -8.99811206667901 3.20845170808694 0
-89.9310897115453 13.6970370144243 16.585468166147 0
36.2216466771764 -13.9408692081882 8.50254839626724 0
-203.957612140855 7.41763441228626 -8.36571647387423 0
-177.86981063955 26.3639291714589 6.12028077251109 0
39.4538217056418 -8.09303152825287 23.5158276112502 0
-191.441596047677 17.8326102416039 13.442947558856 0
-203.395766556278 26.3049250758088 10.2937111783863 0
-93.9253795450878 10.7257077677192 -12.5361563638937 0
-218.367706103063 -6.28196101838394 5.50114243626761 0
-50.7343888469479 3.76999877286671 24.0057656840208 0
-224.682630093293 -50.8707554009353 11.7462325365607 0
-199.074194518478 7.1721149194946 -7.39577603245638 0
-166.930783885625 -1.71195605846556 11.2210619904099 0
-167.097549559105 28.0193688079476 -7.21132768670445 0
-177.646249273099 -18.6317556007494 -1.08398134435542 0
-102.525706895483 6.13348934516013 18.2442933302015 0
-217.301867435057 -30.3525767668477 -20.8284457438374 0
-168.552926578481 23.8417422371654 5.00295311023038 0
-25.5558256868492 -1.5549276868806 24.6936577920695 0
20.6979156772024 -1.54318295792112 -4.93140958346176 0
-209.383745359591 25.9815188502969 8.51619498065043 0
-209.728372460709 24.2371319752228 -27.9597666230848 0
-203.86426960816 -0.512369326770823 -8.98653019902515 0
-170.735432062139 -13.7181535064939 11.2465371870441 0
-221.261857335848 -6.22536103748071 11.0470388064614 0
-211.488960094891 8.05916492971453 -28.2247446424821 0
-196.576120842419 -42.533919676127 12.1522766626932 0
-188.422471652418 2.14346767948422 21.8071179398028 0
-132.06295766822 -8.68675791074947 -2.51868341566448 0
-122.825518205694 22.6638861865162 -2.12161380535601 0
-211.956135484293 27.9691852506415 1.09393455188761 0
-61.4774695463967 11.7532860326949 -5.56208509884512 0
33.6589976159483 -10.7130816101513 20.9754929312769 0
-191.85667533702 -35.8832385704887 13.0726902529999 0
-200.793379020787 -46.0878383018664 13.0314539115799 0
-77.8003823652741 12.9105245261921 -10.0429689195601 0
-66.5976821556368 -9.5018328175081 3.40566461176261 0
-195.171257718106 -30.4270285248093 10.0019778664927 0
-71.3740354731933 8.78049037740277 21.484334606505 0
-198.164008351632 19.0310995183225 -30.1104061583125 0
25.6570601460064 11.7193982953008 2.35538202190256 0
30.4919064275161 2.53203814722512 -6.17214579005567 0
-190.751135641731 -9.65720345212782 -12.5693502250335 0
31.3231320451305 -13.2823918759342 15.6338869212641 0
-174.560308739426 2.22657784037153 -25.8684515272461 0
-161.756239982716 -13.0518144818884 4.62271136514699 0
-64.4795195783597 13.7049210257626 -1.93523100388653 0
-233.441841329391 -12.4039149430497 10.3805420135146 0
-190.698883455623 32.7630329261237 -19.3726718280233 0
-192.14184291656 -22.9456627807441 -5.49739537387532 0
-209.476891497271 21.9468360777745 11.9304023844868 0
-204.905655704368 -8.17050524353531 16.3590934772255 0
-112.313795112139 1.8896567023453 -10.5610474223329 0
42.9302709647491 14.6423304664855 13.6706138662116 1
-191.171638549152 -10.0764494524098 11.6617156042719 0
-12.1896634508889 6.37628023237222 -2.98819386755232 0
-195.326069677009 -31.2100483876512 0.575341557176203 0
-151.531465615104 24.1099202944993 -2.53866540314288 0
-164.174545786101 -21.0383756722346 -16.6928862584907 0
-20.2714635882567 -5.74261255928373 -0.506128015328157 0
-129.828006531304 19.7807227273535 -9.98175678536537 0
-205.510783262512 -15.3890468211564 -13.6985158100579 0
-150.119891809729 -10.0132946083892 0.819002934760338 0
-182.345244145363 5.14018297853277 17.2081909398637 0
-152.110605266836 -19.9055737309621 -7.6608186328336 0
-105.635695367016 17.0788219560857 -8.04669818312258 0
-126.260440445798 -0.640246801535397 -12.2096919278928 0
-210.693642408498 30.252506419732 -9.65389776733862 0
-174.892921448807 -5.86572945015566 13.098316015798 0
-50.5052290334379 8.85980790729962 23.0673555067916 0
-27.6492729141081 -11.7895067559191 15.3156465530983 0
22.7139406954892 -10.5278646995889 3.02855108407654 0
-209.130029833962 32.4129496901778 -6.81352722856523 0
-219.914068581138 13.1055365126498 -24.8469604033816 0
-85.422994056257 6.23962541746256 20.6078558654932 0
-188.03698617844 18.7418621708159 -30.9312744877493 0
43.9389832178155 -5.63168396166946 -2.07606274602813 1
-179.683284845913 -2.46638874878572 -19.7704820595031 0
-212.33040707382 27.4059686269484 -1.89438607917925 0
11.0043193023964 15.6984445577984 14.0805802213744 0
-200.756684806475 23.1295901788133 14.2462939331363 0
-91.9256473621862 0.480046571025516 19.5325156835296 0
-198.826622881658 -34.639363626212 -11.8672754336208 0
-98.7137990465206 -7.80966988633142 -1.42381451735004 0
-185.728565632209 33.6665306038583 -20.0476967375786 0
-64.9620175519023 14.3657596483372 18.1338207447345 0
-197.148756059871 7.62814115082222 -27.3423679311128 0
-161.514521224836 -9.11781520619427 11.1053120776396 0
-130.073832637809 10.8657466049972 13.0262627793596 0
-145.409880465277 9.4614185190163 -17.2109459044156 0
-57.8595453379552 0.361397060221927 -6.75733641606557 0
-216.858978547596 6.22897155725924 -12.7189555193248 0
-52.7812759575486 -9.22709926289601 3.15487470777762 0
-137.619866053116 0.0199176973940903 -14.8061517497837 0
-70.5176890502985 3.99463968206913 -7.9477847275905 0
-212.689302390036 -23.5864234287428 27.3581056369275 0
-210.890072169625 12.8508749506707 13.7300953238385 0
40.309407625291 -9.91588977726231 21.8873747682742 0
-124.21166608719 0.300412833406771 13.9824892772556 0
-154.063598922186 21.6936046504103 -15.8668126847345 0
-232.179205861318 -46.4983955636881 -6.39073707871003 0
-170.965742077002 26.5050630595758 3.25305573985818 0
-114.300019137233 -7.57095880450839 9.62786628964716 0
-159.010980839603 18.9612043941502 -18.8908745713365 0
-198.171128249224 -4.87955627399338 -12.3690282221812 0
-193.599824382047 -33.203185048202 15.6455294042607 0
-206.619877812775 25.3479336034279 -23.9090117773834 0
-193.489270908032 -15.6653761567537 -10.7097685034299 0
-61.3609945058096 7.76395714439703 -8.78686247189374 0
-4.44048987143029 15.8281156018822 16.1448213443387 0
-143.167517431632 -9.93291152474398 0.30819650552527 0
-155.88398183218 -3.08726700736621 9.89280583490325 0
-33.5364916675816 -3.43919573340498 -2.99170928055499 0
-119.494195664974 -5.62799244025394 11.4887097772768 0
-76.7742954444139 -8.71856960287552 13.3928672154849 0
-209.579367571959 10.8889246554937 12.8736991465496 0
-216.809983806839 -45.0498173982246 0.98618601221341 0
-223.407602188541 17.4856344457554 -3.939001799816 0
-197.760617334726 19.072353207707 14.0324997583361 0
-211.062034778312 26.5575136337841 6.34461101637915 0
-73.7887181440583 12.8340004942296 18.8668260542353 0
14.3132486876604 -12.6357353368781 6.47496643320811 0
-100.478249008184 -7.06217122186433 12.565283184107 0
-189.159248342065 0.17239746866198 20.930022009289 0
-175.432820177193 28.6587244424962 3.85155599648218 0
-171.658078214254 4.26364701158444 -25.5011843355999 0
-32.0160978335188 -11.3984208156377 15.8502615705517 0
-233.020133098471 -47.90304724653 0.609178265782514 0
-114.165111012969 -8.72966985084317 6.20686189396756 0
43.4177880530663 -10.6911106477455 2.01396947793627 1
-108.792832233669 -9.21990566458645 5.14179785763239 0
-13.5083091590534 10.8669089630695 22.0326517379393 0
-222.966911594609 -46.9322000460442 -0.0810904811684734 0
-227.971792977452 -42.3314584608175 -13.1683726056471 0
-214.050428262333 -3.97923780258332 6.46790132116859 0
-200.230409710731 8.71298386208018 -27.9899948988552 0
-180.637101112799 37.2883435775608 -10.9614536697266 0
-172.096684755446 -7.28592798090331 -21.3661604423951 0
-220.118810038127 -46.8987607110111 20.0489566221609 0
21.7314980380914 10.4939482234494 22.0797899711359 0
-197.950652098048 -25.6872433224112 21.1773353634011 0
-83.6797284227532 -9.15773867248156 2.00270049414369 0
-138.51630230524 -8.06309127568396 -4.50944695993205 0
-107.34271823286 10.5031438745479 16.3408035532138 0
0.924082746983079 2.03762877000192 -5.71144575238452 0
6.61809745444251 3.35060420562316 25.5167217362002 0
-179.969290847078 18.1888795319964 -29.3753801428835 0
-198.640055811693 30.6902508700203 6.23367956979018 0
-199.717986579166 6.18985911090862 -21.7899582072652 0
-141.745244863493 -4.26034478405969 9.46179341966105 0
-207.224506441555 28.1843997428385 5.6421661962118 0
-180.175271158658 36.8903921775102 -2.56914381153917 0
-194.629952137719 5.27795598337022 -25.7211788585736 0
-57.5524140826339 -4.49053693983968 21.4377244552728 0
24.8791074219385 15.0771753088228 10.8626782805208 0
-202.025147282 11.3054796730122 -18.2722716239703 0
-179.286652573726 -9.80948176086614 -13.0370487468781 0
-217.352459359702 11.7610778966253 8.97422949419881 0
-203.741516500077 -15.1675008849189 22.677320364185 0
-207.025825757342 16.0903642338321 17.0079994982389 0
-197.661861665346 24.961097515671 12.6072570761718 0
-24.1248336106574 8.88034238478878 23.4453554691647 0
-198.397601331393 11.4641851210237 23.2558396214889 0
26.6497006299189 -0.745948037366515 25.5473683053106 0
-162.381448290646 -10.9213481359197 10.8242416065168 0
-182.40663378722 37.162230252072 -13.2522226313175 0
-147.364113922384 14.9918713493685 -17.5291097779562 0
-218.392572100368 23.1124855212082 0.906707749541984 0
-219.15139033958 -22.3164622775571 -19.9150780493365 0
-149.510283114395 -14.2937836244348 -5.71168365401349 0
5.66077383429321 -12.9579509136437 7.57414081648654 0
-48.0247593710736 -6.32400649363279 20.8568400471723 0
-203.813301619998 -35.6822315842006 24.0453511376099 0
-158.970204325826 13.2517810822024 -21.6778711086273 0
-188.749552944565 24.855285010399 -27.1637015390406 0
-198.454877443986 -40.4444605324249 17.7916843623255 0
-208.754255205798 -24.2883600725044 -18.937794999654 0
-215.318261314924 -17.6610059561582 25.721198726826 0
-144.452531078189 -8.29132875945906 6.03606964611761 0
-220.439808337488 6.78755134335246 -14.7150504706763 0
-230.238826813342 -8.34993080576656 -3.58104546094794 0
-145.60333501784 -12.4461734964875 -7.47839569397222 0
-176.067593878196 -10.5637538655454 11.1561307553799 0
-216.240734419111 -10.4843626737648 21.0915342927559 0
-116.927196113197 22.4035369982722 -0.266702390785517 0
-206.627015032379 -25.1516294373185 -18.6182383978914 0
-219.650130917532 15.8197809500364 -22.3384887487527 0
-208.689597178935 -53.143516256406 1.62209735919335 0
-181.339256285705 7.50247609495353 15.3783997719354 0
-223.176585485283 -8.30603330868455 2.5268969869509 0
-136.338410769808 19.5397267216537 -12.0889158845012 0
-204.770680313195 32.7855053065852 1.51841143617362 0
-205.307231981293 6.4109221178313 -23.4868110284388 0
-193.322441569635 -13.7307298572316 -11.3060399260224 0
-222.712326725145 18.1864487266697 -7.76085117571031 0
24.8917728002077 -7.67312177150009 0.250359230623816 0
-202.534192507702 33.7434889589811 -17.3755542188289 0
23.6618739740463 7.25302460259267 -1.64817602885013 0
-82.9198253591639 -5.9020089029737 -2.47308062469697 0
-210.615026055502 -53.478674770339 7.31522514514568 0
-159.329570024622 -19.544488834673 -20.5158520107559 0
-110.11301320683 -5.41860988232379 -5.47939025450933 0
-92.0849204532407 13.33791338433 -11.5899945676455 0
-230.68369935895 -10.3089309498151 -7.01478104371624 0
42.3786472258171 -14.0832462104109 8.08831261698118 1
-187.723770776279 -19.437723190738 9.73044220918393 0
28.9012128330751 5.7416791126973 -3.12658566390523 0
-188.005951854042 34.4860434481743 6.05557172495892 0
-216.341556357206 3.93182723826168 -26.2544827721092 0
-58.75253288981 -2.57771877111495 22.4744123395261 0
-218.792914531807 11.1964705464836 1.32017088542291 0
41.2973696971083 3.90510069939599 -5.93375905463304 0
-192.214100514256 -37.06562265169 10.7396464627001 0
-30.5764511249689 -3.75082214128601 -2.60224062342651 0
-124.211233166712 15.1002434601123 11.8185960316029 0
-136.698517787531 -6.07883606781041 -10.3848208556631 0
-236.02832669847 -13.7355088814764 2.53332503816974 0
-209.463702669472 12.6495453115147 15.3684289157072 0
-203.361922273236 34.7391243899152 -14.8291229474866 0
-173.348521714605 0.312113946416809 -25.0292461558942 0
-202.92815536621 12.9642099411516 -30.3670797021153 0
-192.340840053753 3.34214998056482 -22.4134005704349 0
-207.578785323243 -39.2098857912462 24.4018795652231 0
-22.2269043893681 -8.84848606298614 19.8577918779378 0
-190.929664570089 30.3468181964443 -21.8812519002599 0
-205.779620377261 29.2378308607164 -18.7055293119546 0
-181.102271965741 -2.37235719686014 12.3521056446724 0
-199.820261973007 7.38452433138866 -26.8206287771443 0
-156.767305603993 22.6709697514985 3.72873053284599 0
-208.921853086016 -10.3574297128602 19.1439621812327 0
-200.879371868893 -2.38887040763394 14.842703375897 0
-205.733467033026 27.4314294431702 -27.3723822156973 0
-199.918990698104 -16.6817000687685 19.1890392569134 0
-210.28789351551 31.2675105740964 -8.14203836825682 0
-194.789073743015 -26.3692755262772 12.4378556267125 0
-205.978741778148 10.1597453842124 -13.7718213809143 0
-201.654682543302 -15.9068728191759 22.5188304327522 0
-104.716388710748 5.6969702449856 -10.6619825291493 0
-92.7778419878817 14.7376698437223 -10.9420721773301 0
-223.338469711419 -50.3593993151032 -6.42040942800084 0
-131.550648633987 18.6299522386972 8.49813269690268 0
-184.18567904842 -16.6829814125268 -8.61104119350129 0
-235.18315684023 -13.3311113904361 6.44617147150716 0
-206.226568853909 23.4049062017392 12.4811781169178 0
-18.3947473365579 -0.828809381644542 -5.18471526809091 0
-206.563063649722 17.8222685170602 14.7763926341537 0
-33.2492907029515 6.97274679567722 24.0854527033046 0
-118.658395485565 13.1180190760348 -15.1763171265546 0
-94.8483577569412 -1.02152591771172 18.3841025925492 0
-32.4643093361761 -9.21814067195773 3.12540822368865 0
-182.313197445353 -20.5391308274401 -1.23325380090244 0
-83.3937145187056 9.87402159951963 19.8450608995996 0
-155.733953110235 -10.2599092958149 -0.594371990344154 0
-207.893929148226 34.3245872914045 -10.4611171018931 0
-216.411553400498 24.666103004338 -15.1050228609572 0
-198.173971162903 -2.01399972755854 14.3042604936053 0
-146.143139527555 16.6296260068501 -17.702321515947 0
-82.7758403917958 11.9236241504306 -12.3585437790648 0
-151.041543103624 16.9333728038695 -17.7818934865404 0
42.0032265381448 -6.54648358048508 -1.23323284083453 1
-200.037938023016 -14.3138164137725 21.2505544964917 0
-80.3325536472582 12.8612121085792 -10.2237297003177 0
-161.297661318466 16.4723451233144 9.27501798190684 0
-174.429498045326 -13.5567870552838 9.47038293983846 0
-195.736917629158 -0.862857719403793 -13.4581566045944 0
-81.08989522251 -7.66769761829157 14.3142749698356 0
-164.249811626531 -17.5536789903049 -13.0120973300604 0
-185.034554307045 -14.4194960687285 10.531100280247 0
-193.228377064633 12.3380277610248 21.6604022623637 0
-231.346104842319 -39.9063366972863 20.3593052526187 0
-200.947765857958 -4.45820935097168 14.7089775754547 0
-46.367691560086 -2.02990778685527 23.6870954486503 0
-147.775665424384 7.75824793167562 -17.6164628711247 0
-176.577124389409 29.8428205117628 -16.1956169515018 0
-220.237599884485 22.4810973138574 -15.3665034406444 0
-110.869008095486 -8.13294286119324 -1.44660617350122 0
-105.766115953112 13.1156859582723 -13.1293304932758 0
17.2685356481795 14.0972316937645 18.141068534979 0
-210.428054569485 -4.59156161520695 -4.51747077884369 0
-222.342452067939 11.1631452809229 -0.0574963111539582 0
-120.635410077289 -9.17977467496277 1.55911050347557 0
41.1410168315412 -8.44455861875487 0.33601218319044 0
-58.6761186898901 2.4059514993457 23.5870828883661 0
-192.841600668545 -0.457693142005282 14.9029029065342 0
-185.505320756511 33.2253892094466 -21.0328677810718 0
-131.475686470557 -10.8874208090296 1.58676766284345 0
44.9086659787805 -9.50877208414366 22.3011483312857 1
-231.025825816698 -8.60426049666561 8.34832793914875 0
-179.343278947329 27.003445162392 -22.2341022987732 0
-201.742857441678 1.71655148744404 -10.1184275964124 0
-43.450784074764 17.9797070655497 13.7180751816174 0
23.2597159945797 5.37674324729829 24.8676602061792 0
-108.166651660765 2.8911170749447 17.5598348219205 0
-216.463553546994 -15.6800906205051 24.9517339136658 0
-203.068268842831 -12.0643007617464 20.4606081761995 0
-92.0131289594755 18.2538530516629 11.7952766616637 0
-166.62396901741 11.3817468759778 -24.6698076551848 0
-193.210061657567 14.0786491941446 20.2262934210359 0
5.73436809144703 5.19025488868101 -3.66047162881472 0
-207.021230585795 32.0387587516152 1.91298943985714 0
-180.568146105175 5.11515078598898 15.9392206321661 0
-144.566982613922 23.7861703988732 -3.158821783272 0
44.1575011515708 10.3964370906046 0.324397514895944 1
-10.3794497094717 -2.68525073928617 24.7996784778263 0
-193.584980090575 -0.958596505652383 -14.481738794778 0
-130.167124502754 -1.62829164938983 -12.1956598683572 0
36.4613116915198 -1.59561813805561 25.8435826490676 0
-114.11034034229 0.456295989617016 15.7655241085877 0
-92.5701569560562 17.2661441860145 -4.48031046686962 0
-215.864729227991 -53.5089321013924 0.748827146522061 0
-189.263816978039 -25.2421967825408 4.43453073994166 0
-34.8598259698443 16.0038201354936 17.5698610617882 0
39.2360397686725 4.06124694109666 -5.8347197274588 0
-162.75222302947 19.4527658924259 7.99440060125249 0
23.8328948812686 -5.47925934920293 -1.49752438137386 0
33.6715629409379 6.7139188522241 -2.43255441051749 0
-82.1351015279266 15.8756534203868 15.3775112837386 0
-64.0589485929913 7.76652600294817 22.4299081616601 0
-218.253608554827 10.9038235512998 -27.6582220790384 0
-143.044330948881 11.6296222165549 -16.8338789403918 0
-147.916147759147 17.0241730433586 9.19047969778931 0
-220.925555612584 -5.09891015131428 13.1856564387537 0
-168.443055281936 11.4204153492513 10.4395471816956 0
-54.7579970784977 0.795785479924248 -6.08228445008397 0
31.7590535343194 1.39524105750771 25.7704679880427 0
-224.453226034854 -52.6350881820808 6.15911905430777 0
45.4160242749492 -0.417134487210836 -5.11626184503806 1
-90.193799307055 13.3364864879399 -12.223201698262 0
-6.56020747248429 10.0921100751639 22.6308864009338 0
-161.864033037726 26.1987883073563 -4.3072684540311 0
-72.3011922196244 12.1130992928536 -9.68307433462488 0
-167.394059522851 -14.8562637943408 -3.63743670928457 0
-235.198169295402 -38.0246823642187 -9.40397988845428 0
12.3269089178178 9.29476212013162 23.0458259143865 0
-194.444648862323 6.88898645209193 -27.2526698235952 0
-101.916624547729 20.1408820682926 -2.55765273901522 0
-213.326314743395 -53.3901488436065 -4.34959642021377 0
-225.590508969189 -8.70407160111673 -2.30229229131767 0
-100.241229414637 -3.43054050044759 -6.06281616455495 0
-69.0018631194396 10.820524336863 20.6950492360755 0
-167.947694408617 9.07652163071215 -24.7416502468344 0
-134.611463406629 -10.2183584445884 2.33996178891131 0
-171.691977772979 6.25435325091741 11.9433215113966 0
40.5884144980238 -11.7884529965511 19.6330276269649 0
-215.463355851183 27.4506851601492 -7.29240254971865 0
-7.12367246031677 6.80230873458264 24.3242015144521 0
-193.643466691618 -24.2928368465135 -5.36761719728916 0
-186.646078563058 41.0698512151239 -7.60180731297548 0
-80.310026176173 -5.83391719465939 16.9253430388898 0
-181.228371005293 34.9242228123338 4.21956887446351 0
-216.300537980166 4.44657745488455 -24.1861315555072 0
-146.136005863198 15.1514098706739 10.0746089965707 0
-187.33177212681 9.34517187365786 -31.6235102891203 0
-212.208581178249 -45.6642139781643 21.3497143202014 0
-227.24446094882 -31.3601406788083 25.6610381323542 0
-8.52096162682452 4.09111935891421 -7.1463586122017 0
-219.305509609358 -49.1609593355759 17.0084322219844 0
-178.280171042419 -6.29841568861625 12.2332473829991 0
23.0107600206145 1.1442648555962 -5.85856661628855 0
-196.492407343754 -7.39529642079205 13.3672421016361 0
-192.335852595088 31.3731250685256 -19.9054288887388 0
-112.729744656757 16.7612076734796 -10.8154001167965 0
-80.4744102600569 -2.59768259763404 -8.33630160181596 0
-11.5967931748972 4.85591564074014 -6.99568500806724 0
-210.046292369281 29.9218835028104 -14.673678916044 0
-162.934922417055 -19.0920993313043 -16.3682654268794 0
-198.636982205644 35.1287012665758 -13.1979215328279 0
-10.9628422381353 -6.06549626327598 23.2250152004059 0
-149.335186351547 -7.07792823642879 -18.1926288742245 0
-196.290400396621 38.7903069067592 -5.07561491504562 0
-83.4058931760142 7.9952157502217 20.4721434668164 0
-71.6188810592608 -8.88108703422129 14.0215978306927 0
-193.918935927153 34.2047215818966 2.72642510679334 0
-71.0420007337444 1.84583172797243 22.4497848888233 0
-75.2724324538258 10.7430313412156 20.2001584978228 0
39.1782596200772 -13.6842140071544 6.97977891880547 0
-174.497137113448 32.7814660623094 -3.31524697478662 0
-112.8417713754 -0.400251635617896 -9.47296662948956 0
-223.541787118107 19.8147304243123 -6.55514577795002 0
-211.62372684237 15.1864422696511 -29.2893585366218 0
-175.77371939563 31.6553287241288 -11.4353188666991 0
-76.2016290423231 12.6747763256225 -10.4403880949151 0
-148.292797678044 -5.31608130555572 9.02340204375616 0
-109.530053746773 4.6594736465595 -10.8251153160179 0
-134.450280002198 15.1885198733569 -16.0607722081833 0
-185.644088298447 39.0345793608518 -0.977236965246443 0
3.25159978321478 -2.14718539977317 -4.90984764913853 0
-104.201724605409 14.4832021041146 -11.7796301802351 0
-17.0259248299532 -6.21170706626671 22.79895235087 0
-213.592210590279 21.0424603028168 -25.629570983537 0
25.2318764170548 12.2596856877836 20.363312144926 0
22.955949688921 -3.89527621891982 -3.73024351805704 0
-228.308232350896 -9.70652943772159 -9.02492354888353 0
-196.857097146459 -32.0704234922584 20.1902953781922 0
-68.7484740877216 -7.26123698177512 -0.121346283539556 0
-236.047676507474 -18.3297752651897 -7.11982335956909 0
-207.591410687698 25.9469966003981 9.67654016201057 0
-102.944199263904 -9.10652265024721 8.19864068009944 0
-194.600916767183 -42.65055498366 4.16482092190136 0
-237.277613248251 -23.7587979329093 15.2107089801336 0
-166.862594204556 6.13384226228898 11.0267532498956 0
-141.041965602698 4.49676436776974 12.074564908636 0
-198.140243269607 -11.340719032403 14.3673579890363 0
-193.521903176081 -37.4424301565713 6.97002945410521 0
-113.365822106778 -2.71613876596332 -7.91940873124011 0
-195.498179667668 -11.3184169033948 13.2242161294447 0
32.4935035246273 -5.47602658068597 -1.97723985377221 0
-191.048027674709 -0.492716648708582 20.623543726473 0
-227.903781815325 -7.65723567907302 -5.97073507637751 0
-49.4208427124599 10.1293055676166 -3.09781360718764 0
-162.479878844885 -12.4400098906451 1.62427627224759 0
-82.8700594295278 5.89102372168375 -9.53937275698593 0
-212.305070949768 19.0460893751986 -26.6444457139956 0
-137.455073162226 23.4694633484813 -2.31703337199959 0
-114.329557174005 20.3976524735707 -5.61591905417125 0
-148.595933762418 -11.3030887368046 -6.84056350019523 0
-205.216843405323 -33.1738586251384 25.4322507075907 0
34.13194190819 14.8688616421452 10.4804053897306 0
-197.027578595867 -36.5100790059201 19.0591761418547 0
-29.5096970164669 -9.74567748779813 18.3403169490405 0
-86.310976756946 6.01968494558452 -9.98442792279445 0
39.7383301900898 -10.6321974455959 2.2131851040812 0
-198.047660264551 28.9648358849493 6.56564819427674 0
-212.538471556254 19.7376335387592 12.593797490696 0
-151.90360498059 -7.50285665198996 8.58328763950752 0
-172.202293317402 21.8139478425375 7.64018173152788 0
-234.393939729955 -11.8532171391591 0.828875729571841 0
-170.319651553273 7.85195831208373 -25.5077858170837 0
37.4936789675514 -2.53485960922368 -5.32231121436341 0
-117.840956220015 16.7095565818207 -11.7015547653313 0
-208.574821579662 -41.2164159828641 -16.3669808082788 0
-31.6648868844009 0.304404389956678 24.8586863826877 0
-203.132898485666 -46.7179881224421 -7.44111955071548 0
-197.425232767404 20.9102988039806 13.3849221908343 0
-176.309659369164 -17.8165080254768 -5.73885325901035 0
-224.824462871274 11.3410560094768 -11.615222003635 0
-141.410104805128 19.4458960125215 -14.7252901719422 0
-56.9039051386718 3.56141820162879 -6.77821440896715 0
15.7854022356278 13.8132063768733 5.80806283321077 0
34.9161079187908 3.0341167140317 -5.91040938722997 0
45.7266426743333 4.24181858395724 -5.96104454688383 1
-218.05543815166 22.8402935836799 -18.2863753851364 0
-194.909397789698 -34.2944015400271 17.7784238546256 0
-202.621289049731 35.96326621542 -12.9048916878166 0
-133.081166915863 19.0009716950821 -12.1835117977986 0
-20.1579221029045 9.29736131968664 -0.219841771209926 0
-169.107017036045 -3.00760945534474 -24.5633677247442 0
-214.04754016106 6.1629583280383 -28.4843576452765 0
-199.797458404203 -0.349329885617526 15.1377065022105 0
-223.038083064904 21.6862620806888 -7.28693542455963 0
9.16006204348756 -13.6892395164014 11.1131254694337 0
-160.609786638858 -11.7839288999452 -2.75267461671056 0
-14.0276712864079 -5.97535104195384 -0.341971869750435 0
-44.7564435026205 -5.90128843526061 21.461041868498 0
-240.660034342713 -31.3545994141006 -0.478024776830562 0
-200.434082847106 -28.8302511163563 -9.34552290815113 0
46.4118452825904 -14.0478661837057 7.30030998554042 1
-157.097867307962 24.7985825310152 -1.7608002542077 0
-216.376371253696 -45.7083794262794 -1.73186220724917 0
-81.0903881345925 -8.84233673763042 1.41876895166329 0
-199.508161920255 20.2300466407302 16.1088213058256 0
-66.4533710899538 6.9982720386382 22.404916681865 0
-105.876835955903 19.4943671458866 9.1593120227816 0
-123.240371413634 -8.94542459601722 4.31514802650841 0
5.32993014695754 -12.1678024029767 16.6345820155987 0
-198.612640092093 37.9382895801402 -9.23604503478212 0
-223.662691551229 -11.9560214774937 20.4174169072746 0
-214.522116116899 -46.318619416881 4.88904191592899 0
-210.969634335394 -0.789030116686887 2.89293128030392 0
-198.121997381802 26.425475368099 10.494637636201 0
-105.225625865679 -1.39130708020183 16.3778198744133 0
34.1492906261503 14.6818141285776 14.7376470201767 0
0.674385949482924 -3.0011707234333 24.8414876253572 0
-193.501956973666 -36.9493919674433 15.5413577886038 0
-173.425492410378 -1.6231273163142 -23.8960888688497 0
-74.2272314726161 12.8332557334052 -9.72906993877336 0
8.30613971478908 -8.00088370752502 22.1084862611583 0
12.8907733019504 -13.6223217243778 9.67189640261498 0
-149.603419363511 23.7094412921115 -0.0152991132540558 0
-205.798901615231 -48.6909200017492 -7.04709274874134 0
-177.04813592833 2.72182007564771 -26.2081659999915 0
-125.762711429653 -8.18282329839437 6.06074876862099 0
-27.2482115800964 -3.88609166568432 -2.25424183633945 0
-85.676256942577 14.2757727311386 -9.42630379827226 0
-203.781172952333 20.6033578742447 14.5603590265719 0
-187.479117487786 -21.5560739446567 8.9369502663545 0
-15.0443803808656 -2.60853202417063 -4.65477121000775 0
-164.966395046637 -7.04689816621383 11.9370653323744 0
-172.037512163609 3.99788987384601 12.2829107359127 0
-187.024752365126 3.07010055461811 -24.39592980296 0
-96.9429278631672 21.0734034162253 5.39267950826597 0
-210.202549481523 -18.297064607179 25.721350120996 0
-231.075648658342 -42.6353927692629 -11.5851678954736 0
-213.4324561076 -7.90461016101455 18.9304420232041 0
-194.851754374268 32.2206631755058 5.80005871461429 0
-116.462816998859 6.09505391199082 16.1369515100168 0
-111.471000534973 12.7703215530355 -14.3657949597834 0
-212.506783088756 -17.9440519948911 25.7401041455137 0
-169.324841625005 -15.8463457175838 7.47082197398006 0
-151.415381736905 -0.563025302998042 10.0922114579022 0
46.5298317030491 9.21180046317071 -0.90884963690411 1
-166.540321532295 -8.04387307368283 11.6783839498231 0
-153.884510612262 -9.62770951501838 -3.52939536533554 0
-212.594169767008 26.5918132376245 3.11983039680413 0
24.8523141252342 -12.4137250253981 17.407805225716 0
-169.006882032463 27.8636068538871 0.126334947099892 0
-176.500744348803 1.40239949936048 -24.9271930055642 0
-109.004162714459 19.6830607493582 8.71689338069536 0
-220.244054624746 4.04393201633362 -17.1215405000488 0
31.0712758416486 12.3404680665687 20.1122575451666 0
-198.528279658234 3.65169438258579 19.1893722076669 0
-185.315893327817 19.2384525799778 -30.4845120783034 0
-202.06110372024 7.75051786787317 -26.6170596035852 0
-200.232218536408 37.483344438837 -7.70478095656222 0
-89.1382797456227 9.39521311870382 -11.4617519697053 0
-125.083396348768 20.9133182917342 -7.37868335439663 0
-148.655800424581 -14.8501559619141 -14.1914886397088 0
44.3217902450549 7.34309170100546 -2.37782963001543 1
32.8538247583256 -4.84310625749664 -3.90698000344756 0
-69.1005829351906 13.8147008104388 -2.97564020190772 0
-59.6283414007122 -2.94590387542176 -4.04206702564548 0
-110.843790888798 16.5498077284504 -10.5705157505125 0
-204.970465864734 11.4160252831906 20.2197688181552 0
-195.811746235143 24.4748455513703 11.6782577329569 0
-212.666552011389 9.18054428767073 1.64598167850852 0
-56.2773744948382 -10.8178940689185 6.26403658662481 0
9.5903052259476 -2.60286825647553 25.3364453676008 0
0.3897150707094 -3.8801786429571 -3.62167349195408 0
-226.485363087125 -13.3750000123338 -14.0783112524633 0
-181.018927564112 -1.04234206942465 -20.5751736105449 0
-81.7818517352479 18.233361008023 0.336952762625708 0
25.9689062850174 4.80635512154968 -4.41473587775069 0
-227.182387757294 -11.4380937533732 -12.0285371947593 0
-176.623833820235 14.0835346807055 11.2271779053993 0
-172.653839878887 26.4433175310928 -18.9451354282454 0
-208.005196230743 9.7445461745418 -15.6873249914634 0
18.3717410748087 11.6901186386798 2.47546950617983 0
-225.42558105256 -49.8534920131938 -4.13097503360174 0
-22.0171283609748 11.9854108066582 21.35273421515 0
-208.327385894821 0.344933223729242 13.6792756724805 0
-224.27430477714 9.88950102309298 -21.7948617283261 0
-215.480385142874 -45.3358057940251 2.86814436033549 0
-199.63622224907 -47.2994579490905 7.42195694588673 0
-94.6787173964819 -3.01024720606458 -5.90755041584966 0
-116.617196916031 8.63551292553895 -13.3695326684285 0
-200.381861758975 -42.3311996414373 17.6868262537789 0
-5.25854283705511 -12.6690041637192 14.5384082603632 0
-93.3760389645901 10.2877813893863 18.5297317822551 0
-9.18776071919867 7.46463367390152 -1.59179487953682 0
-237.38566358652 -42.252139167499 6.34701314925786 0
-79.3859402931475 10.8219147323756 -12.3925593378951 0
-97.6494725727111 5.42206206470363 19.1706651124414 0
-207.612546086097 -15.2219171423638 -14.3297731889108 0
-192.143066426103 27.4375165755166 -24.8310144896518 0
-39.8415669253826 3.95299445652696 -6.71471690001776 0
-226.735040607483 -50.6066308373237 1.81198556107042 0
-10.5628600649853 1.01126995109544 -6.04542020397538 0
-176.877421594727 -4.82683189806472 -18.7350561501067 0
-195.248462167252 -17.4790286111073 -10.5786279600829 0
-231.897330154288 -48.7745427936751 4.15550572964341 0
-223.628272401918 -48.2972970082906 5.90340115661243 0
-198.858872819965 -36.0230326566068 -13.5396917178368 0
-180.062132569484 24.3897463796478 -25.145738678075 0
-215.522425913067 10.5887763539936 7.80748147402228 0
-207.157799576013 26.8950917336659 7.85030795418934 0
27.0991858252652 -4.66111102874904 -2.59874110663671 0
-85.3675146601341 14.8835299781941 -5.79087813966795 0
-192.28608363152 -26.5649063832859 -3.87193703281367 0
-240.412302560958 -31.3113575041019 9.18256159161575 0
-197.813700690135 -41.4278817941156 -8.15846325708142 0
-219.005309747451 7.20539410799315 -27.6215575564353 0
-186.598257742747 5.34978280976297 -28.3806278263027 0
-212.916179560214 14.6226215673163 -28.4388657034654 0
-221.706241069563 9.77803451830194 -24.6590761622707 0
-233.878213393338 -38.8994018350163 18.5533437397887 0
-232.265265049281 -46.7672582739383 11.1021159779253 0
-159.622440764647 22.7409040367055 -15.4538697043986 0
-178.764803921007 -12.0546314556368 10.6683555318279 0
-71.636105759685 19.448623232466 7.52535975459917 0
-137.064223374111 -10.4639742974181 1.5141824327841 0
-190.947556434289 6.49679192622085 -28.3517449734462 0
-227.420606195308 -50.3436088779463 -4.5602888909266 0
-236.23308790237 -25.2498169785469 -10.4988875917571 0
-179.039408787864 20.5798565824592 -27.6639489398754 0
-201.473096719177 10.9194718581863 -29.5374989854918 0
21.4630391164918 13.2834935934872 19.1477530811016 0
-193.049663429487 -38.4408754078692 13.1311335782435 0
-212.904900086031 9.55270849353931 -6.73289436907471 0
-87.5503188935013 0.00607159940223652 -8.26959148948917 0
-180.173529211699 -5.64248340151017 12.0262091377563 0
-158.652849933653 25.1797223972229 -7.39282096474076 0
-181.057296427355 21.0789325867612 -28.2988384643974 0
-119.553544907475 11.0686310932896 14.4027420795125 0
-188.501206467067 7.5640262308066 -30.311969289084 0
-210.736957315356 27.7494710095121 -17.2851345170492 0
-52.5243423658358 -10.7903477181273 5.9738603304447 0
-210.948253644278 28.2629053992783 3.3846708252609 0
-23.4877676084751 15.2396913464896 18.5001735273124 0
-199.747218119769 31.1017022435521 5.22802146095766 0
-198.711471653503 -46.8857671759734 5.12396982908786 0
-108.811638728492 20.9051667210764 -2.8980799044876 0
-185.520791625021 -3.1536684210722 10.9221737360723 0
32.8666386752667 0.926797590313657 -5.50921131888057 0
-29.1809712196719 -6.40415648260604 0.205379722792994 0
-183.235898533473 26.9343357404706 8.08001978242588 0
-210.747827206251 22.787078469073 -25.1982379653429 0
-8.11996343055397 -12.2863125894203 15.5019106624438 0
-55.8646193191559 5.5262278677393 -7.43521461729006 0
-204.946356076975 25.7737047956917 -28.0798828539635 0
-50.0767413576907 6.28501252497712 23.7537992733889 0
37.7180315366732 8.16421794348837 23.8705398919153 0
-158.828484972153 22.3201826029314 -16.7574508021757 0
-174.212684759649 -17.6483624071147 -2.47419666454988 0
-184.090197300772 5.60306525971859 -28.9302335848342 0
-220.994366297215 20.4635131100662 -15.6897944296507 0
-190.661666341032 -20.4004579450686 -7.07181107924323 0
1.39139663643774 -0.123875807563555 -5.35676890587183 0
-145.746635127584 8.02623144776756 11.5921571968486 0
-199.650204750364 -33.0811458164376 -14.0868648664495 0
-75.0992021854105 9.73705600210965 -11.0374371143816 0
-90.9611325635703 -7.90293536527792 -1.13879891947047 0
-93.4132468665659 3.95342716556356 -9.21090005414952 0
-215.37836774318 -6.83370119425856 17.1079331032117 0
-216.536344600207 -53.3076376857078 11.2611082228951 0
-194.389428609237 -19.9124589642799 -9.00906173504485 0
-143.33757416368 7.33354868723506 -16.4170848846402 0
-187.405230810082 -6.22248801866736 11.553478350543 0
-21.3372586268329 6.31720755475313 -5.08800043115726 0
-145.751682505993 -14.2677263172027 -9.76440038796228 0
-176.339987181726 32.7310493238907 0.549598470751313 0
-199.331295281988 24.1590396035453 14.7300879331155 0
-79.0166839997739 19.0146235522009 3.02991850210944 0
-122.52375590687 9.92036373408952 14.3495322918568 0
-162.301911863076 -19.2154615269248 -15.0577572243317 0
-209.696746384856 -25.6701913983777 27.7175206759791 0
-235.929822172003 -13.9699547753271 0.12720733700195 0
-195.367114410412 -32.522879369072 18.7918531452703 0
-222.564800341863 -52.6371336517807 7.48035591138763 0
-207.630714924309 -18.319198649841 -16.0253199941683 0
-213.487319439129 27.4131109612047 -13.9818183782013 0
-24.3149697080496 14.6201112785889 5.06832563633071 0
-27.8670882847796 -2.71496688254958 24.2095551776056 0
-192.914487733367 -7.91556725072812 12.1671593661465 0
-97.0602674543078 15.3383638754725 -8.87746881377329 0
-193.781148982972 2.44906482202252 22.8054487381578 0
-189.094039652397 -17.678159654795 11.0406636697462 0
-196.457254384091 4.69501998472187 -14.7150337953473 0
-215.339666798967 -5.60949638263962 10.6276137700149 0
-206.694952367979 26.4487530540742 -28.0040553814222 0
-119.090127847267 21.9989364383051 -3.68500325878357 0
-156.420442736323 -18.978711513704 -6.59194372791572 0
-126.655519891481 1.52565068502986 13.9619434248398 0
-210.950249774474 11.5411023431054 11.4827162523646 0
-52.1982126262424 -1.63732622873176 23.497344396849 0
-186.504723617145 -2.25852360354067 17.4232585584178 0
-11.9986106744262 1.78621589310336 25.5264508854081 0
-219.396467604913 15.7659447025549 6.21783048193544 0
42.2729062645687 6.36762513465529 24.8142828920468 1
-25.7208872702622 -3.60975205114964 -3.32337746532312 0
-184.612811113067 -2.38486764755424 16.415868833442 0
-234.609995896707 -12.6302904880492 -2.55753295279338 0
-214.130785399917 10.545966618313 -31.3514139711119 0
-90.4169159807822 1.48742520562785 -8.53585870166262 0
2.56711063282855 2.2255028811489 -5.91563437536938 0
-221.221282597086 8.23497824581212 -12.5564495641337 0
30.8689081220608 -6.03983618562622 -1.41142016735888 0
-209.881992435169 -47.6397190218564 18.6914494357873 0
-92.2687714973057 7.1121450671779 19.6627431149259 0
-192.08550680815 -36.7275295549728 -0.658740329813963 0
-164.157985274441 -19.3268467287976 -14.5446975629502 0
-215.869601036419 -53.7853947052857 2.79885398358207 0
-68.065492673013 10.9614048987015 -9.07553966404579 0
-230.775582046597 -7.64397098310382 1.91121642710003 0
-78.0338942849833 -2.10883462667226 20.5655159045267 0
-203.810562808814 1.08758486961756 -7.54837624245135 0
-44.7817222293211 -12.1364381867033 11.9167380022316 0
-111.254685115107 -0.51795911406451 15.8233152021023 0
-97.5061443303915 21.0026510547434 1.8112354017007 0
-58.3504916803501 8.4870035026622 -8.09955000255649 0
30.8097267884902 14.1374375493082 6.82938410827182 0
-84.6681023970024 -7.85463156146962 13.4935204072957 0
-162.476718058053 -20.4059679447924 -16.2822958342806 0
-185.625615790506 5.67259536917473 21.5751243672772 0
-191.583579194804 14.9505772668681 16.4096354877447 0
-194.475434469024 24.1168893517003 11.9950942679342 0
-193.916497215701 35.7556760482854 0.469379847688466 0
-108.036194095603 16.8333632495703 -9.02396115027418 0
-213.419432839201 -1.31222763505562 7.88164331752586 0
-200.331279007647 -18.2157403046911 -12.3929197639105 0
-149.863656302885 14.4940908383761 10.2000353544404 0
-219.5441370357 23.4368358230789 -5.33955148727483 0
-187.402946352951 14.1528197032461 15.3210654704137 0
