195.449509722506 22.2947291722737 28.7226747904772 0
197.099681222705 24.9335474608328 -3.81956795060315 0
122.746179374418 14.8693091213439 -4.34329731908381 0
174.530780533563 3.50379293742011 -17.0877521227159 0
-27.5869030309615 16.3210186387601 -8.33630318821634 0
198.851027685447 23.407925886337 13.0336417073409 0
170.309981675267 31.4284884320154 13.5240100187954 0
197.151368066871 11.9399451087754 11.0013306090826 0
163.763158436974 24.5700045697989 1.32491554826272 0
-20.6554250677397 -1.27373708661425 -22.0159204164173 0
113.658425440914 12.5184890470643 0.200347360674262 0
170.280838097965 -32.5583622534746 10.4830211330633 0
204.340074276985 -17.4578713006487 -10.3510286660427 0
148.194842854531 -14.8075865891447 -14.9245487347597 0
158.730324686953 -14.9897441218684 -15.8427796948172 0
97.1713734197087 -11.7489785137559 -17.1725342433084 0
100.173551158359 -11.2808854079446 -17.6742908819927 0
73.5309624466806 7.12953332893588 -0.649175134443774 0
44.4994767797947 14.1046139560738 -13.0422279191459 0
180.179503840789 28.1443619869863 -6.04239842697184 0
173.977531436224 32.9841296822922 15.2607057843941 0
171.371278089973 24.9097186137795 29.6404028009514 0
182.896834305398 24.1489343612414 -19.5432094237264 0
179.945366125002 27.1870079979603 -8.85582890744157 0
187.790190676339 -31.5997973978977 31.1865103158743 0
140.404366979543 -9.51427164197314 -17.116969542524 0
195.129084741658 -22.0076565560722 31.5124739823228 0
-1.78375485250503 -2.68011979112884 -22.5472252981833 0
127.492321414909 13.8166326322434 -13.3591056212724 0
160.663485236702 23.1288086265406 8.95687590346496 0
41.6343469471687 -9.73215626362753 -17.9102325216231 0
197.267613418759 14.1397237312366 19.4202033302626 0
111.139949674484 -15.5792113972614 -10.4749072512726 0
142.663946234761 2.72196974242184 6.53140275087569 0
57.3976415859457 10.2455604648723 -4.26254772532918 0
184.06107809612 4.97258827956279 19.1784778060203 0
84.7412525946875 1.63744139481079 1.64077004043029 0
104.87878680846 10.8056117629328 0.449815903869763 0
1.26745193891774 13.1517611921484 -19.5097637361452 0
192.9681619112 18.7112038543647 32.1236726153303 0
145.768439177036 -17.2394837347723 0.61486126840023 0
197.629436358023 23.1146828253479 24.2938020643261 0
61.8983515854085 -0.0495332898863876 0.519454165727946 0
28.5797502835546 -9.13215559317711 -12.3249711864139 0
196.580115042274 -31.0589542540989 -1.01451442800024 0
63.473904727833 -11.6339606252447 -11.0656623004851 0
-3.74805828273668 8.9921111360405 -3.34883200274167 0
190.131876633199 26.1160040143897 -13.0275435910312 0
6.53524189671959 13.411089894066 -7.45448285211635 0
183.592274423251 24.2025235793989 -18.7192382350638 0
134.276081607695 15.6215749626166 -9.283716066826 0
166.913356101686 26.4660214366827 -0.141184308069324 0
60.3127957772828 4.53384628310587 -23.165436004133 0
-3.77148025417707 -4.15671126979636 -21.4683494308065 0
39.6989986276597 14.3771914088804 -13.7871124104236 0
183.76324854954 -38.5165855554125 8.49828126200189 0
189.672446418723 19.4855090404708 -18.8679374533343 0
50.3369999508293 13.0864827613467 -8.90664373723781 0
181.651972724096 -37.2855539712687 2.85110830636628 0
192.956657168165 -29.9564628571172 -5.57576411554853 0
196.082298743279 -27.6078497304834 -6.65064975084065 0
72.1426403164986 -5.43733286034005 -21.9592203358503 0
46.094880592611 -3.59169174700189 -2.4382362376196 0
208.822949796303 -19.0718628917563 13.2486326585826 0
188.465265943322 -35.3878504369713 19.6867113719838 0
187.95142455666 -13.5523971731489 27.4640309552797 0
184.18338386576 -19.5410858343318 -17.4507048391642 0
69.0806775592696 7.40105579619627 -21.8023498828453 0
0.967552307055397 -0.710400158811955 -1.19401860042482 0
173.49763415538 -16.5116397856026 15.6502825329125 0
199.693299131241 -2.56524723339751 -0.358596499077555 0
99.7014371216978 -8.34109470907225 -19.928993300659 0
113.526726597658 2.9971893414773 3.42219937092406 0
192.178489076943 -22.1076975497471 32.324468010734 0
158.322949413668 21.884631394936 3.72968592659818 0
173.820238112679 16.0364509849305 33.7293855301723 0
127.679172686658 9.45075552060336 -18.7647410067792 0
184.403166470963 -4.49200517096706 12.9523144961683 0
66.5798789607683 -4.64894710925549 -1.62914013410552 0
173.256968444176 -11.7933323674585 14.5721264392554 0
174.272311103655 27.1751296319568 -7.65541234837401 0
189.049384691922 -32.308786646414 -4.03662423111753 0
137.504950517025 0.426749415272181 -19.9190911382609 0
71.710473403375 8.26664814498441 -1.52382192513042 0
184.095282544302 6.23510475602171 21.8561750291807 0
198.412528491198 -27.081432971777 -5.75092628701258 0
24.0930111963191 2.97329356317609 -24.0670455339628 0
30.3484115055938 -9.69051896787298 -15.6790230612782 0
174.788841252975 -17.4331383183041 20.4366948219899 0
171.888218427635 31.6171973698315 12.287131862217 0
175.429799081043 24.221573635767 33.0615100365081 0
14.9228662487736 -7.63685836381051 -19.2415666448118 0
-29.2168878066384 -4.10479422500198 -6.75570013474577 0
58.053585872157 13.2266427071268 -14.3350221292203 0
201.701750961364 -8.73743829805683 -11.7559837124527 0
162.812965214438 2.11364995041709 10.9115106403971 0
128.33260630942 -11.4665774069767 0.301809576449194 0
191.665287544945 29.2571591594296 5.71982112177654 0
78.0933584642212 -12.2237796396186 -8.28126597412902 0
183.792671312187 28.541573282378 26.8655373563886 0
195.974559551853 26.1541031535072 -6.99698941612156 0
197.022584971605 25.5198993558755 3.94056879828527 0
167.613983405404 28.7566339301376 7.66493988343766 0
169.676573495825 10.4128142272822 -19.2506478845261 0
41.438030672927 13.4584940631441 -9.59972166382346 0
-40.4369936018874 13.7921374005263 -19.6056629737774 1
-7.95278942077151 -7.32100570564942 -17.1722621818903 0
48.525572984904 -2.84286766485144 -23.0566604274014 0
31.9292710465692 13.8027008317154 -17.0493088635946 0
61.458617070733 -9.46047837060406 -7.04972307952322 0
207.573818611099 -27.0467232273193 18.0404058424492 0
122.886121527929 10.108438539157 -18.2526238868865 0
162.517729520856 8.16386232952411 14.2615512417123 0
193.88942837492 30.0725057197652 25.5588591454114 0
194.75480858645 -16.9930459922489 -15.9375849916365 0
165.712144915675 5.73049338508326 -17.7246170682523 0
204.783090859394 -23.9553690495361 23.4425994330909 0
165.836913542886 12.4136028193943 -19.0554409055454 0
194.793665226174 -29.3170806939662 -5.30934424435348 0
173.457544911713 -17.393673334288 -18.5250271133703 0
178.804806510761 23.2581877687618 -18.1687399600739 0
158.357509527911 21.8689587653191 0.00515941143506127 0
169.713956317386 -29.8137978494327 -6.93276386478717 0
3.25562705520645 -6.81914438260593 -10.0589261050583 0
189.473533766205 -31.0442524323356 -5.70122062836975 0
29.1189271117657 -8.03882709276656 -9.74418612128175 0
12.238372951302 -5.01558484765482 -21.7275525440185 0
166.117074521755 -17.3801749111823 -16.329984977697 0
201.122149153726 -6.80451295403462 7.85707589500218 0
-15.1078064083313 -5.88552532532573 -9.69082594223095 0
175.453105135396 -0.928596619625266 -16.2225877461369 0
-32.4403385347601 4.94925068605895 2.59243298452614 0
74.068686814379 12.4158473705923 -16.0231943366537 0
174.827155324165 -8.15455853040385 14.5565332459959 0
88.2215268115189 9.63523881901576 -19.6099751136697 0
3.65594337727819 11.9571857876034 -5.81936667505031 0
207.051072495306 -16.6573702724405 16.8836268153986 0
170.546753639222 -18.5647517767381 13.2157267245484 0
6.12345001124516 14.8002395237722 -17.1814857621008 0
176.052352286543 19.9543788187256 34.7047634877079 0
183.697024094302 -37.4177459171026 15.4122975075869 0
-26.1952429414369 -0.639125664383511 -2.5426079779586 0
6.02531044678479 6.0712967580962 -1.53822572208696 0
202.503960502511 -30.3928515098165 24.7944578110111 0
141.739863712728 17.50465823718 -2.35680955605042 0
172.496908234579 -34.9698745273389 10.2150515229496 0
174.978845708875 24.5711060888246 31.4559407823694 0
146.198279912024 -0.548051883667093 -18.8795515533946 0
118.069359606369 13.0084238722121 0.716596707511126 0
16.8816878905901 -3.93723059329522 -22.5723194773801 0
-35.7753230177544 -4.69554237550068 -7.86251117729516 0
158.876449658064 12.6761322265701 -18.8985159542329 0
188.454045738474 29.4838590144862 15.3855617424689 0
155.223539665087 -13.1980283405122 -16.1010667028229 0
-38.863599216506 10.0495898014217 -0.302943721287316 1
114.055563875254 8.4062890708584 3.72757119010636 0
-4.64204165482077 4.33078736594415 -23.8445527222403 0
208.554728635148 -27.9583398340819 14.6077101208958 0
176.761226634582 -24.0981957481047 -15.0366906039399 0
184.435738073613 -35.544349388668 19.1583883054751 0
-25.7898921012855 1.12433884276422 -0.298843647064188 0
-22.6507212913104 -6.19379622067447 -17.3862042208387 0
159.329047822505 17.1778325991996 14.7649919280377 0
198.086810568128 17.8086279765395 6.38782829249274 0
-4.62931571629275 -6.10217306921626 -9.24605717731771 0
14.132877589201 -3.28942096025596 -4.50821772035266 0
39.6377530110666 -8.73172265482217 -19.3286990587758 0
112.938947912 3.65002686961585 -21.92800069079 0
181.969708744788 28.3218746243229 -5.19141224635387 0
176.411625680163 31.6940623536678 7.06928179382749 0
121.026583964335 13.9773108724719 -12.038612438428 0
165.616075796158 -11.0297578752307 9.71110235779227 0
68.6739053638515 -11.5987149815578 -15.9430559744159 0
196.724672800659 -10.3207409979069 -17.9940332779174 0
194.969196395682 -11.9023038294735 15.8009452645103 0
171.327307060348 -19.9889575887376 14.1169958288557 0
147.830112848135 11.6518667103727 -17.697144282093 0
153.959480535119 -20.3006037861821 3.01789894086852 0
-41.8333341548472 -3.59637135098106 -18.1895150103893 1
180.017226614538 30.5648304937764 20.0339145430185 0
197.759811381204 -27.4549545978593 29.9492298500397 0
-3.59091356213845 1.90533289321684 0.779649300346445 0
164.846448072748 8.73833524352799 -18.4387889562295 0
191.106441873589 -21.3378652696028 -14.5654078686545 0
158.588005988971 9.68198680245369 13.4655723324727 0
112.902779561818 1.33537745653982 -22.0975345115559 0
182.446332670417 -14.5700778380457 26.2749720697323 0
193.13413667162 -35.3334468431174 5.57003878493562 0
201.096158634632 -32.7670099463199 16.5281317237742 0
49.7241153613744 10.6881002640498 -5.1070379915058 0
183.813664457857 -23.5646178357887 -15.1985234750912 0
166.201148713311 22.94385896437 -10.5503272666791 0
180.028647025727 24.5003300825908 34.9029180737202 0
131.027359794536 -13.340581025551 -0.753925022287204 0
132.641890910197 10.8989900844187 -17.7416244585562 0
15.595993264839 -6.63225259223357 -20.5163377032131 0
25.8149482640229 0.827839578092384 1.08487805330958 0
208.068052723875 -26.9609544317699 3.05315209292612 0
168.664674533273 -10.1971763237828 11.3047661277251 0
160.487033090494 -27.638938181327 -2.44608142732763 0
89.8885063914849 8.82846871306964 -20.3243307139621 0
125.033092108664 15.0897223036641 -4.32783576030524 0
174.06758145632 -24.4788834039514 -14.0830642978357 0
197.280944808209 27.733993937407 21.1698420118307 0
78.3654804184575 -9.31362309095118 -19.4239170981142 0
127.034423454558 11.7773980566418 4.92518610983983 0
176.290261398932 -25.5697555280528 24.8710932579081 0
-37.6281855387619 8.58190391307849 -21.9517693977668 1
205.068924742733 -20.0473318319764 22.7701538910886 0
103.332117033228 12.522989942416 -2.08529671989858 0
161.897382407719 -15.4430908227242 -16.2244118669839 0
69.0985315660973 12.1804964351565 -16.7175698789028 0
60.9018810913271 7.77817775728105 -1.96699430751771 0
185.966001112085 7.86629764378672 27.4837835342119 0
17.3072931312087 3.93737275976322 -0.405403740927122 0
195.183869931232 16.6095070566248 28.4789341816591 0
186.687418664756 3.77106111301424 17.8321273452886 0
188.764164000289 -3.98673320220402 9.98229113354977 0
192.117702538573 21.5967545565536 32.8498070166297 0
163.810537582473 3.19001462144756 -17.8911807787043 0
134.364567323313 -18.0909359042567 -9.05053717403798 0
58.808358302494 -7.25626820381255 -4.80059119734425 0
138.903535377187 12.3452777962963 -16.6309674686985 0
3.68477321591893 -4.28937447660426 -6.1099081834178 0
195.016161932381 9.77755151733465 -9.41557625201794 0
137.132342236235 15.4286080385175 4.15128024633303 0
16.6479309309729 -5.7413484850256 -7.29906859478163 0
155.932663358097 -5.1518800549084 7.1451423128479 0
168.12371174133 10.0541157129127 -18.7755787953121 0
177.579482196942 -31.7098569426869 18.5895810825346 0
175.221962400592 28.0915006202942 -5.24336275546364 0
174.235240199939 -21.7853284992539 20.7181187384711 0
159.781148329743 -2.83562556123948 8.84478379613191 0
166.946602806142 -25.0978654924975 8.78180112628692 0
-20.1423013810118 9.64321775754822 -22.2774942724203 0
187.519978070144 -35.4801879263033 0.594926805724092 0
203.818539605357 -30.8511620581378 22.5958762448437 0
1.70371906555736 14.6302868237001 -8.903820741676 0
-16.3057042856539 -6.60624493610549 -17.2911047687459 0
167.160726187401 -16.1678170760592 10.5807044029672 0
196.972064400511 29.2494056067073 19.6316449610701 0
182.804491253102 31.8229875865562 11.6258676375421 0
167.547531420918 22.306863669744 27.5507802524931 0
193.364269998904 -17.4346031293653 30.5111809346864 0
191.406726559191 -32.4009874579591 -1.31868700461126 0
154.556034464858 0.209931236188834 -18.1130459781319 0
41.2953944934151 8.94490069148876 -21.5698312161572 0
184.307857086474 17.7865235055328 35.5981126924709 0
-7.3394806479205 2.37544275239649 0.883907554108567 0
-21.6058100521356 9.81403921981332 -2.2770902120729 0
86.9327322801061 4.71092973564227 -22.568314062453 0
17.4792904685246 1.99586775109655 1.18281392893705 0
125.758367493867 3.74779730785422 4.75769910444084 0
69.6876501536532 12.954376895263 -14.6116335477607 0
30.5983336764427 1.89023098073314 1.2383242376425 0
168.736499052779 -33.74209528621 2.59608923264014 0
208.398107268525 -22.808620500255 15.2342999186669 0
109.07928123507 -15.2875380743382 -11.7248010468874 0
5.39799176208687 -8.0524682155051 -13.9435712316211 0
8.95914763938518 8.07883305245118 -3.34569083863085 0
107.735746300874 11.3475757315024 -16.948164934707 0
207.283464669634 -22.136535120293 -5.3788655404067 0
110.524835351498 -13.7777387682339 -5.58894868002706 0
180.187377511486 -35.8392038971318 17.6675898644418 0
170.758490666746 -22.5996943621957 13.5923191242501 0
153.928710977304 20.3467504330151 2.58538865724413 0
189.179664252848 -37.3298169870627 5.43765579986204 0
167.031689113406 15.4149178403087 27.8759122636816 0
140.215667877932 5.48137204248869 -19.6651428599604 0
103.475117514565 -4.35133461603944 -21.6358547004076 0
168.605986775557 7.33295280551748 24.35043051869 0
41.953160612441 -7.82391476486573 -8.03869176318585 0
196.182663734473 -6.51839698035755 -16.5113957981657 0
195.926946695392 -22.930564057507 -11.3350086920964 0
17.1302549283347 -4.24288799885373 -5.52406751420759 0
-9.24735793064859 3.10915241224068 0.982360150154848 0
176.798179600264 -18.9214712544347 24.1686990816708 0
202.142118688923 -14.5602696684458 22.3516723986503 0
-10.5140945076548 12.7320595235779 -20.4103114299916 0
183.341436152638 21.9686575282228 -23.037517700635 0
186.347234501171 -14.7677684305866 20.7971206033399 0
77.7945926551036 4.42738187970016 0.939627421859574 0
75.2857231252266 9.29512649420658 -1.96365591878527 0
-7.50646159774482 -2.79074599572744 -4.64106499176122 0
151.626428688545 13.0317570943659 -17.2721715236278 0
177.925994669148 27.0651848318876 -9.28478146716486 0
198.504629830268 16.9926744121376 16.2668161616576 0
137.821316120449 -2.55199758327204 4.71642210412202 0
11.8532867224333 11.2403549137819 -20.9291949574353 0
175.321248209038 17.953126171699 -21.8709251071341 0
185.036430188944 -8.87236355603925 -18.5514780397585 0
174.967114024743 -2.22574136524343 15.2387567198826 0
19.3969959730635 15.2377511094923 -14.1279692340369 0
201.050318923517 -33.267317646141 22.8137301567548 0
7.66085823707315 -4.35790175583454 -21.9144790963876 0
87.3677309181025 6.59531111296844 0.959032000976287 0
190.135540373051 -35.9172239968449 2.98250213643383 0
59.8220736835886 4.58445498174192 -0.222797980225287 0
191.828400470556 4.15629787988867 -12.0054505053845 0
154.005259838351 12.3755725315705 -18.0080125668398 0
150.994918589414 -0.920942493391986 6.91746860853006 0
35.1661634136875 14.5561923439375 -12.6925509723064 0
173.343135644539 -24.6057740199522 16.1482419491797 0
46.2679833289891 8.3147092644341 -21.7922963073962 0
159.341978362964 7.92254077900175 -18.9277252155853 0
196.301870271978 -2.86884639703067 7.20599671959999 0
176.507024484914 8.2934305610441 29.0903935109735 0
192.327988557266 -15.7646423161452 29.3195371087158 0
165.30130088928 4.0996839384755 -17.6005740564335 0
91.4743027459606 12.4067364115952 -15.5344453003995 0
133.962114382563 8.07054477972101 -19.4068268230436 0
109.688023477289 -2.06357212394083 2.18862912156014 0
198.827474213922 -29.6924857071817 -1.29240886787671 0
91.3698260742444 -11.8840950884995 -16.8748135290708 0
118.899474110155 -15.7314029393316 -7.75771060434865 0
162.243405909672 -23.1205866052286 6.29820247771633 0
162.528900457168 21.3514982406549 -9.71549298331177 0
158.040700726151 18.8971085917884 13.3030063270706 0
195.249936395165 -26.9642960488438 -7.79019997399636 0
154.764796123473 14.3347754259968 -17.162705124606 0
155.558647085565 -17.3037888956699 6.77424904328097 0
188.909411985374 21.5813813569826 34.4654392718056 0
35.7505155063966 -6.11798202570623 -21.5549489933267 0
145.277304021909 -20.8226524337302 -7.29584762717824 0
198.523746994316 23.8371856519375 20.7979166470354 0
13.2131397783431 7.56970943846763 -3.05252312394152 0
81.6531210989878 11.8211532196201 -4.34714233258145 0
161.804203901912 -26.4526021086935 4.16425088394031 0
180.235580707306 9.30553865461989 30.9952031011958 0
98.402219218879 12.8588761887687 -4.01151297768473 0
179.292239447424 -22.6702722338313 28.2306086492381 0
-16.2672004207902 10.6218215408219 -3.44049354717979 0
191.886249172539 -18.4049340568666 31.2491596743566 0
165.021777345893 -16.9395993037966 9.69341337268673 0
196.995871437319 24.931308625588 0.13123993944306 0
196.546471952878 8.717936922956 9.11330256879407 0
176.217288881514 -9.33598910586029 14.9879810854362 0
189.019457839613 29.448731700177 30.9343085123959 0
92.828744383217 10.6953571093358 -1.19106306319711 0
125.04821528804 -9.60201591442437 1.06533566041028 0
161.941029444746 -11.9770604706064 8.83505233118296 0
194.361734450306 7.87238942212896 18.5091426593861 0
184.48321371961 8.15741992809955 28.7003236075647 0
176.100362068707 -27.5953406068357 -11.3628443209726 0
177.451915093403 2.30265619514143 -17.3268300949982 0
-11.854097161854 15.5818589442543 -17.3253970274251 0
39.6198977126422 13.7715320834564 -10.3434982876977 0
-10.6354856515228 -2.07394163011594 -22.3275490493908 0
151.906338035386 19.7254648460862 4.26803046955698 0
161.115349829017 9.01946472851642 14.0797938554452 0
207.193257069467 -27.0394804713875 1.7797911141231 0
94.1779722166373 13.5632147086696 -8.1698209502844 0
155.674539544562 -0.367632521069602 7.95225639190388 0
177.150296662786 -34.7047560259113 -2.492502450549 0
-31.3075952323037 2.73211326510955 1.38649708080881 0
167.389126913726 13.5705482963958 -19.5170978886262 0
199.184170632661 -14.896346589149 25.4084316401547 0
-2.00703847111731 -4.90321083611079 -7.12445831537097 0
85.6678306870803 -2.40118825516842 0.440757256973131 0
-21.555885247185 16.6749766174818 -10.8751326204076 0
29.6435968010911 -2.83336706078181 -23.2201645925409 0
27.01104003454 -8.25288452656615 -10.3628024366757 0
164.179599058978 -19.1662788906342 9.19637660824677 0
1.61321537124388 5.88138793203743 -1.16483504191322 0
-7.975406473292 13.3447081500791 -19.7165528813217 0
114.415857899856 14.2019341557992 -4.46219820093624 0
-1.8337706052036 8.41237175350861 -3.09821390725567 0
183.663192275261 24.9302020144482 -15.9814399899192 0
-16.7691756527879 5.00473863083703 0.788061512416518 0
192.288935149417 -14.0667545551155 -18.2028619639585 0
61.5064494215756 -0.539686689142335 -23.4368619294226 0
61.4151338147221 -3.93147402877824 -22.5806092619042 0
57.1391564829063 8.06849009927734 -2.47082986099772 0
117.848882754986 11.307796359061 2.7590410620098 0
-4.7939686402634 15.7497119526547 -16.4126406494198 0
106.506938584394 13.6893851059197 -11.424573181821 0
185.861388312893 -31.1890315403547 -7.01983192273864 0
-14.9930659497214 -6.6704492989611 -12.0713624444311 0
54.8772215122154 12.7887436698907 -8.19527726051152 0
171.547234618493 18.6366053540895 32.5092817009272 0
181.555446269874 -18.9078431453625 -18.1329137605581 0
186.180197713603 -12.1746165688376 -18.584977531412 0
19.310686548881 -8.95273193251376 -16.2791169788906 0
98.9042772689989 -4.44052089940686 -21.7916621345799 0
198.3415378164 -16.096044015328 27.5168915074586 0
128.476545278231 -16.8054018854405 -11.2634041485137 0
194.949017092824 30.9626979366101 13.9074683556003 0
185.981391639887 26.4864241722462 34.4458682946183 0
179.038754366329 29.0701015961331 -2.4816110220773 0
192.717032835118 29.9182455523607 19.8769949561637 0
176.997729189423 -20.192487143594 25.0590209392833 0
174.269863170816 -10.7084683909223 14.7612243614458 0
173.745809218307 26.3177092026959 -10.0718530262013 0
137.231936259874 -15.0090910526068 -14.4677920269053 0
191.627097372947 -31.180737717389 -4.53112683704003 0
78.2248442164995 13.3462177834512 -9.71343571349579 0
181.408040719364 -19.7476080771325 28.8485422826816 0
180.847846049753 29.0759612292554 -2.21259728416515 0
205.30043796567 -24.7882450014815 -3.70020905001075 0
14.993402866333 5.50167268443983 -1.47350083633598 0
201.084468520197 -22.166446275044 27.9425283146453 0
78.0612111545714 -5.24125468534603 -22.0436044869311 0
-19.8285881257032 7.20048949745018 -23.0364382950633 0
178.821784282368 8.02592521656743 29.2156601816733 0
13.6538000415625 -6.26012168690268 -20.799614068252 0
194.799501961666 -2.96714132056119 -13.8845902853203 0
198.812496284814 -29.1198784436487 28.8883953773139 0
178.000319844045 13.2190080498244 -20.8738243354792 0
167.255238554416 -21.6160376768123 10.4311623441929 0
48.352337861375 -7.94183169585035 -20.2861343108044 0
133.047908895244 -14.489779248481 -1.33901073071712 0
197.01880332551 25.5525565311006 24.010917698145 0
-7.56182011136954 -4.89611950012651 -7.29976999905341 0
90.8837716988438 -13.4889177764812 -14.1142878567479 0
193.262011203111 -21.0252026869092 31.8895009696482 0
178.80620216104 -26.9061696928275 27.8823043417883 0
182.933064238828 -9.95695267952712 15.3270005690979 0
163.510151745134 23.0280379298094 -6.04624952526501 0
118.871556827152 -3.11084558248299 2.74723101772173 0
183.070263497547 -22.4182160348368 30.9055614155764 0
168.18648634309 -8.51710315078938 -17.9402438551788 0
194.080143650443 16.0480898475016 30.1131445584453 0
36.4759413803702 12.4429419301178 -18.7372888323748 0
133.7757238367 -3.13032948416754 4.19785953765358 0
156.629825003459 -15.0916661793129 -15.5459921405744 0
178.282031060041 -29.5107420221686 -9.46127102745123 0
165.20225359163 23.5712046003392 -7.16556430315878 0
164.249990073407 -22.2067199614282 7.93038842809806 0
207.765839933997 -24.8717555211192 17.3756730372608 0
-39.0552707975145 5.50157685433312 3.07908081005798 1
150.511398603301 -14.351503344311 -15.2961251912848 0
192.694782033946 6.46793766738768 -11.3622299163364 0
-8.6801744460107 7.24268390872066 -23.2432708992012 0
182.744893434381 29.5495927335073 0.0295040407053175 0
204.111224903657 -7.76017039244834 4.65873614296102 0
157.141238765061 -12.2720514160608 -16.3043126218638 0
140.273903498957 11.3308672447233 7.17461337998245 0
196.799326494778 -25.508700222021 -8.25310394319577 0
45.4004890717274 -8.17003421943806 -20.0129056827787 0
177.945191314847 9.31992037395963 -19.7094656904683 0
166.413437344781 11.2144543319826 25.2415052569464 0
183.139350488536 1.39713742474114 -17.0917645294143 0
153.803418757537 -5.51214649189532 6.61275798259565 0
39.9776033611151 10.9849392343218 -5.73520719019336 0
195.137072314208 -33.7100180425764 5.92684245068905 0
139.266827269915 -18.1367141165359 -2.99133074096554 0
159.873519769735 -17.4251594909225 8.77577076262946 0
41.8116866457991 -5.13092484765115 -4.71960411893152 0
14.1110090997447 -8.68799661122932 -15.2014025586283 0
38.2890874661797 0.277986056533403 0.650988479781887 0
191.237013683765 -36.015605581249 16.5687505405971 0
184.612914813834 26.1875625957236 -12.0191432841069 0
194.864616112247 27.1682343457939 27.9219637302325 0
122.887260071438 12.2796567871557 -15.798137359759 0
144.387791694339 13.1335156720742 7.81435872647829 0
-28.6572919845118 16.977453159816 -9.89903154382687 0
190.363567927304 27.051625425356 -10.2087554604951 0
192.549708015532 -26.6382602898971 -9.54836319711905 0
121.370810599654 -10.6786103549744 -0.269600244794691 0
122.363241348153 9.87742331480126 4.59419414982982 0
171.034099043819 -5.80072758190948 -17.5501487722873 0
160.049584052843 17.4160518076318 -15.7645761935814 0
113.951774834703 -6.42865430044707 1.28396631652959 0
121.330994971763 0.649321838024751 3.71516475291875 0
209.929954096788 -24.5326015410452 7.52052410928385 0
184.488123175285 9.26341845925616 30.6743616290515 0
37.346164714367 6.40908523247212 -23.0541450635603 0
-21.399085336167 0.671378455213126 -0.793003032371583 0
196.698839171868 -17.6562301822846 29.5511815408537 0
0.494778002479565 -7.0418685806578 -10.8991579363071 0
-38.4255607755 -5.60520127374057 -14.4379922064764 1
26.9833645406093 6.57617848315034 -2.45830771220963 0
153.632779107283 -18.0889909233682 5.44462369641133 0
177.826913777739 -9.37256941831271 15.2295041939991 0
132.703188620283 -3.99684956644507 -19.4567899702152 0
136.876154782503 -4.47889675131921 4.15677861947411 0
-33.5359243821032 4.319696052217 -22.5996906410744 0
-15.2507397774028 0.340216468019973 -23.0416943309796 0
208.248183612517 -26.1942565296701 0.796073097439543 0
181.865177606958 31.6200860089075 16.1391840059552 0
195.84447925297 -34.2200494205482 20.1173858739907 0
13.9953304048398 14.7025200146206 -9.36151906472829 0
104.417913001056 -14.6377979642323 -13.0749983321468 0
183.21483127209 -15.929754158062 23.8717232790738 0
177.963134143405 -36.2145226077533 1.90783087167024 0
206.158587793054 -30.8741642985688 18.2649699004186 0
181.861649305488 -16.0727128793914 -18.9847317717453 0
136.339073848909 13.5059020586732 5.59105778906123 0
176.937278453895 22.5230294858127 -18.5632419320614 0
162.883912894055 24.6116651228085 15.4838029357931 0
179.803422368685 -17.3859375283623 26.0879785144509 0
170.323972645202 -35.3118114118243 5.93833713364444 0
58.9099115896078 12.3692974941359 -16.8682331302029 0
174.94825473445 -25.0709092091401 22.1515010488405 0
4.3601698501705 -5.44536612830992 -20.9166499887169 0
183.917780395657 28.9344402745885 23.4459610391757 0
47.9831098792361 -7.18680868991743 -6.29390891173402 0
106.602350148071 -3.15988402292168 1.68964050495341 0
-11.0346270511704 0.0249923733717892 -1.34401898106298 0
140.182740804486 -16.6886307420828 -13.1844265280134 0
171.317393706493 -34.618996571154 -1.14563626365176 0
160.12691887667 -24.8392824054669 4.01078756601091 0
45.3174297200183 13.0721072704556 -8.75659026417264 0
-3.50116046237754 3.711516847573 0.726342729642293 0
205.112992316066 -31.8554425913676 18.8706005055158 0
181.889793772343 24.2645629732861 -17.1905234804993 0
161.201842096579 -8.56546607652683 8.43262673097101 0
167.160408398259 -31.0297651130091 -2.80595693187951 0
-31.0358235005915 -5.88534311101958 -10.9591139805507 0
189.93029846072 -30.786706404487 31.5623650247678 0
190.439349330998 -35.5727120159748 27.5455557105338 0
-35.3499957449547 2.18430448174112 0.454310546724852 0
10.3501333628334 3.93934420161949 -24.0338864721464 0
79.746519720842 2.78947237778481 1.67829942108314 0
177.532294369055 19.9298464661808 -23.1829874609893 0
98.3018805010347 -14.4211980823364 -12.6845468052011 0
197.1375670398 16.5506411122821 24.0934433273975 0
183.646137348296 28.8611812634033 -1.31118658697341 0
115.502319298771 10.6084976169341 -17.7730709710183 0
7.78415434499079 -1.78166965998393 -2.75334325824861 0
25.2366778273173 -0.50758414661129 0.178654362266275 0
93.2259538062873 -10.698302427976 -4.00233291224806 0
167.201985340099 -3.99068381035493 11.5604653338568 0
106.636761166276 -0.39327367656758 2.30924415650713 0
184.463672109154 -38.025773626995 11.9896106696287 0
-24.9067780049307 10.3338101973072 -2.33334782916733 0
174.800907159483 31.1755420065903 5.63355494635935 0
-36.6622579942947 15.9146544061503 -5.85393220371781 0
159.663472733903 -4.4695139793772 -17.6338785557959 0
203.149502961202 -17.0254667213142 -11.4257348980376 0
-38.4537196597811 17.7824677584582 -12.5449011065804 1
101.059527694169 -5.21263435112484 0.556794250049233 0
26.92165644801 3.4673366626891 0.0259676109042644 0
89.9176444587622 -12.7017975365632 -6.82426782545451 0
173.411288915568 -15.2001717912893 15.0109210216184 0
188.231277626881 4.07740961992418 19.0246778802471 0
-19.9212894760205 1.20796174434796 0.0703557355252153 0
113.869638164691 14.157087783602 -9.98792167286331 0
65.0559372235824 12.927764255245 -15.0549747105858 0
52.7627778938332 -10.9533211726195 -13.0652117274821 0
56.5900781285728 3.21154230798477 0.370977935488462 0
-1.40162204986583 13.6319956689242 -19.1347585025986 0
164.00365624201 -25.7924676847714 6.37905448526906 0
184.697515299679 -15.7382819154687 22.3571991695645 0
182.071732634419 3.92288197198561 -17.5792109067695 0
192.127634460448 30.3956081082361 10.5640598231661 0
173.077747859639 13.2658205659831 -20.7912900571336 0
183.753239380081 29.1266097891164 18.0487569873777 0
96.7963345311615 -5.22116304687174 -21.5733121308388 0
71.8041294416306 12.6708234440556 -15.3780631604924 0
192.117205166556 10.3324432978692 -13.6615727841394 0
93.4750983455137 -13.3678354906437 -14.6685106561288 0
54.0115219571246 -5.12432911400599 -3.14890180265219 0
2.92812981485788 9.23307266558681 -22.4412663490616 0
174.923724019976 -0.20034752690891 16.6120257191118 0
96.0619527494654 -13.1019103644014 -15.3348142278235 0
167.502721243535 -15.0956856547101 10.6228685683109 0
-12.0021742818447 -6.07754161474725 -18.8878725689884 0
184.580400141433 26.6391311269498 -9.92161576315106 0
200.732789158183 -33.1890159562616 19.1198857757754 0
142.50781643649 17.3987463567145 -4.95403612117112 0
129.980548938608 -11.0590185029028 0.839984977531186 0
35.8824552506455 1.44954047975713 -23.9545507568477 0
169.755356484142 23.7721736387927 -12.8747501521546 0
209.433834050415 -19.1852610937295 4.38918468652042 0
194.033340947531 17.9385446614981 30.7982040046122 0
194.662628648288 -18.7444536455597 -14.8717029034897 0
196.351575311052 18.731500250152 27.2288567248281 0
-35.2916574642645 2.95325086122783 1.99462544993089 0
69.8384149281901 -6.72648620315228 -2.5264275536773 0
30.7048510882206 9.25893316801647 -4.41125816671229 0
195.726378133592 3.27092116171221 5.10944537227305 0
169.182515692823 -8.49237021023102 11.7879980563261 0
154.338797635716 4.8932744446586 9.2025812535436 0
201.756522404307 -26.5131703425674 26.9416407231712 0
24.4822389331657 1.62988036701458 1.17178962189573 0
200.47135866794 -20.4014001784609 -10.8629067076014 0
190.607563515662 -11.813984252257 -19.247446906848 0
163.741663696565 -15.114671197787 9.42291238954392 0
-20.1479817716215 15.8706533275295 -9.06208124149284 0
167.576659051443 -16.0315523408767 -17.2742187764694 0
-31.1569614874579 15.0733913733127 -5.61462475101486 0
188.879157783984 -22.5393606028653 -14.237687748065 0
165.026864618465 26.0737882904881 4.52184141110859 0
-28.2982720602608 6.23552659890463 1.33774634064089 0
-12.1510737549524 -6.66913337434686 -11.5272107960823 0
167.577902302001 24.7039670642395 -7.49530908809061 0
120.756838069869 14.6061024410555 -3.55764326820957 0
132.777293167894 -17.2622732613488 -5.33844274902488 0
42.7919908454802 -10.4204530714463 -14.4041659637876 0
182.927353613334 27.7629952559967 29.5824595132109 0
43.4359513628619 9.34126129865136 -4.12644247449413 0
24.4227293658147 6.38112959421446 -2.30244618407487 0
103.904534405329 -15.0931324774047 -10.0685470863836 0
54.3233443182605 -4.67176152237446 -22.3669797808067 0
-31.1289158154697 17.2637721369346 -14.2605687212303 0
173.502275256302 -22.9932905712711 17.1934468163551 0
192.555873301372 29.9393157208652 14.2360127075629 0
167.35495796145 -24.7287299420902 -11.4702231721762 0
147.494160914809 -21.6526629094625 -6.37155640995317 0
185.51882496899 -37.9727317190765 9.70603093798139 0
-36.0349943091721 4.60442077458576 -22.4248469160304 0
202.562472433984 -32.4936270457468 17.2626257519947 0
-33.9136490636023 17.4072090868296 -14.0939559179639 0
147.292883321877 14.8360967188679 8.24402943393175 0
-12.6403961363131 4.33931077363869 -23.6846036139729 0
51.7257324771635 -8.21505591347642 -7.07278237240147 0
174.796156786611 11.800501405 32.5719416373485 0
77.8861788036663 9.35245275037159 -1.75028626264518 0
152.779084198885 -15.7408962710007 5.30409113939601 0
34.1661660641232 13.9946962372441 -10.5233939813197 0
181.839781147811 10.6381197141015 -19.8340519430806 0
177.417078046221 17.5340196249111 35.1579349317509 0
-35.8828174519261 -1.04906435921029 -3.11560521563652 0
167.74439229468 12.1180887094112 -19.3127231375301 0
181.274428634296 -11.4834134352832 16.0865618555779 0
-25.1526840789865 14.0380772094264 -5.34357060720432 0
147.5163076881 9.31100821153446 9.24299448221637 0
174.784841859625 -32.7987327129326 -5.11140765786187 0
-15.5681067043242 7.03292731946511 -23.1955818407033 0
157.009506390554 -4.02819382292443 7.59362780313704 0
202.621769604496 -16.4620131860888 24.2430016971265 0
170.780180519239 13.9432491479922 31.1497051241927 0
201.828783713777 -33.6142129414312 20.1114992311311 0
160.709650799735 22.4432793188212 -2.4807803850511 0
-2.74899333183627 2.93989913259874 -23.9502631695229 0
204.661359721094 -9.14366116620705 -1.22528199942048 0
73.9172156269334 -6.53283480029472 -2.32589853137606 0
178.196182263816 -10.7845615226275 15.7313787498006 0
153.982477174185 19.5451715195395 -6.35719689859763 0
177.883348469833 -10.8748516771849 -18.7182840146422 0
199.691986478172 -3.17989630292096 -6.31977740625425 0
126.489158958069 14.678061217503 0.186068773219625 0
193.897682634028 27.9336817451269 -4.55786566841989 0
-23.0682009519422 -2.62252321281421 -4.8359719427706 0
10.8516557519801 9.05306483246 -22.4527777341161 0
159.174646978246 21.4127866414516 -4.11368665801878 0
134.417727569913 16.2476903709903 0.411218852502056 0
177.545476699683 3.67029113317508 -17.9098965695196 0
82.1589738655361 -5.97683410003272 -1.54486342111488 0
50.7313479219835 -1.5606992116632 -0.183416933193362 0
2.87754634503145 5.09850748393536 -23.8875754352395 0
1.70138818831393 -6.88315881156141 -19.2000683695454 0
172.692382804446 8.08888519134956 27.3033522907243 0
-9.9378958955995 4.88378544107479 -23.6822149329869 0
194.292054355492 23.4185662026137 -11.5778830054243 0
20.4463997125379 -5.62129963521594 -6.94960583179065 0
140.623090999709 17.2677507415541 2.47998958860265 0
90.8866055742248 0.0763135941120666 1.45765990246969 0
193.165565193152 -28.6496925761747 -7.34760432375695 0
132.191189283977 14.8983043322175 -11.368573836192 0
-14.4478187576973 -5.75857115258922 -19.0233779876641 0
163.673710757598 -6.73077670264457 -17.4940848749225 0
193.853236208456 26.2853693115644 -10.314665461417 0
-42.386476710822 1.62333031977708 -21.3470722383622 1
123.211122085086 -14.4351775351741 -14.5925007704368 0
181.844478278417 29.8288137263177 22.0572072140536 0
175.559738161792 20.0400360016968 -21.0391700384724 0
187.347395958906 -13.7377977338786 19.0308432678541 0
104.217930144908 13.1726712470001 -13.2490858577584 0
134.191122095358 -10.9471405025697 -16.7847804693446 0
194.059650742677 28.9393761238083 3.69291389153386 0
190.721371154779 29.7699762495147 10.4425019836473 0
153.101488091 16.6309345726616 10.6981426235521 0
142.844596147228 12.2907805303743 -16.8799699156755 0
151.456620171967 -12.5721967168027 5.60456701683801 0
194.674756637767 29.7854504202586 7.88852704192263 0
178.920093830404 -25.0396170449189 28.1593717866006 0
103.189888331149 -12.2201278816151 -4.55984545265813 0
186.409542005003 29.5546157222232 30.090448606255 0
195.824160001669 -14.2554328381974 -17.2040400924546 0
157.246312364788 -24.8668635110065 1.97439685166059 0
47.3763513450056 12.6536821992023 -17.1498772081023 0
178.292844676885 -7.68570706328367 14.9199074234706 0
126.519374974561 7.73356556167869 5.25455541740942 0
-14.1600041838548 14.6372220488863 -18.5689879893886 0
172.200131181434 -6.23921583042937 13.9086458722194 0
30.6201762045275 -7.14405756654325 -8.22191571845576 0
164.115631976405 -0.321314714838004 -16.7763381815276 0
144.993829049925 -2.65154094777635 -18.658921561914 0
77.2057226519859 5.85272046177729 -22.3296469768129 0
86.2728777344969 10.6743989843539 -18.5288903971819 0
155.274019127913 2.90640570054828 8.89901274005409 0
189.859623034718 -14.385423583846 23.1060494921483 0
192.013300336021 -36.281941665438 5.7716723275488 0
-23.5961455011745 -5.2505485210211 -8.74862510156477 0
185.64436939689 25.1005758865193 -15.2602201989158 0
198.836839451593 17.3188050110771 -1.83845841637784 0
194.67621328662 24.7700751058453 -10.4792777552651 0
162.625185723147 15.0943919179076 16.7756306367434 0
91.4329547244398 -4.1223278775302 0.189746741889976 0
175.281218385563 -5.57171186062224 14.4512924394483 0
120.351431030476 14.3850146416892 -10.3017897515846 0
18.5715267072698 14.6894530453083 -9.96515660575452 0
166.533957277718 -20.002964837233 -14.9987928612518 0
146.766899182364 18.200005276493 -4.19119509734148 0
166.137417634454 16.1053083995976 23.7915576947955 0
-10.7154649682117 -1.8078797938909 -3.46089377505645 0
208.881591414454 -22.7619010656201 -2.3169429446795 0
64.2197407093031 8.1242804185836 -21.5259094420931 0
67.7914388462465 12.1502942741839 -6.39365298913701 0
188.200441538595 -30.4004669231754 -7.19904417370881 0
181.744022452272 30.7932956152504 4.33371899238532 0
197.757216584304 -29.6678854771131 -2.62653472818101 0
-3.52989951768402 6.74536126285544 -23.38370630898 0
11.4340179805328 -0.334079183520664 -23.7507326033161 0
-13.7051619936537 12.9198779323211 -20.3615965114506 0
194.149190007293 27.885281992086 -0.864621117766332 0
74.3939437854537 13.3427445543156 -9.98642052578728 0
-27.7640010521615 14.2369246740549 -5.11511942642979 0
193.376225374412 -12.6728591038492 18.4640980692623 0
47.8463090876488 11.1689402310983 -19.1123070056926 0
194.424019169881 9.85369791264578 21.7304501253543 0
192.027570035272 -13.6528929454952 24.4588330344375 0
168.749449609399 26.2366172668038 21.9064390530728 0
191.113874022694 20.0243792583327 -17.6001724842523 0
-17.2541997720023 8.57923038288176 -1.79112030900027 0
192.290169220907 8.73528533592574 24.7688659401931 0
175.031565460666 29.3155768767873 -0.874611516290085 0
57.2424258259081 5.46631082484933 -0.786714651998112 0
101.127797642955 -6.10375653100533 -21.0382249317873 0
195.94239508682 15.6470687040073 26.1712072772443 0
157.831678800485 -21.2408401498129 5.31624605464777 0
142.018812287305 16.9618973903977 3.74147205270532 0
112.157828438295 -3.9134934157013 1.93850637936485 0
193.476997118556 20.5672143816 31.6645488861089 0
39.391677898527 -7.44239241090233 -7.78677840867318 0
98.9044307540649 13.7229066488661 -8.49793745635523 0
106.950460260422 -13.220524868168 -15.6572500393617 0
197.105853424423 -33.3686911987055 10.0064530016462 0
190.968402074482 23.3666331225702 33.3421502125377 0
138.569035939554 7.33687032709806 -19.4671443466551 0
178.077317898143 -17.6228033836859 24.8790959302207 0
208.000091793739 -29.5721361480828 13.0781018078933 0
103.576935239385 -11.7828597776579 -17.2118071817553 0
182.97495865714 -13.9462971801236 18.5345089028318 0
183.648318673941 24.0683214096643 -17.4904343222554 0
129.77024100534 15.1783015727805 -9.40003012838951 0
196.864476947541 7.55742320412476 -1.63775233117574 0
67.7419113380874 13.3670552093745 -12.4406007167737 0
47.084566341748 -10.147233968524 -11.5094290985099 0
157.321719196384 20.4629605929517 10.1434702745984 0
171.854183412104 3.15276296628166 18.0982772086924 0
137.586792064746 -10.6132331999329 -16.8042379156623 0
177.419679983165 28.980929100727 -2.63095196550878 0
18.558943772537 -2.91074319075889 -3.75658504628289 0
177.683416103255 29.4258425911935 -1.20881430068535 0
207.542805374687 -30.180134837012 15.0183635510038 0
113.887722055725 13.5060910854241 -12.679920536128 0
191.052917698109 -28.061319738309 -9.06148137179965 0
101.620692226322 13.7856122467735 -9.84323956088895 0
186.110803640805 1.49788293169047 12.9734576041107 0
203.48714192667 -19.840005650852 25.0038253973179 0
65.3511208105959 -6.40553940928657 -2.85392658155482 0
148.711410485366 18.8799680783783 1.78911904138126 0
80.6095236990703 5.08843133784749 0.890906105607254 0
7.59595782729615 10.8973950545396 -5.2602978688294 0
13.9702444209379 -2.02170473472327 -2.65924042244099 0
108.610872689422 -14.8454145227428 -7.79202283266281 0
54.2388103881855 3.95277969682127 -0.0505125494617002 0
75.589087037767 7.32459072412119 -21.6644932528803 0
126.175172475561 6.47228192865155 -20.3197610163761 0
-1.31949260923266 -7.73526801534261 -15.4251040142703 0
61.9102538804244 9.49375458315004 -3.24188316374417 0
59.5828627814672 -2.32850996695687 -0.691189528669563 0
185.591787170234 -15.2951680154129 -18.6652529146951 0
17.5920409094356 -7.50806647070636 -19.5616021237829 0
82.4670350428906 -3.26227918818703 -0.0978062680157014 0
165.661200138519 -14.1090920066065 9.73237163964662 0
96.0473963587723 13.6729422539956 -9.27837794259255 0
191.177233111775 -19.9514660191869 31.9730009646014 0
176.661453014891 28.05658803709 -5.92277961198572 0
98.4676797603073 -7.54048115843036 -0.918458571372367 0
163.765691023538 26.0317352812356 10.2650864902837 0
165.166843287917 -1.34913499130023 -17.4432202734374 0
194.350114436064 21.8034133927186 -12.7783088486854 0
-28.2615545702174 -3.60545385549217 -19.9799958886345 0
115.245018861822 -7.3365868665471 -19.5937687759909 0
191.7847241762 -34.2632921599947 29.1113510196921 0
123.560717468696 -0.983449081333051 -21.0020018961308 0
125.222361075554 8.80684041492121 -19.2028490023009 0
106.114924560589 -5.88041253774761 -20.910172104794 0
49.4152296325114 0.52905970670357 -23.6497282515595 0
206.491444220813 -10.4516681224554 4.18289855205256 0
-29.9585626867985 -0.569213538535113 -21.6593977187935 0
197.926970847628 17.580181011419 22.310940669074 0
158.11219258023 -11.8248950781132 8.35966916942454 0
-4.55039962236377 -4.86958958312115 -7.10553366038586 0
174.372390170101 31.5338134457705 7.80294782650915 0
186.317908110581 -35.8739363001138 18.2989289303203 0
202.045752842666 -12.926269074938 -13.9014951482208 0
150.576465941944 -8.89233674794779 -17.0172239426588 0
168.991620319097 -15.4169709156958 -17.859467057144 0
39.3005449621582 4.00405778728176 -0.202134750217318 0
46.8846884543257 13.9732012133505 -14.6849665017585 0
-5.96546452965269 8.13795896782175 -2.50263968308019 0
170.798901202358 -13.226048628238 12.196583851324 0
55.7763576228645 -9.7830495856716 -8.68559725221156 0
195.657012115872 -27.038632236985 31.1878089242188 0
202.341870109318 -5.58349070661021 1.89333809797683 0
163.485935218287 25.0197458233876 6.04631288160456 0
10.5975243333431 9.68029083358217 -4.50117629806041 0
161.372471520249 -27.6925498656537 -4.25316566444018 0
100.221608159685 7.46011043992352 2.0018501932357 0
116.660535546566 6.23447622323522 4.22862740726165 0
56.2912442791013 -9.22569585589954 -19.1697485680101 0
129.950868636023 10.5235362937308 -17.9753499248011 0
198.272068305888 22.5310179373833 5.71200933433322 0
197.665843986025 22.5896407367235 -4.25816743191474 0
150.032700779931 9.6653800575292 10.174203199284 0
-27.8465912653333 -2.01047327090185 -21.1196080263892 0
186.265116675216 -37.8361749314331 5.45556332598967 0
207.004995324584 -30.4332675350504 16.9222187063645 0
16.3442026413289 -0.723008758690252 -0.202623765772903 0
176.875007319105 -32.5116076299279 -5.69651610277115 0
166.495724872892 11.3536710653902 22.2911495144103 0
189.202487051318 -14.8170633392982 -17.7036819961794 0
178.070410043039 9.44349585562356 31.2396284454185 0
-41.9356486625554 8.77106966308965 1.28396250905396 1
117.554741556535 11.4352855850892 -16.7937651549532 0
147.438793276802 13.8928488640176 -15.921843246738 0
-20.3947624927676 4.45226688767618 -23.3601899945584 0
56.2023283692436 11.5534750373146 -5.91153744374183 0
-20.517974747057 8.11481011489105 -1.09793568431157 0
-24.8995050350272 -4.03905235752313 -6.75149067929469 0
198.581805429252 22.7076022303722 10.5211933517692 0
83.4062277953322 -0.30449053439592 -23.2583150964444 0
166.551538112328 21.1224710442763 -15.270163541332 0
177.914740230663 -31.4808778032651 23.7985501023579 0
71.0515419851467 -12.2312232834383 -10.4022014771041 0
22.000700609638 7.69052916939172 -22.8117880383141 0
164.697737545111 -25.5002816579156 -9.60935963930374 0
174.042132684516 -34.7847548334691 -2.25091700979933 0
131.15504774528 -6.91044975252237 2.89574885188805 0
81.4384005431407 7.94820647543656 -21.0898984661477 0
101.249952733472 5.36707117622082 -21.9334262992066 0
170.319118839094 -8.33866027320027 -18.0517347667775 0
200.114076356494 -11.4891867876945 -15.5986968068803 0
3.98183102055072 -2.26058269506743 -22.9000537910504 0
163.029308705266 16.433589110842 -18.2720087850961 0
191.321007134394 8.34049127232903 -13.4417677806115 0
115.300150097817 3.05349808936334 -21.8801703877729 0
161.335995257957 -12.7943136224183 -16.8661355423519 0
-18.7224669405508 0.573183526239078 -22.9129556573306 0
-28.2074432766242 -6.06143398971801 -16.8619866899496 0
11.685818753114 14.5548896915684 -17.0427694959983 0
186.285194122293 -13.8940681366119 -18.77668059824 0
188.644719967974 17.9849289459274 -19.4411019590271 0
193.098200442447 -9.62829312929492 13.3480041881507 0
149.294744551192 -18.0074448163697 -12.9713013189335 0
178.690116699551 -25.4805338737116 -14.0664893818975 0
191.282102178418 30.9927970345779 24.9834249342153 0
144.695039058603 17.3205346433055 -7.77295501798793 0
92.0081012749325 13.4571623989211 -8.11196086923352 0
166.102055215989 8.38106145994471 17.097688755224 0
181.380263345499 21.4691224704534 35.8607769515057 0
188.500194146773 30.2590474953899 9.85738973274794 0
-28.85782289213 15.3962890841772 -6.47565407957809 0
171.091234959071 8.53927819292722 -18.7048634781874 0
187.319719569148 17.8760564588651 34.9567969069966 0
167.621017880868 23.2176098412876 25.3531619517963 0
203.848820556016 -28.9340999543458 23.9055234423137 0
167.153381620996 2.0549371145996 13.3791958853873 0
44.2558256041196 -10.4450283811765 -15.8383574444807 0
155.029151384555 20.7142822280261 3.96291488925062 0
138.408882269188 17.1372111247262 -0.0583253163492591 0
6.22785082778185 -5.65140872669222 -20.8188064092011 0
154.24730453219 -24.7427717206053 -3.49141607280876 0
176.246333671356 3.18576027949993 -17.1147055303447 0
134.677435120786 -8.60868310498161 2.71087012130666 0
151.184827481465 -21.2182855566043 -9.94725842970161 0
135.005729301346 7.72794996378072 6.34621762140626 0
-32.8038519133574 12.436409355613 -2.92178559631514 0
96.2001618532551 -13.971170138283 -8.20440064970835 0
169.981787711818 29.1275453689616 18.5454527803334 0
101.097563982005 -13.0034366955548 -15.7146705906988 0
66.1752383828608 -11.9862734798396 -11.5800049283882 0
33.145408859175 -8.57589591508151 -10.2981540489712 0
76.544518535456 -5.1637923800859 -1.42861823275213 0
178.468155282246 21.1049141994218 -23.5172199104873 0
124.78473474474 -13.1393221552584 -2.02321216407288 0
195.230985569743 1.77005418180056 -9.39417231440325 0
195.118208599162 -18.5021568730051 30.5511305756936 0
121.375274958884 -2.58258210802061 3.09724885433116 0
11.822701521878 -5.86558941833016 -7.82657029835348 0
8.00532678686037 5.72817777613206 -23.7318720431208 0
176.867113945501 -0.183314290095806 16.4860325996942 0
185.39445947608 31.1581951041772 13.0306377163125 0
-35.6674077476083 -1.03409632296806 -20.9117758121658 0
