-184.848303888148 -12.0026553861089 -10.5739328060197 0
-164.275230031631 -10.3928757633274 5.48827716613186 0
-121.6078723211 6.64201464073668 -12.806241354746 0
-183.356076267623 7.68307361449382 -20.5271773294844 0
-34.7074360846396 4.70536688144887 24.6030292305186 0
-197.050761428662 -16.9435214194833 22.1687450965476 0
-210.290365428059 -10.8745694054915 17.5789077869589 0
-14.4666591219953 15.1310995415693 7.08844538768535 0
-185.929824892679 33.0500679974563 -15.1966245930206 0
-182.255524790738 33.3597948511805 -6.89140592576771 0
-156.315067923374 3.16419432433397 -22.3831768441355 0
-115.573365148601 -0.301171515273191 11.2574944438186 0
-39.8925151077834 13.0931223191772 3.04500560208981 0
-130.615440246844 16.7064673940587 -18.7811160103235 0
-18.2091083007278 -4.2210247718296 5.27768127652931 0
-202.825236340824 -19.7861174080159 -16.2825581657134 0
-190.29920298223 -0.361378223332914 -13.1854608245807 0
-13.2483790452903 -3.48292056586681 4.21444692396959 0
-106.670074150089 19.8728512761836 -5.89609317419094 0
-158.730726416966 2.26395391563738 -22.9140202727015 0
-183.891356844667 -30.1169175527331 10.3833745065078 0
-217.9231433472 -32.3484141274011 13.9896648186416 0
-193.642793402818 -31.6589281660944 -12.5767049933239 0
-185.696034995281 11.0710366905602 -16.862840375527 0
-159.111350987492 -9.13702845780445 -20.1684266303342 0
-178.295187217347 31.6574732286317 -18.1904598996942 0
-201.257636941303 -42.0210231183914 -5.52631565312466 0
-56.6631631103937 20.2890737851403 15.5241567525574 0
-192.344860954618 -17.8205977494883 20.4421362028123 0
-187.88756658659 30.6467265338092 -20.5468458281507 0
-89.6828170991814 8.68170211262025 -7.8320721975447 0
-165.106889163 28.5863185792238 -18.105877637556 0
-56.2014148459003 2.03595003378287 -3.07695562491339 0
-60.7921334451483 7.64428686067265 22.0314434229156 0
-171.784670235048 1.60153788963255 -22.9949808825576 0
-220.829150603488 -15.8252137025312 7.0190903954228 0
-192.873546755219 -19.661194614845 21.4132104040908 0
-24.6667116184815 18.8493648150415 19.5164487371345 0
-43.6316392903015 -5.82599876118066 7.86722552223065 0
-136.864155316265 5.13939302960371 8.55123602071639 0
-7.28614309160589 2.25597114641535 -0.791994252593832 0
-209.311626585599 -16.9803580103512 -13.8062761839734 0
-194.891704454726 -20.7385183047826 -14.9722962971228 0
-111.29050603783 21.2963434545546 -5.36370424515331 0
-200.303542875296 -40.2878056284542 -8.12819577397035 0
-200.099427728654 -43.8652644071978 1.3433799462283 0
-70.6121773202172 3.39735512410672 20.3686879451031 0
-184.408290925131 -15.8845993207665 -8.21950652220938 0
-179.299151508203 -20.3332829415086 0.858665633432279 0
-67.1440579357332 -0.82242226723399 -1.33026165465624 0
-125.648558007348 21.1039006254288 3.26957194503761 0
-188.45439050029 31.4869022143862 -3.01149843121648 0
-180.199546515551 -15.4123772724879 -7.02847553775579 0
-220.663007010633 -30.9743200347658 -2.38226475627671 0
-150.675085924703 -11.33042172431 -7.97048292167944 0
-27.333568653569 -4.86155284269098 20.4505849053709 0
-204.590137024579 -20.9358957179978 -16.0445729690693 0
-160.666691827422 -7.67694755180338 6.96937023491488 0
-97.1008464597737 -4.46690194921346 9.98500006327024 0
-193.717338491514 -8.24226626269686 -13.1683204957994 0
-190.021688380728 -29.0952568871915 -6.78708224928843 0
-180.90298103144 5.52542861813829 -21.4782137505841 0
-199.977408005382 -23.8709521900918 24.1690188182574 0
-199.601818204383 -39.1854377582834 16.2617054400069 0
-194.542757279138 11.2250189401061 -25.9852613946138 0
-37.3678069742086 13.1945614922486 22.2509802953135 0
-153.767194860109 -5.62922461067876 8.36602798265606 0
-105.684134909292 -1.10792208155099 12.176576211814 0
-143.215409461291 -9.24238353238564 -10.2777286065712 0
-202.802287016645 -42.36706079416 -4.82333382153257 0
-79.4715645234319 7.95028919628666 -5.77755880394636 0
-201.67143501835 -7.62624035064639 17.1410445717256 0
-104.844994942084 -5.56740989476178 6.46987677411174 0
-180.156991742248 6.28331581034094 -25.303399406566 0
-179.013283307825 0.165126104078833 -15.1551059346016 0
-183.660869081388 20.68945717678 5.6737703337671 0
-150.589519332072 6.82231799759325 6.0764821930601 0
-45.9847737535873 3.53750728361031 -2.88620754946767 0
-184.202312115327 -19.8662083628236 -5.33967784921588 0
-83.3343955303504 0.806037352473152 -4.06375739492333 0
-184.032006585017 -27.7689688154735 11.0463691629836 0
-19.4264234047251 -7.10170463340889 12.6620306549296 0
-135.04340673833 19.4005543302815 -15.6797614949739 0
-157.058988185025 17.8693688521302 2.20226327232415 0
-145.896450769372 3.23892316488801 -19.7544349127798 0
-21.9741998423657 8.4208580224928 1.79660710646212 0
-57.4497809723131 6.33323348324498 -3.68220204752118 0
-157.460610912632 19.8117978947242 1.45422929994522 0
-123.923959276816 -4.45810158839814 7.79384462609825 0
-198.780639074333 -43.1648402663492 8.20207692871857 0
-216.601009265785 -13.8335867296569 -6.67863786392665 0
-190.808575816768 -19.1958826164143 -10.1166827387147 0
-209.19357543933 -5.11044507197442 5.51070970551398 0
-194.656429000932 10.8922245839043 3.13737025969659 0
-200.654707914988 -7.20836555249977 -11.1645063008642 0
-111.160526852707 23.7995030718577 2.48126955941455 0
-179.645036799077 -20.3791682169481 4.50080589418258 0
-207.003294272537 -28.1204365092107 22.8788287352809 0
-25.217416735218 -2.84940384868933 3.16893866921015 0
-187.749391845004 -26.3555779739737 -2.32870401897288 0
-189.950619489052 26.0403429931101 4.39418446438425 0
-128.638166747869 4.6504807717365 10.057965964162 0
-24.0690974002143 -6.46755598155666 17.0847023021574 0
-192.442080030651 13.4007502692387 -14.1816205433822 0
-176.439039539722 31.9319549280033 -18.0108773774897 0
-203.065588601723 -5.46901681831606 14.844014077862 0
-187.198423603639 -23.9983490345615 -3.66072959242663 0
-44.5973189003064 6.46706414466305 -1.59446291556758 0
-81.0566401472436 12.6091654852538 17.404955322942 0
-221.339436516531 -26.0630640688233 -3.53691791589493 0
-219.140725578596 -31.925422478072 -4.93538666161319 0
-221.163106543661 -32.3165692864945 4.62744628875697 0
-51.6732041240837 -2.4933446613109 19.5470907456709 0
-87.7433468485827 13.2248957682473 -5.03229537321096 0
-203.569309375513 -37.261788640665 17.6385324860717 0
-158.67207269949 14.7488736163256 3.02074300614894 0
-46.2578599215043 -0.230516034915534 22.3428262177815 0
-174.451980641254 17.4465722412967 -27.4758570952668 0
-76.2974075973159 -5.96830263772404 7.47095852284912 0
-68.5062998888446 18.833558573025 0.374778678913627 0
-212.124018503672 -40.0467462261084 6.68485042850112 0
-185.980903389457 -16.1811426677753 12.8318265988702 0
-9.27725988433244 7.65183679645147 1.31812848447566 0
-160.251892837167 -10.9076472370292 -10.0735550221975 0
-161.745860192142 -7.98879356421305 -17.8053836683274 0
-213.363974919694 -21.4075546377599 -12.8957120230731 0
-175.067889472099 28.4615297716589 -22.4720751371084 0
-2.30564195049424 17.0660228881207 9.8471702984148 1
-184.622186103097 -31.8814432976032 10.7993810989189 0
-106.140479458013 8.7352268532677 -10.7002534670307 0
-54.7876609298654 15.1665853548444 1.37779516766818 0
-192.8000668889 -27.3330969450829 21.4227506248212 0
-45.6677815846852 3.77980549902235 23.6009137236335 0
-106.153424926257 14.8750876849469 -8.28800582082055 0
-72.2341378444424 0.149931798598276 -2.7682284649964 0
-219.14104912537 -21.4580720392893 14.9423002384694 0
-51.5202657720339 10.9107022444355 21.9486500910205 0
-185.922549803124 -35.7286164613991 3.54505699391133 0
-180.327324620256 31.2874176731402 -18.5801496697969 0
-216.589649981 -29.3238722403685 -9.6217829786899 0
-169.877410279654 -8.05556183417792 -10.8760563823002 0
-64.7488171879081 22.3429703145857 12.0973583036348 0
-83.4249577565265 11.1080633034349 -5.2524101035759 0
-14.5116028428129 1.47804076962198 25.5526139035949 0
-149.52974830083 -5.40538292269479 -22.5266959495734 0
-205.567978360814 22.3916025660291 -14.3737724111719 0
-191.269306528056 1.90889538775997 9.02088614726608 0
-184.987964321849 -34.9125091609035 4.97604323525533 0
-79.6326744860866 16.153025651522 -3.40089001416502 0
-193.80742567716 0.988391729994762 -10.9027269511328 0
-172.836923103388 9.14504474836865 -27.6639358390521 0
-186.62932708726 -5.88315211051316 -12.8648486567821 0
-204.634019030987 -8.38096985927272 -8.19638192697407 0
-118.10705831631 20.1784384672523 5.8613200385323 0
-193.171132573195 19.110211384137 -28.5572120124533 0
-212.222966096047 -7.49965428803015 11.7968282250067 0
-138.821725212757 20.6573592980951 1.6455557831 0
-190.348550108955 -33.1914425089917 -9.8888473152711 0
-163.475155461 -0.818937566184895 -20.1174463421607 0
-30.1520322428506 -4.80609519270801 20.0122381608847 0
-177.541238879846 18.7456997242215 4.32744661011262 0
-195.078272528429 -21.9831944176004 22.7731225613125 0
-205.509251186294 -17.2161609758366 -15.1499345782199 0
-98.4526129329255 9.93083025726207 -8.57155889519654 0
-196.153293933389 8.16722273549121 1.50335760511472 0
-147.901519231859 -6.2523487224648 6.46970317179266 0
-203.082933618661 12.5047383764449 -24.2882829059366 0
-81.6539673133459 20.0239535697816 -1.78085796062761 0
-24.3123618940456 20.9651239801502 16.8433646281609 0
-36.4483931642969 -5.10740494609176 18.4219199436813 0
-149.845255822133 -6.04692607964681 7.60470264744462 0
-172.506506329304 27.6913993495827 0.0407854978870149 0
-185.01711371839 27.5458672900108 1.42550898236853 0
-162.904623101878 26.2498695147305 -19.5328128865976 0
-52.1155789205831 20.7221605298057 5.53493500238634 0
-176.640078178836 4.74801433308122 7.85006440752859 0
-169.957890777565 7.60321613500324 6.89885932354546 0
-188.517777142852 2.72393121790095 8.62336813225331 0
-139.501727091375 14.8619414307204 -22.243913342278 0
-166.472733894831 2.11493828939021 -24.4988405548285 0
-195.923737044219 -28.9896084700829 -14.4934042038461 0
-47.9059131794657 19.2467763972564 17.3488225511826 0
-144.307783694424 -8.26675994425729 -1.15330261147841 0
-188.015434438105 -33.3996820347196 -7.31594445726826 0
-159.448674696306 10.5790833705405 -23.9519803683316 0
-147.733876600317 23.1271529763536 -2.130677414936 0
-43.5978049019015 17.1575316238274 4.64297743648907 0
-171.456126153597 -6.10335133742633 -12.397252381444 0
-195.841634848329 -10.1244917232809 17.8813301709312 0
-193.827245885921 33.4500746265814 -5.00981751348423 0
-189.590562289109 -21.5815549356741 19.5228886723642 0
-152.309068712781 -10.4214312031649 -2.30627264352089 0
-216.76914394346 -38.35599130712 5.58026474496545 0
-69.3467625505038 9.07607472440083 20.5438503065626 0
-221.802781770993 -30.3598367305505 5.42746997055031 0
-181.075790520173 13.6494126722498 8.57681810995743 0
-134.636630524398 1.96934652088088 -16.1526124812062 0
-74.6313170897304 12.0829384662031 18.649772107857 0
-145.933521739783 -7.80560979712326 3.58020519839935 0
-208.162220820807 -43.8949555810486 1.85111044602064 0
-194.128898747004 -22.1617496278969 -14.6271631809027 0
-56.0126331938186 4.48116984559304 -3.4668751863499 0
-198.162582944888 -35.1815018865558 -12.4365436031341 0
-220.219248419355 -30.5401038456959 -3.80048375192324 0
-87.5601167710846 18.9832785996939 12.009727280499 0
-10.2193182178113 12.4965067386576 5.40476139192426 0
-134.74695750589 1.67500142602137 8.9971008740402 0
-210.655759728182 -5.18673711038899 7.33457581214281 0
-35.8851544568633 -3.13260638126497 2.84839405796791 0
-220.134162694185 -34.2063389495364 5.37449427976495 0
-87.379724573587 24.7026369855653 3.85990377787271 0
-205.51032335293 24.2602823463375 -15.426011981286 0
-61.2434698654916 16.8930754970137 0.809729283847752 0
-166.604533921675 31.5571830952112 -6.85254284362658 0
-205.213770147722 -19.0251587737592 -15.8614186914327 0
-183.059961693155 5.70088980303302 -15.142442180001 0
-180.672548380042 34.9893182684204 -13.3281792695084 0
-104.564628509012 19.3169170778188 -6.00725488190132 0
-205.456603913921 25.9739330440731 -11.8373028908504 0
-113.331499306673 16.4571929604246 8.67765973577532 0
-177.952404165744 -18.1691116581575 5.75188154946622 0
-74.3855672060167 19.4704505160868 13.7269919294638 0
-157.98424109775 25.7382035605143 -14.4295919884097 0
-159.055195898447 20.3200537245943 -21.8935643612556 0
-171.589969880061 2.26203084487356 -24.4911709056205 0
-195.646969414069 17.8382176928095 2.33103062244722 0
-190.247775205147 -26.2697524319911 20.0780311050054 0
-199.927959391528 -37.2694708447436 -11.2243667700669 0
-1.6827820709598 13.9164621883069 7.35791807377167 1
-190.207212402622 -4.68262841794734 12.833437647291 0
-163.204121846059 15.7968757459014 2.76331085014577 0
-56.8498824295792 -4.89100339855841 15.1212303877988 0
-180.644854751095 17.6214967220433 6.55310131112361 0
-1.41465691594639 7.61184677578279 1.33558605675593 1
-146.857600476425 22.0820351168084 -14.2643763672933 0
-199.965572240215 -11.1264246659899 -13.217769976735 0
-50.3938639771672 -5.89987954730111 7.67868241767261 0
-169.901449767929 27.2942488295773 -22.695009904511 0
-158.773809472855 -2.86155640659085 -22.0492655356046 0
-128.669663335182 -2.947509818701 -9.66798097140098 0
-196.612112849182 -42.7502141624982 8.34962972867236 0
-72.5186651226765 4.16977698790729 -4.52979094576397 0
-185.862524852406 -25.4958485301195 -0.933392510661176 0
-171.079480807216 25.1445068067067 5.31501873720873 0
-115.613772201037 7.4553949060626 -11.7810055044436 0
-172.510556503024 0.954943892330713 -18.1957574733641 0
-188.205461967608 15.6574779529877 9.0380244523902 0
-66.0304102998162 15.1492499364811 -1.02309387414986 0
-200.721740817081 -44.2524259247486 3.47965363577994 0
-50.2254157077418 21.932883137104 14.1025442728303 0
-93.0431832405039 12.0326880136644 -5.87034946601678 0
-168.04702713533 25.5462129472439 2.63995383726999 0
-12.060551054886 0.685215217413089 -1.4740338555907 0
-187.918169593338 -36.4513501554355 -4.03334347281154 0
-216.707893977595 -38.7942554679375 3.63112992748596 0
-179.103694258387 4.35698547158877 7.17524929066472 0
-179.517754278923 -19.5185654268 5.98384315695155 0
-53.1092368964708 21.7386737783389 14.1011620307797 0
-104.320856455986 8.18593694541278 -9.9231782075011 0
-184.811804489979 -33.7427946290916 1.12442127943633 0
-94.4195807964141 8.2750640739219 -8.23632793381488 0
-182.376905401208 25.1609734417145 3.61132535830697 0
-96.5484379064408 2.39522468227794 -6.06283345481638 0
-192.084972969272 -28.0670829762797 -11.8557991498498 0
-185.644241596201 9.00634037733168 -24.8666252377016 0
-205.292152890388 24.3611113891748 -10.66537492895 0
-187.959149539478 33.8766273461311 -12.1925918369406 0
-116.887102140793 -6.21013598828797 3.48368115838319 0
-36.2732479960016 2.89799136686034 24.2869716132986 0
-96.6507857492549 -1.78932362536088 12.8482533656866 0
-192.791212945883 10.8596793260035 -11.4491557787752 0
-152.503723058078 -10.701467174389 -6.60148145795622 0
-190.846849221742 -31.0711980029501 18.6421263704742 0
-208.353065446612 -40.3294051084816 -7.03515449357123 0
-183.501833438268 29.0698747768901 -22.6863141449632 0
-209.657817500952 -10.7172795240186 -6.82902500581217 0
-111.501968740525 6.94856747321491 13.3604875543986 0
-76.8450803691676 4.93110035527283 -4.81675139163778 0
-165.184934925498 6.95100620220607 -25.3624295853986 0
-138.460237047923 9.51429282646658 7.37108172157066 0
-154.27436386835 7.76631385798048 -22.1231488636016 0
-53.3390234940635 6.6877179271334 -3.12270046620123 0
-83.6622427064862 21.9124348266847 -0.81667216269559 0
-74.0936355454601 8.88013703130689 19.9372620190308 0
-130.780849884329 -7.0435113469798 1.07617984269502 0
-40.5783187747596 18.0688134660174 5.65570014443481 0
-0.685712207618381 19.2974670169847 13.3932296918563 1
-11.6561161540163 19.0002733490769 19.6723393136861 0
-126.358933783237 11.2970652961986 9.14088040494175 0
-39.3290939788468 -2.54194212642553 21.6170507871388 0
-205.796245126458 -31.936732084943 21.8647943906547 0
-175.822834576702 16.0264178903759 5.39683457175162 0
-90.0472289929244 24.4732217809102 5.31490960416776 0
-179.40214632727 -7.08855136260985 -11.7586445024548 0
-128.350077050179 -6.80244869461064 0.112353405658129 0
-196.821530916779 3.2588666631099 -7.17139417630449 0
-221.585552162873 -28.7579015101668 8.8759492338996 0
-10.011454491858 10.1311227321789 25.1075915315775 0
-221.603401818999 -31.1523452644328 1.8603962570133 0
-40.6462744137912 21.6194177563622 15.0590733264501 0
-13.8400246907117 20.3668428545656 17.2214636327719 0
-86.9153835518057 6.59483299965379 18.1310227022929 0
-168.751558577734 -13.6282999320529 -5.78039747525899 0
-201.592336492292 -35.1829844618199 -12.7725402054609 0
-212.523860599592 -18.8255376264096 20.5761934737147 0
-146.186430002527 -9.61636621862493 -20.6439475109579 0
-209.399373138159 -40.7310577081495 -5.71760040896622 0
-183.192922680595 -15.9681283672681 11.1321835231892 0
-187.942594047602 2.03739735250373 -13.793166234382 0
-164.969579944466 -0.518883665385022 -20.6474952266123 0
-94.6475192402533 -0.540646814682497 -4.13908005289904 0
-57.3549342782359 -1.91143826692287 19.0292354055375 0
-192.101079574931 25.713163555263 -25.5148538029691 0
-70.1284460846477 22.1053894562652 11.6943157317424 0
-185.77920492357 -27.7421716321014 0.333854647233044 0
-64.1912615521715 2.58494868105418 -3.55587806996561 0
-174.07857203432 32.114599918856 -17.9618741245066 0
-117.095455436014 22.0618905653406 4.46303293904847 0
-195.273570157686 -39.2243280050505 14.6598642954323 0
-185.431627023771 -31.195679967236 0.0207562432427159 0
-180.082706099676 35.5391401571981 -10.5638530162896 0
-208.867324875926 -42.1554973085473 -2.58833331136042 0
-165.540387160144 -6.22678276551991 -13.3647464291152 0
-155.275311051717 -9.64294717471795 2.31549982238336 0
-146.821045931642 0.547061763968945 -20.2830901836092 0
-192.859073026022 8.22797489096655 5.95029929044595 0
-144.960827062419 0.487888104711498 -19.4617002908705 0
-163.395541317394 -5.17649119043404 -19.49918197317 0
-193.281160158368 10.4353617054146 4.89611840103044 0
-219.498560442032 -25.477106761848 -7.16469792509303 0
-194.402195769775 -37.5506169885985 -8.84888934922781 0
-16.3193586496731 -0.0808198143564996 25.0349321111001 0
-196.643974257178 29.8254396639338 -19.6825129468344 0
-168.418454796304 28.0927622172629 -20.8074812791415 0
-201.582256815212 -21.9642731395826 24.1282406330978 0
-164.324220788081 -9.05830453263532 -10.594986558465 0
-78.7014523057066 20.9815539390699 11.7871811178005 0
-123.677753042299 10.0665645483724 10.1837040608442 0
-186.323891812842 -0.0627010981644812 -13.6559629004184 0
-38.8317474712935 -0.278882506732864 23.0817929537329 0
-124.538419736159 11.8662405462769 -17.1603834780066 0
-17.3899957314611 8.20780210503951 25.3173347928336 0
-179.570792350345 5.15730509485625 -22.5877856792774 0
-91.6417796691672 19.9053459731807 -3.73201014989435 0
-194.005097643398 -40.5781560899712 11.4837203253948 0
-83.5573583111582 19.5730806977121 -2.42133428110969 0
-220.60943464596 -24.3542806352789 12.8413309669033 0
-180.134848611544 25.8241335660191 -25.0846554318714 0
-177.050718935789 -12.3183372458115 -8.36037039607199 0
-142.769237282311 -7.64928842080238 1.52510346276405 0
-155.88863493578 -14.6123738156908 -16.3495582036632 0
-213.209796344346 -7.05390628418007 0.748138296382968 0
-40.3198160523358 8.89183388175693 23.6855345910189 0
-107.932402352985 14.0825864367638 -9.01056596723817 0
-65.9614583537445 -2.67389041979447 0.353473372573997 0
-192.388005355178 -30.4874749957685 -12.5746242328016 0
-77.2024207219885 12.0545881788386 18.2921780126006 0
-181.234051598015 11.4887915064123 9.08491216287619 0
-213.998816408186 -34.9872057965335 15.8990847215013 0
-133.729862189177 16.2458915170122 5.18874972689726 0
-82.437379861611 6.59870310628425 -5.70500186154628 0
-181.924760631036 -8.23909454235714 10.4230845664842 0
-131.055632131693 14.6882338528689 -20.4828516206942 0
-5.42122329240218 2.7551292147107 26.2301649589147 0
-207.139730333426 -44.2890654001726 3.77267876330551 0
-156.347410249837 -11.6316714742943 -2.71200859693144 0
-164.599867852765 -4.00797668839609 -19.4495178689027 0
-148.895636420558 -6.05700714104085 6.3457232610514 0
-196.397468312666 12.2226358326994 0.242669160069176 0
-197.844484483718 12.1314877149557 -10.2539311719908 0
-196.577783056275 -42.105765917779 10.4023271812199 0
-133.15775648757 2.93606821597273 9.27711024445796 0
-193.083037134745 -40.7793239448218 9.80934766436066 0
-131.870583133929 20.5071764208519 2.65313396266253 0
-114.654039537346 14.8684698274268 9.44281044991493 0
-32.0809482003719 7.18596812218716 24.6310913351864 0
-187.169334461212 23.2120138167909 -26.7788666841645 0
-106.569542111082 -3.09555898097251 10.6061808903994 0
-214.352574983141 -37.0488612830805 -6.98421113477882 0
-176.94964437973 25.1945684001659 4.50489844907168 0
-198.929921814213 -0.764284183999261 9.66066738645364 0
-179.583541538918 10.4547490366765 8.81140556708062 0
-204.905238437424 20.747354914127 -12.6784272370558 0
-136.127321676804 -5.52992252839554 -11.0196666828059 0
-182.39567527807 13.0235137211583 -29.0331811462046 0
-61.1806410244123 -3.32925291804506 16.5274910682487 0
-86.3317638823004 12.1892524374581 -5.12725207759188 0
-191.083318744967 30.3234698435707 -20.0369531011411 0
-189.903106714134 -36.8640950296966 12.4057309636917 0
-188.454612612578 -30.5927681463007 -6.16457431974156 0
-145.961625358801 -4.86247119866189 -20.7297353465001 0
-221.628903246265 -17.6459859071703 4.29865591270298 0
-126.397717073492 -3.2845586271918 -7.82442350330862 0
-213.948309550843 -7.05051465729846 7.18974085574861 0
-120.316378097803 0.277508431301096 10.8177914045147 0
-151.361259498149 -9.03485788840496 3.07162221904636 0
-200.389447614236 21.0029825548292 -25.0888785614731 0
-193.975421305724 33.4106741828574 -10.6487531407572 0
-173.795610021869 -13.1547598506504 -7.48825168096477 0
-118.086821431087 0.108992113816844 11.0375476132093 0
-94.0064516966417 23.1256569302085 -1.69780156257558 0
-187.518566927425 -19.9990116680118 -7.65189601299264 0
-105.895177271693 -6.01565911219543 3.87980711021011 0
-173.932008734456 -0.341485454712142 7.5355119507483 0
-20.9607769782816 -2.08731725518601 23.9077242885172 0
-192.951265222686 -8.48936941170089 15.7548728103944 0
-111.612761178645 -6.1137647327512 2.46214616941783 0
-123.566622241222 12.9073288185966 8.91957863433534 0
-208.793534711835 -41.6015780305409 -4.1467598173518 0
-178.29985295597 -1.37984215017777 -14.6774994869637 0
-112.156951623095 22.1806759759903 5.2509241040172 0
-203.971432175982 15.0929029563317 -24.7147189272655 0
-118.265559382469 23.6566075653641 -1.00353001216804 0
-130.713796965364 -1.80248015671859 -12.1058218514898 0
-119.943645685032 16.5778886457241 -12.5353633274964 0
-86.0636611299938 -5.60283481743052 8.56851769717031 0
-188.700088469244 -6.70246166874385 12.7318373124854 0
-217.146983207067 -19.3691176423683 -9.27310097870762 0
-214.790442726877 -7.26420127596922 2.03245633348729 0
-201.614542019113 -39.9585986686159 15.0828475910742 0
-198.108457397393 18.905979446653 -0.623925385666065 0
-186.42100217277 10.5613902271033 -21.3021862202732 0
-63.9722712780481 13.1175153403431 -1.41143351615996 0
-116.158131625892 14.3177237024797 -12.2648857119339 0
-165.162849358931 24.9368173122693 -22.5240843350158 0
-218.926088773963 -35.4842911083734 7.67769686534358 0
-173.09519905661 26.3271329175916 4.86625622793888 0
-152.477820014771 8.6227622648844 -21.7012379729354 0
-86.008161634161 -0.924749792114766 15.3511955616082 0
-68.2584954545229 -6.1535185646411 9.920483104347 0
-103.484742047805 0.0950063317722376 13.2315351270148 0
-113.794109412394 -4.02269134965914 -3.33812331956359 0
-3.84762504264497 15.1185372277854 8.2290977273258 1
-212.051465489882 -33.4508701316831 -11.1284320495959 0
-210.731449277275 -17.3047841206159 21.07645667022 0
-173.718391423157 26.9216018489804 -24.0374586691121 0
-79.1510926585863 -2.02284131643661 15.2255905340854 0
-63.361409378152 5.04949284741108 -3.92206895402016 0
-207.527943841522 -4.3103741096561 9.98131323434576 0
-153.254339884926 -3.25239891754556 8.67211892343764 0
-203.059338628918 29.4338212105949 -10.1261713529543 0
-201.955205034366 30.5072539321219 -9.73777578406393 0
-90.2670559045231 21.3916571707243 -2.55987243206475 0
-151.30866246581 -9.29145501789744 -22.7072793814862 0
-182.184052592225 4.56653592521382 7.57400151978858 0
-15.5994360692299 3.61607839449911 25.853458110908 0
-110.258129996044 2.15482728952279 -7.76870147279014 0
-87.4834062849455 11.2543928509704 -5.68479141206753 0
-0.182251927209295 12.6875400338885 24.4418387399442 1
-192.09354402081 17.6099416850983 -28.5487650818182 0
-101.699857129922 18.0316297832167 9.81763243072014 0
-149.707106957163 22.640551085202 -14.740528073272 0
-12.0496625633673 5.82985815414888 25.987681536456 0
-94.073213141648 13.9016975927392 -5.78508167775593 0
-222.709373096473 -23.4134245357142 3.02024115773 0
-116.188723661665 -4.49087141363516 -3.1699361291316 0
-108.4560775548 2.78129540968374 13.5814156839057 0
-196.571134928078 -30.4827239998434 -14.225676369969 0
-215.937501348417 -27.7600319889573 18.1463202720538 0
-190.487478006506 6.55532239568418 -10.9911279982629 0
-169.0170063886 10.6875451517894 4.77243576365487 0
-15.2532813338256 12.489846984534 23.9565929001201 0
-193.633131647961 27.0100149542069 2.48963935279428 0
-54.3477953481193 -1.07891423542858 -0.82196669549184 0
-186.673928905543 -13.4375627643955 -10.4312727985203 0
-204.634620383696 -4.54230565822151 -3.40734729988245 0
-182.506539457454 35.3675017765192 -10.2131757947353 0
-204.140434877216 -27.6512675087995 -15.7790249525208 0
-197.12001230066 1.78503847126946 -6.47715381344072 0
-221.711064939906 -22.9409643660043 -2.41477720212771 0
-6.23411659996474 6.97594098211613 0.323707379649715 0
-184.624610749681 10.4894686324772 -18.3794864235111 0
-218.20652117346 -37.0935806543348 1.51789959331545 0
-196.092736758463 3.40586223145482 7.54733053874882 0
-49.9098662034278 10.3410973061653 0.307257552661329 0
-193.788362272159 -19.9665293444878 -13.8195539637602 0
-218.806954602122 -16.6424719524679 13.6003177804939 0
-194.116374488855 30.1083834042737 -19.9756797177897 0
-203.93064796936 14.9224392502355 -21.3805780193231 0
-59.1472894586994 18.6853293295037 2.38470978272103 0
-212.013079602782 -38.2496512963106 -8.22671477656744 0
-209.940571635129 -42.1183631842351 1.22588245546733 0
-127.750190393329 3.07011806096313 -13.989947832073 0
-150.976443269069 -13.293646361978 -9.47562543211861 0
-135.033371803801 19.8327327057627 2.76646923547025 0
-40.8568118781843 2.00544377118128 23.662410717921 0
-176.518141227547 18.1190494740775 -27.7866475622062 0
-166.909640642828 21.142397919845 -24.2651936544422 0
-206.487025518373 -9.732331789235 18.1616287907115 0
-172.832049310575 2.09086701892373 -21.6966032062167 0
-19.1861577809533 -0.878739425137359 -0.164927153026479 0
-97.3555096936491 23.3113280957949 -1.78220967755977 0
-138.572135285406 18.3321318890116 -20.0170163958895 0
-183.721686756883 8.55857915871175 -25.5135986813952 0
-42.9831142965988 21.7511664202925 14.5597275822303 0
-189.334688373633 15.001360840246 -16.2987492888939 0
-158.73270445316 27.3204561201431 -11.4945551256584 0
-106.985894888761 -1.23676185425529 -5.53012078353387 0
-175.192119765404 25.6869950788751 -25.0632584525528 0
-186.889056613899 -33.608669269035 -5.40061910321081 0
-215.600707341447 -23.8259069656039 -11.2867479654773 0
-184.766528278639 -0.683946284615385 -13.7221000679745 0
-33.9152731974412 10.6375661669985 2.45239866646959 0
-15.0145174165119 6.30752489967402 25.7867253339521 0
-219.838327102349 -13.7345670254366 6.72774541460608 0
-198.170771674061 10.4231685642212 -24.7821018904206 0
-204.357205618009 25.8641039277728 -7.40292790862719 0
-169.690589122657 9.22416390608928 6.04845150476713 0
-201.016876325902 19.5912356986753 -3.92956644055456 0
-130.434389580063 8.07001880220772 -17.0352936038648 0
-196.307618369121 32.5916112732934 -11.4262054248802 0
-202.152460282576 -19.2540825535293 23.6379009905822 0
-113.911313946069 -3.6720371484498 9.34343107793307 0
-49.9381604188436 3.88850497977848 -3.09447161303738 0
-94.4686522022586 14.317557172168 14.1171965702926 0
-201.749162024107 16.7375295486342 -12.793167098146 0
-154.464377467815 1.37389208723056 7.42879281420703 0
-37.2755270221162 16.3689224108066 20.1153904282282 0
-141.830479401648 -6.34880313438949 -17.8613910503642 0
-182.470735787945 -23.6816372062163 5.44166172330883 0
-197.144034148124 22.5390111845772 1.89569762944825 0
-41.8067222580761 20.754522871067 16.3694181885104 0
-120.463090422644 8.70308295491793 -13.3014948742079 0
-181.705385436469 -15.7186346769571 -7.41645905821908 0
-211.68810261031 -40.9273304739782 -3.44988953820534 0
-90.3069353697843 17.0206379581957 -4.83753174141877 0
-175.891591469781 -17.8361666117832 -1.71552435780543 0
-220.840339131152 -33.1372690788453 3.14725214130658 0
-151.258789013714 -9.45191157877285 1.02362480020544 0
-192.948602614203 -19.8449345615751 -12.2710732218797 0
-110.424393258174 17.7389554568159 -8.33651515175706 0
-170.900021915825 1.92849421206227 -21.0580977559792 0
-218.387402609851 -27.3388613473982 -8.26936260136491 0
-177.236544534229 33.9803060671482 -7.64516985848729 0
-100.233156457984 10.7675677012689 14.7797711526053 0
-177.279571455589 -19.1215147620481 1.62507062982779 0
-20.2927066118841 4.36761508527595 25.649520178518 0
-190.904628938455 -39.9415931798325 7.78476371590258 0
-19.5987235063756 -0.202946767565719 -1.38335686355613 0
-188.261526664873 9.11085208281854 -12.7677488716113 0
-135.238241361265 3.75838443705671 8.98110190677142 0
-124.187000613453 23.3168789568854 -0.619369497222403 0
-199.220244332356 18.0834703438137 -28.4989809803881 0
-190.545588090525 14.634888308522 -20.1121484609596 0
-133.7305848996 8.66105588735807 8.57907492194084 0
-109.111832440757 -3.03106454673162 10.4022263753933 0
-110.803351727563 17.3836320129525 8.66022895690262 0
-8.828737172407 15.9884933472305 22.215377980641 0
-183.270247436156 -24.0517072450881 1.54509267791916 0
-88.4995774099382 -1.71641355105853 -2.28241754346945 0
-200.839919613344 0.166221561130614 5.93539002715297 0
-18.3371958888279 1.42070503181507 -1.47791339976459 0
-201.858507550154 11.0488110274988 -24.2529693956762 0
-64.2936910146386 -3.98722830605258 15.3532420259373 0
-204.585850366079 -42.9947358121187 11.5241451404015 0
-20.2910322885881 16.5823469513432 7.5689482538571 0
-179.930267580662 27.7519948993143 -23.9376770354332 0
-215.787901874382 -40.1373004632472 2.32907535680151 0
-186.565114885159 -10.1888694093742 12.2105903198465 0
-188.029208975707 -29.1670146411529 17.0591744142084 0
-192.073873143528 -31.6109702197339 -11.6902521554143 0
-146.129704070868 20.7856719071416 -17.0251919856261 0
-183.843242240358 10.2182263240042 8.86988440321206 0
-155.090475047664 21.6442858790472 -18.6735019004764 0
-63.5828035188246 17.870030853463 16.4347076295154 0
-212.76170395737 -26.1950507722901 -13.1367937367354 0
-192.066371393681 -36.4981966040732 15.4495498562122 0
-212.877485535431 -24.480388494752 -13.2996025467577 0
-103.026390859917 24.0139892589816 -0.888365412567105 0
-139.295747246787 2.93683226413679 8.47644546959645 0
-184.134538338702 -25.4794099915232 1.78645463292091 0
-143.69940220866 -1.84654297291818 7.82952060903951 0
-173.472066143192 -0.5594372699274 -16.7164245288213 0
-196.947180770616 -3.12414016714033 -9.92059879154028 0
-188.412888044016 34.7889764745703 -9.50159468054903 0
-87.0938528185043 3.69328973331303 -5.54479890105617 0
-134.939028164575 -5.95586499132139 -6.15591011133743 0
-42.9426658507583 -6.47614755554328 13.2155151015682 0
-157.970844978256 0.160294838313368 -22.6039758707404 0
-20.2508334617043 11.0314087630279 3.70831099388165 0
-4.33747409358261 -2.91300238777546 3.34462522759344 1
-168.707219858729 -2.20068385914586 -17.5449738014064 0
-185.856339407081 -22.7056833813376 -3.67892811784638 0
-198.105527969387 -2.03217747564543 -8.06176151630229 0
-186.848926130671 -2.21665556115096 -13.4497949144533 0
-119.95210962487 23.4603855105466 -2.03382305127837 0
-166.21939129163 -8.52185184393208 -10.7037385922934 0
-146.609592340967 23.7325161270526 -4.34020041855213 0
-196.953158945542 15.5829915624936 -0.223452088696725 0
-180.387994604858 -17.6174660889795 8.50404852915502 0
-70.0242533101149 11.5454916440995 19.4877323481752 0
-60.0432317496896 -1.75256880573566 18.746655187945 0
-12.6706236377142 20.7498522382585 15.0583511714716 0
-194.442027604523 -41.1643656615672 -3.42186799986107 0
-195.350147370195 -7.87812298540421 -13.4177610869008 0
-40.460083515834 -0.708866952448566 -1.19478484057422 0
-169.961719183918 -10.248800330402 7.24246134458318 0
-190.32573054824 -8.70681346813193 14.9445027489977 0
-183.390543325315 25.88464488297 -25.0413982075466 0
-46.4229503420735 16.0316865635312 3.51640423915263 0
-212.530263819151 -12.9995917865396 -10.2257816131148 0
-169.439067483778 30.9136399459278 -17.0785765622951 0
-177.692860872459 6.60607628409625 8.27626611404422 0
-4.91953159816938 -0.228544848570174 -0.278392509916014 1
-186.199779153765 20.5562087894199 6.88650744353653 0
-222.422340535439 -27.8450920161819 1.4630583220412 0
-202.067361817275 -29.417936667577 -15.3484845968502 0
-98.7957066434193 13.4803089995933 -6.89891365120145 0
-193.444683799 10.9567280105145 -24.2301195236804 0
-187.303011423287 34.7254080786213 -7.86854216576849 0
-215.158512296692 -7.78730866192594 5.91785745810372 0
-199.988571137233 -35.2030067785028 20.0709941386369 0
-221.584038849383 -18.9329713673015 8.15481810023652 0
-185.035353849796 4.11856259175439 -14.2038275129978 0
-205.70570293595 -28.9351535945568 -15.3029787626036 0
-25.1245998669563 9.95764104828426 2.91436226043608 0
-26.0972529731939 5.0596233707478 25.2367368174655 0
-114.432865430817 -5.69999207699537 5.68434419113185 0
-162.68876921085 -12.6097419790528 -4.91916346920032 0
-199.570623427226 11.7766357785285 -21.1281442007725 0
-78.4514556654691 10.4799372680818 -5.19740024450289 0
-154.679785936444 18.956150161991 -21.4224376461946 0
-203.997993320898 24.4222167608511 -7.13452215670056 0
-68.6251410236557 -3.29298131224384 0.992714087582514 0
-78.0658155270601 -5.61691620299619 5.09198505418802 0
-201.90950570237 -33.0589546168021 21.5893883874192 0
-28.0753425737477 -1.01210027831874 -0.693509341873664 0
-130.263379860739 17.8660328879087 -17.2261532721623 0
-178.974034170953 5.6351406302413 -25.3344324077963 0
-163.206781160881 29.6233096577261 -8.84050030385955 0
-213.622279754287 -8.95877297668589 -1.82396384277028 0
-143.380660043759 -8.35402266864369 -2.49022139553166 0
-208.733145396464 -7.82113387042664 15.1476777722487 0
-181.913397486576 8.86449917126917 8.7355445105346 0
-193.135834269406 -29.6371851700902 -13.4206390437184 0
-59.0769181273229 19.8154306551482 15.6783711033017 0
-133.020958328699 11.0424713901061 -20.6152437408159 0
-190.017584298118 -38.6410050381958 9.3690521093093 0
-187.630883247312 15.1365257983243 -17.9481524473837 0
-194.995314037761 23.4425229584961 3.28570402150262 0
-138.202319997628 -0.274389829846089 -16.8658056857911 0
-83.3427180386957 24.1265224310709 6.89584885285586 0
-54.8744063736054 7.40378302807913 22.7573400036205 0
-111.715725607213 -1.91774992671498 -5.63177006714627 0
-28.8132332262129 -6.29884405432141 16.6194163734615 0
-196.957859867771 -7.12545169341182 15.6689436040419 0
-202.879818223353 28.6258960465345 -4.87899306073332 0
-169.607738133536 -4.32347210662299 -14.3692532986026 0
-78.4786975900184 15.0753069727607 -3.48806990944303 0
-130.502206327122 20.3077900935458 -10.2449667474353 0
-165.69243489415 -4.00342432454174 -17.9085739393007 0
-67.3819822963166 13.5356661502704 18.8531053464629 0
-200.691991075553 25.4068769116068 -20.903210923611 0
-20.9188646092796 2.32518667311605 -1.4899477326908 0
-182.428886339492 23.9425837845032 4.89800957181104 0
-179.176162348053 -5.49480379455605 9.02173519195444 0
-152.814962038679 -3.30984343906092 -22.8829070763774 0
-71.4206191468376 12.8821340731522 -2.64341134733259 0
-196.984249646808 11.0455282132329 -23.278068152481 0
-113.121204792603 -6.06261882520354 0.612861470643227 0
-157.84310704296 26.5528142949268 -5.40920334159328 0
-154.540354661711 22.1530959892698 -0.22870412096818 0
-202.195135793702 24.4364934099542 -20.134161966447 0
-176.36864933309 -8.84322454893665 8.96484939675542 0
-36.1129397150884 4.42020915325257 -1.72849303476865 0
-207.637645417484 -8.02853232764411 -0.822484131760407 0
-67.6323182778451 -0.271810488017577 18.9300231924652 0
-49.8594829892203 12.4599103881357 21.4124140587144 0
-72.3050322367348 -4.59192709854383 13.2806864683704 0
-173.616837843723 24.3630144378743 -25.4184803375613 0
-110.438573195779 6.38483986663463 -8.94546128416793 0
-88.998111318182 5.28938804341507 17.7251764376012 0
-38.5174257049193 4.79403012731661 -1.70650877737677 0
-57.4069287098162 10.6918863324464 21.4022507898674 0
-108.502474177235 18.478841938146 -7.37613039485 0
-187.984001149657 -38.0580201751548 3.96759710331036 0
-102.242003292139 16.4453711071467 -6.80529120586299 0
-153.160531282225 -11.8401312426267 -8.2035794517104 0
-179.308971801284 27.2316477571808 2.39921543555485 0
-138.31948762293 20.3107021257261 -13.9079707295455 0
-205.779736400998 -31.0767197298999 -14.5546124862632 0
-195.929254425671 -43.0843807194703 2.96933591824508 0
-200.039573699398 22.8420352409084 -23.6699284226966 0
-218.60030925512 -30.9411046608988 -6.43518110906311 0
-169.301139894304 -12.8371592036035 -7.13255383284352 0
-188.619283119106 -35.0384588430459 -6.90799481132554 0
-126.179440344306 -4.24922700340964 -5.80736503946956 0
-160.617912793573 0.3287714939643 -23.0696861416111 0
-178.316575368807 23.7058988996881 -26.4419887948413 0
-41.6950949761234 -5.96295650597835 15.5255894911919 0
-157.76219653511 24.2473200176847 -17.2260813312269 0
-213.978494360104 -39.1844315115505 7.07768027805762 0
-116.222846724518 16.964010453384 -10.6573332187588 0
-174.051743539639 20.4442307483327 2.98975240320924 0
-193.340515508729 -28.3939819513456 -13.7363609359773 0
-7.27720890260813 -7.22929684057019 10.993632182715 0
-194.327143251634 -17.993206665021 21.506846593872 0
-76.3421466210238 15.5457668958792 -3.07487790239859 0
-175.879610925019 23.9936092963871 -26.038169689245 0
-199.521256662812 10.0403793197475 -25.2310396690139 0
-167.017781683291 -14.2032417944507 -2.59605640734581 0
-219.583197953313 -28.7493436864386 13.4613400565225 0
-186.652536315129 -8.29584416573061 -12.2672247730371 0
-207.074547252564 -6.85344064954284 15.0738830260903 0
-179.083688387382 13.5571495305261 7.76393846272039 0
-212.116749376407 -13.5237642844102 18.5219217597379 0
-114.334604968922 21.387425085398 -5.6272329606488 0
-51.7740613290919 13.9594957822226 1.41847899242974 0
-144.931039098435 22.6957083027458 -1.36572655721295 0
-152.466118947949 0.766868736155986 -21.7864766572226 0
-70.2197754407005 9.45725415676766 -4.28142741081517 0
-171.039123804067 -7.55552593138871 -11.2116037251793 0
-150.834873289285 1.92159501849875 -21.4198956448263 0
-140.358002836181 -4.8149073466678 -16.9817848832834 0
-98.4876972846216 20.2245924877873 -4.50510304569361 0
-69.7960877051039 16.1072066171703 16.8198641715048 0
-194.926138045124 -27.7803603752845 -14.4447777715641 0
-204.907493019676 -5.68858990962716 -4.94194845876354 0
-96.1619777160644 19.4975788035754 -4.59758539554625 0
-195.339475528039 -12.9811318700568 19.571153388775 0
-138.155222856692 8.64676845002419 -19.1169642585276 0
-148.765480370154 11.3355766291919 -21.0448661143847 0
-208.050315745473 -7.96730173922157 -4.6956979694176 0
-221.156315451321 -20.9911827799033 -3.28742689347821 0
-195.844709107518 13.2550583132294 1.52094517128692 0
-154.67445933047 -0.543958807007437 8.367765541922 0
-34.1692779828235 -0.223059976336988 23.6367762901498 0
-66.4570638029973 2.04564579372161 -3.83274696628292 0
-42.5422222216571 8.4857269352944 23.6119452618785 0
-73.7332437581122 2.31068045044628 19.5268958204604 0
-191.08713971262 12.3114733337601 -27.2960597883308 0
-98.7266006050507 -5.33894706733822 1.34086544220606 0
-189.727263750161 17.2351781180003 -28.5815755219627 0
-45.1151123025038 -4.63699077640415 4.94897485119638 0
-193.341038754317 -39.1486237450609 13.2784004800575 0
-159.541062147979 -11.6853646538743 -0.0300067988944016 0
-176.197235845428 6.30190307545504 -27.143605328742 0
-187.871144320082 -18.1823318313218 15.6902327230161 0
-212.070065998085 -22.3595968453606 -13.8039419174818 0
-154.04915576288 23.1206986126818 -16.4792704066988 0
-214.206543967971 -40.1699420279934 -1.85394892049391 0
-193.209045476789 -26.816954134676 -13.5598989925913 0
-173.413035230423 33.0828383975832 -15.7155773742256 0
-46.826314321276 6.29656734968773 -2.1753296090209 0
-198.91684588309 26.4782627296296 -21.3261670118399 0
-149.675658971238 14.6063844661086 3.69055755548797 0
-144.80172653655 -12.5743755997543 -16.9119114594384 0
-117.563921661403 7.18893348497244 -11.7735655159839 0
-6.60691519408038 17.490849665175 21.1720174825035 0
-109.841477946111 -0.294454827670906 -6.58454154558349 0
-187.532127726088 10.7764743954674 -26.3514098724495 0
-67.2297687554446 -4.32902736391567 2.67479284784717 0
-178.170717750865 5.04223348873078 7.75623562210039 0
-157.12922582795 24.5316137243079 -2.35197609464942 0
-165.682343184517 -3.68335271412229 8.11312801971655 0
-81.7466762551332 13.811927195798 -4.0101106947592 0
-160.04188269941 -10.2848789555828 -13.4844122601184 0
-208.894366176163 -12.5060241727135 -9.32242097447736 0
-191.312263809695 16.2269743795795 -28.5411717797033 0
-183.380284709425 11.2068402056941 -28.5405150691723 0
-101.702107628599 -3.63510145652896 -2.0501062283079 0
-201.356399956321 -13.666099294305 21.4325411854891 0
-0.972636607920615 -0.909694376820008 0.588248364310057 1
-85.9170933652871 13.8889525393873 -4.69494145608191 0
-95.6078719359554 -4.2357274281664 -0.282566405045963 0
-106.12138890897 18.1432344369808 -7.01415229875689 0
-184.348598119659 -28.4659073551894 6.44645132725952 0
-188.936180730262 -8.97300481377577 13.8903721457561 0
-144.762923673335 -8.07632235409749 -19.9663829062086 0
-106.902640412947 6.3124010628196 -8.91000070913519 0
-181.480696041383 -16.2488948793508 9.89131109326888 0
-97.2889273015938 10.6109383085209 15.4528376345561 0
-84.3032088848219 6.98292073194764 18.5666312087314 0
-183.630067748767 9.19277874177548 -19.3206286101487 0
-195.513105975734 -36.1658403913476 -10.8094481801856 0
-184.116514503463 9.54708293527988 -16.8916297862213 0
-191.725865422605 -7.42513356061357 14.8222265355155 0
-210.37268693635 -10.4241732432007 -5.21314743616626 0
-187.959394876331 -12.9030337329746 14.7958004345929 0
-206.023696816655 -42.6778313119659 -2.87051845000281 0
-133.241806643707 0.187687758843307 9.05502678061952 0
-190.766973489234 -11.8902741518427 16.9686197281547 0
-169.566541171427 -9.14915610880693 -9.98366510037153 0
-133.340059246288 3.71392691904722 -16.2739141543163 0
-185.012313103781 21.3077819616148 -27.5043265018774 0
-180.839910278645 24.3826965841416 4.84833626588294 0
-195.877075681202 -41.8166730701136 -3.26177134684845 0
-15.3304669078176 -5.97595614751082 8.41223086879735 0
-192.72931490773 31.3916113899852 -16.0497729701547 0
-204.290573426611 21.6978523802014 -19.425489240933 0
-181.585050125334 22.6583730673724 4.26374757874051 0
-155.533153630412 -13.3000658117827 -10.9767718138437 0
-129.078508113805 -0.11980072132745 -12.4481474691935 0
-156.202393547908 -11.0151963379821 -0.880535875736833 0
-205.727689965703 -30.2762299897476 22.5678493242387 0
-160.677756289251 -1.56025129050245 8.57230455891773 0
-181.167767662135 28.7252539632711 -23.1348786628797 0
-198.152139087499 24.0371032660581 -24.7484420496732 0
-193.068560932539 -34.7751078563303 -10.3270960604992 0
-92.646065348056 20.019504813673 10.0567874950753 0
-40.5085684048512 -1.54849916041619 0.291641043249014 0
-37.8705817640099 1.47417130676672 23.8027827226562 0
-210.954572783236 -41.5975187699001 -2.14671327739904 0
-71.0192898502798 -6.1108131901979 8.04114221150205 0
-139.507097432745 -7.65663156689932 -0.372406670400559 0
-217.614536245462 -31.3169257618418 -7.58388129159086 0
-22.8130046505005 6.4593362943863 0.033333017442572 0
-121.404549289008 23.3566693965223 0.551761286999593 0
-161.810306204645 -1.85658374451924 -22.6446309972045 0
-97.5241379110568 -4.72099997055817 0.174267583531446 0
-135.114099410408 6.52873625313489 8.66045677623516 0
-194.462154394806 25.8671559111739 -25.7508141823796 0
-133.673676044756 19.1036314840132 -17.5331595676411 0
-91.5234633594631 5.7628831349281 17.2624744367725 0
-144.839656036359 7.95023919313203 6.64762944528001 0
-201.134197117337 -38.1890713755056 17.2599503838265 0
-197.820883810377 -20.1413199653016 -15.5045200001123 0
-79.0887335030801 22.8015225850711 9.77593859822773 0
-76.8200002366516 8.09889441674746 19.6718081723033 0
-184.942469289428 -15.3871135216008 11.7272579981457 0
-148.096873262415 -2.39539764869977 8.30722343196873 0
-106.197213374417 22.1536983766019 -3.97402562714604 0
-182.4535519771 8.93577201075151 -27.4041918279263 0
-24.1514827899532 15.6085755700806 21.689905870481 0
-109.028203297934 -2.13836329994184 -4.94731299872193 0
-84.893911520095 11.8672910587998 -5.00951397333922 0
-112.199806585125 19.2542432668214 -7.50270455874493 0
-210.728830247046 -34.9433284602582 -10.9565435235752 0
-191.52329313062 -20.706505717854 -10.5445300660042 0
-126.681462200148 1.54872887803427 -12.3194918734717 0
-171.992867183976 31.7387420358916 -17.7362371532487 0
-123.200412626951 7.79164060429969 -13.8483585998607 0
-188.425749506042 -11.008882390901 14.3822198416873 0
-60.9930153315242 7.65906475944167 -3.69811636323403 0
-125.783805012615 3.66585824552859 -13.360266409813 0
-6.2815945544799 -6.27437272936038 21.3034941406985 0
-154.392262082233 10.8722246183837 4.43963139833987 0
-177.410017870271 28.7595966939689 -22.3977287113225 0
-190.728672211902 34.1620895347124 -10.8167761005816 0
-126.241464876952 8.65034428633191 10.1067638732155 0
-159.698537749048 -12.1936177306401 -4.08107651706101 0
-39.6315304751943 14.3900655608178 21.2889439046471 0
-157.503267726618 -10.8441794318488 0.787862168639044 0
-43.4586375270247 15.938345232357 19.9056229715823 0
-203.994710510123 26.9470316747966 -5.42464685170945 0
-67.8606973453981 22.4731138536667 3.74668393346792 0
-151.42945641035 -12.3383387066055 -21.5139605874975 0
-196.815890497898 19.8504277765062 -28.6527542185903 0
-169.175113534382 26.862116761301 3.11412285772979 0
-202.25231133184 28.1337258152633 -14.5357320161782 0
-2.31294544071125 6.84762953931736 0.0568582519931957 1
-192.665870077574 17.5708202220074 6.25279939274998 0
-89.5398529961476 -4.941641870195 9.97574469770871 0
-186.164406412989 3.56170012664318 8.17370656735795 0
-192.272554897198 0.672041602510082 -12.2683394390532 0
-137.224721741461 2.21069436556609 8.74776172564586 0
-148.810160099758 14.7677512905692 -21.4153120185698 0
-181.86031444284 -8.74109039100028 -11.3095560912249 0
-155.088768396324 25.2313312570605 -4.81697579888491 0
-183.864163377494 8.34418091113608 7.92674689224788 0
-188.895682859666 -16.3206638453369 -9.78252038370466 0
-44.7511110339132 5.14583942884829 -2.72479786004758 0
-177.000906797174 -16.3959206157012 6.7367229101732 0
-169.579125452984 7.89307771340446 -26.7112534175075 0
-83.1083641618386 -1.09970320899397 15.6468547313257 0
-174.396306925455 -17.3528373641292 1.41709492704371 0
-27.5603070410037 20.0336294417386 18.1450720548372 0
-131.460985700507 16.2703840587144 5.470908913831 0
-64.8559071224561 17.7887646735615 0.579634527833818 0
-71.2022195545939 0.435079949956456 18.8305213160235 0
-180.399656645649 17.9624681647745 -28.5519460371926 0
-185.119865371211 33.7222982617863 -6.97770333585237 0
-161.010726881919 -11.2807863147177 2.66591117044661 0
-186.295880226991 13.5379956049086 -16.6774402357855 0
-92.4604656872261 24.3317645861048 0.80089791565883 0
-121.445652384603 -6.51677015151996 -0.953164924378342 0
