190.743707430124 -30.7766688176378 -5.74850221586465 0
178.034142567685 -35.5328955849682 -0.432089125501861 0
183.522391591232 31.6676728565285 -11.5399621296049 0
147.980242055167 -19.8474497141939 -12.1381756457429 0
204.792196460424 -13.7666848541229 -0.375640293871108 0
200.29346497173 -27.0815772966993 37.3927489442619 0
169.712121104654 -27.6667588812097 -11.7641066074166 0
99.594457049519 12.5830277330917 -19.8675646583296 0
68.480352297867 7.00547313203353 2.00678487142666 0
175.977924776564 -18.0882532730068 -23.1155006746996 0
62.2530639379262 -10.4272623833297 -22.3378241519216 0
44.884107136977 -0.987556144117121 0.370985909078459 0
187.633034432058 1.81862373692581 3.39101378177931 0
193.542422934794 39.7338479091146 10.0645900618378 0
185.697369142449 -30.690569326734 38.2413596294407 0
115.70428012956 4.18212637594255 4.43340825234298 0
167.96271436057 0.583098701662021 -27.2323895473878 0
170.980286983279 -5.74839469578564 19.3375650116284 0
114.573033863979 -5.75043278943963 -22.6389378545232 0
199.302319584857 33.035598942297 -3.18174020209292 0
28.5175704230232 14.3156450997659 -11.6188146373518 0
143.916479742144 5.95603402566168 -25.781046949594 0
147.72023553074 23.030800674547 7.69407492245197 0
56.2341303696515 14.9236139313554 -12.8191981689831 0
19.9882576792466 -9.51704909599125 -23.7853380203846 0
149.558105597733 -22.5831355823703 -7.90616365288844 0
206.511796599469 -17.523766276897 26.3159869816343 0
198.884313902315 36.9440805059964 17.5965536412799 0
159.892506029519 27.4075434347797 -9.7871746839135 0
192.53128034486 41.3323372319918 22.9740233911366 0
194.998769301863 5.49610601974411 1.51974551550277 0
140.425329123095 -17.1802641067071 6.17564152536786 0
185.04033232916 17.0853095398212 26.8965445368599 0
61.4507016492465 -7.80598472212091 -23.8477700116914 0
132.763639916727 -14.166694123032 -17.3213781080438 0
186.776334184249 38.1320422758615 -0.528371202613266 0
164.079385996531 -32.0889043466436 20.0660706705543 0
201.387191687346 27.9871178364487 13.456486623179 0
135.097445448938 18.1947555195105 4.32433484372366 0
194.398685505326 4.78067104445667 -15.3049495456862 0
201.450644102234 -14.1814205365257 -5.34106962568927 0
190.881622660455 -7.69618599088792 20.8613620110378 0
178.955348444992 30.6944347957021 32.402538558563 0
184.97328479084 15.5706075403542 24.1894005243147 0
152.39048573444 26.9003616864351 3.69591554980271 0
196.786856432881 -32.8085686880673 25.6896490536582 0
176.803596860849 37.428745561455 -4.90287479888987 0
94.8440628890853 0.538250615307542 -25.6915516891466 0
188.057802199807 -11.8201956840736 -20.5302924990227 0
68.2617757419166 12.8406183431528 -19.936466471632 0
154.823124682218 4.53240853048433 9.45364202844473 0
176.917965002068 36.1969531726709 -6.4239875834609 0
180.864436753703 -17.1025820083286 41.7682109543795 0
180.338671095666 -8.41558116199732 19.8809273970199 0
134.315404379976 15.2011714571264 6.00132008435879 0
203.950033661061 -30.9088007611722 -0.903494779948156 0
177.119215829736 -18.8877318685199 -23.8728772463019 0
182.942953834225 -35.6683764438291 -0.371779795102418 0
157.007149113558 12.6344651475376 -29.2736845192064 0
198.549936957486 -7.07429199053614 -3.96768450133861 0
54.1442654696646 -3.53503042839225 -26.0657777482571 0
40.2261165267398 5.78718899102111 0.90205118175629 0
107.856543933708 -2.77278013459647 3.48984350127566 0
149.800587196316 22.1724156331459 -10.5161741384551 0
195.059852672736 24.2469220257864 -20.4847978654509 0
177.505590633475 -3.51315322276436 16.2431559601221 0
192.455527581232 -34.2171955429938 1.91350716286734 0
164.92367811959 -18.0730859956282 -19.9260704888242 0
96.4219470870125 2.01255598778725 3.84578031438038 0
163.620365450073 29.1407336658406 -10.6266422025282 0
86.3445194952531 -10.3394090722484 -21.3311453597089 0
39.5165806750894 -1.03843540290276 -0.0594981231845016 0
124.875449178473 -6.92763996428845 -21.8148477954752 0
188.843934689722 13.6596387341781 -32.4937734425518 0
191.975352983135 30.823650385013 -8.28394489481778 0
168.67554065516 -8.87975970866573 25.4434479385912 0
185.926289992192 -4.96722200318336 32.7548721365807 0
159.244562454705 -25.6190193301995 -8.01254656551333 0
161.896075630928 0.79598722120806 12.230987203533 0
155.886397774847 -13.12055430635 13.9762172059327 0
189.63722240832 -30.3579571821234 37.87041611942 0
4.40530010633986 13.4549195915113 -22.0896217604068 1
200.319722420182 18.4738621559101 -4.90336112070498 0
197.937618299245 -22.410546997991 -16.7883380411431 0
188.747345693729 -6.7143092382367 -17.9555593973101 0
180.906366815801 19.7659798936526 30.3339898610611 0
9.33218657488368 14.0011143249524 -10.4143682198533 0
118.149834797279 13.0239827229129 -19.5619939461233 0
176.282804973479 -21.0649106421337 -21.0328164362884 0
167.810428145467 -27.2507846381527 26.2301549726617 0
132.922055724467 -20.3504126137862 -5.92289886413907 0
184.428795435301 21.863287629653 -31.3000883196353 0
136.545607086984 -11.8204867047643 -19.0716213432341 0
194.411090608194 18.6684324551977 -26.5438153153809 0
201.073061951701 -30.4176974639584 31.0257426598253 0
199.559710981284 23.286331299013 16.2184197759304 0
155.989628703743 21.4110554741922 13.1562782805035 0
189.855114431021 -2.51582477786183 6.20724368784694 0
184.194493966416 2.50203657366086 -27.4601724168689 0
180.865236727418 3.49337112659352 12.3720506719032 0
200.655755013838 -10.9264832708668 -5.0877824150947 0
100.198480651828 -16.8404096167884 -13.2292012331358 0
159.684999175944 -2.58973174442964 -23.0798810379679 0
155.345011328983 -19.2732790516436 14.5251613287647 0
194.581293627996 -22.1069895924598 -19.4813430861015 0
121.403538004245 -15.9910235939225 -14.9362464559913 0
194.349586988958 -28.6928578606376 -12.1788294530056 0
191.354992829301 12.125061594481 -28.9623983115217 0
179.080260607034 -36.3659322412909 0.70873796570577 0
187.201831173896 18.0155937495234 28.1100042307688 0
190.756313893109 39.0891860219437 10.5464337360978 0
124.95229290892 -14.6345781414651 -16.5686120596254 0
40.3562210855936 5.38345131404417 -27.3593861802334 0
172.538879277599 -9.5282524450477 34.1511231839495 0
197.559935659732 -6.75230668508294 19.9213758599264 0
181.574932716322 -0.33493462129236 7.48345777359232 0
194.519665840319 -5.11230376526945 8.95151653995858 0
119.638706612958 -8.62452211941972 -21.1227707885933 0
180.0544719201 2.61483079802205 -30.3616993152434 0
45.6005071393399 -10.9692520120169 -8.37973949013181 0
200.126398069856 25.0251362623098 -6.42100504196343 0
38.0958858586299 -1.42685355676096 -27.1414569747459 0
4.43929513873074 13.6565307145339 -9.85818283973927 1
126.520511953062 -12.2389479500011 3.75897743537542 0
167.937473033653 -33.3354767739984 -0.68467296999197 0
144.257309884785 19.296485470952 8.84597543114195 0
108.180401640338 12.8280301351687 -19.604624360526 0
92.5232916168323 16.0338305398486 -5.72119515209812 0
164.995049197165 10.8812626917008 -33.5451008317061 0
148.803046632972 -18.8719990980713 11.1308367502468 0
6.42172042751852 -9.44110390134428 -23.6281265444406 0
152.288496727701 -15.8593759462393 13.9201372219795 0
89.0773202493604 10.2128673211018 -22.715823131419 0
155.8261799495 -22.4173311920933 12.7021774254492 0
114.334577876994 -11.1175523056403 1.03476269480676 0
192.128458516622 -35.7925565094179 21.3651111959756 0
181.923229314398 10.6044092577312 -35.5606383289379 0
87.5052809800831 0.68486172933082 3.11356175622228 0
190.552457168665 -4.6534994645561 29.9183595982846 0
181.493902246559 39.1648560873399 29.3003599849879 0
167.98584833634 13.1880351651707 24.9170886304559 0
180.206992984501 4.78368773019067 13.6245422164394 0
163.476791827807 -26.0221216790825 21.4941686757167 0
184.568987803518 12.9054801715935 -35.223309046024 0
58.369735322789 2.53539520112777 -27.0057040152533 0
171.4660070275 37.675871185958 -3.88875496439686 0
175.598996625724 2.53150330059845 14.4684779282687 0
183.19112153192 -27.6741702309834 42.7337051877464 0
74.0823152134745 14.00823439799 -17.1974184470618 0
161.233473377004 -19.921552082981 -17.4968424162315 0
205.163601303148 -9.96016375051777 14.2741807205352 0
191.198944689189 -34.3052259204533 0.699866717832914 0
179.895605963172 36.9754454027654 -5.50802174957421 0
181.714957843762 20.5471320794349 -32.3460476503798 0
199.067662160875 -16.0446042351365 37.2224644935267 0
159.954622457906 -12.0657936723044 -20.4065898523894 0
140.002361996096 -6.14346483789616 6.68563193302034 0
150.867860665809 25.7743991153154 3.20311522401071 0
70.0854147117189 -10.5685723674534 -21.8310389573896 0
196.515964180254 11.1458654513716 7.60919201294451 0
180.89321147645 8.62544142094014 14.7994956033771 0
25.0594533500849 7.71824329723385 -27.1220224990257 0
81.3614473856866 -6.41302851569786 -0.591470796955174 0
185.092470873745 38.7551696041206 11.9958381074909 0
166.037926499416 37.9687542544799 16.621364553836 0
200.061375690693 37.0811090531349 13.6037015903439 0
108.718090433854 -4.61426995100279 3.28104740779091 0
146.339192392406 22.0689764780075 -7.37667303183853 0
52.9819323510806 -12.9946300284828 -9.5981133080337 0
169.674714509572 -19.1005057687741 35.7049045615991 0
103.720965064862 4.68352363093882 -25.3470779115466 0
183.759576180568 -39.235082425809 9.02016434382045 0
140.142051489476 9.44619733167792 -24.6101347269177 0
193.021806149498 -17.8880703524288 41.5250828073232 0
162.327017270163 11.8384673094071 14.5065255175415 0
125.823184828993 0.0479312048700787 -24.3426193994826 0
95.9686775137547 10.4900774962962 3.09524645347506 0
186.213745429279 -35.7706947006038 1.23338455625991 0
57.0383456425275 8.177365976143 -25.5130891604589 0
184.273015207182 -34.7938788902416 -1.10896956438285 0
181.077014740297 42.1593163756276 3.810685831616 0
142.36024473612 5.10565969299449 -25.4376859118184 0
132.830267206589 1.10412624195549 -24.3764635895737 0
175.852532077802 -7.70542447784263 32.9226280270771 0
185.985066019938 -17.9617356452276 42.7175006351401 0
102.609060862053 -12.4370748827563 -1.6473613871121 0
33.950478990508 -1.3378897318032 -0.823254777788038 0
84.1815642280498 4.09333505506723 -25.9587441690295 0
146.191015603371 22.9399189592677 -1.95747353098441 0
189.089853170458 -36.1981499522828 4.27901122767415 0
193.789624268814 -29.9663772834097 38.2694743730586 0
180.210399267834 14.2246807202139 -37.8563783383836 0
185.731662366473 -36.479272963708 19.5998606015929 0
14.3824364272983 12.2718657160041 -5.88844281939364 0
95.2991518153533 -10.2449819373011 -21.1017517314598 0
170.24925497318 12.8328210005822 -35.5846137458949 0
26.9963640631907 13.7260775745407 -19.4404103263887 0
184.462246945732 39.2228489173572 0.852087227404823 0
158.506542467883 -15.6754190287331 -19.2650008960238 0
18.5991920266705 1.5441422397701 -28.1671886939885 0
68.6288974183 -13.3348573557753 -19.5862361170602 0
177.487178034251 -37.7875777716296 4.65407256173411 0
175.917632701574 16.7212532946145 28.8207207919308 0
135.13344883447 -18.6879083466083 -11.7350118752427 0
195.737649805826 -6.4280218367097 20.3763258166555 0
24.950444070365 12.8739912644271 -21.863265365144 0
93.7494415243577 -12.739381994557 -19.2099970527249 0
162.322235560304 -29.6513027277854 17.5565276493998 0
1.65580657040763 -3.75867279885211 -3.88367726411813 1
160.658007124569 -0.0233234906869057 11.6815912877696 0
176.792965351599 5.96909152927339 14.4076752518847 0
187.865489264948 -35.2321211533935 0.362611265026006 0
194.166168655587 -30.8975034075076 32.6964645634285 0
99.3378310454188 4.5229477146746 -25.5707653485663 0
97.7549007210256 -6.40135878461503 1.03504323350361 0
135.607009116714 -19.8896355458928 -9.22173815697727 0
195.513987936177 39.4802255354088 7.66346664491359 0
85.2810804703289 -6.23637776180734 -23.8255957604386 0
5.69673572235586 3.79675918654922 -28.4638909935127 0
150.003743682032 19.9547443850813 10.669850541827 0
179.495524491712 -39.8637329506055 14.8579270010144 0
185.683790303458 -35.0296902309543 26.2812790371476 0
162.550408844394 -14.7824612714697 21.6178375620822 0
11.2297809914767 4.12952484025235 1.45081369920896 0
21.9130984127079 14.3138759160622 -16.9782560965884 0
152.586411491298 -1.75972205459759 -22.432376003644 0
173.697807083909 -18.1694093098188 -21.5675627123737 0
136.735103572558 4.17812117282161 5.57748577219181 0
143.436235894024 13.7878761115594 -21.4542594176676 0
164.128619561646 -24.6913428863461 -12.6721424681179 0
169.007547377325 2.22096039807579 15.5865875641861 0
169.080181899604 15.2123723038099 -32.2250951730891 0
183.369599034659 -10.5503533491184 -22.1191987676483 0
195.014647995215 -32.9565004882191 25.3814186454673 0
146.553069128382 -18.8486623751121 -13.2609986386447 0
176.83521794176 -7.65552848285637 -24.0687553227523 0
163.952806438106 -31.601726186527 -1.68134538819038 0
138.607205637423 7.66544579579858 -25.0378166176567 0
207.221758070329 -13.3067369030613 8.98213516868942 0
165.322046230531 -25.9357617869078 -11.4534746919605 0
159.457754360629 -12.8771225045475 16.6843908259477 0
102.365904264503 -16.0759123705343 -14.8297124213941 0
195.520301284518 -22.1336732461847 40.97456613583 0
152.241844269717 -20.54293672252 11.5399564744044 0
126.849210401271 13.2046354620303 5.19294380173189 0
177.315300941132 39.211734410146 24.5842802378644 0
69.1477501814282 -6.3872588547155 -1.8291583907314 0
129.369223892928 7.46088221947098 5.3173581282518 0
203.999139858968 -23.2848486232147 -3.2937851733745 0
136.336310884849 6.83319518801843 -24.9810644919466 0
184.586136558044 38.6777590926841 -1.01572655628936 0
165.178083429241 1.66008845592894 -26.9984833771376 0
87.3582810312022 14.2511829923532 -1.70788036747253 0
184.324307249251 -8.51792670466649 -20.893586436697 0
183.637945573725 -3.73135826253179 11.299625282 0
166.648708187953 -37.5694043883811 14.3651972378447 0
194.486816028904 -32.2826881144656 34.7139815529668 0
130.893408554526 9.04353562396279 -23.7545177523839 0
107.741459429647 12.6774424874544 3.40911448220481 0
156.806106521408 -6.34769621195922 12.801583743051 0
123.631156940843 9.54150590756169 4.97088489139834 0
167.940969399897 9.13432114504798 -34.8325034935744 0
23.4901461549147 -11.9682031586996 -13.2854895356871 0
151.938050510271 21.2586812095354 -14.232863704331 0
133.554964864933 6.60344637120826 -24.8173677903472 0
175.263331466114 5.46458435897619 14.6629259615316 0
194.401992903445 24.1386335338233 25.6864245565177 0
121.82171405039 -16.0810292270431 -0.618856254776368 0
35.902194055995 12.7932361571436 -5.46028519013835 0
178.794811638701 -7.34558485841123 29.7540310833565 0
171.17655918979 -15.2931874155788 -21.1287281492681 0
193.471139074074 27.765989676593 27.4443996837498 0
198.240314915213 -20.4348922127897 -16.374760545082 0
167.241168256692 -12.9274942287382 -21.0343219145306 0
67.9597261098988 -11.4178984730467 -21.3497865650375 0
160.826612342064 33.9622529097015 14.2954156635305 0
118.692411320159 -12.6900941774318 -18.4633438984985 0
181.82852692887 -9.29071403429998 22.700544882246 0
80.5048788533561 -14.565200183524 -6.4373526922006 0
188.03175346775 -34.0266017045528 -0.321562972094336 0
156.400509428683 16.7604749953242 12.4519272038612 0
91.6817674243898 -14.7133412134863 -4.81883578524325 0
138.81111583879 20.5966986952026 -1.79996129884797 0
175.61398308206 32.0668166379953 -11.9670378585355 0
12.6824374216043 10.4585663697825 -25.8988289005479 0
138.298075226688 16.224055408448 6.95470087406783 0
154.797687175386 -5.38276277474116 -21.2709838861406 0
171.240747201088 -39.8327250084243 8.69151710394129 0
175.827138043013 12.4180697883157 -38.0504996668871 0
171.184946197496 -29.4925417896329 29.463908949298 0
53.8041222990356 -5.5030551389305 -25.3447674897324 0
169.680702679165 0.534543124962163 15.7639619813291 0
174.183399928749 -37.7601496359607 22.6175236016252 0
195.922742072474 -17.4685827515917 -18.2498609208007 0
99.7330482011084 9.68093923159859 3.88801194655831 0
173.636838565687 -26.9559461054922 38.2009145341209 0
45.1002143336141 -13.6111611998486 -12.6593899546184 0
171.335205271126 -11.1441478570865 -22.9571461857308 0
201.805770891513 -31.8843154552448 2.05941664626927 0
196.301645948752 -20.9526010296005 -18.9820341710725 0
189.589940683941 31.5293534722094 -8.31670988629305 0
136.778610446182 -20.7585125074287 -2.01359718901832 0
65.5628439634749 15.0307215500093 -7.18811450335778 0
29.7180138208266 -10.602610864382 -22.7672940763536 0
170.342857091642 -28.3963422591341 28.216531071766 0
73.8688075446764 -3.86803550062934 -25.1895401987101 0
177.531501086877 -7.11348534991096 35.8364477483524 0
8.97505980074992 14.3893586792202 -19.0607729437222 0
196.330822887375 -5.41163563353106 -7.18921115140132 0
101.552460891762 3.27042528210587 -25.6631429849756 0
125.678949589496 3.8420480537331 4.82852877542267 0
162.775637942234 -27.224084724052 19.6823157110878 0
9.3559666810944 10.8544028289828 -25.6770126573773 0
78.7806825461153 -8.27333291183229 -1.98717734146963 0
173.536933718509 -7.26233640163168 21.6573894796027 0
67.2449997239443 13.8333041128221 -3.71318544951962 0
168.812550709425 39.1809956021451 18.5306942439286 0
194.612934072708 9.95602647832734 7.53610721501532 0
200.582967259042 -32.289073859398 10.6209073968602 0
134.33551428701 -17.3042390580249 -13.8417391218428 0
72.4986610972244 8.73959841913671 1.34312320623183 0
192.708664527381 -32.1709274023404 30.4433423573404 0
165.435280111337 -36.4993496419013 11.1062620427656 0
203.783458653907 -13.5696033539149 29.7239357319684 0
181.988003311104 21.8868608497527 -30.6341344386285 0
133.623944742131 -4.06131573794464 -22.3140260564349 0
140.486137278327 20.8907313844335 -3.88190327182821 0
171.263604564889 -34.4613655722568 26.1295459565623 0
167.706434359206 -37.0112044624105 18.6704463064616 0
152.515168174276 11.5378929518626 -27.3389939070123 0
184.099352434125 20.1841555074353 -33.3099651046178 0
94.5867853244554 5.49364649877126 -25.4313880824179 0
182.036633513184 -21.900348229438 -22.4600984438938 0
168.284441037736 39.2787025490434 16.2171881818514 0
64.3676069421697 -11.6589527596687 -21.3812543811261 0
47.5543620464145 14.6860156047956 -10.1086724688076 0
115.536850077112 15.8427645157291 -14.1889036992554 0
142.491373515471 12.613861361823 -22.62225401296 0
148.921343129998 9.71559997427113 -26.3459796217963 0
155.123325621339 -7.53304119455848 12.3306189050912 0
152.062149683013 25.5209024230648 7.17727791618389 0
189.140443430337 21.3983062651139 -29.6900452253242 0
194.670623994228 9.18103552118501 -21.2043108699396 0
87.392090800539 7.40014067801843 3.35355890119573 0
180.458594999547 42.1184054032654 11.439330662158 0
191.138821414542 42.010294102087 18.874110050934 0
110.935440931898 -9.40074576822731 -20.8122868331792 0
192.108701709297 -29.9331533519236 36.9231973035333 0
193.878367086952 -31.619314910176 35.6630600954793 0
85.7494387533528 6.6412990336396 -25.2426560930454 0
199.1494718351 -21.2296892802963 -13.6953010741254 0
177.607273906266 19.8910413954201 -31.4008448364925 0
117.501564535251 -18.5049251429608 -6.2263734785518 0
160.622159134332 37.9274509160902 6.34020270572623 0
207.00525951327 -12.5694217617171 14.608816256799 0
175.39315218249 -9.16980730717587 36.4482514399081 0
93.4412401629486 12.3113510905527 -20.2510261174509 0
96.2243446665324 14.7854368923829 -15.6582183317158 0
52.6524963590834 14.0135995245652 -17.4822617999562 0
163.717228618357 31.2398036489094 -7.480205716832 0
113.349743572199 -7.96901788162819 -21.6643207491134 0
189.84963371123 -27.3113486212163 42.1379075330909 0
68.3195704047319 -8.86912199702618 -3.5161735479579 0
186.807674417653 26.978075714806 -20.2871406214782 0
174.648101293356 15.3480657495029 27.16688145479 0
191.931755051983 3.98614381710669 -19.5820136349974 0
168.923675113621 -28.8222554495651 26.5978722963982 0
184.124955183468 -0.484239163456901 6.32964938529522 0
178.151658594125 -28.2550708079543 40.851292570224 0
166.912833301347 -2.32296768733408 16.3096778872474 0
39.9699738636638 13.7857890205878 -7.35256087724233 0
147.550059608154 7.63728750274128 -26.0845676347151 0
190.853472493521 -23.9220645165421 -19.0822323455918 0
164.964060840901 -9.30537545577664 -21.1757244527374 0
156.936697030607 26.6648824389272 -7.53284515062403 0
189.068369168182 15.2547470575894 24.3000802145824 0
98.4208094752654 16.3600916431721 -7.89996747166312 0
99.5191047491198 14.1618873476966 -17.2500482270933 0
147.392365674242 -9.63398283814995 10.4676737779652 0
126.226012664272 2.11786642416186 -24.6689018740835 0
177.79260907631 37.1962731977854 30.9268702163415 0
176.251472887791 -4.07856065508284 17.2193878033723 0
1.73455127157575 2.38805160392047 -28.4687260815226 1
110.381805032102 1.19232261926373 -25.2655504050325 0
156.077549180166 5.85324584497124 -27.5731879599294 0
166.016466755369 -6.14502076587007 17.579339400672 0
187.837849262992 12.7037196696589 19.2773883743615 0
130.839338205992 14.0208944133822 -19.0797669887972 0
38.8423900150817 -12.0424312382609 -20.9427030335987 0
194.709970178358 40.7228921885214 14.5878674951881 0
173.14277058167 -40.9189803438296 10.6046010505666 0
167.074819809063 -11.3736332755274 29.8979404280628 0
116.991288920416 6.44932002140692 4.64453015764706 0
67.7388246917203 6.12441291451513 -26.0768599284682 0
193.258706593453 -21.0262895326568 41.9538789274456 0
199.695062717783 -12.1752785715497 -6.78964181259034 0
148.534515176214 -6.58918227279493 9.30198079507595 0
149.640043917661 24.2436968519714 -3.09859924402077 0
180.535446031399 4.26835563239803 -31.5592342608058 0
111.43051879997 -6.53677495866677 3.00359376201633 0
144.737322142982 12.5136058776198 -23.3121113530023 0
201.188347472364 26.4283290806513 -0.652911248034108 0
200.082007933071 18.8492253511564 6.67390164443509 0
44.3602985226877 6.86008041441111 0.550275770000518 0
196.260875722353 30.8742351371091 -7.45418792908849 0
6.68708850146802 11.6161814071599 -25.0421933172634 0
199.015766657645 -6.82312695777163 20.2819813532233 0
200.00063984739 -6.40708811154438 18.8801242547331 0
122.104400570864 17.1103632106026 1.67606384897711 0
163.685936810043 9.30346925868753 13.8681432069348 0
186.338408940489 39.9318590978873 5.6597639806658 0
160.674980205623 32.2298282639202 -2.41390176459855 0
172.285275956216 29.4914741437499 -15.0071867246701 0
190.913620873566 14.2991232144954 -30.6574152781698 0
183.361099055003 -23.6189680817024 -20.4485897115021 0
207.565302775873 -19.4974835615391 3.83345735134465 0
162.314543516897 7.58083489426482 -30.5469428931328 0
94.449245154016 10.8464291240618 -22.0364050659733 0
15.7048818409323 11.6613341328065 -24.4751904717169 0
185.031036388447 -6.25360618498944 14.5024443589105 0
162.379846568509 -10.3617415529052 17.5007287155223 0
137.604907655022 -15.8522105551685 5.54842160329943 0
73.1279934943046 -1.05143515284132 -26.0179551878581 0
157.807354880334 -28.8245602529432 7.83144411200193 0
162.712253453265 -25.2754465973852 -10.7232430654709 0
169.263155376939 -31.392895839822 -4.74642430628767 0
62.8569037628807 3.55505878361946 2.3021153289652 0
196.412340738734 37.7651818294173 21.5264317427676 0
134.152682921357 -9.78316449740025 -19.9906019828378 0
151.790025190692 -8.73655188868261 -20.3493877344296 0
172.393648472171 -9.23036307884773 31.254344670159 0
47.9614678299164 6.2480159929154 1.1438846852319 0
78.5113427212376 -1.40994684106414 1.74166280549241 0
166.736778094929 -25.643173542304 -12.9821731313505 0
85.2444416674082 15.8685180288519 -8.08240795823035 0
167.84172892429 11.8379884272618 23.5644774115075 0
160.803463621922 25.0746766557824 22.5882716348823 0
165.738698893204 -14.5960611623935 28.8617023481135 0
184.301613423131 37.0225564056725 -4.11111142801969 0
176.506745874945 -27.7725850720304 40.6382612312655 0
49.3581732639128 -4.62146031754569 -2.40803077399235 0
84.3773637181075 -14.8156619895957 -6.15911197653293 0
197.802222468868 15.8731519771824 -19.3175998673198 0
176.737680011963 -10.6595950063426 -24.2327269187771 0
177.006690801755 38.8425220790555 -2.75678172734684 0
194.641558940755 -17.9363693594707 -19.780761932425 0
9.58072121296248 8.04339791362637 -27.4684199924434 0
200.964045657 -22.1201112796132 -8.16166066802447 0
87.4028563048917 15.8723079710984 -6.85630644285659 0
188.404945596017 41.6792666419913 26.0213070328619 0
163.049473148633 13.3814227952798 17.2618417947857 0
88.0466239130966 2.10827890712043 -26.0838056479007 0
100.087270325805 -15.6278772964304 -4.45370988207214 0
144.543007444223 4.83411039980067 6.67177106773108 0
153.038105788533 15.1436069787788 -24.4943327273538 0
179.278582484087 -34.3337568407995 -3.52240598812015 0
1.34197363013876 1.17987293307192 0.896790007651829 1
204.395010169624 -32.3022514507907 7.00468995732545 0
11.3817303453918 2.35032255788839 2.06995590808 0
170.171376830794 17.5883847541946 -31.3939860160181 0
194.190176497522 -36.6150380102902 10.1756580168486 0
195.688811736632 19.8190777255685 -24.4287135849461 0
116.322980653623 -3.2640083156151 3.84684008497697 0
170.461377670115 40.3404126581627 16.5962081435585 0
159.190848483555 -17.6413653406953 18.4541172568313 0
178.312732848159 13.1686121084152 21.5066013214704 0
119.665515106044 1.37644493448906 -24.8154829661419 0
182.460805405102 -1.72412017095472 -23.6337513692695 0
18.1380980949853 13.7513808434452 -20.4009014101595 0
165.018057120486 -33.1778363870221 20.3075557853278 0
175.978042905678 -7.51642386186036 21.4834455092965 0
183.052944471272 -5.21498068139315 33.771696309763 0
122.870670244869 -8.1476723905567 4.12352641713797 0
92.1349212811462 13.3474206890371 0.21167056292322 0
175.417023242927 -25.5509109817911 -17.4454086947173 0
185.541358107746 -15.7483073710812 -23.4221157983334 0
33.2994102295497 -13.0087401148706 -18.5782210843228 0
108.753500608646 -10.6921041768235 0.168215629744818 0
145.343516855945 22.6794395014043 0.227993284037771 0
201.981383371863 29.7235860974425 7.97652194358816 0
154.576434923929 10.8795568269702 9.95729192531879 0
185.868276517693 34.0598264412079 -7.32411755790339 0
162.71348348524 -27.4174615034739 -7.22549559412976 0
197.195421648708 10.0689237097786 2.74225694703936 0
174.260578051766 39.7893216611131 -0.727082001142443 0
164.31515257974 4.9135651019415 -29.5757777406571 0
22.9339632451163 -5.2215790942459 -4.1578633258667 0
179.82629688147 -1.42981530741204 13.8345501979796 0
194.318568197621 34.92561131193 -2.11792409271842 0
192.293453074865 -34.5783718939364 23.579807078695 0
187.198976480531 21.0540867103971 -31.4056411732433 0
184.231188522952 10.4669910236596 -34.0885844552936 0
178.533223449603 -8.31321370319283 -23.6880112398122 0
21.2164421380958 -6.60696947531069 -5.78784113303842 0
146.170051496278 -23.0571937279047 2.08083936973357 0
4.31109071442584 -5.14207259642326 -5.21320955390375 1
189.483959405033 -17.4724651259401 42.3220967702164 0
190.964623568042 25.5085604674765 -22.3574691001578 0
178.317693557734 40.3191670803625 0.0390739335377372 0
58.3831896378699 5.6486996459506 1.78936557590789 0
178.217994520204 -4.14809745257688 -24.2447729478973 0
168.330288619606 16.269737732851 26.5733312178047 0
179.010400704106 24.4871982005893 -26.9186488096995 0
164.146741610668 -35.1629361599616 13.2607692492484 0
140.09713869338 1.75711406370334 -24.4843135419199 0
199.175745456972 13.4337538215904 -2.66337048681642 0
147.34974654029 -1.6218066421023 7.59031656756131 0
198.605500884804 -30.9999958125547 32.9195527751064 0
175.028793625952 -35.0191241817191 28.0282084961204 0
185.652115604765 -31.7927824706394 -7.20695968906904 0
135.399243416508 -1.30141093185457 5.5509059298227 0
191.538916128272 12.3907249722667 15.5291288283692 0
188.848294840937 36.7506912488056 -1.85876028238391 0
2.08133656293032 -1.17467750099846 -27.9198353031657 1
144.451407353801 -19.2428206114999 7.31470686378271 0
169.225209974839 36.8054028663135 -2.60941374081974 0
176.518563689671 39.0149141657817 28.7262661805601 0
178.696688213513 22.2818210365621 -29.1177628229922 0
180.223805461629 -38.7633620191204 16.9003577848705 0
132.265541199233 -12.3358870112358 -18.7212327230395 0
28.9888189091229 -11.1561481319044 -10.8184197239469 0
71.673404824286 -14.0600488403552 -7.30035058580298 0
1.83826852882102 10.154586522952 -3.60483899078333 1
199.497022170032 17.0509659477796 5.08827134115346 0
144.33633786406 22.1955914308349 2.21488014827041 0
74.3705666979146 12.4915924650665 -20.3083989771538 0
76.073780020119 15.1147069423596 -13.474468645158 0
188.936665123 38.8082157356094 4.71208689372096 0
190.755854014536 -36.9096890036403 7.76061329093849 0
200.820099453949 -32.0579992302754 22.9292912494161 0
148.094422971709 21.8350870264705 8.66349319891406 0
186.013238144057 41.2142703317969 27.0905160970329 0
161.544638427637 29.3131738403635 22.2321409256776 0
182.809289021559 21.14897486009 30.7097920708246 0
163.643516700014 -10.6455488273639 -20.8563444522984 0
163.320795271503 37.70200204527 11.559508890869 0
143.046635839405 -10.2347205497075 8.9052587869618 0
106.641476949903 -5.13736468031832 -23.2491987278023 0
182.674628083837 3.1241110900186 8.44570547695859 0
196.811500294945 19.3885699461774 -22.4277241456412 0
179.98125399024 -35.5375961341616 24.2166324403699 0
201.632013968752 -27.9086376516353 -9.16040379499651 0
178.707938893213 -30.5976854226512 35.2410507514213 0
183.949468833344 -9.19722685939302 24.3397798290876 0
190.56739732405 -28.9866240046379 -12.2664446631639 0
159.356764487647 26.995867816307 15.4114797780863 0
188.830340142919 39.0369843803641 8.5205157141925 0
164.990043250719 -22.6963848234728 -16.5956517074493 0
118.30704011396 -16.1854211130918 -1.61310977383496 0
136.820895831388 -17.5312450033867 -13.7542854050972 0
166.151030398379 8.77563801576471 -33.5216584074263 0
150.885477178294 -21.5120613972995 -10.2293454661436 0
170.77159698252 -40.1639364121004 10.8521567964251 0
151.919517225372 20.9414836262315 11.2683392149822 0
153.685030671892 25.799927261552 -5.13257764663864 0
183.049085039134 39.0337803723442 -1.23238369671134 0
175.299693978207 28.2535929231149 -18.3731929966433 0
158.496274432602 6.82221945483393 -28.8401188188141 0
117.644782228748 -18.2805047379186 -9.97125575389082 0
59.3113240479876 14.4250953117263 -15.872352153566 0
35.2654404285989 -12.429682774755 -11.9648243099585 0
198.910193304664 -17.8249562612908 -12.2106240163636 0
163.687805636082 39.0994692081588 9.08786550455715 0
195.295133434636 4.25032619363813 -10.0510109836156 0
196.343759482916 -30.7785615151004 30.7904763493304 0
180.676724516877 -19.8545043222164 -25.081715089967 0
21.3114072009544 -11.1827571882251 -12.0014398265362 0
12.4241894493142 -6.98415127241983 -6.88106017997486 0
143.066716219188 -18.6308385575294 -12.973550253008 0
199.845789455642 36.0841526159623 15.3795549205126 0
141.093058401458 -3.37950922471458 6.48371233350021 0
161.607839234472 -30.6008150019848 15.9259492255671 0
196.297081389711 -35.8766138505083 13.3579854784395 0
74.8027846580625 8.77761744490006 -24.3619695921294 0
203.314891973784 -9.25261414413989 2.66112246285325 0
175.20043355229 4.81468742360182 -33.0335064442895 0
179.867295833542 25.0352985040595 -25.426091254524 0
165.284748483184 9.51650395420736 14.8948036439164 0
174.026327398006 41.0410512116976 1.53564779570763 0
163.091170631336 -14.8656086420898 -20.1935171550287 0
159.051760764309 3.67428039127604 10.6579313606154 0
169.664827015634 -22.0781003972872 -19.7740676345906 0
168.135684020468 23.1628014450168 -25.1765627318491 0
203.143659478967 -9.85152677807518 24.4538734326984 0
114.817254671067 15.7517083642683 1.68985586003249 0
177.820565637122 17.7559193646846 -34.8749936616685 0
118.184243045465 16.4735500172698 1.49496353287773 0
153.212597701305 -22.4141159379729 -9.74797101446351 0
88.4935836771614 -15.9161201236788 -7.16768230306538 0
64.6400968058351 0.897226037698613 2.27140074078292 0
130.565528306016 -13.1102905396108 -18.0607891272162 0
131.212272768743 6.58233431791469 -24.6775304252598 0
46.0838381467357 4.71921719673438 1.57627424095667 0
156.690960747328 29.4553519256047 10.0119274719258 0
177.301536917978 16.2092264344277 27.9964243451202 0
84.1523928151308 -1.71904455312732 -25.5467741225651 0
195.845403795596 -12.913653149362 -14.4036825624915 0
169.646040858291 -22.875492183854 35.6526007640731 0
174.075632822366 13.7617766312111 -37.2889229119636 0
166.906191042814 4.07600935804172 14.8846952074695 0
155.294242313385 9.73341515892503 -28.531722829986 0
31.898255775843 1.27731291877452 1.65775660932466 0
155.590129101708 3.19454734724259 -26.2882270522793 0
195.305860890546 -23.3330758325487 -18.4391111161667 0
139.517874274189 -2.10070553865411 -22.7818843591871 0
102.08065563692 -0.0280748183494698 3.64026533584085 0
84.2228491581205 -14.6493221783702 -17.651245410045 0
150.196237257806 -23.9534838452185 -5.40581861650445 0
188.693161465425 -32.2900122002326 32.8842397148288 0
204.563366114208 -28.0604943169529 30.6523466646857 0
169.645289459973 -13.0783315237315 33.2915335984288 0
155.258034758219 -27.6927155256497 2.19973557512454 0
56.3834538799351 -10.2279621300478 -22.6898088915983 0
162.303229647524 -8.75169575418139 -21.1010790721995 0
166.127355358545 7.3181073537788 14.4374687349755 0
198.04948943702 -15.9572184223606 -13.5067974810557 0
168.793232732381 29.3646663287226 -14.1075892634398 0
161.510863428377 -27.1575036332736 16.1367789641062 0
20.9978057590225 13.7422054262436 -20.0734663183438 0
146.945231188801 1.33016265324189 -24.1848792349767 0
183.961149150772 -34.2257138497969 -2.76352747401206 0
115.009585476611 -10.0901822522813 -20.3307078268133 0
27.8543758679438 12.3430430514871 -22.5660083834369 0
195.375709077624 23.8333488210867 -19.3451129143462 0
195.296197418989 40.868465157148 12.1219940881068 0
156.781806120832 2.69404679518826 10.0807208846297 0
75.4422489222444 0.606455810943291 2.42666139814174 0
198.753576824804 -32.6986425820138 9.91527305895506 0
140.073572058876 16.4296204101321 -16.9878074562001 0
159.057543084732 -8.44487973752367 -20.8639097575127 0
200.00150280459 -29.429829101745 36.5955967453196 0
162.935613724866 3.78356687989227 -28.0530641046528 0
199.387446531519 19.4490878929953 -12.8401162622833 0
120.373614182596 -0.0982587653289069 4.5186338805231 0
180.597377698253 -32.5575540181865 31.7554288637104 0
96.9967809297759 1.07921675785101 -25.6954992392256 0
25.145132542627 11.4968847355823 -24.0187610027413 0
143.444216291276 -22.7989359420018 -2.96485438131675 0
183.799089357005 8.442825389777 13.0759138040591 0
179.514116252189 28.2860647159614 32.5325539444862 0
171.969935851451 4.23607215260234 -32.2823167433042 0
159.644119864283 34.0214491797489 2.23377228345946 0
130.949488131332 -15.0234182542217 -16.4589831638005 0
152.952577109681 -12.4869068052761 14.0292141933541 0
141.228516202515 17.6181892496053 -15.0361769787984 0
152.833010548223 27.0446348890785 2.13683494580926 0
149.015468513942 -15.5039936184522 12.4209953784908 0
165.778157298208 -20.9979840446259 27.9967021272609 0
177.262688879577 -0.3442127910934 14.9060910621276 0
154.81921551889 26.6106407454429 -3.7852795622237 0
158.076615328919 24.6713992726053 -13.3347235211853 0
156.916875138914 15.7476528255571 -26.6370894168722 0
168.900380208047 -29.1454468469588 -8.32116441535551 0
47.1746703557131 13.3509767504282 -5.27521956211035 0
187.287692684399 -5.58058804397473 -18.6652558426988 0
164.832515505344 -20.0950113698939 -19.1122470367418 0
185.853170565191 -33.3438046590883 -3.94468347653755 0
160.033677736035 25.4734540044587 17.1326167669894 0
129.685146720102 -15.9675942465978 1.91222549986521 0
192.648950948557 10.102854131823 9.03576484351201 0
60.2209032072712 -3.15677260688286 -25.9984038628959 0
158.940615282836 29.5228235674989 13.8147581938393 0
196.288117889853 -36.0091233829752 17.646537497734 0
191.3912762184 -29.0416876827465 39.8204694421711 0
179.025292498302 -25.6822997657782 -17.6989859093836 0
89.2834587243878 15.6607855848097 -4.58583351113563 0
195.296017937344 -34.5190626841983 7.15088249880402 0
5.73682724558446 7.61193299623999 -1.54767428960272 0
80.6123353198585 5.45712726030732 3.35667018470031 0
158.949718868287 -22.4778224810835 -12.5042906248657 0
180.042364276796 -2.61172836967805 -24.4696789606018 0
158.062389251899 -6.65262546737409 -21.1985553771109 0
119.916879576237 16.0392688029346 -14.0184514821193 0
183.698470443201 -28.9790195610317 40.2208271348932 0
161.280556833184 -25.8180282688358 -8.96075929046509 0
206.256362971895 -25.1625629530768 0.532237847037578 0
101.630786943554 0.600379350607069 -25.470221251838 0
182.850209822113 -25.3440990764798 43.1680950663507 0
171.538102305316 -25.9094646207849 35.9305118160504 0
163.781635697445 32.4066120915237 25.4380349155015 0
173.69927058684 11.5313482253001 -37.5884468952038 0
187.329730552109 17.5243787720859 -33.7058461219718 0
9.62133440542562 4.89871473390268 -28.299877245309 0
11.0397092468095 -0.632853959161215 -0.960320106331433 0
203.600419687714 -11.5095550482912 -1.10384271915438 0
135.144475030459 19.6190856223435 0.806098446828556 0
178.929359620596 -20.8517597655993 -22.0933751250403 0
152.373459872977 26.0590434475711 -1.08782868198673 0
165.660967909327 23.1738568601936 -23.2512836115867 0
181.657680103642 37.5768589387787 -4.34515639124875 0
173.903960176468 16.096856094917 28.0529632255184 0
132.567508594712 3.70589839393987 -24.8835546700278 0
143.319245558897 -11.9378980348308 -19.2563062238686 0
202.019474645808 -31.7420582180399 9.02083942995363 0
107.931489231188 1.6583723409793 -25.3601738907438 0
148.922978735081 17.5012245709136 10.4121159025872 0
172.3167923351 -25.8889005372121 37.6005034672421 0
190.085243041243 -13.3688587836719 -20.353752565548 0
205.922062955094 -29.9813392388217 1.5317338879697 0
160.900839501269 15.8848133867748 16.4429436530929 0
22.7550159625046 -12.5278759600667 -18.4719616521643 0
186.18870393078 -8.77121651435737 21.1783288721283 0
175.072806617599 18.8863340112972 29.7515998564555 0
198.254307091374 12.3242512742351 -12.8612128625556 0
57.9598204574861 -13.1284844782827 -8.77400865161161 0
163.479497120402 13.3728847370092 20.1800136976312 0
170.90957117981 21.6373769034185 -28.9202965454594 0
148.053254007978 23.7681309862797 -1.74979188683588 0
196.972466756201 16.5275950314304 15.5282295489388 0
126.430937047685 -19.0648291069409 -3.98620797900998 0
184.272459352835 -5.66344788563145 31.8516420045452 0
190.696852706897 39.7144248463778 27.3994059124069 0
193.176984420711 25.2425709784278 -20.9377268729038 0
177.270604316703 -16.728200179596 40.4661830712115 0
195.85783008332 -31.8713689303404 -3.33211017016577 0
162.081838878809 19.6455918099015 -26.0465612590339 0
114.364682026509 -18.1320966149692 -10.0308334262579 0
190.001086817463 -27.9235321040789 -14.3434966675334 0
162.603251559187 2.40440980328658 -27.3564162794023 0
173.189098629754 -8.85566067499581 32.5406959640159 0
165.524368206444 12.672026397887 23.4905559454811 0
173.330281145917 37.5734025401918 -4.29452792835392 0
167.20964921041 -23.0042535716504 28.4588002172562 0
163.394810774694 24.8303086010439 26.5572659069855 0
186.547176620414 -9.03767023797286 -19.9931091921659 0
81.555809117735 15.412929113198 -12.2444670080083 0
173.8037167265 22.3123771241587 -27.8762898014398 0
104.629018342828 -8.6797712100786 -21.542042448555 0
202.056425418947 27.1614953498973 7.30784908226898 0
193.716779190893 -0.126925894079332 -11.3869393848459 0
107.153010371195 -12.0902003772648 -19.1572704179168 0
26.4712083947589 -0.0801183411514331 0.273223510858674 0
104.741355118275 7.88070098253222 -24.042344917197 0
45.4126005446518 5.52240572759015 -27.1687333644479 0
179.235301900981 2.79317197359722 13.7709775184975 0
159.530342018824 6.69870853610443 11.0695718816233 0
145.143147217122 2.33539327664222 -24.774141057412 0
179.799399148845 -33.0828014681311 -5.69279605900454 0
197.620020883154 -30.6480100658403 35.0612853539706 0
148.166943233779 24.0038753962475 0.77926415718354 0
165.015368674995 -34.9101521326381 5.22018430184293 0
162.087623448501 -34.1934037754742 16.0118387765304 0
178.49361429599 38.1401718461978 -3.83446020376304 0
81.6927888373312 -13.8137581313259 -18.7848885804254 0
192.178708312642 -4.36530442688897 -13.8621543124719 0
197.404283429191 8.90660410997605 -0.139483545625146 0
197.226608577528 -18.5778208091604 -17.3521764574219 0
170.204401084754 21.2159632413718 29.3381807449504 0
177.465306885735 21.6076148202235 -29.4361825506454 0
195.654916104464 -33.3224907074726 23.686445957943 0
34.9608712921168 14.4945318120163 -12.8637761363797 0
177.27974528421 41.8358544978331 2.31817375637596 0
181.909373911564 -29.5666377528856 38.5544735973583 0
102.182885054707 15.3088735225971 -1.12892844963008 0
190.949464781206 29.886585748984 -10.5325695570607 0
177.068107828185 -6.82010624164553 33.5604492379093 0
57.2053550131852 14.9338049594373 -9.56164314011574 0
181.404643483006 -31.6456926797554 -7.88072657587558 0
180.002830711356 -22.0011111115679 -20.5780632073975 0
156.49068059641 20.7255486467975 -19.2285647411211 0
173.205000117123 -27.3388558588439 36.3014431793681 0
205.350412894824 -27.2612437550261 -1.53803445572198 0
185.87848483768 8.19185525445714 9.90685118255631 0
11.0059544151464 -11.8716344637968 -16.58075085323 0
185.810359965839 -3.93735564677768 -19.488723535839 0
193.712550169492 30.0526966036605 27.2762970181242 0
194.700525635502 14.7498401195864 18.2127515557519 0
91.9728027712379 5.13076195970994 -25.5541492383466 0
0.656476709766957 4.31904116224737 1.85330634754663 1
161.324458456296 -3.25878677913053 13.2376468805436 0
169.207456389503 -25.3585071186605 -14.9671245975433 0
188.419243432956 19.3277320970012 -31.9937295406474 0
191.37216648637 37.16542653814 27.969569295522 0
142.642278263055 -8.16857827742941 7.79922994288838 0
153.502190831103 -3.98475720241502 -21.6081776876156 0
187.036955430816 -23.5126714999643 -21.7312896130377 0
197.553929412428 14.4289457762652 9.47087025044063 0
204.79059744649 -25.0840549035582 -2.36583501191024 0
197.1138152766 -25.842682696527 -15.1555711658225 0
135.497066437387 13.2823427473473 -20.5869483911299 0
157.919158687235 31.1726086122311 1.66517833588065 0
204.504316805367 -30.9358683546516 7.54132527100842 0
114.306986207519 3.45249291924749 -25.1739473957195 0
155.679334563737 25.2349108103369 -9.24423832265769 0
139.697239265944 -6.07572703118741 -21.2582854362914 0
193.704901118407 11.7598926365968 13.4891257920529 0
179.903001038507 -15.9973068401223 -24.8763775052687 0
48.7507560516828 7.37487746472855 -26.3257171282038 0
198.902813635643 -5.08963127230997 5.67158637816495 0
156.423020057145 -20.154058148581 -14.9980254148702 0
95.4553312909865 7.9066207936984 3.99875351910959 0
184.487672206203 -22.9738887271085 -22.2892689352526 0
111.580127955171 -3.4179384925978 -23.8370937236136 0
178.109572281022 32.5193017515298 -11.1972046654582 0
184.992008019805 26.3156690933691 -22.1965286444758 0
197.097591481128 18.3948916966742 17.2472354262649 0
46.8457971922109 -6.19080975875854 -25.2384455210922 0
123.36031624943 -18.8037663260789 -4.7843712220449 0
32.8767402638626 -11.1401346274951 -10.2310347244218 0
198.481878889881 35.716943365501 19.3811574660443 0
184.391821265879 39.9033268795509 7.89223561446237 0
52.1670282676061 -12.0691720597712 -21.2229215960378 0
195.380378043517 33.2613324809815 24.8774404300647 0
129.716016944926 12.9019607588653 -20.4299137903064 0
24.5334309203143 14.2450957153377 -17.1411336083611 0
113.952174759024 -12.7905728842471 -18.5109071211056 0
71.4667498226535 9.49305659115444 -23.9100367491503 0
133.105419738583 16.5221890361656 -15.1999438103203 0
143.553397462923 7.69351728354689 -25.5510124458943 0
197.516808138606 -31.8208888547706 -3.92088431765846 0
199.013288811835 21.5721618807986 -14.8930971155484 0
201.477414649189 -28.9654770317553 35.5342175234686 0
180.200762138089 -33.8633970659159 30.4693936603168 0
118.615572676382 -7.12382321410295 3.81394050960249 0
90.9125760934279 15.6643783480918 -12.3312722157059 0
153.982089580572 -7.63628070620112 -20.7519368360903 0
201.531437200955 -31.6542456960564 -3.4396922310437 0
104.803250472611 -17.7199976333503 -8.88791296740444 0
209.084028350252 -27.4684449324334 13.7064342413112 0
198.938422954617 18.2299471165187 11.4374611575709 0
133.412125133656 -19.7023368351615 -9.14831915814751 0
169.711701269644 13.9725858916701 25.4494904159986 0
165.545814522823 33.3489474776223 26.9554927440567 0
197.880103031521 18.6493241456935 15.1330354070353 0
117.898057071717 -6.68668091671296 -22.1783176916121 0
167.076100624514 28.6322498333629 -14.3405712658698 0
176.932266569836 11.0704154853746 19.1863879554833 0
155.379249361798 -18.7465957673965 -16.2805300444338 0
162.801422284946 -2.24648867432622 13.7989402588212 0
165.097083492629 25.6900630012213 -17.9975550471162 0
173.024547851161 32.0318359696606 -11.670606761597 0
0.108409761703165 14.5413584214954 -14.8649652108124 1
151.771290366956 26.0994304914298 1.12625970469732 0
207.58458118767 -24.8079981989819 25.820235111089 0
126.066368230487 -9.19004580212484 -20.6066627265555 0
121.091438104953 10.5975022929904 5.00260684570497 0
175.673227488733 42.8595211950309 10.5983856618345 0
49.2014321963469 14.2417198384646 -16.5874088133412 0
167.683328272173 4.08997288336901 -29.6498648638454 0
204.072413775949 -19.6189272632094 32.1654717114905 0
101.117360159559 7.50988484964092 4.22035216323154 0
189.32912699793 12.1005898271658 16.258688043017 0
196.597044906691 35.5951921005466 -1.58273779554923 0
196.238852019583 22.18182450929 22.3821129285515 0
172.10728394665 -17.0413209550075 -21.3499357649502 0
180.727206613394 -28.5637555985025 -12.8813777311729 0
205.985343776462 -29.532789966344 13.3156919626931 0
190.716654639496 36.9434096834468 -0.450886941175462 0
159.732296715531 24.6554215899545 -15.186896768517 0
158.818105639472 17.0852664836201 -26.798405764574 0
181.248261885209 1.68520653834713 11.3126028123475 0
192.2022115382 -7.65196781589244 -15.4164931270823 0
77.0138745878541 -7.37692188748005 -23.4460285671166 0
186.639175031276 -33.4153480462214 -1.55498509843852 0
151.995371565616 18.2020316026102 11.4971698195861 0
0.570044619365384 -10.3929177004256 -13.8684396958911 1
198.977159273006 13.9373710430505 -9.92692471432393 0
91.2286749094418 13.5816572834232 -18.2068136567008 0
178.475652814238 -13.0487863517467 -24.3488938099532 0
135.325822192374 17.0094098009345 -14.5464795683073 0
192.58839727607 -5.50563102655923 27.7661518948306 0
151.3646475495 5.26194458368193 -26.5686719195532 0
175.654525724138 7.11503680883391 15.2541583238931 0
128.389050271727 -2.05812745626774 -23.5563612697855 0
191.34528804321 -32.1376199525881 28.0976025147006 0
153.944232867794 27.1489157540767 7.33076220797684 0
202.82186688834 -28.9304104843593 34.001088958705 0
180.732725873822 -30.1340209416479 -10.3542793025382 0
177.605523253022 -6.15856890303916 -24.0128535566597 0
186.541810590433 -39.9662097876774 12.54682288345 0
186.468899235563 17.167667347893 27.1586076175264 0
199.632040016834 -16.1978494795219 -7.93591323606441 0
177.515256947058 2.57955199452343 -31.0866832405614 0
51.0461029343717 -13.8703332072963 -11.7193202893494 0
93.5620328291228 0.651239683144936 3.42628471407932 0
170.184894618407 -7.48454741454534 -23.2650444793459 0
152.808137162124 -11.9885416348389 -19.6433148743548 0
197.65484907233 -8.65945154321258 -7.65083050752737 0
170.291000322059 -38.7062125923263 6.97608992517231 0
81.3914030581586 13.5577936517231 -1.49148787114944 0
44.0652963853493 9.26344100048402 -1.05948562315923 0
135.199281867175 12.6451276250858 6.14298214989936 0
174.862675594147 12.3533723855927 21.8028343006312 0
159.62566846711 18.0368502302783 15.7506696036738 0
157.775676272126 -2.31066918105046 -22.7684011607919 0
156.640286585644 -26.4364468029763 -4.73019352946969 0
165.71470622221 -22.6988907826753 26.4618183007794 0
34.9319299890088 -8.98158333627994 -23.9809502510524 0
205.952473752508 -15.0261918835566 1.39739864768034 0
76.1916344306001 15.4918695634958 -7.77503938640568 0
44.0614332393919 4.07949990266692 -27.5096730699331 0
99.505644104541 0.0200094258883035 3.53637665830761 0
