93.0846643933513 0.255838556935693 -19.9746968262929 0
199.671481289133 31.1076801454476 7.41342148867935 0
207.318227762934 -30.8368150281951 5.24746882618931 0
-56.5601503121554 17.0173713534331 3.24549622430761 0
44.1073135124131 13.4703362238428 0.314086239725371 0
-46.7402376867952 19.5054173463924 -7.24928371364914 0
193.236903981967 -23.4177048480282 -15.643682455041 0
-71.2608131291376 8.18654677399629 -17.0404743820228 0
102.618255005684 -5.69840751805866 -18.3514556836068 0
90.7043170671178 1.46115898485202 -20.1796444866431 0
155.534735928958 -1.44759767517345 7.35713912811204 0
186.861609535425 27.6678157669136 -10.9185254385817 0
191.836185819446 0.806305103591648 -16.6029098169816 0
-23.3479837875898 18.5156209794365 -9.64826384422652 0
201.415389471038 31.2676544590468 20.6525083629248 0
204.795919803314 -31.2137613454915 21.9710760084907 0
-60.3406494809045 19.2058721858819 0.332043360962805 0
190.614730846965 32.1980065276843 25.426793951827 0
157.44332273934 8.29186183876185 -21.5987640979093 0
203.397176876481 25.946541171966 6.53416768042164 0
-55.0974672876218 11.4364677104924 7.91107150080989 0
-114.240532852591 19.6092775701452 -5.34366540653857 0
-19.0832653321684 7.43692621360365 -19.8391879112045 0
175.50212632566 27.2721117198731 -10.8497199949537 0
181.724235287335 27.407160877673 -12.6348433039155 0
203.615260208925 19.2204561816196 2.14159489651158 0
-34.7344545892321 -1.62030206318982 -0.235235611720415 0
28.5724231909497 0.518243758062277 2.69652682351782 0
200.213795181231 -34.6875708098368 5.51167162869239 0
-44.2270460358076 16.0131893262225 -15.0971666921669 0
146.406049454914 12.2538331605636 9.30113329576773 0
4.76022508520734 1.82256584417505 3.76671367335549 0
183.989134805023 24.9546804602781 33.6327704667297 0
49.0890251002184 8.94307025343663 -18.571193832969 0
-121.254954217458 21.7722470824577 7.8874192834205 0
-83.4443885482177 4.25769194819461 -15.5069809436848 0
16.1663899529054 7.96395934048466 4.61297440444403 0
-121.852859956162 8.38988189234953 -11.4756645817002 0
118.321108813021 -9.90921550966942 -16.8222638367192 0
-116.088234401639 7.56099145116515 12.1977259562354 0
-4.61883066145514 9.33844232459449 4.83860149419768 0
-115.345079596852 18.0522023395968 -7.26977667330862 0
-45.143690110239 -5.5423040764875 -8.05552428175797 0
-12.33981259574 12.6299741892533 -18.1379721306127 0
28.4902735717099 -6.90977463252109 -7.04097323797622 0
192.800050003796 10.1965868749457 25.3202757699719 0
188.86071839666 34.5199266633051 10.4283111047861 0
53.3531906530805 1.47668160386145 5.25393138919993 0
203.495310112758 -32.9819676238887 5.75928392113212 0
200.310803987677 -36.8836799463948 20.0963157007209 0
67.0897554414279 9.76081461411106 4.05328025946933 0
165.888651878301 13.1281752982107 -22.7116716837145 0
107.287404661175 15.0113884052821 -12.9268907553077 0
89.6648907048769 12.8705149005044 3.283268201753 0
194.617439325906 -24.5669625501725 -13.8837087171444 0
137.495552626666 13.7403664258144 -17.4730786505507 0
159.338869021687 22.4492791185431 6.89291703463035 0
76.2019974249885 -1.3706765011887 -19.4090845173973 0
192.574872207767 -9.889738724658 -22.768790029001 0
-5.3417438184189 -3.54325735829242 -15.4068057414601 0
198.555259026472 -29.9095581374701 28.8732295859537 0
169.132404852677 -20.3363833316916 -19.6239209713383 0
-49.0442003353027 0.596666181326628 -16.9252527569306 0
203.831145094892 -35.0119171769412 19.5695542895152 0
170.7225709409 24.1725340599153 -16.4704268354845 0
-24.9856158669408 -4.3376365289173 -3.54154496785694 0
202.276176053127 27.2073074004092 22.8059725118281 0
196.553069402859 -16.2599119998463 26.5419929784654 0
-3.99695496829702 16.8727079078823 -13.0791379684219 0
47.4217851177118 5.71213850759785 5.87158267589496 0
142.316797370821 -10.8047343111002 -18.2905962956651 0
183.529958251186 3.83871809204028 17.1434642317981 0
-107.008990751473 16.0724393798734 -9.65841628432723 0
194.579591882119 -37.0819973527516 16.0801040988715 0
157.01697656464 18.6375126255641 -15.6437910473965 0
-51.3907686662391 4.9795315762803 5.87725626248549 0
29.3995049405024 5.00549335414427 6.52089173577011 0
149.149115623901 -17.5032872615032 -14.5274583224955 0
154.786621872523 -4.7244973205507 -20.9368267467431 0
26.5563974041817 -1.01611119840098 0.853471539384288 0
-5.00101929722034 5.1600034498498 6.45025241221242 0
-3.21095061153179 5.21730422923266 6.48897233839491 0
-31.5714413385382 16.4374752220815 -0.471545764089112 0
159.766754817957 -24.9421946768497 -8.0651713044342 0
-32.1777853464767 -1.54279110524092 -15.9343494420658 0
173.730979279675 33.6565697114525 13.6482411926317 0
169.526622590342 -9.47116389441926 11.0043209105095 0
8.49042228457753 -0.862741157443664 0.893477465110306 0
62.0243232642744 -9.72609975422713 -8.52940644392566 0
159.064846194461 -24.0177783237468 -9.33780445837234 0
-47.4155216410914 -1.84224306925836 0.0482679900205345 0
10.6427264745482 5.00993035187398 -19.7973730169847 0
56.9948116753869 -9.39924449131635 -9.19867537796439 0
161.383416785134 -27.0108215385754 -5.0362385086264 0
104.203657817017 9.24222594283614 6.23425263300619 0
-70.5134284181328 14.1172577894454 8.61647272156576 0
178.368216836349 -29.7987170861413 -13.2078169278144 0
88.2946716491517 -0.24091595434823 4.29969875181694 0
192.799388049161 32.0735228517687 8.6619367342128 0
182.448843423994 -7.2549928671799 12.9756705616223 0
198.02534311408 -3.58495689411269 4.24174293447665 0
-20.5605927129978 -0.769732691288221 -17.7469281409231 0
183.724783943911 32.9399419458633 20.9889872624873 0
196.985344495049 -11.9148492238548 -20.3659952595915 0
-73.264904808133 17.3264573389379 6.18999444887571 0
207.548303531881 -24.4433997664409 -6.88459095788241 0
179.136665289678 13.0376630258831 29.8208035044854 0
-122.42677682947 19.852196262071 -5.166323631046 0
-86.1180224789977 18.9747605108033 6.83838294519908 0
116.660789424504 4.67473588603748 -20.6643050869363 0
-106.624523863674 1.36640476849935 9.76854520712045 0
146.224890957571 19.3581965927783 0.240946458207968 0
117.353916432977 7.00868958777789 6.5190957521088 0
-88.182749260414 20.2774650123134 -5.25833893633754 0
201.681834880783 -11.2192075292045 12.4320498528142 0
69.0196953596998 4.39631004979276 -20.1210166837185 0
139.957358118114 -3.53300476834594 5.49601137942992 0
202.654409336962 24.4313312267486 -3.40455663695344 0
-85.0359227239415 10.8360801308724 -15.0090329469715 0
-123.431636584087 0.882382986227497 13.3447813824486 1
81.1857109716374 -11.4131117120487 -10.7836629834271 0
-54.4127066323682 10.4204132169499 -18.1766153423646 0
65.4958178642324 15.8823185244853 -5.70096353467991 0
59.4503563533835 -2.44060455524471 0.834845205314155 0
-115.179670295187 -5.17746337067834 4.76270771278686 0
-104.133167415443 -2.1420582929219 -8.73815455973785 0
-81.9928768763065 21.4194379526512 -2.01444773648659 0
141.751964082587 13.0091386961515 -18.5410126224024 0
32.8089030161148 13.4308998728708 -15.6612973683968 0
184.685372494886 -4.51697392102627 11.4008696804616 0
-108.455429342073 7.80381622402483 -12.8606396477431 0
11.9042947304797 13.8036788462839 0.123404384983734 0
-38.5458664049449 16.7722854456135 -14.2521289166838 0
190.175844328721 9.11119111474886 25.7059617109532 0
12.453664136591 -3.53500478884874 -2.45848705089908 0
197.994142992398 -26.8215341068955 -10.579287263167 0
-113.999616626778 -5.95228825372715 -0.145668904379756 0
192.905552527329 -12.5566401925311 15.38786017196 0
168.929630482923 22.792446027481 -18.0913753201933 0
57.8196176914578 -8.2320807305935 -5.70751510353451 0
196.648221152668 31.6850597497336 20.7348287800467 0
84.5123934112093 15.2259251354742 -10.8271806136338 0
179.674480411508 -20.1456298589731 -21.9015903241636 0
200.574834365455 9.59126419200416 1.32542133393411 0
-54.7154265684757 17.1958615918717 -12.9393237815671 0
145.582193475269 -18.734024419604 -0.464732942266546 0
171.794304608055 -15.1736594177098 -22.4381830532513 0
159.813603494465 14.4081791907137 -21.4645940574455 0
136.747031326054 0.803847082539729 -20.9258289136407 0
-40.3822096716829 -1.24516841554594 -15.5494401920509 0
199.692928672327 19.9899203670691 -13.8406021681094 0
188.961042212736 -14.587299693425 23.3865865631357 0
204.797186499931 -34.3500272862739 9.58775806828088 0
200.473582342547 -24.9213707114093 -11.8706224791405 0
191.548579296162 30.9926442132303 30.7262806367427 0
-122.228606797705 10.5154313780676 -11.2432001665592 0
93.141763026512 0.107038105568109 4.43634711767999 0
181.894958910708 8.43065322151142 26.1493284357657 0
-88.9697775744006 16.857908950033 8.81485054794411 0
-103.060075332165 -5.45228064689749 -2.97161273613414 0
199.078572513404 13.8639886840211 -12.6332975460358 0
-102.476645806979 -2.76699644835201 -7.79854373322001 0
206.382416539855 -30.7428353822251 6.46350447061564 0
120.226164664259 10.8055006977136 6.91328080193001 0
191.78314013185 -14.0162336092038 26.5809734443398 0
-59.1168986868037 8.86960800488604 7.76069475590668 0
163.999934916565 19.4581978195352 16.5933775052685 0
199.781604952462 31.0790041630536 24.4676225930748 0
194.410851817958 -31.836258801799 -7.06800183588809 0
59.817641262399 15.6070216920053 -3.4882308566085 0
186.657375613652 -31.1512581779208 -11.4207270700657 0
187.066825719829 -14.8614233462491 23.2323632466801 0
6.11950002581148 -4.99781831538904 -4.79382921823627 0
80.733056625248 -10.4431973428587 -13.0569588687853 0
206.956784033462 -20.6243938227002 -8.89832387690385 0
93.1881658958443 3.19957181367346 5.17917004020939 0
82.3977974699999 -3.36637202414003 -18.8137912512021 0
188.228766979888 -37.4159475893037 18.6907414432685 0
157.515928555914 21.4459744589324 -6.65677265488116 0
101.714403117045 15.5450527474402 1.58439705867366 0
-48.736019243111 2.41920772203433 4.18412117128648 0
191.602787157839 -14.2020982664265 21.1293659178425 0
151.43570906855 20.0605211135535 -5.0147382803917 0
184.583155268718 -39.4855659146629 13.7460301434131 0
191.634181524242 -33.8121244868469 -5.73835305879388 0
-46.0292396835372 17.5356127133756 -12.8252070275169 0
188.087199825879 -13.1964258626976 17.1792364102779 0
207.811488491575 -17.0374230940957 0.108879736646702 0
-21.7585378405384 5.48762563056987 -19.7440876273859 0
60.1064888184747 13.1315110476524 1.18253214468334 0
134.74640613297 -17.6777610177729 -4.95786354052053 0
84.5107062245568 -11.6643622722782 -10.9966235227091 0
112.090749992234 -0.946262327223553 4.55983241670835 0
11.6853967357994 -6.84177588810251 -9.58729001423955 0
203.301630018864 24.0166845045293 19.0027687736192 0
-89.6873676977308 -0.966513352258838 4.53700097227291 0
180.499979564654 29.4199003951363 -6.79882877656271 0
188.504741385151 -33.5644212272661 -7.69678659517632 0
-50.5733996691342 -1.65122640510138 0.425558117916185 0
168.213122137035 -30.7988095039988 12.9189084943575 0
207.458592655562 -20.7425447611792 14.8849278882224 0
148.71128235253 -15.7793043469732 3.06711579181585 0
55.3522698049073 -6.21845102619515 -16.1131523759062 0
190.027719974425 31.5097572961968 23.6872391572607 0
113.063705540704 11.0688800978709 -18.1613297139874 0
187.084558551732 8.47758619693119 23.6323867151827 0
193.501096238621 8.52170886756974 21.3334244453405 0
179.769832982129 3.16451751758418 17.7307771997867 0
93.1889231629121 15.4460688711864 -10.739936196329 0
-46.3464793575887 10.163575966486 -18.5804357031939 0
158.534000439872 2.47832096138489 8.56941387199987 0
162.461553111608 -10.8504419645284 -20.6690603658325 0
-19.526271862374 18.4144722174341 -9.83685400463456 0
-105.706728783263 -3.02151871506146 -7.30192506416999 0
-68.7290222864259 6.39366772623446 7.7715531921381 0
63.8225384495651 1.56187519736975 5.17088340481698 0
-40.5388625417166 17.6460278448264 -12.9079611830995 0
196.696724111919 -37.4304867189573 22.3242040661674 0
170.135187962899 15.206989023464 23.786292313882 0
177.07103448964 -1.00930208692729 -22.4637950958185 0
185.27655915762 -36.1571439486589 28.6103241229945 0
104.01616555997 14.2580789790929 3.50125647831239 0
172.621536070534 10.2844511509607 24.63798839519 0
-36.4224786122215 14.6684261165877 -16.633958812198 0
107.967453690135 -3.30114634036563 -19.4921810996576 0
15.8434898883693 3.33801863516171 -19.5807590754707 0
48.2588324093064 -4.30309498255921 -17.3345956749181 0
164.498733308774 -5.77900884217019 -21.6856379070089 0
198.080666807667 -15.4050074051109 24.3487248469797 0
116.532693161467 9.8541712326512 6.84248224998816 0
176.922978502403 -27.9903869045015 -14.6398995390588 0
159.076287904253 -16.7502715614719 -17.3817191405525 0
-39.9868174705671 -5.69672611706561 -6.72492923194943 0
172.057355898704 32.1266540730553 14.8352117181956 0
-92.1866954752306 3.47670970137407 -14.2623975480311 0
194.964410505168 -34.6811059751903 -2.12678047839408 0
182.532429924977 -31.2545482063633 29.8160405989754 0
-121.578169261573 -2.80893734469903 10.4921540190312 0
84.4607368557591 1.26971304547937 -20.123657240571 0
199.097152737478 -6.56822677342134 6.24815000200928 0
-114.668730038378 4.89330927867689 -11.9834439473501 0
141.372475163552 11.642017999763 8.58635975197692 0
170.977518620203 21.3178552421723 -21.6702776756648 0
70.3250614272787 0.879323427719152 4.69043648336521 0
-104.351593815026 -2.64829708840166 5.59898649219665 0
76.6024908992847 8.69765845682632 -18.902463910565 0
187.044738472301 -17.7924562534285 -21.2452139059667 0
171.235781074784 -34.8338914515922 -2.80267452525759 0
-126.116256065201 -4.1414813659418 11.2230341432421 1
120.689833384225 14.3006984180337 -15.2485381148709 0
-51.939672652223 -4.59573224338347 -3.31531191330316 0
-35.8215130675013 -3.61428799820379 -2.47957901123494 0
71.8106786401318 14.1182786070347 0.633647301050987 0
95.3937480030251 -9.91685350710586 -3.55892607294135 0
139.550280100562 7.22430455331344 7.68874385361144 0
-90.6659156308689 15.2164321439932 10.497180467589 0
154.824386693211 -23.634723512603 -6.44507639095517 0
37.9454021894511 -5.25873743988054 -16.0900510901618 0
166.62905643714 23.6646766731782 17.7463201880782 0
172.877878538246 -20.3431828906353 15.2840484430212 0
166.66911385694 -17.9921058082028 -19.7855410433415 0
187.54042842606 -12.3708343193967 14.6887486907421 0
189.406682535608 32.879540629574 5.43738915829191 0
187.960012172627 -28.4922097144116 -13.932827936585 0
-124.310183414698 -2.25958148650575 12.1286912459187 1
75.0666653573029 -3.85472615172413 -18.5096586364917 0
53.9780088098534 11.4405112591018 2.43660523946587 0
158.422720168516 13.3579521934493 -21.4292912095835 0
150.792875720894 1.65866090566185 -21.3417264206062 0
158.267881386131 22.1466956871504 -3.58417982227568 0
139.178464179278 -9.35118076548348 -18.7028213985634 0
179.786405513918 1.65377952209436 15.6823781578895 0
-16.4544215345274 18.1769181187627 -10.3479254813429 0
99.1863745309787 7.05734287949795 5.94982429180982 0
176.86787298433 30.1434187950766 -3.10772623014531 0
166.858624444142 -10.8684250677992 10.7366954581568 0
110.835232923768 16.9273385730229 -0.848797096171079 0
34.8714663800671 7.00698918698709 4.92342379607578 0
189.982343400693 -34.7587246173272 -5.23642475171146 0
43.5465598612371 5.562898914194 5.92889346638713 0
129.631544214191 16.5192841676936 -12.0347223295378 0
174.243493351148 30.9697717315672 18.6678646710399 0
116.995119144749 -8.01486307502392 -17.8294927194352 0
172.861726030575 -3.14803197347229 -21.7806916064137 0
164.41620118512 -27.2402766199123 -8.09278356296983 0
155.576916700744 21.0300157496625 5.90041546180603 0
195.364978042521 31.831466403982 21.8744381570611 0
72.0406596098108 11.912244310405 2.84616063093311 0
149.734633253648 -4.69173215096008 -20.7377888777187 0
94.2255619595943 6.67687746387898 -19.974726778718 0
-54.7840438327385 19.2829799481306 -8.8059767898914 0
74.0121869514142 -10.8625207043187 -10.3070188185871 0
-18.0038039528559 13.045682240994 2.55852310370091 0
182.28447787761 -35.8781136450476 -6.08964832430462 0
101.531991041188 -13.6615314916926 -9.23412627691679 0
-96.8739693449893 -0.175835066744656 -11.554067444816 0
178.806264345296 -40.6857111993562 9.22242493584051 0
-70.6397598321555 12.4052640616781 9.07913945143772 0
-117.704196365909 8.03569347606611 -11.8925185643415 0
-68.4162663039963 16.2110497458575 6.49468016566804 0
126.65509157715 -5.62634220843834 3.3588668124803 0
-123.295878940154 -2.51647481362079 -8.13379496904027 1
179.869716404433 32.1331217159216 0.454523889192991 0
53.9519741881644 13.5021782818174 0.533378066639408 0
196.861049975981 12.7797666913455 -15.3704337964477 0
161.340609739833 20.6248268970337 -15.1654019138359 0
-29.7925484848343 -5.39883468434954 -5.11500937210451 0
120.917329399382 -15.2639535412849 -11.771784617865 0
-66.8566439666459 16.211841139951 -13.3791073796029 0
-77.9496781558689 -4.87485721468509 -1.7643868587349 0
200.48299311675 -32.1310055571162 -0.695293399483083 0
173.477698214025 -20.9898215015827 19.8605316806397 0
57.7554616586473 -6.86912156046085 -15.5843708605183 0
-56.7774523385581 15.7404399261957 -14.6900534590286 0
186.530552345604 -13.8626612758497 17.7605070922639 0
-74.9821231068574 19.8555910403248 3.09776137870669 0
131.49767573729 -12.364256309666 0.222189391271404 0
-122.949327840839 23.3417655633026 5.06896036386163 0
203.532882068344 -35.9178809800044 17.5330612437782 0
103.835679663496 -9.57535827113449 -2.12074515589345 0
-83.5128253403643 0.522519486607402 5.39831356565378 0
143.159341485493 4.84742921386769 7.4130314533293 0
156.956646287386 15.3626933537762 12.9324189885816 0
-125.911102170484 -0.28015705671973 13.8153193794098 1
19.6707857873567 -5.92978946225043 -13.6193847248424 0
173.782877342793 10.778075148551 -23.3650844307693 0
-78.9913573580481 -2.87253797706446 -8.83886538050179 0
-65.6276713760285 19.0638529523972 1.98611468999205 0
185.97402964488 -20.0116602475565 -20.5689177868939 0
-7.07618290386805 6.99755245145526 -19.9255206048493 0
72.481882246017 3.26264473002754 -20.1956611094664 0
-102.848923285176 -4.45468212977681 -4.90357406042732 0
173.397704695788 1.82016965631128 14.1431154375722 0
100.836004278194 16.7164941903032 -5.66293009990287 0
184.391491004995 1.18743576258931 12.9569123140277 0
107.273293347029 13.6572196648776 -15.1698924060466 0
169.818384243649 -22.7436342234389 -17.8869175373152 0
-118.607929983505 6.75046559099898 12.7374699471219 0
146.491340588512 -5.44495636430893 5.99079116271327 0
192.629303420004 4.93502963150349 7.64128922959293 0
-55.4246832704715 19.3393028351352 -1.40588984005052 0
201.861369768516 13.3093997952686 8.85624491413618 0
200.949848880157 15.9538964221225 18.5183731515401 0
190.788114857236 -37.7703357236158 22.3101327913296 0
195.202986124824 24.0673022514178 31.6382902744786 0
-86.4509905412891 10.3103510687423 9.70833445465901 0
17.4675075032439 -2.75020965891435 -17.3861206228889 0
143.49680196026 17.557779438599 -11.8984169908994 0
17.6862672410604 16.0765173778745 -13.0458206534154 0
207.392712038129 -32.5756905275056 13.1131856040933 0
168.952711739792 30.1273544620401 12.5711751056392 0
-8.22291427612973 8.41618063327116 5.91579855259603 0
200.384004107406 -31.4485735662562 -2.28128169226271 0
-8.63520832213482 11.6111766344961 3.08467897791082 0
-58.1451394092756 -0.37447118623809 -15.159577398462 0
167.980846045067 -10.5527647524662 -22.1228455686849 0
173.540405020976 6.27177805930962 -22.6361876112977 0
61.7693017533499 6.61745877542704 5.48868175534325 0
52.7640805969037 -8.04209550404101 -6.14408513752579 0
199.219533940862 32.1551359628738 22.1700174128412 0
66.819305747378 -9.30278574207442 -6.28787830974575 0
179.253568178337 -13.7696340889189 21.1992853747304 0
-65.9553145163042 -0.0722480645536111 -14.9709967029008 0
206.74951471109 -31.6312591705598 6.52396789352422 0
182.696795254348 13.1247124843617 -23.9726927909248 0
185.495922349572 -14.842322200322 22.1291684156307 0
5.15760281419039 -2.89750577082961 -1.69492695340256 0
-100.479717315948 -5.52494475902122 -0.977128630775067 0
25.8444891698553 5.2033680729847 6.407619589092 0
197.064307363999 25.7766860730623 -12.4980409764935 0
190.953747038368 -27.4497532925141 -13.804409561594 0
-10.696507609585 3.80225697274488 -19.6291084126259 0
198.771229106049 6.53649126092421 -1.93515742023481 0
136.28705096029 -15.9286066599963 -1.7073999579183 0
177.028603919255 -37.8954072031892 -2.08460039604442 0
161.445303714623 18.1033757861514 -19.5767234073276 0
9.04685634861017 3.18475918801966 -19.5537975616018 0
152.050334201493 -22.9774424348507 -4.41713673914195 0
-69.9945146549104 0.775598047306417 -15.3809245576982 0
-108.616122579897 2.86772753331236 10.5740385733931 0
63.5587040750312 -8.71794660048315 -5.70053398335572 0
174.461278674454 31.2317286992837 1.92938624872629 0
-116.75708709705 16.8905943332768 12.547471659056 0
158.237259753893 -22.7754976301759 -10.9226560493784 0
38.2360297735949 12.2730683745368 1.49270738105598 0
-128.003648811842 -5.60154547497431 9.93934003702445 1
-42.0090309015589 -5.10319885770898 -4.5600782366934 0
185.821685197564 -29.9518343410356 -13.0455958769335 0
176.304141890595 -4.25754528799858 13.362745835097 0
152.977294260483 8.87862563569959 -21.272909652275 0
169.149641195832 26.3727864587708 20.1075829929819 0
81.666019974184 -10.5626845353902 -5.97055343393083 0
113.646220523183 -14.731812111877 -11.016428428509 0
95.1138183479059 14.960111707591 1.62433894884466 0
187.101963542324 -34.3337114747688 30.046258437795 0
79.8376651529497 16.1249418240239 -5.42217188260113 0
20.4051853006723 14.6182844750689 -15.1364513932363 0
156.300609554741 18.3630344733371 12.8736907756498 0
-44.2428871141942 -1.69388316733603 -14.4586220133287 0
76.9258441732019 5.01254437146025 5.32470874351652 0
-61.8874883215731 15.6168624231184 -14.4980824514908 0
191.64022172791 20.0690580431236 -21.8626850294373 0
203.497048242451 22.6923118707469 16.9581100504801 0
-48.5588290956716 17.3290030205288 1.01869183526232 0
199.489968462376 -26.3615521451512 -10.5725222620996 0
145.048863796726 19.0377498033309 2.79603178348211 0
173.704232404015 -40.3531973426819 8.79393445478016 0
191.583966478159 6.26426488828601 12.11841158478 0
173.632328024566 6.58883876715585 19.356660181304 0
201.27225889073 31.1604638997959 17.0257932347713 0
171.17801234485 -29.6581632819724 14.0477921765006 0
157.468222398014 16.1768988803251 -19.5213093178192 0
-94.3478005701616 21.8591919963199 -1.17424458396559 0
197.712254491257 31.708631595697 11.5336350613909 0
12.3701944464406 12.6030663920556 1.43796824145453 0
171.433726512903 30.8442836366803 16.6953250388899 0
153.21373674582 18.8406695194713 -12.1947039840413 0
21.1013574348591 -3.38611871207043 -17.0061695432529 0
101.692277694765 16.4090968561564 -0.554437892746848 0
180.204850380679 35.4281677368791 17.2888584576806 0
178.792412409583 21.8615943247054 -22.777977395435 0
74.1181807793432 -0.420373619953094 4.0777272844962 0
182.911328814572 -14.0505754333552 23.1837908820809 0
-64.6868554282477 -3.03401305518727 -9.60857756806834 0
32.5342814643386 6.3000203923469 5.6818476945618 0
11.1341361535633 3.02136332602659 5.31520659268355 0
119.146106200199 2.72041482212788 -20.7349058710563 0
180.81893434808 22.8249428383158 -21.9194269273731 0
166.171285309702 -5.97691103322599 9.85546232201196 0
28.6845395436604 -5.25542983275333 -4.24185703758163 0
-45.1562842031217 -2.88047286369743 -1.28753431899179 0
0.672121117939439 9.07072403376577 4.57349623379108 0
123.919135450924 15.6541872405615 4.53482517052846 0
200.624964744185 -15.2508426397388 21.4233656503332 0
187.166262275204 -37.9749732648069 17.4199841615176 0
147.711919717145 18.3971886948651 7.64533629309665 0
165.682819082401 25.9046142842096 -0.234019963957477 0
137.650840950244 6.2505563405564 -20.8159143841304 0
177.917084078451 -32.4856790578828 25.5931185614805 0
167.789451853324 -17.356991000354 11.4301694987433 0
104.889188119795 -7.26808163398814 0.199830169322211 0
198.575793345661 5.79634928537221 -4.36925882096642 0
114.137188880186 9.22379219499921 -19.3249898029207 0
184.910255339818 -40.3408763591412 1.79076166288182 0
-93.481765549223 11.1179109162533 -13.9102404690216 0
-22.8755670267683 3.99262506710239 4.82852212964491 0
165.117038388032 -8.11067684662017 -21.7220596875609 0
121.78738702085 17.4803322451145 -6.50958787548355 0
-72.5971197039729 -3.55621685249626 -8.3271620417565 0
-1.2771927091496 3.65335001628077 5.68824534650632 0
77.3414914636302 13.0794394970319 2.11630973495636 0
-108.984137866207 18.3023119328884 10.007882794664 0
60.2219595893729 3.58225622193232 -19.9993210892519 0
186.052646891555 13.5218735687514 31.0349731347417 0
209.035615567682 -20.7636415780284 3.79644636517008 0
-125.700424447353 22.2666474905683 7.60385179597807 1
-124.159547780509 21.8689914322051 8.49138351759881 1
121.627051701602 0.758881908313211 -20.7216670783547 0
-104.975511861816 20.4318827636348 7.71138264505274 0
4.57806594401012 -2.196403208513 -17.3563227238481 0
23.4019158076157 16.5478023497893 -9.97177295142909 0
169.650856258595 -31.7741678282671 -5.64905546975314 0
-0.616792224307282 16.6699900239584 -4.30694375171357 0
61.0684195316005 -1.17431702439738 -19.1124423435694 0
150.530873603757 -9.99729165635158 -19.3323027124617 0
158.547455797232 -10.5062828769552 9.63636920247143 0
-69.1049403497291 19.1874302161824 -8.49896810581951 0
14.717514834082 16.6555782065959 -12.166903116231 0
113.272153907118 -14.601720151668 -6.20392069843019 0
197.644427195219 2.09904504005967 -7.51455852805013 0
173.107633767628 15.933782962223 28.0869719790188 0
163.213052956434 -21.1965988150502 -15.6143121357659 0
202.407334406464 -17.1376669266923 21.6135478982543 0
-118.845624283934 16.7145034204105 12.3582194507938 0
104.485733629426 7.62000528302989 -19.8539102430509 0
49.984246013816 -8.76209139277678 -11.1808767478021 0
203.267366381828 -18.0296827165878 -14.6100924259586 0
182.629900846846 -13.0898293228394 -22.5766868468622 0
98.5987066921012 3.95471053672464 -20.415035857048 0
10.2864745474947 -6.29338628145094 -11.54048989557 0
62.4042709507242 4.84505768606511 5.43293924993485 0
165.623032459039 -25.8612102256322 10.372097092473 0
179.04175103731 -35.8390576900638 23.1282597849965 0
118.730244979792 3.72583946888467 5.8642893022565 0
-125.565365923572 17.2030247736154 -8.01464406188802 1
146.151540731923 -2.59953892843832 6.30625222098888 0
119.225175829533 9.5563300847015 -19.3422392334279 0
201.674021694847 -26.1684958394915 -10.0409398716477 0
206.418455050598 -33.3169813607446 7.0763096957375 0
-53.8398200179085 -2.55298225569068 -0.550212116771855 0
-34.067592505089 -1.34422098616793 -16.0088686857795 0
90.5566839624822 1.30162604684034 4.68535837835784 0
165.741109303012 10.8668421349503 14.4334132492132 0
-51.9555887466078 -5.52595467847537 -7.21117370111314 0
-114.488421981499 -4.37960706753141 6.77744039504352 0
171.077671907036 9.30177968035883 18.5168032066026 0
-37.3219578108378 2.96853990339828 4.21424206021001 0
16.6918306521582 6.07448528571805 5.78378054885945 0
-112.216904309649 19.5797834566015 9.3562601829561 0
79.7280601233793 -6.97488770658908 -16.9172586709286 0
193.159269544104 21.814359115338 -20.2756149324027 0
177.103057577808 2.34482816373039 -22.8257087962349 0
167.806353484309 25.6246115415527 -8.51759639120217 0
196.683814400471 -11.713774469471 12.7147091931886 0
12.6228610609309 17.0154321991056 -11.1669176882359 0
-17.1219471751869 17.612998136045 -5.08058167056571 0
86.7144443402487 -8.76444644755522 -3.14173074627981 0
181.96116479787 -33.3125223538123 28.7906745122695 0
-83.2665130113954 8.6007213356851 -15.6507425744999 0
94.5617543478261 6.37840233537556 5.74755245032154 0
153.053862339996 -9.70448306683256 7.72053162987565 0
184.954123313698 -38.9429697775881 -0.721387005012998 0
157.802024376338 -17.3810171770028 8.2571955054612 0
159.640150091394 4.67693736954553 -21.4325662190173 0
143.508580505442 -0.212295005473707 -21.0055671757303 0
26.2365572427373 -5.85631409333587 -5.39332190578433 0
203.139099135142 30.0009596524363 13.2815321190984 0
193.883589732933 -36.0151310981151 0.353857956736411 0
193.313060806788 6.24456568241902 9.94628439752645 0
-37.6644172225341 5.14793248116771 5.77700990297049 0
178.258121928382 -1.6763406549456 13.3051551529429 0
134.841611466302 -6.41133217224226 -19.6672402074738 0
156.665201153701 -4.99259690894163 -21.0900056073658 0
174.146565063357 -39.1282681540769 14.970960820015 0
97.7353327253847 11.3714709722438 -17.310978140295 0
167.543269682818 20.4638343628933 -20.8628874841268 0
-12.6501957840326 16.6843108059779 -13.9314052163919 0
7.31560367337503 -5.04627764905281 -14.0407298703387 0
196.11795449056 6.36792640881233 6.08302279214552 0
166.251938962518 5.31742808899525 11.6360316549967 0
6.77350418342692 15.3149167981575 -2.02942387345097 0
-45.3187894764965 18.6065013448555 -2.51340720813547 0
116.488133854323 12.7163573334967 -16.897488451855 0
186.679009938045 -28.7417772232515 31.6338334355088 0
177.820431229427 11.7854239474794 28.3952162683557 0
-117.824965025726 9.15669261423217 12.4952787583991 0
176.790892989917 28.9006277175035 -6.59442683641897 0
195.45939515471 27.6421126229009 -5.24469600323359 0
153.029178046516 -4.39831354383338 6.73746110681302 0
160.102496843464 23.0142818684937 4.7533504519863 0
87.089626809093 16.2420737191543 -3.77239470169828 0
-29.9215584344576 5.30155436998928 -19.4872085108796 0
-92.8289002390162 16.193680984249 10.4610590652304 0
-109.410059014527 -5.42402350330811 -3.22526290771179 0
191.845479542289 -17.2685312029978 -20.3912639508832 0
193.973603231985 -3.70211088761065 5.87937107217941 0
161.114519365996 -21.8399707429224 7.90092230404838 0
-125.425584237521 9.81963572720312 13.6062065348136 1
81.8116405574857 -8.93153256869473 -3.73340270280447 0
-85.6465951024917 -4.04221699419209 -6.61519588551136 0
175.593732147704 33.6441766192432 10.1211905363763 0
-75.7313852094243 11.8062304280957 9.43885465490279 0
113.524151780337 7.20557228398724 6.46409297333995 0
189.430007456272 31.1922585978113 19.1862816065083 0
136.033504631511 18.3666562766594 -3.04343134899469 0
-77.1972449730792 7.35360166275526 -16.4149475518818 0
67.4727413057115 15.5927962633648 -2.80502726723897 0
206.175326967922 -34.5026508714239 12.5235562459346 0
181.019287033139 34.1045582430164 5.69956948098336 0
204.462197038049 -25.1907318235114 22.3847567992825 0
194.430188961823 -36.9033241088654 26.62495449199 0
132.056209004639 -3.61224404247433 4.67941687831349 0
-46.4227830430033 17.8807230115923 -0.499192639381656 0
40.8431508861679 4.76941144046931 -19.7871936552702 0
47.8216849335823 1.32484797711927 -19.5059786579415 0
-125.726088312799 21.3850678918202 -3.34470899799186 1
189.047292012143 -37.5411229156509 20.7126457237095 0
158.007941702966 18.5958654092889 13.6936579009124 0
133.91518839662 1.12401709789905 6.01904047296951 0
180.897007526124 -13.7605472388569 23.4640414359122 0
144.934375586451 12.7624687987534 -19.0728161696689 0
148.205897835818 14.761286456515 -18.0479120094514 0
93.8361981361565 -6.20160410767343 -17.8157069951992 0
205.277970936735 -11.8669522578458 -1.16103680796116 0
-119.497888535905 19.6094406944803 -5.39247331343003 0
144.828036918587 -18.3102843597498 -12.6618524980873 0
12.538396435059 -3.10689385356795 -16.9081757200204 0
-114.113976910522 19.1051205913081 9.82128132311801 0
155.752464610693 19.7774049442458 11.5124139146586 0
179.775989202256 8.77629356196368 25.8640741443994 0
200.307153277631 31.5182560583904 9.33216152050206 0
193.404898239302 -17.2007376647581 -20.6304293359154 0
198.390734152295 12.4487000469505 19.6673642919867 0
51.6959534828719 15.8743571742284 -7.77111806139623 0
191.368156869385 29.1259238657701 -3.09921886988892 0
158.122187401776 4.42935675655145 8.99753189969089 0
-67.6916083637491 -0.0975316279757679 3.08071689679531 0
-17.1025802211007 -0.586047437767743 0.989612985715436 0
20.1903075109796 -4.42003897074351 -3.45596514704814 0
181.091440923442 13.8394910630668 30.8272197105233 0
-19.1961744704594 -3.86444743897741 -2.98771957775199 0
171.436708409342 -32.138378011746 -6.93469044178413 0
107.493471937483 4.59496920725629 -20.4977141735566 0
162.392547404763 -18.4177032482211 10.6524753398985 0
80.0760864292385 15.5324998218241 -9.60121251377546 0
201.979542979943 18.1631939529369 18.4632918114777 0
58.7872928217224 13.2984519783895 -15.0386577003895 0
-34.4579494111986 10.4577482775702 -18.9361722825615 0
181.393706808152 10.3777529700839 27.5864880567668 0
170.275400172819 1.75425324909732 -22.0238390748514 0
182.291586665589 -7.45865846707882 -23.8712012485303 0
169.519136653801 3.04626891279886 12.2295740510272 0
28.0371781884798 -6.89853228545516 -12.499822283642 0
-35.1890657897613 18.9530233633399 -6.93650240459954 0
-17.5260316904504 3.71867666367622 -19.5912275086974 0
170.265532935926 25.7145445130211 21.5506375641611 0
149.234322261811 13.7397634279471 -19.1362174450935 0
195.502002530957 7.66912544796397 16.4307661313101 0
205.420511961867 -12.5591781191018 4.68623161430862 0
203.488157440533 19.4928980794996 4.56582809913693 0
-116.718063044991 -2.87791645258979 -7.71107499902896 0
121.370181370219 -2.50240754201424 4.40279673542063 0
196.219759474954 -8.57718340497498 8.83187234831033 0
25.3209785511497 1.61806621381163 4.25363404469093 0
-14.5046164369969 12.9386663954215 -17.9612588746542 0
181.044849085707 35.7018813896364 10.3402430401851 0
99.207434465646 12.9912645668027 -15.6469030047518 0
162.534165110306 -8.28891101047626 9.21503692924841 0
116.225143346224 -1.52002125433843 -20.1808485097367 0
70.3168272347273 -5.470207484383 -17.5263196324624 0
151.918973439714 20.2680538013629 3.26852612957788 0
86.679255582527 -10.2037376036252 -14.1543815980943 0
45.6584546419041 1.41259686137552 -19.4738589546797 0
144.219009581133 -9.66321771758058 -18.9755150695256 0
-59.8414903345259 -2.44237111617221 -11.1152997830122 0
-123.940481534742 12.1856321582281 13.2684836288709 1
-87.9129267210227 18.6607945168951 -8.02848378671671 0
132.05092236695 -5.89060783703926 3.80528071812964 0
-124.599097560004 -6.82811859590838 -1.55863759594686 1
119.073370571204 14.6008986348776 4.91523113617648 0
3.11628023881683 7.8721846099406 -19.7354984829825 0
-86.2757146505076 20.9334329093097 -3.7854654878532 0
-14.8818146076228 -6.17711361782092 -7.80456239359254 0
165.891964534328 23.8319141514484 -11.8339230182952 0
164.337946556385 -21.4319538032573 10.1423702524897 0
193.484300395644 -7.27676102982974 9.02689420248878 0
120.948285858287 7.78322492282023 -20.1574706201625 0
178.860078892355 35.0253156876745 9.18061421911294 0
58.5438985859874 14.4037107256981 -0.513943780943742 0
153.520421564614 17.6653334447895 11.7435544832504 0
198.947690485841 17.9688875405151 25.3405046319479 0
-52.4420914520304 16.869401974516 -13.5256956730568 0
194.808907783814 -37.5952375363482 22.417188818971 0
162.902832014167 24.236411141887 -0.849443976752416 0
164.735955360954 17.1919733807278 17.0474122719932 0
168.075865449674 27.3902312891516 2.46583341829941 0
-44.967763677129 -4.71469525796159 -3.82441921869545 0
154.065239050801 -10.8997274164926 8.36617535130987 0
158.849447914053 21.1851849560939 -10.3393235093608 0
199.197791041091 6.81960707348595 3.90180442373015 0
16.0003084162912 -6.61196598249725 -11.3726152253242 0
-72.7597922658345 2.76131679195367 5.97254288234937 0
183.145348752615 11.3267472490844 29.1070422763417 0
-69.7771396542598 15.9290012262895 -13.4413925289957 0
203.76930209873 24.583464350723 11.4026597912634 0
-44.1111882255171 13.4074171596699 -17.3128306887146 0
62.9215460530883 -1.80312686914109 1.53280317832027 0
31.1732801659255 -7.58923418270181 -8.43656724964276 0
161.698587849913 1.3084656920194 8.89389089678654 0
168.311032959189 -7.83006557039792 9.37260441924215 0
196.391951225578 4.42399789826845 4.18040465005764 0
173.65832172886 -18.6926614267123 19.1333406304304 0
177.553872435772 -13.9157213232437 24.3961237637629 0
190.443850388667 -19.7228339683841 30.9129261311609 0
1.35759128279449 1.96413875908766 -19.2907349737215 0
-45.9144787408804 -4.17303661774613 -10.4080891670384 0
-61.4783713881565 19.9606582885261 -6.35210972264207 0
-7.35754847082409 4.94060915305583 6.33382255970883 0
60.4537358507458 -9.44630841431504 -11.3659152286327 0
169.527035552715 -29.035132600273 13.6409878569141 0
-65.4001608584294 20.0280957511991 -6.50966138788906 0
165.314311534084 25.1191212927836 -4.10828637767838 0
169.973630441629 26.7515594622391 -7.60826303301748 0
173.982601372348 24.5334147494804 28.5982205340405 0
159.663537889228 21.5331619555269 12.3539918736822 0
-126.115618224723 14.9535796660832 -9.55709026148782 1
170.520917115494 24.8592480654419 -14.537520030097 0
201.732873694222 -35.8078761471826 21.292479273488 0
120.983001702107 -15.7853463347654 -6.21227994305788 0
-7.6315704014056 -2.2496871437231 -16.855789680602 0
63.8194384903294 5.65592065855326 5.4201713030288 0
-119.355098848317 1.24930572805088 -10.5915513407111 0
154.482607308084 11.5089628818847 10.5383249811476 0
177.877055572622 34.0688693377138 19.9745998559563 0
202.178395755036 -34.8680803851768 11.0686780112309 0
199.137104057205 25.3300750162219 28.273797494982 0
173.40489181674 20.5253049188674 29.5680695238557 0
72.2099324269262 2.16024470166611 4.99588117842647 0
198.63617966223 -2.32254014919566 2.96539919982844 0
146.525514037915 -21.018047831676 -4.3521462829102 0
165.164489650873 -15.7505388049885 -20.0654644584856 0
-97.548121097632 7.56063320714688 -14.0924914399491 0
203.914532356017 -35.0764283238008 11.7182941352141 0
47.4944661425215 -8.72765139808746 -9.88972269325409 0
177.869395414211 21.2824962319086 32.2277515642562 0
197.386984952848 -7.29612453459232 -16.8700818433062 0
178.575562893772 -30.3448271405662 27.3554783728673 0
141.238550630576 -1.98941004420837 6.00243598659408 0
-13.3451920281417 -4.65659455637932 -4.08409543537009 0
-127.162627910339 -2.75957123263142 13.1449144386085 1
53.2036287025851 10.9965199870118 -17.3121621366449 0
122.94776242088 6.67821288944471 -20.4860718063303 0
176.266247436314 -23.2152455429457 25.5374134165821 0
-105.494453148353 5.94723650276514 -13.1400690247475 0
-6.15762592387476 11.9472133917256 2.6648961769489 0
-30.8347606199214 -4.5292102540922 -11.2752578886838 0
182.457759933676 -29.0751348918845 -14.3085589242668 0
-35.2352407745198 -0.139940520778398 -17.2500727084404 0
168.410190673409 5.27906504822078 12.3554891365814 0
180.772676577281 -39.7592191482309 16.8407126204132 0
203.483178332361 28.2316772980821 15.9740743791143 0
189.522635979534 7.81776530056306 19.0416025534177 0
195.72367400922 -37.7866525724103 4.69133469988463 0
123.101458387324 12.2176215566323 6.76589852268818 0
-60.3432591686032 17.1949985007846 -12.5788341826732 0
-115.061102780047 0.717587510104212 -10.6167815238236 0
-63.9398243991997 -3.89252725015587 -1.29661098980035 0
25.3548078325671 16.4641999268855 -7.27263011466063 0
-85.2992087643607 17.3800534812109 8.0532377115295 0
115.209400828335 -10.6571474104881 -16.1268580767343 0
-45.4990183794284 5.78987326298481 6.35083016663385 0
178.472043115336 10.5035405909174 -23.8744640706855 0
190.559360338579 -39.3373019862658 0.966111937659845 0
197.474246244393 -36.0538472959635 2.61167851832881 0
-9.87376229433532 17.7617495721305 -6.52164229676313 0
199.096468736967 -34.0586041712784 0.408312080054108 0
189.927530085556 31.1308253360357 21.4032644404853 0
190.975096718371 -17.0272809457202 -20.8594085171311 0
-41.8052116259313 12.4202532441339 -17.9337892907569 0
180.646563253513 -36.5197806913843 25.2330681949094 0
-19.7691680097731 -5.32454380788964 -10.342450596114 0
139.080990017301 3.50523167307291 6.82711802579381 0
168.369903092671 8.87089443097086 14.808663653084 0
-78.6433237983857 11.632060397757 -15.4182025419656 0
191.110419691292 -37.4202642792347 14.9824032714275 0
201.162259959048 10.8855467093297 6.54169977596043 0
164.569925833648 -3.74896156188387 -21.6840296617908 0
74.6397142121136 2.90703237986594 -20.1958634745091 0
154.952380808359 -13.0579298340343 8.47748471629998 0
-32.8969126749484 6.51654001707049 -19.5103967171077 0
65.420792886796 -8.01564330104392 -14.863766826418 0
174.626310400216 -25.1201791261143 -17.157736332538 0
152.965579653097 -7.90746398181856 -19.9221539476275 0
-51.9546464114531 12.4999176496098 7.04078884933817 0
-117.141842305728 10.0907028835762 -11.7492406937056 0
22.4535283645396 15.8222716850449 -4.20010538268498 0
195.622543052326 -32.3127010063419 -4.68740433406943 0
176.452277224625 -10.9303688205912 15.738054354862 0
89.6304558088556 -3.25921816304573 2.83675298309715 0
185.366191457403 -4.22153991530034 -22.6180970666666 0
-24.2853986208204 -2.50395133278676 -1.43176865996814 0
129.811015501343 11.5155476839329 -18.6496235901768 0
162.256607014502 -28.6860487766037 0.469777075050831 0
149.846733503436 -19.7839814889513 0.907610490069761 0
-29.8916961519021 -3.9508818277495 -3.0919966572357 0
155.202956946209 1.83546376912236 7.95595306079831 0
-119.99385572314 10.990307673287 12.6121561393849 0
169.658811048276 -18.1423443450303 12.3321022700565 0
8.05901623230616 -6.39688329126913 -7.32572043046186 0
178.536598991781 -26.8499576733393 -16.309605135933 0
30.227756905377 12.9157326961104 -16.2737644853579 0
169.866798307888 -7.93569313190395 10.988339741832 0
151.760391463482 -5.59336847757837 -20.6685504188536 0
41.8612417210099 -6.28315165496853 -15.0914128213318 0
187.314072291664 -14.757258273056 21.1617538343333 0
188.293804694053 11.974098366524 -21.9604838665674 0
204.73590210616 -14.3775416419043 13.2255670693199 0
193.370819154801 25.4832732223096 32.5829065477332 0
87.2610173404432 -11.4341960040278 -12.3018748662941 0
195.22624338863 -28.6582544413575 -10.4803171871992 0
-36.1535759042647 -1.67849171135699 -15.2692281761366 0
-57.4441157303222 5.48042839303802 6.54085305474695 0
-47.1697394184931 19.2013637339883 -3.99011742399749 0
-39.8693172933871 4.50359957127229 5.18864475111734 0
-8.40890694009073 -0.423100718995783 -18.2584724570555 0
34.3109217271239 -2.17875581385554 -18.2108716762831 0
113.988664009014 2.48742508354151 -20.6402259525648 0
159.309053486401 -1.38364077416677 -21.1103331945089 0
-43.0050007794832 12.4067646844927 5.83997455940737 0
153.907535226974 -9.72332662275289 -19.6213848918135 0
-5.14570865183276 -1.58779596213762 -17.5086202405215 0
175.738699694631 8.4125658996625 24.3752264013962 0
186.811986232477 -35.5386141590468 -5.50470528883323 0
-34.386618839641 -2.5206669934067 -14.1081273845227 0
33.758529308404 12.1291652791124 1.57811172488603 0
-65.8040459226163 10.8494042885017 8.45076038227388 0
44.1048683248626 0.961926748524285 4.45752958637899 0
197.27067506641 -32.219716245404 -4.10309296209672 0
179.503355251615 -16.1498897255104 26.459386535367 0
139.550018739624 2.34751971080147 -20.9739702502126 0
-102.831006984618 6.32678561405011 10.4881321868524 0
207.434475454917 -17.2183241595269 10.9505379085038 0
-88.691096343331 10.9975008134495 9.99338410808148 0
184.122814488491 -39.2005457085719 15.8102463142994 0
-63.3365932326883 10.1545559471809 -17.5189718362327 0
-37.4766542917254 15.7363336197406 1.6109236883446 0
174.46506727368 -37.9202633870576 -0.732632070780619 0
174.277106268517 -19.1707939762648 -22.2895178691415 0
175.959436726751 -40.1419794606654 6.56621664901256 0
164.764143215144 -12.4966233554728 10.6748249908542 0
183.351419795772 33.024805797907 2.93625832260714 0
198.973796031205 -17.5253125147109 25.7591076170541 0
128.87719491575 17.7203461153256 -6.86562504956161 0
130.524910648503 -1.97279329717428 5.07351055502047 0
197.993252826382 31.9492363654126 20.3172921113153 0
176.317754664895 10.8141999616013 26.9194823506277 0
50.0029292602308 12.3969658270743 -16.1198890750213 0
188.487868344878 21.6477560864214 33.6664825034496 0
194.565965983155 8.09875761479145 19.7734907994641 0
158.08919360044 -25.5392936654107 -4.5829485696439 0
-36.8031061378194 3.31333853282918 -18.8768031770064 0
105.600234319101 3.67906484098092 5.48566177379468 0
188.169226674464 -14.1982616788575 -23.3798943742577 0
50.3433786931868 0.873373102943391 4.45420223442499 0
-32.7792971717796 0.0997835966888937 -17.5891802229265 0
174.240167854064 4.12921853401815 16.6450514926892 0
189.077740094092 -12.4879540939399 15.5265049787499 0
182.977008923841 21.9887665032775 33.709753632331 0
-5.89162916984805 16.0685469998996 -14.5019839124727 0
125.708135558146 16.8848181517599 2.85208300598358 0
4.09067890389399 16.9072756159276 -12.3570972169136 0
-56.8233061204989 0.593351125267181 3.13008278812103 0
-69.4243832915897 2.64280623027384 -16.4455011438781 0
66.5129433885953 -3.5615694157019 0.186671246861473 0
75.8729703340632 -9.98974127573195 -5.94072925716159 0
100.537417601233 3.62937371266791 -20.4357191107525 0
53.0419653543263 15.7300824659987 -4.73934330026288 0
89.9848660775427 -12.3844468721322 -10.1832963113037 0
200.015922967317 -4.7536142253218 1.87206198315855 0
133.299183602409 -14.3114664723293 -15.1005472578758 0
198.66529682656 -35.6311805645551 7.58890877783792 0
-0.327256568651034 -1.87961009819488 -17.4447382300622 0
187.649995545909 0.284707619105303 7.63302344178263 0
136.95527796312 18.2458927179896 1.2445688869319 0
168.124494750697 26.0210231021955 -6.67520927641266 0
177.65823248435 -39.8968217473683 0.450752481873651 0
-118.133259068867 17.8745685236283 -7.3721997073577 0
28.2784483740209 14.5185546153603 -14.6326922270539 0
201.811909739891 11.8669698432558 2.30341539162098 0
2.15725793789602 2.83749389489638 4.66942400315045 0
174.122989459877 -29.0809176091477 16.2857664181143 0
171.055949215888 -19.9930148885962 13.4635778436516 0
199.305001849373 -22.3431519413463 27.7798089866147 0
84.9111163160638 10.348068490855 4.59280554844803 0
194.641137815843 7.63495180786023 17.7208821617574 0
-33.4152976291725 8.66963539178053 -19.42307813613 0
164.740301754078 25.6968763661024 9.8808171194081 0
-99.2367214736342 14.8654874838532 -11.3305286873136 0
114.096899668266 12.7909785121577 -16.6980627575378 0
161.593682687681 7.72392744870462 11.1655516626973 0
43.9961093952706 3.03350461175666 5.93764557391973 0
107.791610528483 -5.128762409268 -18.7786961390957 0
-70.9774292306041 4.6696149747509 6.88311239276327 0
182.85693005857 7.53308490928052 23.9474855969528 0
197.411008872001 -27.8341267950071 -9.77552766967827 0
-116.891239258253 -3.40129576281849 8.35506161840996 0
19.4036559022004 -5.98008321139912 -5.99723430228797 0
199.352096817706 27.7421237285289 -1.72137765199348 0
137.307282744239 18.0910881644273 -7.95057883584139 0
45.7561551961127 -3.92556387961777 -17.5241689651623 0
148.069129380631 12.0238784242054 -19.9045125134715 0
26.3936926179887 -4.37688852229194 -3.15724359242723 0
-47.2662725960558 18.9366282368284 -9.87231953707103 0
150.858743769159 15.7258090397433 -17.5856510185149 0
50.6792573639237 7.43856168331859 -19.1947239568738 0
92.173449752338 16.2349534553412 -7.36682582962057 0
180.319084922776 -38.1316485223562 20.4039132881139 0
86.6846546083188 11.0672007296951 -17.3062273659522 0
119.932786831712 -1.25582628896302 -20.3502781630782 0
179.096998349264 -40.815805031691 11.2800471884167 0
84.5984365257001 15.2545835304329 -0.164065799095529 0
68.8302550143931 14.6981208588229 -0.393782911765461 0
167.303296501354 25.6792715966325 17.1236532494146 0
17.7980513120756 16.6743308990843 -6.41891861214211 0
171.772118668845 6.98744389210547 16.0946039995812 0
-12.6038179182608 -1.38839161136543 -17.4688632272734 0
195.797259881085 -17.3133035490532 -19.8694200115584 0
187.048768236602 34.1379695501238 13.5533242896106 0
-17.2298057936532 8.75514644540211 6.29371856871512 0
191.013350582577 -26.9876271458939 31.738410850484 0
52.2370253504181 8.81402383371658 4.13550265043294 0
154.67248429201 -22.1294983016678 -9.87055639172397 0
145.757868010236 15.6343868364733 9.73042698953925 0
-43.0780202763139 -5.65139306946356 -6.5281312155751 0
150.964447779862 -13.6739135152442 5.69494115740616 0
168.016346620661 28.7628010693613 10.4722995819244 0
-91.705685237477 17.5168888764887 -9.38688947728472 0
155.048175125898 8.90027021256986 -21.4349220439713 0
-65.8624462749848 13.5230106453815 8.34146356220518 0
