"x" "y" "z" "f" "a"
143.112692497835 -1.03130995203632 -23.8699935749033 0 0
123.529594895696 18.0828796293864 -2.40903673937374 0 0
-130.201260237188 -3.55260738673281 -6.90298177201648 0 0
153.902311136477 -3.08113777382876 5.39323753868853 0 0
231.285363108237 -34.6300310478513 39.5207649087875 0 0
-121.994769725442 25.5546919229091 -0.99979871937086 0 0
-214.661026767532 30.6466353893611 21.8734153276882 0 0
-198.840678156697 -12.1222659306581 -14.484580185026 0 0
-2.38264292108108 5.03629419598819 5.7312646938178 0 0
47.9806107814352 18.6586260726673 -16.5285665472402 0 0
-239.209478527885 -23.1271957236706 -3.51566845741379 0 0
-42.7471033715855 -5.08345427919115 -4.44962093768216 0 0
-72.3156883019941 -5.29248085901677 -4.90549086914116 0 0
243.80962668895 -35.0249567111379 0.356177266386795 0 0
-182.180417875937 24.3043064642905 -9.14655464136155 0 0
-157.194099721239 -7.58981515486594 3.09022932029619 0 0
58.5111446762103 18.7593205859146 -8.78143395677767 0 0
-78.889073991551 19.465066470289 8.08593449882351 0 0
139.610105497768 -13.4738263837869 -1.31230973685734 0 0
-14.3417605963303 -3.56623034069214 -2.88049725257011 0 0
-190.894954159915 11.9986816365897 -13.8341618119223 0 0
-220.174727732322 -13.9774760602585 -18.2322561184412 0 0
237.335413269298 35.3800439207596 7.15523334196279 0 0
199.515562934654 -0.571893764695352 -22.7223934240817 0 0
-170.298080853951 -1.67334879862407 -11.4636093790369 0 0
233.938346731704 25.4889247491571 32.8114407900345 0 0
-158.487680990396 -7.23965264165793 29.2359660924288 0 0
-195.057610108962 -40.6298142214999 -0.922415252945381 0 0
236.391639194512 26.0521948456983 -16.8608786726819 0 0
178.829514051234 21.6488086004883 6.87218779936694 0 0
154.194410098072 9.36722926479756 7.72791824223204 0 0
226.285493136171 -45.5655704802273 9.69971470342967 0 0
-214.869105124188 8.89648142774121 7.23728512595819 0 0
202.62887420465 12.721582785983 18.6932955760131 0 0
-118.861111116325 0.310846111633728 7.69954803860073 0 0
-159.791296639662 10.1030489979373 -10.7164068320379 0 0
-240.398655241645 -32.8380233217894 -13.1562760619393 0 0
200.17237847538 -35.4832756354107 6.41627097177151 0 0
-182.672783670592 27.4738387758274 -7.39687931568919 0 0
75.8269593393089 10.9488629669337 -23.7266906537143 0 0
239.202770879823 28.8779907168667 26.5391320663237 0 0
205.333074186077 -33.6450583576329 -8.55017074240874 0 0
210.306993819801 -12.781927164437 19.4079700454947 0 0
234.40433452104 33.9361920233434 31.4941484334054 0 0
223.954938470512 -16.3622846934234 -23.3700149840117 0 0
-233.609425758815 -53.4379532099285 -0.323685010418025 0 0
221.581067889055 -47.1635061107618 6.36305975439301 0 0
-237.248610602749 -29.5655757518942 9.49606060049125 0 0
-236.996723543411 -22.1179740060185 4.31551106988961 0 0
-25.3957360616163 -2.64015668879873 -16.093919537827 0 0
-79.7698161203291 9.14565985249625 10.3042001386407 0 0
-108.977321666827 24.7093723118062 -6.83907098156566 0 0
223.168414450889 -15.6190367611038 32.9379636997535 0 0
-186.984630872357 -18.603277551849 7.95818820641367 0 0
165.272418649164 20.1239034629272 -8.32891936351729 0 0
-182.183044607464 17.1008005405688 -11.2374756611446 0 0
-197.734968796203 -31.1962169034034 -15.3287800733756 0 0
-136.005246833292 25.8138823582788 8.21627607536427 0 0
-160.558161306951 1.24323778145248 -10.1722064188004 0 0
-157.288978341001 27.5236979408729 9.0746703290437 0 0
235.109968597791 -42.8750195865993 19.975969373415 0 0
206.875655214374 21.2650101205059 31.1363100803716 0 0
-84.9816943108529 9.94203694167501 10.9101833377224 0 0
-192.663706242499 28.2274204301763 25.3910742069766 0 0
-174.031045624386 -15.4410018198133 26.8225088366188 0 0
154.755051107712 -17.8322470241406 -5.56434124911916 0 0
220.496076337768 33.0734425604994 35.753104302092 0 0
-81.5342603103727 -4.58649350383234 -8.25549916150929 0 0
1.15122440832073 3.64615044390075 -22.9312842770161 0 0
205.493874809459 -4.14599387065955 14.807358935298 0 0
187.434611140407 -24.0998083898339 5.17535978733649 0 0
240.795318301531 -27.6253716279709 35.5822643320952 0 0
-162.750116572147 7.93501816121275 -10.6468042099727 0 0
-217.059564319376 2.32524817108361 1.3159629037929 0 0
82.9989469306982 10.2170910599647 3.09506019366098 0 0
-193.755853627066 -7.82677750609882 14.4065865289399 0 0
138.920021040798 -16.13003912157 -8.03171090792809 0 0
-212.172800925973 -4.71218665093662 10.3883702966058 0 0
-239.210679918528 -24.0176268829431 -9.01789393537497 0 0
-35.2255105565687 12.009372337275 5.88230375267872 0 0
-197.080043968765 32.6672588767353 20.8798822300202 0 0
87.613141925408 7.20145248425907 4.82321143247119 0 0
-170.093553970963 18.4950901692624 23.7244811372041 0 0
39.9840192630038 -3.8617783252397 -1.34398824318664 0 0
-217.436756548767 -57.1203706888812 -12.6622342641208 0 0
-240.20075897904 -43.4877611357641 -10.3387511426247 0 0
-206.785112900419 38.537625842378 10.1119516720668 0 0
-134.505580919852 4.0518502137211 15.2846371888845 0 0
-72.2334143042189 22.3281839135753 -12.9619658403514 0 0
-220.738774493279 12.4390290539744 28.743391642469 0 0
-214.325748184629 -3.1778966267934 8.73295614307765 0 0
199.736380961047 31.1694705676834 14.1592689114158 0 0
239.674342852911 -41.2040801718204 22.0427335601571 0 0
234.378740947709 -16.9204556179849 -23.4299469405829 0 0
-8.20704929573173 2.46670390758039 -21.8654650419062 0 0
237.220506678614 -3.20997857550146 -11.8653046582092 0 0
-174.688827461073 17.0661961837904 -10.4604783586814 0 0
194.936384820412 -28.2592391131524 -7.92462187960252 0 0
-106.752802966893 22.0118655399164 10.3164495717749 0 0
89.223989643221 15.9032312806824 -1.10264440088978 0 0
-45.3158740660135 3.54230018701374 -19.371395303164 0 0
202.88282060457 -12.9039623685455 -22.3669241486568 0 0
202.012762199455 9.37096619882229 15.8570171742823 0 0
1.97554042585788 15.4924797160272 -0.0210346883584571 0 0
206.270124039989 -43.1839477510043 7.90752358394182 0 0
39.8098937089575 -6.23097684114923 -17.944869124338 0 0
147.779862377479 0.174876955753286 -24.0721422312805 0 0
227.502826166448 30.8005434285498 -9.49947721138721 0 0
222.306399670299 37.7508874990565 4.19231399889806 0 0
-54.1816725131397 23.5231008957649 -9.43623609758087 0 0
220.314834132576 35.0165092367575 33.992002038308 0 0
-239.584440198568 -37.2914888347079 6.18946751485692 0 0
121.034224585814 -14.1899976837948 -12.9922204894809 0 0
-215.053075307837 12.7540038309846 15.2527056555021 0 0
221.431377158612 -46.8621543686625 11.3251524711472 0 0
67.1838705101254 -9.21201854059347 -14.3035664275302 0 0
-196.658119254922 -46.4360023776931 1.14512833663652 0 0
117.999023647079 17.4958572230101 -1.15679355994228 0 0
-29.7396586887941 20.2708248292133 -18.1637858931268 0 0
-174.730095111769 29.8084069052144 -1.13108283534022 0 0
144.381576103206 13.0872679273697 7.07466512800479 0 0
129.659203557525 18.2141430433023 -11.8711521990651 0 0
-34.8426104485569 9.48804247303772 -21.8828700718032 0 0
-185.231934600146 34.8946033545324 0.160699089122424 0 0
-233.688293673051 -30.9378567041585 13.7865282414047 0 0
238.256396233332 1.87748084782693 -1.06319453762683 0 0
236.237164048592 30.0717503054219 -6.32126778580371 0 0
-207.582107475278 -11.0029870400776 -16.407482732626 0 0
124.964977317979 18.1944012270223 -11.5537349054844 0 0
181.624205146605 19.8882356480265 10.6777521986057 0 0
-70.2560263988616 6.66501725085875 8.19406943398127 0 0
-220.177621271722 10.739063206998 19.0128724003983 0 0
207.934576012179 35.5669084116572 4.18774564320306 0 0
215.26875329989 -15.998749804159 23.3274240819511 0 0
-233.11760655169 -32.0726062144669 -22.9073244350111 0 0
-59.7976094570878 18.9622952749865 5.22476693720673 0 0
228.784672097183 2.12622248236352 11.6218477277148 0 0
-176.134002832668 26.0918796428972 -6.96308224374471 0 0
-209.727522655621 -7.43271083686404 -15.7975010851346 0 0
-78.4796996773631 21.5387376862799 -13.897487460503 0 0
-200.734111169601 -17.1858832558272 -15.293763430374 0 0
-183.771203033958 11.4396141700132 29.0377159342364 0 0
229.264882839597 -34.0406038483246 -9.80692602675084 0 0
202.216462674527 -12.0531760679252 13.5821546560274 0 0
-33.6331127557469 -5.68650875765248 -6.24048954542355 0 0
-21.9564443863238 21.1656784766957 -5.98923243574158 0 0
43.2915625575452 11.0168652704761 -23.7347193037205 0 0
201.278673257727 -4.9544583544299 12.5437992987828 0 0
-160.3574418946 4.7505447469275 25.9687248782764 0 0
204.098416698484 -22.7286495730949 -19.0764864804039 0 0
-5.51920315221472 17.3020445248042 -1.20128986165449 0 0
112.45324834196 -6.71292680060464 -22.5124098041362 0 0
149.207793715547 9.65079528967771 7.43177199792671 0 0
232.609232404009 30.111292019841 33.8831820699046 0 0
-217.267417951385 -1.60522628084354 -10.3654438959884 0 0
-140.486244477416 -4.49468730742788 5.60495470194834 0 0
-229.494641608067 -13.0202317758596 -2.01886516902294 0 0
116.925087086136 -7.85640728369412 0.168917392195037 0 0
242.611336799914 29.0855905161425 14.3360633187031 0 0
21.1565663734958 -5.3081390902499 -16.5951895288134 0 0
206.779033468357 36.4274422046383 15.3267887149153 0 0
-176.012781200455 -14.1138867652101 26.0824700402069 0 0
-64.0528819385652 15.5443406526011 -18.9393815628386 0 0
-208.537268160367 -12.4748830087012 -16.9315503231265 0 0
-167.422647567973 -17.4253035269965 19.9223236810969 0 0
-154.887724701736 23.8993514394146 16.4433250059674 0 0
27.6382443579519 7.9822785595937 3.74126923813921 0 0
219.485001863409 -2.59762491666728 -22.6847186118149 0 0
-223.050696426278 -56.4352241502122 0.56496093790565 0 0
221.766242976473 2.63480460803839 -23.7513478397592 0 0
-21.781922461537 11.1788581593622 -22.4378365272249 0 0
135.199452688914 -5.98008199015848 -22.6998775564638 0 0
138.37489395006 -9.23489329157506 1.68905740735772 0 0
-63.7263960626346 -0.243208425583959 -14.312653758323 0 0
-191.586099501914 22.9840936598773 -11.0553385085457 0 0
173.188132701923 21.2451925747751 -4.49175034744706 0 0
91.24586252772 16.8215065948653 -2.41989767811836 0 0
4.04304552464093 14.6990597128129 0.442821370469241 0 0
191.297894866116 13.7808743942234 13.8580020757487 0 0
184.035223140191 -18.4382931086718 8.05212806082793 0 0
31.4764383397547 -0.181110323393584 3.23628202910098 0 0
196.356061043968 4.12827818954104 -24.5888577731876 0 0
6.11648228927331 -4.49468717426385 -16.503912486353 0 0
161.783717771531 -17.1837860035829 -14.2969623059635 0 0
186.579027745338 -5.04065825553948 8.20652009192679 0 0
-0.97299987705032 -4.47029781970364 -15.8401414092774 0 0
-2.30957793644139 16.9103381324718 -1.10593705807748 0 0
62.9484038437574 -7.1683143138407 -19.1068770959562 0 0
-216.433835821249 35.2142258107331 7.39138380865088 0 0
-66.1346117243938 -4.54344872854815 -2.80282479440937 0 0
-145.266301419419 24.7070196821536 12.5068990313486 0 0
240.654017025463 15.3218753285821 11.6558754762965 0 0
18.3539883669502 20.7495284710974 -9.93899075062222 0 0
-227.032312272617 19.8123063801751 -3.5132372161232 0 0
189.725014986214 -14.7688008715592 -18.9998622777044 0 0
236.220816088998 -42.9059802460013 16.1189072056479 0 0
-24.9798649479121 1.74260647301772 3.00664705406816 0 0
-215.162331260943 36.1472344836979 9.96103982639209 0 0
205.338344054385 0.254292653988418 15.2931690515513 0 0
-223.28164091735 29.3030140703082 11.5100029379333 0 0
210.04000640671 -44.5668195895944 20.011216453624 0 0
-116.465039814152 24.8536412138465 6.43225844311252 0 0
-196.153669988567 6.57688209997797 25.6188650824955 0 0
209.013936214392 -25.0198096722264 28.2464353012119 0 0
207.21906219147 -4.68877551947811 16.054043417764 0 0
235.780321769794 -15.4793240914598 34.1658555375026 0 0
165.951728533579 9.18894302078948 8.55084713491262 0 0
-210.777941425986 -4.37305878957494 -15.7716083519952 0 0
-216.942212951152 -47.3487495518374 -25.0446399801059 0 0
234.005035352964 22.6247899606118 -21.5642353068367 0 0
103.511442834664 13.4880894050361 -21.9567284895905 0 0
220.548644418465 39.0269809581687 7.10778528156394 0 0
55.6133403365915 -7.83469342537915 -8.0821445838312 0 0
-202.877903338974 -31.3729109378906 -21.7821310174298 0 0
112.445790781531 -12.3151865950387 -16.8559781865628 0 0
-211.049894796746 3.08073725895231 10.1070520214085 0 0
228.507353688641 0.148423723884921 -19.6402004534538 0 0
18.1367850196556 21.2304897465415 -13.0859970749048 0 0
-160.847187003642 18.1059988061685 -9.90888773587296 0 0
215.173858646226 -6.92369597803746 18.5862230122041 0 0
-51.9551001293904 -4.34865471389793 -2.43283728652858 0 0
223.691329700466 36.1363367095523 15.1742334156209 0 0
-162.24147479021 -8.95957915341795 1.2262249725013 0 0
216.677814816855 -11.7298309331004 -23.1532574257215 0 0
237.673708952986 -38.1514702150628 2.23067713826064 0 0
-218.213951096286 -36.0824000214606 -28.5860645961036 0 0
-188.250085678763 32.8036934097818 -5.41126811060238 0 0
-49.6432298375713 3.1148643905048 4.63087422962908 0 0
-50.4443669747098 21.6090353287975 -15.3857767736683 0 0
-200.179853079841 -10.0156835826563 13.0779989559298 0 0
216.964246026813 37.9312056209336 19.2010187225382 0 0
-207.61327255302 -45.8907704022961 -23.3230413089986 0 0
-147.195619820407 21.9511176233608 -8.61895782244883 0 0
53.5294507238966 -6.03430992026298 -4.08811159038445 0 0
-75.427612906633 5.79050907940414 -17.6083156883032 0 0
-48.9371702974439 11.0719443468797 7.89156628422514 0 0
214.499286629198 -34.6100462810224 -12.0141366675625 0 0
-8.43051458395568 14.2585542557581 1.71444132071872 0 0
154.879877260977 19.5171996602743 -2.70428115480615 0 0
-227.220655636622 13.1905217111742 13.7450260738148 0 0
-141.10490933714 16.9931295352224 -10.7859966753868 0 0
-130.151313111681 3.30652507806079 13.217565889918 0 0
209.303764865801 -28.3330571374489 -17.0153228364666 0 0
207.49249382608 -0.562397416651832 17.0532023488095 0 0
205.82728347076 28.277116207721 -13.3327994811855 0 0
17.3047266273106 14.1770666940767 -22.7065473826599 0 0
-143.420233189158 20.972881416974 -9.34244060776704 0 0
-153.251912916148 -6.25139094719572 9.62501106246663 0 0
183.250956402246 7.13538874316547 9.82469656815518 0 0
233.926023553772 -13.1129344924478 29.4287274415101 0 0
234.788644519359 29.2795913468483 -11.5215425965405 0 0
207.374656009134 -18.45759236492 19.1998123288931 0 0
215.469735026826 35.1166914148055 -2.31945345230318 0 0
-145.743417222295 13.4479279302973 19.6619923375297 0 0
-210.463259361791 1.41521905981414 -14.8582869554675 0 0
-90.134567119918 -1.68789326572347 1.58142489359213 0 0
-191.77080514756 -20.3081070643189 8.12214074919063 0 0
-91.3705678997732 9.00523816545896 -16.7602964402721 0 0
220.898001930827 30.8521527035736 36.6799586238719 0 0
217.620017233845 9.40107888444588 -28.1452042709511 0 0
-241.015949347618 -37.7899961561209 2.43270627094475 0 0
-45.1123198141271 20.8250661455024 -16.7878470699708 0 0
-173.630457290152 2.2383018617307 -11.4087038263418 0 0
47.1133640886645 7.06709747222413 -24.5218189753588 0 0
221.150391924518 -40.8320245964639 -4.43710552224574 0 0
47.5317892581638 -8.08658029148595 -11.1398183793767 0 0
-8.71935975971861 4.73032663806142 -22.7698938107384 0 0
-44.2925046089927 -5.92820912833774 -9.39055206853892 0 0
18.212700141416 -2.74022496449158 -0.661635648662243 0 0
225.55088599032 20.4268536159345 36.0488850774633 0 0
192.129101994855 -10.270526860847 -20.8759567313863 0 0
213.13806401827 -42.1248999777331 -1.82558078784309 0 0
227.798074781306 33.4433329002387 -1.78321734250213 0 0
164.321843407004 20.2902899221185 -1.68438396621199 0 0
-204.001109235383 31.2466073407553 22.1446600068556 0 0
216.559483106759 -0.754791142420482 -22.947342574598 0 0
222.726524494845 -28.1315152225536 -18.0124047564615 0 0
-224.010478498465 -56.4720658275839 4.97238883106275 0 0
-208.250452376428 -26.2183310824979 -24.7596197249801 0 0
-217.032213808325 -56.6457012616872 -6.86514752100186 0 0
216.223988532177 39.9583984347575 10.8111885449995 0 0
198.941895996071 -33.4712265759075 7.18603103113497 0 0
142.694921373085 8.37156966807906 -24.4466363544108 0 0
-224.2190354631 -25.2586196704872 17.7808423989429 0 0
237.42396995073 -10.2129867021164 -17.9650601735228 0 0
-41.0481049886171 22.9764733116259 -10.3684844128828 0 0
-95.0813044819261 23.5808933651914 5.78804239847459 0 0
-169.484484923418 -7.44135658866762 -7.84977548293133 0 0
-182.187407672458 -16.4849339030024 9.79017058508673 0 0
239.707383868128 23.2318144306571 -11.7996813078975 0 0
66.7506248018688 18.4544185563976 -9.1809794326795 0 0
74.4866159376742 6.20341026370307 -24.7543975682383 0 0
216.129012629299 -4.3527128321002 -21.8445972080676 0 0
-33.7585898287262 13.2302632939121 -21.6980987091594 0 0
-102.838371110376 18.8436248600612 11.1333827555291 0 0
112.8203933138 -11.0299288609051 -3.5280153927036 0 0
196.642761789358 -7.35612173220659 10.8009205694911 0 0
162.204916348651 -12.4361324018206 3.36701970883764 0 0
243.767553361148 -40.3575730133941 24.9695242030573 0 0
181.298768804369 -21.0437952176585 -12.2512409126705 0 0
-232.525280293246 -17.5610698403445 -13.6972124854661 0 0
108.465778710724 17.9745617772193 -12.5595666704128 0 0
173.551472119478 -3.55893426941294 -22.194873986132 0 0
201.026953783085 -24.3795376049978 -16.3223108296553 0 0
-197.19119276181 -3.02719007554333 -14.068543259658 0 0
-93.9202131431403 2.89946921250692 6.94359108209529 0 0
185.452546479999 23.028479882102 9.15825335417776 0 0
-199.027931080679 4.65522498381479 18.4456461480499 0 0
84.0859928875551 -8.72445874514323 -19.3263631298825 0 0
-181.508123040789 -4.22737257988305 -10.8141551042226 0 0
90.9184916119149 -11.1134085994962 -14.520790582467 0 0
-217.320931457864 -27.3524371484161 -27.4128857139352 0 0
-223.517740953949 -10.2869793616126 -8.4083187002563 0 0
-189.130596959395 24.0982880600234 -10.3784365223008 0 0
-215.628654511864 -26.8343671821673 18.9254998226466 0 0
-201.317675332712 -0.0660998911245798 14.8442911075274 0 0
-238.529893226483 -28.1237642332716 -14.8659165382655 0 0
-206.971221466596 29.689964574586 -9.85391072579395 0 0
-191.373946411949 39.4720940724284 10.6561318978424 0 0
-201.359636536251 6.76405225412828 -17.1974664702125 0 0
166.237626669783 18.7708406914398 6.36311052396581 0 0
-194.799005975256 -2.29668428826093 16.8122868737961 0 0
185.17594860903 -4.21243472439147 -21.6755422681997 0 0
238.329786102428 15.8505604389689 21.2426240778718 0 0
162.070023540651 -14.5912276172422 2.36736368045347 0 0
-88.5629623038495 5.05522010054481 8.43839822781692 0 0
-215.706214910866 -12.0031006597512 10.4163487009912 0 0
-224.21986290274 -34.3555755650511 19.1207855439228 0 0
-199.02364280518 24.4256983652894 -12.5845418606706 0 0
45.2609465930357 -4.46463758494651 -2.04033437947848 0 0
-87.235985036088 17.5066174025358 -15.8549336856663 0 0
-146.22415392336 5.99890535614553 -11.5002239954874 0 0
236.012547202457 -34.4882324534744 37.9663249148397 0 0
-217.436277008368 3.39184513364062 -3.89490357641553 0 0
220.593514006235 23.4373218835568 -29.9548509131565 0 0
-208.185790767917 14.102240018857 18.3275897717611 0 0
175.647439088165 15.05116521825 -21.5975274256201 0 0
-225.53456286461 -19.3781656650478 13.459845668096 0 0
-196.836934440659 -15.2833228543263 -13.498639208686 0 0
-227.497526691895 -21.1851246621071 14.1609460037796 0 0
-18.2819942645466 16.3588113762755 1.10486282291481 0 0
212.446011371756 29.7551116327077 -14.7986855192124 0 0
-200.268445759982 19.9412181359329 -13.9728210793099 0 0
210.022351645773 2.35772539552701 -24.4194703244856 0 0
-112.379065795259 7.12159521207224 12.4982406360345 0 0
142.985391462546 5.01367335914569 -24.8316550330391 0 0
163.062191291222 0.272650040620365 6.81803831807055 0 0
-143.728922509664 -2.79333678563751 11.0325318344927 0 0
218.524949779539 32.9229037341608 -7.38256504768802 0 0
-7.98446579435432 3.25839824127601 4.80828204042167 0 0
221.588380781167 -46.9177443310391 9.0687340731374 0 0
216.793663833186 -18.2572569014161 34.5942462969766 0 0
42.4390488793166 -7.81113815133464 -13.3331559941915 0 0
-205.561438614543 -29.2236824944025 11.7310317736465 0 0
59.3867168049785 14.3409966387814 -0.662486690438427 0 0
-122.483816333044 5.69329534583611 13.2988971787019 0 0
183.15451216426 -15.2149124395633 7.83498005056234 0 0
-218.266486093495 -2.30427555314513 -1.75640699283927 0 0
-142.358188579075 -4.21933916371912 7.0537347743882 0 0
-39.9735377259534 4.76757611000203 5.77877676744907 0 0
237.431581576365 0.503018242417957 -8.27030006727166 0 0
-117.733430527301 14.4665593673029 14.9007916074296 0 0
-238.236150308908 -39.4308109633647 -17.1393592964817 0 0
206.060857986121 24.6147715969414 -22.9713554775624 0 0
-123.799948915005 23.9277625708346 -7.6234124106403 0 0
-149.334180445387 21.7174479042046 -8.69322992274208 0 0
8.86061743465471 -5.93129527885273 -14.0465586998186 0 0
-46.4346467339731 23.0970991181596 -11.3502474942265 0 0
-225.403727884404 17.4826214705434 -6.47927763662745 0 0
-124.685387610693 22.7098462394032 -9.16360991359606 0 0
98.8933442268595 -8.15347562750381 -2.12285574966187 0 0
226.65240042003 14.0343655653572 32.3259009428976 0 0
221.062208688219 -17.0430418046356 25.9676589175937 0 0
-14.9983365012555 -2.27374243641471 -17.4137061790476 0 0
157.295119033649 9.35921168235715 7.92602208963005 0 0
227.010460542503 16.9610910087641 -27.1071604497311 0 0
-182.705740488775 33.4820082329585 0.229728822649272 0 0
58.3744294079917 -1.02390242772307 -23.5542963138976 0 0
-167.23125374861 29.4213039034398 7.50392358231919 0 0
-16.7672937747673 -0.258683828934392 1.07854198918643 0 0
237.125589173707 -38.4707357435842 35.9126970764792 0 0
212.541986404859 -32.0867227331645 33.7207391856324 0 0
48.5979973830271 -5.47282818475984 -3.49863341968044 0 0
251.964664592095 -27.4459116575584 9.15892457090284 0 0
-120.813812192787 19.9330743708609 13.4287475898128 0 0
97.5388614992678 18.0611470280373 -13.0269745928814 0 0
24.2668665987954 -5.81841691633623 -5.99932851563343 0 0
170.582655670596 -2.06912347429489 -22.7251302818648 0 0
238.05021459679 37.6501628946316 20.7267446965577 0 0
-12.8168357027272 -5.52950660897872 -6.67333646406812 0 0
-168.011198336585 -9.38426978872004 -4.94912219928875 0 0
-168.039457409315 -17.7246372578194 24.774300495324 0 0
-155.615935716334 26.8885491877435 -0.210731999096314 0 0
-240.207849891036 -44.0703177449189 -0.658880552497096 0 0
-202.513782755668 -34.1596658779183 6.42426679927275 0 0
-118.861342659042 25.2204657288731 -4.15260255148031 0 0
-217.390786376851 -27.7518078305972 19.5367269950043 0 0
116.571224508588 10.6253314074986 5.45522393231101 0 0
235.517871181021 -40.837564485918 3.23384508678944 0 0
104.483148738888 -2.81986044529577 -23.9447131154485 0 0
113.368895290966 14.3678600292362 -21.0233785303223 0 0
-101.926148263755 25.1845533067969 0.752283902374051 0 0
197.547223144458 -31.1774168427589 7.85252072062717 0 0
-23.4426829514267 21.9472764097512 -8.39388113956399 0 0
-214.964721872077 23.6678486097894 -13.2160895302577 0 0
-175.027665557332 31.6994658102702 7.06410607323358 0 0
225.311911625431 -15.9204602776558 31.8462032822514 0 0
230.048873629015 -7.72726894541181 -20.0333819481662 0 0
175.794106265219 -9.52609443531311 6.5339473121856 0 0
-225.870633571424 25.5704859660832 -3.09788330551703 0 0
-221.073375175069 -56.9089132903821 5.31691469399069 0 0
-221.276882099442 30.5565321467784 7.82227967295874 0 0
-216.763036580892 -40.4917027993054 -28.0100095668404 0 0
-238.519347615871 -22.0700379910262 -7.43164969781308 0 0
-64.0039917835179 22.2304985511908 1.22856611982753 0 0
237.697594543108 -1.49544397762133 2.59611272799658 0 0
-51.3166120330761 20.7376468511335 0.780838391580165 0 0
-136.238544635844 -3.92510338239721 5.31889646204316 0 0
206.042566654865 37.7348288794578 11.1751359509474 0 0
-240.138536785396 -25.9064653604887 -8.18844147618266 0 0
-194.876640051776 32.6610637361787 -7.83946870706882 0 0
184.489813657516 -20.3600688570252 7.36854399892148 0 0
-169.293547984914 4.83871117816521 28.173738058127 0 0
157.306058845897 19.826009804158 -5.03485446187162 0 0
177.925955736163 -22.2965117558557 -8.132535813066 0 0
197.453672211235 -29.2921229604082 -8.58236491446669 0 0
-185.146595178448 13.3219118538529 29.2463626496413 0 0
239.025643071796 8.38106543978405 -4.19456668560906 0 0
202.481527009171 10.8686324682629 17.2647953953052 0 0
214.529319692757 -32.6443858219398 -14.190536639961 0 0
44.0748068394515 -5.76168413716288 -4.41203798231948 0 0
229.553121384937 -14.0027724469773 32.5044339116789 0 0
229.025781244148 -44.166599259828 21.0256331802747 0 0
-197.853184666219 -23.0871581272471 -13.214634548821 0 0
231.269393057121 25.7987249749475 -22.4839605879568 0 0
219.404328946556 -31.0659192502621 -15.7427586547138 0 0
45.3542357126095 -4.96973212703054 -20.18936359209 0 0
-208.3834313104 -27.4816609416314 16.3570488405306 0 0
-137.136340780928 25.7038664731205 -1.43209965709222 0 0
-225.42350720016 -50.1640785981712 12.4653334447044 0 0
-234.493643456064 -45.2993876996718 -18.9300421228562 0 0
-215.696606783284 -19.9064860171901 15.0602004073616 0 0
177.107700174628 -18.5370736949055 -14.5181815351185 0 0
-206.792067109279 5.57107165510186 13.3477501647827 0 0
244.092988287113 -10.5979730406138 9.40239733504333 0 0
164.046213693579 -18.5293783279732 -2.19666422349767 0 0
-222.052617098818 -56.7220045013336 2.73158024393329 0 0
241.345013324457 25.4403833151882 21.1305963154262 0 0
133.745759346244 -13.4356922854559 -2.33393858933639 0 0
-70.5041038813706 9.34359226241031 9.47223197190547 0 0
250.594125729491 -33.2186508079198 20.0016167865415 0 0
-19.1163371343106 -5.40786614706066 -6.21423477996608 0 0
13.8036542015254 10.1800743201459 2.81694409925743 0 0
-202.845948104158 8.5817384536275 -18.2644626458098 0 0
213.280311246332 -29.4025833903006 -17.2913508446447 0 0
169.824882104005 12.3183966855646 -23.1942612586302 0 0
43.8271182111815 -7.90394072513558 -11.2528698840619 0 0
-204.494696140669 -3.57442216514604 13.1464274290755 0 0
15.0118207206814 5.10723981265884 5.34661460822302 0 0
125.020672354222 -4.18609455094887 -23.5396371989798 0 0
194.821208643893 5.446711749928 11.5147121794533 0 0
-227.906319860244 -47.3033496930391 13.500945437432 0 0
198.612570302827 -3.64526177602484 11.3746176408518 0 0
-2.20767396411944 12.8892029510687 -22.9046555888432 0 0
158.291709247715 12.7247196286323 -22.5234323588158 0 0
191.728163631295 -4.17132393694453 9.27070730428128 0 0
-235.039861057694 -18.1104710854176 2.12428272633528 0 0
-199.541509568285 10.6502699016309 27.9259288569016 0 0
244.314661246734 -36.1782576027621 4.54312102039382 0 0
-217.761506832273 -49.4914183971161 -23.4622224985647 0 0
54.8277941741857 6.95114362946524 4.30382777272564 0 0
235.058454060748 -34.5625824480103 -5.9418319971737 0 0
-212.727967168223 38.4582874945991 0.150260292509351 0 0
162.017152876008 -1.24760276437317 -23.3297862672851 0 0
-188.718516694273 -12.2666912349784 -10.3970729910897 0 0
-29.0017128500623 17.402937317534 1.3398248388386 0 0
-77.2603934994753 1.07576494308055 -14.3322174624808 0 0
-210.257668687518 -57.259980651129 1.22311245956936 0 0
235.181990744455 -1.74579737764712 -14.0131786412006 0 0
-186.672360743119 -0.753513618047229 22.3449074554341 0 0
-77.495985500161 13.2949556156405 10.4248813610539 0 0
-17.7975579131153 22.1448523142992 -13.7096622340583 0 0
-65.6519866581751 22.7443570113764 -12.5633680009917 0 0
73.4956140471942 17.731955578739 -5.54130469251418 0 0
-201.13597143162 11.9615191843553 28.4122125365408 0 0
-166.448637692147 -4.22085977883559 -10.1619630852522 0 0
14.6588186699778 3.16003445678596 -23.3984825773118 0 0
-218.481491397007 -6.04977583295459 1.19589048161771 0 0
245.321915718034 -12.1106597912383 11.0825834029588 0 0
-8.86505052507602 22.0621681804374 -11.6813245504173 0 0
237.126803598181 23.4089561240234 -17.1132637862009 0 0
222.327152254242 10.391832965533 30.5199734424835 0 0
-115.332189424521 8.11521716805687 13.3018775737556 0 0
225.242852121518 26.9333679594815 -22.5973784215802 0 0
111.775760681956 0.690224033832959 3.91310378283031 0 0
-200.654978842532 41.8611995151858 4.02070364870207 0 0
204.551285080405 -36.699851879956 18.3031664361432 0 0
-175.664587006239 -1.79423112552969 -11.696913261509 0 0
-217.068469427763 -1.14266692538269 1.80675394697647 0 0
-165.310914945253 11.2307897198191 25.2344754916457 0 0
141.753622294368 15.9709593798596 -18.6758816212665 0 0
0.437310578076371 -1.69265708370232 -0.271648401746314 0 0
-224.402728031 -34.0164716829058 -27.7460926590921 0 0
-216.363555954743 34.6623868496367 4.81707624836348 0 0
239.376618153608 10.3678529889266 8.97478886263695 0 0
215.206354644747 -2.45998580794697 -22.2224148462152 0 0
-166.651993359758 22.5102912562232 -8.2794245966991 0 0
-238.020872350788 -26.1120614886497 6.6275599489116 0 0
-215.048434099017 -43.1684452116676 18.3168395491291 0 0
212.032790841189 31.4034701852327 -9.71511608531914 0 0
-223.57436435445 15.0235440015322 -8.31283033278868 0 0
-34.5129960933924 22.8152462188718 -11.3233259436128 0 0
-1.38097291462053 -5.5921091620363 -13.5485890237909 0 0
197.47683601269 -5.1779895936228 11.074016936984 0 0
239.02049663008 -38.0139115130805 5.01744933680466 0 0
178.114289452236 -7.44983223878606 -21.0853259079801 0 0
242.659212240106 27.0535953413907 15.4142967305471 0 0
192.753552816378 18.9622642928588 -21.3157832660845 0 0
203.463580755767 -36.650995835593 15.3099756316118 0 0
-13.9965699356758 21.7401781650696 -15.0513248067142 0 0
53.2926369161549 -7.15996472552685 -18.0733619400217 0 0
-187.101624068033 -4.27767734660668 18.4137420129776 0 0
-234.142269810685 -19.7855380012336 -14.7334943877959 0 0
-91.611032826739 -5.07731223029743 -5.23637739970743 0 0
124.638732419591 -11.5298977715509 -19.1647285702999 0 0
-200.565385331552 -30.4382202126956 5.46301905311237 0 0
-213.10130234992 -36.9918349310516 -28.0305081652983 0 0
183.748004442547 -8.17100067974411 7.78442976229176 0 0
61.415230756622 9.00439748751856 2.93956053901299 0 0
39.9129077683026 15.9311870494413 -2.06505611669473 0 0
-215.706187718569 -7.29278883572335 -14.2709355671455 0 0
-93.7437813967261 24.592557581659 2.29205060313863 0 0
239.742354427247 18.570019392867 -11.7464629115023 0 0
231.584007942277 -14.0918919479828 28.6899487055458 0 0
223.570654512149 -30.8512570933216 -15.4615542379429 0 0
237.492093369013 22.2294316489049 27.7952020620729 0 0
122.614915994006 15.5084646069509 2.89062614378451 0 0
-33.8166294846415 -3.90395936281176 -2.98167119257612 0 0
212.799484868819 37.4287715794592 4.35883904354371 0 0
147.575063116476 3.83405445662767 6.40553045457722 0 0
140.722057441982 11.398800151859 6.96625418756816 0 0
237.718275454404 -20.2295923547161 -20.0246931204007 0 0
-208.02803982945 8.00412898966397 -17.3448201212148 0 0
-219.340860444656 11.8492303942445 16.5367616952027 0 0
-198.827321582658 -40.6797242513951 9.35478717976553 0 0
-44.4644966697415 15.8663003552608 -20.2655258900788 0 0
-168.028459163508 -1.74084355953573 30.6842917220987 0 0
-212.953551266838 16.3796175302406 -17.6150907085387 0 0
-9.66350286071934 12.2183112602819 3.14212959724407 0 0
204.11786722429 -39.5498921311794 5.62249719700278 0 0
-210.51499992003 38.91001780603 1.27831875860017 0 0
241.498978330891 28.9659764876402 20.6988034666883 0 0
-86.5283049803214 14.9756066406534 -16.6664366134937 0 0
-179.217402204515 -4.95269720625837 28.2462392099113 0 0
-188.648720001658 -3.49134879005529 18.3867330086614 0 0
198.65629420096 -17.5110474872489 14.0419232219064 0 0
-92.1234331425412 20.7667180665032 9.23692157219178 0 0
174.619855586199 2.63019236310554 -24.0070709205967 0 0
-192.475633939816 -4.15340465417431 16.6032627198163 0 0
247.270172474533 -12.9641328697138 -1.64084573611393 0 0
207.304332850868 -41.0057988369078 19.7286118028843 0 0
-228.99423879264 16.8034378598455 8.3431454380206 0 0
190.056286547427 25.5385033539167 7.54628716206215 0 0
33.3696922067117 18.9961727159159 -17.4514849291484 0 0
228.865653082221 29.0515401537392 -15.3127403358695 0 0
67.6723031909277 14.5518891553445 -0.603293841591167 0 0
95.2246072180355 16.2760849108911 -1.14009928285349 0 0
0.442521552921062 -6.23010042211919 -10.8412993213656 0 0
87.6258567566137 -6.72322685260324 -21.7956525764194 0 0
-81.2513369231596 24.3789483808013 0.374975459226288 0 0
28.2877996377075 15.4513940610294 -21.9097658092918 0 0
-206.709039166301 28.0066729986473 24.8901257842732 0 0
-157.561655096056 -10.2838088020325 21.0103631953262 0 0
193.387265714679 17.5917844775541 -23.2804481562039 0 0
-158.589138683487 18.6744606337915 21.6398649639719 0 0
205.875854281014 -12.4036667258348 15.2325280803265 0 0
188.131079427363 -23.580122476048 -11.2888901741857 0 0
-53.052076821818 14.2501052627013 -20.1675591871782 0 0
226.904559423033 -33.2988692840532 40.079517728251 0 0
-21.6958890242329 14.0013575480291 -22.0686922825216 0 0
-175.674458191755 14.8125121199556 26.5968788084391 0 0
163.406583729098 -19.0874772494393 -4.21946150418493 0 0
234.300640757705 -41.5140859601927 28.1087483999379 0 0
91.7955096296139 -9.20769009415462 -19.4349176283183 0 0
-188.791389863354 5.34474637179379 28.096734875883 0 0
-178.831582285928 7.99057851078809 28.3402765372204 0 0
-74.8132419255571 0.68462027265997 -14.2156618726301 0 0
164.520791871932 13.8809112161444 8.68874211842736 0 0
72.0267436814456 1.29479772657082 -24.51777030913 0 0
-225.644183258223 27.233630184376 11.6645764699712 0 0
-219.098040868479 9.9830537079971 21.5419528923096 0 0
180.244300276022 15.6851272287503 -21.5715314481234 0 0
-196.840091381652 -37.7058467064558 -1.02822238614135 0 0
-220.875862880349 -14.6308850958091 8.17156501353897 0 0
118.336007207331 18.2847766068243 -9.83259747851159 0 0
171.664852463143 -21.1541600332159 -5.77348964375262 0 0
64.9735286416925 -4.30316218006107 -0.781429067906878 0 0
-57.9913939995728 19.4680568911186 -17.2397346372164 0 0
243.802511272333 -12.9309112857103 15.2611114128672 0 0
100.285631110474 18.248276388423 -9.21027141357128 0 0
-210.560348450692 -25.0028169048742 -25.1417283856854 0 0
114.073613345311 -13.5181118097477 -11.6419420359282 0 0
-209.546966997084 -15.0196685143857 -18.1049642764827 0 0
-171.604299341681 -4.85648489810615 -10.3852520697012 0 0
-96.9649593140016 -1.95871539351251 -10.5828433956337 0 0
190.839546267175 -27.8945626734989 -2.70180754239368 0 0
228.161742083653 27.8151819338195 -19.9254642064118 0 0
-237.233060988913 -37.0124616608847 -18.8596266088044 0 0
-155.344780537696 0.235664313487011 -9.5622262838456 0 0
-201.214745832761 22.6135959481022 28.0679771858071 0 0
-196.568649073103 4.80335171936614 21.6152838077218 0 0
-77.3043295975654 9.40533446374344 -18.2835422477022 0 0
-162.24542836272 -12.6798348026074 18.6591961653569 0 0
229.879552406515 -37.0020411670597 -5.87676223661973 0 0
241.350601539065 -40.3597721916187 15.8282391051698 0 0
244.113414044904 -9.11960542885424 5.33431666491804 0 0
-182.219222911527 17.874845345238 27.328347698304 0 0
194.184394106333 14.9551992887009 -25.5883196374997 0 0
132.083297680638 18.5732504120154 -9.21874894800424 0 0
-20.8457814803636 -0.150094904155205 -18.8740403184507 0 0
182.640157524263 -4.91267352416518 7.79118401642298 0 0
241.142043081809 -40.8188027758342 24.3140711375924 0 0
-85.0852079962601 8.49978423962092 -17.3785115374731 0 0
-116.260287166482 -2.38080723353545 2.87134528920963 0 0
-202.513230217743 -47.5757159498793 10.0842882484346 0 0
151.456501333199 11.8838357423878 7.63663346739695 0 0
-62.6124089564373 17.7261692616417 6.57384170844302 0 0
223.047679685457 21.3423875167282 36.7609179708158 0 0
-223.04254718763 -24.6918783686579 -25.7109735387795 0 0
-224.690751978173 -53.5217122136463 9.76070801968466 0 0
-136.446900968928 22.6090374877608 -8.52639265076506 0 0
-218.994086127312 -47.2739886626347 -25.0873742640108 0 0
198.028463727027 28.9733841562124 14.7612949968048 0 0
207.336047858498 32.8258670011343 27.1709398442003 0 0
-33.5016268789708 15.1776743984652 3.68013973966246 0 0
-167.608789737087 7.91937076736016 26.9375348920403 0 0
-80.5273306280818 -3.58147864507848 -9.82515508033007 0 0
227.191147821441 -3.35295929505587 -20.1872281333557 0 0
50.4126211591949 14.7475701833553 -21.8419957235916 0 0
-201.921427492448 -24.3874125521156 -18.4481006512315 0 0
181.965001366192 19.1824156256712 -16.2165851874039 0 0
-35.5232790116249 2.9849259765614 -19.8923983117844 0 0
202.440023185182 7.0318180123111 15.2551374993675 0 0
50.9340386211696 3.95038536988976 5.09323820574207 0 0
233.890387586288 -44.3604581011093 8.84923858670315 0 0
124.086078515829 2.35780155105048 -24.8348359573115 0 0
136.589079603272 3.27870777806284 -24.8446228594337 0 0
111.580383203592 15.7148102171161 -19.2002930780169 0 0
-205.099943012449 -44.6229672333131 -22.6420565339641 0 0
-176.06964650415 -7.0438950576675 -9.01647557208102 0 0
190.291922450007 5.6978813667321 10.5898395187428 0 0
183.694105724263 -14.6691076299329 -18.2374237148351 0 0
166.240967267177 -13.9931867259431 3.40921772863843 0 0
-161.558840348585 22.5748931133794 -8.11150390577783 0 0
-154.860653048977 -5.87769102134341 21.9793462930604 0 0
4.44954561890009 19.5133919183133 -5.72540787901006 0 0
-130.511044288005 -4.68509549144888 -0.714726577349042 0 0
202.563536102236 -37.3191886667231 4.32532913372888 0 0
228.230109111761 22.2415568091492 -26.8237193470984 0 0
214.428358727008 -20.3966480111997 -23.5127113338463 0 0
211.637243010139 5.7305507779485 -26.5391901853726 0 0
-110.029306598379 7.1181884841021 12.0399211918538 0 0
49.9740996910064 -3.9905209249297 -21.6657726350697 0 0
182.832703824517 -22.2270544756064 -10.9811568644749 0 0
119.331844527137 4.67985794903491 -25.0379120010034 0 0
67.6449570546155 -8.32437521160897 -17.6571035453614 0 0
217.625215425797 38.9035132984171 16.6537464379158 0 0
55.9130952946404 -6.94357204731645 -5.57231293681177 0 0
-145.766807280764 4.28723189811832 20.0192174206964 0 0
231.13783845491 38.1795975425831 21.7086704282311 0 0
89.8009892364054 17.5360143684949 -4.22428274013933 0 0
201.060309610993 -11.2464025667431 -22.09734433259 0 0
-201.512878106179 32.0647044805094 -6.94150992262139 0 0
-2.16165794670326 17.8672051579289 -20.7047606543108 0 0
-181.159806444857 28.6259782101376 -6.17667569323218 0 0
40.6267898419236 -0.166924073667024 3.63537822324686 0 0
-76.3284709971788 23.4977941211561 -10.6640892182363 0 0
-214.772395967761 12.057559628071 12.8603192319073 0 0
-9.91685360706615 1.39640643790822 2.94799688833369 0 0
116.231421940493 9.82208127726649 -24.1365785950977 0 0
-151.173304960909 25.5872318891111 12.2258327593519 0 0
-210.573270710742 17.645198662609 29.0285765686548 0 0
-112.089912779772 10.2856573830819 -14.4575054488283 0 0
-241.190939403132 -28.3625742630868 -1.85586633863989 0 0
112.921352225045 16.7992363664492 -0.245025934197965 0 0
248.861573866156 -22.7651411783324 22.3400755155944 0 0
-239.465814400086 -43.2269786179777 3.01544543370669 0 0
54.5443991502678 -3.59136044951631 -0.372107286125931 0 0
167.630222074787 8.07311840466802 -24.5385369875709 0 0
-189.368280647462 6.85050734977164 -14.296036313866 0 0
125.365346605963 17.2085037243269 0.669136516548338 0 0
235.765962519927 -43.2507009635522 8.80332324263818 0 0
183.603506405687 18.5434359600818 12.0035942716353 0 0
-152.763267084475 14.7175463225829 -10.6644027434898 0 0
-167.245879880058 10.8408620409432 -10.7254516874681 0 0
130.719044885083 17.9654696830187 -0.323673297849207 0 0
168.058159452074 -19.2469013776399 -1.06773047225601 0 0
113.174986956006 12.6601457536015 4.24149716894657 0 0
137.232557565674 -11.1259002398691 -19.9696470846398 0 0
-238.264099283456 -21.3555451578628 -4.1347534614299 0 0
241.906393042432 17.1576538316 5.65094624919876 0 0
243.609631929987 -7.91359243615247 -2.13851280167753 0 0
74.9162643220092 18.4699143617849 -10.2436116756317 0 0
-204.037708444632 -30.2627959407062 9.11675901932276 0 0
-204.782063597055 8.34987436729106 16.6474861687658 0 0
-15.6290845178723 15.4338862981978 -21.8120343930744 0 0
52.8175908195471 -7.29124111661858 -6.85159705013945 0 0
204.363533606498 -9.4984882987034 14.1574492091016 0 0
194.386447617577 27.6115717606057 8.76213250833077 0 0
-83.6983844930654 -1.66160360527975 1.41976732348568 0 0
224.181309710834 30.830503337481 -11.3415169914678 0 0
-212.471792079507 13.958157632466 19.8014089123594 0 0
223.150759242311 -3.9561439592082 14.1660347023098 0 0
81.8031212165722 17.65833768609 -5.09594702067761 0 0
116.193000224761 -10.1570435850454 -20.2318574031553 0 0
183.88474417047 -24.6700623364811 -5.39878840298151 0 0
149.393737603708 17.5711392397509 4.28476586250475 0 0
-216.090235028055 -23.2687467681544 -25.6419496514825 0 0
-147.0454443558 18.2628429474055 -10.2685303296524 0 0
-28.3691858324009 15.0583988473986 3.18091161577755 0 0
-221.148540105331 12.3294916141846 -6.84231367549351 0 0
-203.559287883268 -35.0770612276497 9.157232521652 0 0
210.245858315823 -44.6845678383317 5.64975544180457 0 0
154.636778529983 6.91378677606871 -24.6014687971637 0 0
-189.429182937269 21.1544704253099 -11.1547680229755 0 0
75.4023264308296 10.7458456983061 2.43172289349777 0 0
-181.3629464164 20.2529237848444 26.1139461010197 0 0
-143.72740971919 -1.1826694525279 14.5559376818851 0 0
-214.654556109528 13.3502832715204 28.0269685911553 0 0
55.3674160554261 0.0499228808797247 3.94915433682199 0 0
-220.380582275136 -48.0083072111144 15.6703434712745 0 0
-217.919982869382 35.1456230319921 0.157439598445827 0 0
-196.519903800154 -35.0000172098084 -12.5579043632023 0 0
-151.044323874003 15.9881471336268 -10.5675334036238 0 0
-107.455022524981 24.5271649564795 5.35111232339391 0 0
218.870538245166 25.9287060831438 37.0915492097246 0 0
-198.729092407763 2.0065041295539 -15.1375800656658 0 0
-235.624606279836 -18.0190887458635 -1.2410533153399 0 0
-202.872918404534 -18.1688963775997 12.4367426056847 0 0
6.12839103179207 11.7250319809034 2.32953683357813 0 0
-201.99326442236 7.09828434501269 20.1257794640382 0 0
-162.451247652927 -9.1536289460117 -1.06692814102251 0 0
217.738706703765 -34.4094200373264 37.0368795027858 0 0
-142.500937021327 26.405710448568 2.3222104806827 0 0
216.129847317792 32.2684616413485 -8.98755679990043 0 0
-165.411735946029 26.660796811631 -3.5721721783762 0 0
-10.9795429689719 21.6170671923657 -8.25439441249674 0 0
-161.925090243173 -15.3866666717342 23.3065390879922 0 0
169.987068830199 20.1235579558595 -10.3796616357575 0 0
-68.7894047450285 20.876282597128 4.86989784028576 0 0
78.7839546148612 12.3647183613079 -23.0271935029328 0 0
-37.8723475174118 22.842195324434 -10.2519939198814 0 0
222.983324780078 32.0524408996747 36.2681427990681 0 0
48.0782078827293 -7.56408283515376 -16.4392089272047 0 0
-161.178702457423 -4.34627275527361 30.3588988946431 0 0
19.8351604761428 7.34410922359951 -23.9951129251598 0 0
119.925157067998 -14.1737551566421 -10.7062318899897 0 0
187.665997600327 -20.5872698163934 9.68074067932214 0 0
-123.14443269999 8.57394963407938 -13.447973172688 0 0
-31.279105404313 7.2335956505278 -21.9532653116748 0 0
165.004761698252 19.6631174894336 4.2678867928123 0 0
-212.876197817681 3.7091688682405 -12.9924569608353 0 0
210.294777047894 26.0279520919579 -23.3114905846359 0 0
237.185284437106 -40.0111166324837 5.03556966681283 0 0
226.664356962583 -18.6504200881381 -23.0461110400876 0 0
-7.87208773492299 -3.52875337870416 -2.92907554183291 0 0
203.891905994845 -27.4303778062005 16.8082942037822 0 0
206.672566546557 9.06413740724254 20.3086344562411 0 0
210.392099259085 35.4792475187444 0.925746828184331 0 0
212.684445419002 -35.0355490264804 32.591471201042 0 0
-224.52837015118 -57.0885425153363 2.74155816879533 0 0
-199.487114220038 6.7115522524657 18.5273868833228 0 0
-99.2292753982488 5.18622841434183 9.46871796060289 0 0
198.12353714751 5.31324860758515 -25.2466939769122 0 0
64.9776047075424 10.0237803401041 -24.0681750861596 0 0
130.051144654484 7.34615158585139 -24.7823968368565 0 0
180.772313219395 20.2177604551324 -13.2279846157367 0 0
-119.300233788291 5.51415004069058 -13.3105383089777 0 0
236.101693874091 21.5100490809997 29.558829730129 0 0
187.741516910393 20.1875499265768 13.4602981312601 0 0
-229.018559184766 -53.9337362021696 6.34435543064473 0 0
162.55360224836 18.7208924389197 5.59108043459209 0 0
246.094475215717 -11.9736628702491 8.65768669563193 0 0
230.793038926196 -15.1356247645881 34.7328363189952 0 0
-194.393639962726 -6.14579131324562 14.9901074079905 0 0
-222.66424891431 29.6917160378726 3.28449367374141 0 0
94.6219894666831 -8.66707361699296 -20.4215389078299 0 0
-125.795408109547 9.38720892350742 15.2869466486354 0 0
-221.153447169507 13.561971732478 2.76303787710573 0 0
247.047102550561 -17.7553837220455 22.0610844810038 0 0
-112.429318412499 5.36790254769846 -13.8248381063548 0 0
34.2785219531316 13.6014014016273 -22.8123630857282 0 0
23.92809186716 2.66882808571875 -23.5876871857923 0 0
238.817294563178 -14.2651929006567 29.4412995258272 0 0
-224.33968004211 29.0449197769888 1.06024127267833 0 0
224.620530682818 -42.8280120519768 26.4930546246974 0 0
-127.785460914149 15.6100748182636 16.4965060563054 0 0
-30.6020653555259 -5.86047387653101 -8.19973670772292 0 0
220.95164911182 5.67348720336617 22.3461161434195 0 0
-28.6943276055346 -3.06213380097857 -15.2564956540055 0 0
111.283003652488 16.795755892924 -17.1175995965475 0 0
-171.816027552139 11.0538062310854 -10.9650815853415 0 0
214.654389750646 -17.6205549140301 27.445422560067 0 0
-194.270463232484 -4.36159665263409 15.8798800093624 0 0
227.847184606776 -36.9688795656235 -7.09559505813657 0 0
182.669979416734 6.81510543966469 -24.5227425658874 0 0
-182.375274295785 8.84515366403916 -12.1161641688781 0 0
-222.476863990645 -14.9282643598691 6.59147875242703 0 0
221.969175910117 21.115389817621 -30.072048178597 0 0
199.584665044996 -20.7509139005909 -18.395013212373 0 0
43.279041502904 15.8359788191207 -2.01810453194239 0 0
-186.884764114588 16.8654169684998 -11.8597271654078 0 0
-201.529547806999 -49.7497858836338 -14.3374031338528 0 0
56.4796675578997 -8.67612317862742 -12.4685994379364 0 0
53.4189752913798 13.7044728117931 -22.5078583107423 0 0
-213.075801444168 11.5990228842573 -15.0161355532797 0 0
182.9107301995 10.5788806227124 -24.5648120113095 0 0
-200.202887725994 -33.4070714764449 -19.332750953663 0 0
205.677194538868 -38.7445723465568 0.858762485358274 0 0
58.19234563966 18.5610341352956 -15.6351786792826 0 0
225.480220571967 23.6572273175288 36.7474516685176 0 0
-188.185946912649 39.8033763853266 9.8169672707407 0 0
-147.771589464415 26.7896239395292 6.98770865968165 0 0
186.760157060112 22.2829754735336 11.5214421003181 0 0
233.004217776162 19.9072544884498 -22.8390827071729 0 0
239.987482273673 -13.1553181707258 24.2529987826931 0 0
249.370240712144 -18.6256910023171 -1.29270060840527 0 0
-169.989175590908 -7.89208083633728 31.7417196519108 0 0
-218.094205427717 -25.6858235454721 18.8007189998484 0 0
144.314586152631 -8.3145899748775 2.83972116020615 0 0
-142.949609046209 16.3159958567242 19.1898709550511 0 0
248.134598293842 -25.3063022375824 -6.66308091871964 0 0
248.294372703346 -34.6347634567695 25.7190127522866 0 0
-141.332445483602 7.08637216993268 18.7802792345313 0 0
-225.459154419524 -12.5635185084907 -4.08418272765635 0 0
-200.098389401974 -19.406639046362 -15.315717049038 0 0
215.253799146628 -43.0168802317402 -1.38539400776104 0 0
-39.7958938593294 8.40505884185422 -21.5285292700324 0 0
