"x" "y" "z" "f" "a"
-179.930627918769 18.1515931082367 -12.2676099912193 0 0
-110.543287337084 -28.1691622215122 2.65071712643648 0 0
167.773365028279 0.599076294354054 -8.5525598741307 0 0
56.1053246404825 5.62359934530239 18.1748109634777 0 0
-239.236562295579 -23.8455624427128 -4.23389329707797 0 0
-44.6656940897762 -8.56074929050601 -4.6010408925449 0 0
-44.9828861415783 -19.8740434490401 20.1797896537784 0 0
72.433634205742 5.85330713236693 19.1762973363466 0 0
-203.179277582635 -28.1795209841682 -23.7287529395009 0 0
-187.530213150737 -29.5740829085707 -13.3767060149131 0 0
213.156404021017 22.4964869021414 23.2048121301905 0 0
-90.600249695406 0.521567901017346 6.79696572936553 0 0
188.29443368889 9.40802986427517 20.5578128570849 0 0
190.32290975164 20.6559958919153 19.8665421865926 0 0
211.392353864807 39.9896703926995 -36.3125913622905 0 0
113.099634281041 7.44338308015779 20.2438010415572 0 0
202.441263808192 33.1229360929232 12.5480761040833 0 0
215.444266306761 15.8387590388003 -13.0335350536527 0 0
211.50564382864 -4.52941377307557 -29.4604953780875 0 0
156.789540900983 -14.2438703505587 20.3912350152921 0 0
170.530444787529 -4.73621775517005 22.1611532551372 0 0
-225.403451572675 8.32138033784464 -9.95678880218438 0 0
187.117466298415 -5.95771362211198 24.6107873895637 0 0
169.723159487511 18.2215096904904 -7.44708564821366 0 0
88.4756438416219 10.0410463300292 14.766852541589 0 0
-90.9992222511054 0.40578561355542 3.44302184782845 0 0
201.299384216787 11.6982364397225 25.144021836525 0 0
224.578731713428 -13.4875947162134 5.10611356492025 0 0
-137.461354724048 -22.8663403851568 7.26525266371695 0 0
196.871266606949 16.633495321642 23.1569430594923 0 0
211.904256992642 0.529611657406084 -10.0798956091808 0 0
189.472452116399 -6.78431984169207 -23.6028176991471 0 0
-168.968693026428 -1.65651430521591 8.38548498221499 0 0
35.8983323913874 -11.7407193898297 -0.887280689022008 0 0
167.988216314599 25.4009723144999 -3.21720824668924 0 0
218.636944988663 34.9866954269568 -34.025528837814 0 0
230.155440669991 23.4672986949207 -2.91723842677818 0 0
183.716191179971 1.33655694106556 -12.5447138926055 0 0
-233.818197046372 10.3569084724899 19.3602979428751 0 0
173.725815435606 -16.4112498182476 19.6380001735703 0 0
-211.547253441005 -34.7816937379699 -19.3025426526159 0 0
-91.5829819990902 -5.04458132725594 -5.48507413426071 0 0
-135.933561983581 -11.6900150208055 -12.7919513292717 0 0
-5.50381773169738 -13.2750980708221 23.4751788700173 0 0
208.890972625778 -6.60665333243557 -24.9083346871766 0 0
-229.192740358625 35.7679627899611 28.7118452592453 0 0
54.0686515498493 -7.25219910024735 24.6293783212651 0 0
202.733489187848 43.6320592182024 -28.0760447180384 0 0
-42.666668282761 -20.0497906371866 1.14984007953124 0 0
205.851212471638 -0.748185766069457 24.0491549502622 0 0
99.3900276650395 -7.30552302153969 24.6931177058203 0 0
215.317129970229 -2.20014944425828 -24.2612511774257 0 0
-197.628681305468 -9.9840062192121 6.50972321214562 0 0
-59.9942035110834 -5.27797578417379 18.8085649123911 0 0
224.070516011201 42.8654516629993 -19.3208664434587 0 0
228.71541497099 18.7051551423221 0.476486171975299 0 0
-53.1786482755088 -0.641424636153053 15.0777106487257 0 0
-127.677389725027 -26.2546431400165 4.7319902750481 0 0
-131.847844753257 -27.9964323990769 1.49780051841551 0 0
36.0417099864774 -4.34078865962209 23.6625176573007 0 0
-202.650339977648 -4.35125671193685 -26.588927189326 0 0
-243.55026841391 21.0980554805445 -9.59932200630938 0 0
175.212245228899 -22.6819408680623 3.20671772162102 0 0
123.479960358345 -14.695351991114 -2.17576468746515 0 0
79.1941906624841 -19.2409819750457 5.98505983089812 0 0
214.364599041059 44.7650014507645 -26.6768407576962 0 0
159.911356229702 10.2144064032273 20.5652878855203 0 0
-232.443957219787 12.1153266749649 20.6571011758054 0 0
213.480354540427 -2.87407503819265 -22.4537275838703 0 0
76.7926598258392 2.8985418781886 2.97768904282231 0 0
28.9900416672941 4.35129383925483 11.7677709282891 0 0
188.203927423954 29.3602062082347 10.7513374865347 0 0
174.560042026678 27.7947896425292 4.58813842700092 0 0
198.639558434527 43.3541563669078 -30.9323127563357 0 0
12.6890162076385 -16.4436517475768 22.9865718160014 0 0
202.234105323831 -31.6657029922148 -3.67855694895174 0 0
-32.126012965432 0.763500728949776 9.8228250619492 0 0
129.58693139695 -15.6030708390792 -1.29398410839758 0 0
-234.579254471501 -7.52344272594138 -26.9593096973856 0 0
-201.120196604315 -7.1828734973515 7.34723033267178 0 0
139.388091700088 0.880656830258417 -5.51395202690612 0 0
211.444974364857 41.2524502677011 -35.4348788758681 0 0
185.673413958605 35.0568209347351 -14.3063641505794 0 0
185.486530677044 18.5022127342927 -14.7710070277515 0 0
4.64922728709577 -23.0897798329296 18.2145371510523 0 0
-234.162024934432 35.3680836754842 -17.8480639252502 0 0
-191.524014216229 7.94502556115092 -15.3057444696999 0 0
-216.602763473608 -6.87570529169068 -14.3200843195449 0 0
-217.123599465665 40.3755741719527 -11.3989296969373 0 0
-179.278979122434 -12.6657660914043 5.51899865488984 0 0
-222.720379119541 32.9067608680314 27.2408245678677 0 0
26.0461410782602 -23.4056348692229 12.6339188252979 0 0
109.462006397006 -11.4966920480503 23.4840283385698 0 0
-214.967378679795 31.6397897889991 -7.86007455058348 0 0
199.796358895725 -20.0196938308668 -36.5149774690249 0 0
-213.543302407915 -37.0171027372247 -1.7584004480374 0 0
178.262502936385 23.1548106211599 -12.239099009381 0 0
190.763251071444 -5.19087149475094 -25.894898698386 0 0
50.092137570321 -15.2650863527913 23.5013089244568 0 0
-224.135057449962 -15.0260544007641 -18.0142397894308 0 0
54.9490859759076 -21.63483058464 10.46066184179 0 0
207.826528445399 22.4445195150299 23.9491365660437 0 0
-100.168960193766 -25.565364590907 9.91119145343522 0 0
136.160818759711 -16.7567247596031 0.862681679170954 0 0
164.050051818574 0.801981555220071 -8.07534040409667 0 0
173.630421710738 -10.0689421199152 23.768672351653 0 0
-219.191439028363 19.3767473858919 -12.0475009932548 0 0
-163.999534008557 -29.1908890572859 -4.67732263188214 0 0
216.270990072951 -23.9177284171132 17.2007975867426 0 0
188.321106912321 -16.2643140503963 26.6240838198709 0 0
-116.408793333124 -1.06694090287948 8.30841073922219 0 0
-213.522635246322 -33.7785578081038 1.25991783671563 0 0
-187.093515535813 -0.766358242371537 -23.7433981205104 0 0
-199.727148587116 -18.5028525321976 4.43650725605636 0 0
-38.1472677890955 -1.34180125116106 2.32184693379575 0 0
-255.123414719685 35.77005030033 9.98626334453509 0 0
-192.455310373038 -2.03528433256424 8.08659188262349 0 0
23.1487230451067 -22.4513112909894 18.2194569688343 0 0
210.909782259726 19.540216875977 -32.1593430025222 0 0
147.24687146845 9.20754534203979 -2.85199659374619 0 0
230.00982282559 24.2569067939187 -9.17195364299392 0 0
-221.173072481416 -31.1422269006069 -22.7333631380858 0 0
212.155248974133 29.568326541779 15.1827073375923 0 0
202.595017801541 -22.6258147444069 24.9563142263455 0 0
-146.993474276477 2.44399143594655 0.0503548123712534 0 0
224.283508226958 19.9955144185244 -19.6900332005969 0 0
-126.636825767103 1.0658657859297 0.0734238356132084 0 0
-225.647841999863 -10.5028977369566 9.00562651997973 0 0
-254.324682335726 35.2572252985093 13.0091056761831 0 0
30.4411394635094 -1.10779423826801 1.79701781095469 0 0
-237.075150011921 47.8877255377712 -12.4649551128962 0 0
168.023180783288 -10.2556729517472 23.3861456378688 0 0
188.586104505137 7.01531521503783 -14.7268325736611 0 0
185.746393763907 -23.6469453946671 12.738384332551 0 0
217.82973284834 -33.5099038911556 -24.4188359059662 0 0
209.520479683262 3.00758558561812 19.6622894997956 0 0
-223.761478848347 6.78029181518396 -10.6143316832765 0 0
152.49185302225 8.80397627883573 -4.17341974333776 0 0
-200.788298348193 -34.3408881321008 -14.1064486049194 0 0
-45.747602433499 -22.8330427981314 3.04260843734446 0 0
-208.286379937943 -5.09548754951467 -25.5903882260753 0 0
-199.962262220335 2.27131720583668 -16.7654647809768 0 0
182.782376197261 -3.77247718424072 -13.3311837871095 0 0
-224.555101942565 -36.0990066360538 -7.64588530196817 0 0
-232.814792441573 -11.2212253692739 -18.9796801992439 0 0
174.237573834285 -22.439661393499 -5.47131525602549 0 0
117.023517531862 8.68962630697838 19.5869078426046 0 0
-221.103579674085 48.5228488313943 20.0651318364973 0 0
-179.593458387061 18.3938463191457 -15.0881456513572 0 0
-249.99602972332 25.4443829484249 -7.99067909836342 0 0
227.858848756504 26.7549997254775 11.3365388382049 0 0
174.650335733503 -12.7411226331237 23.0714131895539 0 0
219.705818268214 43.5489073891368 -19.3279804122104 0 0
-188.559385240872 6.47219786226192 -21.5698426796365 0 0
221.234654289109 2.5145003640821 -1.26791483609942 0 0
-247.919828723938 32.9738306435054 -11.9275703752172 0 0
-243.333022162164 33.0276957101338 -15.3930499354051 0 0
-195.924435157886 -20.8073156555049 3.72263089875625 0 0
183.35390030284 12.656381986511 -11.3488675468317 0 0
222.790337360137 -3.52384976973953 3.32348959389724 0 0
79.1958789273656 3.9294518444237 3.5773436759813 0 0
-16.4352751702486 -17.3508441373194 1.29939744281131 0 0
216.025203765829 -16.3375749429174 -33.3850768935541 0 0
-215.694425341107 -9.33907379141797 -19.2568180399634 0 0
116.768803379993 -17.2720995777633 17.0454054763112 0 0
210.540970484828 24.8606035332166 20.2723050651524 0 0
85.3951941025073 9.99590918765281 11.9892993012176 0 0
-191.31025426579 -21.942441874388 -22.8862085084541 0 0
182.414565011876 28.3905154211395 8.35886505917078 0 0
165.637152161743 24.0133759451475 5.77432142380471 0 0
-214.240374560099 -5.66623657240496 -20.4594551128823 0 0
211.746504688862 31.9282414276551 -36.5736975536942 0 0
196.736875935697 -32.1843934280637 -6.21335901985438 0 0
-212.76987507202 -7.1533177852747 -22.2622551842024 0 0
-61.6535597912339 -11.8646682028552 21.0775077320896 0 0
115.775243767594 9.71422724395974 1.38728084731077 0 0
-231.25166860676 -25.5846652736568 1.20854319548941 0 0
-170.171766931354 5.99573229032189 -17.5733947445352 0 0
-222.843103585645 -29.531140368212 -0.619652975145921 0 0
-249.644849159976 49.548227654356 7.0775937069109 0 0
-220.701534245526 8.74578834379933 17.7138399467812 0 0
193.558522777615 -7.23005444933441 27.1036827818952 0 0
-211.364272195305 -6.30074324651973 -23.1570461745743 0 0
151.112882547755 -18.4719155635079 9.04641879529099 0 0
-174.244101151877 -6.2745962829683 7.36010916934107 0 0
-246.040088165527 38.8004643615351 -12.7013218378927 0 0
196.963813331787 -19.6171381926215 29.3766745676061 0 0
-18.7263977366829 -1.16680905023961 2.98934413640474 0 0
197.669897985385 -12.0634496647099 29.8706005972121 0 0
172.395233089073 12.6188916380594 -7.17895888360041 0 0
-43.7614921560731 0.692749658844351 10.7653659569158 0 0
-164.878904254627 -11.2848729417126 7.51675339275503 0 0
-1.62316172568171 -17.7698637648822 22.3085499552489 0 0
-4.5020897906118 -6.02861792244308 23.1717336172106 0 0
-179.583116130842 -8.15971798192212 -21.5503798849348 0 0
14.3164876690026 -23.5820497396373 10.108804371155 0 0
1.08344254991432 1.15918994795659 18.7097116725761 0 0
-239.503408641536 -15.2652124466335 -14.9229144078435 0 0
57.0040834138886 -18.8823609293088 20.8201750717119 0 0
-223.222304285101 -1.98164322853045 -9.09037855725072 0 0
4.71025000320901 -24.5454763650086 12.4988146417877 0 3
221.184190529796 43.4895168740253 -27.5731542218657 0 0
-228.964867890333 -6.8511777664435 6.88205780524892 0 0
60.5038569238392 2.77683148968795 20.9710602554398 0 0
186.504927129986 42.2589124230294 -11.1190747322703 0 0
220.692335435608 9.35553188018145 -8.42226946685783 0 0
127.429324412893 15.0778647780745 5.99012904786647 0 0
175.713297643712 10.0687837125647 -8.98895980429066 0 0
150.001162186969 9.11778688383517 -3.52999429889158 0 0
-238.040031926886 54.9491656203404 14.0851099063849 0 0
50.2852398113262 -2.17821771064987 -0.393648900016165 0 0
199.991034555211 43.7140584041203 -31.48060763292 0 0
201.645469810647 -11.878435275616 29.8789901974099 0 0
2.9250911241322 -7.88565603402426 -4.56219971058067 0 0
-227.165615977226 0.705713366490715 -6.08000693836469 0 0
-230.654250481048 52.4707783805932 18.6602872125389 0 0
-219.355936524169 28.7523353401242 24.7618893391725 0 0
19.4233100754161 -23.4325309685103 16.6068267728763 0 0
-7.9240933731232 -18.3009096115429 22.0046480196789 0 0
180.08321337196 15.0303279382666 19.3390708458089 0 0
2.41579386111141 -8.45040515323566 23.7971818002816 0 0
-237.87281166446 -19.9007655233433 -25.634677621674 0 0
159.645145701821 -16.3920839149926 17.2201118238331 0 0
185.71692439309 29.7907327547043 8.88935736331022 0 0
-145.439263479608 -14.0770656967308 9.90273230118173 0 0
218.153185865375 -30.2423807721671 -9.93925308143612 0 0
-143.994280346765 -29.2413147446763 -2.34152386927689 0 0
186.815069636187 -19.0437165434943 -27.8574227531392 0 0
-221.109001882007 -10.2424959179484 10.0784248976496 0 0
-242.855503134977 55.1312157662876 7.64507959826191 0 0
-215.760376754983 28.5539474328198 21.6394220139897 0 0
-38.4469503958141 -22.6549464284582 18.8735419143711 0 0
-173.78939344279 2.26117549394331 -19.5993310898725 0 0
51.6797725747084 -21.9653409589346 12.0648465966514 0 0
207.77792260066 6.24934225486225 -10.9972526556705 0 0
-215.124914568513 -7.51100387312998 -23.4187410360362 0 0
-148.793711655984 2.62571478340764 -1.77573609522917 0 0
196.4897983955 -32.7129364246591 -17.9602362188711 0 0
-201.849101422115 -9.81176855080204 -28.3585687781163 0 0
-203.805642976618 20.6268580361352 4.66624861987179 0 0
179.891349756855 5.68402435848518 -10.353428917364 0 0
-105.279683213298 -16.5944517672429 16.0197756222321 0 0
-159.430964115352 -22.0612880263453 5.05093360638025 0 0
88.6297361384374 -18.5813718621794 5.17085236377045 0 0
71.8812106101294 -20.7843163224865 9.95436969911447 0 0
-234.825379939841 14.9924977630932 21.8250230277334 0 0
216.45215727553 -1.80636754578707 -21.8246459067762 0 0
-230.432160108195 7.29407097370798 17.8547230433966 0 0
-231.917226870746 -32.2705299375535 -8.13514490596923 0 0
44.3007211074662 -21.7983080794605 17.0568761931128 0 0
-233.60041785462 9.66630241792641 -2.46912691357517 0 0
223.259902625545 32.1209907261984 -30.4082103910259 0 0
229.579474039522 24.1456003252802 4.41861251852183 0 0
-213.463908776178 -39.8051891747115 -8.51971465139313 0 0
180.101212895192 -12.9639224644394 24.3928946557664 0 0
-42.8749423178872 -24.9714917894954 16.5971207513287 0 0
-202.634838821381 -36.4657784850886 -6.80166645725192 0 0
38.5552979203501 5.17464847153709 11.6714106972217 0 0
196.507732011603 41.7747305430279 -24.2729597991311 0 0
-65.3773553504634 -0.38793496625803 3.67997244050122 0 0
-237.509515226297 -22.0192296757525 -23.2614150790252 0 0
-168.537509506507 6.47529505176777 -15.5701338404992 0 0
-233.950638802164 38.3562778033023 -17.4735331771777 0 0
-181.896843339289 8.14308422658177 0.494292555808866 0 0
-175.152592102052 -0.863420069542564 -19.9310329142686 0 0
182.499393018752 4.51790535514095 20.3680788165615 0 0
-223.781830621665 -22.4590567706936 -29.4053369917772 0 0
-242.606216851061 45.2506173640882 -12.0361209525834 0 0
142.989292879266 -17.0797605035132 15.506146006794 0 0
115.843390433697 -5.92918065515265 -5.00206930239994 0 0
-231.810959197249 -13.1666800648691 3.23183092043479 0 0
161.941490023887 18.1876361034435 14.4839017892006 0 0
-190.246409390022 -23.6801217559508 2.83586249980382 0 0
89.7726830939367 -4.01574497723707 -3.1038275513927 0 0
-254.694015063373 33.1964766954029 11.6892962607935 0 0
215.140454070847 -28.3732606916272 -33.4687318373664 0 0
-166.89638770037 2.05870362623969 6.75520180986389 0 0
81.8078487279772 3.91721731005777 3.24690479605962 0 0
212.236991107695 -28.3490809453871 -1.95891615129892 0 0
213.608029137813 -16.342715223518 24.8476258509826 0 0
-234.578216051149 -7.98655508762796 -24.7077409372314 0 0
-230.283109079621 55.5097997546153 -3.36141045649072 0 0
-20.9957413915047 -0.941085276821048 3.94911983720471 0 0
203.191017588455 18.3794992389114 -22.192941379373 0 0
-203.337227547813 -32.5951293163264 -19.8640705681849 0 0
225.577156313289 41.0176562243247 -25.5664577397586 0 0
-237.986002577261 40.5944024344563 -16.12613345462 0 0
-154.671320722015 -25.5250075611533 -12.8535683515925 0 0
191.000343821659 -24.9081845364441 -28.4019420505162 0 0
-205.339459620304 -29.4128564561528 -23.6947278030482 0 0
224.699585771732 13.6021286500663 -6.81000053473709 0 0
210.402294124756 16.7641953004097 -16.2522278063917 0 0
-199.802498823562 -33.2677196245472 -1.06972663795691 0 0
-112.397602146364 -7.66783662664762 13.7513677888187 0 0
-6.25889282353942 -25.1539054910904 11.5554137098932 0 0
172.128373529066 -11.9362796831894 -12.5473924712014 0 0
156.633005293848 18.5464585778932 13.2112579222055 0 0
-187.246110802227 -2.14937644219087 8.30523977193763 0 0
48.1706911392471 -12.2344994918557 -0.631814065223233 0 0
114.689875188876 -1.1182527253207 -3.68829422521658 0 0
216.441514036575 -30.2159549128926 -13.4851651876246 0 0
126.63936707196 -0.961850771883224 -4.66723351053908 0 0
19.9572670935218 -8.30961421614062 -4.30053901322368 0 0
-180.583743681881 10.7027962788586 -5.42313224937403 0 0
73.1961122973248 -0.293133433836568 0.223872950699756 0 0
165.354800089462 22.0183716551676 9.4582845855886 0 0
225.444473389498 40.966379813567 -10.9212410139593 0 0
212.660906385521 5.39812542969823 18.169991671179 0 0
158.707777147077 12.5047670679692 19.4980081155906 0 0
-241.389691006485 16.9949968627355 20.7266950100861 0 0
222.235712081947 25.6712936442456 16.4415192353365 0 0
-84.0223420366434 -24.2614077117783 -2.03834600100518 0 0
-223.58536847959 -36.0678677267738 -12.0735659472255 0 0
-146.581210138985 -16.6592036823942 -16.004613193386 0 0
-233.013863753176 -28.109934948601 -22.0377083927297 0 0
190.806900806586 -5.57257242276051 -27.6284885719577 0 0
-168.545162544876 3.50919520026842 3.85737792032389 0 0
-13.568529438059 1.61286597777957 15.1422351759141 0 0
223.337618749643 9.97145886492725 8.17439510973308 0 0
39.1258001911151 -3.80044099961266 -2.44414266762116 0 0
-225.567535771002 55.9748561459255 0.369307101141042 0 0
-246.209504627673 20.7074581805064 -9.68181020915321 0 0
-3.83608440348309 -19.8263159456937 21.2445671741561 0 0
-41.5626449353244 -11.1635004959846 -4.2067260667579 0 0
-79.1922959819665 -8.02500431949078 18.159267523916 0 0
139.087325816444 16.0927269670144 14.3184864954811 0 0
-189.472239931477 13.6927450576842 -7.13336209678717 0 0
-227.770248181385 -13.4978880386746 -30.9599376792662 0 0
-5.30478385435402 1.14093542475492 18.0490150478415 0 0
27.8832090622658 -2.77133501755684 -1.41456425403752 0 0
180.274898170294 -4.25324327633986 22.063765228754 0 0
228.984010730372 38.8743150065274 -6.93934840314699 0 0
167.512546157123 9.21863577860199 -6.88160849393038 0 0
99.9215330288992 -16.2221145642149 0.554835716212481 0 0
211.036550434435 0.360097267219893 -11.9139675495368 0 0
187.671439958129 34.5087051333742 6.01361156703895 0 0
-62.0025374592528 -21.3621180032887 -0.368438331813947 0 0
185.277918068331 11.2972240670464 -12.7492719749847 0 0
145.765877245698 -16.4871086981433 -3.26294273626039 0 0
-42.3798925801772 -15.4675495335562 -1.66367371014446 0 0
-244.311874008289 53.9529762217731 1.5587100045705 0 0
174.796908633968 26.3880706419967 -7.88006333919023 0 0
146.465883218451 -17.4364474405769 14.2368218660721 0 0
-172.089359092487 10.7171042934291 -12.5500226708715 0 0
121.839748267627 -18.2185111551224 12.6378576105886 0 0
-216.283412155157 -11.6331263389461 -17.0302302133558 0 0
128.263650567157 0.623743149158439 23.5097018008644 0 0
-49.7899873189023 -15.2482664793423 -2.58241924154226 0 0
-169.652683854134 6.03351202725826 -4.34312290729673 0 0
-173.348676914316 -15.1672079214081 -20.6811794209849 0 0
-221.951678924287 -15.0967063993682 -23.4198103789068 0 0
219.741527836259 22.6037494620903 -31.189137690662 0 0
-154.558816223711 -1.74511015895145 -12.5203488072382 0 0
-133.00395154555 -9.77890927258734 11.6884050452834 0 0
22.4599858640959 3.5326902650877 17.0438940181207 0 0
214.27621659123 32.0515737086827 -35.8389551550802 0 0
84.2724281287762 7.87705875215373 7.07223039269788 0 0
-197.699637419087 -33.8728091653062 -6.09557868339751 0 0
-236.939928373423 24.7064294810006 26.8568168649563 0 0
-149.625298951728 -6.40386595816773 8.95367889602973 0 0
132.101991699508 5.65180318282277 -2.46074711589469 0 0
193.731893237266 45.4401209646066 -15.6077554166789 0 0
-207.449204625826 -5.48304072250193 -27.484810760057 0 0
9.81116289270869 -24.1159361281158 15.3100883012155 0 0
-231.566263936611 18.7223599038632 -11.9912397856841 0 0
-42.748627919977 -3.80558212869754 19.7157332619105 0 0
-232.142215265733 27.0658353653025 -17.5527395740388 0 0
196.6846813093 40.7893196969637 -26.5796787960887 0 0
-18.3114645619245 -15.2045232971811 -0.0374498884132835 0 0
-45.3309394206696 -19.045805640663 0.15523446731756 0 0
-134.612365478523 -2.87076040952107 -8.22978890619464 0 0
-220.521344067841 39.2555196087637 25.2494761893496 0 0
-222.588422837461 37.5249005793688 -15.7888836489758 0 0
-198.714680401572 17.1884157320536 2.75258892676042 0 0
219.86150225658 14.9842697738357 19.3542185098164 0 0
224.423975727608 10.1037153766786 0.803632219319375 0 0
-246.497399019703 52.4863332816614 2.24356658643901 0 0
192.553323463875 4.17158927118741 -17.22898843509 0 0
136.645321871753 -6.82463588950066 -6.80144806309732 0 0
222.617832883992 -10.6365743257667 10.7945297262163 0 0
218.639986250001 -9.58688689251879 -26.6314817048154 0 0
-8.71490415681533 -13.9694776441067 23.2754762882113 0 0
-223.273713966585 -32.2984938944732 -21.4797766594633 0 0
215.684129385672 34.5686690077902 8.89684705343955 0 0
168.992496765789 26.6003832243391 -1.83465695719285 0 0
-58.9200076740252 -26.2036277834646 13.852535402327 0 0
191.590504987264 33.8260854223688 -25.7309434369733 0 0
217.194273379086 -8.84531741128677 19.2692790563625 0 0
85.7655943936145 0.490347916691535 22.9942524281378 0 0
208.79882980973 44.5110787838734 -12.6155199566478 0 0
72.1970848733393 -11.3307702296101 24.4032238389401 0 0
-132.52125943522 -1.98300054554749 -6.98907475489226 0 0
-200.703479775425 -0.467877193801685 8.26435481156147 0 0
-87.9139255603898 -2.76831649419454 -2.80376319264565 0 0
196.994373254231 6.47194529988576 22.8346732552935 0 0
-206.365281892519 -39.393661469408 -9.05900689299448 0 0
-226.500472965411 44.2151496889486 25.7655161411858 0 0
-232.376984840621 0.875260657488403 3.13356753967125 0 0
160.263552756621 -18.909356989335 -1.86582479320996 0 0
225.468650387954 -24.480610813095 -16.401790080966 0 0
-71.3009668767459 -6.5846188457705 -4.76600549112863 0 0
-87.1801360389866 -1.12682765056066 -0.38957492426548 0 0
222.420188595451 -22.1369036854191 -25.9397667449003 0 0
187.358841168269 20.1520100686512 -16.1865991204315 0 0
-226.299642853963 54.7121679175214 9.66978710286988 0 0
204.584055214942 -33.0444761738188 -7.5623998669013 0 0
187.32563758386 -23.1926259656373 15.3156870009285 0 0
-178.520989387888 12.324708155994 -8.85434263018783 0 0
229.894861240263 29.0044937911021 6.42702231776502 0 0
-198.2778812266 4.15930433329032 -15.6204709237888 0 0
-198.272234696078 -2.35145600528674 -22.2742954970003 0 0
-48.6273323839493 -9.31813236840322 -4.98247434682894 0 0
17.2431674735726 -23.9064704839828 14.4381269738659 0 0
201.73920973614 -20.1272964787673 30.0717333755354 0 0
126.532731740534 -8.2062419139013 24.3832888876374 0 0
194.361541306836 -29.824996282775 -22.4829522511352 0 0
218.431182996811 0.778603916308424 -8.07538029024297 0 0
208.245246124644 43.819491178548 -22.6516979079103 0 0
-181.365160198701 12.3288077447247 -23.4406379817914 0 0
200.798807054778 18.2410437556228 -22.2497421490982 0 0
-162.825409195649 -28.1657898225631 -10.0211993822997 0 0
-205.457726321729 -17.4177250982369 -29.1072166329318 0 0
225.945912976897 29.917168949938 -26.4769215306072 0 0
222.390207777626 -3.69731001652836 5.24528791080252 0 0
-246.847464038439 30.7804502911332 -12.87095209005 0 0
-230.415629614208 -8.64297533149346 3.85293684180938 0 0
182.699506111237 -23.45853506182 -14.9742737730648 0 0
10.7830764568003 3.10058910254567 15.9392628936175 0 0
230.841733132682 33.8081144107404 -1.68524767144405 0 0
204.674350704395 20.8852498824248 -33.5013149110748 0 0
219.625798692984 4.54802055976678 11.6938417026882 0 0
216.569663567548 -5.98265963754075 -26.0719398383755 0 0
-0.900850741434424 -3.43030333717159 22.340445489203 0 0
-49.6835470170202 -2.42954855095799 -0.490939154390467 0 0
218.127083456805 36.6831968090318 4.08241768810534 0 0
187.446292676419 21.6398072759651 18.0300545608172 0 0
0.0815740069459374 -13.127251988148 23.6274121727663 0 0
-218.296359882243 24.0106323213615 -11.7054796068606 0 0
192.118109159108 -16.6973719340387 -33.3457562386263 0 0
220.592711285775 -7.11252272796192 -18.8178353318782 0 0
-104.374925694262 -11.829811678613 -8.91887688306985 0 0
190.79192299288 -27.0641430799547 3.35440179781118 0 0
168.041382805228 -7.96819933527265 -10.5465139423727 0 0
171.314388699938 7.27023840283078 21.217855925019 0 0
-172.615470006566 -26.4298266270156 0.756052159594315 0 0
45.3658989070769 -21.9343583940178 9.26753660456609 0 0
-198.293084000755 -2.19466268709703 -23.8192984595278 0 0
166.039678968522 25.2721384710398 -1.11754638333464 0 0
214.687790253184 -25.0011352087072 15.7075400130786 0 0
193.004157233216 27.0065432936924 15.1820770712562 0 0
-249.105931156457 27.0147413950633 -9.81247564201272 0 0
-238.021526725466 56.0030314876588 9.03362324624369 0 0
182.360719068347 23.1353121533642 14.0854345488 0 0
-73.8353833441334 -10.3963912817729 19.6526458713883 0 0
-219.113929863825 -10.8140068230326 -22.9714618793433 0 0
97.1639697797912 -16.9374316986198 1.73599892020753 0 0
-221.717399474794 -10.3774179950845 -27.19511216664 0 0
32.8047752447855 -3.67558637334175 23.3439391066122 0 0
-231.177393608425 -31.6920033711852 -16.5297087234697 0 0
-225.601189965823 -13.1980737201397 -25.4122845607763 0 0
-217.42166609638 49.3054054241019 -4.47644241854516 0 0
-177.15136547998 -29.0425904326342 -9.9866777727354 0 0
-192.421658593795 -5.67802173671368 -25.3668436479056 0 0
-98.0883286357793 -20.6299035174039 15.0956645817828 0 0
-31.4590793201874 -7.02058109033298 -4.0399566057385 0 0
-106.552397145939 0.140366011769557 0.322399904689958 0 0
204.822796746753 -11.7226929565755 29.1643316238307 0 0
-4.52182252895043 -1.54060124866611 21.0704767426339 0 0
178.048365572602 7.85974198518633 20.6125869507163 0 0
-137.465831628168 -29.4243633692042 -2.73914299011132 0 0
37.1399836674013 -23.0430780978903 13.5635380732153 0 0
206.471820947149 33.1797142151239 11.3972809612682 0 0
217.967843798872 28.7385286855771 15.2697313113436 0 0
97.8084216735995 -0.516472509011837 23.5660567236705 0 0
-211.995777141912 31.6469129983546 2.18213128700348 0 0
-189.698983731774 6.73284870917129 6.30943883460149 0 0
-141.92592840586 -1.21716417638336 7.7067709766801 0 0
-234.2271991056 1.85284960031313 6.28124328879357 0 0
-230.486021281885 -10.3263408501147 3.91749328214888 0 0
-47.7310377051881 0.130994574824487 14.4846318880424 0 0
188.796631428048 -7.31042110281775 25.8098677561664 0 0
-249.426478484758 18.7421087966877 13.0459286136907 0 0
42.8462525700841 4.45267385731077 18.0732554457971 0 0
175.846086040813 -22.4353185602766 6.06729931817083 0 0
199.749834118366 42.7238980038653 -27.0240590100328 0 0
-86.211707631455 -26.1741945323597 11.1093177910716 0 0
-229.522274672735 -11.4048370295083 -30.1360436194389 0 0
117.46040414305 14.3086932473742 11.5425582361338 0 0
217.59406674428 -11.5001314411098 -29.7334288212047 0 0
191.473322155545 30.0106246409628 -27.1071416792476 0 0
60.2706297069536 3.16007495079925 5.17878808754464 0 0
-48.9035139637529 0.612250423216512 11.4814181439737 0 0
-231.53537790425 11.7442321395507 -7.03593002007037 0 0
-232.216163031139 -10.0621721839164 -3.18888194423452 0 0
-254.470594156802 37.6187714665942 11.9662592557098 0 0
-227.462281159245 54.2414586491278 14.2354845847266 0 0
224.593703442514 26.1812460002231 -27.5083519082386 0 0
163.309117010908 -14.9131034265796 19.710551584566 0 0
147.996871505729 1.47630439719696 -6.21101959298566 0 0
199.147169449098 17.8075711251601 -24.6468790061741 0 0
219.635160370751 35.6804877883617 4.80362208923001 0 0
212.861835351002 -16.9325915041196 -35.1066902032504 0 0
80.2540878078634 -19.8468110696771 8.31581577940365 0 0
-211.455387374234 37.0305276978532 4.98160164039173 0 0
-119.695175070287 1.05675521123034 4.34080272043893 0 0
-10.8837559493696 -16.7373579794683 22.5330128503834 0 0
-175.722494360829 8.99223751908326 -21.9860452447013 0 0
218.704803708015 -27.1899948839834 -0.484954611807975 0 0
-83.1028597900322 -19.9230800996355 -5.35449365195232 0 0
-6.57300858025182 -1.94057290270585 0.693137111521308 0 0
-129.176038860067 -27.901408275062 -7.7077291044503 0 0
94.5322806883883 4.34322680808441 21.2775700948678 0 0
150.837113578909 3.35346905585544 22.7746078055162 0 0
69.7556721747615 -16.7782147673885 2.19335968097575 0 0
51.8508635798972 0.537741607435724 22.0163102554025 0 0
-132.809859499855 -18.0292644633993 -13.2376134462236 0 0
223.624259904869 -8.51589198051017 6.54904891622173 0 0
140.47922876557 17.2126954964182 11.8710072889392 0 0
220.553650008263 -9.14944520979006 -22.2649777086822 0 0
220.769315125596 -6.35752028846536 12.3344062402448 0 0
110.80296120543 -5.46555776189378 -4.75055272083491 0 0
-209.519576555581 41.580244151864 8.22860416762034 0 0
206.313882050192 -28.8756322529857 -27.1702648677333 0 0
214.098273290715 37.4922360261979 -35.9655032983162 0 0
-226.154564205641 -18.8222998135201 -31.0327592715722 0 0
193.465009407293 -13.2430431343182 30.0292186480444 0 0
-122.118805840624 -0.354005480476959 -2.77711813501152 0 0
-251.994854636594 45.7137803338957 9.32661780932568 0 0
-187.484221793248 -18.7560402479168 -23.1914969263713 0 0
-177.797809571762 3.83275766803962 6.51894212344126 0 0
217.754621053784 15.2410227056575 -11.819497891024 0 0
224.463376545732 -11.1463089001019 -11.480265216878 0 0
-193.950644030808 14.6654575689678 0.297838186828316 0 0
213.979035333469 -32.7652427881739 -29.4632531132152 0 0
0.425744144847706 -6.5256490746208 -4.45640213810075 0 0
-159.960773646664 -0.867456635808857 -14.3225213746614 0 0
224.506034674706 -8.21541665626021 0.0409553255292065 0 0
160.648663418207 10.7361540884603 -5.04576777496158 0 0
-190.271578888502 -8.72695698791703 -24.8931735376529 0 0
-234.288298046463 -30.803116918623 -4.31370356523211 0 0
-251.103436406151 36.1652548582445 -8.15495922592502 0 0
-233.724767339894 -18.0637508661572 2.83308103906068 0 0
182.376916697035 34.6681783375779 0.720530493296927 0 0
-171.131253498152 -4.13071806139282 7.9128274390922 0 0
-93.0010526888785 -14.6641065298156 17.894216089792 0 0
211.199457968559 -9.05316101549576 24.7887947390628 0 0
-231.47344136102 -21.0892072626751 3.42072391568895 0 0
199.831834036658 -0.779000431023652 24.9721041606976 0 0
75.2537272653593 -20.1373648822649 16.0389329058589 0 0
-153.337906795819 -29.1743259286452 -6.16697716091704 0 0
23.9946865143636 -22.8400155541786 9.54513389987545 0 0
-227.999881468203 -22.9470757607817 3.59811157294017 0 0
-8.96551065731408 -17.5424772514203 1.77449995777936 0 0
-88.7207390934518 -19.9544675927621 16.6785933087086 0 0
-197.980811688673 -33.9512430531463 -10.5018118273101 0 0
-127.188685533451 -23.2683957211497 -11.4880172316584 0 0
-224.221129262734 -20.0715256638579 -30.5732398599553 0 0
190.021419860427 -17.9109254736533 26.6786742839368 0 0
230.022482166352 23.6279970598985 -7.1860231609993 0 0
-44.2358416955419 -10.5477442171147 -4.81616056968154 0 0
120.109964922869 5.39857253056606 21.7273987169466 0 0
-236.807525098193 37.3904244097277 -17.2843449363147 0 0
-39.531938337293 -9.13425924425367 -4.65039216412669 0 0
-212.652202671724 -32.2931188190145 2.94241312441974 0 0
-20.8664698059876 -25.4386078070182 9.44335780764444 0 0
73.2533745649588 -18.8344172907643 19.4966248806811 0 0
-161.392054702853 -19.4831610639496 5.81468805422556 0 0
-209.513943785728 22.0658576563641 10.0301035067282 0 0
-228.696920837412 26.2763095735244 27.9045080890364 0 0
-202.91392291158 -36.2929295712164 -4.30701731489465 0 0
-215.929918695141 -10.4083390319598 -16.5718756779782 0 0
-109.53759882555 -14.7462475411212 -10.608877568141 0 0
215.794471163928 43.553811603622 -21.4002357092616 0 0
-240.698945185424 -18.0790435141537 -10.4697679961312 0 0
-23.2590680338208 -17.4784815334144 1.0593926870034 0 0
219.200542041417 23.4962797177606 19.3064052063189 0 0
-8.42056183484762 -2.10735275430954 -0.352701746098764 0 0
7.6419234068026 -12.6041977174561 23.8107225262244 0 0
-137.352257758617 -22.3193111710922 -12.6377316010927 0 0
176.707530671037 -12.9436167867106 23.4165503430096 0 0
-168.689837716253 -14.2866533936215 -19.7125077066849 0 0
-18.8046229278343 -24.4420855004232 7.69850315259316 0 0
223.553730839633 -6.77376230956495 -8.2292361397065 0 0
-117.089201613401 0.568790880319211 5.78585244759774 0 0
-5.01194122005683 -7.09272830275224 -4.50060995234077 0 0
17.6457732044244 -8.28839836740139 24.1074369917828 0 0
210.67724045012 9.9773710634412 -9.68368327769052 0 0
220.272535448375 -12.362695450999 16.5404063553004 0 0
-163.110017004871 2.60609129434486 4.3291828296744 0 0
-113.304321801183 -26.7769615724659 -6.24589511468734 0 0
184.385439584851 -24.9219056842416 5.45649454291812 0 0
-211.960162787595 6.22335491093601 12.0057011196584 0 0
179.564078513048 -18.8677530355007 18.5580810532613 0 0
192.165398483563 -25.9886031041835 9.68543299638351 0 0
-170.100736692833 -16.1191892560858 5.79210764854018 0 0
-10.2764597133611 1.30162674773567 10.0876436131564 0 0
-190.804688461601 1.90171123098465 -23.3795855245085 0 0
218.935631452484 41.8572532863787 -32.3763790987472 0 0
175.952281966668 30.2858351359396 -3.40821348983482 0 0
92.0967976844352 -18.8182197191552 15.9918644583349 0 0
49.9293100655197 1.15376136831072 4.10301810342915 0 0
-218.889442477544 44.6538668911745 21.7030646087024 0 0
-232.613289972783 52.7689336657274 6.09521495279535 0 0
188.595352966029 -6.82807133069426 -26.1275702665478 0 0
209.226972655027 -5.46460266370252 24.6655222422133 0 0
-57.8169546109852 0.272765441025821 6.91110411859315 0 0
198.938814179821 -5.684589883907 26.9789668811796 0 0
194.939553418926 -1.53186057365105 24.2891308203996 0 0
-41.5895231948143 -26.0131959321968 15.042295040939 0 0
-199.478282895477 -25.5812298911768 2.75856977427108 0 0
13.0852136771651 -1.00182794381797 21.6231482574355 0 0
-211.991341347098 -12.3462773832205 7.93268545987946 0 0
210.721442995389 -23.8273478420247 22.2800128471489 0 0
191.144167003593 20.1108349470127 -24.8818997866517 0 0
20.8781542830152 -1.88224046783841 0.250616051316829 0 0
223.586621280307 -4.91492702896725 -2.19905529320632 0 0
166.272681121429 4.75289438458733 21.8909857042519 0 0
-224.361591958899 -13.7401838563033 -15.0988053035007 0 0
207.438339274317 31.1619330811455 13.3578208919547 0 0
-161.246521019946 1.20642848079642 6.81638391852387 0 0
-139.738976649428 -20.7041465763946 -13.2790059913804 0 0
189.474839521231 20.2190496199935 -17.4430594352033 0 0
-11.5580196335448 -21.8740490305433 19.9411106654223 0 0
-182.373749068275 -5.3755267323636 7.22117332877957 0 0
223.271357373424 9.36182634866957 -3.77944341094065 0 0
229.532238621246 21.9840945597513 2.37767730906458 0 0
-220.704732321707 -14.7669572233229 -16.5289820407203 0 0
208.617445320079 -6.24619577875256 -26.746587482098 0 0
-202.582556134925 15.3494014664904 7.7806086053675 0 0
-98.3680338484117 -27.9707089852761 1.40960569504297 0 0
151.65423231783 -9.63583743953842 23.6437041376655 0 0
-37.6335210399351 -9.13172324250309 22.344936422484 0 0
-176.703457052964 -5.56050034786074 7.37199741798296 0 0
189.828487536612 -22.9868215968513 -29.7786716211892 0 0
-239.935188866517 14.2178534616737 -1.49473385221388 0 0
-161.744215276371 -29.1254140059015 -6.61990625933705 0 0
207.015917889955 41.4273735878083 1.8800066217051 0 0
185.839346167447 -22.6300297193451 -19.6244370063265 0 0
-200.906746493312 12.447551076342 8.22331364848084 0 0
-200.583632030599 -2.79617243170964 -21.8554646320228 0 0
198.277646118892 38.854820805263 6.751598705069 0 0
191.304029272207 -25.826999075843 7.942072189089 0 0
198.92775561471 -22.9291958972879 21.8163875649587 0 0
200.072163025556 11.5520774263305 -17.1051629015054 0 0
212.574819387561 -25.749928379867 11.7804792042057 0 0
200.96041649919 45.4265062771564 -4.83002299790198 0 0
-133.534180995241 -20.8741285756843 -12.4335550122483 0 0
83.9676627718066 -17.3865336013324 20.5282180158797 0 0
-195.834135872985 -10.5407991160394 6.13004877450815 0 0
60.2087609662001 6.53477992581318 10.0281877132467 0 0
-190.269994372192 -31.6356035018049 -7.10154407170235 0 0
-10.9432156178076 -1.09728453782772 3.48948507474208 0 0
-32.9508647522249 -9.92407697645436 -4.13471234164686 0 0
218.188980161595 8.3088580882569 -7.80243900523853 0 0
-13.6257027260142 -23.3175941595568 18.6197128920018 0 0
218.103155689687 16.6707068980647 -14.7724236542267 0 0
98.1623727541836 -8.60625931707217 -4.44607718382002 0 0
-19.5045419961746 -22.4386368833007 5.15721838049095 0 0
-243.468374659556 27.7339322180768 25.3070206661536 0 0
-236.522039051438 53.6852003890185 13.3535218990759 0 0
77.7154015792635 7.33652987768833 17.9029462207595 0 0
-232.941200009251 32.3466241677939 28.9500242160643 0 0
-207.790649047986 22.1083952125893 8.01298636214061 0 0
-130.215604398549 -25.4375759785015 5.56034986076009 0 0
85.7726969189434 -9.49574937361872 24.6328855222468 0 0
-189.793536208727 -26.0121540469684 1.96201878643591 0 0
211.929754937512 -26.0289664452747 8.62195486185067 0 0
5.30978490003357 2.83910410136443 13.8682483093647 0 0
-221.837891973661 -11.469534131669 -25.5272281089856 0 0
-235.079529680756 -17.3731284122068 -30.2501002782676 0 0
223.901780039614 42.7032936128543 -24.807272536862 0 0
207.541514576244 -5.12931643519134 25.4869047139344 0 0
27.1491840429746 4.27024611737833 15.485371487385 0 0
-103.03835942866 -18.6604387629645 -9.676617546398 0 0
-184.127871500747 -25.5831537122218 -17.7579049349776 0 0
212.818606258281 -5.63564465361105 21.9911264774524 0 0
219.102065213613 19.7688804842068 -27.1386630243743 0 0
-214.634856397835 35.5138373974481 -8.99238324830911 0 0
210.218599987696 -1.72299094673707 22.0812210918675 0 0
204.200748097388 -18.7570408855027 30.4039359643998 0 0
-228.528228121816 -33.6632127466181 -10.8504220060286 0 0
224.991522736047 -10.0892744330206 -5.04334065640199 0 0
-180.644937701695 3.82988823647875 6.84915996343963 0 0
196.912981269763 -2.88025247279163 -23.616273083653 0 0
-149.478080518724 2.68574802092675 0.599941444029708 0 0
221.925250261256 -4.25731538424219 7.54359241990426 0 0
-210.582262721454 5.60504549326916 -12.8275516325952 0 0
-75.6738238530112 -10.0440078126925 -6.40310030954764 0 0
194.056836031608 -29.2029661104474 0.292568049777234 0 0
93.6859456956102 -5.60785184624019 24.7091440140095 0 0
-171.445860652719 11.6880128326295 -14.7251780901645 0 0
-223.922322100833 -0.258617476414093 -8.97553173257004 0 0
202.002414993073 16.6941094115447 -26.5090239358941 0 0
209.500895432032 9.73051474245162 22.1509612277281 0 0
-235.326812520074 46.1209969887593 24.7352429203764 0 0
-217.568038457398 -39.198366927335 -8.93023869471422 0 0
222.561397295244 -2.14751007167483 1.82195682808007 0 0
-222.649463654055 0.285272107841923 11.8546749748214 0 0
-173.319244554679 5.12657046100423 1.869307968383 0 0
-237.008688510451 6.09155592205095 5.56354403616631 0 0
92.3164614449774 10.8449449465418 12.1859280619695 0 0
224.071953300687 -20.5736383106659 9.70865299697392 0 0
-216.556540212364 21.3013267947594 -10.5223877195784 0 0
-222.17625704797 -27.2382977283341 -26.2090886681285 0 0
135.076505650905 -13.5583395335536 21.4082791762876 0 0
-233.606911035777 53.676097830193 16.8027660002534 0 0
-46.095697862652 0.630083460183023 12.5628157931753 0 0
-210.07365125278 -39.5667739162133 -10.9495306434913 0 0
-221.989712669699 -13.584325784685 10.419135771905 0 0
188.090356375029 13.853161393941 20.822612606168 0 0
201.217335283636 15.8499717569199 -18.9773029618466 0 0
159.475902346821 -3.57297377005535 23.6096855291801 0 0
58.9850105509363 4.76619661822218 19.3836301158603 0 0
-238.763169065153 -25.446684790859 -8.68573866087436 0 0
210.262525890704 43.82407162257 -22.1154625456429 0 0
224.5073526151 -8.33432882489555 -3.66869831669882 0 0
100.810383581796 -18.8707961022692 12.1395042088582 0 0
-192.276900640404 10.9864943258792 4.23980101252459 0 0
158.813846620111 14.8738982359123 17.8915094060283 0 0
197.465050975982 40.348027694053 5.34823065391999 0 0
-206.803422089239 19.2642005906496 8.69623461548073 0 0
-23.810750832395 0.894717207158345 15.9127943532617 0 0
-212.159024049664 -21.1432695974844 4.75172964393654 0 0
-241.794882057561 11.3437094041006 14.3921520611125 0 0
129.446456845284 -13.9141000585101 -4.13563201234557 0 0
185.462918087552 -17.0579308169975 24.585869284416 0 0
-217.495209925377 33.0085997383361 -13.7882662310746 0 0
148.669166080406 18.5153624063862 11.0032908425618 0 0
-204.893024377221 -3.26812177703241 8.30407239805446 0 0
-187.431391104431 -4.10052969198505 -24.0177833769837 0 0
220.347405194419 27.7241548761445 -32.8359208707394 0 0
221.607139549991 -8.88571350304303 -18.5343325130088 0 0
214.052305384477 -29.0241370532088 -17.8391238579615 0 0
218.000778652183 22.7939419595299 20.331706675593 0 0
217.852755116588 43.5357261508168 -20.2066113627572 0 0
140.596080705032 -4.21152924283357 24.4179675906425 0 0
-155.822629721971 -7.14289471634332 8.4473288359282 0 0
-227.371824988725 8.61191300603989 18.3346129766312 0 0
105.241841687876 12.0359225477081 8.21567053213237 0 0
189.520186261863 -3.26470353290328 -17.1059727170765 0 0
-202.272188978491 16.3133428268508 -7.15432381687361 0 0
182.341363936075 -12.5849612614436 -16.3509262186325 0 0
-236.053508237412 -21.6518180468271 -0.314506089530703 0 0
-147.168151504208 -24.0806024190903 -13.2268232301885 0 0
-229.934107931781 16.9367464902079 -11.5523829278695 0 0
195.81562421173 -6.59078454404606 27.2177203597133 0 0
224.928261831179 -10.1647930081772 -3.27063557936557 0 0
-243.157887591483 46.6909621071957 -10.6753094087277 0 0
-26.5208250915056 -16.7605291939642 22.1218484970839 0 0
203.319785013503 -24.352261564705 -36.6944022486648 0 0
-221.126972601847 -15.1992377040042 -21.3942030483907 0 0
-34.062440095749 -2.79118618713611 -1.47235138797154 0 0
196.849494095471 -25.6776984689763 13.4403016302524 0 0
-250.480265311279 39.2280530792936 19.190475293358 0 0
207.273629244803 16.7414221000363 -29.765205903437 0 0
-182.052523025261 -2.22438041537408 -22.6385562627335 0 0
206.499750036329 -31.7164146316152 -4.43765621686025 0 0
221.582976855923 9.51251172265994 12.6820853489481 0 0
224.772148582319 14.3742727897327 10.5865470124429 0 0
174.092777171325 10.6074781784496 -8.39851441162683 0 0
-202.598495155157 0.675221297526804 8.64684789247705 0 0
200.258592114903 -28.1889268846598 -33.4420507439811 0 0
53.2077362482287 -14.8413645400447 23.6463294706574 0 0
-188.83829927982 -31.0954899958929 -9.16511689430733 0 0
-230.560648974201 51.1996215081718 9.32348640720318 0 0
221.287297291596 -2.59736205402721 8.1271311552991 0 0
-76.1914374135219 -22.3355695622318 16.3783488906424 0 0
-51.5018605268407 -5.22779202610262 -3.43887510803227 0 0
-209.197679010965 1.52845253996854 9.8596548173373 0 0
-196.057924925969 16.6978856065603 -1.91081769822457 0 0
-189.365412956857 -25.5580640773794 -19.5422353448878 0 0
-233.641518671681 53.8780336030025 4.50729278817323 0 0
193.143673086997 -20.6595486867627 24.5729313856615 0 0
-232.697362207889 41.1515730343833 -16.8023689002879 0 0
197.709358994325 21.7229046305103 21.8761007663622 0 0
-228.984891533029 38.533262749998 28.2569054714819 0 0
132.633375860091 -3.81122775244932 24.4538993923878 0 0
207.230969780325 -30.2261498292381 -19.7802725129694 0 0
201.128950896975 33.289282676371 -35.5437824800221 0 0
206.006689305295 40.6350656670166 3.20678771302214 0 0
-15.9814835894799 1.45127634243372 15.4169631745494 0 0
-58.4771743078242 -7.69919370439167 -4.78890920503595 0 0
213.879002805859 33.0037869284556 11.2551546066517 0 0
-246.726851636897 50.6505713744378 12.9410652930155 0 0
44.6606377218189 -7.41173808665507 24.5504952453577 0 0
53.5874775842418 6.76275243273474 14.2438656310539 0 0
221.167325007591 41.1107404909062 -31.1390999759057 0 0
193.43958230433 41.024903048663 4.50274166541508 0 0
164.55235374259 11.2353393183017 20.099968700931 0 0
195.966784179294 43.3292514550252 -22.8247600834612 0 0
179.084570471357 16.3473786284629 -11.1281404571642 0 0
-12.0637676435362 -25.5719463400631 13.1664112759971 0 0
111.265713044447 -17.9254945830728 15.4305463050204 0 0
147.734968015582 -18.375635584264 8.49208157607176 0 0
-255.432226401778 36.5652343451357 5.05723200046118 0 0
215.518822813368 -4.94708260257671 19.0563601483172 0 0
47.8544488692509 6.1765877959085 14.7987152420497 0 0
111.898567372329 13.2411576261759 8.51066223594225 0 0
213.508110685238 -22.8988998770733 21.7333515485981 0 0
-222.996827858258 -35.515336020973 -15.0552029913035 0 0
211.372822300585 43.3991761208696 -34.234645974712 0 0
-192.004676429228 -25.8725119303085 -20.2858719839038 0 0
93.372981694821 -5.49708244931553 -3.91171633023287 0 0
200.221084352012 45.643953976538 -10.370233115514 0 0
-241.525074265244 37.4720242753833 26.5153949516869 0 0
156.458320260182 -18.764762245271 1.87281658907734 0 0
191.38726927923 -2.12922755604858 -17.7702477465256 0 0
15.6513457468822 -20.6655527260669 5.28195607601002 0 0
134.61911735161 16.6776703822754 10.6931811851413 0 0
212.56851637605 36.5410439922187 6.87666869296329 0 0
-120.043377932061 -0.974914954390813 -3.47057490239026 0 0
146.777495908694 -16.0982568505315 17.8625876961192 0 0
210.508683679918 -28.993591777574 -21.3171915259094 0 0
223.369311160057 -23.9977885418642 3.89507744292088 0 0
220.145470766015 -9.92612474311971 15.6400606464351 0 0
-232.955486012255 44.4641454308889 -15.2505851443553 0 0
-35.5441618994019 -26.6151326577893 12.1118245041694 0 0
-150.344993905941 -15.1315276844525 8.87740336362557 0 0
-218.752437445721 2.30486410554899 -12.059089214568 0 0
127.666916109537 10.761896612416 0.573616120846568 0 0
-227.60787326769 -12.4844469282208 -24.4967292957614 0 0
-223.005355577785 23.9566312764657 25.499574541664 0 0
225.476373996062 -27.9061680570524 -10.4634632645003 0 0
23.0573684488707 -10.5280945415629 -2.04722843804569 0 0
-172.221140025937 6.14276741128676 -19.5452227987224 0 0
190.623061706212 11.604563156231 -16.5742668694709 0 0
-152.153556745155 -16.6553244279323 8.24837353366473 0 0
-208.233795349037 -39.9970884394241 -7.05282242366788 0 0
-82.136808047316 -27.8558930659716 7.38435944556343 0 0
-143.514180963698 -18.79865211358 -14.6582489980915 0 0
-229.132651484655 52.6962351440685 14.7796855701676 0 0
-205.652909414463 -25.6507269165853 3.15113120574497 0 0
-141.932183314416 -22.1579390133364 -13.2337319004118 0 0
2.71681241805984 -23.3102344263634 7.89151438992874 0 0
-228.163979036495 51.5733790207888 11.9150825078742 0 0
209.776895982566 39.8378909596158 3.5987415682667 0 0
202.889684669408 -33.3036072417747 -7.2949007013746 0 0
