"x" "y" "z" "f" "a"
-205.638435745819 -0.680610675085001 15.1640921269483 0 0
-175.250499607129 -4.60333825812697 -33.8582111979952 0 0
164.336877193953 -17.1111655426514 -2.9103286725463 0 0
-207.045597807371 22.3117853615308 -8.43492611864403 0 0
-170.828811421132 9.77770997466743 -26.15004637038 0 0
214.471415838611 34.8506149249009 -38.2422073194718 0 0
67.5439902908458 -3.39280419044578 -5.26568449873132 0 0
212.547131141745 33.4739645402181 -41.6927082988926 0 0
26.2795350368726 -11.8658839125356 24.3624473870226 0 0
0.0611833216537958 -3.07087917224536 25.4041918584592 0 0
163.956831813622 -19.6722769289798 4.65254606008503 0 0
216.111511996909 1.01612191296906 -8.45702608890449 0 0
-203.163545831369 -15.925309979451 -22.2604250859405 0 0
232.106103391081 -33.3014628552242 -8.97740502157793 0 0
184.897662871647 -0.226393131065714 23.2220055839496 0 0
-143.640426963687 -16.1930214371044 8.44539334661613 0 0
185.427781092254 -1.99860938248356 24.7613469667416 0 0
-198.55020414185 -7.49750504256507 -28.8450244546226 0 0
212.821700772373 29.4330191478882 -43.9287957646798 0 0
-227.401636566255 46.1757956762595 5.82281083544361 0 0
210.702282548401 41.2556218715798 -5.90855104601034 0 0
124.960780872011 13.4436837271679 17.2462176912138 0 0
57.0127180596492 -10.7295048397716 0.2706067031251 0 0
-150.920980311051 -11.2590862806611 8.66798795810814 0 0
-105.587583989577 1.04788825226808 -3.30851349438463 0 0
48.0336752091187 3.05396833371479 24.5397080108053 0 0
-225.350922778879 47.8726508515733 4.80845666622117 0 0
-211.902358863807 12.7637075926829 28.418017173833 0 0
196.443323237981 26.9784486212402 11.3231947909983 0 0
-213.979075646625 -6.50714267116433 -28.3036905626063 0 0
208.997427729606 -12.05033385583 -18.6780075932106 0 0
206.934723997074 36.7855175527883 -33.789225719821 0 0
127.897366333249 15.7281768689801 12.8783597000348 0 0
130.760145295682 -12.3481952554055 -1.54024367639636 0 0
200.011720430581 -20.5667472643687 29.3157355598513 0 0
200.167802898558 12.0452374790752 -26.3265506135014 0 0
211.786058387981 15.7314648251503 21.087049214361 0 0
-150.721743602464 6.43140764404798 -14.6371740102413 0 0
225.538084288996 -11.3573076580705 20.407643591 0 0
-222.640965869089 0.0984640979669666 15.5373955291158 0 0
191.276331719128 -8.87528160254503 -12.1840976909239 0 0
202.533753777878 37.6751108896288 -0.176050626828233 0 0
-211.901938437617 10.3661031615694 -11.8568476636984 0 0
-194.154963199231 -7.15726096147128 -34.2736825274552 0 0
227.980382658181 36.5594839762214 -7.75861049845614 0 0
70.8506330087828 0.834833886927819 -4.00577370228374 0 0
112.331009471909 3.11192024130252 -5.26484671091505 0 0
189.772461687917 -24.7214283736402 14.4889778760837 0 0
-225.530642950377 4.84105114028004 1.46839222462166 0 0
87.3297902547001 -15.3418110681104 6.79203473393913 0 0
-204.308069522484 -23.1607571816451 9.27531148709651 0 0
-238.000951293517 28.6361601673364 27.8578956937395 0 0
221.576954185309 37.2634823891173 -2.5070465896612 0 0
-215.006648452913 47.9276415166597 3.09396052663426 0 0
-143.808700202583 -20.1687524145886 6.88483375600473 0 0
205.758717564922 -20.8816448677693 -27.6915893319527 0 0
-121.673888707646 -1.94883733631459 -13.9976749845801 0 0
188.098318283288 29.7404572222893 1.32452381942816 0 0
-17.4992068311947 7.03358722424561 15.1645503598131 0 0
-41.1661487402156 5.36838134143278 13.3827971027626 0 0
-154.920371213129 9.44492301605179 -16.5297738092392 0 0
-145.718126853544 -27.330407555447 -3.65314505958436 0 0
225.472595504117 -41.6540991308948 -11.7507963599738 0 0
-228.242190607853 5.5462584290415 23.8753243410237 0 0
-63.2515912780641 -10.6726543021838 -10.045385277031 0 0
-103.280028000823 -22.7043695077224 -7.02437387034908 0 0
222.272339752095 34.2789003620544 2.44901924972621 0 0
194.344717907213 2.55120585732795 -15.7432393309405 0 0
196.149318808421 2.89319652873064 21.3073762873552 0 0
-93.845536726924 2.2400104351394 2.90025858128383 0 0
209.862782546059 9.96479704620249 21.1188932087972 0 0
212.995736074941 37.4608812017635 -34.6588460826319 0 0
133.804332011158 -11.7813882693102 22.919421056984 0 0
-171.614754130128 -19.8062642450379 3.77459348746607 0 0
-8.44838720277449 -17.7019468152643 6.13830567921546 0 0
-183.234272957696 -24.3392768526627 -32.237352937393 0 0
225.255890793964 38.0843704567448 -13.4002776381294 0 0
-176.630434810934 -3.4882844294585 -33.2468422339122 0 0
-123.789649310061 2.64740903864789 -2.74796093048638 0 0
-92.8389641203101 -9.10216705151333 -13.5380240269654 0 0
-233.932204529777 7.46315006779743 22.5148441291638 0 0
56.3145915164774 -11.5911903529173 23.5749359344989 0 0
206.605019214634 -24.1933011721267 27.6623986822077 0 0
31.9113622236163 -6.16821776164951 -4.70740800837766 0 0
-189.674654730185 0.326170681320821 12.2668686983549 0 0
-242.451598715464 11.2555957983897 2.57817869509242 0 0
-5.12787144777737 -14.9732031880269 2.56770749257105 0 0
190.550137771623 -2.07703706487953 25.4457352964032 0 0
-10.6083905547625 5.41465129762746 20.2855484244882 0 0
-199.477170365854 -15.0221031850994 12.160102812765 0 0
73.7515409304017 3.95578304670002 -2.2246874515384 0 0
100.361629113478 14.252799557585 11.0857987672965 0 0
-104.191375847318 -18.9083015496304 -12.8598931035784 0 0
206.647160717995 1.81180780307755 24.3425885672187 0 0
-225.764981152701 1.90991266678238 5.17159429604456 0 0
222.201439352605 24.9828185571653 -42.422063453203 0 0
137.353090234646 -16.9591769194104 6.41508674609777 0 0
214.642384566181 -16.945965890121 -25.8699188613728 0 0
71.3628435992814 -12.5196878173131 2.1404939654662 0 0
-221.673402660625 -18.488612762891 -20.0075143845415 0 0
-42.6112466781894 5.33705255499911 14.6559643396223 0 0
182.165184199428 -12.3317752977878 -9.23588071046616 0 0
-220.852018753026 -24.334422205841 -7.66403812152649 0 0
-154.632950455461 -27.6145675778979 -10.7390483532273 0 0
-151.800404385351 -6.28066879187219 -26.8501758890555 0 0
225.374765375037 -1.54450572549715 2.30668911210096 0 0
-212.673451180058 -14.6772802155664 3.16366069130837 0 0
192.019744022339 -13.9771480357657 -11.7807728680166 0 0
179.118013089205 -23.4837732053653 6.76115040807289 0 0
223.093856102191 -36.8208275617008 -2.94013492911325 0 0
-183.471543337747 -15.6670595905365 6.47133927902404 0 0
203.42657141632 28.2451358153548 12.5488376025757 0 0
-137.333227380023 -16.6321572071048 9.44693231715157 0 0
148.241623044961 -17.7868647165626 11.5444956984367 0 0
199.170045295452 16.5914397266125 17.9971938116701 0 0
219.064427889553 -36.352719271409 1.7965100614719 0 0
227.284063165392 30.9337322251802 6.03206458777079 0 0
-91.2154254207327 -21.4454026113433 -5.81187600324744 0 0
-234.285976955005 17.8192561506414 -12.152269572074 0 0
-73.1633264923241 0.73005020713228 -0.447885630731356 0 0
153.206357334097 18.7402675102966 5.05015297639958 0 0
-28.1899358908535 4.31619316182545 6.45383145902297 0 0
216.045939486621 -9.73998071633391 30.1201481926188 0 0
189.180329677333 7.91975120960687 18.9967962425025 0 0
-208.627886802135 -32.2717073240702 -5.48494522356622 0 0
199.834765471155 -29.3438385322526 14.9186075411427 0 0
219.031609883314 28.0938821947927 12.6581280893537 0 0
-154.756262699159 -23.9622248438275 -19.6724551766028 0 0
24.3031554336495 1.95713145817871 -2.11389291279318 0 0
-42.8578015976336 -0.529619673526328 -3.58072032338085 0 0
22.2860564352985 -12.7889981352855 2.20892004844459 0 0
-186.856930542748 -36.4429044545353 -4.71591013458253 0 0
119.562451464782 -12.8379052426577 21.5551917939812 0 0
101.21201510129 13.0101399940852 17.43738438149 0 0
220.812671428284 38.2355419494776 -31.272661809892 0 0
-235.942261155973 17.5164612201054 28.4151820336245 0 0
-182.98194548681 -35.1070271525557 -22.9885169517936 0 0
-234.300655202116 27.4432862117305 -13.0364468672667 0 0
227.911385236588 18.3070538186847 -36.7888032809317 0 0
-15.1679322980617 -1.94251328836389 -5.38368796476421 0 0
-203.153764470459 -24.7645865521113 -32.7737655672311 0 0
-127.682008516276 -4.99338043175564 -17.8974900233923 0 0
-213.221486621909 -11.1240789340165 3.66398540682557 0 0
196.491329684492 38.8031608879028 -22.3533096761332 0 0
-84.3067751526955 -1.49102885534302 -5.72874753870751 0 0
215.29335977135 33.8186569141647 -40.2332152971895 0 0
172.713365525058 -7.91865265944716 -7.94385241095861 0 0
-185.113409793961 -35.9188595958006 -22.5597927194415 0 0
180.689198621475 20.349964954318 12.4280762032349 0 0
203.445708484856 38.7006860870139 -1.5523126635571 0 0
178.377329752366 -10.4751449164557 26.3470374117232 0 0
-86.5921258122122 -2.77798573489385 18.4370559774216 0 0
238.589800501484 26.1162729996615 -12.9193433183249 0 0
-244.507692647681 23.863362249589 20.8716339076059 0 0
211.227997835161 30.9307660698666 9.72653426867069 0 0
-82.393503476734 -17.8727595575836 18.0994371611916 0 0
1.87093004050836 8.23983866679469 12.7394006802948 0 0
0.914183939668583 -13.8323446060119 23.8753338666801 0 0
190.950268239904 -6.22307861315847 -12.0367481616445 0 0
-87.8393493863941 -4.95351533884126 19.1638751209379 0 0
-194.54546942685 -29.9529261384661 -28.8816091776997 0 0
139.427220930524 -7.12314663187009 -6.66252274190919 0 0
145.642286309426 17.7300734632075 7.93052527997769 0 0
168.644980934127 -1.76044693087284 -8.10190425187197 0 0
-219.763919339201 1.35063021836628 18.623636725408 0 0
204.488365691944 0.357249891622925 25.6908319726712 0 0
222.26359886676 -5.09496808464402 -4.51635362696235 0 0
232.303859202997 16.7382168037577 -29.6930158386914 0 0
-203.622707121642 -18.2586071590689 12.4998203555616 0 0
163.417721157001 -11.9838162616179 -6.4922013090173 0 0
-234.274644697073 33.1732297021722 28.7348415124394 0 0
-161.552939150957 6.95830643750313 -5.19813392938014 0 0
76.0797353250232 8.20955119167949 1.41212852359018 0 0
-5.91529693835709 -14.8623543357195 23.3616254312918 0 0
-224.980840058582 28.8532128409319 33.0571712132712 0 0
-78.3161620536283 -21.4640545295244 15.9534949409651 0 0
207.797892165851 11.9268371567338 -27.2472504633149 0 0
227.887112781002 12.0672480842706 -23.7476419459022 0 0
43.1781160191266 10.4039851459178 9.48110702254201 0 0
224.138013425643 -1.0589220694405 -1.03527209999067 0 0
111.699141746974 -16.2798769407884 8.01306027341217 0 0
-202.221606542669 28.3241350252044 1.28749544604847 0 0
196.587985679978 2.06782899375459 -17.202913188837 0 0
154.162806444212 -11.8976573732713 -5.51662732367159 0 0
129.093692605184 10.1988241173752 20.2536773181624 0 0
40.9890178872129 -14.8577393669253 5.87801721562094 0 0
-177.113015144492 12.241707393453 -14.157485047193 0 0
88.1429035843338 -4.31027956032808 25.6997762899065 0 0
-203.851343808691 -32.3952547203425 -22.9724427323153 0 0
225.913265721092 13.0705831378449 -19.0691360252799 0 0
-25.8976638004194 -9.37268114571967 -5.39081128825438 0 0
-48.2879361908492 -18.5505076811295 0.312896457213834 0 0
-196.752693635449 -26.5220816777257 2.52213672937444 0 0
-193.928636772428 2.71674759213017 13.1208036528467 0 0
-202.306342795096 35.1440506429161 13.6209060306769 0 0
-242.357483972681 38.5726725346612 11.8067020224242 0 0
102.002283842957 -15.283867955367 5.35089120426196 0 0
-224.097248186886 23.0345152038344 -16.6199723113049 0 0
215.044409101521 31.1795020435089 9.10220083711513 0 0
211.244654557397 -19.7356547702966 33.141770029992 0 0
-188.939182306834 -14.231037266641 8.91251581625107 0 0
-207.527198640752 -30.5437270680904 -22.6897754840363 0 0
217.211147968239 -42.4757419071107 -22.4862783765567 0 0
-156.707901447003 -6.95832919674394 -28.9313444409806 0 0
199.142648759517 31.2814390853197 -34.4824079200808 0 0
-201.609455797648 26.6033393946292 -0.261189573234184 0 0
184.955060375599 1.17078593885541 22.0539637755133 0 0
219.452228795801 -41.5120755696699 -24.0258831546216 0 0
221.335762205328 -42.2172341073629 -15.1418468743428 0 0
25.7923032317178 -14.1485423604726 4.09423421369119 0 0
95.8990287853131 -12.460617256639 0.812593125433435 0 0
-171.595136479179 -12.2529631372598 6.68495366928328 0 0
-97.4219109470704 -6.22876086625164 -12.9056021408174 0 0
-213.697191482301 -4.96604310252555 -4.79627925561221 0 0
-77.1873848805749 -15.683570458596 -9.46232496575246 0 0
201.511155257204 40.6270776222588 -5.29632586138107 0 0
-48.6886741621125 3.466818344518 6.46140482608285 0 0
100.487272293831 -8.32284256443652 -3.22439192914722 0 0
148.062309519906 17.7589204559694 9.22602625939908 0 0
-197.979286273906 -14.5372823899047 -17.1583071733663 0 0
-87.4623032854741 -15.3981245807058 18.4471000163951 0 0
-217.463408362955 11.1511921236317 -10.2899844518676 0 0
-188.151273688063 -39.1211574363372 -15.3427328437482 0 0
-176.176002458902 10.4296999502018 -16.8880588529398 0 0
38.8138404282606 -10.7477531569532 0.540716398962588 0 0
149.507375061681 -11.6553185701855 -4.83136130885073 0 0
-202.892213085603 -11.0169206414792 13.5037223879235 0 0
180.616922757998 -3.64474383184299 25.6722523870444 0 0
-191.564734083944 -35.4086692060985 -5.28159313124211 0 0
-116.359317726794 -15.2101164241136 13.9316550610543 0 0
229.441086956018 -14.7684592089798 -2.67447632329942 0 0
213.061559591038 23.6140524876083 18.01182605121 0 0
-39.7536657346233 5.1941609058678 11.829858235513 0 0
-60.2700892504104 4.30744161863855 12.8672566516605 0 0
-205.314746817231 37.9523951255107 1.00847582482354 0 0
-235.703721917688 38.119714388163 24.5324865274775 0 0
-225.837180568803 36.2337272026085 30.4804950807365 0 0
145.774664872207 12.2775664218985 -3.98927692236927 0 0
24.6657593911794 5.69474333417181 22.8463690552011 0 0
-105.556606099911 -24.5742548166794 8.1057903142436 0 0
14.5898419084046 -8.00622648690566 -3.44945300662361 0 0
-122.213020864913 -7.29276519281307 -17.3708065512937 0 0
-6.29208218105931 7.43126151437372 11.7710567723351 0 0
-226.371625209929 11.6641725316663 -11.9252327712274 0 0
169.067378177061 19.9215366832235 10.2878768924062 0 0
-219.452138470112 -14.255707243417 -19.9828815029151 0 0
-132.987852565454 -4.99320385718105 11.5475149236955 0 0
202.997226634499 -18.6044978405963 32.0318960343718 0 0
152.836442262392 9.09963982429995 -6.70723887925936 0 0
-119.031143354595 -17.2151239705877 -17.0948772691579 0 0
-229.381952671926 15.727085571618 31.087197421806 0 0
192.616466420612 22.8624232855789 -24.1030527685724 0 0
-10.6583151880717 -13.8590670545306 0.599262611494327 0 0
31.1451621206459 3.284725915802 24.4842994044587 0 0
197.654935516815 -33.5038262052658 6.15583417677872 0 0
193.638647676981 -12.4019703850008 -13.232055856019 0 0
-211.242788943197 6.66365296579328 -10.3487988791846 0 0
-75.9732764176496 3.07968357310216 9.68252383843194 0 0
-244.694820977487 29.4081022129315 -1.16362590632705 0 0
-184.53547918604 -3.23486303498054 -26.0400783132489 0 0
156.334988041486 16.862110103083 -2.88284148889139 0 0
-93.93231380132 -25.0067452277666 3.48566947214185 0 0
187.157443090173 -24.4933109725466 12.3506110616532 0 0
120.686134546598 15.1239043328089 5.38711482424175 0 0
-202.133461018903 -16.4663355948024 13.0099343989473 0 0
-46.6823763416262 -3.15145075908155 23.3545688393174 0 0
211.188209028011 -12.7536567775263 -18.3029841723867 0 0
179.149559151084 3.6354501444493 21.5144023628726 0 0
-149.124292066841 -17.152623006201 7.18607795644829 0 0
211.671810025597 27.0196058689167 14.2386615951877 0 0
206.82940635329 -14.3828235356226 34.6760503972909 0 0
-58.5361271842058 -12.6914183002026 -7.98616690507149 0 0
16.6741663993403 0.913774066317258 25.0753227089328 0 0
172.275065612457 -21.6498453022852 1.97678475338944 0 0
23.376450712799 -2.29712556882964 -5.82329326838046 0 0
214.143959540697 10.0400964766237 -32.7827838027101 0 0
169.612076610343 -4.14939999168559 -7.9599301447937 0 0
205.520929363062 10.4981076752799 -23.200568772085 0 0
223.336786944689 -6.82995464354519 18.9941793021116 0 0
-222.953672538769 7.74526053659864 -4.53096203112668 0 0
203.72130074594 -31.4763924308822 13.430365171295 0 0
222.784735139955 -2.65775785271956 15.1960104257033 0 0
-210.54981250677 14.8584066580518 -12.4621847563708 0 0
193.786697297375 -29.9829234363165 -20.0957922771551 0 0
212.617928908529 -41.4174561385135 -21.6612018042923 0 0
165.004673671851 -18.8230691365889 0.239899238188212 0 0
214.505277490852 39.101119720534 -27.3332328352568 0 0
160.726725947015 19.9860966635373 2.24456985650431 0 0
228.024276411511 -14.6455912545462 18.4884439872045 0 0
223.808267641619 -5.03452013884283 15.9269579001794 0 0
52.6902649082406 -12.5894878533818 2.70482282472926 0 0
115.216188181834 14.7682438088808 6.23446808298053 0 0
186.781119236641 -7.82255938336434 -10.3108186965605 0 0
154.150515856992 -13.409643592959 22.3719769804797 0 0
205.595008379613 -18.8752240742323 32.2895182737904 0 0
229.91485717486 -22.719248150238 13.4888053758711 0 0
157.292419410111 18.3218547894521 10.7833279647881 0 0
118.838960966798 8.29032908889796 21.7831795044989 0 0
-209.464923701888 -12.5694095393039 9.98168096803219 0 0
207.068950048667 -26.1037106008718 -29.135804790121 0 0
119.849819247582 -11.3964351857263 -1.84237167902591 0 0
204.251065637263 -20.5643698887478 31.2711229366797 0 0
223.848627498646 -27.5192796559984 14.625655745758 0 0
-184.575509846586 13.7755330912257 1.23864514821336 0 0
-82.8784472059913 2.818543753872 7.92817817856537 0 0
-163.526193704258 -29.4751580497841 -8.07269099240425 0 0
-51.8774124599058 -21.3545435798313 3.94591255360234 0 0
-102.068962439268 -19.9793792431697 14.1781302025093 0 0
167.434569437103 0.920825514849388 -8.28573978120825 0 0
76.683765635937 10.9892007623346 5.90695912841613 0 0
-199.710291332919 -31.646465961653 -0.946279628109533 0 0
-196.160736659372 -32.7566621377832 -26.6295297189424 0 0
-203.515163925778 27.2627758230212 20.6628414193321 0 0
-73.6937929081701 2.37145341676653 14.9812431581537 0 0
-218.41512546498 5.46523675487618 24.729873397355 0 0
-73.4024204842534 -1.52904209137601 -5.15871731121959 0 0
-219.120918484988 48.4952266618563 16.3324981253142 0 0
-209.211711461833 -30.6327558659122 -3.39618426473663 0 0
191.715184291879 -5.1815820245763 28.2246869267216 0 0
175.598476010588 -22.8362412754731 4.37520867654498 0 0
-219.363214081462 -21.1240512998215 -24.1376998133041 0 0
81.7924609912219 -9.903510612641 -1.18290326476627 0 0
99.1885954069551 1.88478327971104 24.8995999149717 0 0
198.304023830669 -32.7345920161251 8.0759009802306 0 0
-152.082250582194 5.55165260819587 -3.69838258677495 0 0
-16.6500108916742 -10.4740964786449 -3.39287660544348 0 0
-213.278013875157 -6.00217254399349 9.03843862045851 0 0
18.8654448942416 -14.637694771501 22.9599686788696 0 0
207.367684286953 37.7640076550626 -31.6328271663324 0 0
129.665675881168 16.4746829223153 7.79935084373763 0 0
130.264192076618 12.4441122979078 18.2951058278038 0 0
-218.131543946236 44.5308064611915 -6.89255348180973 0 0
-238.522955771136 32.1517701766991 26.0426687862411 0 0
195.392352363166 -39.683846228204 -5.33753060378794 0 0
-210.394523028226 2.84485112874044 -9.25350222282682 0 0
-77.9019084203904 -7.99692747960509 20.9360913354536 0 0
110.701354984734 -4.7848409993743 25.7113408556076 0 0
224.432781350799 -10.8936416944839 -11.3058083702373 0 0
210.968939189919 23.5892985472397 17.7687849079445 0 0
-245.451038293181 32.5267642413681 14.5121143052824 0 0
228.347031004075 23.6621924751966 12.7768387641567 0 0
-188.762990523686 -21.2168126108747 4.47018776033521 0 0
-214.080545259925 12.7505155458348 29.4504938393169 0 0
-220.94589253565 -25.6556818873283 -9.16799319157188 0 0
-145.860570372274 -0.890382614855048 -23.3386108870165 0 0
223.221402920731 -0.45353542598907 -2.88740713279949 0 0
-211.834882233981 16.3507928500202 -13.1837649558495 0 0
-226.556040641812 43.5391892418059 -7.7882730865179 0 0
63.1954957312079 3.78520497748784 24.2992175216957 0 0
65.8349320160845 -11.860305202402 1.43533269003473 0 0
182.113765926744 4.26971777298842 20.9476171515865 0 0
-238.910647831165 10.3551584465587 -3.32090746345068 0 0
-31.7465854373261 -15.2360563613678 -0.82227620963414 0 0
225.961058085844 -11.4131073539994 -9.0589220324004 0 0
-217.359117295968 -20.9555220512713 -25.8975143646103 0 0
212.431142665205 -4.12869908437303 -11.7985060241322 0 0
-75.2375528199594 3.07729415242346 12.4282478641134 0 0
27.3396278490044 -17.8345843409627 13.4917614446484 0 0
-244.372769276179 15.9881955416717 0.693491641201829 0 0
-238.494843822062 35.2873479743271 -6.84687123115271 0 0
195.393801751325 -22.2738785136778 24.3247801268487 0 0
77.6403397888501 -12.2389191005919 1.49730714708691 0 0
-58.9014641180186 -20.8899885189332 1.53076239287234 0 0
-166.659391785306 14.096705767943 -27.7938181015763 0 0
-213.501946608201 37.849365950824 28.5950735753101 0 0
210.946377352179 -38.1026550785612 -27.9387617192953 0 0
158.699436796179 2.32871166185995 23.646799961459 0 0
-115.573111475758 -10.5287447908834 -17.402036755332 0 0
45.2296569224773 2.29703168530647 24.7728895555729 0 0
-66.6675710208168 1.50846109968868 1.52590819724888 0 0
224.056715622191 31.3521221720577 7.0393339757922 0 0
95.9788382068691 1.03468430738328 25.1137628474205 0 0
155.510234526387 -17.8244905763972 3.62821642693986 0 0
237.236097445907 25.1380678281499 -2.430316244976 0 0
184.491266123909 15.287983176076 -14.7114398865326 0 0
-233.326456034638 42.9385041944105 19.787859618459 0 0
-144.651282591723 -6.13785767910452 9.91306432918411 0 0
181.361161693219 -5.31864687224542 26.4723388561496 0 0
187.528675772749 -2.21323540057489 -10.6468199414004 0 0
-144.872624493451 -9.10982289643813 9.8968064040045 0 0
-172.739352268592 -11.1799160942462 -33.5403669862577 0 0
-99.2674948485208 -4.58973800732557 17.2392363467279 0 0
-140.564409826245 1.89181754807444 -16.9686408508009 0 0
-180.050195049689 -12.5095795278958 -35.8322086002055 0 0
217.681719400392 -28.9535705827243 13.9967790724058 0 0
209.966881670459 42.942302395334 -10.6463605399838 0 0
7.74307161890547 3.82101954584551 23.3864331479875 0 0
224.331425078245 -6.40414677260054 -4.59284792708409 0 0
-184.222107559033 13.517757156807 -10.173502589691 0 0
-155.484422929543 -15.6675921565676 6.76133563089885 0 0
192.942295606419 37.3053401523429 -9.34522599048127 0 0
209.325515891297 34.5457122766055 5.60088872530953 0 0
104.670207096709 3.12499394861662 24.529282548979 0 0
-101.961380275455 1.85939202736557 0.0628338798326052 0 0
189.531875391937 -25.9910367371677 -11.2765883886255 0 0
157.862937103495 -15.6001169301107 19.7477523974765 0 0
-167.509586867513 -30.4638134553425 -7.9438839728636 0 0
-210.404419787396 -7.7647062425423 -9.78965975190154 0 0
193.811063057535 36.3149649649367 -3.6579437297551 0 0
214.909628954969 -38.4616429223732 0.34511725293194 0 0
-139.712832773056 -13.0060005421587 10.075767112675 0 0
21.8206919474221 -17.9920062615318 12.7179709871087 0 0
-156.062035144732 1.32222275328741 7.60369928364401 0 0
-43.2213764436388 -17.2954599082751 21.3960073261017 0 0
-96.4295049113977 1.44563797343969 -0.57196621964567 0 0
40.0719130195792 -15.9665019863176 19.8380657234833 0 0
188.534106749559 5.81271612285125 19.65435089896 0 0
112.322994333013 -15.9601363278125 15.5751385589802 0 0
204.61100997778 -1.32098574762457 -17.1028930911215 0 0
-221.172061798785 17.9706115763143 -15.8030715161603 0 0
197.243152538034 40.6987412983127 -20.7752943088059 0 0
206.805883178615 3.22110238799078 23.2790975867926 0 0
-68.1134281232901 2.73054282584304 15.6234514621426 0 0
226.259515919493 33.8689287602091 -0.194074197515374 0 0
230.678693611313 -20.363850175273 -8.51340658863209 0 0
114.902005989257 -14.9753495085873 18.2291922304895 0 0
-244.390346022817 34.1276967754786 2.05766735940972 0 0
180.651078835618 26.0024987643511 1.74554109785033 0 0
9.43250927575236 8.96533591165401 14.5291749255781 0 0
193.703578601651 -11.7469316723461 31.3622487911412 0 0
211.405161113453 19.1790028060602 -42.3215251433048 0 0
197.825567582464 31.0850014472774 -30.1826091674707 0 0
206.408745307582 13.6733460249509 -36.7279602890865 0 0
213.559023073086 12.1930763822007 -28.3341592008098 0 0
222.670344056411 38.5373798380267 -23.6176610506273 0 0
-137.665372003996 -22.8803724596068 5.92552124150831 0 0
-111.31809068981 -24.6440857935802 7.55061860419132 0 0
200.726344218336 -31.889487909507 -26.9491022401782 0 0
186.874722172586 -30.0447705370608 -5.0422270863989 0 0
-165.714683726759 5.38098620250558 -31.51519215874 0 0
50.6190377045308 7.27978428377271 22.426386734981 0 0
207.599461383459 16.4795642392274 19.1794725950974 0 0
-182.99157881116 -0.442043276143345 -22.8243076067438 0 0
193.473313372103 17.4415248390163 -22.5568489175135 0 0
91.0612479140699 -2.65119706377546 25.7168996704236 0 0
-137.815296461942 -11.1748450323418 10.8077561845254 0 0
207.920971431163 -19.7116043545195 -27.4684605458678 0 0
-180.928550355034 -1.48865458309984 -26.484336207285 0 0
-26.2718159434221 6.32037025869054 15.394251993788 0 0
-212.529637591239 -20.5124114085747 2.95838479665349 0 0
15.9104649169178 -1.31380112249174 -5.32116600606403 0 0
-149.278026609912 -13.4642137815593 8.43926621915473 0 0
53.2405281717068 9.03920107435117 20.8846526176454 0 0
-214.219879991617 39.2989844520765 -11.1580616503456 0 0
226.8769994649 23.381873708193 -39.4587404238481 0 0
-218.859554694779 -9.03678531511903 -31.151885421811 0 0
-211.379079926139 47.4188989323879 8.99979098377063 0 0
220.731702992096 -7.78499591531399 -7.25673706641806 0 0
-13.8022015755129 3.86782229966748 3.00181671180804 0 0
-142.924432707672 -27.1388827588889 -5.31427726207357 0 0
8.2361006722467 8.59175064162368 16.5408451377151 0 0
212.044079271319 -38.9378786661496 -11.2625385967555 0 0
193.438524291232 -16.2146885962099 30.006564525434 0 0
98.028532419458 -4.96475819962614 25.6789868457721 0 0
181.93068653997 3.70084430038884 -11.0085946568763 0 0
218.688024167364 -11.9823364314106 -13.707791551706 0 0
-64.1133906246498 -3.14424737340544 -6.98246354451228 0 0
202.901785555432 32.8480932010139 6.25930587102521 0 0
-174.280405497577 11.7472410844678 -17.1757928101998 0 0
-123.507080747845 -12.6008194657458 13.2370109853493 0 0
36.2572180122089 -15.4386898107848 20.9520800844154 0 0
222.162483875456 6.14986831317922 -8.64910028949211 0 0
216.60186410907 -10.8651173725685 -12.2420424570395 0 0
165.339375613418 -19.7064872167917 3.00087191843132 0 0
232.946614817872 -27.1600704393962 -1.24702556124296 0 0
-133.392857945063 0.735660910779933 -14.7427352344445 0 0
-12.8787261864533 0.806795323971415 24.1085774034842 0 0
-203.115779024939 39.1682988280086 8.90176425232106 0 0
-107.463444951705 2.27996605973719 7.9499924742943 0 0
207.166652905781 -35.8827572384052 6.54483075835465 0 0
61.1488890845793 -9.96969401741995 -0.455284330862055 0 0
131.649154163917 1.35267452832932 24.9269574348878 0 0
-19.2437556466905 4.0665187222717 4.26373632965261 0 0
-86.7881296088696 1.24544817426085 -0.10426521755591 0 0
-240.360621441755 30.5470598769285 24.9627229413734 0 0
-210.772968799351 -8.20773147389383 10.4107688557436 0 0
-229.815012317289 7.89457863710611 25.6894936852116 0 0
146.585396148151 -0.959539772195124 -7.04566436221603 0 0
185.965541995992 -17.5212186927753 -10.2426027349613 0 0
219.455515776076 30.9712240294751 8.88203206271434 0 0
-12.2280100336127 7.01791646830829 11.7032450703701 0 0
-196.898463306191 -33.5061382334619 -3.12407070946541 0 0
185.460635581935 -28.9376726973045 -3.83895681615968 0 0
220.401598577599 7.74431370197424 16.6193182580729 0 0
-117.348846135804 -1.69817049130826 -12.1335206189797 0 0
215.506012247894 29.6718843521316 11.0971284455256 0 0
-213.194763651643 19.5275949283348 31.9472047424507 0 0
-240.969245965829 22.8464494510279 -7.74363161324904 0 0
228.346296848378 -22.8165426797688 -17.8939336914895 0 0
-205.881514691604 34.587649251982 23.858550877022 0 0
214.693129878623 -14.7731303983623 -19.1132665380916 0 0
81.1658042538792 3.4232848653289 -2.97539331769939 0 0
222.046985486076 37.1332420220317 -37.2919634354042 0 0
-221.019452035942 14.5199194383274 -14.1320444244466 0 0
-183.38192691494 -10.7821566594518 -36.5771579070248 0 0
129.873753154692 -3.48909836905241 25.849507220071 0 0
199.502392286958 -16.1519720370017 -23.2366128833222 0 0
-166.883442838541 5.14223484659337 -29.9527050593865 0 0
140.557258306813 -17.463371057704 11.1804344087228 0 0
-24.3488635616733 2.55486843513394 22.0174779800652 0 0
-200.589107623235 -16.013800777376 -17.3277612949115 0 0
-137.445864461057 -5.09549232234667 -20.7327727229686 0 0
191.34748693439 33.4733879519759 -2.16351909181371 0 0
121.289803739515 6.894510447166 22.5430645189825 0 0
57.1579210558313 -14.0000641040899 4.88186565650723 0 0
-219.172996072557 2.26548551959415 20.2528092684721 0 0
224.517211754779 11.0163921080513 -27.4654563114069 0 0
224.681953494573 30.0223645877083 9.21811951997239 0 0
-170.687943173572 3.39716751299557 -30.1917098376042 0 0
-245.620588962919 33.7510224300967 7.06919599065928 0 0
86.5831021147668 -10.7881178388165 -0.528161037325936 0 0
-125.833827876626 -3.69999467629239 12.4439927490187 0 0
-27.2609184062022 -5.08288841149967 24.8929657549353 0 0
-32.4057783177067 -5.93652889509738 24.6576544731165 0 0
161.834223273304 11.5262376505308 18.7705765528346 0 0
-191.9655492377 -17.2175929491855 7.99094969075598 0 0
127.100600615445 -12.6104224331215 -0.953726572665522 0 0
-222.304430823647 38.6485165665209 -12.8711348020104 0 0
52.9190260724708 -9.10471341045862 -1.20439257338658 0 0
-245.510632573359 21.6884854153809 -0.453024349709633 0 0
71.5473013806158 4.97592916208015 -1.29234429359399 0 0
232.978708024354 -28.1536435631064 -4.56486352106301 0 4
74.6337825923268 -15.2939248062014 7.35573106121606 0 0
-198.920983617162 -30.4777856963852 0.430148884430901 0 0
-221.018016093613 -15.8493634776988 -19.9398178897214 0 0
-169.606835407504 -30.9467536216745 -12.8654433589009 0 0
-203.9171210309 -9.40579350266795 -12.3329844852847 0 0
62.6626044218706 -15.8369869752498 17.5313443626272 0 0
20.260681965025 -0.221387325364905 -4.69916129137553 0 0
-42.0506862883868 -19.3245416793144 19.7869075407131 0 0
-131.85694773391 -26.1746531713072 1.27324867870693 0 0
-142.283816959586 -13.0051906144343 -23.1537932241078 0 0
-30.2289564260256 -21.4833960004458 10.6688347957777 0 0
199.40392655077 32.9464383364759 -31.8718211813598 0 0
-182.179563933585 -33.0289319782026 -25.6654886762262 0 0
-205.874361123165 -34.9154403870615 -10.2432986957809 0 0
51.4735264663588 -2.42536993487622 25.2762861478363 0 0
78.7472491596423 -15.0082311257094 6.31887345911427 0 0
-180.269993841363 7.52607511740928 -16.9428077612994 0 0
154.518663300113 -1.81157623296029 -7.28370265521682 0 0
158.907795825128 12.9121792322644 -7.16447977635429 0 0
-33.3712761882317 4.39678790672321 7.73532731464906 0 0
-161.975737673452 9.50805353404209 -11.8517694255542 0 0
166.937777295538 15.2714315808069 16.0365663578661 0 0
-218.036972065619 10.3618856192875 29.1877503884477 0 0
-184.701766087352 10.8529610394932 -12.7738148673355 0 0
198.043844166341 29.0780184498999 -35.868804926393 0 0
-144.756282829088 1.09610609507294 -21.8262083119547 0 0
-135.586249485719 -21.6524962251678 -17.0276709782682 0 0
-146.991202368676 -19.7925903864485 6.56834305883672 0 0
-36.3197491697236 2.53605258002292 20.911577204512 0 0
-207.735317096704 36.2078774231826 25.6078892283113 0 0
160.301568100771 6.01585089669653 21.9953662530257 0 0
-224.789902535008 -0.549908339342193 9.83403454304768 0 0
16.5028135397583 -13.4911322197851 23.7898447686805 0 0
-124.541462648126 -23.7387973816043 7.06757838773412 0 0
197.833514050093 -15.2506209369095 32.2127294385293 0 0
-226.676396457094 37.0215655819212 -13.0088614905368 0 0
59.2172285245228 6.75174411057878 1.07810131122887 0 0
-218.152184100719 34.9805988547485 -14.6577890475275 0 0
-59.0536121929354 -2.36515034757663 -5.8367554369889 0 0
-89.6938278890188 -12.7375625145322 -13.0106392420573 0 0
-82.8490425502807 -17.8060107825806 -8.93998572510223 0 0
229.031788113671 32.3339286183712 2.61466682032244 0 0
-235.727100145266 6.43570045089575 19.1233167943383 0 0
-216.820334401585 -29.8781290263182 -11.824152931837 0 0
-246.162064311173 18.6623714071366 3.5058789776857 0 0
219.199849309141 12.2644211197963 -25.2943002931581 0 0
-158.924597787101 6.368771420511 -4.51752553229336 0 0
-214.25582418755 -13.8252303951343 -33.4951936590614 0 0
-193.562937208443 9.5861260722245 12.707208807915 0 0
-219.033729210506 -18.1559727227198 -7.40844529071844 0 0
-222.923654849762 36.477477362831 -14.0387242366637 0 0
81.555987014046 11.5554984837123 6.36787005584976 0 0
-47.7553441295019 1.48377427106126 20.6680892292444 0 0
-136.16409104509 3.47375097156305 -4.5801473852952 0 0
-197.930650302204 -1.15209193058413 13.5247725455196 0 0
-1.6266413667505 2.28593347280004 -1.03140075504969 0 0
-13.7366780713392 -17.7363826512073 5.30881487632193 0 0
3.09219855370967 7.92402060819777 10.7861835286827 0 0
-144.453992795085 4.46645557880518 -8.4686216190468 0 0
-25.3466633752802 0.614941336787961 23.380238219499 0 0
206.103751371882 18.4319734588107 19.1268495062807 0 0
196.303861227034 13.4789116865258 -25.9747121741878 0 0
211.340201305288 -21.4464792268085 -28.3746152565129 0 0
-160.178595859649 5.24052785556862 1.83349947832033 0 0
-29.263625984167 -21.1384735848975 16.6256316754155 0 0
45.9712690901072 -11.6129887664746 1.51941438588452 0 0
188.573036930939 4.87963592544731 -13.5175373604781 0 0
60.3401445922775 -2.89824132976708 25.3553832384877 0 0
194.332020159091 39.8516924914692 -12.1653552804146 0 0
213.023958571924 7.53237565668532 -16.062110929262 0 0
-230.859650950783 40.963742291628 11.4011074775691 0 0
217.98591839574 39.1097356731998 -26.5355869162254 0 0
220.770181086551 21.7107903210202 19.8966704223369 0 0
-101.438113440711 0.317417522649261 -4.2746367906504 0 0
230.069692017824 28.0999493175066 8.30129966707926 0 0
174.555774216962 -21.0311638025165 -3.87766368543272 0 0
203.208653156929 30.2013328634847 10.1213108407275 0 0
-203.847178658232 20.1773443645299 23.5335313401243 0 0
-243.97254125175 28.1925131653439 -3.0097560225348 0 0
195.367152587387 25.9221946689454 -31.1256591944278 0 0
37.8274325573505 5.00149855545714 0.762464412493928 0 0
119.658776539717 -15.5647171275059 4.45630187606859 0 0
-65.8674665905966 -6.01360111015424 22.1606427461933 0 0
-234.696103424367 26.6398902700364 30.5177347476658 0 0
-224.692618839407 8.82129658204993 -5.38037075758853 0 0
-238.073940688379 6.01208118753827 13.1858510313524 0 0
117.705683815082 -0.563531512925366 -6.03353778077105 0 0
-205.212032370182 -34.1714191033394 -7.65014859528257 0 0
-209.031952283417 -30.724438632804 -20.6934532842481 0 0
-197.181673597775 7.55312134781976 -12.7525885079672 0 0
199.135228319387 41.362552953438 -10.6093394036531 0 0
-182.768906154874 -1.9750639429096 11.1705590678087 0 0
-59.3905877125785 1.17820659348728 19.4240280405068 0 0
-238.617950418037 26.7473372415842 27.845474795516 0 0
187.014233008678 -20.3969309428224 -10.5418619842824 0 0
24.9418468956033 -3.20509179327076 -5.81139860600012 0 0
-21.6291544128319 -11.5835599780974 24.4381158462695 0 0
-151.956331155645 -21.278985079739 -21.7471089049924 0 0
-1.43945711667439 -18.6629031365194 19.5823343624527 0 0
93.3112406151116 9.00529670578905 0.510317913877864 0 0
227.282984607384 -9.85634960418254 14.4383543869756 0 0
-166.393626282752 14.168545815588 -16.6877827064979 0 0
212.96241637953 37.1890131477457 -37.0399335260609 0 0
-218.044779527846 -1.04252726925708 14.4345989747057 0 0
-135.418733338852 3.62719962034951 2.1715698422612 0 0
234.80389020503 23.0651387739563 -28.8271562266626 0 0
208.451124743847 9.14182802803996 -19.9626007526413 0 0
218.094842356859 -28.3415156857429 17.2297473043607 0 0
-230.56667787432 1.7453988504603 13.5672465938497 0 0
215.991757696259 -22.5429509330787 -27.9993080366392 0 0
-50.4707008215919 -19.8891055379951 1.84366242827546 0 0
157.011688673517 12.2439446760652 18.262801168792 0 0
-179.378845281241 -35.1327146686627 -19.2424015857545 0 0
183.043197578908 28.2483933898643 -5.8501686882031 0 0
-244.7195171447 17.3843302737377 17.3212735853227 0 0
184.91459707267 -15.6098384069216 -9.94972804115224 0 0
-69.0787062783924 -15.1926991461223 -8.16383703102801 0 0
-211.999044085939 -32.6342141808141 -6.37117291353907 0 0
-204.912440931194 14.7391717366944 23.0009823985118 0 0
-184.27617807353 2.18125527815327 -18.4189115670099 0 0
84.539859905114 -15.4501841846115 16.7252447759474 0 0
-116.661384392049 -22.1816798536282 -11.8735567771492 0 0
-73.3702342507135 2.16528153528522 3.48465445444491 0 0
130.040599559607 3.11710841804286 24.2919258280179 0 0
171.624190175365 4.23438207526854 -9.06720468484631 0 0
202.313876634194 -30.1037547355465 15.1534433120336 0 0
152.225426473252 -8.24688516242417 -6.64772807866526 0 0
-218.744342097766 39.8601680800925 28.5723209856493 0 0
-129.405007192693 -11.0197872804372 -19.8925006773322 0 0
190.062171005806 -30.2903917933454 -9.58411387481722 0 0
-172.408360143571 1.86192578006137 9.57515853489713 0 0
161.297038927224 -17.2215503143502 17.0692430630948 0 0
125.011195536124 -11.7467920860943 -1.80620199251478 0 0
-32.4588424721555 -14.2543112256378 23.2689962900059 0 0
225.615092773778 -32.6435311475084 3.65926534482705 0 0
44.0588146318222 -12.6620041630012 2.8012210351461 0 0
-190.883984694093 -38.2777524098229 -14.4797042597424 0 0
173.253665345442 9.43646642485718 -10.5756310378347 0 0
-218.841239103602 -19.4513617485945 -3.28336136532809 0 0
-160.282093040179 -20.4324300274668 4.28426172390269 0 0
-221.669861067008 1.26338802136032 6.24746547777873 0 0
180.521185728767 15.3849528243665 -14.3516185581326 0 0
-23.2937985592431 -16.7270834625104 2.30168004921339 0 0
-208.424936640607 -3.84009206537165 14.5468835535668 0 0
-243.670065251124 18.0680035787323 -2.42777650250162 0 0
-184.291547437238 8.27755606555736 9.88672407519688 0 0
209.093835618883 36.9291375741304 -35.3115717370149 0 0
-29.8880952930032 2.8018673946803 2.08455509324787 0 0
217.14746203968 -9.90285998513139 -11.3857875174341 0 0
211.028016562949 22.0647206249557 -43.1553734015768 0 0
-72.4710970390403 -21.0230738043501 16.8557591711629 0 0
-215.801289853226 12.1824298724455 -10.8636474461206 0 0
-164.962702148984 7.95750706210977 -6.04176615615635 0 0
67.3447259020005 9.02402076218675 3.32410713133982 0 0
164.877021679881 -16.1776853903973 19.531887523679 0 0
175.867044901566 -12.1009793954508 25.2066509444035 0 0
151.03696616837 12.2248052943009 -5.43287791162598 0 0
-37.8207420466846 -1.40840372797041 -4.72196415576714 0 0
111.82885633969 3.42132328882828 24.3166793814668 0 0
72.6026198100638 -12.1559285524409 22.7056431418228 0 0
201.379496288762 13.309023611798 18.4276103341005 0 0
-147.146048262107 -24.7200016404689 3.15192772868009 0 0
226.841136377371 37.5836131387641 -24.762516177171 0 0
54.9767522481569 9.87180654082571 6.47383240868401 0 0
-61.4864962502724 2.68579734390356 4.85673226161724 0 0
-176.497742094018 1.14534206570342 10.9036100844895 0 0
-167.042393241344 10.0627724888501 -9.90354905748402 0 0
-170.439403207718 -17.731829725813 4.67866300631124 0 0
41.0729956681578 -12.6109860413082 23.3885485208855 0 0
-90.7612456211177 -0.53978370612737 -4.6325112531547 0 0
-176.005990742249 5.70802448599444 9.56456485266549 0 0
156.040059356929 8.85707981855757 20.5713005587753 0 0
218.619768844563 -42.0858394403923 -16.6109335936074 0 0
-150.544663898113 -24.0116403641509 -18.0064462161875 0 0
188.667848113233 -24.1731530555097 -11.2813654229988 0 0
-204.243705282772 24.2018390686402 24.6845044794499 0 0
-164.700624921653 8.77213898610285 -8.38322515693165 0 0
-215.038840706637 -0.985873443181979 15.2638370300617 0 0
203.771179024922 41.9518673122441 -8.1091682188654 0 0
-208.439673512943 -14.2276017037878 -35.7003035584913 0 0
-206.029814890769 -14.7066245002313 -21.419044150299 0 0
0.495461032662137 6.08696498037678 5.98215092571927 0 0
181.508702625796 -20.4809264603433 -8.81657849265577 0 0
208.135871444157 -17.7850203977653 33.3305607690754 0 0
234.081370517102 15.4189648592406 -22.9515707223816 0 0
-204.771219305015 21.6841320023923 25.593176893456 0 0
236.554678601047 16.4627053044141 -13.7263645113943 0 0
-83.2630512547761 -22.6735487781522 14.1105430646908 0 0
50.4242892718224 11.3672858515492 16.442628632949 0 0
214.575315875888 -29.2794735048443 16.5895241106665 0 0
197.179819154703 26.5039817019179 -35.8800171360123 0 0
-126.357847943962 -17.6881909310413 11.1409988181637 0 0
-54.8964203597034 3.06057288278245 5.64984390009703 0 0
68.668119148016 -15.5701621354525 8.34643194378522 0 0
-198.956340707584 -35.2942147759483 -23.7997193421173 0 0
203.860647056895 -1.99020236944132 27.5096247336746 0 0
-15.5995262269447 2.97279658650969 1.01306261885863 0 0
182.867200108283 21.0979938424682 12.1035336652592 0 0
-121.170705159875 -25.481481679306 -5.86689382816465 0 0
132.470871961197 16.6964222921933 8.36100658937946 0 0
156.064175171382 -18.4374752316209 5.78121102585712 0 0
-149.920413072879 4.61523149447908 0.0577827914558839 0 0
200.366051203148 -7.00689445952396 -16.6746209299746 0 0
230.070965070272 -37.2348091159208 -15.2141342939952 0 0
13.2051089598958 6.89745659976998 5.5144358199084 0 0
-210.298567010803 8.70814097443474 -11.7006756124096 0 0
174.370323223344 21.3111770424548 -10.9568932642304 0 0
-228.872557522858 9.04769061330126 -8.9423723174352 0 0
223.519006980789 -27.0444469425992 17.9143735954277 0 0
-242.854258797401 32.3841813283959 -3.02308627093139 0 0
176.77401822198 -14.2570926301524 23.8074474788263 0 0
-218.315753871905 19.8677197007536 -16.1153002984486 0 0
-247.577056534567 24.410823696332 9.54943096305059 0 1
230.682999964447 37.6454877572898 -19.3193789795346 0 0
-214.629648849546 -13.8754097070256 -0.0558475782893801 0 0
-47.4816156586267 -11.1838835671985 -7.05573880653199 0 0
207.822551389384 40.9803347607029 -4.96521656189761 0 0
156.506344444692 -5.19722270572994 -7.22082798701595 0 0
-196.204338257862 -6.41131190679003 -28.9880796517063 0 0
203.944605207647 38.9938759505511 -29.3810605267504 0 0
-227.892492565321 12.2917909293643 -12.1394863866121 0 0
208.845291634807 41.0823820927773 -17.6243896493406 0 0
158.58178903435 19.0679550371474 9.03168740169666 0 0
-223.456328571951 49.1708454485427 5.37643243401542 0 0
-185.528589273151 -35.2695702009137 -2.59509156025213 0 0
98.4510119188759 -15.3568942554933 5.77123336238621 0 0
-227.860265654717 41.6666599480808 26.0348598212806 0 0
201.613158033592 8.31199708400385 18.6843390776223 0 0
214.185453434903 20.8078131873057 19.9800036917256 0 0
9.75271336180711 -17.1936069358921 7.76470316362468 0 0
-145.798452195674 4.07802380354981 1.32571298390962 0 0
197.930333148757 -25.2645678459097 -25.4325938937715 0 0
-207.49883900267 -12.423824177005 -14.2242773314282 0 0
-207.297844537389 -18.9299145009724 10.9937877043019 0 0
-216.157823575198 12.3501393335387 30.0426862429065 0 0
-143.002888406546 -19.0163096630569 -21.0967666660649 0 0
-196.985631485557 4.19924496542969 -13.9734035208472 0 0
132.977306751793 16.4761089550749 5.54199075492364 0 0
230.648069446389 8.90728901259401 -4.31785589459633 0 0
-203.583790682147 -5.37752397201515 -12.3772711373762 0 0
-162.667298293063 -0.928679043836785 8.56179489437108 0 0
-74.2163071037579 -17.1880167712201 -7.31600349142197 0 0
165.173944873993 -10.2409266110476 -7.01697126462504 0 0
135.793953781045 -12.0242541496817 22.7628100343899 0 0
212.269890427828 3.70978091449864 -13.7901862810983 0 0
-224.976167293427 47.2940616519792 -1.93443038131369 0 0
-230.366391052642 12.0145103511314 28.7685356305068 0 0
217.743078146679 26.892239765854 14.9421326780421 0 0
-203.415575185649 -31.6908312689345 -2.44249693202354 0 0
191.974893034118 32.6428721976917 -21.143102312634 0 0
181.794482904287 9.90746606378503 18.9485706530128 0 0
207.190609661613 10.5657947531954 19.7310174488062 0 0
-170.228756230206 -22.0634711340851 2.99592026491402 0 0
-205.076496181739 38.6309624405992 2.37568892605711 0 0
220.891973826108 -35.8267547167214 1.73250084551134 0 0
-214.017413643416 -4.41361678971372 10.1604290313345 0 0
-13.2717087960782 -14.3622362091231 0.882868582656753 0 0
158.758962599744 -0.615712609695676 24.7270448808193 0 0
-212.776495586614 -19.0088904039189 -32.0782022747478 0 0
184.627511101438 -13.4119269236315 -9.64702813739868 0 0
-205.999412675931 12.2727293480914 21.5399043665973 0 0
-222.08569926823 -17.8259847258484 -21.8892863154101 0 0
-129.644891239485 -21.1980853936894 8.53857679486142 0 0
195.218041643933 4.55388998341905 -17.2638513612542 0 0
-231.902269826172 2.01527923368764 11.8707894158023 0 0
-104.115913572921 2.30547471214215 1.45397277241726 0 0
-195.658317223128 17.740763222752 10.8091913474527 0 0
76.8284736068239 -14.8401559836037 18.6640603399953 0 0
-197.10393141823 -34.8859121518437 -8.50914185010976 0 0
-149.988493742244 -26.8360073127539 -11.1325721819195 0 0
194.137772314189 18.8016110230748 -27.0244475644489 0 0
74.7935513919921 5.51804533588798 -1.06935784708566 0 0
-123.757326335028 -1.13142838529083 -13.5902853898083 0 0
185.468715970276 -6.83801090004418 27.4792275318551 0 0
-39.7864964546857 -22.4397092285425 12.4519502060125 0 0
-39.2797769258584 0.105641620101934 -2.91756324789405 0 0
-185.021691618322 -39.1144099420791 -12.3071644238394 0 0
78.7431761580118 -16.2123799369891 13.3781667646979 0 0
-213.340022133005 24.8665668520782 -15.3392205116841 0 0
185.321569240609 -26.2415118280779 -8.17925937285786 0 0
196.931851090732 11.5051945642785 -23.2997809235741 0 0
123.447266753437 -6.85481336058213 -5.53035110692224 0 0
-134.926733695636 0.110255337209129 9.73900909107411 0 0
232.711108967758 12.924110780864 -14.075384366847 0 0
181.367450362986 -21.0863411399161 14.9398530657125 0 0
-179.490407403469 9.60590586798081 -15.5998469006437 0 0
62.070453729597 -8.44853400756589 -1.81492027520919 0 0
-177.496048471243 9.97793470474727 1.48627541405161 0 0
-240.63576683874 29.4564913925685 -7.43392972753912 0 0
215.632516618728 -4.93970774982325 -8.54252571642361 0 0
207.123776864313 -26.2570910992116 24.0961052656905 0 0
-212.762249073508 5.59540191845742 21.8125684833296 0 0
-105.789697692152 -20.3984983054447 -11.5120386594199 0 0
-176.350027434965 12.7583802178367 -9.21941936043519 0 0
-239.953006338205 41.3328990307505 3.21314729292118 0 0
46.2291307897011 -13.3580739478012 3.72300469808153 0 0
200.795204765522 41.5430895535951 -23.042019007997 0 0
212.166083238206 18.8712917643033 19.6403264277581 0 0
37.4866326228524 -16.9143957802909 18.3174210014348 0 0
112.750411458288 -2.97893996494765 25.7865817094105 0 0
18.536324337402 0.7997027190134 -3.75711755474227 0 0
220.283041424937 12.7741941530401 -36.8280033926163 0 0
230.945726782733 13.1790785555651 -21.1288363214986 0 0
195.034145459174 -0.306817258643847 22.1269646572344 0 0
17.2218325427521 -10.6017055661089 -0.441564080621346 0 0
203.93941070408 -4.34370900201867 29.3427253179404 0 0
-170.246262768455 -7.1036430856523 7.74176288513142 0 0
211.417462793555 -29.7773047520888 16.8200309234319 0 0
-85.5184782846168 -17.6617415468812 -9.74554639292059 0 0
149.925266015353 -16.8866859225433 3.1210950639678 0 0
0.257210625419471 -10.3585931119659 -1.85918600706373 0 0
-104.059595367727 -1.15713601840391 -8.00016521288092 0 0
179.576962900788 -4.37145136285291 -9.15119560735119 0 0
-239.591382402011 7.00619794136863 7.83348590140374 0 0
162.594653783564 20.071787639973 0.0630093799724667 0 0
-82.025098749235 -0.873797007653174 -4.4337607895953 0 0
