"x" "y" "z" "f" "a"
187.717839131604 -37.2083050425814 5.19056201120064 0 0
-189.235769454063 25.0229699504587 -8.24072276473638 0 0
188.543314132483 34.3637313748813 15.7237500104693 0 0
12.4838413548767 0.327881838963144 5.63957032779945 0 0
183.524519244758 32.4684280767053 25.03635587391 0 0
-46.1130750891048 6.12082393133789 9.02187425983239 0 0
89.5963285953916 -11.9222745621651 -2.85927715965861 0 0
46.5689774344414 7.62048791179299 4.57605095377398 0 0
-195.776401397046 16.5787242720276 25.5355061068928 0 0
-213.758674011836 14.2669949614404 -13.4785443561764 0 0
-76.7873745975497 9.9020918134227 -14.8268633245081 0 0
196.934125503797 24.6058939289088 -22.1372873411021 0 0
165.30699445043 8.22140692036398 10.8683467344868 0 0
-166.949333975806 17.0589858063757 -7.29772788030341 0 0
26.8810071087343 -7.0466752364501 -15.1037359602017 0 0
99.8738685942761 5.54483097068939 5.8140810185417 0 0
-114.479946546467 -1.70485603171419 8.79859916413558 0 0
-204.803032682061 1.6732670934649 10.9438736296725 0 0
-203.146598837558 -32.3996545781381 5.28485554524454 0 0
160.248425841088 -21.7975521267777 5.43157004767076 0 0
157.375672652521 11.683614793889 -20.5034061236428 0 0
-69.4667210749916 17.5637968232798 -3.50237465779725 0 0
-178.758478687768 4.80788283042799 20.5485289159608 0 0
118.236344229157 -9.2872235424065 -16.407159236894 0 0
-61.4737980983711 16.8203441150962 -0.692590071814681 0 0
-25.9569012182021 14.0729105276505 0.430368272731258 0 0
99.8195778528793 -6.25007158111198 3.11862123477546 0 0
-45.6699102886393 13.3514060461724 3.63957353920022 0 0
-213.327657638057 14.2470658566504 23.6389254010807 0 0
190.10198827518 36.6106453792258 6.10894994053159 0 0
-237.519012253967 -18.6756412393612 -10.6368805741304 0 0
27.446284852037 12.9839431173394 -12.9641014211159 0 0
166.22427935065 24.6877511014769 -5.1735241467394 0 0
203.12402170702 30.4763572998102 21.3702831861638 0 0
60.0106131902405 -10.0437985657125 -4.15696100381697 0 0
-22.8658624073685 8.46498789590011 6.85469772030604 0 0
199.176010285703 -32.3044788979647 -2.13706614517879 0 0
211.7687498895 -24.5215849750959 24.5961427888751 0 0
166.959577745818 5.25281561512755 -20.8393343168364 0 0
-140.645307327179 17.022010464722 12.2777967998677 0 0
-173.866621376453 25.8689003154821 6.05409610774567 0 0
-27.9540288119249 -2.73991588745058 -15.2317042673281 0 0
-170.352384184637 -10.8480383343974 0.544802377523679 0 0
173.946294857115 -22.6668012850471 13.0761474116894 0 0
-182.914327366286 19.4808473771707 19.9413475179417 0 0
61.8207802807643 15.0817264526938 -7.1097267923232 0 0
-192.138364200353 1.89148837699811 15.1571656359557 0 0
-60.4257866125929 -5.01056672202811 0.422223169073188 0 0
167.609716137261 -27.0465678258339 4.43018123523784 0 0
180.050378268921 36.4533383425207 8.51546687541459 0 0
197.924686832184 -33.5345091876987 -0.0546836739614668 0 0
183.120801017338 -27.3269099991304 -12.9300637958075 0 0
-189.244771930573 -11.109386725842 8.45975282238125 0 0
201.558872749151 -17.0259635318442 -19.256016848841 0 0
-218.162456816325 -17.8721744930531 17.0695096121051 0 0
-211.811507305191 9.77434276276018 5.49289174350928 0 0
-93.7473472912621 -5.48998222134516 -0.491723437736881 0 0
15.8688240997471 7.63756737550304 4.91682192530735 0 0
-196.401786069842 19.7731285105973 -10.0448167907789 0 0
190.372737234665 -16.4962829271372 -24.1404271808463 0 0
-201.147559502756 -26.343793082088 3.05554427147008 0 0
167.17775162979 -26.0397645657866 7.10495267247505 0 0
-218.642946295921 12.8235920660593 23.1770436946763 0 0
-225.147627420471 -6.64484864062088 -13.1854456699772 0 0
54.1455507785725 10.3929696560777 2.74322523303035 0 0
152.084935773768 -21.0117631559824 -6.48480503169838 0 0
-142.758466009377 5.89994646078788 14.5325596512896 0 0
193.9681025061 -14.1170709063347 30.4532696243034 0 0
-184.633709820658 7.34353493276414 -9.53063643789548 0 0
-51.2994390588418 14.8996616750938 -11.3672248134456 0 0
-50.6915164122285 3.66253072740079 -16.8772771467911 0 0
139.891183233157 1.29184963130733 6.55244833049289 0 0
-150.479596871676 21.3088571243995 5.05657472933959 0 0
-195.92959895076 5.04426688812765 16.6523602335797 0 0
30.9849222942494 -8.9688781780987 -12.8490703108363 0 0
204.931613012007 -14.1665264555524 25.9489748910512 0 0
91.8792121542305 -5.931989549763 2.7103633274611 0 0
208.335687701302 -11.5430482159019 9.08086256498799 0 0
165.285738998976 20.1519629229099 -18.6177949804685 0 0
196.473946299289 -33.8065018801202 -0.965017923938828 0 0
54.606843440104 14.9569019198897 -7.74984974789785 0 0
184.032755952747 8.93365746057184 21.4695988225699 0 0
179.98995125612 19.2943384276045 -30.8034705151009 0 0
-195.030045126374 34.8945191459202 0.053717379107122 0 0
-35.2783079189012 11.5289214112234 4.52028635846699 0 0
-40.9687404581584 1.16585763019018 7.16906774749542 0 0
53.2915728242417 -4.72918834213116 -17.4221972976787 0 0
-232.015670925602 -40.2902198818107 -10.5846144274629 0 0
-208.039588967045 -18.105385065827 11.8650336872588 0 0
-123.405438296941 -5.83885136790244 1.22862731235263 0 0
197.186403080735 8.65665350245955 18.986673434253 0 0
-26.704971207063 13.1496330121214 -13.4350512020244 0 0
-220.66570045034 14.8603276219819 22.08080821312 0 0
-172.769200771572 -13.7759880241198 12.8980994542139 0 0
-57.879016791278 -5.02803752236115 0.342337224878185 0 0
214.395837114884 -23.1815548766761 17.8965931015018 0 0
-195.297589029367 34.894896597928 7.24794407398897 0 0
-48.9769980917919 -1.15010275758316 5.70838003000993 0 0
41.2840967339089 14.8059193418414 -3.8323157716104 0 0
-77.2067649206841 15.1392852544759 6.22475281434311 0 0
74.1088650195904 -12.6821023052027 -7.96907688826161 0 0
-29.9122164042654 15.9718794944901 -3.31057414640873 0 0
-188.891531445814 6.68984386687407 22.4047307711685 0 0
-39.7664600242598 14.3688441030482 1.48202658905137 0 0
97.6595009860548 14.5756730607244 -10.7184087973327 0 0
-71.2080473369526 -1.56404185232162 -12.8331313118459 0 0
58.2332975129367 10.1754617321391 -15.4331247090047 0 0
164.767343477177 6.85223874179309 -20.8911322571387 0 0
-229.489270774964 -43.6693412053705 1.15125962702633 0 0
1.52812266772059 8.84253768106728 -16.7082762091569 0 0
29.5746353492608 -4.09971199355258 -17.1643313405766 0 0
164.491036146282 9.66617847813078 11.3680080908149 0 0
-130.643459683523 17.3126469241571 -6.90920484467583 0 0
206.304362327843 -35.1869052207934 21.6747732816957 0 0
-169.112827471976 -8.74843664204767 -5.31611974657098 0 0
165.415556370375 20.4775618709492 14.1862847768925 0 0
-225.075332594016 -31.6572261319835 15.9343175765316 0 0
20.8400753108391 -2.09770314002134 4.04310371963868 0 0
-200.589031011735 9.03855063340891 16.4999933672668 0 0
85.8702989324533 -2.4068737588868 4.463197625051 0 0
-171.591953904863 -12.0865888107963 5.03268016111312 0 0
36.2529365186338 13.6119867752435 -1.05088987620367 0 0
194.367201845934 -35.1870646427548 21.8362111274653 0 0
114.309245060103 11.9771752340119 6.30942031179535 0 0
-207.015231212305 -25.7972987344304 -22.9588770054507 0 0
-48.532023280727 -5.80941920813954 -1.70258269431861 0 0
-60.3365072704866 0.756457538208138 7.93409574004456 0 0
-212.774614173124 -11.3138379991004 11.8234928800306 0 0
-162.779413749003 -10.7033284177598 6.2914160137392 0 0
147.896926795163 5.43733507889777 7.57379671634063 0 0
-114.350435222706 -0.402461504776973 10.2417236139269 0 0
139.726177526242 12.5435549656362 -17.274402796146 0 0
-216.102317146692 4.47926186182884 -3.11055679359318 0 0
202.780955150244 13.5659150098306 -8.41208040957919 0 0
162.271396635686 -22.2527395949761 -8.90317692775735 0 0
-8.07705786241481 -4.63849498737253 0.392906940327404 0 0
-199.279839606534 30.1608205965254 -4.7595491243607 0 0
-150.278325667789 19.579000752606 -4.82444353986868 0 0
208.547876387128 -18.0322933681429 -7.36651492254228 0 0
177.05158428367 14.0825899453872 -28.804380469883 0 0
7.65854395620608 7.48490466564614 5.49031138237521 0 0
-213.936114988093 2.94797574693469 2.65799402893917 0 0
80.6826957454962 -1.88750800228559 -18.616083917301 0 0
181.002095911598 0.150439340748327 -22.9601201567247 0 0
-206.653517838645 -31.7254523778541 11.1901844146952 0 0
-179.514342577649 13.4108969026349 21.7256530816382 0 0
-216.009097077194 -32.6915604152431 -24.5022255592499 0 0
176.146111567294 31.382593826727 -0.819075314718741 0 0
-140.643795142158 1.34333934395804 -8.54363890397394 0 0
-199.971261937363 31.8656851212012 12.4285570929307 0 0
-164.704580353494 16.9016009475928 16.2183713599708 0 0
203.90529700607 13.9065093003574 -0.746437819996548 0 0
210.648567418965 -22.9853266737955 26.1066619091405 0 0
35.107483372498 6.31274932061022 5.44252341639575 0 0
173.16638377252 27.3542193562008 -10.4691979477328 0 0
159.828384055052 -16.4572769179796 9.11530147092045 0 0
180.999910897817 32.2161732310397 25.4146967701722 0 0
-212.957935576975 30.606043467341 -1.46564366677672 0 0
202.124469902527 -32.2868004888275 -0.0804934659582922 0 0
122.038440290362 7.05982839375308 6.32255779202482 0 0
-229.908342033846 -43.2660756192827 -4.53564434351014 0 0
164.4855829039 17.7179668333733 13.6699872288934 0 0
31.2017046793339 -1.7330519193178 4.66342384194665 0 0
-217.884850383525 -34.7852923156198 -23.6178604227796 0 0
-226.523528592926 -31.942580770671 -22.8448879032356 0 0
-223.86033103073 -37.4438530913021 -20.9769522557447 0 0
125.062872283903 17.6014342880094 -2.27651359914135 0 0
-91.2250617549648 18.4069584733364 -2.4331998811609 0 0
-151.68149144762 -5.77385048467891 -0.497750386348686 0 0
24.9174261651234 -9.15615114080339 -8.0474793235007 0 0
-81.0226612617368 -3.97769716578504 -9.09959597262296 0 0
203.600041383054 -29.0793633327049 -5.61449117832645 0 0
-130.760408691944 18.3816063226591 9.06161963924746 0 0
-9.12210778235973 -6.37116911105695 -13.1474475645269 0 0
-161.30665639326 3.52978418214252 -8.47638043035956 0 0
-167.044368761344 4.70488504073699 -8.44748893530884 0 0
145.657390758143 5.30242889814051 -20.0314889214487 0 0
-208.949017947172 -20.7165981101499 14.3333283737784 0 0
-185.01273141776 4.60506681442634 20.3681334705423 0 0
-220.101479997446 -41.9958951552981 3.30426134487667 0 0
-110.353746268468 13.6599021902363 -10.8707054571167 0 0
171.382940093145 29.9674287288547 13.964005093081 0 0
189.058733496757 17.4598034636971 -30.1303507070012 0 0
63.1379549455267 8.96016140633884 4.18384320836423 0 0
-145.557940405196 19.7651635194226 -4.08607034631318 0 0
-5.90174372143385 -1.6204361727861 4.43090538907524 0 0
-190.40567684602 35.5756855448447 2.72932607295221 0 0
-141.556905990622 20.6905518436224 -0.548906145827911 0 0
199.713143346845 36.0656454295082 18.7458980975574 0 0
38.9818041749626 14.8618941195605 -8.41847360347849 0 0
159.96907072394 17.0319864147457 -18.8834939224801 0 0
-202.371978503108 -29.1218212433093 -18.1672710584715 0 0
197.076167008174 -30.1326876092433 34.5931603874406 0 0
198.190349803598 -29.6666248046297 -7.78097551280673 0 0
44.2440448171685 -2.86486132614569 -17.9756326257642 0 0
-28.3860922759453 15.7447415095065 -9.35208236203708 0 0
87.608887637938 -13.633121409621 -6.9597148692902 0 0
209.198799357184 -29.1429373953132 28.0845573015927 0 0
194.221984522974 33.8387753959429 2.66170587005314 0 0
-113.492846984018 16.3873732443185 -8.1508905621669 0 0
188.25196995683 0.131922549387843 11.0607667334455 0 0
-208.061604379424 24.4740041963213 -8.52637076274225 0 0
-119.591612804932 16.1982924995909 -8.23009982275558 0 0
177.793118389455 24.4273627612967 -23.1399879427985 0 0
145.668832852747 -19.7192192346262 -6.10693782644735 0 0
178.139632140718 19.5419029622952 28.1985730577754 0 0
-206.861458621383 -42.2610766878456 -12.3734430404947 0 0
-139.026572901828 3.19114960571093 -9.67539407742744 0 0
201.858884447989 11.9192898816002 12.753713670908 0 0
115.632728057891 -3.914534908293 4.79757472727556 0 0
192.722863604645 -32.3555417553388 33.9915259049621 0 0
69.6765040784468 0.922257542198633 -19.0048616454516 0 0
-207.384109308712 -27.7733903115915 13.1668914488516 0 0
-183.398573697874 23.9465152046171 -6.79297927976856 0 0
26.0969493550106 10.3650143711196 2.17985804320918 0 0
-229.132408560748 -22.7050884778429 14.8904136457341 0 0
171.511096845635 14.2601781378975 -26.1999681028385 0 0
175.174121920747 15.0875404929957 -29.0494253998914 0 0
202.072540142251 -6.63368891399398 5.78078276652655 0 0
201.546598430848 7.35850357562272 -4.17538926220726 0 0
-208.265031937079 12.1881398794923 22.0420584648177 0 0
111.932588596635 15.698954232269 2.98594771757151 0 0
180.574198272316 -26.1721435494916 25.052559706339 0 0
-192.894841346627 -5.69270962099554 10.7144144485837 0 0
-72.3005610913401 15.2782727454095 4.98140330318158 0 0
-195.401652975339 24.7629519615436 20.6491191930003 0 0
-33.6861579660239 -4.41031424587916 0.928235524061108 0 0
-43.6559849280387 11.3984592865353 5.65592197355831 0 0
-188.937048099986 29.3748636459245 -6.73642493140072 0 0
-110.366732915474 17.3553976059369 8.01963262365209 0 0
-238.136212447833 -22.4068503522279 3.97986580230147 0 0
-188.477236632807 -17.1417728715164 0.547871445691189 0 0
-236.127620903368 -36.6677954415799 -6.76055989238827 0 0
-38.4373800799843 16.5824156910213 -5.15416097066287 0 0
-229.939124615868 -10.2167620909725 -14.6025664006287 0 0
194.501717384627 -36.3919718443539 11.0404019804297 0 0
127.612000825719 5.69899959788204 -19.4245067943435 0 0
88.0025816203272 -8.46661821037106 -16.1739269311162 0 0
175.568068391019 25.699373734734 -19.2459010515683 0 0
-88.792023521626 -4.62195540849834 2.57479941844635 0 0
171.226969190706 -25.8688804218944 10.7948455513499 0 0
-179.259616781577 -7.86130173143716 -8.27174421498234 0 0
181.216708529332 -4.8132910765147 -22.4888346948987 0 0
-187.760583458974 20.8381548319836 -7.9963124980381 0 0
191.304895544355 28.2637616005883 31.0582420775381 0 0
-45.3552591821014 -0.823541366165712 -15.4360922466529 0 0
-214.546779962067 11.2623349035542 20.9226149865636 0 0
200.510021405285 -17.8365114073501 32.5917452354576 0 0
-151.885092960355 11.0608100009205 16.3542736762136 0 0
-231.936113509118 -27.7033553654195 12.6756552753878 0 0
-215.018376563808 -1.982745805039 2.54222135957782 0 0
-136.403931913615 -2.36939971864028 11.0144232894752 0 0
183.114003726064 26.4811701880441 31.0081757883314 0 0
173.623544960476 18.8475802387578 25.8906354427139 0 0
198.698187467177 -9.60896050107795 9.96964995762889 0 0
-239.472033153082 -23.0921128761741 -6.76504032239351 0 0
-20.2867555996434 -7.31690780627509 -6.04298007674096 0 0
188.3374775115 -12.4915840260411 22.6480851976721 0 0
158.08379122661 -6.83866025842896 7.85370685300646 0 0
169.135920940244 -18.3822603986938 -16.3200541836964 0 0
-129.570831581601 8.27201361325037 13.5824989888501 0 0
210.435816982112 -30.1800356826621 26.2697332902694 0 0
128.142233871093 1.11598706316834 5.95894548143926 0 0
125.629247164413 5.36964714352637 -19.4366319167631 0 0
-215.99207732379 -8.52808346186334 10.3306494823393 0 0
182.579623671409 -31.6225519349068 22.2428305240713 0 0
-140.359839961508 20.4413186256269 5.89267463553397 0 0
-218.602723296689 -4.32082163431846 -8.17600538759332 0 0
191.977525958383 -15.5921407262678 31.6336907125061 0 0
-215.503461567267 -15.548916460293 15.9981539236768 0 0
-129.829541190197 18.7408225603941 -4.80518628952575 0 0
200.473598790868 2.51593718884891 0.618531272842407 0 0
92.7656783029046 15.8049969057474 -0.361759305187805 0 0
-77.0822156559576 -5.52418900755223 -1.36759258109541 0 0
200.608993642938 -34.1217964143891 31.4634663741338 0 0
162.234154827079 -14.7947279347002 -16.5162495280413 0 0
51.2333338115266 -5.65040909640747 0.686756691558321 0 0
105.732206652626 -15.0497226803218 -9.08099259056034 0 0
-170.396670453472 24.5567804427652 1.18193511015445 0 0
179.377976241241 -22.337530803361 23.1740232384975 0 0
-183.296360287348 -14.8102682218376 4.74320392882848 0 0
115.917805728083 10.6900947543678 -16.7809415656371 0 0
-199.66217912981 -29.9193683098157 -11.2927513663914 0 0
-187.159274730779 -14.4296894107884 6.04114851871967 0 0
161.64864340135 23.8881355416298 6.66711224014261 0 0
-160.014233882382 16.1878972313291 16.0606816049098 0 0
-221.178967182793 16.4935083888262 5.40503318552275 0 0
131.774424106565 14.4759481463162 6.65202950437753 0 0
-204.058490038859 29.6669603869373 16.3067287733822 0 0
-174.417824858582 1.52979560015376 -7.96503891561878 0 0
-172.500265849905 -12.6820807408563 5.96896806206141 0 0
203.355977964509 15.9624470109069 14.4310195587929 0 0
-223.117949587233 -7.55211573709737 -1.02924209501976 0 0
190.978697240006 34.9473262551244 9.74742077468143 0 0
-192.696383334869 7.61989289733728 22.8259960562989 0 0
190.322444623302 -36.6208105263679 4.06375914746463 0 0
-209.414747523557 -25.0352097290118 16.6528832937858 0 0
-211.148009253019 7.66746916589441 5.58299814123375 0 0
-216.832339976423 -0.669343613838856 -1.3156435092761 0 0
-85.2174858724729 16.2874387542909 5.7367786522872 0 0
-223.007820469885 -39.9359675106343 0.304070639362264 0 0
190.112333215365 29.6223022325417 -11.6453871288454 0 0
134.884746944446 -1.23469709696945 5.96810960447658 0 0
-175.217029637282 -9.71735389928731 14.328027447867 0 0
-183.401162330233 -13.3905346254026 6.98850832567417 0 0
-132.775036981896 -5.70277644417011 -0.757123820940814 0 0
71.4690007760086 -9.49430403448478 -14.9634382638533 0 0
200.517881618017 22.0635372043294 25.2548616855966 0 0
126.830336192187 17.5146190460804 -4.3152745780187 0 0
-27.3329436285327 15.4257977081573 -1.95158842574854 0 0
158.926980857901 -10.9938919563754 8.56125871167724 0 0
-183.971656962474 25.4118987428053 17.0824437019077 0 0
-213.485484868109 -22.36835963059 -25.2203519681687 0 0
163.199525618615 -0.745243958708986 -19.9439519020048 0 0
-231.806502410442 -33.6184681982725 10.7134955908045 0 0
-118.595140486432 17.4397371327038 -6.7312623049758 0 0
201.9508369434 8.71899291663198 1.96171365222576 0 0
-207.995918854135 -44.9159771896 -6.0664590207534 0 0
-197.297167340465 7.06397857752029 -14.1016463617026 0 0
179.617725981843 11.5754059659289 -28.1874415282082 0 0
-218.022296296335 -43.962782344685 1.12054169520034 0 0
-20.4077632176698 -5.9306839778012 -13.0091519695129 0 0
179.713695282202 -24.6626381834979 22.4077732339784 0 0
93.1528585730761 11.0380985098318 -15.538068922362 0 0
-56.4944586350734 7.12541298256323 9.69848866435167 0 0
95.3585225598763 9.57761045971007 6.07798964247611 0 0
201.629712964211 -27.6164694036757 -8.88568427517765 0 0
-223.664608272479 -11.1175517302744 5.47709042620891 0 0
199.05892764035 7.05580736687175 8.47344525778245 0 0
129.140984337641 -0.579955376832692 -19.5126479269857 0 0
163.089554097311 16.9795171750729 12.8904351502565 0 0
72.5542030545042 1.13063374716061 4.89844917548475 0 0
67.2903868549756 11.2656438798472 -14.5929290603795 0 0
-206.698377832685 32.0686662483876 10.6051954271374 0 0
78.0695163539888 9.32484643609799 -16.3988109329805 0 0
62.8856024566892 4.99653204581353 -18.3706267166026 0 0
15.935408131886 14.7876686415284 -10.0932595393515 0 0
-204.220669332806 -4.71107598799639 10.6538409831905 0 0
-102.314768973457 -1.43174371439484 7.96398254913444 0 0
-191.430096288214 33.1195280969163 -3.48628338796486 0 0
189.018834364168 19.1628206617554 30.1804484198669 0 0
-202.216889054794 12.4134971175704 14.7205442283798 0 0
-61.4138562798309 3.8923365519996 9.03972834908351 0 0
72.5333628992636 -11.1014779903114 -13.413354987852 0 0
-216.125041728296 -37.6451756724228 -21.922247181928 0 0
180.967273179632 26.0322918398204 -22.4640215096003 0 0
154.894640265031 -10.2925023431941 -17.5212036022571 0 0
-111.640362558147 15.1491703704355 -9.60595527876059 0 0
126.243758597695 -10.6619880865423 2.85539641222839 0 0
29.2920540703827 -9.33647878106019 -11.2227684220154 0 0
170.060924266343 20.7882866801314 -22.9469225986566 0 0
127.887205468699 -14.9244030496056 -12.2450351052329 0 0
-192.575288513196 18.4515171941637 24.8918600070339 0 0
176.25137495209 -16.5807104565368 16.11974718199 0 0
-25.9904083550657 16.0772496733378 -8.15431980891477 0 0
199.661433169048 8.70069414503652 16.0523913889332 0 0
-173.892804762671 5.59986131409076 19.9039716293481 0 0
-79.7912340759888 -5.54343736509864 -3.36524130420258 0 0
194.315899154408 2.94659280822107 -17.7350779025824 0 0
168.584874708632 22.6241459205156 16.4763013978589 0 0
196.930558121203 -36.1368433258721 7.72217686667191 0 0
170.663178335678 6.95504899294898 11.6915966768382 0 0
56.2384595950972 10.6025078014821 2.7093151695154 0 0
33.5348283136625 7.3689713068505 4.87751771309643 0 0
204.983386085691 29.6549831501585 4.94195904814418 0 0
-238.26020327164 -19.1974409400616 -8.6873778714654 0 0
-217.300219804172 -45.2882269327607 -1.86227025131592 0 0
165.386981944228 24.931799672565 10.3861069214011 0 0
196.667314662061 27.9561149183657 28.9416040057117 0 0
-3.39917630365828 -6.4859470553913 -2.35225504213783 0 0
-201.216389628119 -24.6821076568957 -15.7667947616377 0 0
-111.783007759699 10.3115997313089 -12.2733420089157 0 0
-1.39685441027953 -2.55490735000638 2.94182139615728 0 0
-37.2584826457958 4.64607545892159 -17.5815493221699 0 0
-190.42415529557 3.79835412624067 16.8628340874831 0 0
-115.013634469454 10.511079248971 13.1258064874247 0 0
-28.7132663983076 9.1976669085389 6.56310993332586 0 0
181.27716550773 -18.0376533524354 26.4767879499135 0 0
-199.656819495218 8.55456765623048 20.3758251478558 0 0
178.494370587202 -36.3649365936713 8.58539660955623 0 0
-213.019640134109 30.4312393842422 1.2313378325624 0 0
-219.150396971643 17.5517275333152 -7.69213969932577 0 0
164.171078984096 24.8277924082785 3.2298765368831 0 0
172.321312385025 26.3953536731886 -12.4338913046149 0 0
201.98737271245 13.1235326260307 14.3170871468869 0 0
-134.396319384994 15.4265205540058 -8.41097188515343 0 0
-227.838235903658 -25.6165386175419 15.7793143492401 0 0
181.439789084588 -28.4749114869132 26.3634959414177 0 0
-35.8865098211501 15.8748431874087 -9.32693221932603 0 0
-156.378314205058 20.3974205465444 9.84110877066519 0 0
79.9999352670709 15.5477659525762 -5.84488401783547 0 0
-209.110736263821 31.2139795069188 6.24994369979035 0 0
139.131069899329 -16.8966477600305 -0.138299149831779 0 0
-213.158391759045 -9.00428620376986 -17.5326941715936 0 0
201.262447639007 11.0296048310496 -10.7822384134085 0 0
-134.908661368655 6.19459223984679 13.6808599143655 0 0
213.314395034186 -17.1697181532145 1.17304120088704 0 0
205.045648137878 -14.626741931698 -11.3033417997592 0 0
18.4935399739472 14.9739488249142 -4.70139856508006 0 0
204.224979538007 18.1557196317209 14.6902599426753 0 0
74.4236315064901 3.83710033289415 -18.8474983248264 0 0
206.478382518191 -31.4055366084741 3.24339600050001 0 0
114.542718880374 14.362118036304 5.404300915243 0 0
207.327593111405 -22.3674832271198 -10.0767496381647 0 0
-223.367753040135 -44.7851154240559 -6.0386604616802 0 0
-8.06771937720635 14.368111786238 -11.8282809579746 0 0
-181.587807671327 -10.3257043049776 -7.74789173437144 0 0
170.500299553166 28.5465443303923 3.35568973036572 0 0
191.838191120717 -13.6073259934187 29.7035586323334 0 0
173.510095108064 4.32633800988272 12.6275783043018 0 0
173.935801512738 -14.4966806794373 12.6538845443131 0 0
69.2470521116451 15.2946255677747 -6.70493802167821 0 0
176.826566617344 -20.3714456402343 16.8668485582744 0 0
211.345844530535 -24.1669892022873 -4.43012788789977 0 0
-107.049779054492 11.1275570295572 -12.4113885128628 0 0
-20.0440879551822 -0.62279199531812 5.77375662268213 0 0
197.46344191048 -8.27179326037011 -18.3410159127132 0 0
192.062401345999 28.8522732646471 -13.9321391867149 0 0
-216.851692393879 -3.61921280928183 1.92298545827705 0 0
-225.632470580073 -26.9476974026423 16.7468540056648 0 0
157.162172693503 20.1512806010055 9.78690107864946 0 0
-140.423443312827 19.6210239175155 8.27881013970799 0 0
201.499525440579 -23.0430227986245 -14.8557082017588 0 0
60.9052612634955 14.4191055903551 -1.40916031991521 0 0
89.5994507427568 11.8560627261258 4.46281368003965 0 0
203.627353985376 15.0288877725193 10.7711287403868 0 0
164.34855940915 11.0167488938689 -22.1003540550598 0 0
190.25588686023 34.1481057727428 13.8541993112467 0 0
-168.050401319848 -2.72868409321552 18.19962922683 0 0
24.9924262219883 4.95468020983789 5.89950932603404 0 0
161.570117459722 10.037169908297 10.5652683849922 0 0
-185.551743074104 30.6801722044607 -3.10542661179677 0 0
97.4266198761937 10.7704091346622 -15.9181309787059 0 0
-43.4892964079513 -5.73428350423699 -1.51464597452106 0 0
188.620083455244 -31.573925669405 -7.90265485203269 0 0
18.7103478663126 14.1580639163694 -2.12710775561104 0 0
-225.156542534654 -24.7748228421295 -24.4828070024468 0 0
-213.641703599764 7.50135854032148 3.6747242971339 0 0
43.6967880151348 14.0965404967031 -10.6824054934221 0 0
-194.280346159995 -13.1586732650765 7.63610555270445 0 0
-66.312096498989 9.10991891014517 10.2103476323265 0 0
102.571437657251 -8.83157540272365 -16.3148231692511 0 0
-204.47995389977 -32.7450999756111 -19.6375235378327 0 0
-56.1738039849792 12.1174293131382 6.68325830283259 0 0
-205.704918762928 -40.3851011953511 -13.9725303758999 0 0
56.8970324982216 2.53842652921921 5.10557064380513 0 0
-123.328740086977 2.91212390249767 -10.8298694543209 0 0
164.633084838474 23.1317991366474 -9.23919578708608 0 0
137.800315561309 2.15855802307212 -19.8228203931567 0 0
-201.246649615757 -6.82763932190016 10.1037268623178 0 0
-204.288999126616 -25.9345280683438 7.20482864596245 0 0
177.539544633436 -34.4509639974303 5.43535731398307 0 0
40.4960943341309 10.5700342122446 2.0866561905397 0 0
132.633548356132 17.9989979150488 3.9085611125835 0 0
174.638358759133 30.3145676251273 -0.784801771489128 0 0
-216.08849784923 -45.3612219882722 3.71506810534586 0 0
203.368342223595 -34.907647696756 15.13807868529 0 0
-170.105621489602 -0.0168986232831462 18.6514939889544 0 0
-218.046264464419 26.5065122112683 10.9587616848152 0 0
120.501556502771 4.2961428799774 -19.482557425085 0 0
-226.421726120696 -9.98697790800882 8.70107563264362 0 0
201.092043272332 4.47533096519339 -0.382159762553744 0 0
-87.1686596916698 6.17501613159729 10.8976509605878 0 0
193.328040600262 -0.606817820155144 6.92806361967549 0 0
25.3400313796374 -5.31770071548524 -0.254949410739205 0 0
183.728890961991 19.3676442488629 -31.2095108035828 0 0
183.437287371915 -25.3242057331901 30.8710176152738 0 0
-154.894139091849 -11.9513249421327 12.0155551606147 0 0
-15.4273832107142 0.898055420917123 6.76566137001954 0 0
-151.424563092178 -7.8117366544591 5.51122852570611 0 0
-211.663799509155 -38.2646555254586 13.1269960219659 0 0
187.579669754829 6.1089619066196 -24.5169127323263 0 0
-164.490363324859 22.7487369719983 7.55993819516604 0 0
204.873734740958 -34.3265048697974 11.2970056096062 0 0
-200.494509332352 -38.7605216579136 -1.36145722417462 0 0
-201.415511219226 19.7035268556405 -11.5319669400862 0 0
-210.505127905443 -9.73529602853957 -17.1844590290934 0 0
209.09244730206 -27.8128798922115 -4.49643265766648 0 0
-18.6139441187778 9.04758901866015 -16.719996611382 0 0
-186.723135381019 -16.3234608769011 1.57694180910752 0 0
30.5761350138417 13.0263735510448 -12.8621082246293 0 0
-191.413254118814 -5.96256329442426 -10.1905950976232 0 0
-30.9199110626291 4.54106203698345 -17.7652576769505 0 0
83.0744267988706 0.201918738680277 4.81442537656634 0 0
57.2309857665254 7.42004003154891 -17.2962012543468 0 0
-230.774801320952 -26.4532466989113 -21.5537815122508 0 0
-232.748670487674 -10.2614609233552 2.51531420968408 0 0
15.0567309206828 11.4448526664282 -14.745322676683 0 0
-85.2001948696474 6.95504424415925 11.0536546649338 0 0
191.311155320829 34.0785812882475 11.564322027234 0 0
-107.455076455923 -2.72546181550131 6.95877356686804 0 0
102.127977791056 -2.26863363644785 -19.0171023747632 0 0
175.235855462431 33.5998955329643 6.83496842830845 0 0
175.368782707816 -10.2402465728643 -20.0888967744866 0 0
159.592739550091 7.61678219722336 -20.9503767108941 0 0
-104.285067556246 12.2376951908694 11.3722062880422 0 0
205.97893467781 -12.9668923932843 17.8021074816856 0 0
146.122475294572 9.23801377382296 7.91140806106472 0 0
210.959366257572 -31.7363850139853 6.8727453611488 0 0
-195.279869358841 11.3962430892671 24.6344768172593 0 0
90.0907817509246 15.3742710196588 -7.8442002426245 0 0
-90.9539085693421 -0.325309194225915 9.03415366997697 0 0
179.084943314927 29.8003676192544 -11.0246291277685 0 0
92.4083230442009 14.7109417761581 2.03168642892426 0 0
-114.827460452558 -5.5983463806874 1.22749411903006 0 0
149.458134543633 -6.72128305371354 -18.4031299111033 0 0
-201.539818775047 3.61327402471393 -13.879477780312 0 0
208.091239314237 -12.1879404287871 11.7164759603545 0 0
-193.808195217235 20.0323036802722 -9.31351442491895 0 0
157.54644494472 -20.9180810306592 4.47078582485092 0 0
-193.101233400295 -0.862392126206851 12.8378208910512 0 0
193.852318546304 -10.8063188872918 13.4392808572427 0 0
-141.198022625576 7.48381237836256 14.6124268261449 0 0
155.556515785699 -20.7389028210846 3.10615417433372 0 0
55.2305342086843 -11.0444856920259 -7.32032777610724 0 0
-218.394837352299 -26.8637560720916 18.3205123674136 0 0
192.372047994061 -35.723825978119 21.4384533347633 0 0
-238.352438038877 -17.8493705434536 -1.58874945874616 0 0
203.271997731379 -34.7010536931015 11.1729881379613 0 0
22.5040621207465 15.1010395231577 -8.27030723399981 0 0
174.020598335302 28.3315581750849 -8.26423888359474 0 0
205.017504447239 19.314369477921 1.92996996108843 0 0
44.3022276012534 9.11507982813899 3.31066789066743 0 0
-155.296462070132 20.6488184612722 -3.58223392865569 0 0
116.750030772162 16.9863749761913 -3.87600619661183 0 0
162.698193123841 2.60926798678191 -19.9170123681119 0 0
57.8899297873553 -10.6932308504728 -5.76613870973385 0 0
79.7520113838237 -11.1494930502419 -3.07726191532858 0 0
-23.0870214246745 -0.0843288039781192 -17.035482395095 0 0
105.06633237979 13.7224126974816 4.64258551189645 0 0
178.825416669384 32.3252816098826 -2.8249536574433 0 0
-207.347576551316 -23.5057873720164 12.9813876135551 0 0
-38.1262999444714 10.7712230645929 5.62912754466693 0 0
211.942381187219 -26.7459782697098 -1.96625987948566 0 0
-170.410000296056 21.4532756792727 -5.31812177683306 0 0
-69.0229082073723 8.19381860452364 -15.7987198937026 0 0
97.9959995119235 -14.5212662924963 -7.01938150456097 0 0
-229.700589341031 -39.0207018220698 8.53380903527889 0 0
158.664376906332 -22.3090114054789 3.16255445367261 0 0
-83.5977800976245 -5.50422418310515 -1.38085836109408 0 0
-210.387171689849 -12.2661028455674 11.6373223678439 0 0
-205.127535897385 33.8644673628874 5.47739084834164 0 0
58.2657162980689 7.73493233318547 4.87403673705725 0 0
-206.599087128188 -33.9589389611609 -20.8105839624507 0 0
-216.374407655369 -46.5892475646415 -2.7708240091631 0 0
-204.036710591821 -33.416689339711 7.46989851088293 0 0
200.681833807109 -33.2059634136039 1.19982716041959 0 0
187.694414765013 33.1794474909755 25.6227835972567 0 0
-34.1542021176631 13.845542687269 -12.7643731595644 0 0
154.926301259193 -5.48039728876056 -18.8938446155936 0 0
206.149754933657 -16.4581689598975 -9.70702757119713 0 0
-106.885531277323 -5.34484658494821 2.01122763522523 0 0
16.0365184422546 -7.61398051489455 -4.04904944158301 0 0
-162.783406036546 21.5336657852005 9.70624679995404 0 0
150.297290066463 -18.5802522258015 -10.5555085584156 0 0
166.466645628097 -18.768081515201 -15.0892932120412 0 0
-7.87409204864691 -7.43005489344411 -10.9922013368576 0 0
-144.015201797195 4.70747852957843 -9.72218478687933 0 0
195.888681137464 29.3157343638036 -9.16234887411685 0 0
-108.384737542867 19.1647107092959 2.34076052460363 0 0
-204.835583949766 -42.7224390910728 0.0213649738426539 0 0
-115.816099162436 7.30452434920885 -12.3980318373016 0 0
201.135798456694 2.43133825381597 -1.7090454882329 0 0
-213.866984353976 -32.9864796607474 -24.1160864445688 0 0
198.092280080994 28.9320630780772 -7.96733069129123 0 0
4.33608985371322 -1.16835165920919 5.44100119548521 0 0
116.667108790726 6.98293647865731 -18.7572574717363 0 0
17.2919604477362 -0.991864080204463 -17.9843199127288 0 0
196.905419285325 34.8009691951359 25.643109897255 0 0
-199.577725133196 -16.7670182006862 7.18071524631567 0 0
19.0907314999582 -1.15485871430389 5.25651733869303 0 0
168.567540871993 7.76701651484193 11.6176818801645 0 0
-24.3002990072481 12.346262991819 -14.2132630384832 0 0
-162.124346429874 -11.2871168917497 19.489652395543 0 0
-163.637889954111 4.67613845740251 -8.57699742473532 0 0
175.457030641948 14.7066965850137 25.5530291667209 0 0
159.608045059102 -7.73218451824892 -18.6008384104722 0 0
161.421082569348 6.10776541760081 -20.7506400795891 0 0
175.496707789517 32.7181019709416 4.6813138907323 0 0
204.349913029535 -21.7411496717121 32.2648769646271 0 0
-221.463369903428 -44.2360773282022 -13.9951750238598 0 0
-45.1358031590257 -2.52489739841499 3.82369480284638 0 0
64.8497248054653 -8.01560736268175 -15.8790238812227 0 0
178.852438280875 -32.7957733070312 -1.83745098024586 0 0
206.194143168412 -23.8839461014375 -11.0841812263235 0 0
31.5621239239629 9.84015281082475 -15.7813586853199 0 0
-29.0739650436209 -6.69029841554737 -3.92427609597897 0 0
161.25167132197 -1.93582643195863 -19.3871220931591 0 0
-173.000361498201 10.9334324150192 -8.16751924688448 0 0
172.829856914439 -4.32302466483656 11.7088386441594 0 0
-200.55267061846 -5.11313447540774 -12.6044586526247 0 0
-176.253835192162 4.64226092620094 -8.41342373897894 0 0
-228.951127233354 -43.4484065495233 -6.20397465388453 0 0
62.902091771427 13.4643114801446 0.522425637559358 0 0
208.278847493598 -30.7577588901173 0.829901259344013 0 0
-185.155404434087 -14.3524779793702 -2.80761388989072 0 0
-161.406736599795 9.40086957424666 -8.58467460849067 0 0
-228.259391518902 -10.0275987479542 7.08434386874533 0 0
198.666001749311 -35.4531937786908 20.3282035289437 0 0
179.936693216684 -7.59492958121326 15.932656202948 0 0
22.8143552123774 -8.73334540824618 -6.40719764974186 0 0
-172.955496256525 21.7215108755074 13.6770544043059 0 0
-219.18532825268 22.6289344082963 -4.35734305975754 0 0
-158.336341820421 -15.1224683302829 11.3994294373075 0 0
143.488336532417 -17.6321020225957 0.579754506607625 0 0
65.8270286975144 15.309047441007 -4.25018819086323 0 0
191.838851839848 33.3498050530355 15.337481079226 0 0
198.915023100299 -13.1570514798007 -20.5085668690435 0 0
-87.1763115204736 10.6723573524047 11.4799189867318 0 0
100.35137167991 -9.88103745383601 -15.5752873255183 0 0
-218.938137248072 -8.14145470477756 2.01006294599586 0 0
-58.3154824494768 16.2218650895446 0.511799170564981 0 0
-202.273392343753 16.2627861318125 -14.7447611115187 0 0
70.3967770591413 -7.36360288254806 -16.4515956067062 0 0
-145.305248490433 13.4081336499782 15.3783117211374 0 0
118.562070673473 16.2910337377463 3.58686885292304 0 0
-231.714370871392 -38.7623234322471 6.4624115540434 0 0
161.451928019921 14.762442628427 -21.2486064504186 0 0
-196.904264005977 35.4500714416126 5.95640476531658 0 0
-149.518069345474 16.4738484317153 13.9709800576013 0 0
179.620593674219 -8.71662665590262 -21.2454671425011 0 0
-237.532027384584 -15.907774110428 -1.91014764528733 0 0
199.488011881295 -13.1287462364031 22.7187803255319 0 0
77.8716252701372 15.6531676056294 -3.91121188243274 0 0
-87.8111653068608 -4.78666543193694 -6.26566594320821 0 0
63.4529431142742 -11.9334137676089 -8.45702316818179 0 0
179.762141369749 17.8828747760586 28.4504735771965 0 0
150.713241025772 8.69526482950681 -20.0497792255998 0 0
0.857430674359517 -5.63329540421305 -0.949866402309341 0 0
179.966571203953 -37.1276369448633 9.5577374144083 0 0
169.347474065991 4.84915107717317 -21.4195216375619 0 0
38.3705543582019 6.14089377250851 -17.899528642322 0 0
-103.288929601561 19.0338974390599 -1.03072691308714 0 0
-185.468561599741 13.1800254071221 -9.17023720403025 0 0
204.37872459729 -5.20071019355505 -1.12217152372946 0 0
-164.763297228718 -9.23000241824559 2.31393013204036 0 0
123.608328967505 -15.1041762035297 -1.64847092488408 0 0
-205.331800673731 20.6570429475549 -11.7402731070694 0 0
161.266012680018 -24.4061998880287 -1.37641636691286 0 0
-115.009393478571 5.70415331763759 12.1139717649245 0 0
100.115826889379 -1.70726632246096 4.82068264135442 0 0
-62.6800387668613 8.36281210723663 10.0191241085984 0 0
35.0644464116042 -4.25630209961285 1.31523591945 0 0
-205.084641783481 34.7626296857687 2.47321731592343 0 0
180.975786291211 -11.4606784565852 18.6446868816435 0 0
178.020380591506 -0.223117508218982 14.474117503296 0 0
-66.4578514262396 -3.76624906737737 3.04593780305502 0 0
-57.8852507178831 8.91358205708369 9.54104211273551 0 0
67.6323823055947 12.9337195804445 -12.6137041110041 0 0
50.1150198834072 -0.845129022208747 -18.5640771575428 0 0
211.034704592444 -20.1919376845878 -5.23250317246168 0 0
-226.202112122828 -29.9374529552921 15.966137249219 0 0
29.397355722177 -5.66702819528624 -0.719427352699597 0 0
-199.218554814315 -36.0102109673915 -8.78700301703753 0 0
-237.454915474583 -26.6486185741329 -13.6926562414941 0 0
-122.12601044936 11.614575342421 -10.9617588300136 0 0
39.8012583956646 7.38218779994269 4.82085498503817 0 0
-45.3653163851819 16.3927954284497 -8.07214631310902 0 0
-73.8343292987712 17.7341855590683 -2.54875476621722 0 0
-199.852919029544 -3.04237576097454 10.8269740977894 0 0
-200.720577147733 -36.7931951702633 -11.4337140525469 0 0
-168.367241073265 19.3813711925153 14.5799974186586 0 0
195.931700427812 -13.534974385758 29.7893257839789 0 0
134.521442996189 13.9676440092877 6.96339611902085 0 0
159.727593578131 -23.3700020738003 -4.78667664776307 0 0
-209.446583949118 30.528116715778 11.0108810095406 0 0
-178.350747670352 -12.4408185628261 -2.73752604044464 0 0
-201.378090174124 -29.1864326239155 -16.0003022162177 0 0
-103.175006969346 -1.21982226708039 -10.0505291383287 0 0
150.303361926826 19.0304338854841 -9.61809826612415 0 0
-179.017348698147 -13.0939465303515 0.0102192689497194 0 0
119.241569230556 16.5883917625718 -6.97336464447847 0 0
-25.4306040833141 10.2635306390178 4.82986079300789 0 0
33.1259344293497 -6.66509119343463 -1.71725871232629 0 0
181.188900733426 -24.390251522249 -16.2607129779906 0 0
-72.7472615177065 0.0602546687475023 7.7562044558226 0 0
170.449835028237 29.525685871514 10.5535655170014 0 0
180.317292161108 29.1832503177324 -13.6006972464769 0 0
69.9857228015534 -1.31617534048994 4.47758856223712 0 0
190.604972118877 -31.9126613698284 33.8300431242501 0 0
-122.535073066004 9.79810155482234 -11.4942242990885 0 0
-121.25227891908 19.0165845738933 6.28086939657395 0 0
-232.899697171439 -28.6567739316923 -19.5486276016574 0 0
-172.047138222906 20.2891405020238 -6.54652616838909 0 0
86.3408683364855 -13.575647765095 -9.44859179280104 0 0
-157.894419171743 16.5960608882165 -7.37190532402729 0 0
-128.801763786213 5.86886439812503 13.1004049959037 0 0
201.290024000988 9.85087119446413 8.71590034278908 0 0
151.431043757745 6.26622090651638 8.03863938635135 0 0
-226.102967078081 -44.4194141193033 -3.93999230593197 0 0
189.905486038037 36.2503227559328 8.35743961086507 0 0
-196.684451700273 3.43040356356757 -13.5523367078553 0 0
-202.274884739702 -22.5171583242766 -16.9443723614038 0 0
95.600456329533 -12.7529298189529 -12.7914240074028 0 0
-138.900909400192 13.658900334581 -9.10763487399855 0 0
176.286013658684 -27.2989292179923 -9.74379572031699 0 0
-214.665158355163 27.6765924280198 14.2975920717566 0 0
-199.904187987713 -8.08741935900965 9.89573001723775 0 0
171.43004514765 27.6771926049586 18.4664523845602 0 0
114.981626380948 16.1185125529968 -8.14815389481318 0 0
-186.194449530991 7.16923039222796 22.6783705593382 0 0
-226.546243591262 -9.70249630233484 3.93288649419989 0 0
43.7871210461409 -1.83608943741198 4.09692355223395 0 0
177.859431091187 -12.7251334756397 17.0766578898937 0 0
-123.679468503352 8.55824195258259 13.1884220459203 0 0
-225.570769453078 -8.52524918718205 -0.976498792356851 0 0
30.7159755165579 5.19996239105382 -18.2446781456966 0 0
-189.268743062963 2.54078286776444 16.6728066715163 0 0
14.7691765786386 -4.09375423260247 1.0433225714714 0 0
172.880364257148 21.4846270374348 25.4432662139083 0 0
-201.335328281387 -34.577406071962 -15.0990333286244 0 0
101.337591217238 14.9602196604292 2.69288495590152 0 0
133.309589453583 17.4471104700173 -7.13531026076098 0 0
-206.452106410879 34.1318771592737 2.7482891849512 0 0
-118.585926150348 2.96839013233846 11.8297896056401 0 0
28.8515184519991 -1.6961396986515 -18.0184853066428 0 0
198.917981161199 -34.9395653263368 30.3671542393899 0 0
207.898056607547 -24.4743957271859 -9.35206644725347 0 0
-209.688566882095 29.739550505978 13.3705242298883 0 0
188.334223894361 -12.0512361251708 20.1480242673536 0 0
-129.971734354274 -2.06632618308253 -6.50484831932071 0 0
205.831575753562 -11.7085097349651 11.8071530173218 0 0
-196.371109685052 -3.31171047060753 11.0904521759213 0 0
18.1211277185071 -2.44647820293925 3.11774669894867 0 0
-188.295468582579 12.2041193172982 -10.2463940587028 0 0
164.705678851622 -6.71011163717111 -19.295606734032 0 0
177.858013714743 -30.0289521493321 -5.95740318728707 0 0
200.048408759754 -32.4124811660025 -0.347838201000351 0 0
58.1513174162582 -4.30033889832339 2.4397181901937 0 0
46.4536167526976 -4.48326688945193 1.74760859873023 0 0
-68.4305527095115 -4.88672021865337 1.03010468649504 0 0
189.240374717945 -34.0704119556208 31.02665113778 0 0
-186.338519178473 10.8309246223791 -9.79470964775017 0 0
-202.404207986907 9.85114276576868 19.6768438454857 0 0
6.66651724657595 -6.81456859823852 -2.88030736400191 0 0
-119.753061017049 10.1566245308682 -11.593667999069 0 0
-88.0279611435586 8.29684967452284 -14.6059971364272 0 0
200.829643577389 0.467882351071345 0.540565273129478 0 0
-73.6660047001397 -1.50987347512573 6.31091039341682 0 0
198.754462368584 -31.9945802437853 33.6567351003909 0 0
70.4430552282384 13.1704770655028 -12.235788932784 0 0
111.901915691607 4.56788623487944 -19.250501762304 0 0
-204.154727939989 17.5132255479703 24.2902416475452 0 0
167.680474693248 -27.194869419321 2.09391999362879 0 0
-204.71803199922 -19.5045547520539 -19.2928186959414 0 0
209.524540116083 -16.1044814741748 22.7988397852654 0 0
215.346902732138 -22.5676305499863 12.7364056871861 0 0
51.7299236522082 -0.53822320109363 4.54173494111459 0 0
-31.4411448057298 -1.9075638393754 3.90440135204735 0 0
14.6618623813332 -8.68328281563806 -8.47062678538522 0 0
-222.210735963307 -5.38304313850074 -6.39930317315976 0 0
58.1004135657455 4.9147805484704 -18.3875712278348 0 0
202.933313443009 -34.8757013686069 27.5824363802515 0 0
-136.041627584771 20.4057092942549 5.21655923187772 0 0
185.309294154366 -12.4194323318045 24.5296855592797 0 0
47.3470305268324 10.6818203609119 -15.0430428390647 0 0
87.7109978691102 -0.403940436733067 4.7853225252783 0 0
-215.704867988518 7.29224649905473 -3.04923875989509 0 0
199.860256525972 29.5622933984119 -2.50888730454022 0 0
6.51637855832363 0.454667109637973 -18.0379197324244 0 0
124.751547585901 15.9156119257266 -10.100125221332 0 0
192.419117622244 -18.4567664109145 -22.081273258357 0 0
-213.083931751176 -1.65894427412587 6.41209845025613 0 0
165.140831701718 -13.3390561483933 10.6942655148513 0 0
8.81945509204536 -1.5495463222458 4.83854317090066 0 0
24.4786517819789 -8.54791025544038 -12.8110699982087 0 0
211.831177708344 -28.8022827248677 24.357826963089 0 0
40.5311292994704 8.62695151347801 -16.637918522888 0 0
-147.844171172122 -5.30507729681202 -1.47019461245852 0 0
-203.026952215546 -39.9229755737159 3.57336738598391 0 0
201.696723584775 24.5605337347649 -10.4113383177618 0 0
-231.189521714827 -41.4102090189345 -9.09158434567187 0 0
-201.190825779097 -39.6833655601926 -3.15858041467809 0 0
-203.989809000731 -21.9026265217303 -19.4170151974095 0 0
-30.9080612871657 13.2275372527915 2.01067011913477 0 0
198.611166580621 -11.4863203852025 12.5002048139746 0 0
197.409131057723 0.447431612370266 4.57982719362 0 0
37.3735806538866 -3.22232004520342 2.67604824666722 0 0
46.6177270790477 -9.24692212030632 -4.50838854936636 0 0
180.245268981947 30.6319115733393 27.5345453089883 0 0
182.937807134361 21.9556486476091 -30.2275523471547 0 0
205.909015393275 26.6786347809568 9.06267873015896 0 0
-213.35595199141 -27.675895660241 -25.360331195729 0 0
193.940047631948 23.7677594944961 29.992979532908 0 0
209.662055112915 -20.0458611577024 -6.50806555193688 0 0
59.9050663353184 9.13497945133024 -16.2265933308395 0 0
159.209945380932 0.0231113815143676 -19.9486726482664 0 0
-228.66768106878 -37.3850469041831 10.8703862360166 0 0
103.413640142653 15.9319210043206 0.73741939643679 0 0
-4.65510792422798 10.153913466963 3.52125998142196 0 0
-204.194990866441 -22.7909338003858 8.14282934246072 0 0
-47.2179035773665 -0.275949623948154 -15.6538821891022 0 0
204.838227995348 18.5647252952975 -0.853902974080252 0 0
-33.2856290967578 13.6466113512928 1.75333082914319 0 0
-142.543957194622 19.187853913431 9.54833494269907 0 0
151.265861651726 -18.6234824993096 3.31692590920961 0 0
194.826675590345 14.637490671147 -24.6243522306742 0 0
196.527148099735 30.2215616463904 -4.69395706736586 0 0
215.12701195924 -27.6217661778456 14.1112592125633 0 0
167.034589277139 -23.8907039873829 -8.89910273422329 0 0
105.544234879374 13.0049269418359 -13.8885856819228 0 0
199.179537686932 2.59994293877131 -10.9494459516255 0 0
-131.849160109728 9.31871392239746 -10.8167087113887 0 0
-131.841795683595 11.1734083795889 13.9404493385619 0 0
-220.279040131299 19.0839552360282 -4.21715860743378 0 0
-210.678355691896 31.9837125348698 -1.11459221914986 0 0
-210.973340721046 -16.0106615593308 13.7834490941606 0 0
180.143191802655 -0.850270400390593 -22.7675607589004 0 0
202.12321462963 13.7175903328114 -11.1750346326823 0 0
-151.262050669794 20.6064726749328 -2.93818399723753 0 0
126.466811787199 -0.914041241469496 -19.4662157582083 0 0
23.5125923423848 14.7308735372901 -3.86285689384356 0 0
30.0741914652189 -7.89533428028964 -14.4789748630931 0 0
156.346819637764 21.2297441136517 7.66479550144655 0 0
-182.653939912647 27.5411317677479 12.8587118365275 0 0
-37.1926385295301 7.54145764684013 8.43863935202616 0 0
120.677594759842 -7.66782119761904 -17.309245511111 0 0
194.223013650572 28.5322160213504 30.1642150584981 0 0
-69.2433775077917 -5.5158446648595 -1.08534337477163 0 0
-83.96944720246 8.22044588577456 11.2526278183524 0 0
125.903622023363 10.0506358100099 -17.7266173691406 0 0
101.680529717246 6.45993242012626 5.93129612635235 0 0
155.819530491519 10.9399433874464 -20.3778078380664 0 0
195.735582151285 -33.958208949632 33.0323384165888 0 0
31.2724767120382 -6.14436870717046 -1.26861414479006 0 0
-213.594641027739 -30.0696899211582 -24.9771515795516 0 0
204.698490769512 17.2261869269322 1.92208925041598 0 0
160.667843697 -13.5844616852762 -16.8177272079615 0 0
-109.336387975388 5.96511700404137 12.0277796013303 0 0
129.49951490736 9.39502738677082 6.71383763599912 0 0
138.164012772549 -14.1226214946406 2.46749640732683 0 0
-214.523965047309 16.748623096771 24.7695736829542 0 0
98.3005001185223 -8.60355157061171 -16.3182059174446 0 0
172.163501868852 24.7324529206037 -16.6705269476178 0 0
212.817158629883 -32.3947550359284 15.1171828137799 0 0
-166.274606104124 23.6372456434617 2.06430442112449 0 0
-214.084037719562 -2.82236136596351 7.65369353101191 0 0
59.4387646350034 -6.08659949904419 0.67358938046008 0 0
