"x" "y" "z" "f" "a"
174.052737911011 -40.5905328572476 11.4906016398915 0 0
-25.3766531862616 7.92928061883185 4.14903489655401 0 0
-193.827441125693 -22.6002735611553 3.4736824811323 0 0
31.8916872624311 12.1241585897297 3.90778324221596 0 0
-212.949599224377 26.0249986496357 15.6099350066713 0 0
-211.162027971681 9.96347434367196 -1.4808396797591 0 0
167.39437449217 -21.1063134922242 11.5120581936488 0 0
-166.344989661877 7.44912563765515 -5.67776417817932 0 0
182.36452254088 -0.925244673625323 15.8265474104154 0 0
-107.742585994973 1.74548416370557 6.07118447250528 0 0
-42.6667001584471 21.2744000237751 -7.67114783453977 0 0
160.621317183919 19.7139051318328 13.8599963452783 0 0
205.294840031553 -21.1506765162151 -12.4368822016923 0 0
-178.769649558091 -1.91883479371211 24.8381336521265 0 0
-225.322123419361 -43.4203254668806 -18.4626646029182 0 0
-20.7750219374152 0.426487121747007 0.667163386062455 0 0
199.995656419871 -24.1268596862306 33.0671650994209 0 0
-111.570622830722 13.1210407553867 -16.3576215531907 0 0
-128.734101995875 5.18436492781777 -12.3996800455824 0 0
-28.6069887123711 21.7839786342719 -17.3246543635393 0 0
185.570519592381 19.9412898590437 -28.2152167278903 0 0
185.466666588991 23.3813416905053 -27.3866138836768 0 0
175.940349356366 6.24026714763852 22.2827936298054 0 0
201.073278190261 -14.4077101270968 26.1158025475998 0 0
187.149802548487 -42.6107098751997 9.03262175435055 0 0
-227.313069988461 -42.6691329718566 4.03617443105811 0 0
-169.636614709454 -8.26951123043232 2.31241264191655 0 0
20.7758652906775 -0.619120900103786 -24.6712562880757 0 0
181.920593122528 21.395377575397 -29.2912101699514 0 0
192.828361723334 -27.4800776461612 -14.2450291992907 0 0
-26.1478610108647 8.60630555417889 -26.2742397415882 0 0
-189.177514623954 1.68671463220285 27.7249637716755 0 0
-182.987554405943 -9.57081611681629 -7.39916733857335 0 0
88.1541394306047 4.67362802473484 4.65035198463106 0 0
-207.628882686373 -30.3341447802146 16.4523435311439 0 0
-154.339603000214 14.8616807622065 21.449969369239 0 0
-113.510304872232 -2.79360628545591 -1.13979202546526 0 0
171.107332655091 -5.30350425690826 13.4938546283758 0 0
-63.937329222239 -1.14630090560431 -2.00385227480573 0 0
172.267077300731 -3.30348978305393 14.4397101719956 0 0
-172.284307773253 -2.36458043577799 -8.9058342634636 0 0
-210.810909021508 4.62232139861535 4.42494585247633 0 0
-0.515637439205366 -4.99664901784657 -16.8775913885654 0 0
-192.592374358632 -12.0068192324257 11.1105938992849 0 0
152.384185465914 18.2590663876428 8.63877959904567 0 0
210.399426388329 -31.2163040354172 -1.24865911898983 0 0
7.85714097959739 6.20793371199776 -26.5481206074393 0 0
59.7328005303072 9.50763005590031 4.53987159434372 0 0
-13.2185739752441 19.3769561444748 -8.36062816384767 0 0
27.4494519331923 8.57985973237689 5.77075470395778 0 0
-8.60409618234488 19.2660691717227 -8.6840431469162 0 0
-161.677983900361 2.47582046390715 24.728408135469 0 0
72.7898539572072 -7.64451039754382 -21.6231776971423 0 0
180.607059314898 -35.710059691729 -5.01473550984824 0 0
-179.536532682372 9.20864479371933 31.4883520000629 0 0
-192.499502090117 4.46161843272417 -8.95299576133131 0 0
-76.5272984275185 10.2201279989775 7.07998495032953 0 0
-45.7153077844441 -0.656331873755119 -19.4362242895784 0 0
155.785794850761 3.58792929843619 9.09298202264712 0 0
107.58117280932 17.1087861648102 -10.5656650245823 0 0
-128.53653114686 2.43617609003876 -11.2862806469125 0 0
-37.3207081891095 8.15394971925028 -25.6544918631832 0 0
-210.963525431359 27.6318853503155 14.468359316576 0 0
-49.3678692948613 2.44586977366363 1.98132373993466 0 0
36.7193564868239 -7.11022582659358 -11.1884527736207 0 0
0.675626072700307 14.2331319684106 -3.37753448809532 0 0
-206.211339343057 5.07302608130283 30.9808642976902 0 0
15.5251638403665 0.298913512904715 2.43574760929273 0 0
-174.729567416197 -4.63033437583568 -8.50262513726716 0 0
-234.550876839152 -20.8142548778522 -6.3822935825013 0 0
-197.161757117035 2.8048163774704 26.9848145269765 0 0
-68.6177507203377 -2.96503127322087 -10.1974500506447 0 0
-195.029554484435 -7.02283634188083 13.4992885446089 0 0
105.09533862737 10.715986915782 -22.8975999384782 0 0
-30.0513474745094 -0.58903043624836 -1.12300326393737 0 0
206.939508389104 -37.1894538119235 25.1440053876812 0 0
-206.44831195197 2.5657863206077 -6.38472599024515 0 0
-94.9473601569408 -1.60305382725591 -0.0488180461529296 0 0
-104.97809488681 3.29379515140683 7.40202821931197 0 0
133.941842048725 13.6962827039029 -19.0987637345528 0 0
-189.324471644498 29.542536478002 24.8440204434906 0 0
-124.500982021723 -2.0532726827022 -5.62740899172351 0 0
-6.41465334635977 -4.23620947747611 -9.11788195866123 0 0
-63.90710069196 -2.09647514460421 -13.7276876078416 0 0
-34.3843238630117 3.3229306315269 -24.414434112542 0 0
177.943305052983 -7.13613132589902 16.8886746635119 0 0
162.512000142915 -18.1682076114361 10.2570104782533 0 0
-119.2088106733 24.7698852204112 -2.73540291240532 0 0
202.283795059929 -37.885487783837 30.6324881129536 0 0
-118.708208299973 -1.09460756875711 4.55343263737984 0 0
-198.4244998265 34.7898967166962 12.2192943976088 0 0
101.077141277697 5.61868500562896 -24.9293444109432 0 0
105.35370927858 2.12214121051182 5.20457413815667 0 0
-84.9634646946357 4.95859452785307 -19.4212897176106 0 0
142.453631453285 13.3067685852924 7.58251910294285 0 0
92.0551975731174 -2.14058606023081 -23.9043027852011 0 0
211.863535084966 -28.9211567630545 10.213414353812 0 0
-165.681395040326 -18.0466045426925 14.2370343297272 0 0
203.68731274817 24.207790019896 19.1231067926223 0 0
185.428214048752 16.0031254386708 33.1731535674012 0 0
183.602732198184 25.0689569582014 -25.6809508850213 0 0
36.8065116460167 12.8102469894228 3.56005395069968 0 0
115.656593410559 -4.47658814428837 3.53178468496456 0 0
-143.832062759298 18.3989556215737 -6.43989424772829 0 0
61.1736963716636 3.52564955281039 3.33304104529115 0 0
-202.662481625366 3.88707567845864 28.0674622163445 0 0
-179.861984508538 -7.57466373514259 -7.90352105558954 0 0
-202.452239344062 -48.2260931519056 -0.216714047913977 0 0
191.678604692521 -38.9152078801956 28.1792927551224 0 0
-9.15876820666294 20.2665655732379 -10.2673584453427 0 0
-71.8230147656293 23.878154599431 -9.98386527371749 0 0
84.26175824564 -7.43521157661965 -2.30879819529988 0 0
208.564617515876 -35.1932778540854 22.8985449147253 0 0
-81.0429364680684 14.6413955971519 7.23911291788729 0 0
162.926754233138 -3.71173198122797 -17.5779380650045 0 0
-179.621407665914 -5.55830272753594 -8.49326333987947 0 0
153.699986452771 -2.44641167492621 7.17674382261943 0 0
-44.7261365135649 16.7402042748076 -23.4864892945798 0 0
87.3764803644315 5.28949174123429 -25.5948057715869 0 0
172.295858033862 -21.6691417425637 24.3931703259916 0 0
91.5645283012277 -7.60057575209823 -21.8076157205556 0 0
171.091852426257 28.4087093177045 26.7514461192526 0 0
-125.250445311458 16.4884572001812 14.1422124346613 0 0
184.576101294783 -42.6366502194322 6.37646152637369 0 0
-39.1677334958307 -1.87674477881031 -18.5419667081705 0 0
-187.664193171038 -13.1916910419078 -7.65222596576968 0 0
186.00739884597 25.3867669468116 -25.3391224755072 0 0
47.5289624379474 -5.18298361577123 -5.16215841149218 0 0
151.750851246702 -15.4982247883961 -14.4392595378799 0 0
-80.2145318338518 5.16034169028076 5.29105259634974 0 0
201.669542835357 -19.4647746064341 29.9254655408316 0 0
-108.219907640291 -2.86872131115485 -2.21081580319277 0 0
202.52409337439 -5.323061265695 -1.0800087298461 0 0
185.059531077785 34.0207448669531 17.8642706116777 0 0
128.913670970245 17.1653058679034 -2.49366557067511 0 0
45.5504696735324 9.20028820903179 5.45100508958574 0 0
202.247534221642 26.4173313605862 -5.30426236171328 0 0
210.453352385841 -19.8584996112017 3.9711981069964 0 0
152.852097233399 20.885831742741 -4.82366470399959 0 0
92.2348505857041 3.01615940357698 -25.221504740746 0 0
-209.398517641484 -30.4463848096119 -29.345669038268 0 0
-142.088454663168 22.370073317771 -3.01001083553934 0 0
19.3040655385774 19.113681215998 -18.2230365187402 0 0
-203.398868620915 -22.9726272377309 12.7907190879903 0 0
-128.788290053084 22.7299083047355 8.99233898066517 0 0
-197.599375898758 19.6013020898639 33.1532670755755 0 0
186.513898720587 35.9875611687621 6.58392589976223 0 0
-221.759182965187 -45.3830914949995 -18.7719339193755 0 0
-56.8282740798258 21.2519641581533 -5.2078896806069 0 0
201.188022051284 -34.2136722413722 -3.3429686523751 0 0
41.3226386352938 17.3771454321623 -18.8871491950298 0 0
-186.481767989973 14.0638721543963 -3.04574747291693 0 0
30.9446949882123 10.1615418960463 6.78175526290757 0 0
-55.5556618544915 8.21701451769211 -24.3752281137312 0 0
188.463387027252 -2.07925387227934 11.4009493298047 0 0
-26.2829311290572 13.3799774178355 -0.657644384604215 0 0
-218.217823186653 -19.9422669505476 14.7691581231808 0 0
139.166790594602 -9.19625132969534 3.97902768237879 0 0
79.5946802111969 15.2847191886154 -4.09779600687822 0 0
-132.164595001224 10.5108118756101 16.0986746778691 0 0
51.6696724596087 4.99711751993017 4.14134076538768 0 0
-153.987592959764 24.3595228118301 11.2013430610174 0 0
-116.609911711255 0.296653365600365 -10.7705536156257 0 0
19.4460333389033 -1.86884023456348 -3.12763186701985 0 0
-138.443725005804 19.9879338771173 14.6339837178515 0 0
198.343263870983 -34.8659519163083 34.6393644318108 0 0
196.418056698122 13.4741898442134 -19.2532171074843 0 0
159.158383436742 -6.89114740840104 8.65442785958916 0 0
-156.865760520071 -3.43030513566972 -3.28845060692626 0 0
193.835499739422 -39.9452101402445 3.43086169948822 0 0
185.191421339477 33.9014106431328 20.0201314748755 0 0
24.095278031614 18.8877397179331 -12.3047792832765 0 0
100.15873081248 13.2794426522193 0.291219278877432 0 0
185.839131077986 -26.3510875058019 -16.1484909283817 0 0
-133.273521017528 17.0167463150423 -9.61318784874995 0 0
203.015281842947 -13.2421870206379 21.3679497515028 0 0
-149.517333177354 12.0447961284027 -7.88058760387418 0 0
-195.352494910044 -14.6348188249888 10.019721058937 0 0
149.192343832156 -19.8640532340072 0.0403983546479333 0 0
45.4930282034883 17.7249724755225 -12.4492631524102 0 0
-196.663463056043 -37.8287906601799 -1.25603234292466 0 0
-70.8559446645518 7.38571991958972 -22.5905617423472 0 0
-61.3862883644936 -2.80767387926508 -12.143836059724 0 0
42.2117796610102 11.6692419936969 6.75251501052001 0 0
147.657215244226 -16.6868254128736 2.35867811234847 0 0
-157.528673686262 -6.97012785282816 6.80966157861394 0 0
-163.581863266351 -8.17258857632358 6.14518641741465 0 0
113.590791333578 -1.36170909013171 -23.3025349049283 0 0
-176.111679958649 19.4585855523649 27.1373504365813 0 0
211.491885419 -31.7396638176788 14.1176845089888 0 0
-104.122904009071 9.14689806161116 10.1482288041014 0 0
-86.6525403717433 14.3469715426266 8.34333267098557 0 0
200.612375946896 21.5112421985096 -14.4187909959383 0 0
-108.405446686036 -1.9866482722747 -7.87873896181504 0 0
204.580687829872 -11.5934027737193 -8.04674028108315 0 0
-211.334411872736 -12.6322870059966 -24.1204453021077 0 0
-234.918958619669 -24.4146158546681 -1.63155175472574 0 0
-168.002875313479 16.1983796612785 -3.36939451478649 0 0
75.8279062997294 12.4654432964701 -23.4552696909374 0 0
-99.4575684837409 22.3681017405525 -12.0202900499049 0 0
-197.129739872175 3.94596196930715 30.0220657555506 0 0
-215.289430174019 -31.3802644200601 -29.2947954841292 0 0
-211.477871956475 27.4464697825914 16.27817952952 0 0
-206.451291234963 -10.2721309777602 -20.4735439528905 0 0
-184.918261965571 -13.3680097745201 -5.78973153485233 0 0
177.195372224906 25.9346039665727 -19.4160411892005 0 0
156.680209264437 14.6677662576797 12.8939550681097 0 0
-217.281838922496 21.132574912167 14.5511002398797 0 0
-178.029837758901 17.5347795833757 29.0350726425274 0 0
36.9143403118321 9.14332452628152 5.96998316899493 0 0
164.509892099414 3.08903727810627 -20.2405128561482 0 0
50.8945395483149 13.3092625646962 3.13858905821365 0 0
136.17223358702 8.02131718049486 7.43094805734375 0 0
178.026570037596 5.6075919777734 21.7154569732185 0 0
195.513145658158 21.2936727932729 30.8689206701218 0 0
146.097629007608 -3.79420030282851 6.00333900542644 0 0
31.5162181186446 12.4606388356593 -24.9864121826636 0 0
79.4908100689474 1.53084902563791 3.31281070190235 0 0
-22.3358941429082 -2.83090672252552 -19.4797334724151 0 0
-23.6905810521391 13.6169077118718 -1.08674253923712 0 0
198.705618066969 -9.4268212421237 14.0414379105411 0 0
181.844463160532 -6.35650760701152 16.1463167747703 0 0
-197.644358632084 5.07002572422666 31.5151828712395 0 0
-156.026240923797 -12.1428766153623 14.3180541460857 0 0
-173.362950246815 -3.10022648421536 25.4203300130663 0 0
-102.212313423006 16.9417136096051 -16.8804563894717 0 0
132.673938443648 17.6280670143588 -9.71786805690879 0 0
-144.039711185266 24.8199989846055 2.52027109778967 0 0
167.935591315974 6.65925337297041 14.4126186592722 0 0
-34.9944417050534 7.53231150505293 4.18778248901136 0 0
190.754285018721 34.8637219004382 7.85030602233051 0 0
-14.0071378200846 9.33782835417989 2.63736767969409 0 0
-186.178466006729 -10.4627504921233 13.6575144168139 0 0
-3.93596753217946 -4.74921918643724 -10.9328910892627 0 0
149.210187908667 20.6003489196824 0.411791300111035 0 0
-194.105842348852 24.8836788275 29.7318939122108 0 0
-213.096362799039 -23.0766661790629 -29.2992982714462 0 0
70.666993507052 5.44183036808307 -26.1146533449669 0 0
-226.983126716697 -35.8436074182982 -23.0964555355289 0 0
-181.234080514256 10.7334721223348 -4.66264942920519 0 0
147.374580656711 -1.98594917220039 6.61385401829171 0 0
10.6742523864527 7.86403008404856 -26.5996746737478 0 0
86.1752363017486 -10.4729889072658 -6.90679792340552 0 0
40.1481944177247 -0.194489079913809 1.18936633789545 0 0
-68.5378283345394 7.19458174646818 5.28068822287272 0 0
206.706824944862 -38.6305394522369 8.47943029907121 0 0
-189.890761282161 -0.951866503456515 -9.10451744882082 0 0
162.513523601963 -24.2937573768708 -7.92584155749657 0 0
188.226487322019 -41.5977081451985 2.92588188023515 0 0
106.871840644034 -5.54605847434669 2.14665280873757 0 0
-190.817252606014 32.7452827888099 21.6505618331226 0 0
195.345907158632 -39.465367272284 26.1787621099975 0 0
207.57275295586 -38.9303907739078 13.7691751544539 0 0
-130.133672244596 13.5850901495065 16.2454367365254 0 0
-205.282192273513 -43.101206539352 10.6209400350382 0 0
-101.251746240477 20.9347931416139 -13.7461700623621 0 0
170.860175381511 28.8566756152692 -3.29645969800748 0 0
101.693909858011 16.3302417998866 -15.7547002421535 0 0
187.835487681264 34.2014409199452 2.13397620960082 0 0
-195.069450214078 -9.15316020209424 -11.0318987551247 0 0
-162.002735313032 -15.8730447788581 19.423677446332 0 0
148.715225257029 -19.5040462365234 -7.19778011395387 0 0
149.998420569886 18.9676823147846 -10.1317607810067 0 0
-220.60721630334 -9.73635826523323 -6.77837424198217 0 0
-58.5865184320698 17.3036134655051 -22.3536543335169 0 0
-208.086673564798 -37.8925626197616 -26.8828213462244 0 0
-227.952062855731 -10.8384400198651 -5.96999887924843 0 0
87.8225333491466 16.7298130726714 -8.2024571233577 0 0
-212.122383001459 25.9109959834919 9.06505430199454 0 0
-15.2633994187256 -3.97540158441656 -18.0610485663109 0 0
-167.675474596226 2.68564281273462 -7.1139636465253 0 0
211.947062027484 -30.7858183141949 4.34788836611517 0 0
191.579269897865 13.8517287034136 30.1406690997488 0 0
200.881852266647 13.447413369935 17.0637562653539 0 0
-48.1890587709936 5.59403613236151 -24.2814613615769 0 0
164.999907274207 27.4768200856397 13.4486998243914 0 0
-140.980030079449 0.161478271689111 13.4036571280481 0 0
-162.175389725559 21.8231879680539 -0.454836139833877 0 0
-0.40237321272416 18.6194358099811 -8.59228481989381 0 0
-215.247648552958 18.0985766851649 0.942495149926147 0 0
-1.92700460411684 -2.71491919960244 -4.38647212096113 0 0
-35.6651311604563 13.4027721326168 -25.164289603757 0 0
180.228648906457 35.611066978251 3.99068786691763 0 0
-105.064511772235 5.19055653505237 8.52017849060037 0 0
-62.2771635355256 22.4099189766218 -16.2482458441501 0 0
-7.48276043397743 12.9433865951401 -1.6808601791391 0 0
-175.036988527932 26.0266940625017 17.1003746189948 0 0
-233.906382524815 -19.5377491072566 -8.60937750583383 0 0
118.681386092654 13.8216090626104 1.84896831101873 0 0
-167.749641926579 25.5024197047242 7.01434481230475 0 0
-235.196487777049 -32.4010590087641 -3.79799312455337 0 0
104.500596460296 2.06557778810713 -24.6008797233061 0 0
181.479329671985 -33.3082970533419 35.6132403368971 0 0
196.932319473458 -34.9429727639328 -3.62124260968648 0 0
-72.1483242642712 23.4735384095847 -12.8555218375444 0 0
-102.246279645663 19.0988927100836 -15.4153317363518 0 0
196.242407544081 -32.7895074655753 -7.4590035931566 0 0
166.084584182198 13.7965884900596 17.1677575736602 0 0
-15.092257870319 18.971982052641 -7.66686984039545 0 0
148.18905797359 -18.6551855266026 -9.69419672946769 0 0
-52.9889840597083 18.2401857828229 -1.40760022776648 0 0
-201.076709155009 -41.5095394701173 9.75245997171885 0 0
156.29766348613 -0.257233534460715 8.13767389382641 0 0
201.696294673274 8.94592364154004 1.81582470235788 0 0
-198.37855283025 -26.0706832829236 -15.3494437574355 0 0
-35.2427188029706 -3.857816107597 -13.2239745661923 0 0
29.0797619727967 13.4454007749896 -1.42946176607199 0 0
140.861494282705 7.72770703884491 7.88666188232994 0 0
-215.350360132731 13.6543213999253 2.6255563126691 0 0
-26.5050754146061 15.5165197366538 -24.5196931500432 0 0
197.655115971736 21.8186669279415 -19.028522196866 0 0
-196.309913402902 26.7039103957534 27.3654845265493 0 0
122.715740741585 -7.22907977065312 -20.7972823613324 0 0
201.887940609056 32.0571964865417 4.70047491438605 0 0
142.284985123335 -10.6670821373663 4.14180452601222 0 0
-209.51855153362 -4.88272263025228 7.36946870771199 0 0
183.163005075422 10.4964359224126 -27.1131791784634 0 0
-197.250747321944 -37.1844524774788 -16.9753129404346 0 0
-201.512840749746 7.63887256640509 16.0578707047094 0 0
193.321555851368 27.2385781830168 32.8591690327985 0 0
-152.361937398411 6.99414883050016 20.7029645904508 0 0
5.28336522644168 20.6048681660706 -13.8999586091281 0 0
-220.056745262336 -47.9402987574133 -14.1560683470933 0 0
-158.299531639805 18.195447667639 -3.82228850664904 0 0
192.777412082276 26.4851560323394 -20.7149973833043 0 0
184.728041053515 28.3812461227233 -14.4954306793028 0 0
-96.4239770450833 18.7889311302501 -16.6641867269247 0 0
188.543364729252 30.1454053900332 -9.16502873527316 0 0
199.684967041646 -25.7264017338486 -14.5029708033585 0 0
-231.020736151772 -14.6100494613687 -9.37988750435827 0 0
-105.736731008496 4.44528288624803 -16.0436034603986 0 0
-5.86088719570303 20.9345724215547 -16.7031336401031 0 0
-180.257249946006 -10.6047819928265 -5.11271614063169 0 0
161.247851664269 22.9333988849908 -7.15878175919274 0 0
-190.442158339849 1.74735991919271 26.254912878427 0 0
102.718160480704 -9.68922122764451 -20.311944857128 0 0
-96.7100982831664 6.80668878827889 7.93806557785872 0 0
86.905051085766 17.0805970566523 -11.8709518764304 0 0
155.456492807365 -8.38918429344738 -18.0776266032699 0 0
171.143144136345 -16.0740806017066 15.3548741967486 0 0
6.55067511211865 3.63122699684617 4.87645612501909 0 0
-112.880776243764 5.48067494803078 9.62964405109469 0 0
-204.468601066826 20.9829346241269 32.7821433580918 0 0
-106.969137314185 -2.51395287186429 -0.619501541736955 0 0
194.870334711337 -8.66797459123694 13.0684067969953 0 0
-34.9505408253136 -3.68347344645015 -8.33296757253737 0 0
55.7191430706481 7.63399969627248 -26.1928391584175 0 0
33.0139505641785 16.7345719511232 -7.77576819476601 0 0
-195.534496840728 -42.68736428518 -2.79363956913851 0 0
166.544823067198 -12.0481745817826 -17.2457466375015 0 0
-199.363093632693 -40.197387619262 8.17299978418819 0 0
112.338988500124 -11.9668697669503 -3.15349500521872 0 0
63.8772925227934 3.11494244093144 -25.9871044421103 0 0
99.3628209939768 -12.6621959039225 -8.74306070079346 0 0
92.5191434464393 15.865524214329 -4.83539109783121 0 0
-213.097690406146 25.8339909717318 13.6973017142117 0 0
-205.539821543444 20.7001215376162 -0.991711483311169 0 0
198.914849774695 23.1426155211087 -16.8855302261877 0 0
-113.922019690406 7.20631557312469 -15.8364559393727 0 0
-186.076868862428 -0.204698749862061 23.4998675618277 0 0
-94.291283762928 10.5786966852327 9.36885262940904 0 0
-140.895212797999 -1.7302917101426 -4.77375081048038 0 0
-180.61062313804 -15.0833668817558 8.9924292164 0 0
127.850175526622 -2.53844505039636 4.98087597123154 0 0
144.121888911383 4.35189162734216 7.79290850548177 0 0
205.918645559801 -17.1064192381102 21.0500127325113 0 0
-181.723775270603 19.1029135674437 30.2530091864183 0 0
115.030388538229 -2.61825781715721 4.23829179249461 0 0
-24.3021202339121 12.7030436120483 -25.6580856436267 0 0
203.69879496063 -9.16507315585085 -6.54313060331061 0 0
209.043874738134 -33.0981046877368 -2.10941662445373 0 0
-179.22458772086 22.9325751459503 -0.217634371675029 0 0
-20.8672963299686 8.28378013362594 -26.4337799299351 0 0
-210.374685737415 9.98003679663499 10.3849989545586 0 0
39.0295249928542 -6.84976646707353 -9.61916111207968 0 0
195.231674036477 -38.5428294770714 2.45191300339678 0 0
199.664953634385 30.766254892678 -0.800568623413896 0 0
69.698226414124 14.6918939411063 -2.8607738125536 0 0
-117.754791913499 4.50213776133188 -14.1921592040061 0 0
-214.751023196882 23.2517726726261 7.81341279340627 0 0
124.59434529401 17.4765478086248 -8.43186718754054 0 0
-154.183580924143 -3.78586376811046 -1.37394639523592 0 0
-22.9388444974354 0.977052608077615 1.1490700354043 0 0
-129.351391461048 18.9729308399933 -9.16699327738083 0 0
-205.221036658216 30.4234903266542 12.4495381559792 0 0
-218.262636344072 -9.62434644702745 -19.6114769950586 0 0
-165.299771965778 -2.99253374522619 26.267441107228 0 0
-154.231042176686 17.4316335547354 20.1274598486351 0 0
40.1279461016913 12.8209614321098 5.97015378190565 0 0
-216.73559310242 -31.3968270899604 16.272884704421 0 0
-154.885064332874 11.0585248015948 -6.78520447088028 0 0
147.898441107219 -14.8092557134737 4.12425027860592 0 0
204.025533444498 -14.4443082930672 -12.7530314579728 0 0
-113.851602059781 1.73501498775703 -12.8433730654657 0 0
-140.165978005953 19.0020966369043 15.9747349871502 0 0
-181.590244412731 21.5317571486717 29.8239118887085 0 0
109.74541406986 -13.9446650347888 -11.651652857947 0 0
-229.607488392544 -34.9613418124853 7.65981550683032 0 0
196.422733780462 0.56520589549264 -13.4148683399638 0 0
-158.201611274227 10.0809686117149 23.2067032805458 0 0
162.006735768777 -8.8260832920743 9.86256921970704 0 0
113.664155133997 -14.211136247721 -12.4607445821005 0 0
42.6739375393185 13.0229156057612 0.481080286110612 0 0
-152.883411660415 21.2585359761788 16.4859786512555 0 0
129.288710035837 14.5468965451528 4.76762335903229 0 0
-140.361129665874 11.2837212572722 -10.1828427015999 0 0
-180.65572870929 1.65994570168324 28.4789429735704 0 0
-163.869597417577 -13.3366555733869 8.62970979058188 0 0
-215.33058319919 -33.0785474467885 16.2685462348668 0 0
-175.54395943837 20.3225524796699 -1.37716594400221 0 0
188.386302919727 -23.5809854971278 -18.1748004585842 0 0
167.405873076864 -31.4461879393878 5.16438545391176 0 0
156.249061706652 -7.12678092450121 7.75484773214043 0 0
-102.544173050706 3.70339357952009 7.12677892662178 0 0
167.429172139103 24.8256190547329 -9.60657634225737 0 0
-168.913333629878 24.3598580849656 3.3759465155949 0 0
175.44896066128 32.3765209008229 0.676766653311815 0 0
-202.879652851196 29.7233633953578 23.8028623985738 0 0
-213.308091342934 -39.8856574865909 13.8106323816851 0 0
98.761444333777 14.6485751968705 -19.4438951060234 0 0
208.06309993198 -22.858866838796 20.9483479543799 0 0
-94.2388906410887 5.94248318153562 7.28117621015635 0 0
-197.785615843613 34.7197070655299 10.1453897470003 0 0
-43.6379140424669 13.363313698368 2.04511587460618 0 0
-204.785350574093 -19.9577934271192 -26.344098857941 0 0
173.02865355928 -18.8803884286894 24.6746123296177 0 0
97.4045139317735 -11.8226327034224 -6.5485812406226 0 0
-23.5881130462227 2.83171925350077 -24.9694034599667 0 0
-174.027287929592 18.5505839277543 -2.09318733893333 0 0
-202.37509891509 -11.2114752434774 -17.9140618288985 0 0
25.0366531937029 5.07583464961127 4.91559883088392 0 0
-76.6004904617974 7.69362700294506 -21.9528496096189 0 0
144.851575825066 -18.5998129489169 -1.92958384802753 0 0
106.004191531198 -8.7015780208149 -20.8664617162946 0 0
184.036974205599 -18.8592148647014 -21.3572657295942 0 0
190.653862917333 33.8809260883482 4.24740993447031 0 0
187.177292794296 8.0815005891124 -24.7772154606492 0 0
-84.7483678989501 22.5163179029066 -13.7634695367037 0 0
196.70062462447 10.9026860850591 -17.708947337723 0 0
71.407197599417 13.9869120774201 -22.1752304819164 0 0
-148.216720113132 18.1979748211595 18.1952298061235 0 0
-15.3232220544984 19.7909586293105 -20.1431854466964 0 0
174.636649103658 6.11697398650149 -24.8327270320148 0 0
-44.4411422152236 22.4802247448553 -10.2299662975837 0 0
-217.173018398516 19.8746106158012 5.55385061529858 0 0
63.8575710803545 -0.273053266310629 1.48012069926125 0 0
-223.03576557758 -19.3818021913644 12.5194269151593 0 0
185.316298258739 4.13948370364024 16.2589879452518 0 0
186.31376321191 5.72811942480087 16.1444448552324 0 0
-157.427244780374 -13.1677338180874 12.8057266213995 0 0
170.65942190244 -37.8624213606348 8.79461871878305 0 0
-64.4836277168775 -3.11712089878918 -8.20445880023303 0 0
184.07794224343 36.4474518741552 6.76986734828664 0 0
-134.883153639878 15.2339145238435 16.8286391422972 0 0
-229.218115182728 -13.0215616983754 -0.350441899787289 0 0
-145.570502345609 23.6375506721233 11.8963990211471 0 0
-159.496973308465 2.78882918374748 23.9699137488646 0 0
180.143720476224 -27.5842188656537 35.2614984560377 0 0
158.757521763731 13.0972927456769 13.6468959983442 0 0
-74.570781535892 -0.525723585972048 -15.1339286020017 0 0
169.116418878122 -34.2250718111386 7.23487847953405 0 0
175.032176677015 -40.0252072601015 15.9910912876571 0 0
-206.99941861931 2.97753623589857 6.78691307439903 0 0
-228.537603868811 -11.3410918832555 -7.40556305484335 0 0
174.620849042539 24.3419388592223 32.4037350695573 0 0
-209.755233522513 -5.76027594129536 -11.0405792017017 0 0
172.883099331903 -30.8463355478539 19.3421083739917 0 0
67.5288905681779 11.4241221636198 2.81504386471581 0 0
-202.027091807189 -46.3872023538003 4.374013943346 0 0
165.004697858767 11.3590259589564 14.7920136001381 0 0
196.606213600483 -30.9056646260685 -9.74094439912767 0 0
168.099059042536 -1.59496070156207 -18.6621586020623 0 0
195.762824339805 4.2619324645558 -15.3310627090769 0 0
173.89260959161 36.0313120787795 13.8104747491257 0 0
-226.568349511506 -15.155276381771 4.80016091166376 0 0
-13.2781402465682 21.2233594730651 -12.2592428159459 0 0
-88.2582567560925 21.3160122414204 -15.1923680229031 0 0
189.958699783737 6.47736967774843 15.2400643839082 0 0
61.2279222763184 17.3332593012686 -12.9876049539453 0 0
-179.0615637593 28.7751880829528 8.27991653468019 0 0
-234.158765985708 -22.9899744225239 -13.0707939830762 0 0
188.78246382928 34.9647101972824 4.46522942458178 0 0
195.641988282783 23.9416700077713 31.1856094126111 0 0
-221.021943565025 -13.4706086862794 0.5799068372564 0 0
164.057035854137 8.03366437481504 13.0128144598665 0 0
125.749619644123 -7.27530839661589 -20.6157292242993 0 0
-149.464244152948 -1.05827449867175 17.3783030849244 0 0
-225.127836953057 -9.05177715799622 -6.80236174665919 0 0
204.047768513272 -24.7530778692891 29.14000270017 0 0
160.63109864379 -3.46294544538485 8.78316351639571 0 0
202.182322759972 15.8903393585237 -9.6885806663993 0 0
-120.432238153009 24.1976221569236 -4.40917551472354 0 0
207.305505729876 -32.4738940562157 -4.57214570378315 0 0
-138.279528274912 18.8029518737787 -7.27879222925492 0 0
-72.8532588427444 0.440869559070881 0.570009679900327 0 0
-215.818847619779 15.7374120746366 1.03728460136875 0 0
94.1884939985164 0.946895939916169 4.20795839938843 0 0
-179.061374965022 27.5587602892488 18.2293832283081 0 0
-104.066352102662 19.4048885222961 7.29049010856036 0 0
-13.2386515675729 -0.77713369355025 -0.676665054635578 0 0
-4.08416335927565 0.894286599851241 2.64177724447768 0 0
55.7421792600407 12.1511966946959 4.21775721326927 0 0
188.129608830794 -38.4695450862127 33.7733745124142 0 0
-193.582003482714 1.08145550047029 22.3753950277104 0 0
87.518144128762 7.11970368123341 3.94648568029205 0 0
14.8277110530756 11.327233638966 -25.8757867554314 0 0
167.773737768814 21.0590551518223 20.541750580578 0 0
-170.823667963214 17.8202385611792 25.5498833310965 0 0
-118.819323782688 9.07080199601567 12.9229565899268 0 0
175.287767508125 -17.5562269928766 -19.0238362686235 0 0
115.451860958186 7.42912712839355 5.97445004947849 0 0
-184.331115611461 29.6640621899933 22.4343098391564 0 0
196.99700016539 34.8177361839526 27.3094380359872 0 0
199.016306545729 -21.7659029753502 33.3089910877611 0 0
-3.90682176709406 16.6015290149618 -5.75990217021215 0 0
206.46444399719 -21.1197614931094 -9.97782396007578 0 0
193.657263512965 9.94525539361669 24.3420867170871 0 0
-156.378943205243 -7.77303312565332 8.85783557359232 0 0
58.4032017105844 -7.32319976308545 -6.84916400015113 0 0
161.469814375585 27.3065110550098 8.13691837301827 0 0
157.997533579012 -5.55520103639717 -18.7238773290524 0 0
-220.977656582259 -48.7868222229839 -3.60987538953973 0 0
193.285745200453 -25.9821181421617 -15.6457516762896 0 0
-188.084971448408 22.5409153623883 -1.39368789620748 0 0
-177.624345983021 -13.6726560179913 3.97344250417056 0 0
88.0419264537 8.42251561565473 -24.9860153653545 0 0
-53.8364762001518 -1.43576282085378 -2.48214469871912 0 0
167.677206720193 23.9597116602064 17.9172764276528 0 0
193.156057984686 -39.2128932642064 29.9454992626057 0 0
175.997222335065 -41.7702314121278 11.2257183331239 0 0
183.519062649517 34.486231130841 19.2737057692525 0 0
83.479520539972 13.9241324194072 -21.5808882715401 0 0
193.354764012584 29.0289821874145 -12.8989628033948 0 0
191.56810249376 -21.6539801265562 -22.2105091182298 0 0
106.628634358579 -1.54276177984412 4.07120776552452 0 0
53.8248146491735 -2.17493990291706 -1.18665608111425 0 0
-177.374483870713 -3.35294025769278 23.2983439745537 0 0
-53.4270078107691 3.68480497308567 3.17849163638974 0 0
61.976252424355 -7.62274531561064 -6.69254536567873 0 0
201.467125549328 -40.099804214427 24.1903284524434 0 0
-50.7066266916421 20.420102126008 -4.82557405180135 0 0
-158.66186735462 -8.45268168256435 24.1811777468745 0 0
204.678009535011 22.1572574374594 13.8843073132986 0 0
192.330576265694 0.310719307455039 -17.2653608029128 0 0
113.235974499251 -12.4490672628955 -17.6735690108272 0 0
-27.4146000237019 8.92815057414553 4.0576982304335 0 0
25.9931285056763 10.8585428379403 4.18460758365225 0 0
-189.927102730134 5.55355187966169 -8.44995348288144 0 0
29.2995777176927 18.9084973196874 -15.5876703650077 0 0
-221.76076888491 -25.8534562137917 -27.656864297149 0 0
133.406750407612 -3.40890092009249 5.0816868874103 0 0
-10.4098793309796 9.6189532568492 2.13642582920309 0 0
-208.463859369702 20.5727512232166 -0.183240346536597 0 0
196.691843239542 36.5506588297292 23.5739361528516 0 0
-58.3554658889792 -2.61977259015101 -5.09325704885975 0 0
-148.722153152738 7.12741822314623 19.5821581527328 0 0
107.346964435201 16.8827131218051 -7.49846887922224 0 0
199.389603524186 -24.0490448002884 -16.7617644011282 0 0
2.48157042217728 20.6364814423846 -13.2807750120441 0 0
-43.2626717078293 8.72805993877883 4.68723647575024 0 0
198.811428319441 -8.84454968773401 -15.183678625598 0 0
-198.738902948259 -12.6828520918133 -14.2641828466057 0 0
-147.293723075875 0.906596696574661 -7.90060078658215 0 0
17.4053053768625 10.912120206779 -25.9715628830743 0 0
140.871181141396 -9.82049731333726 4.10942465969838 0 0
-206.037814265664 9.85768992269053 34.456713633614 0 0
-170.578605255333 15.7669705370623 -3.16105204797863 0 0
-56.9110908052917 6.24685511568339 4.3175660431798 0 0
-217.490167351103 -14.0415165218566 5.55909557501818 0 0
204.275819674736 -20.4738867345786 -14.2499929349935 0 0
-68.6066344289298 -0.498272432748545 -0.852278095530235 0 0
66.8056179126092 8.06072265662062 3.95108922908513 0 0
133.593052419312 -14.8348629001558 -14.3897025717076 0 0
0.479470016319833 8.76004309219065 3.42926405518224 0 0
130.21599256146 4.13468121873756 -23.1031655903689 0 0
-41.7105842201895 0.934867935054253 -21.7648461056101 0 0
-215.339596139227 21.5973116153714 17.8447387721495 0 0
-188.018036609784 28.6714840813359 0.0295431456040225 0 0
-215.306174902104 -45.6239334476425 9.03579275995589 0 0
-177.40912609527 2.05533823112713 28.9537426353894 0 0
196.406089126986 17.0665919787731 28.5553507531666 0 0
-199.101910759242 5.81529373225304 32.2289216470357 0 0
-158.571359921107 -14.1687917823272 12.1279705742242 0 0
41.0250345592707 5.95511283917582 5.13747290614235 0 0
-46.2559006106787 11.6546042914852 3.93683792213488 0 0
178.095981045115 -20.0796482514398 -19.4010670787924 0 0
-209.133180517231 6.62850104158071 7.37207854732123 0 0
165.811850757797 0.26292493106069 10.9445822995247 0 0
139.054960224113 17.7228846231238 3.48722415165946 0 0
-235.570041018739 -31.6091017949672 -6.54657786299624 0 1
203.639448317078 -11.125008992973 -10.0946853957195 0 0
43.4296871777867 7.01798367274825 -26.3385432358757 0 0
-170.878507066674 -7.05618208691418 25.361810014691 0 0
-78.9714491911487 22.9525159908461 -13.6791046337887 0 0
-198.504080679543 22.2390470500358 -1.86232854845509 0 0
186.306436612816 29.0936849537287 -12.2255209705906 0 0
32.9874922145731 -0.421066698074862 0.56038768172613 0 0
131.30714285552 -15.956454321603 -6.07317675156854 0 0
-23.8577204951708 4.82672280939894 3.76353333841197 0 0
209.454359715641 -26.2682760760272 18.9942757530653 0 0
-196.591411602285 3.090646580724 28.6715913379611 0 0
-196.012983720216 -22.7255712955368 5.22544754281978 0 0
-129.631081085293 -2.8281804813946 -1.11496288927339 0 0
77.9154196657426 3.97269508940524 3.99272916701578 0 0
166.764774383758 15.4052105451488 18.5132422062952 0 0
-180.417788871849 28.2309363861083 4.18490166978511 0 0
204.350205785407 -39.0829840143903 27.1276700437781 0 0
175.177400138637 -29.5229086774259 31.3497308748332 0 0
-221.565633256631 -48.8543713485586 -1.42166585124001 0 0
112.572828477647 2.81599488821611 -24.2282571669999 0 0
-176.505978775759 -14.1325747703144 11.9373750486639 0 0
-196.145683639377 27.5779610330608 1.14560353480942 0 0
-105.263415687229 7.11670537373895 9.37415326325774 0 0
-120.88967547617 -2.0056047804602 3.29948205356689 0 0
187.52154684248 -33.257208133323 37.3008565391308 0 0
45.3326403106845 1.87135145927243 -25.8929324516726 0 0
44.365131670081 15.5730913697257 -5.36228372397334 0 0
-126.270835450765 2.56431705215969 -11.711808648041 0 0
-230.299299796029 -28.6807357477401 -21.6219508735377 0 0
-25.4940911645512 -0.705700749731184 -21.9311165669858 0 0
137.205446507862 12.6866022330218 6.81588557998972 0 0
180.128188596008 27.9548688988107 -15.8275272885028 0 0
-28.6378108096091 7.50873979777587 4.1360381761837 0 0
-80.1870821096891 10.2384339047333 -22.0482765109426 0 0
7.12434026825584 2.05543254584089 3.54541453073165 0 0
160.607081646512 -23.5203327095404 -7.39305001693341 0 0
41.5510886387155 2.21678911190536 3.59725718088418 0 0
-92.4962934817576 2.99218876339912 -16.8764664277757 0 0
-232.727078316066 -35.8373809375473 -15.6877093582151 0 0
86.1628002134792 15.8485697816242 -18.1747559636948 0 0
66.1720278397165 16.544271393417 -17.904431334675 0 0
-163.950881883947 15.4982272443942 23.9505392933676 0 0
-234.282106162864 -26.7275200163105 -14.6551555898543 0 0
-208.205079159409 9.18616635404644 18.2815591270903 0 0
34.6197113987134 -6.37931508246709 -19.5445611770364 0 0
148.55976743429 19.5528357712402 -7.32889886151237 0 0
138.095078274562 2.3699186905247 7.03192450898021 0 0
-177.104665349032 3.82279932916254 29.8017578942283 0 0
-82.2448513513801 -0.693844510748651 0.0291593403913163 0 0
193.713516618707 20.2745210355647 31.903819805193 0 0
61.4059384869577 -4.10715755593043 -1.74159876871659 0 0
-186.852119882896 26.7245867644137 27.8329059693692 0 0
-92.0984171691305 8.54695088924805 -19.9508907967112 0 0
128.323451808353 8.9039857007003 -22.4004116012126 0 0
-220.223154830607 -38.8682408001594 12.7177584533461 0 0
-210.090444534979 -49.768312340136 -4.61702488556429 0 0
175.809935850464 -1.63759797033184 -21.5545499337034 0 0
194.925375070414 26.5633418386025 -18.8112568302091 0 0
-82.0191658170529 5.88503701641804 5.7209986154305 0 0
-31.6797236680038 4.44512705273552 3.43234340949925 0 0
26.8547217270446 0.640529490230841 2.55806548899542 0 0
204.084732012978 22.0837063408268 17.0891877456202 0 0
-167.379787462281 -17.7929463876784 15.6587605436811 0 0
145.37185135109 -10.7081236928339 -17.8789198025053 0 0
181.318283939594 37.4202509861475 9.9057160620005 0 0
94.241516966052 16.5911826778047 -15.422082263363 0 0
40.9638849157348 13.7257569988221 -1.43725241559015 0 0
-68.5315456583402 4.97927178327462 3.91174749863438 0 0
167.046188466697 -30.6844828007236 7.15751070971094 0 0
-183.569655411128 31.7170328580824 10.8486080670647 0 0
-194.441107398159 23.1165444180821 -2.17168581754457 0 0
-121.036769437686 19.7125353630249 -10.4961469507442 0 0
-211.943084217992 3.74906879008359 24.6722242709159 0 0
202.442972664198 -7.28461180314395 -6.83942699462532 0 0
-219.384373214055 -49.1253901525408 0.463833263944736 0 0
-214.554300108493 23.1346211050047 18.134569064128 0 0
64.9779598065191 13.762249968345 -1.17575925716294 0 0
-65.1287489149084 6.45692143397091 -22.9196334819271 0 0
-234.958385205934 -30.3146391433484 -12.8200681010769 0 0
-209.957769523371 -19.0969881602017 -28.0029149655527 0 0
196.607709098455 34.5071561300062 10.2223420836866 0 0
196.51285534613 29.5298157585751 -6.90872246596548 0 0
-213.322633891959 -7.56487595081237 0.18883145449844 0 0
-171.366474810395 -8.17429887835976 -1.47915458987673 0 0
42.1513419007244 10.3227041855943 -25.664696951818 0 0
-123.437451334531 14.8987743410517 -13.0809058743049 0 0
127.382501939525 -13.5794380544206 -16.2344382369689 0 0
-209.150108869839 28.5027993318414 7.38703218349843 0 0
-126.802463207713 -2.32898748372537 -4.4091022938163 0 0
-45.887879004679 15.5643417954264 0.432146024996589 0 0
-206.145224564613 17.8749116240771 33.8680813688319 0 0
-55.2326489923422 2.99403983107473 2.3252609739367 0 0
44.6417649762745 12.3907335284802 -24.5940282388786 0 0
-79.9545067078651 0.922233320807545 -16.2665495100343 0 0
188.750168928591 -6.18848720623066 12.98495793626 0 0
-169.04088693855 15.6378817614572 25.9900342917946 0 0
170.760957807179 21.1354014619246 -22.2309436928068 0 0
-128.499024891484 24.7541727865566 3.93507883160144 0 0
-49.5181391041054 -3.24639007889684 -13.3385857267176 0 0
-197.49428424429 -28.4840662285215 -13.6951309193258 0 0
-179.584002633629 28.5185856545794 5.57219774271929 0 0
-43.0360577593509 20.3411636621566 -20.163534214323 0 0
-200.271782345449 -45.7508853199528 -15.0152653767457 0 0
129.555747596961 -12.4971649914158 -17.418788187215 0 0
87.4568340340707 -11.5091283615406 -15.5054283959179 0 0
140.508183530546 11.609478323269 -20.7642016036667 0 0
-199.453715554831 -13.0399926550669 -15.1668312939288 0 0
112.916415920799 -14.0960185802579 -7.55774536067153 0 0
-120.319575321819 -0.617440097287307 5.74261016056767 0 0
192.199781712439 33.749359992427 14.9203504614423 0 0
177.332162628797 -42.0496950863309 6.99193876394966 0 0
-98.584412336553 -2.92205330114003 -3.32795809657872 0 0
7.87545037412022 14.0605575464794 -24.718045212162 0 0
37.5842910913829 18.2572723543153 -16.5315051953633 0 0
-28.7439237029208 16.9197274612389 -3.81578935483383 0 0
76.7435115342854 17.0469653240093 -14.2335752086422 0 0
-133.738096437311 14.6828167153088 -10.7184736994971 0 0
-177.789603637632 20.8939760344321 27.2306140195536 0 0
203.691435062014 31.3320015424755 8.53134857721356 0 0
-5.83467568040047 19.522884738424 -9.33362839525299 0 0
200.487905509945 -2.04885200485009 -5.31297791605396 0 0
-102.245969191067 -1.8298521527995 0.541428344523944 0 0
-211.537201825692 19.93564448709 27.4310118795499 0 0
-116.030396399053 1.39236483553546 -12.189545498783 0 0
-171.130733853926 13.112780901409 -3.70758571568828 0 0
157.904372470626 -0.954745126746178 -18.8367034760756 0 0
23.1318180148289 15.1063061054357 -23.5791270436589 0 0
-61.9663539300275 7.53801823028845 5.22718478198079 0 0
52.3562697421558 13.5974569612039 1.41413850043134 0 0
144.076968014483 14.7104765509701 -18.2126050521401 0 0
83.7968989053345 16.5096439126526 -16.4487554095708 0 0
101.998086523606 -1.39878996488278 -23.8085285325043 0 0
-167.740709575297 -1.15242793642289 -8.01414088669649 0 0
161.994464707965 -27.0004094534075 3.24605384183319 0 0
146.028844340642 20.0209311854458 0.338126058452162 0 0
-94.0888587811668 24.250559685448 -2.74500076427732 0 0
-170.953581910153 -7.57049289797697 -4.98347087479149 0 0
-204.120020716564 16.8691299097878 -3.41874550322617 0 0
-229.182364964384 -44.2884280810034 -3.22845754458579 0 0
-206.825192181466 -20.2200056344011 14.2363808519271 0 0
-25.8233562964086 -3.42380249765954 -7.03220708577309 0 0
-52.5960917453834 -3.36726008056928 -12.1521661688499 0 0
143.111131927098 -4.91294340827811 -20.1795086862344 0 0
68.6984942951579 0.391921937675526 -25.2673674218411 0 0
141.107954344538 -11.5462608508004 3.46546649925513 0 0
-211.972506715702 -4.69462047650892 -3.67161166885367 0 0
-81.9591385585005 10.4618705643928 7.69470070724502 0 0
32.2891346785249 3.85768053884808 4.56250160325604 0 0
81.8201229536695 1.21140336073324 3.35518345811033 0 0
152.666578546247 -3.56863997608609 6.95016296513918 0 0
47.9769406731023 -3.66210028971988 -23.8745810694027 0 0
-213.275165544225 3.30718432616229 27.0495292524726 0 0
-3.519949897528 20.74297677806 -17.382578058283 0 0
-126.692213050914 21.549269797166 -7.30409761374641 0 0
11.0553017921743 -0.804304522577626 -0.140022228772191 0 0
-93.6442258032497 22.2938512321544 -13.1312368078809 0 0
-8.83166962962538 16.5732498945804 -23.7019830815667 0 0
-6.93879122835056 14.7619785292731 -3.68403613955697 0 0
-220.529185769413 -25.7391388522479 15.3106926855843 0 0
-197.222312057452 34.0426236636283 18.3742579678597 0 0
80.8269958728684 14.2168133410202 -1.83469708544759 0 0
-188.202011066083 10.3392067254426 -4.98021988328382 0 0
-214.396381124469 11.9606871270327 4.85291045154352 0 0
-204.142098408215 -49.7334727606454 -6.48192918712541 0 0
64.652226837219 -9.26462326481709 -17.0615992254986 0 0
-202.054563921792 -27.5122443203969 -24.183120750521 0 0
178.617488583652 -36.4445915496612 31.9538096468976 0 0
-211.976500151362 -26.8809896671867 16.9254450776156 0 0
-47.0531683926349 1.61418945163313 1.05892935013553 0 0
189.217139224586 -41.639295116711 17.0359550160052 0 0
188.482487620034 24.3635438043885 34.6632506059619 0 0
-205.83403404676 -39.0522817801885 13.6826011096138 0 0
177.346049451478 28.9103948439845 32.5131308970421 0 0
161.583151030176 23.5293285229113 -4.56902039369294 0 0
-217.126033039424 -16.1989868325834 6.53769355744197 0 0
115.272643832493 11.2553921603106 4.77213869577076 0 0
200.481113714437 -37.3736691710818 32.3841021005709 0 0
-189.934531908834 2.92173294420176 30.3821823253508 0 0
-193.686073712582 5.48326190553066 33.5385735841142 0 0
66.7928418507743 16.3576330262529 -7.23967561512237 0 0
172.64471966816 31.548439128052 21.0081382868794 0 0
151.539269596846 13.7628788460356 10.374526152961 0 0
-220.376737465718 -21.7459108564163 -27.4647593119888 0 0
81.0649001839239 -10.6653030620323 -17.0833642538554 0 0
204.06418230546 18.1881866862515 11.0471333399952 0 0
183.367569740644 -42.3776655635389 5.15856088705396 0 0
188.195423717144 15.1984580988414 -26.4222708453109 0 0
-210.852498623837 24.3772542722719 23.4204950177011 0 0
101.477785349595 -8.55800924296597 -0.689720522102813 0 0
24.6005888921319 18.0465763581144 -9.93612136431878 0 0
192.988881042766 36.1770801586178 28.9489437794808 0 0
-147.680777072144 10.700950889491 19.6059580822163 0 0
-12.0782985531825 8.2832969397665 3.86852128911855 0 0
103.19068576483 -11.1666010804075 -3.42871784022069 0 0
157.727781671455 -7.5876473476656 -18.3309995237806 0 0
186.783227616315 -37.9003077214768 -2.64556745975317 0 0
-206.951866380913 25.6492351251156 26.6168549112065 0 0
204.243727587513 -18.7183060253033 -13.8642396194628 0 0
-208.154504393398 29.4083694809479 18.9277873237528 0 0
-128.126338129919 20.4952622918676 11.5540428190816 0 0
184.330126771635 -11.2193200434634 17.8293834068477 0 0
166.843844723097 4.38656889470385 -20.9066434898406 0 0
-5.36433637543017 3.11108452811719 4.00980757393252 0 0
183.677615233868 34.4013713363694 1.52928528180507 0 0
168.461161462163 23.1748873244933 25.300959449548 0 0
179.391374887359 28.9445236428251 -11.8177501303291 0 0
127.013162473831 17.0661514144073 -12.4939351411674 0 0
-41.2987838609554 22.2303680546782 -16.830600328389 0 0
-120.954493036962 10.911905863648 14.0528758176344 0 0
-18.0764850473281 2.0106324483998 -24.824650529076 0 0
75.4727368633691 -9.73895866089106 -8.09216624572239 0 0
-61.8972515845955 -0.0496291407629499 -0.500919398055788 0 0
-231.638999179309 -14.9759451026007 -5.72413266531388 0 0
30.1960088312468 -2.32498277590597 -23.9353526903886 0 0
-210.993722481226 -2.9484492461293 0.98316750036927 0 0
189.861634552964 -8.48264296836994 14.0404804823384 0 0
203.120488300103 13.2017749622266 2.60002202940328 0 0
185.322804169432 30.8230180796392 -7.71992342996323 0 0
-21.1152268785158 -3.75008840794153 -17.1438983464211 0 0
-171.400459626745 18.1060494719384 -2.4361104278125 0 0
74.9000879385437 -4.90928242156269 -1.05561281058037 0 0
-85.125738419112 16.2896337581423 6.57019635723366 0 0
-59.307457241593 -3.27644441101574 -9.95562176021192 0 0
-94.8965181918551 0.0278884077937514 2.52034083146044 0 0
158.75017487472 -2.74039070498271 8.28025045581005 0 0
-230.935812656318 -18.0011166369782 -16.0384432844606 0 0
135.749380409881 2.77419186690372 -22.5205807732339 0 0
-125.394429103738 -2.23493840014659 3.50513914885051 0 0
55.6824925218697 0.0397367222770909 1.28900757962905 0 0
-230.603173433438 -14.6522831210438 -0.206913593900427 0 0
12.8428213878416 7.25659640772524 5.44485281132505 0 0
-206.492390976855 1.35567650078981 8.33916549256852 0 0
-193.448414192552 -17.5317632785408 -10.3927714458243 0 0
85.4979511302813 -5.22680340052703 0.177230157290229 0 0
-70.1471551275921 8.41403424793438 5.83139701009508 0 0
178.259195499765 8.44911939343864 -26.7817351803957 0 0
4.9770397361235 12.8366947301414 -25.4052053409363 0 0
-206.898724232741 30.5397256021692 17.5961940678112 0 0
192.141025465215 -19.0657503264716 35.6065900775619 0 0
-195.102523627166 10.0336449788422 35.0595441163663 0 0
-189.170258181441 15.1107202239163 34.7686309110481 0 0
-223.021631180816 -10.2213114506214 -5.21097894209673 0 0
50.4730276072715 7.7069979476714 4.90164631715071 0 0
45.4457059030317 7.08904164642471 5.30194240575691 0 0
-190.929054575664 21.1217014478538 32.9399855725331 0 0
-157.895336984439 20.0545763479283 18.9115338390687 0 0
126.575130419127 10.3268502174572 6.29178177601448 0 0
179.624384948659 -37.5211525292294 27.5479123448091 0 0
