"x" "y" "z" "f" "a"
163.36727535517 -33.512120537568 13.2709309879248 0 0
175.766501273988 5.3724594650731 -24.9887113727998 0 0
8.30634659198424 1.37392811596231 3.90465431340678 0 0
156.305618351836 -28.5477972968644 6.72823764631908 0 0
-181.955994316212 31.7117741887031 0.196090106871368 0 0
-36.3974160585414 5.77196400095022 1.7413478112572 0 0
166.117504989174 4.77019727000591 15.2868127050724 0 0
8.23762146358151 7.0519661924496 -5.07930167904631 0 0
-96.690385400425 9.39810355736954 -14.0364133708111 0 0
-92.9130060434967 -5.99987744145975 -1.19231826987408 0 0
-230.092313015992 -18.0368259327336 -1.9855026692963 0 0
-194.610959316511 -34.3035848237308 -8.82734621758556 0 0
134.485702272453 -21.4856049510156 -5.02820545566445 0 0
157.993178797259 -26.9715615916208 -4.0698260523682 0 0
-195.328101083972 -37.0882795075923 -4.32318142307023 0 0
-78.569390449178 10.9223556967198 -14.7172198020921 0 0
-162.954328211828 -5.98325180750178 21.1643595666583 0 0
150.125555742609 -2.96048993953319 -21.1109205143979 0 0
-104.642589776809 9.70148749126133 12.1472257476328 0 0
140.600400392724 -22.4018138861335 -0.00131821919590245 0 0
167.666381636862 -15.7245128011005 -16.981072069855 0 0
117.659931112516 -13.8804782693442 -18.8659139936603 0 0
134.975084919169 -9.01003748584562 -20.4803271782213 0 0
-218.688030729397 -31.2178101273379 -15.0762166095481 0 0
41.0428639513335 9.77050521714802 -14.4642080895538 0 0
-89.721693051944 -5.62507395957934 -11.9896486408783 0 0
-226.433793603809 -8.1140734447644 4.87755792542066 0 0
199.055521741743 -29.5875941718566 22.4603998021992 0 0
-12.1551371537307 8.53327978897395 -19.9647381284234 0 0
-191.863351941452 -8.92379994062943 -11.8158759062747 0 0
-157.818052587149 -8.80563027112026 2.18821316708456 0 0
-217.294423691974 -27.3764635331485 17.9997283179773 0 0
46.7259259858149 4.93031977397208 -22.8779646751962 0 0
-224.54812455412 -30.8988668939288 3.2120764315539 0 0
-215.370805029882 -2.78409770784565 10.3183881648668 0 0
199.285107551075 -15.3909185432524 32.1922972349151 0 0
73.0961229813254 -11.3480147336335 -21.4405194861591 0 0
-71.2676056516912 -2.99636359713173 2.77036552290476 0 0
-12.7779139046034 -6.6486362312389 -5.78802413076125 0 0
182.532989503953 -22.1260573029741 -13.0991870378778 0 0
166.871564715896 33.924768878039 24.1453139681112 0 0
-165.198514226675 0.433572931468918 22.6436586208205 0 0
-206.182263119693 12.2584646294336 22.0421846013244 0 0
-206.808045640219 0.813247654272574 -5.33029196282756 0 0
-169.029256090921 29.9939488144445 -0.221172068093878 0 0
-152.316042732755 -6.49911775326675 -3.6918889026452 0 0
-145.28622995931 -6.58767003606794 -2.76073505864731 0 0
-55.2714526183523 12.9779433443343 -8.93978736346866 0 0
186.876809470696 32.7586415138 -3.19561187687929 0 0
-17.0607629717473 8.76662991683296 -6.72755182562814 0 0
-150.581813988438 7.4743193118906 -7.34354429511846 0 0
-221.507745045392 -22.7419885293295 -17.0482095697048 0 0
180.541928599636 29.5452927968619 -9.83209005708057 0 0
26.0256532522681 -7.03378675003615 -5.19204983842098 0 0
145.424613115158 -22.0830757980448 6.82365153050214 0 0
174.274079610638 31.4314314521198 27.617758265674 0 0
168.879739564913 -9.28823981076394 -17.7821951843133 0 0
-34.2045519912272 -4.16693688340452 -21.5571714774968 0 0
157.988794619128 -13.2748849085012 -16.9917692738803 0 0
151.679810879463 27.5297893830636 1.89246738250572 0 0
-151.199758472224 17.7650795218352 18.6220459001991 0 0
-225.304135185548 -17.0180200535518 -13.7081704750125 0 0
174.484235665834 -15.2957968041133 -17.3528441336126 0 0
-138.684456984201 14.3127897735252 -6.67653269410619 0 0
-196.954955873355 29.7936648303152 -2.59360839832458 0 0
-183.289954540655 30.9572628091136 -0.87120988393953 0 0
187.571731517686 3.55659059839809 -14.4524243457076 0 0
133.35040305006 7.03948871720708 -24.0026492545592 0 0
176.888019225168 -21.1554218567403 40.2050471053067 0 0
82.6437102760279 8.77309352432514 -18.9257761181964 0 0
9.70112038932235 9.37209253876236 -9.90997785489629 0 0
-201.056276774267 -37.0550400951688 11.7033701317987 0 0
-214.078284214742 -33.1535584217718 -16.3548213160143 0 0
108.448010554026 -18.070437074464 -7.27360236252485 0 0
165.569332419811 -8.26446820815307 16.4346018597988 0 0
172.883052313871 16.635293279429 -27.3129033721743 0 0
-174.074189704647 -13.1532255937582 4.10140715176232 0 0
182.103272115355 7.60124774574211 -24.10745367886 0 0
197.068302112049 -29.2838373257686 9.75192776210952 0 0
-13.4857032900851 -3.91698351688587 -22.8887792390074 0 0
195.698060603355 15.5771971872316 -2.06772873412264 0 0
-60.7958213417221 12.7766863461444 -6.57034254281231 0 0
-53.1834695666908 11.9417835613154 -15.2708240572759 0 0
-203.708404055568 25.4967497896009 16.0632392688414 0 0
198.39157935375 -29.6197077483852 24.5843801639806 0 0
-214.723505692014 -7.07873854317976 -16.6598689653222 0 0
-151.455156882794 22.8242977287231 2.00654983942371 0 0
195.514491740496 28.9690533702722 13.3107422489923 0 0
179.967153444205 2.67344677877913 -21.2638792631477 0 0
184.828497797613 -9.02414848889112 -17.9129285506821 0 0
170.082146594537 -28.5929615809993 27.9543178123 0 0
170.828400202057 22.7526738318189 27.1867750595937 0 0
51.1594547662852 7.49668434724927 -5.09195750336306 0 0
183.836047610364 -7.36959543236167 26.5034288078651 0 0
184.952882050403 -28.4630565269646 -3.66990052169111 0 0
188.38010171151 -14.0067439678747 -18.0284366751275 0 0
7.03820054262571 6.31236850919 -21.8724474565526 0 0
75.6878859607235 9.6813768253226 -16.7377576675382 0 0
67.6474653400178 3.31633830150659 1.8558043506809 0 0
73.2474574279226 9.47399003605872 -17.0308272487048 0 0
-71.3319674041751 -8.2344915580818 -8.39569686271266 0 0
-190.078718549622 -17.8568972866255 -9.78616551181802 0 0
58.0792063201371 9.82119119169096 -9.36971393283669 0 0
139.475366937578 -0.621811938468809 6.81358823256177 0 0
-125.188735520422 10.1868922475488 -9.94865481794667 0 0
177.800240069113 36.5240163128788 -2.23255473415344 0 0
-154.574667151617 6.8414869821517 -7.08072834050618 0 0
146.137139256111 18.204046041804 -15.4369258306377 0 0
-38.3853048483298 5.7335070202583 -20.7497147866424 0 0
-162.234742410127 -10.884594870321 6.79384306022446 0 0
192.91348400143 18.5452700118089 -15.2096073594284 0 0
-94.6779785979058 8.48817619457834 -14.7709345330011 0 0
200.081506689589 -10.8911977677682 27.0185639148695 0 0
138.946221171401 -6.47895806776056 7.22934702799159 0 0
-157.856379299543 0.658673771022429 23.366347855181 0 0
-45.6355293978161 -9.18097054771184 -10.2631020617606 0 0
126.267471903593 -0.0395880888860248 -24.6576526445142 0 0
-81.215600829724 5.61743573403529 8.99155091091663 0 0
166.857304604101 28.7678252273761 25.5337847179607 0 0
-228.99870393072 -12.3699681307373 1.4855911198388 0 0
-190.73721506506 24.0690231258691 -4.86738120676811 0 0
-203.394093967454 -12.3060177334966 -20.1218360179555 0 0
-75.4181209278458 0.979569586669204 7.07240719911412 0 0
-23.9542168083028 -4.48922520267485 -2.393224803799 0 0
-182.452809944731 28.3648116234384 -3.64991358338816 0 0
-116.827521541513 16.1737181684275 9.19640485685701 0 0
187.777614851039 -16.7860770636827 -17.681334273435 0 0
-198.108521707515 9.04076817160509 -5.79653833796823 0 0
131.852031533692 -0.11052562776168 -24.3162293288467 0 0
-193.744167103209 -12.155309457165 -13.5444354849771 0 0
-201.714358750257 -3.80502501588676 10.9132492486334 0 0
-117.08428076972 -5.96063656474442 0.672276797875556 0 0
-172.302835366708 9.86446081579793 -9.78466720970108 0 0
-189.901240820062 21.7141109023563 -8.17119664446316 0 0
187.737138133016 40.8920340847581 16.7068734066232 0 0
-224.099456486702 -24.9646257244424 -13.8475138584576 0 0
12.2863726574454 -1.68466479586096 2.89675770639916 0 0
163.239660959211 -23.3156529127454 19.8881998930511 0 0
-53.1812331546075 -9.15263905700241 -11.4418488326739 0 0
195.842129659368 -4.99817441404489 13.8884564916801 0 0
161.758294674814 35.2092563990864 1.18511300227064 0 0
203.1552179215 -11.9093003426459 4.89316891059527 0 0
-44.4973087502183 -8.40529945709759 -17.45094690175 0 0
122.338914264989 -16.6186240753428 -16.2574322090606 0 0
-222.436346303144 -26.2260546298644 -15.0956610066815 0 0
-199.999802364526 -38.7386627636657 7.86677313359531 0 0
-158.198060665643 13.0698795676981 23.1235689369649 0 0
-182.965108206177 13.013647612398 -13.5057371461379 0 0
-65.0296153774059 10.1443686441137 1.25290654718768 0 0
135.667693678617 20.1881663640831 -2.52820705634182 0 0
54.1246633755731 -6.22832010438346 -2.30931957914707 0 0
136.699066272118 10.8724193698345 5.1843859569401 0 0
20.3228129803691 -9.61734309829087 -8.18944216244298 0 0
-38.7246350401164 -4.70009380696538 -21.0103581308807 0 0
-203.922489313445 23.2425623886017 -0.486849041610693 0 0
153.410290428221 -21.2453332299605 -11.3235339450938 0 0
168.870147004066 -29.5414397338933 25.5188064464839 0 0
-171.089272170637 1.05161496812629 -9.09637274563164 0 0
150.622817267894 26.7011921700984 1.93142725966982 0 0
-216.070109118108 -35.9536050005201 -11.9566328610208 0 0
204.780866652824 -19.480436812447 7.05186333159652 0 0
203.931526087352 -23.6426056256895 6.23947522062351 0 0
193.14502138331 -23.7670814910648 38.7392701339926 0 0
-41.3093330925234 6.72200656026732 0.676284342065207 0 0
202.967531997284 -17.7467059484938 25.8357846732964 0 0
-117.119878597424 16.7097391919098 -3.24609013355143 0 0
186.34836535321 -16.6987741156814 41.0243160584683 0 0
183.082073073678 -6.47318687295687 20.6134059093803 0 0
204.492698649195 -24.4670299691096 14.3547431613004 0 5
-64.4752839514749 13.4139610099088 -10.3675872014927 0 0
198.743931368818 -29.3491210177077 13.8039442984293 0 0
-225.206484423025 -12.6245439523247 11.7827244803528 0 0
195.869665455696 31.7775821295776 5.88693206763512 0 0
158.895932749088 -15.2337380822076 14.9744030225836 0 0
152.031980071213 27.151883690418 4.97112999143671 0 0
-203.084046441866 -22.6719545415527 -21.2912486898637 0 0
-157.842116732931 -1.18751708998659 23.3204914037384 0 0
-107.376833811306 -5.67282108588833 1.08055436486308 0 0
-167.071435941403 29.9371315668979 0.985285033150818 0 0
185.518935639907 31.500190644871 25.6831671252079 0 0
122.188647647697 16.1434770792129 -1.87271448144398 0 0
-96.6044928200431 1.07509448674029 9.50164144631775 0 0
181.062621897276 -29.4039091324612 37.4018397506854 0 0
179.890730764842 15.8827425044756 19.5422518688436 0 0
-85.1571226544939 12.6746178547496 5.87435573657744 0 0
192.832484181582 -19.1302754097213 39.4442168512459 0 0
94.2138304672087 12.1028902346788 -12.36373842563 0 0
172.613129298624 39.5824371623682 5.07241545954959 0 0
192.714432290416 3.24176775583716 -3.38533876103724 0 0
-108.608469556561 15.597838435151 -5.58632081402688 0 0
-197.229783185036 -28.0953767013589 14.1096244866486 0 0
189.682571078145 -15.9178964152933 -17.2574517171246 0 0
134.650659240055 12.4854255914116 4.36986705288053 0 0
106.576323986112 -18.2090081342097 -11.9201544268084 0 0
196.760555958477 20.7466360873595 1.10495140404861 0 0
65.3618456849806 -0.252821429777633 1.60075835799763 0 0
174.433772261003 -26.3643347545188 -9.79929057747732 0 0
193.208171744145 -7.17286945489702 24.5541042729912 0 0
-187.454221852614 -18.8932420113186 -5.6816006382257 0 0
19.6715564276691 -5.816562846815 -23.5384019388327 0 0
174.841565557161 -22.2890455043784 -14.6829754851227 0 0
-108.988256627599 -5.88162338720248 -6.17684453915109 0 0
-129.496938699726 -5.55528890305658 7.76956195034707 0 0
-191.194355661839 -30.3952098600131 -4.2241465387513 0 0
96.4987204403839 8.33074899353801 0.724860838637509 0 0
190.754239546204 -16.9351109142424 -16.1011088918489 0 0
173.177940163139 -28.3260569333871 -6.92606133291275 0 0
170.731513233436 20.8826066890344 26.7274835298804 0 0
117.222151936554 -7.38069228821711 3.56379845067772 0 0
-176.332056838159 9.0395273190407 27.514059954398 0 0
166.512159226248 13.9246810505032 20.6586749364321 0 0
199.996525377564 -19.3531832186119 -6.97861015918321 0 0
167.247464433005 15.4113834621975 -26.7888639724584 0 0
-188.496109519672 28.7952895134116 -3.59395535082654 0 0
167.13843603235 -9.37179928464265 17.5913120220906 0 0
90.1202977294791 11.8540861701669 -11.7851427245973 0 0
-197.442960992988 -7.82993968546801 13.4805697779892 0 0
185.222450807962 6.68411343677696 10.246188378996 0 0
-170.64911049561 26.0936229664509 -3.63713798426273 0 0
-84.9932184827109 1.15823302891494 8.08791147681872 0 0
-132.637080876326 -0.955878476987552 -8.26575461499191 0 0
-177.529760456242 3.37627616578985 -9.16975999379498 0 0
-62.6700411703584 9.41103667177888 -17.3910273545247 0 0
61.7242801385095 10.1110448700342 -10.0649670295662 0 0
-166.981910031453 -6.312237689559 16.86024495615 0 0
160.933903116527 -31.6612592013197 7.54990678488399 0 0
3.88186242084439 -1.67970848902495 -23.788421341371 0 0
-149.402166570496 22.1121737668649 1.60688362689454 0 0
171.8034142623 -9.64253012422029 25.0763734105827 0 0
-206.257569916922 24.3915716497755 3.41762318375571 0 0
50.5056506265869 -13.6876155477724 -18.6505195256035 0 0
93.5608563467042 -4.74620633982855 1.91153340525981 0 0
183.313391559305 15.3122384409288 19.1213107085121 0 0
196.583915654021 -6.47249611034088 17.860493754655 0 0
172.912906210972 -37.5715305048308 12.8773125432514 0 0
-191.433035198584 -22.2750326694286 -11.2885903378976 0 0
-227.141689952904 -8.67959725511026 -3.72662488276297 0 0
-140.290001780185 -3.54296024839763 -5.91412504632931 0 0
-192.404070411511 23.0760151428723 23.0924207315986 0 0
161.898844123896 10.8876017704334 12.2563358248886 0 0
182.54803593615 14.3669374081138 17.6119637492712 0 0
161.961137685379 34.6365853427956 12.1545104156871 0 0
195.218738080379 -16.0598280694479 36.953835148817 0 0
-51.6822325989836 4.21998900441466 6.28580224085287 0 0
165.135484335812 36.6035948546203 13.1038762342592 0 0
-108.57137902472 2.59950267063144 11.6804119515759 0 0
188.239753757335 -15.3739299755089 40.2759849918113 0 0
-192.902044201305 15.4876631562675 14.5225464412119 0 0
-168.900447354552 12.6245232014729 -8.51801542491606 0 0
-113.042394592956 8.71117177361648 13.8753666918797 0 0
153.939082567047 10.1838161687829 -24.8719103006021 0 0
-156.33059252212 -9.1225932869964 5.3631730485685 0 0
65.4875097423383 6.29758079298543 -21.5441687669748 0 0
-138.209783789969 -6.4174810373737 6.74840038020002 0 0
145.391881594547 23.1387702188803 -3.30792753976929 0 0
178.811933348169 -29.1690134747985 37.5433273257966 0 0
177.903850750985 18.6738250869046 25.1864126065286 0 0
56.7016133625676 -5.18033280558958 -1.13306558112533 0 0
-159.361281166933 20.3148206671535 -3.830450013199 0 0
176.518574508974 -14.9560393821384 -17.5754240398838 0 0
149.641425835488 23.2571132073774 -7.80033090539163 0 0
-5.90570794715588 7.05970004567556 -4.51158445794519 0 0
73.3744704900958 -7.11054254338362 -23.7523427368639 0 0
170.177769720748 34.2476208584298 -5.47547556374806 0 0
-110.245045739776 11.5187101246854 11.8527565368745 0 0
-159.417046019693 7.12209118486001 -7.262112365548 0 0
-153.739743947475 -11.8600999333798 21.4762361825241 0 0
-145.108998688776 4.90424288711902 -7.96876781843467 0 0
-195.534820873936 -16.6862643560575 14.3527848326056 0 0
-83.8605962713221 -2.86314359654357 3.74662596067435 0 0
95.7676815162656 10.9822724671899 -2.97951456787493 0 0
170.311907247067 35.7691899555297 -3.22048448811255 0 0
-170.787473570658 20.3862402084459 23.9168030218035 0 0
-177.202822392173 6.58408208570896 27.0529128549118 0 0
126.739475803243 14.579892789576 -15.7356504272492 0 0
145.198103251187 -18.291247308982 -13.7056950557736 0 0
193.51742922273 22.8211614197084 15.2191725423149 0 0
132.206316026779 -19.5240264997812 -12.0183993241725 0 0
146.055165039809 10.2642576374635 7.38232268906933 0 0
-181.353805235232 22.9201279698574 23.4222267620251 0 0
194.812978647867 -7.16569165504884 23.4935340313114 0 0
-172.767892988535 2.76381324886949 24.8904466518009 0 0
-164.313075861933 -11.2620282736571 5.74012233257447 0 0
194.750219163053 34.2069367716379 12.1145576217365 0 0
-216.978148467453 -2.64845255671979 9.79441034503485 0 0
39.1292167252026 9.6732513992598 -15.4533043838775 0 0
66.1782707058448 0.0120376354787458 -24.6886144155281 0 0
-203.241692359676 27.9409947850162 4.17297835302695 0 0
138.133339667978 -15.6091741616455 -16.3639531207048 0 0
19.3796893335069 -4.0548399064935 -1.58703396147578 0 0
-73.0689093447294 2.24307051067042 7.47102427693145 0 0
-199.441057270303 29.6558944873787 4.01227379654809 0 0
47.5842815708169 8.98958827474913 -7.96301638239833 0 0
-91.5559163499907 -6.91330875857801 -8.63818306297237 0 0
-192.613274622647 19.7983961759438 -9.89489665482131 0 0
-130.548474928951 0.213133524958841 -9.00884037876795 0 0
174.943786717587 -35.8819384082825 6.17840796640732 0 0
-202.056275987461 25.5093410346092 -3.85469643252169 0 0
-173.508227636431 29.4347719044263 -1.77598707954098 0 0
89.8255382978309 -17.1185987381746 -11.4894573914536 0 0
-65.8729487619265 -7.63187196325251 -14.5532425536017 0 0
-203.926284045078 1.94302175795845 -2.89625041887051 0 0
192.007694918909 -10.8520929089503 -14.8862735853369 0 0
186.332144562828 5.00440570846285 -17.200829974373 0 0
56.9274410302868 3.73689399818753 -23.4495523985641 0 0
-199.399057132031 -20.2279681977696 19.1097368463758 0 0
-178.156423219326 5.35608441962 26.2116389157177 0 0
-77.2754740926249 10.2078436706321 6.4562638204763 0 0
124.207383949293 16.8617447059628 -7.61082291035335 0 0
89.2219737598028 7.39593575353813 -20.9732922738896 0 0
67.5449631218691 -12.7973244376483 -20.2131759067542 0 0
-32.1963231951664 4.64233150296515 -21.4432612925503 0 0
142.634766503131 -13.7759804454896 10.4387399109328 0 0
-217.275933208385 -8.5285438891344 -16.8931103782124 0 0
-146.042073414908 21.2737839285108 1.38209300600515 0 0
-170.259312280406 -0.752774589465946 18.53476156769 0 0
-123.681423658784 -1.85392938374545 -8.9734811096235 0 0
-171.760720651147 27.9760270480088 -2.87134338745791 0 0
-33.4747186113665 -0.989292834739666 4.51135522240691 0 0
168.145029321164 28.3711255899086 -12.3257135981395 0 0
182.034371831056 -0.478231045510203 12.6607038605364 0 0
-182.247103153113 14.2321186099897 27.1155375827225 0 0
-212.52800647609 -11.5512458169417 19.3543978934247 0 0
127.71844577185 -12.8484311142769 -19.0624024415348 0 0
4.04479299400445 3.96176511676125 -0.4223951444686 0 0
-130.392842985756 7.14116265789362 16.6611187136636 0 0
-206.568952767806 -39.4295775115257 -10.0589971680367 0 0
-228.289874720759 -26.2690142544422 -4.7734879018325 0 0
-189.505951144296 6.56343474989689 12.0258234100066 0 0
-117.172717013885 14.4798615832702 10.7690897058548 0 0
65.2884430378486 9.65384950283833 -7.53927928320472 0 0
96.8657374676612 12.7311229747352 -8.26673813542405 0 0
152.54113973184 -22.7999784058389 -9.22199870271579 0 0
171.092070385204 -19.0529251243409 35.4143128191286 0 0
170.754248885201 28.2146673884861 -12.9626754427073 0 0
164.665142750674 12.3151327697097 15.1297389027956 0 0
-189.384226498257 11.9625416134228 24.8938847550049 0 0
186.531090407698 13.0342365572746 -23.5107127711606 0 0
91.982600078763 -10.8942512109482 -2.21178796579478 0 0
-137.681768320076 19.9912571423057 3.19868131301351 0 0
-2.53679828752686 9.5657004335689 -18.1567882158081 0 0
-13.6442449435188 1.89995265430153 4.39094066101449 0 0
-59.8621159716832 -4.93140076389361 -1.29921020862969 0 0
118.35928119524 1.80162271746105 -24.9727657877269 0 0
-187.07587728324 30.3761174905979 17.4097486513179 0 0
-194.251844841856 15.1412157802791 12.0941569729039 0 0
169.296458168667 -36.4813374255617 12.4757208187572 0 0
86.4136277510587 -15.7301320746485 -8.01264443594645 0 0
-1.49058363832795 2.28755165594296 -23.3481486935132 0 0
-138.854292953206 -5.65348898689447 -2.57582320909545 0 0
192.431494297349 -33.390043506095 13.4166083586786 0 0
183.191640630975 -3.29062117999969 -16.6023123762829 0 0
-194.414981543796 0.0199303427430813 11.5167628791866 0 0
-229.23146994666 -12.9222611058504 -0.685042684073604 0 0
-171.473395927089 0.936583983174492 18.7183281534918 0 0
-185.741981711125 -4.90677937053862 13.0374024039712 0 0
120.389156268236 6.18625715841641 3.77617106186098 0 0
191.258234320584 -1.55109079841207 10.0560026018109 0 0
-203.42351690206 0.261885196053722 -11.7463800259082 0 0
25.1431693997822 7.88760228263991 -6.70362660714586 0 0
165.605267463774 -30.8601363148777 -0.548308103990554 0 0
181.235653188323 -19.5240527613249 -15.0482447917719 0 0
192.995901781718 -1.47168905012153 -6.05569338715127 0 0
144.849027943475 -15.381236244453 -16.1135607378801 0 0
184.537583771636 15.4198580975324 -25.6767143598809 0 0
161.221988204451 -22.9331560048818 -11.5218919740074 0 0
-172.805673900006 -10.0084174291299 -1.9532523544339 0 0
119.138558557175 -19.308754424476 -10.7688853826044 0 0
-31.3578648729368 -9.69111639355123 -17.4955809121945 0 0
-113.792651134886 0.496282514649134 -11.7874829846683 0 0
51.0683184888784 -1.22018778920811 -24.7795346004369 0 0
193.237914840082 13.008309221515 7.35567309794451 0 0
-165.275597107176 -1.22010867748841 -7.86713296335505 0 0
181.145983215279 -21.1725284519238 -14.3146149026028 0 0
-110.705992799698 -1.24588075601892 -11.5556744983642 0 0
-182.533622786925 -12.9069192339423 9.6893740515191 0 0
-186.955909838624 34.074769065374 3.68486509635338 0 0
-91.3766826534175 -4.36695017750993 -12.9694292326812 0 0
162.719395666824 4.13826936069602 -25.2691706541951 0 0
-191.017678243304 -28.9000165692043 -2.67379433094577 0 0
-161.302662756319 8.82661724714303 -7.58179468767121 0 0
59.7383151573616 4.41265750595727 -23.0576283504882 0 0
56.7975541720796 3.79434364684791 1.43295594033011 0 0
72.2504801953251 8.25431302575273 -3.99814598915436 0 0
-175.690483752544 23.471087118283 -6.75693727695314 0 0
181.061379045446 -4.96571493656517 17.4761562535795 0 0
89.4556897961492 -1.39277798236517 2.11792204955342 0 0
149.172956513437 3.12868842159307 -24.2790552749696 0 0
177.601088596072 32.865915564284 27.6453455736968 0 0
-190.77270101594 -25.0193587999821 1.77880958380586 0 0
191.838010499793 -9.87916590418429 35.5555914307966 0 0
163.001249649317 27.8321910018738 -10.9982728361754 0 0
-96.9999642645072 -3.65122253277128 -12.4142602688637 0 0
34.0943872791911 -9.96840755821028 -21.8337811260744 0 0
-67.9506145382779 11.3715314004627 -0.316796708871099 0 0
164.874619496769 16.3398941639249 23.0465712320449 0 0
201.131499836565 -14.6409425405059 28.6434605518857 0 0
-33.1671545539885 -9.15149826254132 -9.7307680368846 0 0
188.980456089245 22.0874221137453 22.3995855138598 0 0
-212.490078350094 -25.4157203161861 20.39019634104 0 0
175.063656064983 -19.1958183578809 39.018614171479 0 0
185.540910256404 7.708080075798 -20.5582002064953 0 0
142.966690865844 -3.10599494372516 7.6889372759129 0 0
155.669871294035 4.71719586400382 10.2490231777267 0 0
-160.065417017712 -0.123478975096694 -8.31867382491049 0 0
-144.595119999708 -7.71680009110724 17.0640697963705 0 0
98.3893977783139 3.94016599434546 -23.7914297290296 0 0
182.392387334647 -7.02004497918377 -17.9972671175235 0 0
131.826907778766 -20.2669204413994 -1.38816566326603 0 0
178.784676729594 3.34128742073206 -22.5940333416912 0 0
-209.527471327453 -2.52769194493265 5.04846849536953 0 0
133.358013723253 13.9467521815926 3.56681357431331 0 0
-205.745566357263 0.765173244712205 -6.67878083615 0 0
119.525007662869 -15.7490002372472 -17.1996439240249 0 0
193.803941033013 -16.5449893216492 -13.8619848985818 0 0
192.84147518859 27.416795363418 18.2234818783901 0 0
169.586048944168 -20.5447083041448 33.8652310188383 0 0
128.049383320323 8.33887583154337 -23.2012146586725 0 0
-193.848621573242 26.8034921079215 20.8112309539376 0 0
42.3072454375061 8.16195116255889 -19.4564932196481 0 0
37.4094317997467 0.12438069841182 -24.5626587676376 0 0
152.639953884193 28.0142519330227 0.964426168326092 0 0
62.5432081197025 -0.584009646909886 -24.748086571229 0 0
189.191045762114 32.8919183982331 -2.67235566284745 0 0
-34.9046695125946 0.855641003653646 5.39415105166555 0 0
-40.7256914158784 -7.55704976354787 -19.0067739179771 0 0
100.763853820629 -17.7970981734851 -12.1976969384328 0 0
189.604970427342 25.0646636228696 -13.5035963691603 0 0
48.3395881816822 -10.7473595570413 -21.6719825004736 0 0
-36.7306668783504 -4.66365735229243 -21.1893658598213 0 0
-185.003188189139 31.6762207691226 -1.00001595128101 0 0
49.2044733610076 -14.9117036940621 -14.3095594371971 0 0
76.4009483380131 3.0785357712104 2.01203258902641 0 0
130.532042258408 12.8175737618438 -19.1762502728384 0 0
103.989861732958 -17.6041176829544 -13.8277150429197 0 0
-122.956412021843 15.3342010865221 -6.18931459884146 0 0
-161.187267281007 18.7937975143794 -5.03302525818216 0 0
-91.1777936217798 -6.49525422013032 -2.48489785788049 0 0
37.6403517409048 -4.50899700637756 -24.2730349934354 0 0
-44.0394343110462 -1.27482786567205 4.06347981694958 0 0
-168.305782834537 -9.11932425442636 -0.538533351612798 0 0
183.055030160106 27.1321546604619 -13.795037830761 0 0
-158.582042605008 -11.3257313828635 8.89922784454113 0 0
-62.8928125920544 -8.09977712371443 -14.5117634295828 0 0
194.340204181174 17.853237867616 -11.6436599203621 0 0
-40.2777673425265 3.91753822219146 -21.1375813884483 0 0
-189.236393155666 8.14340323701216 22.4459329330219 0 0
-104.220110439222 7.7514409168372 12.3125119016724 0 0
-126.926656815462 -5.78097529526794 7.45428979780933 0 0
-194.331730319345 -3.91742462726813 12.6450984485759 0 0
-176.909465194241 -14.1972458736056 3.88402868980341 0 0
44.8055770400416 -0.280841052001903 1.81187806485395 0 0
-196.566971632231 -5.66883506781866 -13.8600277276601 0 0
-190.078328337043 23.2942681502377 -4.36719122165241 0 0
182.093466417263 21.8713914314674 27.2371356711597 0 0
-135.749925715774 -6.80291540170215 2.51695993946432 0 0
-162.605292297631 -7.09320956246819 -3.35516464915231 0 0
-134.934847998592 1.02651701224907 16.8620466733584 0 0
-114.092976831599 -1.93900435656618 -10.4972159617578 0 0
29.5768888175019 -12.5447951536995 -10.8240285844331 0 0
-201.743917897535 28.8063655499909 2.71298909098922 0 0
-71.2491975332666 2.84276402528518 7.40959295340691 0 0
6.89298114010375 -12.6062441981028 -13.6934605284995 0 0
134.940713381889 -13.197995045385 -18.284875299183 0 0
151.415638720089 -4.6325618043129 10.3379885139126 0 0
-220.760174121921 -28.3304896883663 -15.4736827925432 0 0
-201.684881022228 18.4300071184929 -2.80304026796939 0 0
174.047346994889 -1.55651693677372 -19.9589203654915 0 0
161.678976378351 2.81750874996134 -24.4049292325344 0 0
-166.924556585054 -0.230592568561954 21.3038568933385 0 0
179.213947452512 39.1599424774664 10.0235167609032 0 0
-2.10865631965647 -11.8158784613352 -12.740415552177 0 0
30.8817452751779 -13.4488327867717 -12.4212202828773 0 0
-26.9690846568578 11.2944723922363 -11.2308350336447 0 0
-181.44051676349 31.8949969052209 14.9344235314936 0 0
130.759608820551 -20.9747139667443 -5.97772341525667 0 0
-122.013230300516 12.0696630311806 14.1710189804999 0 0
-217.266702673313 -22.895849524914 -19.8202380254289 0 0
96.5497721714201 4.73016943191389 -23.3237151753414 0 0
-136.591381170782 2.83110316230974 17.5525360463026 0 0
178.299454545132 21.2250125475834 27.7234567323318 0 0
64.4177429218052 10.2018592813163 -9.83805707866237 0 0
-194.744990255877 -10.8868708646334 -13.8220956706487 0 0
91.9523813039306 5.57839750392261 -22.6294306348827 0 0
190.892063299928 -20.6333659764015 -11.9288872542144 0 0
203.315975751569 -25.7175430934394 21.5139884603041 0 0
145.988823884217 -2.85684187454819 8.26605473633174 0 0
-174.12490378785 -13.1253101178588 7.38056095192532 0 0
-171.542574368254 -11.3251043023964 1.3324042599946 0 0
-173.903823376505 -3.30220795481477 15.9737829212715 0 0
164.037226256275 -31.7915885882449 2.93025625688867 0 0
192.775279096032 10.6887923472879 6.47286145698349 0 0
-140.443571392598 12.844358649107 19.3199191141169 0 0
124.622822187309 10.584979284148 -21.0934336994676 0 0
-190.526502326882 -14.5282905471799 11.3555010422178 0 0
183.754532840343 39.5474432582811 12.406925097831 0 0
-108.051307125709 5.73535690211577 12.6011084223294 0 0
-69.6595271072538 5.43603992941885 -18.7417837043573 0 0
189.19887782544 -27.7828643378378 -1.20628879335219 0 0
92.6972652364948 -17.3061396818573 -12.4223774752242 0 0
-126.644667242862 -1.71292855549229 12.9838264751795 0 0
153.024775059792 -13.5062123313279 13.1268988658323 0 0
168.291617941154 -31.6337244120869 -0.346973043441767 0 0
175.711333088203 -29.3766610932898 35.1456148968955 0 0
-65.1898344962217 12.3123470465861 -13.9282506515222 0 0
80.3100504473788 4.87137204715987 -22.9594651648493 0 0
29.4482745116965 -7.37972210030914 -23.1428994150168 0 0
-141.097850580226 16.9925527509342 14.5635951459704 0 0
92.0912938831623 6.9598090483464 1.17095535184164 0 0
-39.4892224253399 9.36515120145604 -18.7633229329947 0 0
-190.256211607693 15.3762035514934 -12.9672551210249 0 0
-86.6168101440525 3.34216865860272 9.11149072387878 0 0
149.221995760554 -22.7080721761546 9.73971977454956 0 0
-177.137560360666 29.3360021744389 17.5715092779564 0 0
174.711471143353 -10.6579818201366 -17.4394472021014 0 0
-196.537128953254 -25.5683993521322 -17.4942088383387 0 0
-228.379392817336 -17.3203490565118 -8.76814986066777 0 0
-180.729957508511 -15.748053604128 3.83820169631789 0 0
198.702280940003 -8.35741464961329 24.2084452848316 0 0
-224.217920378553 -4.31577849378689 -2.75571030354166 0 0
87.4782481934602 -3.73763664140858 -24.6484129674561 0 0
-72.659096682898 12.8638074081165 -12.224172533585 0 0
-80.0767172680713 -0.115776074926576 6.60221371852794 0 0
110.223348371896 0.380232177585082 3.61094362546136 0 0
135.522902642907 17.6309639165766 2.08129316478402 0 0
163.926802028844 -31.0992578610732 1.11679741177485 0 0
127.541620378654 17.9024427330586 -1.69083077677625 0 0
28.1327045848126 -11.7159158683048 -20.1858961975544 0 0
-49.4280211438163 5.85860831546015 4.52479454695483 0 0
139.6555217786 1.97098039252462 -24.3905007632203 0 0
-48.66653786224 -3.9274256076308 -0.738216404471229 0 0
157.621609191626 -24.8228170854885 -8.25655285871397 0 0
-5.98954800283585 0.0933851727161533 -23.4303856807119 0 0
152.29267546819 9.52435497214465 -24.6326218298272 0 0
-202.813988185435 28.6158359382104 11.4953121264759 0 0
185.683495793903 39.3027873749528 11.392684969428 0 0
94.4890426615384 3.68052865908959 -23.7669914276563 0 0
-220.329406246399 -3.70307053815669 8.29155239539831 0 0
-84.0820578770091 5.80684199156094 -17.0400386596169 0 0
-170.532122431177 33.0397596499298 4.08949092726087 0 0
-115.896163929435 10.5578775412055 14.4157623749619 0 0
-206.414710199743 -38.2267846654879 -12.2241154994883 0 0
197.596265367016 -5.98842606398569 15.2557781764987 0 0
-203.983237449689 14.7523140930223 23.607622691741 0 0
153.165677416405 8.15518400176757 9.48624626428432 0 0
-227.311328178782 -25.1419363675486 -9.15294689099974 0 0
203.310364645749 -16.1086435607674 24.3518065441715 0 0
156.32476281804 25.0440214636472 12.2284330569495 0 0
-31.7270164799876 -9.912774964887 -11.372935709049 0 0
135.247408235092 -2.78880303349797 6.34016090534323 0 0
26.2249871371343 -13.467259612356 -13.2825607155093 0 0
74.1302720252728 -7.33738986946345 -1.42111120653054 0 0
-207.259912825922 22.7604289751998 9.29327612549809 0 0
148.073219818517 -20.834326633355 -10.9174024133849 0 0
194.659397516958 -6.75956270478015 -9.28243588083053 0 0
-107.136726368537 10.0224065464093 -12.3772637982508 0 0
-89.8456997709411 14.6545122460265 2.11195934054061 0 0
-207.153546178154 -10.8822468403379 -20.2745225009837 0 0
184.658035511338 2.39823343243055 -17.1553794343329 0 0
160.084555506368 -18.0558425979091 -15.0917258676824 0 0
-229.612869768899 -23.5113929287934 1.39146928755237 0 0
-198.017702649824 -32.1108218440017 14.9149836181003 0 0
183.500661372927 -12.2299491004019 39.227439830721 0 0
-33.6118717845989 0.0367828477799637 -22.0962315345567 0 0
22.4073533574382 -0.24737385455425 2.95088564615729 0 0
-78.5358971441249 0.242589077566395 -17.8640247621722 0 0
129.381927695216 -19.9758816428934 -2.25015974525836 0 0
-65.0136761433406 13.1543899367251 -6.78133411787172 0 0
-72.4291906043947 0.835704877314899 -18.7536422798166 0 0
174.086878655599 3.03523627052196 -23.5185618324502 0 0
-99.9175358116642 14.1910631989465 -8.58426277143236 0 0
-89.7464399557446 9.61763028972774 -14.7065124030586 0 0
129.559591301271 -15.5811860040177 -16.9899385139358 0 0
-224.021618235705 -9.35927002574561 11.1759820566165 0 0
-214.73878319144 -13.8424359860021 -20.4737607274937 0 0
-17.9356434098662 10.7905766856231 -16.542998745281 0 0
-218.769325316628 -35.6582070108273 -4.40609659160009 0 0
-186.806060980307 32.5026072014049 -0.845889533755968 0 0
-173.142520148465 8.67684541532563 -9.75523791382988 0 0
-99.3362711405507 -5.81780194410896 -0.290539104656282 0 0
148.095617333085 -13.8394092067266 -16.828101196683 0 0
-141.178437217877 -6.79214800374929 0.224178111532927 0 0
71.7815096191683 -5.55049472375746 -24.3061535945513 0 0
-178.34172148823 -9.59472805358729 11.4678518536129 0 0
-198.121694886291 -28.2360775087971 -17.6862553556283 0 0
177.149336627004 21.3542464975411 -22.1802127666994 0 0
28.6687461280865 8.83338942930476 -8.76468622257472 0 0
21.4984790659988 6.92017861788542 -5.19211662675921 0 0
-210.612916957053 -5.11680167303524 11.5710886101317 0 0
-198.290371304377 17.3278138382441 24.0652859170193 0 0
-25.9809568160224 -0.144957206173329 -22.5233042854574 0 0
-203.087398905122 28.0576915831547 1.12099050826466 0 0
184.617252959006 -13.0948873389074 -19.0497190333893 0 0
193.881688304576 -30.5383194346998 7.02611444063978 0 0
132.211177279241 -20.7664952842726 -8.54176191045247 0 0
141.469902326935 22.0353907127894 -2.026642893646 0 0
-61.9208645751447 1.89417539731391 6.42337798455404 0 0
195.19680197631 14.5898770306809 -4.13257139624361 0 0
33.5612700124226 -1.83133521456423 1.53174696925248 0 0
-213.661078554083 -37.7051708741438 10.4943615961752 0 0
-96.6675363503782 -5.39134773658936 0.549797800353543 0 0
-229.848113736529 -15.4439467450717 -0.549985654131884 0 0
-193.04461175967 -14.5325893162378 -13.3624244046892 0 0
-222.265126454973 -24.2981951060351 -15.9603891264331 0 0
154.170475439706 -12.0266577756916 13.1207014347207 0 0
178.143694992114 -20.010182590293 -15.8060172567454 0 0
-3.89313757322187 -3.92212631270417 -1.05330812308677 0 0
-197.619058150039 -34.5294276947376 12.3594423728137 0 0
28.0575746722114 -5.28236844071014 -23.8779037113795 0 0
-199.312976588815 0.744975668681556 7.58276005488951 0 0
161.940270852427 25.1479857431906 -14.1534536048507 0 0
164.518392243274 18.5354161202459 -23.8285601931266 0 0
101.200488885234 -6.55693508623961 -23.634785712222 0 0
-95.5799478848232 -4.20523452162198 2.94534021127171 0 0
117.864373011205 -2.08143298919819 4.29572983803341 0 0
-159.028544835036 -4.90910897209367 23.1734016273377 0 0
161.024763943663 32.4574986326236 -2.38202867110293 0 0
178.663342227735 39.3212225896606 12.6459272045114 0 0
-212.30077386734 -0.787374912588964 3.92289809415651 0 0
-195.425484614026 -8.67675345752349 -13.6096226180469 0 0
-152.107233210695 -13.0761392364205 14.9013150921145 0 0
-2.58205880341022 -2.05518389447262 3.02316429595534 0 0
73.3921349306218 -9.05104040016406 -22.8496242219331 0 0
109.792607790785 0.406805725437119 -24.9149005799246 0 0
162.56206860056 6.04725005240608 -26.2640163980572 0 0
-82.6607408270118 4.5469064592309 8.95929653564179 0 0
-216.727462087949 -2.64125034487456 -11.0088805047523 0 0
-124.634958310873 11.0736850941061 15.8968117919828 0 0
-200.031594774695 -40.073467690262 3.50060458902027 0 0
-213.516401676081 -21.9319477362386 -21.2698875173602 0 0
134.615832045402 -17.1442072248083 -15.2550096647822 0 0
-96.8244186540494 12.3936213435416 -11.3061374906793 0 0
-54.4490443771758 -9.00192465822992 -13.9638679603896 0 0
174.045795021421 1.72638437422783 -22.4743717451006 0 0
-188.748176179834 1.9709322830962 -11.1984166270381 0 0
138.928294871406 -17.6981197343117 -14.4739068410169 0 0
-134.583280536589 -4.43664055236688 -4.97877346524865 0 0
125.657119512132 -10.1917781635524 -20.7549745470562 0 0
-176.979071461946 11.4269421530476 27.6371866475503 0 0
167.480307586925 1.35666670966404 -22.8871695334709 0 0
192.203964710078 -9.18214230572204 -13.8537670426078 0 0
-173.532473356027 -13.1729549477097 5.61496871821241 0 0
-114.365340859084 3.5562949886196 12.986567704018 0 0
161.752785649186 34.0992991227631 14.3624700202029 0 0
-220.037705546128 -2.54566683169494 -8.13802686417549 0 0
200.967826697297 -23.5747007671855 -2.63925850565095 0 0
3.85466556802192 8.78929703029964 -19.1990826304647 0 0
191.367119967191 39.3971701769205 15.3603223388319 0 0
203.757688185461 -24.8808151380377 20.1556158868172 0 0
197.095290074978 -30.175957119759 25.696222402737 0 0
-61.5022602406662 -8.77427266943371 -12.5704517868591 0 0
193.982091077888 11.1200427198822 -3.87684251398386 0 0
-168.984471180213 5.37223165454221 -9.49013422408166 0 0
-110.25015365387 13.6683941482156 10.0277200552191 0 0
-193.942408481377 4.03637296538864 8.96521580616554 0 0
-205.498508347015 -36.8693656018768 -13.7940793624165 0 0
-84.479010676473 -7.31950001176469 -5.08740481746111 0 0
-126.364375918552 18.1390111335649 7.00031255306854 0 0
-199.200468245579 -7.55498321352263 13.8301078877387 0 0
132.930473838251 2.11151195328117 5.61672093290953 0 0
167.563539524368 37.1544156215059 18.6062297722214 0 0
-120.228343209936 11.7742143848165 14.1243568605989 0 0
122.208414274971 3.53444635910049 4.28250800160582 0 0
172.682322576888 26.458806089429 -15.5154544953005 0 0
79.7889986474135 8.26281536148874 -19.5481465108625 0 0
96.0400897328132 9.98750579063959 -18.0963324014487 0 0
-193.525176475363 -35.5348124271914 -3.94422964372206 0 0
-210.902453172676 -1.92668361937164 5.48232131196513 0 0
203.500819403706 -19.5070934216064 2.04615219343572 0 0
106.331334638671 7.09503587854687 -22.3700043069754 0 0
-172.547336573324 10.8976221824245 26.8698651569127 0 0
18.2810959304159 -12.3903834010587 -11.7609826139954 0 0
127.639308639332 -1.27476227193888 -24.2449866546506 0 0
198.968827939256 -25.9419702202602 -0.277610295379026 0 0
-218.273546974789 -0.194280309286671 2.01490020802914 0 0
-2.56640280415229 5.22499248409885 -1.80994384261017 0 0
-202.761933169552 -12.1317165198993 17.9875152103655 0 0
-226.84068244431 -28.4430172641317 -4.28770477106146 0 0
-159.85703871466 5.45931601311603 -7.51211894526109 0 0
-214.19371138344 -38.6969172784345 -9.02717700535151 0 0
185.07737081118 13.4679544204223 15.5977960970777 0 0
-74.4411725491825 -1.03498572898132 5.30908786020025 0 0
-214.385649093528 0.821217116972086 -4.62987206058389 0 0
179.615673901766 3.35555688982523 13.1594808844719 0 0
184.942056726024 -31.5174189899164 1.23601281071227 0 0
133.097977877667 -18.4369911760913 -13.7992309162121 0 0
-51.8383795443378 -0.339729073616696 -20.7777911507242 0 0
-89.6777489833465 -7.28928192775959 -6.86089019288043 0 0
14.120782017011 9.35718168162468 -17.6803221673236 0 0
-193.97097497131 -3.63990525544037 -12.6764630688817 0 0
163.170776669289 -30.176388646166 20.7420602304946 0 0
-171.560448814314 -8.99219926866522 12.5574234350089 0 0
-220.434012835428 -16.6269147687228 17.6433984640784 0 0
176.754712196432 26.3161569490072 28.470593527356 0 0
-49.5544853350185 -1.6317390399183 -20.8489548183892 0 0
-193.162805558089 -21.9954008807694 -14.7176973921209 0 0
-57.2433355742774 12.0925032631809 -5.88766816742978 0 0
183.929545355265 -23.6496783976451 -10.9488492356632 0 0
160.946189344633 -12.1966268656355 15.1738416412618 0 0
-100.812809101576 -6.460241465749 -2.68433851140738 0 0
44.8419262566791 3.02756268347493 -23.8733269459737 0 0
-181.340759296508 -14.570375005277 -2.74612353033763 0 0
131.778579518477 15.9146133360505 2.12344211917025 0 0
80.9148487440336 -8.21267271103985 -1.3193161438661 0 0
-139.712983639053 18.4942336237308 -3.00797249823575 0 0
116.844377385983 14.118001206652 -14.0299129635755 0 0
-121.307608109431 -2.82811358530032 -8.64513630631762 0 0
127.859602148364 -18.5083459373508 -13.7060984395071 0 0
193.367995753288 9.83677894290708 3.47879983811249 0 0
181.992437986877 17.199290529833 21.1445330148702 0 0
181.41116130259 34.8549086941117 26.4742669257899 0 0
-147.913910186568 17.0249236114958 -5.03129849306894 0 0
204.301157763054 -20.5465717392399 21.7336471751405 0 0
-216.126356041226 -24.6690176679713 -19.9654080611613 0 0
-145.945336270055 -9.14780795928243 16.3542900637126 0 0
162.821167552042 22.7406947671096 23.0553498452582 0 0
-39.9396105486073 10.8783075228782 -17.2769648762751 0 0
-210.264585783065 -31.2789399909079 18.2462604321949 0 0
-213.926373989769 -33.4439372866208 15.6637391761392 0 0
91.2495673319927 -15.7768529062847 -7.1753292645922 0 0
201.781391904777 -12.7669229735507 25.6246741922909 0 0
172.86075397223 -9.88912159104678 -17.9764795656512 0 0
-191.369380978709 -13.8799729300148 -11.7590925919508 0 0
-200.228423595943 7.32730775736811 4.9627171039863 0 0
-139.093683531009 20.0496629347037 6.98446460775747 0 0
-2.38582277838393 -9.58946344370599 -20.7682819688687 0 0
-110.425476620263 14.8302146616696 -7.00423016841404 0 0
131.59329637856 18.9421776842775 -4.1756538613057 0 0
-198.616599041679 3.47734346125608 -7.89010225328788 0 0
154.865373272872 1.89589496135731 10.1205344627314 0 0
134.409225225397 15.7330229306796 -15.3587631729524 0 0
-11.1771610325907 10.2169333785631 -11.0512571897751 0 0
179.621628818248 24.3939631341556 28.1911234754167 0 0
103.860885933773 -12.9302789234794 -1.75795601484533 0 0
-91.9788090963417 7.07815534061342 10.58727909099 0 0
0.694181589978954 7.79399593093284 -20.5790534779398 0 0
146.058728111453 -13.0939792278739 11.6413724307462 0 0
181.329982804073 -31.2901811485602 -0.854572283510219 0 0
19.5059749393189 1.01023816600881 3.46742906123441 0 0
192.116179054106 5.70702249892601 4.97885304973389 0 0
188.244989796234 23.4325346873933 23.9290401479253 0 0
-106.704684581676 12.812218178764 -10.1146902699051 0 0
192.993212236878 25.5188710271432 -9.29933659328066 0 0
48.5446675335287 1.78415482113974 -24.274696934324 0 0
77.3304429635122 8.51332284430422 -19.0293427071563 0 0
-193.788542926945 -25.7892862117205 4.90433689688138 0 0
-188.861862342202 9.74501888480997 9.10126115083773 0 0
-223.839715110666 -21.4968318789588 15.0197564508982 0 0
-153.92965650477 -7.41899947567757 -1.20428112234065 0 0
-24.4149929659227 -9.87238373029064 -10.6680457623613 0 0
13.1725392460226 -5.54762725990277 -4.04578189541299 0 0
-110.539054030098 2.81905078760195 -12.9580687260628 0 0
-53.3970588189076 10.9081994076331 -4.36670176187476 0 0
-216.927805093406 -0.372562788243832 3.73790887343074 0 0
190.708333450571 11.4799368209546 10.8593749980681 0 0
-15.0940331597861 10.100310299519 -17.8314302729588 0 0
-183.291390511523 -13.3024392654483 -5.53900742721557 0 0
-179.897010009114 28.5812473501286 -2.76475471566895 0 0
150.756243586898 23.4240083880229 7.33347130579588 0 0
-196.274296794666 -6.91674299659994 13.0963447854474 0 0
190.717456109492 5.40769731076926 -10.2221337877152 0 0
-214.756848313414 -36.087269921105 5.50373371822128 0 0
-178.526014989242 8.96264719405164 27.7055848556489 0 0
125.835741772674 -20.2604764545645 -7.94227276343856 0 0
-173.087867652626 -5.8865402748169 14.5892064771484 0 0
177.623943768434 -1.58159615958962 -19.3842665224602 0 0
28.9046984673884 -12.9416667107884 -18.5666686990697 0 0
-215.118922209864 -36.8967031657352 -1.25673345512008 0 0
35.1425788698254 -3.80877213157881 -0.625043090509098 0 0
165.813167922416 31.062553012724 -7.84349686535926 0 0
-150.579999680153 -7.15780133457921 -2.72581560853903 0 0
44.1848096683592 6.81390909036186 -4.50419943486387 0 0
-145.459733168516 21.6205522178335 4.26624770622995 0 0
202.087691553723 -22.1523506163112 27.976228822356 0 0
-225.801252900315 -29.5875113178344 -2.63944013112079 0 0
102.091806599728 6.11722249513714 -22.775720979928 0 0
-16.5254696877471 -10.8672224214141 -12.1806542284946 0 0
-200.011750057409 -32.1367693159166 -16.2515631913965 0 0
-200.893006010145 29.3189263157909 7.16763382419106 0 0
-126.781073550388 -2.03911238316597 -8.38417463604777 0 0
-136.361732104135 19.2585865182054 -0.333093095527232 0 0
177.222309290478 39.6086441619182 11.6838828060794 0 0
-116.799356754083 13.6400552032579 -8.38686968171268 0 0
-208.532176411991 -33.3115391569912 16.9046056754512 0 0
-208.901444627307 -14.9579502637408 -21.7170073423645 0 0
173.395078695092 -35.2052295161081 4.69058614782707 0 0
174.905956831158 -37.2335621352967 20.0014905634668 0 0
84.4131886613303 0.935608466907439 2.02686470335706 0 0
-184.420851422907 -3.93103282490592 -9.00932092416229 0 0
37.1286121969451 -6.67748883498925 -23.5577211035278 0 0
17.4062095080207 9.87485972641181 -14.7648348412619 0 0
191.787134118312 13.3238552863617 -15.700606940833 0 0
-214.285069959596 -26.8038595102466 19.498842733065 0 0
188.27410238284 20.1094320323201 22.4193457106895 0 0
-122.976400646441 13.0089654171365 13.2602505080022 0 0
120.703158773976 -8.38103168550674 3.84813487871028 0 0
160.708338844958 5.87651815275074 11.8022411459153 0 0
-199.004706519472 5.71130711879299 -5.22730403866888 0 0
186.723357310249 -5.93647349739366 30.6096763865749 0 0
-136.154486340815 -3.20046955274282 15.233058064239 0 0
-115.807948038033 10.6479136636253 -10.9715048667374 0 0
-224.157760134215 -30.0780344095937 10.0361694796416 0 0
140.849749106072 -0.321001235778679 -23.5241596802579 0 0
-202.111535711501 14.7955519266192 9.88614363072887 0 0
184.159867377441 9.86594218619558 -23.9979297731241 0 0
161.63517255235 -12.2483630173406 -17.1402246187024 0 0
-148.557829000609 -11.0277080902939 16.8327216163896 0 0
-207.131154188904 18.3770108850109 10.689198426594 0 0
-186.741332676681 9.52160372759985 24.3984063034693 0 0
194.290990639026 32.9836511596736 -0.345313064730393 0 0
97.3234097541171 -15.481456654324 -5.67464222426016 0 0
166.046145326959 -25.2022891961011 -10.0627896687765 0 0
92.7503766072716 12.2600412397511 -10.2883604210571 0 0
49.9401922039704 3.19624554367926 1.96682999923295 0 0
-210.682714495034 -5.89467663928212 -16.8050910712787 0 0
-44.5643601452768 -1.48631261822024 -21.2583875499727 0 0
54.3012492488799 -12.8925319676509 -8.69900947455396 0 0
-73.0079109039762 -7.32707584544139 -5.16880996277024 0 0
-105.54516032994 9.30909476528153 -12.9471271189283 0 0
170.669631846413 20.9577056409283 -22.6409951953268 0 0
196.394844811891 27.8685550678694 4.53364094731903 0 0
160.400429460182 -4.15712339703028 -18.5281294437285 0 0
-225.798944554202 -10.1221362747286 -9.80665732586642 0 0
163.242517085017 33.0526399915481 21.3832413221949 0 0
-182.971175287265 -17.0456396897431 2.87215351282343 0 0
156.070920994355 10.8259333476401 -25.3248989710587 0 0
146.156757544102 -19.5918121999939 -12.3313370460646 0 0
-210.739106971619 -21.9761991400241 -21.7878101749218 0 0
70.5440303884575 -15.212313172417 -17.1057181635476 0 0
167.567384254085 -34.6939323020267 6.33978565150022 0 0
156.322642190356 0.59771790870697 -22.5767989576965 0 0
151.860735939409 -0.328114983467763 9.54681476470235 0 0
91.3703870606195 -15.8568029097065 -16.6542005006791 0 0
-132.182612739984 -3.61387256639301 -6.32213456164505 0 0
107.660679055135 -5.62448561847507 -23.7688640834005 0 0
186.066284469233 6.48229967609104 -18.6910173363474 0 0
