"x" "y" "z" "f" "a"
185.399195216748 -4.31042466008342 10.1523302668059 0 0
-180.304077272676 13.7482575531938 -8.87246709160017 0 0
97.5387851100226 18.0420184819694 -11.3564376315118 0 0
193.518770712848 -20.5699730726012 11.891993257591 0 0
-218.907776413759 24.9551129697005 5.55327788571687 0 0
219.737210595348 -3.49161477398331 -17.1386077411347 0 0
-194.139487495243 25.4534749550698 -2.16013922425316 0 0
-215.346498941025 -2.68562831667542 -18.4759842742693 0 0
-142.218697670875 3.46442032417949 15.7741454508294 0 0
-216.223514424392 -7.23225063430254 7.44391914246205 0 0
90.6027361787464 18.539420271701 -8.39787417653499 0 0
-213.307263486722 6.99797956391427 7.81156826606313 0 0
217.731426693725 -8.55328074145113 -20.5341421629928 0 0
-219.153306961806 -9.696758228049 -22.3033228094088 0 0
-123.869379771749 22.0262692542772 7.60351572893607 0 0
-238.31438176181 -20.2537746829329 -10.6183957156775 0 0
-222.867478902744 -28.5011849896392 16.9619413048424 0 0
197.458829814737 -1.83015694498351 14.4166896344829 0 0
57.7997480431405 -3.10673767248529 -22.947077283917 0 0
170.86221302755 -3.56622772809464 -19.0925549950313 0 0
-123.212997600302 18.9329865359891 -12.6145085882437 0 0
228.545850708878 28.0114080182994 -3.68788910482095 0 0
34.0332135313547 -3.98773893760092 -21.9168168531488 0 0
-141.695396146771 -4.80675486831788 -4.97242505031205 0 0
73.4802931745706 13.7002975095169 -19.2944127552907 0 0
214.308348051988 36.4110187140593 8.92183655885112 0 0
149.6695108014 18.3827871978855 2.94562483720002 0 0
-20.4261638753262 -2.40819009086673 -18.6264824043958 0 0
-231.222357301655 -42.1640043458309 -11.9162172842331 0 0
-239.312492319711 -29.5755828343433 -1.93618510467431 0 0
225.97912290455 -12.835890985627 -18.2805895315662 0 0
199.330070797169 8.7426741049382 25.9231295118503 0 0
214.989846128232 4.45500856436931 -20.5532128463821 0 0
165.67732913377 -15.0318789757474 4.79724493911814 0 0
-177.540066476041 5.77381402517064 -12.443466829626 0 0
210.264177134778 -40.1050776557748 22.221693804102 0 0
-125.100723024539 23.6933943449383 -8.54785026994205 0 0
-75.4030104358738 4.0166180576443 6.21468045689138 0 0
-92.2100083379615 7.53745558872587 -18.6542768307842 0 0
-209.071415107464 25.6467215910826 -1.73326096781626 0 0
-179.613353043781 8.08708205054565 -10.9710388434607 0 0
30.4780810342626 18.7427529722604 -16.8985747647914 0 0
-223.610079161415 -44.9034216478234 -13.9612879863158 0 0
-49.2640200007591 -3.15929057893002 -4.73453201218577 0 0
10.1634374423719 -5.88313496501518 -13.0907987767998 0 0
-46.355462932335 9.63345047396852 6.23184629171831 0 0
-178.3970962396 -13.9970297530541 0.764697450678816 0 0
-50.0178885946185 16.8694199875112 -21.241288401655 0 0
-221.024401854973 -29.489230760645 17.2070980811963 0 0
210.186898734041 -37.3555074452975 -5.46234516197936 0 0
203.607948176217 -17.8901799483567 -18.549087289874 0 0
-213.843905588275 -39.5514735813575 11.9214132991037 0 0
-239.000554649745 -19.1101169049259 -4.89421754240902 0 0
-53.0792793779251 -2.56506324045536 -15.4338533480273 0 0
92.126858624677 17.5634786151652 -3.00425171634488 0 0
164.586396071079 0.715667186392521 -20.3642816384778 0 0
-46.6513634137435 -0.0890680073615239 0.523883663202039 0 0
-174.889986436773 20.7593842249146 -4.68329932266524 0 0
25.8100219658936 1.660666416739 -24.3302485252306 0 0
36.8892170731248 -7.69702667007818 -12.5920265055973 0 0
-220.235913555639 -46.7283069754893 -11.2800733422748 0 0
-239.815715314971 -24.77210940249 -3.33791142525309 0 0
229.826622679431 -39.0402024570937 18.0580269137467 0 0
-219.926881193478 19.3518400367103 4.28461460893906 0 0
64.9177052169814 9.28405978250009 2.85493971217701 0 0
214.088600550655 4.40982618951886 19.9664810304025 0 0
99.7302593492739 -1.33362943365955 4.72059436238585 0 0
120.086102805398 1.14971359631088 -22.1448948463602 0 0
-194.356901246613 -12.4770676767449 -12.2061102249943 0 0
89.4195202279423 14.5320274782769 -17.5767901215343 0 0
200.500387105043 34.9866125217353 12.2107171398391 0 0
218.901532973268 -32.0382920842943 -9.40945137411314 0 0
-110.503018937446 10.5266252758776 12.0357809219055 0 0
-146.042838242669 24.5138560466601 5.88685971115408 0 0
121.76691903952 6.85900510242668 -21.4777838634927 0 0
-12.8216399268403 1.14990273063729 2.43161679095701 0 0
87.2167320512629 17.0855082523939 -2.14757408759075 0 0
-187.338984718762 20.3358023482071 -5.30630381747729 0 0
-56.7619433297288 10.9058805858735 -22.5034898065995 0 0
-195.745765770363 9.29103030419125 -12.0520922394315 0 0
-90.9789333754924 24.844544989152 -11.0483990861948 0 0
217.003963160142 -30.2399006929667 -11.0168915916899 0 0
-134.518072082458 20.3806666152081 -10.0322708069491 0 0
-172.067666764952 -11.5836593033698 0.597262016739583 0 0
-168.597393559434 21.000437747943 -4.9336783855212 0 0
208.967087744224 30.8125261361193 -7.84558288692251 0 0
179.013701748176 6.46330879938587 -20.2199218390553 0 0
-4.09125959418414 -4.29836217495566 -17.2288306283793 0 0
227.260492922836 -2.71544068201634 1.76203960188708 0 0
-13.8999717957306 -4.60980920175978 -14.2152624408213 0 0
184.952866190206 -12.6793174912361 9.69571380326824 0 0
-220.982466967653 -44.3523488705921 6.74453887351302 0 0
-221.08700060977 -26.5387635858734 17.6866499612957 0 0
-237.888567801196 -16.0639347979036 -0.754752230401435 0 0
220.055397740989 -17.1495608884974 -21.503528068388 0 0
-186.538118132612 -17.6821356556427 -2.41294367900574 0 0
203.702806931761 -23.6034015652821 22.7957328597985 0 0
-203.947337887752 26.8979198713091 -1.80413771515398 0 0
219.166806123498 -28.4682407836363 -12.3057550865877 0 0
115.83002217909 -14.6816632135383 -13.6078892292009 0 0
65.0140652250416 -1.28189303013169 -23.3445713094105 0 0
-93.8604948775105 -4.61548013754481 -6.76308005844068 0 0
204.449649572638 -34.6608071978885 14.9837712878213 0 0
52.2081336922847 13.1381571664818 -20.9132386001092 0 0
241.766496651624 -27.3940871855053 5.72294013980429 0 0
-180.179903662419 -14.7367680144642 16.6403458623358 0 0
-237.105543365216 -14.6635838877649 -8.27784052704133 0 0
-140.619218851937 12.1470108721104 18.346826085371 0 0
-87.3493840679735 25.3509486925315 -7.6178014840085 0 0
-105.344929276688 4.21295905556177 -15.7668066551725 0 0
194.928088949781 -25.6841635989449 -9.63688833101003 0 0
-215.772689969191 -40.9532909587265 -19.8523788093527 0 0
9.5632556417294 21.6141823792007 -12.4518288735349 0 0
-185.154515649976 24.0595173064329 -2.18650890320228 0 0
-129.765854489012 4.21374160507073 13.0710768042588 0 0
149.527879128192 -2.91620732095099 5.92754017774392 0 0
-169.700276915384 21.3391223561879 20.4380544355857 0 0
193.940037065846 -21.2481950769959 -13.1445112111647 0 0
-112.804071410176 10.111547166279 12.5976685612436 0 0
146.875626159903 -10.6810280200576 3.61285030655781 0 0
-124.920182353078 -4.30098184674461 -6.33971845172806 0 0
-187.500226325009 21.3832542144093 28.5912915240753 0 0
219.791175637064 33.0611603313846 0.999361093106898 0 0
-165.863875368854 -17.7973342392179 20.4971783149955 0 0
71.7266767925123 -3.65991058138787 2.56397233691418 0 0
-151.493692310169 1.1563024506053 18.1392555763411 0 0
-222.616993766297 10.4696422460689 15.5488549963821 0 0
-230.521518610234 -38.9472622406776 6.68250572446483 0 0
-222.576102524664 -6.40083075789067 0.649389122789574 0 0
-75.1730148582452 22.2223431142888 -16.3704287314932 0 0
125.670009358328 -11.7526814437105 0.114436209679503 0 0
154.496192877435 13.5169334445344 10.0885860705444 0 0
-203.29076573131 -24.4976008096651 -20.6713105168172 0 0
140.895541109485 3.68279237094266 -21.6658954904772 0 0
177.421221038003 -3.38440152765156 -18.7462822424731 0 0
147.841047473731 4.07909300276296 -21.4478006122995 0 0
180.026286477381 -5.97207337056773 8.92152739485739 0 0
217.983457759726 -40.4437431473286 22.612741872716 0 0
-20.3084109921659 5.25243736882406 5.47447302167399 0 0
121.950738213229 -3.20778147054977 -21.5054323057651 0 0
-212.298528531257 29.0791668776203 16.2028255113031 0 0
-139.10875841998 12.6189521011828 18.1882108736492 0 0
-170.537847450591 4.51123374763124 -10.9406109123141 0 0
221.5007345988 25.6995642230583 -19.2785094462698 0 0
-168.35998207737 -8.56883645269606 24.6943220271829 0 0
171.823070306072 -18.6144384912968 -10.9424104359139 0 0
227.224763290713 15.5066937708197 -15.6455234112892 0 0
-74.7238975223971 23.769225595285 -14.42018785731 0 0
197.046736452047 -27.8239002841202 -8.40246902811587 0 0
-233.18860870193 -38.7189605688966 3.76723835407804 0 0
-234.554352509145 -38.5134347161548 -11.3393508036474 0 0
-132.405646261527 -3.22850860919916 -9.00695747687005 0 0
40.5295199475955 -3.03144475304035 0.853451877412825 0 0
-163.664846161679 -1.8356735182243 22.8904706393603 0 0
-0.750833523405621 5.52815784381012 -24.7231780023788 0 0
154.828449686325 -12.8715227149809 3.77766423018465 0 0
203.567401289 9.04509328244818 -23.2309897518756 0 0
-214.892802567618 24.8894316941711 21.0145660247176 0 0
205.142194033173 -32.356071634559 17.4259385795607 0 0
1.10052768675605 18.7238105129418 -19.8008409836242 0 0
-33.2894461597698 6.30682650483281 6.38584533813417 0 0
-160.388978803018 -15.8440853664181 17.2325399566383 0 0
-212.042557274691 15.5085293837565 -9.2652574975485 0 0
208.507751103821 -40.2778224216901 21.0607598679373 0 0
122.192439796486 18.4925059954077 -4.39772221194776 0 0
221.176204662671 -36.2682120065272 -3.92157398440065 0 0
-151.940511288845 5.09291497164733 18.7237401390439 0 0
188.368541169676 -10.6770422435649 -16.8351011367807 0 0
165.275421112054 20.018688795804 -6.18263619752022 0 0
-2.1642403775941 20.1165751505812 -4.7319377355004 0 0
228.671017239508 32.1111131759453 3.52268885013035 0 0
-180.690103629118 -8.06098805805402 22.0291588614991 0 0
-141.153533605316 1.36341194160548 14.6878838295755 0 0
-118.073708025917 1.39547380846381 -13.6087241637185 0 0
-25.3665301055583 18.5595394286168 -1.04919181622539 0 0
-105.682274934509 -4.55574195532747 -6.43606232054592 0 0
-120.069678181343 -3.50357842927059 2.65113949308134 0 0
203.998041275999 -37.2615050756141 13.5267368304953 0 0
58.6724573223042 -9.18773515480231 -16.5343815282924 0 0
-31.2126760634277 23.5679460915324 -9.10827426671234 0 0
-147.50439204464 -6.74089483029231 5.27039486803237 0 0
144.899659884664 -18.0418140067817 -8.11571967571365 0 0
-84.7480975613153 -4.50786839103419 -6.85580669737124 0 0
-24.8226460410722 14.5226994927095 -22.7843993522966 0 0
144.688012923029 -17.1644736621621 -2.9596470738218 0 0
-191.701574615722 9.64168890613202 32.205662807578 0 0
-202.982998065825 -22.6168746988552 10.1175253847293 0 0
-211.683439371614 -19.4509879350183 -25.8625778094555 0 0
232.452672188394 -23.3733981010088 -13.4675187173501 0 0
-142.35863555793 -5.67194446089077 6.10612826805712 0 0
-210.828042681666 4.87252038797958 28.2540121487575 0 0
-232.913709020113 -40.2314353540921 -12.1249343834197 0 0
-168.996789543262 1.60646036379417 24.9354526448409 0 0
-223.165129812984 18.2367447563007 12.6956749293422 0 0
226.267703569876 -38.8182471298899 3.46148355570421 0 0
162.678649013147 19.3490768320063 5.30571134290627 0 0
-202.96644830236 -22.2431839580065 -18.9163939206905 0 0
-75.8546120311579 6.31710297133408 -20.1151246204627 0 0
-148.304499741763 18.4862232103959 16.7368510612703 0 0
137.248391037887 18.6666569239297 -1.90561087776783 0 0
-226.508195976123 -6.464621213667 -16.2042091610751 0 0
-6.472008271771 -0.0370643176902383 1.11841130205266 0 0
-12.1419834081641 21.7770804085686 -6.62707702788635 0 0
207.913529362584 -40.8657585240175 19.3699746134439 0 0
-26.7799730126645 20.2692860825056 -3.00667145980673 0 0
103.941934524781 -12.7798958553777 -5.28407559013739 0 0
232.561120500879 -31.07751752743 -6.35087679247927 0 0
-149.622854072526 25.2287475781859 3.08577917302072 0 0
239.178004746229 -17.7133349232079 4.74051035318695 0 0
169.190698727539 20.5485429605251 -1.8552207301801 0 0
33.7987658904682 -5.49414091132004 -20.3793709460109 0 0
56.7903712297184 5.11180958229868 4.03628045765744 0 0
-125.131433338379 13.4682499678346 -14.1828870774168 0 0
-215.790569432326 0.24857068318631 24.5262533554472 0 0
124.291244186685 -0.840539497600884 -21.8715499160305 0 0
-119.107800489121 -4.15456684237238 0.451398813023106 0 0
-131.889127318677 -1.31832208716632 9.54708102468499 0 0
231.431089277459 26.6440521741209 20.9549506834152 0 0
-137.883133293771 -5.76402859624081 2.62781018070584 0 0
205.03737964323 2.62452231029896 20.1437060925471 0 0
204.793927493906 -0.431562089148872 -19.5663925725698 0 0
214.548654206045 -21.8787733131393 -18.0131394900535 0 0
-68.031425399721 0.289706138423375 2.31099466652121 0 0
-147.094590341117 -2.0282101718029 15.0865855490011 0 0
-63.7473368931954 24.7340272125983 -11.6366652532892 0 0
-162.444206598004 -13.5759941479791 21.7602420996333 0 0
-235.090037337859 -12.1093568276342 -10.7380135208351 0 0
93.7936745368527 -12.8291401297674 -8.94274691990683 0 0
219.562673009416 14.1666381022338 -23.0325819694548 0 0
72.5239547679725 8.75128185059022 -22.4147561649383 0 0
214.781139189124 -38.4078102204136 33.1645112109887 0 0
141.262294126328 7.44983024218198 -21.1164624393919 0 0
-199.355543931235 0.719161910548917 24.366858283715 0 0
34.1716513375674 -3.16957953121432 -0.201916486208434 0 0
-222.838946875689 16.6305101643219 14.5482512021952 0 0
-76.6244591629846 13.4660340954734 7.34619339491378 0 0
-140.162212934824 20.2678375681878 13.1457963245501 0 0
-231.104541242528 -17.9955654343679 12.589017457601 0 0
-59.2695613798727 18.9124669184222 2.65039943855652 0 0
-200.399822961687 -31.1136891199655 3.08109408647904 0 0
-214.827846422867 5.00919209086016 -9.65624770632874 0 0
56.6462443980081 18.1826242535088 -4.35382258368944 0 0
-203.671592130276 -13.1086961691433 11.9421892698367 0 0
81.8153971471502 12.5733459156399 -19.7653147127962 0 0
149.921644969287 -4.6762162889596 -20.1217483067753 0 0
230.279755682642 -39.3733536461257 26.1452664822689 0 0
169.117351605581 3.86147760461319 -20.5132593432881 0 0
-72.8583849151498 1.72346699103876 4.24506993686693 0 0
-214.07551371861 -14.4291074259969 13.0578468303471 0 0
51.8992685503995 -7.76209630047744 -6.92883244495948 0 0
-171.582060165128 -17.0582131117424 9.84357415452934 0 0
73.0042084719993 -10.1078684765335 -7.72888747491307 0 0
-202.321195628921 -29.6521656745505 -20.1307899943427 0 0
16.5859079542462 -4.20745867329567 -4.36619964424798 0 0
-180.477084424238 13.9277167100104 28.766942893874 0 0
121.063305721536 17.1508754222293 1.21197613313972 0 0
18.2390281321823 11.4479504249153 1.5764125081013 0 0
30.7371386937302 -6.86763548279516 -9.65911042486033 0 0
200.595383453665 -24.4518453554273 -13.603750523922 0 0
200.049174611883 -17.7432602035562 -17.6160573480894 0 0
-129.036348580948 14.6525023602536 -13.2874081776272 0 0
-8.85925226512933 21.6613410411865 -6.80113062070559 0 0
-105.285772656385 5.9248523744057 10.4183998049096 0 0
152.596197367797 8.14190981597639 9.17407311315648 0 0
95.933874866463 -13.1831406245715 -10.0448703637975 0 0
221.729910898689 34.6642297659075 7.46943490568674 0 0
204.708926515856 -24.1366736332568 24.9274981985722 0 0
12.1407746032324 16.7894139380716 -20.775792014851 0 0
-210.712056805076 27.3278986295144 2.3341798317631 0 0
109.43477150918 6.71935508787221 6.09152779218598 0 0
190.584020191979 21.252908405802 -16.4091490322808 0 0
124.951914578554 -2.89259656491904 4.78115830511369 0 0
187.453212732997 16.1358836797629 16.651102207981 0 0
-183.149055212668 -10.6512963855938 17.6269041075297 0 0
-143.21886146815 -5.55188331875587 -2.86941218122888 0 0
-215.867694353641 -45.6837110686437 5.1847879849813 0 0
230.360140576126 -21.5126168214393 -15.9793712618276 0 0
52.6262345509814 -8.18616319084423 -18.1489186932508 0 0
-215.704897211684 27.0172359397996 17.0838213950388 0 0
-169.423655267851 -19.6937382884892 14.3581955484873 0 0
-218.224643228862 -0.663134703435953 22.3438036045324 0 0
89.7285889074311 16.769452328547 -1.37920365175094 0 0
116.277917186206 6.69258562419056 6.57122533126532 0 0
8.0680662724648 3.99234643863309 -24.6919208626364 0 0
-227.873631291167 -20.044821401775 -23.6386020923298 0 0
234.566768273526 -36.4769073907778 8.31602399728935 0 0
225.761090930339 -30.9373476239849 -9.12563356155277 0 0
121.670719941864 3.71700660730746 -22.0563772382198 0 0
-228.589275145878 -46.0010819167701 -8.86286870612177 0 0
135.036705599461 -10.927862418899 -18.0246185473268 0 0
103.833507715304 17.1705470971507 -0.829243401767285 0 0
-208.112558932308 6.47839188502919 20.9609698233687 0 0
134.039928548734 -6.30860576714233 4.13884218666811 0 0
-179.096824126448 -12.8730234234071 -2.96965093333102 0 0
-64.4756932889363 24.4654854803231 -7.36873823963188 0 0
-107.54789714089 5.51379068987682 -15.9611162489362 0 0
-96.2636820882317 24.621583436413 -2.63880612546364 0 0
-107.734656655116 -1.82516802228414 -12.4969971211744 0 0
-92.1408037173324 -3.54746707571856 -1.79149215046527 0 0
-207.0580775261 -3.61208702602665 -19.6654292008721 0 0
222.010137873552 -11.4509600269538 -20.0940335161906 0 0
213.747121221927 36.1530743076991 5.59059223822524 0 0
-104.119492765183 11.0983717275948 -17.5020348080093 0 0
-234.113780446527 -12.5733193446775 4.82729404288378 0 0
207.790210868702 27.4825169955719 -16.2186340413619 0 0
-126.277060752607 9.06937998462785 -14.493238911006 0 0
229.278568355247 8.22878293344423 -0.4018958659914 0 0
100.302195344713 -3.99488064222983 3.23791037641824 0 0
-34.1868437887381 -2.69529276676883 -16.8294890285862 0 0
184.294577035697 -16.662013355989 -13.9473496360901 0 0
-226.464656355152 -27.7807674035699 -24.5606242434672 0 0
-157.375152555055 18.5280651981882 19.3116062784663 0 0
204.264030689766 16.2055371581372 -25.2646425853847 0 0
223.179311352045 -40.6467875462875 16.3927390725705 0 0
-81.3200805215325 -1.7950229415068 0.343512051304567 0 0
-179.539422751146 6.82538048846885 -12.018065224469 0 0
-53.823427686624 24.4123291105225 -10.9726640254634 0 0
-206.497124357223 -0.385206987732943 12.9213742043162 0 0
232.521053905302 -39.3782504124521 22.7911974025304 0 0
173.609424317882 -8.4025110119479 7.36786329924103 0 0
157.375160732911 12.3879776376274 -19.159806729221 0 0
94.8702755448803 15.1575669536987 1.39202346709451 0 0
-178.977673938101 25.589328516396 20.4460621293199 0 0
211.279149240174 -39.850930816779 -1.69328723591348 0 0
4.76850092399375 12.7733301921108 -23.376472492637 0 0
-112.306570833198 13.1584937833617 -16.0647073424693 0 0
161.024949361323 12.5285937123803 -19.1137287419762 0 0
-172.746440707439 6.07210459699387 26.4884393683158 0 0
191.504786417258 -14.1082541717494 11.708164897266 0 0
-205.434319045059 8.04558309034828 -12.1752886652855 0 0
15.4284401986188 8.78841074060616 2.66747811688804 0 0
-15.0182170692229 -4.58601327281432 -8.82946656630671 0 0
117.084242589954 2.02546858090527 6.49505025031495 0 0
-216.114726553667 7.44056074983572 0.856007615215939 0 0
-202.95496015776 4.20227779704714 17.0992028402948 0 0
-174.996519113855 -11.4235463552094 -1.58510382926611 0 0
160.219349716098 -4.38930867717695 6.44868643752324 0 0
147.089473136615 -14.7490441146502 1.53045712213093 0 0
-210.877928642622 -45.8419502793103 1.45773927560697 0 0
194.833276575103 23.3481170464381 20.8789560592823 0 0
-86.6230104257682 15.1451217230091 -19.0356133823359 0 0
-116.544599068722 9.09203454254773 12.8417922464381 0 0
211.487486767311 30.9398445589621 -7.48880594474486 0 0
-124.237345153985 -4.76432814951113 -1.49242896738849 0 0
-176.895720271069 -13.1782505674939 21.1798058383502 0 0
-205.912631704415 -38.7362086559546 9.42995273337753 0 0
-20.4282296129883 10.3525460334903 -23.9647305641798 0 0
-152.396238743906 -7.93321369753798 8.48535669483524 0 0
-99.927295811631 17.9725717028159 -16.2385554474828 0 0
156.335758535312 14.8401349444961 -17.3795808665014 0 0
18.5673861579817 5.48540231850192 4.13620451395913 0 0
204.976875437453 -26.6161531504524 27.3034809414863 0 0
185.298000982519 -4.41445638175604 -18.1522639144581 0 0
-216.912587021214 -48.1532501644983 0.328763774811305 0 0
32.3445459127248 6.92559163722757 3.29288550707013 0 0
-161.294172492206 3.16646614473527 22.0934358445737 0 0
97.1948500488706 15.1352511272432 1.62478329009822 0 0
207.780443900214 36.5478033595249 13.2019168099135 0 0
-109.098794005917 -0.73461583131594 5.39744047136802 0 0
-10.8275326846915 0.694676490437372 -22.6619158348561 0 0
213.843781330372 -31.5009142568396 -10.7212050542049 0 0
-123.965399453547 -3.11458707871495 4.73593552724734 0 0
160.282832473802 19.6784723158238 -7.32164044446652 0 0
-238.676852839433 -18.2892463602836 -6.6961602054705 0 0
224.374119720826 -4.5607236201276 5.53482224472727 0 0
-199.58885452467 -29.0015311084972 2.02368886339818 0 0
-212.34949836932 -7.37567872870384 -21.0320365789571 0 0
-223.340299365846 18.304231253504 10.3395424485233 0 0
-57.6756564317857 1.22182094003102 2.91058090600349 0 0
-128.947548427063 22.693325854243 -9.03310524936045 0 0
229.812876843327 10.09265468339 -2.92409398627344 0 0
78.2317330546107 2.87739474780145 5.51788705361746 0 0
-214.304980996163 -17.61460345851 15.424479779003 0 0
-179.812122937249 -2.7941495236572 -12.0698622882327 0 0
-154.949798673193 -6.98435745520436 16.9296470383578 0 0
-95.0912834406386 23.6251541153995 0.00119089639861326 0 0
2.18061152110709 3.41213643291295 5.20760004953404 0 0
85.1955905898491 18.5904047498562 -9.4914626380519 0 0
-170.90032649027 5.60578611135272 25.7543848233737 0 0
-220.609267202865 -16.8051923262579 16.4256725675423 0 0
225.999603971426 10.7452075884864 -15.0743240363066 0 0
-230.45932175955 -7.25110424645153 0.932522550635834 0 0
212.38406203726 25.7587096215338 35.4305577987498 0 0
231.732997310155 17.4257643065827 5.80302570459902 0 0
-195.918117529745 -17.84430204785 -11.518227172634 0 0
-107.098750014231 -4.58496813305411 -3.76777016829806 0 0
207.350234894662 10.0064929983879 -24.5166045941761 0 0
-215.340992116172 1.33133067001852 -15.578347122987 0 0
-19.925273701407 -4.49255174531838 -9.23461838625737 0 0
220.301142448093 -33.4763956324497 -7.54768288881016 0 0
93.9519024705126 12.2302627549353 3.49418557295965 0 0
161.629922821265 3.00106371476077 -20.8253233619815 0 0
4.60547980880257 12.6767817723715 1.30223068668571 0 0
208.254800449757 12.420586427608 -25.3056182333092 0 0
94.1183958901712 -9.25333348716066 -2.30332535545211 0 0
-21.1610623256633 7.99487936426862 -24.3040338830566 0 0
-181.925787689909 28.5878968532953 18.1627582774186 0 0
-233.573481644916 -28.127957894723 10.6385473908352 0 0
-142.365566008876 24.7573130590409 -3.11476879568934 0 0
31.8106114096404 15.7014142620796 -0.903860605857447 0 0
-152.096279601892 12.9088967578008 -10.7708236545948 0 0
-234.927418568896 -13.5157906233069 -13.011654075794 0 0
-226.046198251575 -7.12681386708794 -1.38747605714712 0 0
-38.6875331776601 18.4687631816687 -20.819858898203 0 0
49.4298149374399 -8.4143476544352 -16.6083350106186 0 0
-181.719328481129 30.5000425912498 11.2643204964488 0 0
196.450941045428 -23.0075750196817 13.3509055128559 0 0
105.124938369485 3.36905481524963 6.27759766801717 0 0
-37.8072651383182 2.67438328797295 4.13619976934239 0 0
217.244886418658 -11.1004493257301 -21.6246585473493 0 0
-140.115410746795 -5.71540111201584 4.22150272234709 0 0
102.648386521675 2.57613920362579 6.24279859102314 0 0
109.81241360887 2.61624011707887 -22.4536972777534 0 0
-186.361778084427 10.0868884135943 -12.4841855566945 0 0
225.42783568085 34.3887730677307 16.2347846204307 0 0
-159.291721928016 -13.8293540262248 13.6637006864918 0 0
149.644764144636 18.9318660441747 -9.4974578144179 0 0
-212.840022417692 -29.3902058716484 17.1543559723741 0 0
-151.709569498838 -7.09721447427973 0.821759212863378 0 0
190.465252757841 19.5171408931997 18.0672182803764 0 0
-219.408463488193 -45.7192267907025 -13.164399330769 0 0
-162.976711408661 1.14379308886329 22.5439314015372 0 0
-196.653949954692 -24.4206349907782 -8.44649331388551 0 0
215.987585174726 -36.1046753596948 -5.37989762930974 0 0
-190.125121686919 34.247534365157 15.8010436231556 0 0
225.758761120406 18.3447238790253 28.6744698007684 0 0
-41.8990774142468 15.8962142583744 -21.9250171079287 0 0
-145.330708630055 7.96181315768498 17.8088314437379 0 0
-146.894789576712 -5.65975849716685 10.7350879762053 0 0
126.236393821971 -14.4133828466689 -14.8685173966348 0 0
-161.23645822037 -0.65672550115051 21.3732474972418 0 0
1.23714703807424 12.7226101870615 -23.4539220071572 0 0
33.1755317738772 16.9652978523401 -18.8663702724984 0 0
-181.908211679424 0.386633237246573 27.4309612883937 0 0
-97.6998233834261 11.2719113525922 -18.392316049503 0 0
-223.089888109435 -48.5958996638269 -1.58875894798774 0 0
-197.152622958923 19.4921911279054 29.9178781318232 0 0
-26.3246579646385 8.43138229319348 5.62890375289824 0 0
119.27367711575 18.5592594916067 -8.01944786696031 0 0
-217.744447981284 -36.7412287959225 14.1913441629697 0 0
231.167395159204 21.3549726372305 20.2631089821688 0 0
-225.982838325742 -39.8131062358407 -19.5453340732773 0 0
216.193127052318 28.7897330956529 34.4214055698257 0 0
126.510558696059 -0.147501860776813 -21.8926626905076 0 0
229.60985557824 -6.30229707100374 2.91218416313057 0 0
-63.4334155778843 10.861102138235 7.213589860624 0 0
-210.750532457463 7.13735165960637 -11.3952831464658 0 0
206.061140570581 -38.2188681513916 16.7778650629472 0 0
37.5626946592387 -7.38949287107075 -9.48530320009598 0 0
-68.1995179643943 13.574023504333 -21.2918142575473 0 0
207.364861379857 -37.593034557701 24.9308330728787 0 0
7.9640151509145 18.8658501820718 -19.0592412315124 0 0
-183.502014301497 31.1351111575701 13.2514668969469 0 0
216.737301636411 0.484824536779529 -18.0523440086601 0 0
-156.282905381676 24.1525742733171 10.5668567574237 0 0
-40.9940652641152 23.8584818500121 -9.28650221275429 0 0
-193.78984131288 8.57117399447284 32.2186755165737 0 0
-171.986166140412 19.5604578344172 22.9231519784906 0 0
-101.640102627794 6.89644636720211 -17.2701770130915 0 0
212.368816732599 30.206768451591 22.7786325010262 0 0
-186.655340592147 -7.03371258711445 -11.0126016341884 0 0
-32.7557170607701 13.9847395410072 2.74858412283703 0 0
220.713381805874 32.1828498626078 -0.729318199213754 0 0
-122.113737535614 8.17593856288361 13.3748297387843 0 0
-118.817915556226 -1.92830487109082 -11.7913917716621 0 0
210.943038255167 -39.0088266998377 30.2206519572351 0 0
-209.052034059783 27.8971481966743 1.95728643712282 0 0
-216.224326399446 0.259169986961032 22.5605617420148 0 0
181.116761641077 -3.80764355651962 9.35228337145567 0 0
-215.343422966938 -47.179261643404 1.36815549127879 0 0
180.076003173829 12.5062073949448 -19.9278496200951 0 0
178.599667850981 -13.8075224342068 -15.1432162623993 0 0
171.443810291512 18.7846573083884 -12.7036809999102 0 0
225.415377472597 22.9271527015613 -17.7498632428276 0 0
-124.119907065084 8.69625204662468 13.8871460722213 0 0
-111.00066835532 25.4265489282635 -4.82038078489098 0 0
-128.566567712408 25.3990607778016 -2.75135884603642 0 0
-163.65824335862 -17.6437605216585 13.1952675993219 0 0
-192.477642703875 -8.97901767015995 -11.8932549210868 0 0
-165.018079764987 -18.5453528229869 14.5406521289553 0 0
10.8327821103245 -2.31308464616401 -1.25088038635292 0 0
21.6165991582711 6.62647316988796 3.48464545804039 0 0
71.2518597389851 15.949788846011 -1.06570238824743 0 0
151.861961368599 -14.7549878096392 2.85222901486557 0 0
-191.739736756251 -6.5657986904993 16.1338926071453 0 0
238.176206682057 -16.0543496072328 7.25300937861005 0 0
-82.4418747516856 25.2384474460207 -8.67215465569283 0 0
-233.321142994153 -12.8416151656841 6.6549722242751 0 0
56.5712930756813 -5.78390172795079 -2.49813962584988 0 0
-229.671811493264 -41.6647243573773 4.46523762563014 0 0
171.885628354463 -8.6996626447238 7.02668936598865 0 0
-120.90991237198 6.55251423164847 -14.5856091819865 0 0
184.586078874456 13.5461981926427 -20.4184912539821 0 0
75.8483764684773 18.7622016895085 -9.34950745281228 0 0
95.6432511056345 6.37700926218209 5.21418418844335 0 0
146.557518951097 15.9836990539858 -15.7467871950825 0 0
219.9303410827 31.1942952806978 32.9467710802005 0 0
-162.727741249001 5.76457318270728 22.8723401312701 0 0
196.587361976748 -34.5892075753768 7.14748715345596 0 0
-124.456577567241 18.1311414427029 12.3083855364601 0 0
239.437101076302 -34.2420393131754 19.5825305795095 0 0
198.381495745081 -20.9923002027112 15.4499160287505 0 0
-172.75800337734 5.10041061068627 -11.1413367371384 0 0
-133.63019835885 15.1910125486983 15.9126047688587 0 0
133.237472772855 15.2585060901508 5.36792595090458 0 0
-107.887758985978 2.90935299736231 9.07037568078176 0 0
-223.095591263437 20.2063518384549 17.8576604367972 0 0
83.2834933838821 2.13669755747907 -23.2516329675617 0 0
-109.722724873971 25.1636110575292 -8.010151175575 0 0
-214.322214512109 8.59437124634723 -7.78727759714141 0 0
180.349498968925 -20.4351337751503 -10.1302685524098 0 0
142.180497951352 -17.5169975969146 -4.61104604956952 0 0
79.3305161404616 16.1459003703549 -1.02197530523221 0 0
197.80572251019 -7.34001437753483 14.1465064634519 0 0
-144.402091703362 -2.79274124760312 -8.87888243914738 0 0
-195.772946391417 29.0972837820609 -0.0365269108783194 0 0
-217.887751252515 8.53127808223743 14.7632169823116 0 0
-229.240084908747 -33.1354240552892 -21.3644508437624 0 0
-221.943480003398 -3.21781794133697 -16.5442374366503 0 0
-235.157044977531 -33.1441190462919 -15.7191757609481 0 0
225.791586802384 -39.7220197514951 17.35442864297 0 0
226.607826320921 -4.2979758632172 -9.79868586182895 0 0
-10.3215144009627 22.5367795685983 -8.90625377118507 0 0
42.9248453351294 -8.00579400123278 -10.3288287381938 0 0
197.30432610447 -0.454953817922611 -18.5615947694559 0 0
130.972657069621 10.0086269636779 7.59613823604464 0 0
-84.9847665232976 12.6428166148886 8.81588425034377 0 0
-17.6032619388218 -0.0202416222469723 -21.5359406098413 0 0
-222.646064583731 19.9700529089683 8.95454920601396 0 0
-169.701059682666 -12.3296215528548 4.48680542836919 0 0
240.249067078352 -31.1255659214286 17.319974264235 0 0
126.834864994489 -16.4496610630336 -10.1543872533989 0 0
74.1855943567652 -6.86988211972827 -21.2753617450725 0 0
-218.952351522254 3.68711559860593 27.4340168122986 0 0
-135.216647556824 12.0354294892806 17.5297350010908 0 0
-204.037509370176 -16.4055774018322 -19.7999130078463 0 0
-54.1027102757997 -4.00410344168481 -11.8686721237086 0 0
-23.5597083901102 -2.41247152526925 -18.2358541883397 0 0
-154.544934968595 6.02556428229188 -11.3654586881315 0 0
202.931906584808 27.8835933429115 -12.7127631391375 0 0
-159.315472364915 -9.74668082985247 7.30951379111411 0 0
-2.22370871313343 1.61336237618851 -23.6864209769418 0 0
127.135870055563 18.6691419569769 -7.39677930818923 0 0
130.185199174499 18.1272184060898 -0.393026410226404 0 0
-38.3344294073851 9.66294348114046 5.60389850753729 0 0
158.839176481235 -16.4451193200361 3.33809110228535 0 0
20.2451448660298 20.8457713166369 -10.5492009992347 0 0
49.878327954849 16.9300206535896 -2.19208124820405 0 0
203.347565550842 30.743255848738 -4.85345988500962 0 0
-102.257586456854 -4.04333812590384 -9.07481251275383 0 0
-210.012725248284 10.8829467413777 -10.5395273470612 0 0
32.365448074175 -6.90789301259024 -16.9853543463464 0 0
-202.171131589217 -30.1190992084161 11.8836268535017 0 0
102.212361792726 -6.11507017176285 1.60630750763976 0 0
-28.7325107718318 19.9663260335943 -2.4587351573262 0 0
-192.95639203038 -14.2555692264248 -11.1471989671575 0 0
209.258768968062 -11.1149551130739 17.2986048623219 0 0
-217.065171560058 -16.6928216334765 15.0169699887316 0 0
-60.7671192534144 1.27461790274331 3.13711658606195 0 0
-216.482208723549 24.0679952619103 1.06740151777282 0 0
33.4951896872743 18.8488516935913 -4.77275944367963 0 0
32.3435435118232 -2.92431371247732 -22.630443734498 0 0
198.459722555377 -35.0118055969867 10.6770773838822 0 0
-149.33044081352 3.20492984542921 17.8401589736269 0 0
186.693029435541 25.0102686902208 3.19562355499319 0 0
199.958131062679 13.2374785789665 29.1551673280771 0 0
217.30692627535 -17.7284981991729 31.404844780901 0 0
-235.631221966754 -32.3786615736543 6.12302580336177 0 0
105.04300718732 -11.5722477966437 -17.8538549154473 0 0
36.4345771322329 18.0003464969611 -3.43170590452275 0 0
-200.051950302394 -8.57226566731063 -14.6360768400176 0 0
-134.590324430457 -5.40854436637617 -1.87143236786474 0 0
-227.969895271819 -4.2594838345434 -6.10398561001137 0 0
166.688335774701 -17.127775588218 4.48003204139807 0 0
-199.018649250873 -28.4448904004417 -10.9192531965495 0 0
-188.503652168704 34.6174585255279 12.0003801394649 0 0
63.5831844844408 -1.37007092531221 4.52586930095226 0 0
-205.017841808899 -20.9321675937865 -22.1965189353867 0 0
-208.203682527085 33.0531129254653 9.49751697672421 0 0
154.483062259373 18.9529642128813 -10.0641139114462 0 0
-85.1205014745566 22.4291327523224 -15.2539164402085 0 0
212.978571145649 -15.3092922961937 26.7097819216215 0 0
139.494324312918 12.42521560003 7.77019636583824 0 0
-216.912947398427 4.90975718666473 -3.15409223849363 0 0
217.547326726431 35.38107899888 11.364945865701 0 0
30.2195555977951 -0.753773410261475 3.08695239855374 0 0
230.639877197535 -24.3564631657763 -14.176175494844 0 0
157.46650947173 14.8498824886572 10.2638780195267 0 0
226.392266579744 8.16051825747794 15.2738791300568 0 0
-239.235266377819 -21.6040056158539 -0.676842146544093 0 0
94.0699743491499 -11.1240614632555 -18.0288065428468 0 0
-185.726336869535 14.2650383331823 -10.3015165158085 0 0
-98.9203755067831 7.65136608300834 -17.8442430626087 0 0
-91.7753737328144 19.6888657698233 6.48270417398482 0 0
220.499732797139 -15.0109773758393 24.3877818620994 0 0
-192.039150524953 -16.7779935425267 -9.39749612372612 0 0
29.4675419516907 -4.72977950822365 -20.8458981303735 0 0
223.77229168739 -19.1348451258747 -19.774857576723 0 0
221.86132157763 -41.234878944108 14.4041164088571 0 0
-177.771059623515 21.5678320219296 23.9739124162504 0 0
157.274147260705 -15.2272163624885 3.51962134712101 0 0
-204.318778898495 10.7052072340307 15.5813690008436 0 0
1.95915440341698 0.972469288590913 3.39764754265407 0 0
188.137907575025 5.60824313361802 13.3516326106594 0 0
217.990157186617 -25.3060667884525 35.3604179860906 0 0
-178.227353097051 3.67465410768711 -13.5591987997351 0 0
-185.862788929925 19.8961602751793 28.8354507091482 0 0
-0.515549347793458 14.8395666954035 -22.6488532671378 0 0
-211.125541344167 9.59639306279618 12.2309056117225 0 0
229.838946125664 -10.3538598808197 -11.7392669766263 0 0
-229.928568967802 -5.36952120729189 -7.75909047841515 0 0
-141.197295608635 23.7050865661862 -5.63993491208177 0 0
67.7289549310886 18.5504705578461 -6.06356622073728 0 0
-218.073640641289 21.3168547955755 21.5380494352097 0 0
199.693974381884 4.8588303506386 17.1034940794169 0 0
-202.618579381354 -16.4050133927249 -17.3202112601888 0 0
190.722923494678 -29.885451572581 1.55359243675507 0 0
175.491909743209 21.523490123049 6.02297236313422 0 0
232.786090567283 21.2934298345411 8.18743327805844 0 0
53.979396248932 -6.66808133718686 -20.6405300035245 0 0
-127.883786182702 15.7135011474267 14.4353227161002 0 0
232.465470076117 20.2522747925158 12.6629187631155 0 0
-214.883689959623 -42.2462609769701 9.37584952510981 0 0
143.981936048378 -14.4116051642767 0.932052627872298 0 0
-33.1808979678261 19.4864456154542 -20.3438007464061 0 0
133.882925313391 -0.980095804456076 5.64401896331665 0 0
-54.842199050258 13.1036848208718 -22.2650902137551 0 0
57.8895200078475 0.0258668822436771 -23.682370677868 0 0
132.778881678344 12.6118360124784 7.07321683008621 0 0
-209.879666559954 -13.9680130860827 12.8653479127002 0 0
-61.7199099910082 19.9226511947581 1.75663737556008 0 0
-202.324279665833 27.3467918952941 -1.95214455037193 0 0
214.752911411127 35.7774601862452 11.515510438667 0 0
13.2193216551206 21.2725731479586 -9.95160135086855 0 0
237.198347522801 -24.0097614338584 21.694112678858 0 0
-111.142479005504 21.1310214424029 -13.2025712928792 0 0
-24.1384100398168 16.8385488514403 -21.8784742481192 0 0
-61.3844323754476 10.6730566648563 7.02743605912192 0 0
-34.5203203409752 -4.4528169188602 -10.5314512753095 0 0
-193.666313766488 0.108487881517091 -12.2982838622035 0 0
129.257791164188 0.328859225484871 -21.884578968307 0 0
-167.675858105216 -10.3387585778307 0.0958181684849557 0 0
39.2356850544116 5.84758280077059 3.77909603841847 0 0
76.8007523659345 -8.4952603543186 -20.0678100715448 0 0
195.213445285106 -12.3846368882139 -17.2816651869602 0 0
165.937574267576 -7.91859760463996 -18.250977097493 0 0
201.625944957824 -30.0240947640912 15.9370443655993 0 0
226.925770769984 -13.4062296880471 17.7259138502103 0 0
-55.2936082594749 19.4437370543071 1.54360923992471 0 0
-162.005464458368 -3.48985904967909 -11.0540321963469 0 0
-234.518244437192 -30.2664888386513 8.8569889513181 0 0
95.1436767043072 -5.07010622310111 -21.7621351335337 0 0
223.903390922043 33.7774072365765 19.4549622832569 0 0
236.928504821534 -15.2439178021293 -3.22009671419052 0 0
-134.521790036017 22.8344851989153 7.93261985933239 0 0
-181.839493157694 16.878591415234 28.4743354508242 0 0
-173.527166104395 -12.7282741244956 1.57167849024038 0 0
-217.264190382712 26.7784541406694 15.637383673868 0 0
231.995010951404 22.4309745084312 17.8555653457307 0 0
-183.47785879554 16.1551196718117 29.2760090190253 0 0
131.436091286823 18.7481305103496 -5.20154509541622 0 0
229.958227321415 12.6029035308666 4.61259461221685 0 0
-181.70736495951 -5.61860121648088 22.8955210834106 0 0
194.540633841169 19.5159883572478 21.926739527469 0 0
-113.971746729859 19.4912810989144 9.48893798677237 0 0
232.805223992204 -38.6334663597516 17.4979186836064 0 0
127.167162016637 18.0434640895367 -0.526979962269784 0 0
215.520178601828 30.3152259953673 19.9650307939272 0 0
176.791901347086 11.9427534682228 -19.8156886428431 0 0
33.2185883136905 20.0435859732269 -11.6210068067831 0 0
66.7675639905893 16.8606796990794 -2.35423990608975 0 0
29.1935375226541 11.8141603999218 1.34294966014228 0 0
-216.442127908078 5.60638773124001 -0.814289262567528 0 0
-189.525629554704 -1.24184826119503 25.8096053108558 0 0
186.898355653227 18.7153126123017 -18.0606299145134 0 0
-18.8526133295364 3.31363265434876 4.28820447344141 0 0
173.818418109513 -22.9239147964769 3.95480272159418 0 0
-216.229330560327 9.76004395812062 -0.253983213287945 0 0
188.536673449159 -0.0852762759460505 -18.5227669756747 0 0
65.5113109952854 14.6837959284456 -18.7327867718585 0 0
225.05005397782 -18.5511689660787 -19.2889478230196 0 0
-62.3944771700651 8.13511721116027 -22.020795605035 0 0
178.428988396942 -15.513284246873 7.5680778841832 0 0
140.184134696222 -17.6207244298677 -5.65571485536036 0 0
222.266169113587 23.6369728647742 -20.5929603794102 0 0
214.131226786874 -24.0427702349786 34.4970578026368 0 0
228.566055803691 -15.5678362084904 -17.6135132123926 0 0
2.65564606607131 18.072376227696 -2.43820836986928 0 0
-167.549693533329 -12.5306440955213 7.09456108035408 0 0
233.281519279789 -14.1875245678681 17.554978601039 0 0
-107.6286750128 25.4327662656049 -5.96346502780221 0 0
226.653848760108 0.200434174470451 -4.21911450731507 0 0
-100.156518772593 21.6214762727892 -14.2904238444104 0 0
213.698893491971 -11.6856931128766 16.7496205491244 0 0
-143.140855896543 24.7333322177313 4.38528159166837 0 0
-82.6544644704232 18.1912977013027 6.55663946980636 0 0
196.554874100165 18.3857267276643 26.6740343338588 0 0
-209.954507614801 -5.37403605368411 -20.3484767670004 0 0
108.156448399298 -14.3094184685883 -7.99968511737451 0 0
-69.523507199855 21.5724740855853 0.36586156803231 0 0
178.683818968593 15.3838526368339 14.8996894085275 0 0
-208.968423366067 1.5120994150617 10.2346598663965 0 0
-130.388581771152 -1.91857565299505 8.51709696783264 0 0
-164.341372453641 -5.02128763077275 -11.5387255008373 0 0
206.867283116532 -41.8406387016768 4.97064911081851 0 0
229.248063147262 13.7319037159719 14.9334513975862 0 0
-212.541600631854 -17.312268115326 14.8228726288707 0 0
-160.341415254892 -4.46438677501065 -9.48023270596564 0 0
168.345579121689 10.6373872131561 11.0616725653915 0 0
52.1588704638395 -4.10666119401707 -0.368819525288441 0 0
236.358563802544 -18.9967452545679 19.7121450564091 0 0
210.74572871814 -15.7639923775885 25.5492351482509 0 0
223.558708717553 -39.5953964109361 30.4361714020415 0 0
136.939514035787 9.96612518338402 8.19795174753529 0 0
-173.549921613933 -7.23181918104227 24.9158961601197 0 0
206.161623318846 18.905299382771 34.1673933903056 0 0
193.796697301893 3.54291728666822 14.4200814930752 0 0
104.609583613613 -14.1137471106481 -12.3050893155871 0 0
209.913752049598 25.6871183905136 35.0352515332586 0 0
194.252459902403 -26.9415986362757 -7.72220370278527 0 0
-95.1686577178395 3.15569050503527 7.62484998674826 0 0
192.574229688008 22.2604257194332 -15.9238669636604 0 0
-221.121489388485 21.0280812804548 19.8134137655585 0 0
69.6771316001386 3.1643740191828 5.1968438787482 0 0
145.947873568024 -18.1331538625211 -5.35739427427824 0 0
-127.478336609528 24.1991006618279 -7.3190047131194 0 0
188.175055592822 10.8723330715265 -21.0988030262367 0 0
148.872931189122 -10.6670729676258 -17.7394610728112 0 0
-215.850430876802 12.4071098393282 9.49679857609763 0 0
-29.869537264712 14.2326599666947 -22.7816686489223 0 0
-154.666653692246 -9.91447072778692 12.3445018353118 0 0
63.0322064533476 13.6188684720333 -19.9010605423928 0 0
155.332217791225 3.9312380698249 8.10385982895875 0 0
-69.0425388577525 23.7470029807997 -4.11496035549805 0 0
-223.541399804265 -5.42269777982112 -3.79329609060187 0 0
-11.2279001358714 -1.89617246907176 -20.2472270450466 0 0
-210.50063607308 -45.5198468931207 -9.89697608911211 0 0
-122.765973233229 12.791298451892 -14.7017861943412 0 0
88.2925187498727 -11.8378499511385 -15.8739431208811 0 0
-151.872890354581 -7.94837271959323 12.7402280055902 0 0
184.317486739103 23.2029766839253 12.1776922801351 0 0
-96.8186284166636 -3.34516406861712 -11.1142597562746 0 0
197.908493880926 20.9661013444414 -22.8239118948986 0 0
223.01921226527 13.5241020787016 -20.0849735288164 0 0
-229.515677233954 -43.7587956015418 -11.6659070779909 0 0
-152.883340128704 -2.52704369413847 -9.14409981395963 0 0
207.587771829495 6.97678936715372 28.1979839065484 0 0
230.895303631857 25.0812173450479 -0.139672361140904 0 0
218.7851289068 -39.4624878058153 31.5697608176187 0 0
-171.983106428147 -7.25785017214797 25.0135586001282 0 0
-85.6615682122591 5.74437580331818 -18.6911247667694 0 0
-221.657873440565 6.3105917363178 24.9666586631111 0 0
230.888095107367 -15.3389689152969 23.7934085651348 0 0
-112.258853352627 24.492314307634 -9.45148578488941 0 0
-205.375267373079 -23.1853056967407 -22.7884309792586 0 0
185.202000992551 22.8808481444208 -7.62254462136643 0 0
132.644181057966 1.67145742154728 6.6489324839935 0 0
-5.99381359205498 12.5963950896151 -23.5306400376778 0 0
1.53698069172147 -0.515682862157547 1.08512911887723 0 0
-194.183474881005 -24.0706454921457 -1.31536186889607 0 0
196.205731885684 -8.04797786260121 -17.6439101977131 0 0
55.9342036671924 19.1544400770753 -7.80862546890982 0 0
190.913195950073 19.4735491255199 -19.4908807484658 0 0
-22.6019389903172 1.74011222208472 2.66444127153069 0 0
-223.187091754943 8.4865775893746 16.7055164376228 0 0
-32.7481066442165 14.9071631587926 -22.5109589393752 0 0
-145.534050173778 -0.454282189760891 15.2662171607234 0 0
-232.60980786886 -37.6591713001581 5.75962324218249 0 0
-181.136949138692 -9.60032371047222 -8.60191189151346 0 0
-207.307462283899 -43.8720000257074 2.06100641514701 0 0
7.05325093582523 11.5919531321458 -23.6872143620317 0 0
-52.3045005764834 17.96947085436 -20.6446228448246 0 0
182.088110570818 6.13110612560122 12.0098461088591 0 0
-204.800869283284 -21.5873427606488 11.328110909786 0 0
-175.874503830506 26.1125790863541 17.6385733031664 0 0
-159.988566371311 25.0392353139469 9.12116752014398 0 0
-222.542011499269 -8.45696663608634 2.68191729355101 0 0
-69.8126657208869 5.22452820611794 6.83686639448507 0 0
221.572768033815 11.7507578224624 -20.6606695511652 0 0
212.450649628592 -16.4036149361292 23.4374751547667 0 0
-132.276559914933 21.9586148602126 -9.17980570972799 0 0
138.410288734697 -16.9673066444268 -4.28242794654038 0 0
196.003795038923 24.9650385338165 21.9861468042096 0 0
-218.981798216417 -3.70266302819024 0.646596841051101 0 0
138.398289283101 6.42840353141751 8.39217036046857 0 0
-109.692289901651 -4.64043397070249 -4.84523921153812 0 0
-216.994062116891 19.8529090777214 -2.83481020744867 0 0
-215.828971825993 12.3779148088715 3.31544085389308 0 0
-222.832487702532 -5.96880823147349 -2.75364470204097 0 0
221.046193107972 -40.0743934342049 28.2009663782519 0 0
119.427470014603 14.4821176132758 4.54981812633727 0 0
-205.770958068371 -27.9341928520273 -23.1621514554496 0 0
162.233344497149 19.8958404964891 -5.93147697652834 0 0
221.968530177313 17.8691922577198 -21.8757944387478 0 0
-23.7683329461584 7.10250370409207 -24.2142340165497 0 0
206.335961444018 23.5487747350603 34.2909976905185 0 0
-40.5564616752587 -2.97437294544753 -15.6905941384544 0 0
198.174458564544 27.8728637901938 -6.44354656189892 0 0
72.0300082204801 11.5579992727929 -21.0466091693986 0 0
204.884393747362 -6.2998854220164 16.9405983352159 0 0
10.9895744090462 19.8843987102931 -5.40524352778862 0 0
206.906895225116 34.3979935249768 2.49368996037396 0 0
-50.1002209235806 20.8305943684084 -1.10759267087812 0 0
228.033053253408 -37.4483616439032 31.6202809088118 0 0
192.64603519875 19.1254124858419 -20.8745873906399 0 0
-14.1358407612929 14.4969688579163 1.2159007719335 0 0
-212.837064252177 -46.8252871801034 0.359045337588402 0 0
36.8301581923262 19.13528253432 -5.46939690547016 0 0
191.781566828126 17.3621348201686 -21.49872600973 0 0
155.950025525765 -6.2665819371871 5.63482190396815 0 0
-193.199007067036 34.4466956495297 11.745052575894 0 0
-59.0138250835372 20.7511711996336 0.223969120616596 0 0
-216.722248725925 -15.0946497350026 13.5275266367075 0 0
-185.432405704457 -3.44419503966885 20.4183905055868 0 0
-101.041633448798 -0.899372383202941 3.97375180957355 0 0
-168.673622386493 6.6081278327646 24.9977876817527 0 0
159.297789711425 16.1713037017844 -16.0686433096604 0 0
-236.534118203242 -17.5132368387577 5.46564387385743 0 0
147.541514724988 -7.1879073749901 4.7223672968394 0 0
-194.740623997088 5.08134946739088 -12.1917043251944 0 0
-171.905845598499 3.38865764933107 25.9944271124883 0 0
-123.918663139714 15.5074696499603 -13.733061951141 0 0
-208.903600224888 -37.6421962200254 12.3188883398715 0 0
-234.806523543619 -22.41674687584 9.94418465902891 0 0
208.741359770031 -15.60341914785 -18.9320487373329 0 0
-59.3888895091645 -4.28884998713034 -9.40115876605196 0 0
237.346646777909 -30.6430310660392 23.7091223775723 0 0
-160.005401593142 12.711042774796 22.1904824714878 0 0
201.267664206556 -39.4508337022155 8.85786454549388 0 0
180.259472755962 -7.01213808370649 -17.8461798501242 0 0
217.564133927175 31.6673154772682 31.6244932594103 0 0
158.048790000681 -10.8724206081294 4.61007834226322 0 0
101.419742998808 11.3114886198414 -19.8793520974527 0 0
-215.460005979325 -47.9773801086759 -4.35220617284993 0 0
53.6830676573398 8.85996235045053 -23.0780552414821 0 0
-215.376713485012 -20.5928530425555 17.6241629013935 0 0
-90.3521399476829 12.8883653907628 8.87526574926375 0 0
