"x" "y" "z" "f" "a"
121.699890599051 8.73859339137794 5.92508790931034 0 0
102.18047715996 -11.4872020245381 -24.2097748654179 0 0
-117.776097383039 -16.2780620034838 -10.826675983005 0 0
68.6720330181776 -14.0696500174366 -21.447266999737 0 0
-119.298032454852 -1.81124171573517 12.6813062807047 0 0
-132.281049977653 4.51296155024351 14.2639502179291 0 0
-39.9986214981076 6.69788162415016 -2.75248317309697 0 0
-219.478463292258 23.4525745822554 -18.237772762012 0 0
-125.416681181581 -24.1132174137316 2.73275968634517 0 0
147.8047701486 19.1891925655571 15.3567779256481 0 0
153.175255377297 27.133356814431 29.3085285084329 0 0
-200.608923125589 -18.8433173725923 27.0991541543505 0 0
138.251410915714 7.65883496658075 10.5736958561594 0 0
182.506770281872 8.26560019382155 9.73746510669974 0 0
-11.9273914260678 -12.0308857451702 -22.649148452983 0 0
156.43715595393 -28.1557107611857 32.0431517206213 0 0
165.68797998239 8.79540433314108 17.9832364804245 0 0
75.0947397609977 -17.9687511633535 -3.62359868794527 0 0
-50.1226559882128 5.03977191209134 -19.0440689979829 0 0
-45.8451996075572 3.03469041931614 -21.2911616073012 0 0
-82.0866079374582 -17.2745809400651 9.04188910728241 0 0
158.191403741376 -34.5053059207127 30.7455376665393 0 0
185.239959097005 -12.5569190984526 -8.2797582638902 0 0
-223.930478369056 28.6197936422799 8.94530835343255 0 0
-138.050933576609 -17.531435925351 -8.90975233585874 0 0
126.357016735105 -8.18377029615695 8.15368455510161 0 0
36.7870063246031 -3.04864869110053 -25.4194931887284 0 0
170.606635912488 -11.9260741319243 -27.0939159210465 0 0
38.7665358294457 3.22679057534548 0.791260388195523 0 0
161.765335841881 38.5645371214269 26.6596070087056 0 0
139.141938027898 -26.2189128245867 -3.37660283355994 0 0
-208.041806871414 18.5983269333671 -23.4914500952645 0 0
-164.671613873645 -31.9674180375592 -2.30547518625674 0 0
-60.1548963970026 6.79498524003595 -3.02742121152215 0 0
-190.573273127712 -25.2248318802928 -8.16881716619208 0 0
-84.4130738936259 6.26455615486 -1.32698628418385 0 0
-111.165345702461 -16.3719470887558 -11.3500870183723 0 0
133.31041146593 11.6101984122669 11.5075190091232 0 0
-109.281601907758 -20.2281058165125 -8.091564087297 0 0
-56.4827207216184 -12.0619169807994 -20.9515601097503 0 0
-73.9960811445789 -1.03156662436795 -20.5320704934756 0 0
-182.759038598711 -21.8736183067446 26.8831527840519 0 0
62.6351068986546 -6.55161306536388 5.3609699175403 0 0
-110.383828624314 7.24132413467992 0.0795628188289062 0 0
-202.815855842785 47.2042148545326 3.61107383554474 0 0
-176.147439111186 -37.2455154917957 10.2610785083741 0 0
-26.8285025707455 -14.1919859573846 -20.2143720745573 0 0
22.7135053655406 -17.1332786219585 -14.0722535235033 0 0
49.3862527191333 -14.4468260507351 -2.06601812140579 0 0
107.307775582892 18.5719699464821 -8.35168480400479 0 0
-205.229548283081 -26.1391747091325 8.261441225584 0 0
18.2132895816127 4.27912470410125 -23.2602970945872 0 0
-91.8041484694995 -7.31429671272389 10.3557984828748 0 0
-109.409436626527 -21.5313214055064 8.7655755891851 0 0
-203.620619883493 -26.4264214067347 6.50974331501631 0 0
126.82535926609 22.1226052836939 -6.13350019343082 0 0
-222.466925556034 29.8010433456852 11.0103345671555 0 0
-103.985114380345 6.68096064763936 0.722425104593412 0 0
-198.093536220359 22.8953901132307 20.9157327040212 0 0
80.6048768527812 15.1851696212234 -9.03803832382363 0 0
-159.254039018413 12.5954275673898 18.7862846377002 0 0
-42.3856891989883 -17.9156485779941 -12.3584608312139 0 0
184.605705615047 4.35077124356883 -5.55054106235089 0 0
90.8355975882623 6.99706054316229 0.7440945197402 0 0
-77.7329703421476 -18.3580601067157 -10.1883968703019 0 0
11.920145822114 8.06159438015681 -20.7912060018633 0 0
-12.8239949830511 -7.81888246859633 -24.3486911251901 0 0
-166.854606665684 -15.723350175786 -10.5125500032592 0 0
158.886746241199 42.3771576715033 9.7597944392892 0 0
59.4419324727873 7.59668666879695 -2.55173977205148 0 0
-104.562816006848 -6.26145468525952 11.6708969465783 0 0
-216.214777426993 18.4595791055172 -19.7396849028958 0 0
-214.287694143528 12.9057134149458 13.2620192509402 0 0
-68.4251024813415 -18.8724540392759 3.44932741750754 0 0
150.799675024907 -12.0090960372195 17.0083378618403 0 0
80.2965905841298 -3.21146303860597 4.37935967514905 0 0
54.4978771629924 4.91350379742565 -0.52513812208713 0 0
168.338711798979 -33.6127734989485 33.808366317533 0 0
133.276229339645 -21.1326873624019 7.57622470389946 0 0
177.491594385557 28.0021487009431 -10.8302137071153 0 0
-26.5648028773267 9.41928244689958 -9.16484790451831 0 0
108.092723981944 9.97177881617417 2.16446159030729 0 0
162.646558379623 -35.0315894553166 32.6415115696781 0 0
-81.223955224924 -13.7821859988813 -16.5254466363834 0 0
-137.097799341497 -23.9786083952567 -3.08047906977976 0 0
-189.355853155211 41.8765167184323 9.89109675248134 0 0
-169.257765528106 -20.1155765783968 -9.47308938518813 0 0
88.3499053700654 -19.5873932398573 -12.3857451136416 0 0
-204.286755406091 9.06079785157667 -19.5093720579532 0 0
171.320645007343 40.5962503979872 10.8162612079057 0 0
-184.658311312094 -7.45828093900434 21.2162657381653 0 0
84.4588461451206 15.0043691593469 -7.22667244827572 0 0
-208.255427500499 10.830198958291 -19.6448827415814 0 0
-126.518639034744 7.76709475318239 -4.83841515657407 0 0
155.060040647084 1.870589311391 -21.9465301605418 0 0
-215.189656974854 36.9774884537408 15.6658180756534 0 0
184.385403307456 2.83587947704123 2.82465295135788 0 0
-198.189638488149 7.53451384141181 10.5121978262547 0 0
168.630287701337 -27.2424571714208 34.4692129065981 0 0
66.3020681738627 -17.7150413116191 -4.42644907700792 0 0
163.991841921664 11.8714427970254 24.3858226057432 0 0
149.279694474039 -25.7671284648788 -17.2209978014042 0 0
163.077423310245 11.3105550391945 32.8278899076409 0 0
74.6321199536374 -19.3053548785509 -8.81221999526007 0 0
188.818080817835 27.4955321117463 -5.50245184069932 0 0
161.662606403751 11.9036051203923 27.272712274508 0 0
-34.6342846736299 -4.86690282983223 6.26215683352978 0 0
-18.2191701884764 6.55386779438918 -2.23395809531903 0 0
166.819824173026 -11.78825280981 20.808293756072 0 0
89.8464770163105 -1.95056195529178 4.25986185888347 0 0
-24.7206308310621 -13.269213380723 -21.2972313145573 0 0
130.471925771079 -22.6884559289229 2.18627083829825 0 0
-199.37629249663 -14.7436424839164 3.63184531151631 0 0
176.227462051385 -32.6648092565968 -4.57464201100539 0 0
-220.796267416516 29.6835520944527 13.2345009750259 0 0
-169.800385049528 -37.1274784907531 6.4082900524733 0 0
184.488668926832 8.69817603637926 10.9120856310157 0 0
-119.115769726769 -22.1936594460179 -5.41291724250985 0 0
125.879517935089 14.5045839430006 -19.3716443266062 0 0
186.505128453899 -14.4368794554983 7.55761764581547 0 0
-95.2848238892348 -15.1996970526917 11.5774276993791 0 0
151.099763253084 -3.97702361811219 14.2138315427223 0 0
138.352768629108 22.5634464257903 10.4614906038934 0 0
-39.4079056696696 -5.55277552063572 -23.8259001235073 0 0
134.119542709515 20.2674447813224 8.97518920395757 0 0
174.040872062706 -34.331869920557 -2.97145998045272 0 0
-215.823306097078 12.0529351399694 11.5301416553219 0 0
-143.631160403594 -25.6621859493507 2.51717018487996 0 0
171.88778472249 8.20270557810916 -22.2118680293745 0 0
-131.850164533729 7.36257096958783 -7.06675433835261 0 0
154.173709374191 30.2642487050701 22.8043100942585 0 0
94.9884850816172 -15.9237020745137 -20.3538681218093 0 0
-198.098462149101 32.4335195174927 20.6744599489361 0 0
57.1344668622112 -1.71333385062907 -25.6806186849463 0 0
-101.465182753586 -4.83546729006137 -17.6978621521645 0 0
-28.1557444414972 -8.38689559791746 5.22508904516342 0 0
-129.087193233782 1.96347851757197 -12.229552169996 0 0
170.921979199502 -38.2032761344683 2.3342697664725 0 0
-45.8780983988132 7.92851362067216 -14.925984561889 0 0
-188.300967702056 23.7641166185383 10.1157789205323 0 0
-114.721842346727 -19.114551418457 -8.94786304695007 0 0
159.934481654371 11.567653658099 28.6568329085172 0 0
-139.70307953299 -19.4523536927345 -7.81738942891741 0 0
182.17195356816 -33.9648581697425 1.38355045185442 0 0
-3.39965278231526 10.3324909020208 -11.7180794176503 0 0
-201.425577767954 -15.7282075337389 -1.07262719214854 0 0
124.972402960047 -22.0867856133715 -1.15316697655227 0 0
-44.427891228612 -2.04378947310359 5.37694760430774 0 0
-209.287000906546 47.6048322786899 -8.98456379248134 0 0
-149.410397197819 1.06719760956358 22.5721596680971 0 0
-226.564658213235 24.2157687713935 -1.42505554843582 0 1
-86.1927730340115 1.36262472360509 -17.8681652359321 0 0
-91.2839470287438 5.55336660334383 1.05503317871678 0 0
161.158212272347 -2.3943158403205 -23.7408178664437 0 0
-213.202515696302 5.74145152810103 -5.95092531809452 0 0
-216.034584742159 6.84736482953724 -2.03733331558158 0 0
-28.0294318830522 -15.4033267969885 -2.55303897339132 0 0
-158.136885666425 -20.8828146897264 21.8582989144295 0 0
184.531322529513 35.6393488994159 14.4281808320332 0 0
-196.651404012802 6.75036065143555 10.4065516552505 0 0
-213.572075539958 7.50990938843877 -0.733652780356042 0 0
-128.834736794094 -6.07825323073865 -13.7956073346376 0 0
-14.4368922015072 3.38982721636378 -23.0281085723976 0 0
156.007310519105 30.9626104526375 -9.74824824129702 0 0
-187.66522261298 -37.3569050576394 6.06752920581301 0 0
129.869365932877 23.0052357304749 -6.035990930678 0 0
146.265837397225 -28.7796558172533 13.3358308756952 0 0
-195.648358007709 -14.792086494868 -13.5455806660698 0 0
138.050138688928 -22.152156033057 -15.995177748161 0 0
123.923809336575 -6.16971934403967 7.4486014383628 0 0
161.380555665662 -5.02092568899239 16.6124832944227 0 0
-113.753267236135 -23.2323577315485 4.26753017422566 0 0
-80.0234434492427 3.7000165916925 2.67084923300584 0 0
5.40979512546921 -15.3498907006371 -5.08413979998094 0 0
-178.735497135646 -31.7892425429328 -5.50137366761328 0 0
143.105806702763 15.4351622012529 12.7989484046018 0 0
4.29651638123012 10.3314698174196 -10.1408934747934 0 0
163.153529710385 38.2847848668462 28.4763401705706 0 0
55.0835029336928 2.24326376577906 -24.7348006915337 0 0
154.724526351554 13.7728436559853 29.0321741267471 0 0
46.6145691400008 -15.7933143719966 -18.953104940865 0 0
173.129377545591 -10.4236923768229 15.995005231387 0 0
170.967908683323 -2.96653739642679 8.34810298259535 0 0
-45.8284980726238 -18.2714782399364 -7.78258913373481 0 0
158.170361589383 9.05691712176135 -22.3253289238918 0 0
-97.4082815203761 -8.01081386441473 11.2183502946929 0 0
-130.565500319756 6.54409225241439 -8.53267274919866 0 0
150.851935605315 37.4759991457043 6.10203893903889 0 0
-162.708506355125 -22.5164163094092 -7.98093512898588 0 0
106.99165798109 7.57416506789614 2.88263894597153 0 0
170.90189163807 10.740233417013 16.4537887988992 0 0
20.3528547623307 9.12925910698492 -6.22967502921967 0 0
-66.9300578328086 7.61890707540354 -11.4078328674722 0 0
80.9470294562858 9.8283360627296 -21.2465338566933 0 0
159.434592503074 -36.1086788876079 -1.86222774749441 0 0
61.1974794686758 9.83141268365177 -20.3815526326084 0 0
-187.775322572324 34.8270812028896 7.7113739597355 0 0
-185.669588675399 -12.9741947466827 13.9229453237526 0 0
174.088027437859 -9.51416270469385 12.8820592762778 0 0
-77.4393218008508 -12.4485267148465 -18.2716367788873 0 0
172.414380148345 -22.5173881232891 33.2053651280869 0 0
-171.718314125859 17.6694535168116 7.91756065171134 0 0
-78.3081876576507 -19.490773800651 -7.74976034850138 0 0
-52.954835519776 2.56942584197219 -20.9605489002975 0 0
45.3278546337072 3.75519028059231 -23.9301663054402 0 0
-25.8736004395434 -8.4703979545568 5.00418468363609 0 0
-209.942029556451 45.0227099923065 -3.17397566174441 0 0
90.7353516518146 1.10655782072003 3.44027194195085 0 0
156.142915408878 -5.54024802967029 -24.2437303945615 0 0
154.584300539917 4.39882081118862 16.8254038577751 0 0
157.411804763473 35.1336217489492 26.5127596197872 0 0
-71.367690537928 -19.3090673295599 3.85909708055616 0 0
59.9081776984757 8.34023281975279 -21.6558821960536 0 0
-46.1541171197812 6.96482323089399 -16.9635216607917 0 0
-3.11353002133372 3.36943772962112 1.98722116805063 0 0
-67.0181830343964 2.82172231303055 2.65049955308636 0 0
177.46281740028 12.3123691721055 23.9279180063885 0 0
-128.033105877699 -14.6767976397867 -10.9385285519382 0 0
40.0482954431217 1.22210543653619 2.68317888761477 0 0
-192.910600380838 47.0617161465417 -1.16153352677247 0 0
-194.16885559816 -11.5724471305771 25.0336117848907 0 0
-185.890761824198 -11.7492651538571 10.3126204358618 0 0
21.0846304882609 -7.45724221654332 3.31022092424191 0 0
163.702662126748 -13.0393768498632 26.5384290512071 0 0
174.304375858423 -38.44579995666 6.70125052898777 0 0
-56.501035536573 -9.56708771881368 -22.2327107238417 0 0
32.9128149679724 1.4558851800464 -24.5371231239088 0 0
63.2308242722098 -10.2028737563395 2.71780412154043 0 0
-79.168694883757 -12.6725735517336 10.2308873214789 0 0
-196.434371308372 -10.4697726599551 2.52710232806618 0 0
-210.682275855778 19.8745183311699 19.5889295856525 0 0
38.4321343862844 -9.71043792529418 -24.3676802891993 0 0
161.3607606216 -20.0609540925543 32.8607135071079 0 0
-150.001316589994 11.5253372275048 -0.560244754396273 0 0
-54.7496713864485 2.71586112005513 -20.6973616645589 0 0
-3.16896554626849 8.6373829563197 -5.6408588217566 0 0
184.148650560141 35.6931874780879 10.9145132421605 0 0
5.1362219564796 4.19830205380929 1.04943074779912 0 0
5.29251198969876 -4.43933336101605 -24.834404946514 0 0
-0.963548634203618 -5.49235238890948 5.22762893566312 0 0
-140.364026261401 5.9656380324664 -10.6113089646401 0 0
43.9839988443613 12.632840909277 -14.5275258559927 0 0
163.662103646969 40.4024349984588 19.2653824209844 0 0
-43.9563827870729 -15.8119915946462 -0.201525594457863 0 0
149.383939839391 -2.34254083406338 13.3163125720176 0 0
-18.5001947289422 -14.6241490774789 -19.7164979407376 0 0
101.942439125888 10.4218577889384 0.807783362013128 0 0
184.900194659632 -10.4762641121456 7.23086787174365 0 0
165.313634483554 27.0333924218233 -15.5622353415981 0 0
-24.9694127214611 5.63557424885153 -21.0573693096467 0 0
191.513670045938 34.2995003381124 12.7075869855121 0 0
181.604015237512 -7.88206731618633 8.47700880473525 0 0
60.9508742306451 5.93114048699343 -23.2675069827473 0 0
191.150609343651 15.699402484488 7.11630027655003 0 0
-213.138124598574 10.6356112660303 -16.761650578584 0 0
-148.464428110697 -26.5098653566934 -0.384404607980176 0 0
88.9479384889217 -20.121042926193 -7.6812578779632 0 0
-175.533000574533 -4.30437305718042 23.0336279732477 0 0
-141.43784736947 1.58746486864224 -11.9960920026194 0 0
-146.442807495028 -22.0809124649222 16.0803856387156 0 0
-173.994990745903 -24.4418548523824 25.7075061912852 0 0
-200.630752776512 -0.919902284806302 -1.68356385610054 0 0
125.791856099398 16.4976774373769 5.29771150644454 0 0
19.1293318640142 2.0226712266833 -24.11966797547 0 0
-96.104844245096 -19.0125856241285 9.55561167716589 0 0
144.383344138005 4.1204506848332 11.3513063964431 0 0
139.978897484996 -10.3655787800564 11.4064039005252 0 0
-170.018308398134 0.166830381279346 18.0415742537164 0 0
-1.15455309580098 10.1862772202574 -10.1948606773546 0 0
-155.506134063303 15.7832234169257 7.24974563509014 0 0
176.368361672449 -27.6203897916671 -16.3489787866909 0 0
-147.646239197804 12.8454282375223 24.1215355773913 0 0
-185.227106477785 36.797871750283 -5.37026577027546 0 0
-193.393090457635 11.4215384747451 -19.9402960512246 0 0
18.8182937253934 8.20910977559622 -4.79317638849854 0 0
89.7253027317749 -0.222905732260304 3.73751014162318 0 0
180.197600513373 32.8315503229524 -2.75899601492424 0 0
-48.0684482211903 8.40177036514253 -6.62712028831029 0 0
183.325943191066 -22.8307542671157 24.2947883691058 0 0
-147.987879731099 11.0520790452673 -2.78102459382765 0 0
-60.7177475068234 7.66762994251924 -5.15486831933982 0 0
141.869503508368 2.2786166151602 -22.4438383160863 0 0
-203.887742785984 -14.7334779243032 10.09570930758 0 0
-45.159305754592 8.71325556901938 -7.77518978861251 0 0
187.870393538891 11.0294359651368 13.0326630732008 0 0
-73.2688346722201 7.2215701478951 -10.9889421632735 0 0
129.104801437446 5.2914478845752 -23.4836367874346 0 0
50.5437887042282 12.9615656934236 -14.8060412475404 0 0
30.3834395836151 2.18466886017893 -24.294022641992 0 0
-218.808707148788 39.396070184646 -13.388741916662 0 0
163.095863052548 24.6341046778665 -18.5266901060272 0 0
-92.5507919679759 -14.8160565641976 -14.3694142694208 0 0
152.397088395424 39.3859718503204 7.68104395407727 0 0
180.850872945609 -7.772114503137 -13.7454164187079 0 0
73.369382036304 3.44285228407414 1.24645275609852 0 0
-222.165674214593 40.789985573787 -2.02799392800009 0 0
-40.4931914707716 8.1651823752645 -15.4657993265075 0 0
-209.877806215177 44.4008399461253 0.378914610304199 0 0
-85.662527397878 -13.1987643677903 11.0294935752037 0 0
-199.251323561248 -12.9724771173841 0.769494400893457 0 0
48.8198491074059 0.391439116347555 -25.0943658770913 0 0
-30.0034734057431 9.07092848029669 -7.73087748176771 0 0
-193.290755664229 -13.9472821144472 15.026482931122 0 0
167.622394697357 -39.3324524403015 4.72753574813425 0 0
143.538382034856 -18.4048053301499 -23.302516594011 0 0
-207.523098622382 -14.9440412094003 12.910315950447 0 0
-11.100035453384 -1.49213245077095 5.49928717293455 0 0
-123.256445467542 -7.95147911796112 15.1495565428847 0 0
-197.239895878933 25.4538051561427 20.9046133353763 0 0
171.460211011296 13.1751708899428 25.6596559376537 0 0
-70.0412400284044 7.6904441040431 -6.54277722548675 0 0
56.9434877403783 0.898136780517331 -25.097537953123 0 0
-122.146785253818 -1.46015487275395 -14.3471673615716 0 0
-164.110324433356 -5.51618934504927 25.2194862328057 0 0
-88.8252723530299 6.34604865779201 -10.1685157174004 0 0
62.1011935201463 -12.599150935641 0.630350465389667 0 0
-97.0881634706739 -6.32425264157976 -18.1133243598722 0 0
149.431541520079 -0.617829993086115 12.7063742949531 0 0
-138.707330460635 10.3676920323724 11.5095314548365 0 0
-28.1859833712629 9.47881268423926 -10.3378996472702 0 0
39.3187117482448 -17.2871874031626 -7.83084973961679 0 0
184.65775095767 15.2205887279565 27.8592115939542 0 0
-202.370817635025 34.9139356591682 -23.4581136769957 0 0
-155.440789569505 -6.25142932566955 -11.4711712828458 0 0
-200.058314576167 -6.00955792670594 -1.0769452644818 0 0
168.752870285372 35.2180637824304 -4.29432123290811 0 0
174.930171184301 36.649890722547 3.69184009675051 0 0
97.6317170316914 -14.2808695583593 -22.1941203215278 0 0
118.908168144168 8.48162555925822 5.37601530818253 0 0
-180.882749619781 -1.94022038722733 14.9779352838411 0 0
-215.275926083202 16.0757511315904 -19.2995218790195 0 0
76.1331139984136 -12.9194414617782 -22.8819021868735 0 0
-5.8511140045028 2.79126017025433 2.55833543923605 0 0
143.37577143857 2.48255025453232 -20.7149039229349 0 0
-57.6366843636547 2.6937132182999 2.20571912255837 0 0
-72.6361653243808 -20.6335191012805 -0.99173048045624 0 0
177.219742928688 12.1941706234544 18.870027690314 0 0
-167.892821464975 -0.136820824679576 -13.5393269801003 0 0
183.490844721671 -1.2890701606727 -0.822536476195792 0 0
-202.71838960969 -9.00719182266414 20.5073863149771 0 0
-178.208844657243 24.1010798074801 0.161769308416839 0 0
-96.7565599125943 -11.7442010274867 12.0748066227213 0 0
184.905799172299 -9.23787795851104 -0.757436712758734 0 0
-54.9870645952061 8.44981871355182 -10.7818885397744 0 0
-14.1828638640759 -15.0547450004148 -19.1450592125133 0 0
134.644132480713 -15.7110542390565 10.884966919115 0 0
32.9245245264308 12.1101734719736 -14.3523672344313 0 0
-42.3509383518102 -8.98345813948857 -23.3129024571365 0 0
-205.639705604521 45.5920801875472 -14.4888268378253 0 0
160.867450970473 -13.7366987288464 -28.4741060489107 0 0
-216.798869962363 38.1541110736265 13.7062479154418 0 0
185.100287917222 -27.2236807651957 -5.14573644109584 0 0
173.729656875281 12.5390543173036 -23.3760789054859 0 0
174.601944913429 -32.085329080079 -6.16482772264364 0 0
162.999011269971 41.2392926480103 13.1433770324211 0 0
175.301688838591 38.1877550550122 16.8182321535926 0 0
-221.742188539506 41.3328953393892 0.313784616858029 0 0
169.001032365982 -14.5614847881722 -28.8164484059072 0 0
-58.0774219249684 -19.1116765380172 -4.9976392976115 0 0
188.519645961856 13.9618099340384 18.3662479904328 0 0
20.1847352577331 -2.87812493054815 -25.0657559157215 0 0
-7.51196121012637 -9.93645840752023 1.96503634382715 0 0
125.790698295302 0.408947808681974 7.04046247718218 0 0
-205.407537806512 24.017379176228 -24.9253680758507 0 0
-204.737330596062 -8.17170341771599 21.499471350987 0 0
76.4964854687192 13.847779377124 -7.3317792667321 0 0
184.129073960956 9.91057290310502 -11.7879413672599 0 0
122.560116052875 14.3929731574051 -19.343770384507 0 0
178.36408778284 0.418461786387231 -13.9975492129707 0 0
-137.250549322663 -20.9677778512332 -6.65971953793929 0 0
28.6958178057746 7.00259820517659 -21.8763184086204 0 0
5.52065181165054 -1.67389013643628 -24.6732814300878 0 0
146.792926555917 28.925706272755 -7.66511588754983 0 0
127.395904686277 -4.10890287001815 7.7023057647954 0 0
-226.137817644477 27.7820623437898 -6.54293426630298 0 0
130.5016818343 13.8609868130473 9.13538112738347 0 0
178.817489616585 35.920872539002 35.41507415081 0 0
98.7469901567623 -16.4162426447047 -19.9931555576455 0 0
-12.8015756239734 4.04526924718778 0.905324425166216 0 0
161.669652156994 11.7608530969627 23.1543376911145 0 0
-175.501047643099 -4.22416208618638 20.574575955504 0 0
-193.334454120113 -2.29225905356242 -15.9019718055785 0 0
-23.9463732531068 -17.4646104570274 -8.92935315036234 0 0
-204.245456147187 -19.4632071577177 -1.9865506212251 0 0
93.4419224235452 -0.147663785729051 -25.4764879945553 0 0
148.798909966143 -15.7922585560101 -26.4194467408489 0 0
-89.06179080332 -15.9683874292637 10.6588491891557 0 0
-199.614071907896 -22.4931920961791 24.6950822837008 0 0
14.0738230598107 9.49974575842443 -7.09316615499045 0 0
-140.360370140901 -16.5856258652851 19.2636106684547 0 0
119.218623036713 13.5759669569839 3.99735224398226 0 0
97.7967870265875 11.7497180998995 -0.70294310741399 0 0
136.382035435466 -8.88902362691881 -24.7591781324802 0 0
91.9536163654679 7.96089639173628 -22.7161618155301 0 0
144.867559198281 -11.8524925165696 13.5446803224931 0 0
43.3503435656864 -17.625259986356 -8.69109388435325 0 0
182.628133307163 -11.3305263359749 16.8918550971102 0 0
-163.782361202648 -32.0724156920754 6.4949303884488 0 0
185.394787278435 35.3807889139318 12.4205285560137 0 0
-130.693766160839 -23.6599012519526 6.3314083490397 0 0
-109.835500969706 2.29459848998979 8.75087945087623 0 0
124.279480691772 11.3586448014722 -21.343965584699 0 0
187.864468968698 -27.8187895451079 15.3175687772593 0 0
-81.9410439748794 -8.62279675905594 9.72957995635066 0 0
184.423215987598 34.9511151126542 5.65318369181195 0 0
163.188779451853 12.0095726263526 26.2248314301216 0 0
-87.3245486317593 -20.5375027224962 7.04472694305398 0 0
64.0239650566675 -8.21069376211444 4.48786995302748 0 0
-28.2794716489739 9.07534365876336 -15.1050484690809 0 0
-126.051842542264 -14.1103055341235 17.9725104207643 0 0
-170.628152737929 -21.2184142314291 26.6421922946042 0 0
-215.470883193663 27.1787484512154 -21.554320356353 0 0
-145.795206712467 8.9063756304346 -9.25673893812951 0 0
-164.382695710479 16.7208470814745 2.5608365739744 0 0
-185.33800315199 -12.1517027243293 12.1716283529648 0 0
122.759850063794 -17.5036092122208 -20.3846109953013 0 0
-143.100297978884 9.87296543500115 0.384627496044087 0 0
181.996810030185 11.0763744098124 24.3828681626199 0 0
-54.0767227743391 0.742799759221926 3.87858927024778 0 0
130.707624669235 -19.5186154168885 -18.3316795419366 0 0
183.589584915707 37.6735312049652 23.6889687405931 0 0
-19.5173828182148 -16.0517609591957 -4.88082854900994 0 0
-182.29878778014 -39.3899378810401 3.91654633114491 0 0
-205.692763631696 -25.5087577820918 6.43333367367561 0 0
184.18744454735 -12.7314316042863 15.1752932786167 0 0
-39.1928420650896 0.818888107241645 3.24048842465728 0 0
170.326524994613 41.2112583471805 7.45397579776121 0 0
-142.14299365535 -25.2143206720909 4.58087543864994 0 0
169.664329415117 29.2893939903145 -12.1697767122554 0 0
-145.767535258237 -4.08642109514188 20.3507966828929 0 0
160.194876958516 -26.8358171114248 -19.9067356260612 0 0
182.892894811177 11.8796914462956 25.9368918760076 0 0
-162.130153236155 13.6181007479812 -5.41101534123745 0 0
-157.051346178505 10.0318183124062 21.8201608505814 0 0
-191.415483681415 -19.4806994169713 -10.351780068683 0 0
15.2949029816136 11.2541808970905 -14.0768448031593 0 0
124.393556325614 17.2149198546244 3.3347453164486 0 0
177.381257656071 37.7010648729803 9.15276639300999 0 0
137.718142905788 -20.9467778946276 -18.0242603671041 0 0
117.951357343028 -2.84955113056286 -25.2690839671271 0 0
140.953282407821 11.73271921877 12.9720989358101 0 0
70.3804281000099 6.65051707136799 -23.0780017751247 0 0
-165.007227305105 17.4768585278342 5.23139565861877 0 0
-84.8774163709301 1.11906834510965 6.15417386341773 0 0
186.028536887029 15.5425461966938 -11.0270686866244 0 0
128.61326785517 15.3117973790137 -18.7837550650885 0 0
107.415146529986 18.021098507639 -5.93718746539088 0 0
-202.314550094151 24.9073391916877 -24.9810124596461 0 0
188.274459788572 -18.4725581062372 -1.07876220207061 0 0
-203.175061500975 -13.4481393883114 11.885634096048 0 0
10.5391177305214 -3.81243217466889 -24.9183172240715 0 0
-41.9488834456692 -18.1517667591023 -8.67583627193718 0 0
-197.977367979801 41.0360846418985 -18.9762370537258 0 0
-115.779408638851 -17.5878714323803 -10.0405808002704 0 0
159.074649302826 -17.4256354499241 -29.7578862753117 0 0
170.619425341652 -25.5778132720369 -22.8235485367069 0 0
109.898875323913 16.064139633258 -1.96910242248933 0 0
115.150534847299 2.61420502481036 5.44075136106409 0 0
182.041709927177 -30.0098835653796 27.6898886808422 0 0
-213.804998113978 27.6615067011032 19.114728030785 0 0
-107.380482897277 -23.0818499172255 4.16674644820715 0 0
-79.7142422322742 5.58379415992273 -0.192053470055273 0 0
-150.46816023306 4.61060986945612 -11.8130589033686 0 0
-30.7376161457174 4.7150040433087 -21.3583396864589 0 0
125.76990494337 21.6908641851274 -3.63430572582135 0 0
-162.187492635536 -4.89215104001741 -12.5343730282865 0 0
-92.2577831705346 -7.71579291383975 -18.5748862955243 0 0
-211.262779229009 22.2466757569037 19.8432771951198 0 0
90.9114633033974 -6.93766488313814 -25.65023118444 0 0
-191.43320067286 46.2459675773826 -3.49079017196803 0 0
-158.029897997566 13.4376403130776 -0.783183065351712 0 0
-220.056636684783 42.8799047218941 2.21928942595061 0 0
110.335367742792 18.64391128606 -6.23367167985429 0 0
169.973499762115 39.0676219116046 19.3330954517959 0 0
191.265694693562 32.5201313146469 4.74046491684971 0 0
184.283043809728 -36.469351410122 23.1666340459152 0 0
-205.963028182155 44.0606766272826 14.0768790607082 0 0
179.56263930672 -5.67297474388371 -14.1118962509788 0 0
-119.427701065225 -2.87880152948016 -15.1260458962349 0 0
157.716459957173 -31.8163829912966 -9.80046277905974 0 0
177.208163449685 9.99389982110491 -20.0744188018612 0 0
99.6835360567247 0.0509119911660945 -25.3980079630443 0 0
63.2572513267076 7.730484480945 -2.35949252940993 0 0
-37.1677566641119 -5.67817439273108 6.4269250343476 0 0
-226.557836397264 25.9560177838785 -3.952431224966 0 0
119.054093945962 11.6695065445902 4.87357936896301 0 0
-80.1737474964179 -21.4065989277131 -1.6074104540466 0 0
141.044049718113 -2.96022783458487 -23.2409020501703 0 0
-194.666185318368 -0.871556326023721 6.30952545524291 0 0
4.06247600333584 -17.0754386914751 -12.1610960505892 0 0
-133.381797516025 -4.57454271765969 16.6764481428124 0 0
-199.873125210963 8.66930127771921 10.8756453558033 0 0
-108.821317200241 -18.141921333286 11.233080502785 0 0
-36.3668066962295 -3.48930449828594 5.76683419087987 0 0
56.472096331083 -9.93276363098451 2.42504116997851 0 0
31.1379310061459 -17.0960294792385 -8.44868199056154 0 0
127.967211483357 -12.1629686152353 8.76015034917366 0 0
97.7247567957601 8.43990243036674 -22.5277108098449 0 0
-197.568321719122 -23.8413711922181 25.2307151442225 0 0
170.433922173964 -17.1247050642016 31.6821611979869 0 0
153.126279645437 -25.9193114378713 29.8702406559859 0 0
-96.2427433767033 -17.4300323356492 10.4477902089807 0 0
-218.655946755922 28.7115166485187 15.6442562261559 0 0
189.80991818932 14.6762993866091 14.7486055722906 0 0
135.285605744648 2.81713840016268 8.85067258604121 0 0
-148.656174701652 18.6839612048417 12.1218474581909 0 0
-168.552083879942 -35.3808682921631 0.381036685527831 0 0
78.5314222616912 15.3488561112766 -11.4282277803694 0 0
132.13588207064 -4.11832951425622 -24.4763025211872 0 0
168.206265169908 -18.2244828300387 32.3525344228414 0 0
51.0482779704092 1.07739027685891 2.82032960349975 0 0
153.256972007264 -11.0419987448502 24.597755073851 0 0
-46.545381865251 -1.4624917671184 5.16763556378061 0 0
134.735253791681 11.4888403589386 12.1227814664579 0 0
-72.498594898573 -12.5805259791409 -18.7915677440474 0 0
172.34607600123 -9.20292359571122 -24.5829878428659 0 0
-220.668813008935 15.6403800055014 9.69712451384402 0 0
-174.855228643245 -4.54219893377844 25.001474258031 0 0
74.6899371750983 -15.495034231968 -0.789767850515261 0 0
138.217868051273 25.154891600064 8.16107540455707 0 0
-48.6427289637975 -17.4197251362995 -13.8396386958876 0 0
-174.219980696346 -10.3325589637334 28.3901463592298 0 0
165.450303702054 39.8674042506512 13.837651105885 0 0
166.68772337338 -18.9406597745152 -30.3793936659729 0 0
-223.370248718731 38.9734487338756 -0.21691989714295 0 0
174.257230488722 0.983574413319019 -17.8103745888621 0 0
-85.8075144422765 -19.5985625381599 7.83088045638734 0 0
-174.645625975943 -0.419552607763965 -13.4711076116311 0 0
-77.0498240465908 -12.3733900027441 9.89261165400205 0 0
160.867812982039 -37.3888562931356 20.6214235095191 0 0
182.261917891685 -13.3949732510285 -16.6082950722249 0 0
-76.4789258115174 -20.4592350016312 3.69431547014696 0 0
-173.776755598209 -39.1611011197265 3.60954400250254 0 0
146.0645334418 24.7912244500548 14.5647940944943 0 0
180.704333244385 -40.6729581800374 24.3062203690692 0 0
72.085465867918 1.16003487178989 2.79551609625384 0 0
-20.6795574234029 -1.41296600359408 4.99268883370189 0 0
-85.4075414833991 5.1229026874252 1.11998320218658 0 0
-35.2241852016446 8.54629938153094 -6.19979377057395 0 0
137.219843805526 -18.2842759347464 11.7398554194855 0 0
157.290375028025 3.53117751314936 18.0720578244014 0 0
77.8628786016102 -5.64831601218731 -25.8786950178642 0 0
-147.396232936431 18.7130711809568 14.4577967658169 0 0
47.800834480637 -12.5941848747078 -0.463923498600843 0 0
68.1514451934577 -1.44272717954984 4.10644015990978 0 0
172.749979944368 -0.892588102442316 7.26907944865963 0 0
-104.057172960579 -22.6146899463708 -2.56238069270715 0 0
99.9852749324832 -9.14289568216249 -25.121621697193 0 0
72.8412179499577 0.289824369643766 -25.4125113907313 0 0
-176.123043459416 7.00961668213652 -13.1460497109836 0 0
-111.332094400428 -2.76460279462135 -16.2482225769002 0 0
181.265861522578 -9.61431313011079 15.5400358436003 0 0
140.543377296852 25.7041048056668 -8.1273367677889 0 0
-24.9347345303763 5.80340814347052 -1.32015126198341 0 0
-216.804718454468 44.680354513572 -5.74918633816069 0 0
-85.7627289765112 3.3289269908413 3.76619728374203 0 0
149.299776313583 2.11642437913883 12.3625670478555 0 0
149.969735858273 32.1979635104398 17.7529516551268 0 0
147.929421599926 -33.1625305395781 8.77147419702808 0 0
6.85436491395797 -9.73501273404574 1.11397041352196 0 0
138.265840164959 -12.5058559805761 11.0553248336957 0 0
145.665448961373 -26.2922563445561 14.8815018202831 0 0
167.590762753697 39.4647951599803 2.10941396014378 0 0
-166.154131408722 -4.23614409092241 25.3642048392127 0 0
183.782149602619 -12.0778600923463 -12.400015810976 0 0
-132.949353349838 -8.94355498559889 17.3181293856979 0 0
164.426912008968 -20.7086479478434 33.4288107707254 0 0
-192.756821392241 39.751972471281 15.2848625644877 0 0
-9.2839162320045 -14.0589646305564 -20.7365718315297 0 0
8.29850127490466 -16.845986965421 -15.1336307236202 0 0
160.326805190432 9.93548789952091 21.3689247240419 0 0
-101.779194406261 -2.07257246794737 9.98908922257356 0 0
25.5494821665314 4.70468139024633 -0.312097179306598 0 0
-149.336568373839 11.6282685158608 2.51582898637322 0 0
175.0691348441 4.03663750847706 -18.0684281584796 0 0
145.942368176194 16.1428729654679 14.052337621276 0 0
133.970774395311 9.51354071515815 10.9840608819446 0 0
18.0766270229775 -12.739552632114 -22.2122342571274 0 0
-113.042127914387 -21.5679448981474 9.09191478374955 0 0
42.548152096067 2.76494900215095 1.13601676154152 0 0
-145.505906151094 11.1555661386263 23.4032112407346 0 0
-171.176515117872 -1.92340965005769 19.4670798480942 0 0
-128.614033518596 -10.7499933853003 17.4076897227429 0 0
135.114197818934 -24.7906897802304 0.064605642758989 0 0
119.044732102868 -21.1785936291807 -12.0857889569039 0 0
159.893023406345 -31.5219862270534 -10.9551282297221 0 0
-75.6152839777583 -5.26029224380411 -20.9091626656228 0 0
102.452740529049 17.4721779033433 -6.56745266087419 0 0
-64.6486528194089 7.91666436124469 -6.62553068853534 0 0
182.959820640496 -29.9960203118504 -4.1434734975965 0 0
-174.442894584145 -35.036939036121 14.6670838624388 0 0
79.0741611647961 11.0049350555282 -3.4564992232881 0 0
-212.79151979696 40.8110930918264 14.5953036462643 0 0
169.774468232694 -26.6680878850282 -19.1917693990855 0 0
-203.804861711044 19.9991156123261 21.044908667682 0 0
-136.915743655099 -12.6681681260202 19.0124865903653 0 0
152.583351320361 -1.92335454187581 15.1739654513656 0 0
149.702333439033 -31.342900826628 16.2830003662107 0 0
157.972665668994 36.3694802440306 33.0563534215265 0 0
-151.534319951109 -0.226514976584874 22.8681313049876 0 0
91.5399690632248 -0.397275976404212 -25.5148808496781 0 0
-70.9033022741262 5.79299199521336 -15.3571121310122 0 0
45.1267129736036 -8.26706772586362 3.22008888390085 0 0
103.274678655942 -18.3131012925066 -17.5731084767157 0 0
86.8767171553681 -17.4066880420168 -17.7939808586518 0 0
175.963087840774 -20.3407840922004 30.6186005169862 0 0
-175.569303464608 -0.989386931340546 16.7361076458118 0 0
151.796101848843 6.18459486198493 -21.1877838685081 0 0
191.660481987153 26.0432270431005 -1.87886533113811 0 0
63.2030847637361 1.10500809587046 2.88815765130668 0 0
-120.122312427674 -19.44075308038 12.1348131596971 0 0
52.5069686501773 3.92082154879347 -24.0804767675974 0 0
-118.152141001835 5.07609248177016 -10.0662271383912 0 0
135.121630513734 -6.45350372239704 -24.360253085129 0 0
107.591132036677 16.8480264723354 -3.66854779353819 0 0
165.77853016155 37.9164164762557 -1.04039950694013 0 0
150.55014456255 2.93143561007033 -21.829916004433 0 0
174.284265401837 38.686917546913 11.7374988929912 0 0
-191.680321216337 13.2863820775566 -19.8851735744741 0 0
-204.381986430891 -16.453902825783 24.8613335168674 0 0
-33.0753540582267 8.48465687492795 -5.93802935256938 0 0
120.34007891746 -13.4950221189423 7.1749846924419 0 0
-195.693689444341 47.0102037724978 6.01510062693787 0 0
131.533031621851 8.12284427871973 9.24201066985697 0 0
-203.58090879392 -27.6596778812885 3.0359040577089 0 0
67.4102768688774 13.4502268608039 -16.182424919381 0 0
113.632201314222 19.4499705873812 -7.49071987139067 0 0
37.0178436181117 -15.9191088058494 -18.3391341949094 0 0
75.4788148221188 11.1426345252043 -19.8059323025327 0 0
-200.863577050808 -8.30882632985491 -3.65313786716163 0 0
153.834901746923 39.5090434383624 3.34558646039752 0 0
168.590289780176 -39.7072364891093 6.02105793532612 0 0
-197.237632393606 15.7231317721101 -22.884322686968 0 0
-75.5779287558518 -8.74368700778679 9.14293664332528 0 0
-200.320848625813 -20.6906232789702 25.9089583166008 0 0
-72.6064427245207 -8.9262588020972 8.8291351007744 0 0
-167.359305283405 -15.7803348141897 26.9240325103226 0 0
-209.106209022285 -12.8794420000478 19.2719892000017 0 0
56.8854316811606 -17.7906599169447 -14.1736967507483 0 0
185.776382866246 -37.2353703383398 18.4817385298947 0 0
146.749962709047 -0.359113677154123 10.5138096107705 0 0
10.8223449373281 7.41836899832735 -3.41274617147047 0 0
28.3216022929568 -15.4993969209797 -4.64982824285129 0 0
153.404935723031 -8.89633987690257 17.582141308793 0 0
33.7101697206587 -17.4538716962958 -11.4042941876935 0 0
138.05623003985 -25.5573020701301 -5.35479255591804 0 0
114.509750554124 10.6388333554265 3.7513905544554 0 0
83.0060565487135 -7.72237596815611 -25.5347374846475 0 0
119.365677515581 -20.3334500048494 -15.1164179116862 0 0
40.5349395207852 -17.662578940077 -10.1103739408404 0 0
-139.817694392581 0.190929661203656 18.9050612494632 0 0
-85.0754317346718 -14.9392282358279 10.7929551967289 0 0
152.362454601142 38.8019599665889 5.21801962336053 0 0
-132.711002560186 -6.67489815676726 -13.2504581131091 0 0
181.909783894736 4.82272637996254 6.52435477572433 0 0
185.733122837824 36.3551206753706 16.2723758299925 0 0
-179.271999644569 -37.7730983982748 8.3539434098252 0 0
-164.200879520152 -24.2764586239818 -7.8237384777648 0 0
154.959999673868 32.1239329094749 32.3898425749889 0 0
34.7714835491583 7.58705223844383 -21.5473304139118 0 0
-86.934830194144 -14.3531526158464 -15.3452645389513 0 0
-213.867712652728 44.4950896107116 -10.8035985214122 0 0
-24.062991381363 -9.16398381420268 4.24106490762187 0 0
-79.6575838028666 -19.5126781621224 6.53625416601328 0 0
-222.751602044235 14.5324641583011 -7.10742087990725 0 0
-32.3308662146182 -17.0636110533372 -5.76044464542257 0 0
98.7682706576798 14.1568282545241 -2.63454165483469 0 0
184.704082035154 -39.6087104236532 14.4695975373796 0 0
-76.8957266371806 -20.4035278530082 -4.98580385330824 0 0
191.180232002036 19.9189776872195 15.7298841097565 0 0
162.294532415885 -8.75326448621739 19.1682178814829 0 0
-137.480921010795 4.7521265467923 17.1648002829453 0 0
-189.630662956795 41.3259075196323 -11.454705516237 0 0
-202.741477330602 -29.1090567170865 6.34277722194695 0 0
-98.4644933790631 6.22966869108115 -8.83715085457793 0 0
-184.654986246067 -30.6868587440393 -5.21285144838914 0 0
-110.270473212901 -1.07149648249036 -15.8769429518954 0 0
96.6848807013666 8.67918236184404 0.904250225343938 0 0
186.171030987481 10.7291077090812 17.3016587409215 0 0
-155.784408063206 0.306765392931856 23.7003150141363 0 0
-29.2995674575737 5.49596877471464 -1.14974172811253 0 0
-120.783147597657 8.14258456577066 -0.546041548902226 0 0
165.730951725731 -13.2529114064225 25.7673129787786 0 0
83.2228279211216 15.5349336911169 -13.5560144915453 0 0
162.887002826401 -36.9533450257081 22.4990949477304 0 0
-39.7372627977602 -17.5722246557405 -13.9650369115567 0 0
-179.171746322382 23.9686920955895 -4.21311576504357 0 0
16.4752908049207 -5.5152601792151 -24.9819134269318 0 0
176.30460036965 15.4568863351244 -22.8132453864967 0 0
-22.6510075540705 -0.569732075400947 4.25957213927507 0 0
174.055920918927 -36.8278698828205 11.8820740960852 0 0
177.923237629266 -15.2935852618554 -22.968966433093 0 0
168.66571997164 13.647047409621 -25.2853252093439 0 0
69.6184927252858 7.999462185483 -1.9692884903171 0 0
2.44593059470604 0.954812065191342 4.38879936541587 0 0
86.1171395502939 -7.77501877337358 5.0994962635861 0 0
152.705866048752 -9.41631759920629 15.9585024026943 0 0
148.79827032751 21.3081128755202 -16.7030978411395 0 0
-190.760795448743 40.550072166127 -13.679189774834 0 0
-184.698786060054 16.237218711477 -15.6639401142611 0 0
-123.186592957678 -16.6038095281589 15.6942521260591 0 0
-90.3908971413129 -20.3379063177556 7.81229943641577 0 0
143.755288590433 30.3664812180932 3.44372053247314 0 0
168.434094619818 37.9218279620308 29.9478733191896 0 0
-110.732558130455 -5.20990448939953 -16.4050456931135 0 0
-167.332106528148 -6.26660895922921 26.0991170319327 0 0
-11.9890214859141 10.132435870407 -13.4859475030691 0 0
-180.46390338066 -11.934518666098 -14.1545004978343 0 0
131.394351771618 -20.9310998214801 -16.0675021312982 0 0
-168.32866817017 -35.6352077663092 4.72490596270028 0 0
-201.113564008913 46.0245645709477 11.0997657747108 0 0
-207.833182106664 10.6844661914027 5.62127149360091 0 0
181.892809588898 36.5065394543176 16.394345794235 0 0
179.65807351008 7.74815051633309 9.14692562571739 0 0
-155.450977457592 -28.4231253929576 1.86207200972708 0 0
168.790047843472 16.2672342224294 37.8150839290219 0 0
-13.5272548380978 -16.6751886591105 -14.6506164703207 0 0
-184.022608127798 29.0812094378378 -5.36043874649187 0 0
176.802719524017 -2.56448025871897 6.16195592362807 0 0
-154.716189862725 -22.5510448380558 19.1581160491978 0 0
-177.400233691089 -20.2509160840081 -11.2127313171858 0 0
55.2203749262134 -15.1521578832007 -2.31878596123643 0 0
130.821997490669 -1.31178074063831 -24.0934665216101 0 0
183.71000333236 -14.9947370044965 19.0898162549206 0 0
-113.283990802188 -2.94342410031185 11.9381078368242 0 0
-180.416540217637 -6.52118086672538 24.4185981658783 0 0
80.710371239124 7.2879572828779 -0.463810734311452 0 0
-99.9983454135161 -8.04573713494112 11.5361282882887 0 0
60.4313116043048 -16.7343336797197 -17.1940749540687 0 0
-127.801436926002 5.64279771125261 10.9188176846119 0 0
-192.437406501428 16.939017106797 14.5113856344043 0 0
191.499701239281 17.7386945351656 8.81424765779208 0 0
-214.309634215375 18.3707819142734 -20.9812382423268 0 0
137.379743147273 -23.5261445596337 7.79581724747868 0 0
191.616260765325 24.2535392821874 18.4640085228521 0 0
-22.6774911903568 -4.51184590955953 5.67623374690803 0 0
171.505451562168 17.5996552314669 -22.9423625607843 0 0
130.666170217517 21.1324438296258 3.28087306036178 0 0
-77.2447086719833 7.42189089767307 -8.48311684263703 0 0
170.562044614978 -39.3381226215715 6.30001058097261 0 0
127.828104405236 -9.73059284128851 8.5458060655118 0 0
162.789629274335 -16.8713477652917 -30.1458511110193 0 0
-182.868299927394 4.8393168620047 -14.5859673367747 0 0
-193.137244593402 33.3250462181669 18.5679579677101 0 0
106.141795042124 15.5052944309005 -2.38593052109108 0 0
175.733766241729 38.6053004210261 8.40596394431689 0 0
169.746969193526 -13.4847684928415 24.5235551961295 0 0
-137.092519318885 -9.88909666007715 -12.0651947028376 0 0
184.662776598504 -16.4465110414154 17.9217567061751 0 0
-39.7597933569293 -16.2368127648225 -17.0816700475889 0 0
-186.996387692063 -28.301501135765 22.930183446749 0 0
-7.22958428295521 -6.2553457199581 -24.6045388358842 0 0
136.760889018474 5.69548804151077 9.30370061285145 0 0
-213.617510316966 46.0782976089941 3.39233927572731 0 0
16.3137742155201 0.996669344458968 4.52233783773411 0 0
149.772608784568 29.215426966783 18.3710924445161 0 0
-80.6426952628408 -20.2197838249748 -6.06148053449315 0 0
-155.494102650804 -18.6289000463253 21.3312507172532 0 0
-206.715061754955 -19.538698833662 3.32170252896609 0 0
174.45341362571 1.12700714751534 6.4876087784617 0 0
-198.067880701502 36.385575702338 19.4340365133158 0 0
-169.617256543099 -25.8475468522994 24.037303281194 0 0
143.599753307252 29.9981103977154 9.21323171251295 0 0
165.367548439765 12.2137102251281 25.7975289960564 0 0
-215.298106452661 32.1954454290518 -20.9138234607669 0 0
-198.87903430887 14.7214363150266 16.9559656135453 0 0
91.6577922062545 15.4750495837358 -6.06144152163014 0 0
186.741380017118 35.5549724894167 13.3892399813928 0 0
-77.9652663314285 4.54044171880425 1.3210969807366 0 0
-102.073373872859 -14.3952305795691 11.907437278943 0 0
54.6651517159828 -9.87902279610365 -24.2453237589499 0 0
-166.770886145086 2.10626205993813 19.8192693846058 0 0
-184.214856507567 1.79020923336058 -15.1682600638048 0 0
155.187908094129 -11.2959945788946 26.6514466592671 0 0
-108.323566534452 -22.7948201986863 5.73539184818874 0 0
-163.511603761923 -31.8241369703757 -0.114104243532381 0 0
139.599532849746 23.7562059429426 -10.8177992790354 0 0
-73.2613615434617 -9.76095811565132 -20.3140180848586 0 0
83.4800860664374 -1.48250728565975 3.88097694036459 0 0
161.953019121531 11.613307267187 29.3379337459735 0 0
90.390993498436 16.5791955986366 -9.98871428494918 0 0
115.468252582718 -16.514696648713 -21.0775263288741 0 0
179.743547504815 4.62063217920815 -14.3375415838315 0 0
-188.184127298555 -36.5878401146553 11.0821158440767 0 0
-223.682435214192 33.7003451793816 -10.6390304073122 0 0
-210.037277191435 43.899222157183 12.923384825411 0 0
-159.137943865881 9.0344783467015 20.944325192577 0 0
-94.1473712189275 -22.4082493415167 4.33381613080543 0 0
-108.584464071174 6.55275099551369 2.57792326202128 0 0
-143.439945058272 15.1131587207626 15.7371211609706 0 0
-208.026689831261 -21.5464086957094 8.83463515766989 0 0
169.900308784667 -6.87443151410151 -24.4405648268108 0 0
187.997688358388 -18.7553291569114 -4.1998338859817 0 0
-43.4238370085483 -16.8965286456188 -15.5502720120211 0 0
155.345299625502 6.31235384971968 17.7458402868434 0 0
-124.574282524978 -15.6363730087493 17.2396147888026 0 0
-107.352012682785 -19.7062446108553 -8.71251608059484 0 0
77.8087437013496 -5.08248625797552 4.75284090481034 0 0
-94.7756584159575 -13.6551729087084 -15.1632468086406 0 0
-198.686513409667 48.247832254753 2.8324290426114 0 0
186.147375614513 -12.446137626981 -2.89384921468699 0 0
-141.681255986063 9.42555476633686 -2.25824489228162 0 0
162.309324207305 8.14112430201095 19.2849385482713 0 0
-179.648046372908 -24.7092476875801 -11.3425001223948 0 0
-146.750775819527 17.1064955986853 12.1886169111895 0 0
-191.887809331958 2.71928406440882 -16.8834556872112 0 0
-198.605738649489 -26.3283271531416 -4.87895414414503 0 0
180.215087116033 -36.2197644016119 4.96235921459647 0 0
-185.261613575234 -10.6372736869135 15.7635460018137 0 0
143.222715764086 -25.6631295178396 -11.9177715105118 0 0
154.619840894538 12.8768662991391 26.3114033470003 0 0
188.770305007245 -25.8780394349417 6.28970887383219 0 0
165.032190382282 -40.6462142584293 7.44803870098802 0 0
103.397094693021 -13.8360179570863 5.11783192531415 0 0
77.7882172650323 -11.8420522670605 2.78364957922514 0 0
189.982473143465 13.0139837212284 7.83411081097789 0 0
-183.149906882843 27.0487276343548 2.61734387115846 0 0
-113.798029775334 -22.1161531112623 -5.48412071019541 0 0
130.125757251038 -10.4010818001784 9.01952958940764 0 0
173.119993588256 -28.5428378224351 -14.2207980348443 0 0
-12.0038364959543 9.56000437659172 -8.4139776586665 0 0
144.228517494896 -22.4388444248194 -19.1341486978692 0 0
78.7884822756682 13.3681942457924 -6.13945775324483 0 0
-10.038471348311 -14.6298857599033 -3.30276052495582 0 0
-152.622330501329 17.6587083679654 18.8722092560115 0 0
130.368345922792 16.8214678276909 -17.4630023565588 0 0
-207.969418000021 -14.7507834428538 21.4752184528736 0 0
139.261618285242 22.3907260270666 -12.5257371054163 0 0
-81.746356807606 5.83619389904362 -12.9376528207627 0 0
-224.809717429696 17.699461688423 -3.42407212055013 0 0
-127.407395789968 -2.4528974767453 14.8771841327642 0 0
177.803609720026 -13.1382497257683 26.3182707379215 0 0
178.044164970665 31.1218298236455 37.5245078290552 0 0
-181.006091134726 -35.8255200960923 12.5776980029206 0 0
-77.5818911221967 6.13148945392811 -1.39998850633738 0 0
-203.011100798905 47.418186616389 7.46440790923939 0 0
-183.519247513961 -11.6988049872499 27.2364659521001 0 0
-17.796516389036 -15.5401155238091 -4.03326882724336 0 0
