"x" "y" "z" "f" "a"
190.211673142589 14.3873888423942 5.24891038747163 0 0
143.199088689735 -5.55562411087746 -18.0498633104929 0 0
194.29033266705 -11.2193735525626 2.17809571737982 0 0
88.4986258202706 12.0178275797315 6.10517324272405 0 0
170.982444440629 -15.9410158403362 -20.0148777819356 0 0
198.14339430273 -27.8250664731597 12.6366297059654 0 0
161.017907979986 -23.2726247133555 24.4257009988644 0 0
-149.451592855414 -9.66155631935208 3.73539380836495 0 0
186.192914088713 -32.4465863591288 -0.995784929159416 0 0
-121.170076051649 -7.41207975669432 0.716870298483487 0 0
-211.166938731196 11.64195489581 11.7806161632073 0 0
5.63066197513097 9.38716723768937 1.04377536157897 0 0
18.1946650337604 12.1953983243622 -2.47317391571782 0 0
54.1601891867396 5.86683994541071 -20.4759859650058 0 0
122.178283088519 -16.4085598772659 -12.7476562933686 0 0
-8.04267835918521 -9.55835978931908 -16.6791853373837 0 0
-32.453926940461 12.5113410088436 -12.9561991756867 0 0
-210.586587477683 -36.342908651607 -7.15612801839368 0 0
-206.928353093309 10.7760349749602 5.00390074114733 0 0
170.008580531005 -4.17983914656067 14.4180686658026 0 0
158.377723549348 13.5984390191628 28.4902566080446 0 0
-200.199414802163 15.1952923857176 26.507720838579 0 0
162.865258548513 28.777467854529 -3.36342376112896 0 0
-184.055170243787 14.1093651365982 25.8469047531327 0 0
172.675400396834 8.00485354867384 22.277061481379 0 0
-77.511838753327 -7.07006874181345 -14.2621662927099 0 0
186.423108921445 -2.25695975806885 -6.24208344118458 0 0
182.262191575739 -17.639701130788 -19.1581815128889 0 0
116.835715701542 -16.5354589960223 -0.610607805621976 0 0
141.528824581734 2.49869794606914 10.4068390194176 0 0
-132.905139301759 -8.46770086948009 2.28542708459423 0 0
104.069494481012 14.0739212255355 6.58321614699966 0 0
-56.3460476212524 -4.62902382007279 -0.641243912117014 0 0
-179.775735190669 11.2733405312661 -9.31641445957599 0 0
-17.2493843262687 -8.83588521929056 -17.1230580323272 0 0
187.977964846317 10.0378630947244 13.0375541845924 0 0
-16.4040599672627 2.17003238128165 -20.8502251539213 0 0
123.223150620067 17.0654163874799 7.20335201215348 0 0
-36.6998222745535 -3.0410901656198 2.03518167068045 0 0
11.2229012079999 8.54847572486826 2.34809734426448 0 0
183.557476428295 13.4950510695085 27.6604105259449 0 0
197.982631500381 -26.003985828352 4.63334688020862 0 0
91.3022998671854 -7.76822791421263 -18.9516385607384 0 0
156.138587445437 -11.8477476685092 13.869682815109 0 0
-200.364834349544 23.3165922257138 -2.2756193963147 0 0
183.770404733901 31.8385935738688 20.5788614776245 0 0
35.3478961277905 -1.40306746139748 -21.2504763712591 0 0
-193.924386174078 4.58166320423576 21.2177934317721 0 0
189.95329549922 14.9831677040881 12.0025435186562 0 0
143.893557092094 -24.573903198907 7.5949578652864 0 0
-10.7762145843245 -3.06702502849056 0.543469567496065 0 0
-147.701469393664 6.13579629550764 15.4197343287315 0 0
181.032903250251 -31.8177282056488 -6.14679357060032 0 0
163.997705289575 16.6810577805917 -26.3485802198817 0 0
133.208017380946 -9.62150466247935 -17.2455212961677 0 0
163.210569957757 32.5352251783237 5.10998323487542 0 0
-235.999065884274 -11.1243177385894 -5.57913159886449 0 0
180.077015807013 14.5929270952329 -21.3536539000323 0 0
-102.749086905071 0.736574776312725 -16.8469320434806 0 0
177.442843031231 -36.5864970389785 31.6239426356061 0 0
-123.502177680379 -7.41635712843902 2.13142446355619 0 0
184.531244359048 1.883979532341 5.07938783095078 0 0
-105.512660886462 -4.5360903474697 -13.7726379230211 0 0
-13.6293896598258 -7.27890467269366 -6.88553809824172 0 0
-211.175554142653 6.77254452425666 21.0385687333787 0 0
-151.785807756843 -6.30028694058104 14.1436490643529 0 0
-210.717098128332 19.888698076417 0.722007247142758 0 0
-190.50125450687 5.06094440692662 -11.0452492188046 0 0
177.155626929163 23.9054142410944 -16.2588994824841 0 0
119.470767116627 -13.7763722337897 3.58499047042451 0 0
167.871848976236 -1.67778237818591 -19.3531666659311 0 0
-16.507552825146 4.416838732998 6.05933331629178 0 0
192.596088070161 -26.9218443959592 27.8290803690345 0 0
164.131962014728 -38.8187291707507 2.82831025341287 0 0
-12.11112643752 8.80797431568121 -18.8398365763451 0 0
-7.75511356346694 12.3909949277952 -7.24025888893856 0 0
-205.350922736824 15.7367588192706 24.5455205993799 0 0
-117.823472427243 4.24245825479171 10.5797695674815 0 0
164.705929137595 9.89753251078172 -23.664615810303 0 0
171.655841318643 8.68213679174434 28.8484439622559 0 0
-58.9081629862076 13.2794331687351 -7.41929516291202 0 0
-6.83781403751697 -8.26028135314369 -18.2110175410871 0 0
-119.324389871789 -1.20251789699493 -13.9718466668397 0 0
-181.842037591478 -15.200307575629 4.39240589727712 0 0
106.106135539252 15.3599652710184 -13.6875025278172 0 0
-198.571585802715 -22.0613249815886 10.6834775505569 0 0
169.304408669148 29.6793973600475 25.4251747440634 0 0
32.7389785150119 5.64829433644319 5.32336594829969 0 0
-115.162072824037 2.79081046340647 10.0511926157729 0 0
-15.1996334446571 -6.46056069696357 -5.69163238220029 0 0
-218.90431170748 -20.9508356713978 22.6550782922856 0 0
-219.482743861683 -37.9221575386233 -5.25383313223953 0 0
-158.750555219591 17.4654002033551 -4.03250290578361 0 0
86.8171583222075 17.2859137860872 -4.20419908735011 0 0
128.777024648271 8.60048756510537 -19.7077323185411 0 0
149.961484481045 -7.29985240064714 11.6148004931791 0 0
-124.969955388555 10.812068805691 10.9803714508507 0 0
35.1384064267845 -10.4904028100203 -8.31682062187377 0 0
56.4382384773546 3.2538738594523 6.3200827879672 0 0
153.139579495121 -30.3698225169803 0.0555138363329006 0 0
121.693862495172 10.5508815418558 8.92801518249701 0 0
91.0448773991174 1.71193088789801 -20.7690929209563 0 0
171.802942502181 8.54730812470804 26.7918835453892 0 0
47.535208881385 -6.57276141965585 -1.90596674668122 0 0
6.48418435864388 7.54378503264737 -19.5762439223287 0 0
153.366723080916 25.0091573810881 -4.9315622552684 0 0
68.900220660683 15.2586661639327 -10.3175829702445 0 0
-102.237161111889 -3.77620172966618 -15.006119031497 0 0
100.397534665795 18.0925395370346 -4.0072422721721 0 0
101.359279501769 1.39393458202249 6.94518194366 0 0
-72.6039208098047 -0.405453404472986 6.58352800796105 0 0
111.267637321641 14.165320912502 7.74079711432822 0 0
-140.972922537513 -8.11684246638201 5.88642830581875 0 0
173.144342368674 5.62649860834685 16.2569787394685 0 0
183.596199288949 -33.2709389912948 32.824753401542 0 0
99.2785570740036 -16.4113602910429 -9.70596375928999 0 0
6.08833177767904 11.2357420106055 -16.3431904249034 0 0
164.390117288743 6.1040269025439 22.5345994437627 0 0
188.034693045564 -11.0382391181903 17.5751006564954 0 0
-66.1324090372651 -7.85848362690219 -7.53529097153505 0 0
-89.5046593462002 -3.26142266698473 4.45935128050484 0 0
-144.021592451216 -8.8297328623844 4.63837818154285 0 0
-14.6097853325686 4.04987455791196 -20.5887184095688 0 0
-116.634271251491 12.3068018808104 -10.0589151838018 0 0
112.034242600347 -11.9965258792127 2.70359436428014 0 0
-172.559294862596 -14.5729918661373 8.54114243139995 0 0
171.463796983454 26.3745952996565 35.6623855634898 0 0
163.030779206998 8.05207981292327 -22.4324265101174 0 0
-173.702554926625 -10.9464978689026 12.3903052097674 0 0
164.577068733682 -2.71735333563019 16.8857794383116 0 0
144.375050281476 -10.8196399038401 10.5705310503324 0 0
165.242786371626 31.0453942390687 1.01295950159905 0 0
179.033852528363 11.8284548656435 30.6715877755552 0 0
186.747006587295 -33.255892968018 1.36787071346774 0 0
-187.110614134351 -13.6753373190878 7.9399369905699 0 0
185.775733038535 -8.12290607046825 -14.6384869907929 0 0
68.3170053872175 10.2264969087349 5.12758690633852 0 0
56.4271381908702 -12.7782210123116 -8.83398947808809 0 0
182.592167972035 4.01570315575703 12.7340614007941 0 0
-222.206407028918 -17.3913029658534 22.2958335690976 0 0
-234.613251486671 -28.2924359421457 -1.26231445583963 0 0
176.688933897516 1.4462977321534 10.5105423770551 0 0
99.3533761910541 8.13323813388592 8.05965299214536 0 0
148.495209421056 11.4119766439095 -22.0014754137684 0 0
115.178033605577 -17.4280207933812 -2.9271885118483 0 0
148.152790068379 2.71347078626195 -18.8556795534822 0 0
-95.4853525338168 -7.1305639123434 -3.78704599972074 0 0
-155.197752323642 19.7969089628879 5.48192142316483 0 0
22.5330345155897 5.88505250529144 4.73573006115194 0 0
144.214725409536 -0.0964321365619418 -18.6394778832616 0 0
80.7485828465095 3.12986947153517 7.02006297750317 0 0
21.8330845047029 13.4096087500925 -9.28159304186579 0 0
2.03994822624176 -1.34851416532161 -20.960612603207 0 0
-197.656883673671 29.0095785073654 9.73720357677154 0 0
16.0091837071588 12.4003667636426 -3.38186540241814 0 0
163.927368364447 -29.3684078225461 28.9842319073903 0 0
161.2559518629 -10.4374379670918 -19.1648721561351 0 0
-217.025168009784 -34.8015618130641 -11.5317804122451 0 0
151.057120668331 12.4403923157601 16.1413441820318 0 0
-86.6357162782512 0.212510826642812 -18.5022891900577 0 0
167.907422472921 -24.4272448328177 -15.7945766066741 0 0
149.382168717177 23.8073040290686 -4.88615666057417 0 0
102.181138163734 10.3297083233881 -18.7816843053667 0 0
110.380044408469 2.37923024341995 -20.1416283899717 0 0
2.98611662204582 -3.35042744152858 -20.7695398894626 0 0
191.509994305392 20.4667919619023 14.5244866616071 0 0
134.404997695203 -14.3839012236231 7.62433892417371 0 0
169.562986964536 -15.4835593279477 29.6861445501636 0 0
-205.157153558428 6.45285690687628 26.0983951154177 0 0
-209.930489202186 -14.3473001201371 -18.7984035511263 0 0
-131.609146989502 -6.25714969389684 -6.61030933106615 0 0
-215.060834112898 -9.52489873683832 20.0455032013701 0 0
51.9821790411065 -4.81313169529616 -20.8262266917584 0 0
146.771566898702 -24.7562063508051 -5.38052952802488 0 0
135.201940600156 15.8559903710788 -15.7205969319849 0 0
155.926303923392 -13.6646464012535 13.6331433949422 0 0
167.512170447841 10.6040455485309 -24.7292019758734 0 0
157.889227005093 -1.13861114268724 -16.9460983039705 0 0
170.53669121429 7.28291019765448 20.9010748623294 0 0
189.270737920725 23.8982945042048 0.576746669634997 0 0
-147.734907897334 -6.29909810580667 -5.35977324667811 0 0
77.00616005472 0.121014387669256 -21.2325286153124 0 0
51.2067328640132 0.265467816606357 5.45488901481847 0 0
-33.2318522450141 12.8989122672199 -10.14342368649 0 0
-162.654344339354 -15.4771041497534 6.36236007198904 0 0
-105.956480583538 8.93332614498905 -14.8279176074814 0 0
186.868310880464 -1.38367810383158 1.17731435411556 0 0
185.141629766998 -35.1250418743831 30.5565267903324 0 0
-82.3535145641578 -7.93967872841826 -9.67442487522234 0 0
-227.901561750285 0.367234237901136 5.29871936971022 0 0
-179.074924647787 25.4339441163243 -4.72892584671513 0 0
121.858350451781 -15.9631213423775 2.51443045147087 0 0
-12.1841971626695 11.6911283939973 -15.6294992912515 0 0
-201.405365841403 10.1102506845745 15.0071484692746 0 0
-149.996897964669 17.1777986468924 -2.87799027723187 0 0
140.899591912643 -14.4501839444856 -15.4220925787059 0 0
101.048915340889 -5.67614720689347 4.82841467608356 0 0
-78.1730701234195 -2.06676624906385 5.64069490515219 0 0
-116.468652598004 -1.53034180193035 8.56955989327001 0 0
-131.196769372129 10.765264900757 -10.8237877483674 0 0
-124.947665181929 -7.18585006073609 -5.1176759393463 0 0
-195.568394734356 -5.67625318166595 13.0942141093961 0 0
152.75689981403 -31.0738017789628 6.58993993572456 0 0
146.838978604786 -12.6793897026397 11.2837532439102 0 0
-224.296354165587 -5.54982459483309 16.5614498401546 0 0
-184.901454709174 22.5841514197744 20.7812681100167 0 0
-119.244595803958 8.13588349358402 -13.8863503827234 0 0
178.369271429586 -37.9391238508895 2.68978635147395 0 0
-70.5646603614809 -4.70569163049039 -17.7494702031301 0 0
122.86002998881 -7.83026062691101 -18.2035535569627 0 0
130.868433372733 -20.7466615298756 -4.34807127945749 0 0
-198.819117851718 -19.7609717744917 8.76427103121697 0 0
-218.521288023172 -38.624215319482 -3.13104830028331 0 0
-60.3975228274457 -2.06371576566414 4.35033180183853 0 0
176.981589665218 6.92844160761948 18.1387480951023 0 0
-3.28961552535824 -0.179302487433471 5.53968672421217 0 0
164.398707342766 -38.8489636234139 18.1227559304399 0 0
-47.1751464325333 -6.28353691707969 -4.92986342775047 0 0
-45.6627014662134 11.3573663310697 -2.80034796123229 0 0
-223.292421351496 -22.9800868044858 -18.368229851635 0 0
-94.3746805785144 4.69875756848272 -17.823636846658 0 0
-34.367287915538 8.61761335241335 1.3796166622668 0 0
128.895692190913 20.1865745834792 2.7147644021825 0 0
45.7967814812956 5.47483595188236 -20.5260420298794 0 0
-133.79737071373 10.5660119915692 13.2108799753893 0 0
161.517925702505 0.511751137639765 -16.2292701427266 0 0
90.5601789356349 -12.4822037820239 -16.3507926475314 0 0
85.2608165212552 -6.89298755571296 1.44414982100892 0 0
-13.6410025439199 8.18777693302412 1.76941088560139 0 0
-237.337991889403 -13.1328226330389 5.988846585205 0 0
-195.471940668476 -12.2297093249981 11.5534218451821 0 0
-122.663907091929 -0.0902957707006263 10.1006653906869 0 0
132.857883660382 20.5375192213245 -3.44985352629673 0 0
175.446669630277 -35.2110720447901 -3.24376028567814 0 0
194.347372817361 -29.2322333022428 -1.35687469562673 0 0
-100.033960865306 13.9780104051102 1.37170453978142 0 0
-224.207674313294 -19.4823761055819 -18.7032584343562 0 0
115.104394439624 16.2417541622202 -13.2018018072861 0 0
51.0101969693365 8.52984906283034 -18.9762650777062 0 0
79.0592222425001 -11.1271923724367 -2.54907684983382 0 0
47.6931906161162 0.585259871401803 -21.3911855265893 0 0
-116.235238640421 0.826013755930571 9.6079246697103 0 0
139.951910962855 15.4110697403703 -17.3401042833859 0 0
130.724422476488 8.78742506302918 9.73788521614997 0 0
164.069576039582 -27.0811740031847 29.4727467419627 0 0
-221.247724162805 -4.92700418114771 16.1627482281102 0 0
-68.5337944469255 -0.940137794653218 5.9536220870141 0 0
181.558303698456 31.0365582027294 15.0234381098667 0 0
152.18820108771 -11.6754704898462 12.7518534752637 0 0
70.6349486814349 7.93552626042056 -19.6083460871389 0 0
-131.232184617665 -5.47238108498521 -7.97010289800261 0 0
189.605504133397 15.4487843740191 16.7491285839469 0 0
153.39048650938 -16.5033486441413 13.7101567535137 0 0
-131.010823960334 -4.42804757179704 -9.59988028430927 0 0
181.842406875973 24.2769262991976 -12.5187149790363 0 0
-148.817270826303 -5.99101551313074 13.1247563262103 0 0
160.227874329436 29.360903378811 0.294238794727806 0 0
-235.17109988803 -14.5189339083322 -8.87424467862133 0 0
-228.749363256891 -9.44450659673172 -14.6097864671846 0 0
122.646644717968 13.5355856679329 -16.7670497550455 0 0
179.630489922192 25.5728047113326 -8.61288205714973 0 0
176.946650600646 -29.3680185230331 35.1454910034321 0 0
142.517492893752 -15.7984946226944 10.131988656731 0 0
-28.5183018798882 2.64578114723621 6.40212525463583 0 0
144.612852163981 21.8770141613041 11.7637575832642 0 0
-105.207950467623 13.150865902626 -8.91771566879297 0 0
-35.3965865580479 11.8205732687324 -4.96901518002668 0 0
-175.173853688456 -5.68860976204479 16.3510150332768 0 0
-24.8257151247216 -10.0423378083074 -14.2786879640527 0 0
160.760451244598 9.3167518799311 -23.1217637590483 0 0
171.269349753222 -37.3367292278101 30.9803075188544 0 0
-227.716391810062 -26.5111806574386 17.4909366125014 0 0
-82.9062153329478 11.0483638479165 3.57144057919915 0 0
171.478058956214 -7.91448729538401 15.2278269494004 0 0
-152.592166529692 17.7380088100825 10.1672647515073 0 0
185.771856931693 27.9020979659347 4.18345485596667 0 0
-188.364237316226 -13.1443973214534 -4.83498216129551 0 0
167.737962106875 7.48721289708545 24.3675672378268 0 0
-223.759776477627 -9.58508188864913 -17.4591329659999 0 0
3.26859791479664 -11.139854968746 -13.62863934939 0 0
64.8954607725568 5.4123730890555 -20.7137523012615 0 0
116.971442505239 16.3119034924595 -13.2385050377372 0 0
155.840424125998 28.1135506962079 20.1088597046077 0 0
58.968861850818 1.25686797540178 -21.4398039347389 0 0
129.732058709261 -12.0730668308219 6.95706616768786 0 0
182.361512258911 -12.2697009884405 -20.5356696526355 0 0
174.715114735981 16.0089045828018 -25.5177268148632 0 0
-158.060980834961 13.2394540914646 16.7021050424915 0 0
-109.690805540547 11.5209586441457 7.62899084217827 0 0
-200.860434164793 24.5408267247566 17.7168555450107 0 0
8.42261034309753 -2.77961879034012 -20.8601568998846 0 0
95.9738750551192 3.47098714175319 -20.5777442602539 0 0
-203.369839191459 12.8243200951098 -8.28744636847471 0 0
-189.055192197784 16.6952939010541 -9.24724721905201 0 0
-53.6975769783275 -8.61599118241478 -9.20029730480475 0 0
118.449249646763 -12.2850508406519 -16.0373068555288 0 0
-193.553454849592 29.9473661617241 10.7818707278676 0 0
23.0884239395827 11.2125039374799 -16.2517929979817 0 0
-163.291637826668 -9.59847713863984 -0.718715488506714 0 0
168.667361421081 34.440404438091 7.29815349610679 0 0
-225.007156623414 -4.37660976199612 -13.5847433376304 0 0
143.45717432486 -8.5555140664873 -17.4969927019355 0 0
-210.551434845941 21.5635356815278 7.72540215045088 0 0
65.7498562762981 6.21072400162313 6.74216543996999 0 0
152.922875924719 -23.1531625632847 12.2851997164157 0 0
170.562576677181 18.6737511877402 -24.7585250031981 0 0
-46.3938836531414 2.72072620473538 -20.4425397150668 0 0
166.27451231942 21.3949929150747 -21.2662674340457 0 0
136.189588582226 11.9875763151796 11.0502625447467 0 0
138.166811368486 17.2187585672348 -14.5768733148599 0 0
-192.695638658559 31.196981862387 8.39328338942778 0 0
114.213391752682 -16.0386161182596 -12.7562159842024 0 0
184.443108271554 4.38456030950241 11.711671492473 0 0
45.6365363754206 2.99648630627465 6.28132173392168 0 0
-209.480225592785 22.1846574293914 9.49468125621188 0 0
166.518498119321 34.3506084450608 19.262154835201 0 0
-192.273275331763 1.71280043805046 -9.80100775837889 0 0
62.5918224724497 15.2107986012494 -9.57421490181932 0 0
153.810127943309 -7.97785103399041 12.8946765772973 0 0
119.580855195249 19.2150778562472 -4.31312445456467 0 0
92.6078113287019 0.504337643345809 6.52363650369822 0 0
-134.040921454878 7.27768920831453 12.8917310705176 0 0
188.689776719699 -13.7076184929421 -14.7190025823169 0 0
-197.106750441641 26.5938894970864 0.273798657810284 0 0
-187.587246700373 -0.224620207718469 -8.92688106440706 0 0
-35.6671963979861 -8.3478529043976 -8.73172770665483 0 0
120.693894015984 17.8338654007667 -10.6830368032781 0 0
-174.736886805659 9.06013527433406 24.2002422814489 0 0
188.076929244712 17.8757334394394 23.9211478894336 0 0
-204.370656152065 -5.71772748787077 -11.710052456075 0 0
-112.580860080612 -7.39643114053187 -3.52225229541682 0 0
184.119528982124 -21.5503993763201 -15.2784853520633 0 0
155.101429680713 5.55582127286716 -19.7227925226696 0 0
164.208267738965 -9.7421043767255 -17.8168506509502 0 0
187.891872158712 13.3812775203998 18.9789263849335 0 0
157.498498970832 27.8363536533074 -1.50435424945502 0 0
-1.59756777600318 12.546147722556 -13.4671706493543 0 0
-229.295515805726 -0.233806883103795 -2.95029744161211 0 0
166.89693942386 -16.3772468410689 29.1310988519943 0 0
20.2674342005501 12.6766119853743 -3.47112693199729 0 0
-29.4905171422208 4.60642743443761 5.98416502222278 0 0
168.17598010554 -20.5901619953771 -18.5688906204242 0 0
-8.42094937149561 -3.77740366551925 -0.895974865148599 0 0
-184.373810366749 -7.04051634121649 -7.08486742442455 0 0
178.765647109724 17.7255210850985 33.7142290754839 0 0
-219.366812558778 0.81864845518837 2.6938475810439 0 0
-232.870834629171 -7.06995175714816 -8.1390388146381 0 0
174.535905210762 0.686173429319198 11.168224471386 0 0
89.0652459912722 5.73159893237558 -20.4273287714747 0 0
183.700266213666 -30.4434406198367 33.7826567496604 0 0
183.935848125568 10.0280401934682 23.5699980332825 0 0
194.498284494117 -18.6282253086046 -4.64810892976248 0 0
0.719854813215114 9.85466580036929 0.103301059967419 0 0
188.279101440155 -30.26548289011 31.2799082676551 0 0
15.8198855382403 -3.59461267629006 -0.0699749372494955 0 0
-182.966659330289 22.1798259912847 20.9388463038718 0 0
149.760767652154 22.3212031511776 -10.1390243279869 0 0
-37.3173466948825 4.45080232205303 6.20959106255173 0 0
-87.9809703558268 -7.71604646518361 -8.53648303567169 0 0
-10.0915058953755 12.7670133321085 -11.2802422725945 0 0
101.266758345377 17.8407200476195 -6.68836307324968 0 0
80.7188709629933 13.1060330901412 -15.295084247982 0 0
-174.901864996916 20.5335470076171 19.7840380585685 0 0
169.851860145859 26.1194674661615 -12.0887041287985 0 0
161.363647116516 28.5152445762527 26.9086635574642 0 0
166.63815338528 -29.2743383218115 -11.0870515623415 0 0
147.952866570604 17.9027701205852 15.1240858430217 0 0
103.314832782032 10.9256379008378 8.24907499573792 0 0
160.894957651888 -13.5238079397973 18.3655303898596 0 0
-183.349107413236 -1.12135749535627 17.9639548943176 0 0
153.786388788047 16.3338355315158 -22.982212496201 0 0
189.776409241736 17.0413788701232 18.6969897167924 0 0
134.225963129766 -4.7678040987127 -18.2119022791687 0 0
39.215168536075 -10.9882458623891 -17.1864878287237 0 0
1.32341778771994 11.1878211388059 -16.4559611743025 0 0
-51.7782017744683 -5.93454893257772 -18.2543102105022 0 0
-5.29150526392606 -10.422769614044 -11.515797780283 0 0
78.3422828357668 -7.43475402220201 -19.6381197165023 0 0
173.100505951663 -10.8733568786322 17.4218476811104 0 0
168.420238554217 19.8105133680948 -24.6141386030311 0 0
-139.155727720361 -0.360682504239191 12.591657250064 0 0
-205.847553267082 -34.0686451348621 -6.6730286503317 0 0
9.04482263900689 10.7580799541211 -0.649731730693478 0 0
162.5354733367 -38.8117494616463 4.10828460333472 0 0
147.231347009853 -17.2519481660781 11.4151773767566 0 0
178.023430668162 32.4780761356512 8.06467982479284 0 0
127.296015991949 -10.7041571968937 -16.849607383388 0 0
-191.328208063815 30.420838564375 3.92423557103007 0 0
-191.752424487809 2.87814538645759 15.7242827121672 0 0
-236.63921542498 -9.53778408754645 0.508622120271764 0 0
-126.357725153705 -2.11840833234611 -12.4185829483365 0 0
-102.339299528558 6.51380854719962 -16.4236334345674 0 0
-160.557454406826 -3.54448460227366 17.3370689854393 0 0
-159.458706617773 -0.987082985132683 17.6825374147696 0 0
4.4504844296991 -1.37439871756579 4.73898235670359 0 0
-73.7895995983221 12.5454609604926 -1.29585998736706 0 0
-121.003514880027 12.5450070427078 8.62304637605088 0 0
58.4567575161936 11.8977019702256 -15.9096940093836 0 0
33.7332417497462 7.90498609977294 3.92814451460476 0 0
-204.079501547307 -33.4593932978465 -6.05126296736829 0 0
190.744671640424 -25.366198730021 29.735536105167 0 0
11.4062790844743 11.1833294672049 -1.18586199306406 0 0
-221.652571927417 -7.61226523593872 -17.2146947175972 0 0
173.96391823762 -13.039852365044 21.6981208855697 0 0
6.81543085594745 -7.82007108943886 -7.05634846747946 0 0
134.294037010938 -19.6419771148819 -9.1441161257895 0 0
-233.388496547945 -24.1296580055776 13.022024587397 0 0
-179.216235965188 -5.37496539140657 15.1642919488177 0 0
-127.480711718701 -2.80977936684873 9.2402508239855 0 0
141.454128887883 -2.13483750040452 -18.3967139503315 0 0
-230.331307301205 -20.2259442220894 17.8445833327723 0 0
154.070265135681 -32.0513938849597 4.70366727678271 0 0
108.219901694209 10.6166326665864 8.31524475193474 0 0
-198.489496361403 29.8244081087834 6.89306302854389 0 0
182.370207203589 25.1240402110153 -7.17882843631679 0 0
84.3894586087935 -1.10971129700718 -20.9282015562854 0 0
195.734460480213 -31.5852412744405 4.82008778895681 0 0
-220.501696861959 -32.0952178724995 16.9185740301514 0 0
63.5452516398083 -3.01825337731506 3.65043430270554 0 0
-224.212895520225 -7.54006738953887 18.4485565535219 0 0
48.0182371441295 13.4440079257573 -0.641374466136934 0 0
-207.520956631569 4.1072949801769 4.27545167118751 0 0
157.815320502508 -12.4824867202324 -18.9721228775665 0 0
-168.403323713539 24.5297391238046 6.13145821943019 0 0
-67.4324284327464 12.7829345478966 -3.39527088282603 0 0
179.343168676554 24.2585148451649 -13.94882822906 0 0
-126.734463717366 -7.79878760640534 -1.5482185786058 0 0
-171.69855220787 -14.5530031480909 6.43202400547287 0 0
-185.536408912627 16.1745944856438 25.1086273549904 0 0
164.174701507636 3.79009339504129 18.8408809710596 0 0
-94.7082421738815 -7.46262546617817 -9.76167741958474 0 0
157.504391266148 -10.7235870844863 14.4057054249291 0 0
191.286997335354 26.8492312367369 8.83023018703682 0 0
189.402776038014 -22.4259269736092 30.607224648946 0 0
-203.051186092281 5.94405300923497 -9.32512920251432 0 0
122.867264239017 -17.6084558844809 -10.9121533488899 0 0
147.813040462397 -27.5196357747183 4.27148678766626 0 0
-133.607456235079 14.2250658765972 -6.61941035168164 0 0
-175.508467389771 3.69715752724733 23.9694505734189 0 0
182.246600453492 18.7339366335086 -19.9548714096372 0 0
-188.893129970324 31.6536692382012 5.79268604705382 0 0
-47.0741048112489 -9.41192345249285 -12.3917375339518 0 0
-126.050074538494 14.7452173379621 -5.21290028247087 0 0
8.61066844723789 -0.578391729136326 5.39790110068553 0 0
-187.178633399523 6.40485063287588 -11.2304910306731 0 0
115.969035540826 9.81876020055682 -19.1245654846361 0 0
-68.7134038819293 12.2664243035379 -1.79895071980938 0 0
-105.097066521492 14.4391397010309 1.14011463031752 0 0
152.765382849393 -27.4946916929402 -5.86029742721617 0 0
-226.373976861352 -29.840139453749 -12.7947642861715 0 0
-189.292818806301 6.47311826798782 -11.442577267773 0 0
-117.943528648244 13.0497666689671 -8.73038035873961 0 0
78.5521242465113 7.46505268337392 7.54268154828335 0 0
159.004041669079 21.9218309726372 -19.3403892460755 0 0
-22.6250845593731 5.50591021194889 5.12666341567187 0 0
-98.0103929295809 -7.30671991899558 -9.90542391393133 0 0
183.57842110261 28.0978869688632 2.8175596730184 0 0
-121.686470238715 -7.15198580585261 2.46740321973796 0 0
-124.134323780768 -7.5417872397891 -3.10015990501209 0 0
-192.533378386247 -15.6428299506305 7.78936522174912 0 0
160.249665941339 24.9215791890721 -12.4066724336709 0 0
189.777444760119 -35.6837833279219 16.2749727013757 0 0
-123.314708612624 -2.21083129824747 8.99837857321628 0 0
-204.023947556768 2.57523632360449 7.28669942974014 0 0
-116.238386129092 15.1406446033929 -1.04457459214498 0 0
46.4149581902516 -9.96321091567012 -6.30116848078395 0 0
-165.279850789608 -5.56667064833009 -6.16143284518596 0 0
173.227034366303 32.0966856300104 20.1211456048475 0 0
-61.2312966145504 2.48757081079478 5.92513157377747 0 0
-76.8235326801648 10.2810381527261 -15.7573102624046 0 0
-4.08536623328585 -6.25977291251968 -5.34371463094381 0 0
-81.6833159240582 -4.55331096879706 -16.8689155710924 0 0
-170.400791899562 -3.38965837904784 -7.44388150597019 0 0
-1.45158096582562 10.0042414433044 -0.27432212049546 0 0
-69.209319095718 -4.24856746513428 0.950777289594894 0 0
148.933895690427 -25.1401347771684 10.544135816978 0 0
-208.484850623566 -12.1085490142342 18.9624808966681 0 0
71.0709449060013 -12.7622299286172 -15.8960414785643 0 0
159.730180520926 -4.77216214903845 -18.0626431713682 0 0
25.0230721830763 -8.58145392017773 -18.9302311503592 0 0
-98.67783207783 3.36117165795833 -17.4756918428042 0 0
96.7911920308104 -12.4842485006073 -16.2930705266841 0 0
188.365823649948 -3.76449135502446 -2.37513915450676 0 0
166.757669234627 25.5112567441814 34.8236579688632 0 0
-17.7091254634874 2.60281998845424 6.4803658546299 0 0
164.249393707156 -0.340820891851708 -17.9149906128701 0 0
-132.399476613614 14.9022859149227 -5.3495232113536 0 0
-20.5315437184798 -10.2999521338322 -12.2827010281044 0 0
-138.106238195669 -7.34082250660402 6.64516190043564 0 0
-162.29140903811 4.83741771819044 19.6094181385818 0 0
181.709364179282 -12.3735691687226 26.2088690454086 0 0
-207.382451265141 0.396816731118973 6.31295750047659 0 0
198.085791091875 -29.6687604578414 9.78415693032968 0 5
-186.826319752632 -15.7659857234982 5.33643522978083 0 0
-119.862711344957 15.4647840008506 1.50936424263176 0 0
-204.132422302573 -30.7650290773575 10.5479353365277 0 0
-176.972341732165 18.9274902484639 21.984817417384 0 0
-50.2620661697808 12.6540408526892 -5.91006422137726 0 0
-40.4596530446598 -7.71536966490594 -7.70134061548636 0 0
-102.866211260014 13.6133688122386 -7.58219654698833 0 0
-128.635555604185 15.5082130796902 -3.18937337207219 0 0
82.6640931542167 15.5945497063148 -11.2090131253505 0 0
186.559003275742 26.1277803362595 0.937362828145413 0 0
7.29464323510259 -2.76948774671711 1.70405740486205 0 0
64.1603753614424 2.60356999559602 -21.3097089751856 0 0
-5.69610171668012 0.392600348814932 5.85510770241864 0 0
188.022257751899 25.2829697297192 0.303701760997749 0 0
-196.564580572109 0.337357624962738 12.7548825119736 0 0
142.78063716496 -13.9276022390691 9.89760161388688 0 0
38.65683741916 13.8877565282931 -10.6109070474338 0 0
-189.273216768069 -15.2605051225873 -3.33791257975031 0 0
-29.2594151397152 3.79976801677639 -20.4800956154579 0 0
-65.7576915209518 0.657229117088923 6.37846048163143 0 0
40.8285385449108 10.8824475805938 -16.8125888013758 0 0
-220.448077921228 -9.4956127246725 -18.3729289578282 0 0
-130.31648637842 2.08025156138624 11.5753437243922 0 0
185.690563760252 0.279324945699888 2.82626125572343 0 0
-233.350404707971 -7.33451634301748 10.5995836296763 0 0
-12.3359396834499 5.2195625145765 -20.391527560392 0 0
-48.8910972462944 8.48441636050312 -18.1830057628099 0 0
182.236648122694 -0.037093580721208 7.85349081376514 0 0
-214.303231273812 -39.0109668462337 -0.173699854666217 0 0
-49.8879598346679 11.3090636282477 -2.26985474698955 0 0
-96.1974680624918 9.11626671613833 7.85260568492889 0 0
-57.7099836163532 7.67233023460411 -18.5198024777309 0 0
152.909406994942 -2.34646310338072 -17.8501658048359 0 0
-144.199398193414 4.20767008938274 -11.3488413380688 0 0
146.806160271986 22.9411862033706 12.6499448993286 0 0
156.329281297375 21.9307326262262 26.8914144176366 0 0
-213.521767476966 18.6363477568457 13.0307656149865 0 0
165.139883501775 18.2733557230307 -25.4826594282196 0 0
-109.323718473201 14.4174866655167 -4.64855822565482 0 0
-81.8997586301031 13.7813836078375 -8.58805262353589 0 0
158.927218027277 14.6389534405874 -24.9668390721483 0 0
174.697029998221 7.28974254112762 19.9296773175712 0 0
109.851597583667 -13.230496700464 -15.5908480559148 0 0
-166.910977173664 -17.1444664839218 7.85446256440893 0 0
11.4057195818301 -9.16840442945906 -8.54499328433091 0 0
-14.4692726598292 12.7491265417083 -11.8272836929412 0 0
-178.099551017523 27.1197883680462 -3.42523280371186 0 0
151.666217798081 -26.1128010650378 11.4901309705672 0 0
-168.339424431174 21.6572378404724 -2.13030409765896 0 0
64.1463096947213 -6.92934627687204 -0.672978308645848 0 0
-74.0878818584072 -2.20926947198892 -18.8801988242657 0 0
-199.594365743268 10.404668319671 26.6393210360587 0 0
93.3810077526414 13.475999420566 -15.436697114032 0 0
-174.319540158575 8.11084780733285 -8.71078281873292 0 0
-31.7443941615186 -0.121087505264795 -20.7400451788835 0 0
54.2001415244207 9.94732861489012 -17.937271865517 0 0
17.1240767178349 -0.0578995848020643 -21.1522627558695 0 0
-124.419788609648 -3.78052287589161 7.82360058362817 0 0
-180.92028282523 2.54822061215026 -9.28740142773236 0 0
-118.335649571063 9.91474280365448 9.37369052092491 0 0
148.286148364375 -14.433295311397 -16.6562871956335 0 0
-22.1523759419443 7.19096389719804 2.88179039741795 0 0
-216.975043245877 -37.6483413652952 9.28910756681901 0 0
-159.5797880713 12.04634570503 -8.27190859011897 0 0
116.329781100529 18.9951357523285 -0.362855174842828 0 0
-228.467434468004 -9.95515919166716 17.9323348396303 0 0
-196.81716797735 7.8764597136964 26.3302169984202 0 0
-120.834094145093 14.8133830891923 -4.40925912907355 0 0
-30.3672151766589 2.60351331285979 6.38548094738287 0 0
-177.304662134822 29.2054846685468 9.54957617727585 0 0
142.758106012184 -24.8286385991393 2.16751651154058 0 0
-20.3959557897729 12.4908218288179 -8.07276296357426 0 0
14.5354149678772 -11.1280669236656 -15.3844840221945 0 0
197.886642319712 -27.2296341308886 14.8192955723835 0 0
2.49393071032879 -4.64933714125486 -2.55966632599353 0 0
197.25484016588 -19.2166972653038 13.6921582332079 0 0
4.0677488591289 11.6583960482931 -15.7737628074403 0 0
176.07835503676 33.2260073154889 14.2765566995671 0 0
26.8427971431537 13.4787704049805 -10.3586066886903 0 0
-59.6291370724445 5.32866828659437 -19.5050382864029 0 0
-115.48658630229 -7.42358254391179 -3.88918641901076 0 0
165.576217215947 26.6999848076787 -10.0441605949399 0 0
-35.9497340097424 -0.647776286324279 5.67570096757495 0 0
-148.830034449267 -2.43791953161794 14.0246885136411 0 0
-136.158250591907 16.6676066102478 -0.500914372916428 0 0
-142.846417099656 -9.02059125154942 2.03300693795324 0 0
-209.265251143134 -16.3467828948733 22.0379983487361 0 0
165.542901780006 -13.9188525721912 -19.6329521425825 0 0
-101.94201020839 11.8619966459548 -11.9359301588222 0 0
152.157545015668 -13.4246826115709 -17.7575224135418 0 0
-3.7557432453816 -9.62408033140452 -16.9348221749932 0 0
194.754723331975 -13.7839828638431 -2.93393145947624 0 0
-38.8853594672106 -5.59894245701259 -3.79809760489556 0 0
-200.46229148468 27.1572714318147 11.7432802639687 0 0
133.08391768294 -5.51371469270555 8.34135638402529 0 0
-28.0306923968618 11.405592816356 -4.35734131756422 0 0
196.321848668038 -15.0165108256803 3.61873855544659 0 0
177.229886907208 30.9898227763564 18.3559249390069 0 0
23.3508939861632 -5.33739085118523 -20.3836515439195 0 0
134.510975582711 -4.0885886414908 8.64837724574303 0 0
-116.524938577099 -5.65771298110816 5.04197595834658 0 0
-208.769251223315 -2.69604298160597 -12.046810700774 0 0
-56.0716589396513 3.82554294598937 6.51502449561255 0 0
-176.219494573214 7.24346990964131 -8.84695590934109 0 0
15.5123004737715 -2.49955283274883 2.58394971496782 0 0
179.612966171947 24.8259082561801 -11.1595713249269 0 0
30.5697735078102 -10.6131558633653 -17.2519877117133 0 0
-54.7145299029104 -7.25560774991821 -16.7109760851134 0 0
-0.949812743407169 -3.06481043698182 0.37693450563895 0 0
-65.3536602979298 9.47010851557495 2.72048717262778 0 0
19.7578432910202 7.10929051847506 3.76496235226909 0 0
-155.707946806409 -2.07946792398018 16.3095513642907 0 0
187.963358144997 21.4668708605479 26.5580668370193 0 0
157.557164113631 27.7105078390864 22.771354473025 0 0
-111.550351335135 -7.14448435217538 -7.87302809513803 0 0
75.1616380604865 -14.6579913612485 -10.4840363945203 0 0
166.189331262357 -38.6675112716489 1.64707788721097 0 0
168.15091989283 18.7717628692936 -24.5651277079205 0 0
-141.760327439052 -7.59640363022007 8.63256910407755 0 0
-217.169824032327 -10.1850444649229 -18.8859966039575 0 0
-200.280991937939 -23.5196461446176 8.62098672626978 0 0
147.791344498486 16.8281883789635 -19.0211972905159 0 0
-204.155564499874 -19.454654444539 18.7566413169742 0 0
-197.131650525327 27.4268185576305 14.7694892736843 0 0
-143.990095194799 13.9446255826835 12.8858185352035 0 0
-90.823764505956 6.57578240478577 8.56268764049557 0 0
169.36679468214 8.58101128657408 27.4148094544032 0 0
10.4853617073594 6.47334971243959 3.89022456711583 0 0
-13.4605555313503 -2.54462565998908 2.42333379164915 0 0
153.690810991138 23.3784818006428 18.299749180377 0 0
174.773411530178 -16.940139469837 32.3371900129861 0 0
128.891906979922 -19.0802620132775 -8.96398390640262 0 0
63.5258434722765 -0.991342184824104 5.14183624948319 0 0
-11.906161641356 -6.58658190011677 -5.87951036092 0 0
169.815512261459 35.0834038617916 17.4005142814996 0 0
-197.053204686414 10.6039368135216 10.6430611834956 0 0
195.978980388727 -25.5272900578878 22.2921654000779 0 0
171.003092336742 -13.4547629610551 -20.6703968700874 0 0
5.74083380669009 -7.64254764508233 -19.0559710031726 0 0
131.804344283947 -8.95540170235761 7.86177664010188 0 0
107.147794335357 17.9995443352521 -7.36616569435641 0 0
38.7143439009766 6.58077023198792 -20.0224448172071 0 0
-48.3852124326066 11.5136749179655 -14.8289816386955 0 0
21.3508364636877 4.465199106379 5.90410688026002 0 0
-229.50372617035 -5.64102134231519 14.1892292219228 0 0
150.393773975712 -15.6133660446268 -16.5606299859856 0 0
-41.4396560011325 6.07592221690466 -19.6911634974122 0 0
175.420533534098 28.1427866694956 -4.83500628803723 0 0
-184.472958264811 -0.557521201036475 -9.05068117812396 0 0
172.513723081701 9.89707964949684 -23.5508758672103 0 0
-209.425585865138 -37.0677657257424 7.46958190771994 0 0
-210.440200921243 20.7164860186261 3.62598233824188 0 0
-198.237906626253 21.4286542206544 -5.56277502017392 0 0
-217.639348052212 -4.57679330599157 -15.8661630872254 0 0
20.505302292495 13.390898351068 -7.13532012444354 0 0
42.6674185516133 13.9681837630912 -2.87050907992102 0 0
9.22967280287215 7.55283430590617 -19.5116831014806 0 0
-123.478398148345 9.6449302416861 10.9330108370581 0 0
-80.1696511079603 -4.11580669659277 2.35826244013582 0 0
-135.154517550473 -8.39841957083848 -0.338149722773369 0 0
118.058849506118 15.44009747366 7.65549152583905 0 0
-40.6121988439053 -1.16402546505891 5.43545159246273 0 0
-15.2983610388773 -5.12861255966952 -3.50888977452564 0 0
149.908643263384 1.13677619251512 12.1643572037222 0 0
108.308965120782 0.421527956273137 6.98868565593437 0 0
87.2157788920872 -15.3230126267921 -11.6271643093451 0 0
158.696362912889 20.5614618538709 -21.4079656166596 0 0
179.949042899807 30.014174950706 3.29394859754229 0 0
15.8061466839639 -1.41148713924166 4.70654651496829 0 0
-61.6178566873804 -4.56513565505583 -18.4939577441125 0 0
-201.971862200117 4.51489222939179 7.76740468045613 0 0
125.802590145355 -3.93179554013789 -18.7699995839996 0 0
-104.663807667903 0.385379168718535 8.35557088673417 0 0
-65.2507265568203 -8.56143259243734 -11.6629898657225 0 0
-25.6220410835678 -9.04056535348236 -16.3846221074506 0 0
-147.219048915947 1.51298759492814 14.5947928584293 0 0
156.757581405146 5.36800386815506 16.3401451536923 0 0
78.4149405142746 8.3513285344454 -19.4189214483921 0 0
89.635402053766 -1.01184379886369 -20.6827807370069 0 0
-230.398783844027 -1.76141764706002 -4.91515222309726 0 0
48.6750383094942 -11.0064138718307 -17.4182214349042 0 0
26.6991843984549 -2.77542734311328 -20.9935205746969 0 0
-13.9342675824405 12.5998842766073 -8.47529591455104 0 0
-140.204960456832 8.41862820806443 13.7899675168933 0 0
169.199548738382 -12.6178336327492 -20.3960300861708 0 0
60.5593108423415 15.5712904080104 -5.77239213058892 0 0
147.260280815705 15.2571426482764 -20.1402807779304 0 0
174.575860294345 -22.0273193569102 34.8955442253654 0 0
126.320153434685 14.207927930449 -16.380477927991 0 0
-109.120089615896 -5.1460450186948 4.4380339117221 0 0
138.6428909783 -0.249769102428341 -18.714550825679 0 0
60.8415332540106 9.09367061012481 5.06045071961516 0 0
-70.2618448929676 -2.04359336473463 -19.2208432030267 0 0
-104.77352510883 -5.42968270219084 3.0356609481356 0 0
2.04906540574433 -5.57689394594497 -20.0678925881644 0 0
-163.936527146863 -11.7468970247213 2.78636518519407 0 0
-59.174816456487 -4.87773518095458 -18.4906217548195 0 0
20.756506967453 -9.36771682329423 -8.22711061196783 0 0
-188.546321280841 25.8049309873496 -3.47518707937631 0 0
-173.073752691623 -2.22441732454511 -8.10612425623927 0 0
-70.9896068703734 -4.81932661665148 -0.201756790488036 0 0
-212.802018405548 -36.5201754412129 -7.98717458100559 0 0
18.5589017101928 6.91227795546451 -19.8335732377665 0 0
157.41401178708 -21.279596316983 15.0136050332296 0 0
-237.236669941809 -23.2607203835812 -1.14513925105755 0 0
162.087902505968 -12.1704140963462 -19.4471778140771 0 0
-194.271321676283 18.6310220377828 25.4824514309225 0 0
-22.1239547010027 10.1049764143828 -1.28006657944025 0 0
135.293920885742 11.1140000893538 -19.3269099618664 0 0
-54.4793842323343 12.120710163648 -3.51662362796512 0 0
136.339603863948 -20.7572701349259 6.35599725329815 0 0
-123.528486749839 13.8906072204714 -6.97395654560755 0 0
-129.362069682116 -6.30096085812551 -6.84238486424579 0 0
-139.423243881354 7.0719770302786 -11.7289150337243 0 0
162.648368536117 7.61877839314122 26.3839641985145 0 0
124.819406237441 17.1562702162344 -12.5466470854784 0 0
-171.308893804083 16.0063874952164 -6.77282368419215 0 0
-101.067328479524 8.24200220798689 -15.7226265430292 0 0
-226.214949405838 -34.644683598987 -2.36281554274642 0 0
150.156941517203 -26.0370108398034 -5.93474407354814 0 0
169.936615711033 0.577484996730048 14.7506691344774 0 0
154.922278985881 16.3155414037518 22.3455230518695 0 0
158.842092960555 32.3479860366141 16.3117781644462 0 0
139.309701502762 2.21750761558699 -19.2021237399575 0 0
88.9777113507444 -5.45690923077013 -19.8855288400779 0 0
8.1618061430497 13.0316902868075 -8.43155849605428 0 0
27.521920748415 12.1892348662248 -1.08737417325227 0 0
-122.695922467669 14.8301604109608 -4.53426625896098 0 0
188.41572065911 29.2173564336797 26.0111362627118 0 0
-66.8971856409813 8.27207164134677 4.35184205532109 0 0
-56.529849790832 -7.64113718578392 -6.91037214317004 0 0
-49.0713400787133 0.570068799200585 5.76203514224731 0 0
-232.044907744385 -19.7980674229512 16.3350224993477 0 0
-209.553861854767 -37.400290100565 -3.84096462367752 0 0
119.342335991345 18.960605309504 -6.09947852946174 0 0
-235.783478896527 -26.1164411883689 5.34229894968206 0 0
1.59425503862317 -10.9708179588156 -12.4741209582382 0 0
-36.2206770586642 -9.38765937036669 -10.7181940051029 0 0
-179.033009338648 1.42902652943014 23.356233699774 0 0
189.771733069492 18.2583994666189 -5.36553544259363 0 0
-20.4079475414934 -5.71994333962621 -19.5316103146648 0 0
165.425704537693 -34.3375292258439 25.7864732321396 0 0
-79.8946178549682 -2.51282409343069 5.02348031169938 0 0
176.509153206302 -26.801786500925 -13.0184986543955 0 0
169.741126639825 0.308351805710003 -19.4668537231458 0 0
-175.369787832849 -10.8517877117037 -3.80920742032163 0 0
189.861440827715 -5.36828659140818 3.52944733359489 0 0
-100.198374134917 0.892415630342631 -17.1986395138723 0 0
195.722149261346 -18.0001244908732 19.1956731007007 0 0
147.763747654293 21.6494875055916 -10.3237003462125 0 0
-224.197571483547 -11.1993962880704 -17.8987419833801 0 0
88.217729753657 -5.69556020809514 2.87044443479599 0 0
-133.091193383462 -7.02620115466727 -4.92982870734148 0 0
191.305852360396 -35.2672726447022 22.5618900221131 0 0
173.822259249734 32.8842358642537 18.0347799285137 0 0
178.285372664469 -12.6555809836607 27.8276767181862 0 0
-17.0418080107655 -8.35996757139721 -8.52151441207529 0 0
5.27536741316799 -1.4831293178238 -20.9802032779305 0 0
155.39859047118 26.6462906050859 -2.04392182156768 0 0
-205.893131976278 5.76123385901619 5.6600400554898 0 0
-109.310909585233 14.8725696457183 -0.0687552884961159 0 0
182.02109127953 8.75510236348616 25.2360695584683 0 0
140.479705196094 19.645632369225 -10.7343960761093 0 0
60.9026786347921 -13.6550792525121 -13.094136866944 0 0
-174.472874385628 22.4483812057403 18.2952412758901 0 0
83.8560707798811 13.9783746364438 3.54463570260228 0 0
-192.338974484189 5.60378050382076 16.395591518417 0 0
-173.265057110442 26.7315871193012 3.20594416853859 0 0
134.850776140578 0.835971370132565 -19.0908905362824 0 0
-163.537709632741 20.3975609442275 -1.75090922252988 0 0
183.193929427197 -1.548856232687 -11.0566281931401 0 0
-104.296061817464 -3.58214545477963 5.73084136494168 0 0
-203.686006576034 -28.1841549799365 -10.9482485635622 0 0
-72.784934558217 -5.49213559355996 -1.61613825971864 0 0
129.371256688903 -9.38518953179248 -17.4659518617007 0 0
18.5148048801749 -10.2979844441491 -17.1382976461941 0 0
-66.1685103265715 11.9286511437268 -1.48464527354293 0 0
-171.14294405774 6.52815403829998 -8.61150944469539 0 0
153.27777775507 -12.2603748131016 -18.3299411561076 0 0
194.757293754283 -24.6436961128285 24.6955066424468 0 0
-46.3739372237848 -1.38184166144047 5.11748080774746 0 0
73.5842087529365 12.8715943128783 -15.2711976545953 0 0
190.834116761588 29.4270152724465 17.4835581854949 0 0
-106.267961498053 12.3482533982812 6.21254720984457 0 0
-108.125320586616 8.50992406621459 -14.9420738808293 0 0
190.794799812598 -27.7477407885924 -5.57522186457534 0 0
-200.002722035032 6.15718793570016 8.42660160461005 0 0
-31.6145165949272 -7.65274622795689 -7.66398798776204 0 0
-2.65456355995869 6.93814272981635 3.40900528486316 0 0
165.324078706128 -33.7639705994215 28.8288539057272 0 0
-116.791151196074 8.42344896745732 9.70735796312377 0 0
70.0226458749717 9.48111504903977 -18.6693267765247 0 0
158.456063301437 -32.7926681797794 -3.62582291097268 0 0
163.512353293877 33.2710983772601 7.3309140022315 0 0
192.241494220403 -18.8645437334249 26.3512778611395 0 0
-218.873468587092 2.43652751918821 -2.95907662113318 0 0
12.485007232796 -5.44160095681948 -20.279779292278 0 0
-42.0782154500658 3.28950767950132 -20.447569424886 0 0
-128.596055899336 7.8523031710642 12.4772488531343 0 0
96.6227363676091 -16.2228968372861 -9.60548879225424 0 0
-211.350760660324 -19.01644405605 -19.5685353513236 0 0
-135.196844369456 -3.45049141768063 -9.98365440936978 0 0
102.884776470626 18.2267837076708 -2.82877743830338 0 0
-237.934162086972 -20.6439345778857 0.617181647629058 0 0
-234.678947325279 -28.0497775646527 5.51716591143845 0 0
-132.555850089942 15.5276135666063 -3.76876847505704 0 0
-215.738694405573 -24.6206476341622 -18.9176389339727 0 0
38.9844776301884 -11.4223019281945 -9.19314424104023 0 0
173.140473864207 30.614788466952 23.9383166041193 0 0
36.0907141319634 13.8742377334046 -10.2796509714236 0 0
197.518341365646 -29.7386477297511 15.8131976124018 0 0
130.861077971085 20.2481230133633 -3.79103051542623 0 0
44.7802469027442 -9.64864997947434 -18.6131914788702 0 0
45.3643883570053 -5.30183975968745 -0.213403065963233 0 0
-61.390373106399 10.2461452528652 -16.3182407742907 0 0
-38.0861894540909 -8.89871859234261 -9.68988055583672 0 0
155.600661014828 31.9207692341548 12.4609693437602 0 0
-221.139824019172 1.50910193135631 -7.70416103383863 0 0
-133.256536352508 15.8109284110483 6.29564054487289 0 0
121.802993969552 19.2986171963022 -4.99829772241043 0 0
172.07647322275 34.2202786397262 7.70349502328901 0 0
-227.257045850054 -9.84577529820393 -15.8491685471036 0 0
169.750577363332 21.7583113673158 35.666541731022 0 0
-190.291078206688 -6.90959351101358 12.5092072156226 0 0
152.582261946642 13.8523749171749 -23.2289356863387 0 0
55.8744557671224 15.3050665749476 -6.35232800430129 0 0
113.82249884996 11.3092643028531 8.43494986974127 0 0
3.35264777901165 -2.44953062070245 2.24823222521429 0 0
176.052720405719 -24.5957612361305 -15.0350434391912 0 0
96.710460320951 -11.6291560477044 -0.287344531382416 0 0
162.845479913798 3.03157935764136 -19.4352788739899 0 0
-158.914106256497 -14.679876697943 5.73304584289715 0 0
-237.821199797106 -17.0855851442625 -1.75095344657101 0 0
-113.11598177834 -6.54544229945143 -9.44436048847415 0 0
107.176287661697 17.7716288494825 1.834020989075 0 0
119.491269099206 4.37951700732284 8.08152710047653 0 0
-23.993167793426 2.46757019227769 -20.744962448724 0 0
-181.002637898505 17.9265706481362 23.9662616523049 0 0
-25.2946247839777 -5.48260937781381 -3.92532203800373 0 0
-203.33209805157 -10.1974573093976 15.3422977624958 0 0
117.918176394282 18.5813585926211 3.63399763187412 0 0
187.612250041311 -5.00066405108042 -7.35766415807418 0 0
141.626021681864 0.558787262387447 -18.8083031484092 0 0
130.48316986604 18.8116064335122 -9.4355954520435 0 0
