"x" "y" "z" "f" "a"
-196.565292469017 33.6696347321482 -2.73426555750969 0 0
-158.388175995837 9.49236461015568 -15.2369637867079 0 0
58.9478764686708 2.30235099388459 -3.22714533815596 0 0
22.1196153822736 -16.579799266717 14.7804880782383 0 0
173.802672650307 33.6930963691953 -3.27353935871224 0 0
-224.560189340277 8.79820695600861 -3.731413928241 0 0
-140.767246338274 3.97499534639744 4.31352981421859 0 0
171.56876847489 18.4892201904894 16.991736820403 0 0
163.747152316678 11.5422007503686 19.1671866569366 0 0
194.145672368294 -31.4604552490868 -28.237990977292 0 0
-126.076974715783 -20.6243388293062 -13.1018206380871 0 0
212.544975711172 32.0545153444473 -0.687609661777909 0 0
3.91187824417591 7.9627431696539 8.14127444753707 0 0
-196.687050808403 5.1495809621073 -10.9283915813925 0 0
189.460254372544 -34.1520636302164 2.13198502718572 0 0
-213.691506269794 5.13711552615595 6.12226486616267 0 0
1.83122097646166 -3.32935959175254 -6.56249382473425 0 0
-150.236062868035 10.3158371132687 -20.5449370387491 0 0
-161.193795105152 8.57474903948431 -13.6620402833891 0 0
208.89423464584 5.64819357451935 -4.18816895655674 0 0
-165.108667141546 -18.6394379529014 6.02779972799725 0 0
213.701952132039 15.1218368674679 -22.4202958698487 0 0
-144.426333253295 3.99365892983289 4.39313348348132 0 0
177.354966899456 -9.92691674745217 -19.8725942507125 0 0
209.266137201602 -29.0791442638217 0.996755113565195 0 0
120.943906238193 13.9593924455138 16.6442400226522 0 0
-181.229377817978 4.65418755211376 11.0011198297253 0 0
54.2374185359747 11.1364193767949 14.5289629055485 0 0
167.471704128479 20.7119359390345 13.390580998153 0 0
-199.915399756853 -13.4366863939209 13.9300284786885 0 0
-195.740687143931 32.48739917462 -1.17446286117954 0 0
24.0850150851439 2.49476310341758 -3.85066668448283 0 0
183.953647170371 28.0462171622371 -33.0778483666297 0 0
-210.46916924476 21.4491155648589 28.7888473596371 0 0
-9.31608131199511 -8.9130105795953 -3.63889562281831 0 0
-176.551018456257 -8.1975466908773 -28.152617072471 0 0
-108.23564925674 1.51887963261504 -4.87927715079756 0 0
113.782520920631 -10.0917089678553 -4.92150273191732 0 0
182.255054608497 -31.0783694325556 -20.4920112504872 0 0
-179.619512738726 2.50556230167309 -16.1582313998753 0 0
172.71471516824 -7.99791463711492 -13.0569202888788 0 0
121.337630017939 -14.2416497253916 15.3371895347447 0 0
172.267926854045 0.922288990974297 21.6742197690786 0 0
188.031780155431 8.44566389409558 -19.9694336203302 0 0
178.238481554216 17.979042904822 -24.4877559564032 0 0
-119.773582180679 0.139799019149568 -7.88037434623953 0 0
-96.8481817542283 -13.6661176707961 -11.4992923676088 0 0
159.884856446973 9.76862550894953 -9.80056476255814 0 0
-15.8250162164221 5.68834326198801 11.2810164964693 0 0
-164.140200183119 7.00731994606509 2.93600849257039 0 0
-181.585548341532 15.738283645956 1.32113620241199 0 0
-211.527188874583 -12.6114461698153 -19.557114243727 0 0
186.52299736981 -27.7031232368281 15.0169527007694 0 0
-159.13265695633 -27.4525191608924 -2.29727252924454 0 0
41.7220530720921 -1.43261056319705 -5.51714303054381 0 0
-155.941857878474 -19.3708444194011 -20.5107219794334 0 0
-202.080994772324 -0.187488571714696 13.8967851871248 0 0
16.060091662444 -2.0964391174337 20.9176241484193 0 0
116.560559473483 4.06118704046738 22.6208071295435 0 0
198.00880518754 -34.4645470194276 -11.9451163281118 0 0
1.06600035569019 2.26520215379062 17.4189957595892 0 0
158.298430596287 5.2323484626202 20.7515258729882 0 0
184.135670394878 -35.3759058049604 -0.69924965538676 0 0
109.88525657556 -14.5473578394906 13.9415771376712 0 0
-8.6728536910249 -14.9548676683605 0.50693647885961 0 0
199.603038982895 -27.1777228816867 12.6314734283713 0 0
-195.646769066219 -18.1868610344327 13.7861292165026 0 0
134.169859105076 -14.5655335549922 16.4301893443157 0 0
194.641551273951 37.2577523921251 -20.5958158376114 0 0
-148.58440433917 -24.6202741821465 1.34261011469091 0 0
165.802291007479 17.7359077222987 -13.7420421616083 0 0
-109.184499562256 -7.46717675056684 13.4509703799579 0 0
-45.8567770502885 -13.0006861019519 18.5000424007256 0 0
176.447506448488 -30.2106584940742 5.67081514074556 0 0
174.363693137764 12.455690583275 19.0058849323592 0 0
177.574547875802 -9.04733526565782 -17.4035052264196 0 0
-230.578270496873 26.563427920689 -7.76982967974253 0 0
166.234944374141 -20.0772071585363 19.5747029493581 0 0
194.3376538897 -35.1753316416859 -10.3254056805411 0 0
205.144259224999 -12.0852045074403 -14.726003308172 0 0
-226.413269061664 13.1754586120297 -7.39528551580462 0 0
-26.0855395024104 -2.02154041922814 -6.35890587536055 0 0
167.585356736468 -3.89479311940187 24.2316171888237 0 0
196.963688738053 39.0983126340688 -12.5530694125557 0 0
164.352334306118 -24.096759280753 8.29614374038979 0 0
5.62314349560252 6.38468527097488 1.04391895222473 0 0
146.531165336848 12.5521557081265 -7.14064400990998 0 0
119.790736023562 -9.61203153426979 20.8235055690867 0 0
-201.816055301101 -33.5405993645772 -10.3830433518742 0 0
209.747910157589 32.3378312315339 -0.105661566500881 0 0
74.4420400926403 0.927442064553652 22.6964875495664 0 0
185.393796409746 28.6794665269992 10.3656844394668 0 0
171.799003905648 28.8039881103013 -16.090524485838 0 0
-208.350563447918 16.6758640805553 27.0926844477013 0 0
-231.268489070556 30.7205086092629 17.0850792734866 0 0
71.6007805366622 -12.2021517617623 17.9504979488948 0 0
-58.7342262918063 4.28958088998929 2.63045870111604 0 0
-177.905903745516 -34.4100234003101 -14.5797750398826 0 0
174.713602787973 -13.6769336022751 29.654008775866 0 0
-94.8082438629538 -11.4754293299685 -11.5084766867186 0 0
34.5004653531171 2.28359811435715 -3.99147150306002 0 0
122.640452966701 -4.26529079483073 -5.34288386930592 0 0
-212.261342391071 -19.1163527288476 -13.8975693927511 0 0
-40.8797752917762 -6.456772412819 -6.94370137265733 0 0
19.9760972713463 -11.6412267436516 -1.08281459333739 0 0
-161.552933200899 6.48814904692319 2.38007896900524 0 0
107.088266515089 -11.0241617864435 19.3601855096631 0 0
173.249948465568 -17.4175658089524 27.2026886802617 0 0
79.4030356976136 4.99531915466273 -2.6824545154024 0 0
-181.865986412264 -20.7184895551442 -28.8788376405668 0 0
-71.1614251961155 -2.96997239184191 -7.64289229309899 0 0
189.274348181632 0.286904667997288 24.425276844805 0 0
-141.957247579662 1.73534717118006 -16.5224238122331 0 0
79.0937126806159 14.1100412066535 6.32797051905297 0 0
192.301507124442 -32.8652508647884 4.06049331246725 0 0
-16.2456237930321 -14.7236841392686 -0.0862737702884576 0 0
4.85419661048407 4.98183130028083 -0.958091545626829 0 0
-137.389974707714 -9.0178317346678 10.5060771255168 0 0
-219.240279220601 15.6573704266675 25.3491409574504 0 0
-134.541299408715 3.06617424823042 5.8877370429864 0 0
-155.045922667139 -22.8326360476818 3.56208579750325 0 0
166.4617168504 28.6916215952663 -1.16958659128336 0 0
218.114865914089 28.5628301785362 -17.7649462503162 0 0
-130.610569869564 -11.3079679233147 11.1115644815378 0 0
187.070012815916 -37.2429193702872 -11.0834725219002 0 0
-185.233570787631 11.0394489776565 -9.43765010364088 0 0
178.667219148372 30.1749660391299 5.59303530276658 0 0
160.691270609861 20.6116793949639 -12.3368449578364 0 0
204.153179496748 -36.8908572621784 -14.8361383228305 0 0
-170.59614720209 -26.3617203119234 -21.4574931668513 0 0
190.157788823533 38.3299511585028 -23.6228590403819 0 0
210.601578991244 7.14517729542946 -2.56078903567178 0 0
-169.733075461804 -13.4988422551844 7.75428834740119 0 0
-234.009201341609 24.0224859785703 -0.608340968102786 0 0
-121.551287204734 -24.8832439551096 -2.37112119999798 0 0
-1.19433034558283 6.67076535918865 12.3258517246071 0 0
-214.173550094418 -24.4363899580826 -15.0194258935307 0 0
172.693849623497 -24.816535896612 15.0864852795863 0 0
-133.440529188985 3.76242003347837 3.97166445987564 0 0
3.75503909784031 2.16505216180837 17.7286575753342 0 0
165.946323262203 16.0864408105019 17.4623158441861 0 0
-147.318388245918 -20.5594739974165 -17.852051665975 0 0
-203.181441411943 -11.1059928281233 -7.15317105522297 0 0
186.391094256196 -24.0067325622186 23.0735244915177 0 0
178.420745316485 22.255404302494 -26.2287563378281 0 0
-211.947793127339 4.96494642742051 1.05776257343872 0 0
-219.790981987259 33.0244934551779 26.0203797773182 0 0
-197.278454344802 22.423292200932 -9.53424278789381 0 0
204.861711971621 7.20366457132914 -23.1443789346318 0 0
10.7116589352977 -16.6837037448013 3.17359563393124 0 0
144.384051659006 -12.5317318900385 -6.65031694918052 0 0
-151.938341536357 -0.666161574477638 7.99406269085139 0 0
165.619638483553 27.1358927564595 1.41864784593938 0 0
38.8962964035572 5.18687993104616 18.764791867871 0 0
173.108157973388 -28.838589821766 -14.8705397558253 0 0
-191.668111586133 -31.4353799429775 1.33365243291024 0 0
-177.980446242096 13.1206015519528 3.34099475675181 0 0
123.229238056226 -16.1336493368076 2.46998428939616 0 0
-95.5879638925408 2.36975758048309 9.00800762560485 0 0
166.489092380362 -0.322986418712054 -10.0946621333802 0 0
-184.552758578234 -38.0099979630873 -10.5468457064787 0 0
-227.606608362531 14.7914109608571 -7.38083010801012 0 0
-200.193025906942 34.1548160301911 -12.3464306344388 0 0
-211.706726219635 5.58454874771985 13.2871534279114 0 0
169.974714502608 13.0940876613871 -13.3815746705889 0 0
-151.196783906619 -18.6292268687181 -20.1478598209307 0 0
118.310099664643 14.5741631975076 15.9863475215031 0 0
-8.31853799685494 -11.5788744411379 -1.9719305262443 0 0
152.521616239457 5.23978965034577 21.1971288638615 0 0
47.3431307680498 -16.434702139509 12.1829354212456 0 0
-199.010066506006 -10.870280502226 13.5188530464672 0 0
200.794717015109 -10.0248416960535 -19.8493004548032 0 0
-234.502585425479 22.244482557007 3.32049891038489 0 0
-123.443745860776 -22.0059413015437 6.75917436412997 0 0
205.283459856475 -4.79131235051048 8.39225805090615 0 0
-201.184884434774 -6.12170319675464 -5.89053384854557 0 0
-187.015005704361 17.018399727291 -5.23263575514042 0 0
-80.9234097747944 4.04715901399923 6.31926878915214 0 0
24.182417228273 -14.3306880126321 17.3005834475466 0 0
206.83328781993 35.037253531094 -9.24647010565512 0 0
-211.183482909947 -17.2178789278784 -14.4440978720143 0 0
125.415620326346 15.6131083901324 -1.83642762889775 0 0
-198.539914099541 -34.2098523849086 -4.0104421302429 0 0
105.789939376237 11.9338442402628 -1.26001104277427 0 0
198.338774595439 35.7067094950588 -0.774192343673029 0 0
209.380765749996 9.56657610150455 -19.1828788347008 0 0
173.847170810331 4.16639674010229 19.1691914679566 0 0
137.15906030945 -4.94093731584632 23.2838867025474 0 0
13.481074067921 2.49847412736058 18.3912482223912 0 0
64.4442311005845 4.33559904150853 -2.55469493798107 0 0
-178.927610704485 7.09180471511479 10.3394497959034 0 0
-192.440029503922 -31.1514710937453 -21.9369601854634 0 0
197.307084790306 -13.7488251601323 -25.1636777721072 0 0
169.349498865577 11.8083070359389 -12.7136729068832 0 0
40.6027570976101 -11.6651956631408 -1.04371395063485 0 0
-165.221061711339 -23.1319460232697 -21.6370660609134 0 0
186.199011130467 -10.0991974657467 -23.4812461585415 0 0
50.6092475259711 11.6336110516302 6.52111054411943 0 0
205.40842841997 -11.1549107508221 -12.0387896852475 0 0
201.605863864927 20.3916580545929 19.6910907080563 0 0
187.143183618281 -32.0003989406366 -21.731219119728 0 0
190.06755248365 34.6286005296785 -29.5824545479679 0 0
195.891652255892 -13.8862226781743 30.6453996921961 0 0
-143.901720542313 0.0259804484985373 7.95013087718512 0 0
-54.7918347942997 -2.4525145359305 -7.28807226492513 0 0
-198.945795256321 -33.7336326118149 -11.3690537819679 0 0
-205.435741127141 -28.4293182626918 -21.1228130059869 0 0
-110.526987665247 -18.6310869721296 -11.786746393421 0 0
-207.944192115848 5.18231318278991 -5.66324808472605 0 0
-201.377421446181 -34.1991921907182 -8.68365315844938 0 0
95.6880860151048 2.86115071999528 22.7472961907638 0 0
57.2039630449049 -0.982104434794537 22.3413556720433 0 0
-224.051428597563 38.3015843102253 19.4133330560262 0 0
165.727698979257 3.91858180579239 20.664476014824 0 0
203.448667475346 36.0293419568368 -4.59450976749112 0 0
92.5971280768807 14.5624745496857 4.25087148703542 0 0
151.254776896596 5.21392019982056 -7.78422229948475 0 0
189.576493690363 9.45139491453386 -33.7795681264175 0 0
99.5563451587554 15.485144354235 5.26901614656097 0 0
184.682726536016 41.3808652383168 -10.8801579441784 0 0
45.5783946628736 -16.0421391894931 13.588073798667 0 0
-187.078765799673 -27.5912310912797 -26.1260699119441 0 0
-170.623497801723 -5.85719787927784 9.00808464123296 0 0
12.7202459904419 1.13660186332924 19.3076611137945 0 0
77.5501874737564 7.47251882011874 19.9677926130007 0 0
210.804222085719 32.6254196829018 -31.7419679379041 0 0
-183.475289215477 16.9049180642969 0.56395111341855 0 0
174.343859774111 2.08767738906189 -13.7620041775488 0 0
-145.484871307657 -0.538790598888919 -20.2033327031077 0 0
166.410342218729 7.41196879042364 19.5413467099172 0 0
4.68040084467752 -18.9948790993585 11.0104185682796 0 0
36.9503116512668 -0.630069102454516 21.5123419018295 0 0
-207.11909834117 39.4638437698575 23.2393913581867 0 0
181.877316576202 39.3581910324336 -3.50837424296393 0 0
136.09013809254 14.675545062036 16.2250631127517 0 0
-165.462139701975 -28.6032138345393 -1.50837244573641 0 0
-204.327099323598 24.5373374796894 -16.7935071697181 0 0
-152.433156731395 3.33075533275931 5.77735384179427 0 0
181.747723912503 -35.4039131707685 -1.17975970203834 0 0
166.544994096192 30.465492361009 -10.6885984203202 0 0
-210.350146571613 13.7084886706591 -13.001151164708 0 0
-204.477665851363 35.0396816894623 25.5306134386476 0 0
-184.332218861595 -6.31673687859248 -24.9888312004299 0 0
68.2242590433757 11.9865722933125 15.4366378096681 0 0
113.542711553979 -2.52641272324999 23.5106489773622 0 0
141.299402927898 20.459728698387 5.42486618525113 0 0
-192.837666056795 20.0696536498302 12.8500106181571 0 0
-71.6798871642915 -4.18885116627963 -8.42304858458923 0 0
-179.875677754101 -32.0296404335329 1.99085517303938 0 0
195.290372053795 -4.52153781197122 25.4003683030752 0 0
-213.78135309343 -22.3895133767807 -8.45826700189215 0 0
-164.526856316824 6.38824413328514 -17.5362870825563 0 0
167.088907788863 -24.3606196477515 10.7268738087876 0 0
-187.328746942291 -22.2603288490803 -29.6643554054674 0 0
156.407360933884 14.3447690743317 -9.98597236391671 0 0
-173.654852132384 -33.4640088559269 -12.7388380713068 0 0
183.395055483011 2.47291530418893 -16.6853183602092 0 0
-198.925799520613 32.3531349848596 20.3342864755056 0 0
-74.5621297459891 -14.2328274478485 -7.95945785320084 0 0
210.397616645011 -23.8750399284061 0.0744434251581289 0 0
123.612288600164 11.7806692613153 18.3595103085201 0 0
192.200945113677 -8.76222461433796 -16.6544417946058 0 0
192.421032227266 34.2399903915137 -30.7785084331512 0 0
192.654943429743 30.9447439142444 8.94203652748057 0 0
-118.231955160864 -20.6879891041859 8.48688272722534 0 0
-171.548424287233 -18.6840675769803 6.25903467661955 0 0
22.9705797498841 -5.25520929963948 -4.97809997862875 0 0
204.203917958744 -2.77740445757174 -2.35125164100926 0 0
-116.59505425471 -13.7487157339219 12.3798771645215 0 0
102.4206141785 -2.95384261647035 -5.02748435803039 0 0
-187.718314891711 -8.23677685134146 12.2082998049168 0 0
-227.451675520381 37.4550997027901 17.0298979348042 0 0
190.643459673408 -13.7911969439789 32.9067518706861 0 0
-6.04038069138265 6.84965332149357 10.2784487892058 0 0
-211.85018765212 3.86769419164458 5.71519155920924 0 0
-218.919647099495 10.9821785064369 -9.31998621580019 0 0
-145.172756964732 -19.6380399598697 -18.1150289296694 0 0
-201.87158102371 -15.354170475438 -29.83926573659 0 0
-175.436248397652 -34.0589825854663 -13.6276836865893 0 0
-142.537313122953 0.498889041669307 -18.0825754181374 0 0
166.509663160732 -21.310753483994 -11.2596933006133 0 0
204.95311319389 -20.8571181705936 -22.9210425846426 0 0
-80.9335292841079 -3.89331390207153 14.8991419036 0 0
143.063209920971 21.3009136485471 1.77833707043036 0 0
170.970232807905 -29.4746595586451 -11.2918299351896 0 0
157.840283118035 16.8009450646288 15.4910100279627 0 0
-200.647728739323 -8.87309632720198 -7.18940564588466 0 0
-218.304201533435 10.7496990277015 -6.38405780375782 0 0
-174.510883603905 -34.9309054026986 -11.2697831418531 0 0
199.216707228309 38.8970150240432 -11.243700576733 0 0
209.302315147033 -20.4221887612712 -13.428887055233 0 0
-181.658338954744 -4.26388158463138 11.0436440109047 0 0
-112.164216575959 -23.5715554652186 5.65474723779318 0 0
57.8799956682367 -12.636341032992 17.7695941379952 0 0
143.392711322025 20.5675417143534 5.90840355290793 0 0
-45.2261596116775 4.36987552170715 2.16141589550298 0 0
-212.104682559156 -28.0106156562289 -4.57773367970828 0 0
-105.748665368161 0.23947720956943 10.7409780766157 0 0
-212.880163320406 19.5033876701509 -16.6081453873126 0 0
-187.556692816734 -19.9335877819189 -30.5273638687362 0 0
9.66936196858772 2.30489977608274 -4.07284274880896 0 0
202.068009814227 16.050143593258 -37.8551611329598 0 0
-38.2054184842656 -5.76785075823936 -6.94552147637209 0 0
97.4995123489784 -6.71930071792611 -4.9704064684785 0 0
200.569797891384 -12.9356213632831 26.5188182508473 0 0
147.406825550269 17.4080107790594 -6.8229941908185 0 0
-186.084524858869 -8.29913385058675 -28.4187086409161 0 0
99.8317487637398 11.5268385276666 18.0222962546938 0 0
-193.709600226355 29.0403600585477 7.24076058781406 0 0
207.382978427327 -9.95837134536551 5.01437239247909 0 0
42.6300172513206 9.48602359458224 2.6994262849631 0 0
176.505643001235 -28.8836124753725 -21.6506292439182 0 0
-227.940515379661 13.13207421128 -5.37952606446931 0 0
-177.716207136997 -37.628405353512 -5.86469435298448 0 0
175.662525373354 19.6380792597932 -18.4220162522971 0 0
-171.275357841158 10.3815961759364 -6.35224541835817 0 0
-49.8685387559904 -19.8176432560642 0.927228632943091 0 0
-176.298204857159 -36.29876563304 -10.160312964112 0 0
-146.834572251515 4.98475595067108 -4.8046932880115 0 0
186.933863707031 38.3770993555866 -0.368681062679284 0 0
77.2872107427318 -15.9546971013962 6.63945585880283 0 0
189.238225200564 -9.35952360393875 31.3824881904587 0 0
80.7829329728012 -7.524287629454 21.5821260825453 0 0
190.775447728924 9.7434274127919 -23.7105064591257 0 0
167.183652131947 -10.2206939151659 26.1627915348228 0 0
-166.256155256474 4.9025815818712 6.84384508079566 0 0
-127.222450080014 -1.10595681947452 -10.323196615292 0 0
-131.075476034737 0.518632226743041 -9.70120209547763 0 0
-221.797040429713 40.1850908013873 -9.68579841657712 0 0
-120.334199416203 -24.947401276344 0.782192302238951 0 0
-215.224229300436 25.6460429044068 -17.2456525900769 0 0
120.415934671091 -1.24664012575545 -4.93765092104797 0 0
163.770974355867 21.4621594709728 10.8954269862177 0 0
-56.1422348144938 -18.9243187372353 14.8338599490841 0 0
16.0763164878807 -0.276163014515518 20.2953845692746 0 0
197.607730120364 -32.2919484475689 2.94143215160205 0 0
170.518277320543 -31.7959390325382 -7.95274275531505 0 0
-200.668192677562 -10.0594442080475 12.0999669878478 0 0
-202.75122032551 -8.69188100757132 -24.8719329331979 0 0
-50.0703475215556 -22.1392741657423 9.13510365750242 0 0
27.3377607924683 9.71725672525684 6.64440612463077 0 0
-110.892081444737 1.40834706937213 9.34782312964378 0 0
-103.156791606684 -4.48519247571641 -10.1138205654894 0 0
-209.967775029328 -17.7670357282901 -25.8266706401364 0 0
-215.058300357952 8.60935188145336 -0.243721590442628 0 0
111.519984284852 -11.9585704638164 18.4112268615558 0 0
175.027937202738 12.5776086520292 -15.1289677042081 0 0
-133.020229720219 -25.2105634193806 -0.712566167347093 0 0
142.836294716174 2.76218851160558 -6.6369434487443 0 0
-55.5251666622258 -22.5825985314328 5.02575794824567 0 0
-198.6659698587 5.17906638536592 15.1727206182115 0 0
-139.165010562734 4.1127831181501 -3.95277258350796 0 0
30.6455335870789 1.45004337274927 -4.73072413272699 0 0
50.1776852812182 -9.24622023873184 20.4925883838824 0 0
-0.602768930522448 -17.5037964010216 14.9861155208016 0 0
183.530188016374 -34.1884864682662 1.78400377263652 0 0
-146.594910843957 4.87358020430994 0.566047190727167 0 0
32.3922748290397 -17.6507705853299 9.34822015673386 0 0
-57.1781956061829 2.75542711243624 10.876525799761 0 0
22.5737681498458 -17.4731961940418 5.70853127788192 0 0
-196.434522532489 -9.81132208320858 -21.9303831045949 0 0
187.564889522194 -9.22850645787169 -18.7213949726384 0 0
172.383175822856 14.3305353277786 -14.6424624422859 0 0
207.053033382152 -24.9562633987902 -20.9313884224825 0 0
-151.075189528902 -0.89168559664108 -22.4003777748361 0 0
203.417061789383 -14.9144699559291 -20.5152894577349 0 0
-144.983904865549 4.57193164555694 2.46116657559363 0 0
-109.605109700644 -15.9184893734628 -12.7779291517183 0 0
210.07747287374 9.58370714391792 -15.3291827658653 0 0
213.919955612611 12.2795544339758 -10.059109596467 0 0
193.282257574477 29.6312462201092 9.61545847285796 0 0
185.890436793516 -9.82945636247032 32.2731124062567 0 0
-40.2292714853622 0.142113782361874 -4.90851055648249 0 0
16.8910510820353 7.99152862091636 2.98150994506427 0 0
-185.945681053627 -8.96204232352901 -29.4153881543129 0 0
208.336576037152 4.51076615190296 0.931090672196101 0 0
-206.456086192398 -14.0042340457979 -4.37500810794906 0 0
47.3677986608316 5.40240037739666 19.4322806510296 0 0
25.0228739388049 3.66263898538789 18.5659489980607 0 0
197.207012767743 22.1830308135162 -40.0831064731433 0 0
158.333339898748 -15.3304769868886 -9.43347965600643 0 0
45.6090560478655 -15.2914432129213 2.86158969200897 0 0
191.170625588494 -0.314285847909035 24.0911278056283 0 0
107.473884730798 -14.182462420952 14.7792932466248 0 0
208.785759979038 34.4316739613285 -19.0280832744628 0 0
-219.376710776681 18.5193174042002 26.5013225219143 0 0
196.56307192654 -22.694392161664 24.8836755125948 0 0
-28.0370222543391 -19.9854645292529 12.8025970167178 0 0
117.821284710543 16.7473858625779 2.99809624994885 0 0
186.129482460325 27.6086048970925 -36.1065518657494 0 0
-41.9602651007042 1.85370218863961 -3.04437426696707 0 0
125.88212918198 -4.06577971860276 -5.40045102171416 0 0
-116.740654250716 2.91900667683322 -2.57733921727066 0 0
200.430175683403 -21.7517781799267 24.1077311695865 0 0
100.737381327564 0.480793245646451 -4.04995194944858 0 0
216.991117180002 26.0319865910421 -22.4145517092837 0 0
116.653309079608 17.678852745338 7.19691722821337 0 0
106.398953361533 15.2483633309232 14.3208095260061 0 0
38.3249611619637 -13.990696888425 0.986307942721334 0 0
-208.691685387934 44.2173245064707 -8.56278201084318 0 0
194.583608705045 21.4083276394729 18.4334137515538 0 0
-211.756007693056 -14.3408704985788 -17.9216227119231 0 0
29.9377903955918 9.65160361473827 11.779383562652 0 0
-211.812840793501 -21.8064170270431 1.99907659900608 0 0
-164.85541445553 -5.29371760065635 -24.5876727661499 0 0
-205.099684748091 -18.7734196460584 11.3872680094493 0 0
206.183512765443 -24.8351177331214 13.3884503748282 0 0
143.737290874038 -16.601565678661 -4.94496476611439 0 0
-74.2668390349823 3.09570308153246 -1.11806759808501 0 0
-148.432983822941 4.17972972063016 -22.6001953620539 0 0
-197.147637719966 -3.98921985938024 -11.6432888244635 0 0
-173.009037900676 11.1618671069696 2.35084140655381 0 0
191.996668195788 10.4715723356535 21.8136607333902 0 0
-179.191994701505 -20.900459121619 -27.8502762227582 0 0
-150.770017840922 5.46792978365624 -3.78613155735847 0 0
-115.147058735603 -7.31565763256437 -12.5599248047231 0 0
162.099238564382 -19.5240549204342 17.5031246525276 0 0
-99.6592529647113 3.56709273840153 -0.439079816453176 0 0
148.477316316688 13.3013870050298 17.8575359109102 0 0
-151.719699166529 7.84303333244446 -23.4073457966469 0 0
218.693665355822 28.7740763309514 -11.8409621259596 0 5
-79.3154341531375 4.33130206075205 4.93480278708417 0 0
-214.342169972521 -25.0064000039176 -7.87536757844718 0 0
-199.298657699313 7.53801336975968 -10.6588305514444 0 0
-20.234399773624 4.05082843784479 -0.694731032818183 0 0
83.8586227993131 -15.6384055321737 4.96568658620513 0 0
-97.6109028786561 2.68039413810699 8.29157274236359 0 0
-38.2718591896232 -18.2378600940491 15.5364579686566 0 0
205.297103076525 -31.9338349116296 -1.04491461112427 0 0
3.7897597509216 4.08192514463385 16.0785445112867 0 0
-93.3243956212545 1.09933538018723 -5.1351845539795 0 0
-34.5166800746206 -15.508224793553 -1.24648143677161 0 0
131.281116506391 -1.59218248892112 -5.57128378967497 0 0
-83.2955621867859 -22.2800571937566 -1.07401857437151 0 0
202.920154429654 -20.8725634794254 -25.0779130605186 0 0
193.92876559804 -24.9855265505807 19.9866132468223 0 0
138.831629651306 -14.394467008995 -5.6314053323457 0 0
-156.885978352458 1.24002754253414 7.45804620817336 0 0
14.883999045 -11.7181552533934 -1.12561227219076 0 0
-162.439537203858 7.58739677305513 -5.25520196594809 0 0
31.8645132192843 -0.461719623512556 -5.66742432238086 0 0
180.8815358359 33.3207075966552 3.30978495234272 0 0
97.6624510726061 1.13149636372106 23.2201555140492 0 0
194.034260107844 24.0725329847515 15.424693559151 0 0
-225.379691572519 37.492523833624 -8.89450848134246 0 0
-127.997519805448 -23.2066865611912 4.69174343967567 0 0
-180.042014198086 -2.10599397470271 10.9018412130364 0 0
203.753320524707 18.4604103288039 19.1617198505207 0 0
110.050904567455 -3.64770023238954 -5.21210535938998 0 0
-168.491497024027 7.27857316400432 5.8512370549384 0 0
-85.7288868463748 1.24651396677058 10.9531912897368 0 0
-215.872227498273 44.6629805913092 15.3196014908394 0 0
32.9084976522575 -9.3665332029099 -2.57262229278616 0 0
183.709664740576 -37.7632622658467 -10.4157810554922 0 0
186.105548790534 -35.8886616761792 -1.66095252163787 0 0
156.99249151645 -20.7270405661176 -5.87971584054864 0 0
192.423080785465 -36.442603833197 -3.91295257213898 0 0
-69.3217046568814 -22.2143946961132 10.8282863365159 0 0
76.2941789390321 -12.6588248009655 17.35337326969 0 0
-155.18238293351 -2.19962444260541 -22.8907901667828 0 0
-233.252326203122 23.5876256988427 -2.76407735274901 0 0
-222.266319527273 43.0613722660504 6.27067188635957 0 0
-213.149167099294 46.8802994055796 -1.56397612992277 0 0
-96.4711356815597 -11.7177235138115 -11.6361281298125 0 0
-224.281596782943 33.5933677419156 -12.2621208036379 0 0
-168.369007495578 2.66218233170924 -19.5314107432892 0 0
78.1506360288753 11.6570068844825 2.06273758851877 0 0
-191.031869525891 -29.7436141472331 -23.8484020997484 0 0
93.7587843199871 -15.4894303742918 10.5044508465907 0 0
161.857682775672 -21.0814960647035 14.0503352386422 0 0
91.7074501075773 14.9006086682573 13.3182228469028 0 0
184.167583046297 38.9715182662198 -22.1632500616216 0 0
125.091740438579 16.0740713450366 14.204901012505 0 0
83.4394974146844 -6.26090067956151 22.196686436166 0 0
205.60508069065 11.4255670219454 -33.0223941172193 0 0
-208.970747566447 20.7176358502164 -16.9138840353886 0 0
-39.6563686036558 -15.7093514820922 -1.61052614022185 0 0
179.114059307111 -36.1885733568564 -3.54660362315681 0 0
168.999624818938 24.5562894962217 -15.7829299828048 0 0
169.280849422068 2.4034795109087 20.3182098123167 0 0
-36.8452980635106 -5.26320901727701 19.0125984799491 0 0
186.853299286694 -37.9806673603255 -7.66653200820904 0 0
171.019209100947 15.2561387118908 -14.3368607713515 0 0
-227.336092752123 9.49532579842391 10.8063598803416 0 0
143.682860164741 10.8632304870042 19.252817034544 0 0
79.9523610496378 13.1505187750481 15.2407988355364 0 0
35.7952054024981 -9.92560989526995 -2.20651528577708 0 0
67.9680669928949 0.921614859900218 22.4439801864802 0 0
-201.236695224226 0.688275099036368 -9.25758316463637 0 0
-183.534535275955 12.9547974848818 8.91462995134056 0 0
-208.314112195776 -17.5024274058822 -27.2402814727265 0 0
200.027287672977 28.4749045605277 9.97843901522448 0 0
-206.545033887394 36.1013074216567 25.5088110777445 0 0
188.214426128272 -10.8498815066048 32.3864509252757 0 0
169.629516156779 10.0479008715616 -12.7269265470781 0 0
-36.5292895231481 5.21893153735567 6.83149475050543 0 0
188.554404389698 38.9008479431166 -1.83080156148532 0 0
-82.8921907195917 3.85854076624968 6.78060387885545 0 0
-211.819067255978 -18.2272510460642 -24.0709357664619 0 0
198.657659081091 18.8979086025546 -39.5397540242668 0 0
-117.857858051463 2.61962123888137 7.09390552850075 0 0
-209.001949700407 -23.3208953123092 -23.1502170714554 0 0
-148.61771228921 4.03965518206847 4.39532430268231 0 0
123.414832807593 14.0201762446972 16.6291365420198 0 0
213.724192996905 23.7611558772281 -29.5047334940415 0 0
-230.558502471149 14.4384798148133 -2.09629938181784 0 0
79.743912689028 -5.87735090787678 22.2978127252299 0 0
67.7273522334752 -5.75823968505882 22.1911521327283 0 0
-203.567164678794 -10.8564356412694 -28.0870353074154 0 0
-144.614919593193 6.96986966289118 -14.7930419816928 0 0
13.1292406476553 0.0404271811106722 -5.85918124671216 0 0
-67.2272636044751 -22.578245841207 10.1284672090567 0 0
123.099848409241 -0.845710291077094 -5.05055923981399 0 0
-213.309732542809 5.31182427436075 12.9360770666152 0 0
-208.415280060856 -9.90406093292236 -0.607840773870919 0 0
-4.13487326599536 -6.67652089173563 20.8025328287297 0 0
211.034817906028 33.944920503047 -17.0670600472053 0 0
11.5982822816737 -5.36019056880516 21.1254982714267 0 0
13.7869754939313 -9.99006328653611 20.1419366876478 0 0
-186.897067497929 -34.7763539143083 -0.129456979831672 0 0
166.956608789952 23.2228392829304 9.58590468588106 0 0
214.379237793128 21.8657133435971 -27.6781126408051 0 0
-184.391859240215 9.49545596270307 -10.4473999233038 0 0
-214.816286244052 6.78326818422831 1.62635852897464 0 0
148.081038677819 -19.1644786335946 -3.29801847572525 0 0
-156.787278247528 6.10947944897447 -23.4586636694269 0 0
201.923411125877 28.0773990886868 9.69442287055164 0 0
-177.649448251478 11.2048072766022 -8.93668162332028 0 0
-132.313398903404 -8.93094019799145 11.0556032493599 0 0
-88.3298641160632 -21.9747447982149 -2.80248276116334 0 0
191.776085617374 9.51569426346549 -22.1289210098403 0 0
-197.276295066519 -35.2787765186623 -5.05396882592892 0 0
-231.155827575847 36.8640407792665 -0.371762055718838 0 0
-59.3964173184141 4.07055771408467 7.88992942401743 0 0
-160.949739342761 2.18778056441759 -23.4932679042869 0 0
160.060487497876 11.7675855148135 19.1128174322116 0 0
51.5637229277586 -16.6688481843485 8.56647679197738 0 0
-94.4679264086418 4.06175539595467 2.31946800410433 0 0
-216.494157585199 44.6807437274491 -7.68120328489619 0 0
-72.8916554024749 -22.5246327612066 10.143645283661 0 0
171.514367224632 -31.6788051470731 -3.76561927708124 0 0
-149.879145280072 -1.66762502882089 8.31676662974305 0 0
23.1733607230781 0.363843135269825 20.4479048407079 0 0
-217.563976586578 20.3467458768398 -16.0861187028017 0 0
160.496431158378 24.485639957808 3.43301115003757 0 0
11.2455493842369 1.26841974984846 -5.13522721114932 0 0
-196.198205747596 5.84667530555694 14.3548473760916 0 0
164.134667924411 -6.6491476356658 24.6392899800125 0 0
-2.25020739078867 -0.824857156295887 -6.189402751269 0 0
-139.283112485591 -4.86017792455462 -16.7216636798737 0 0
15.0971285768846 -7.38753172217258 20.9236658042108 0 0
-179.94079919991 -7.43051517241538 -28.245817672165 0 0
-31.3212142174258 5.49953701709981 6.99387303914197 0 0
-151.672991923694 8.78512465999168 -10.6524316112735 0 0
-210.486529373842 -29.2373597022462 -11.6889088751275 0 0
-13.3761525706272 -17.5061797021902 15.5866372039815 0 0
178.891214913875 39.8039003221391 -14.1175299606303 0 0
24.5872306782319 -17.7533199380628 11.757241903635 0 0
-161.402201071264 -5.77226839934785 -23.9577115183313 0 0
-27.2557791349748 -1.71362399798556 17.922770065455 0 0
-137.634157848891 -3.09045005760858 -15.4219988870777 0 0
-74.738523090222 -18.6734484875745 14.2305152659293 0 0
-93.2870499279033 -0.563534127181577 -7.01824918403151 0 0
131.777283633896 -6.50405555686733 22.8389184305899 0 0
70.289723399314 -7.34835922195903 -3.82664623363467 0 0
197.844585990155 22.0678471166833 19.8355042282016 0 0
96.7123713674142 -1.83663213254123 -4.65633462249527 0 0
208.988420025855 -17.5995827834149 -7.87194957976324 0 0
97.1029582482755 10.7719851779061 -1.00472080990174 0 0
192.417328276297 8.80536285060721 -18.7895440260024 0 0
-210.42961931661 -14.1444195038872 0.951367470234925 0 0
-195.102483333836 24.5392966875947 -5.48761701492751 0 0
194.668467544099 9.46729328580404 -23.8699723404549 0 0
194.954598823329 -13.9055436569371 -26.1279277414398 0 0
203.982000570216 27.6450455407826 9.98686299334798 0 0
199.638640455793 32.5988470886973 -37.0394951349093 0 0
108.867347333863 16.8804327645225 9.95266134526421 0 0
0.636234385785463 1.93962276926725 -4.12755026585408 0 0
-219.755131340079 10.1682210924549 -6.01138148660502 0 0
-193.545155679822 -15.6596088849376 13.8660249663741 0 0
212.901875922014 13.2362571864212 -20.126909089067 0 0
-200.660719624861 28.4973330635828 24.9307151240728 0 0
-194.155780037967 15.1576207804648 14.9031495557934 0 0
-167.136555181569 -25.3421924360183 2.13152824231915 0 0
178.171943944779 32.9002644676389 -21.2619520718309 0 0
185.120986020867 10.9171106717111 -24.9619392526007 0 0
-148.81617742842 5.22156949573748 -4.19527604717337 0 0
-231.350449066942 24.444481255676 17.6839203019891 0 0
187.341365587395 -6.52357866281122 -15.6319410368817 0 0
-61.6919853616959 -22.0290235836407 2.38190665667438 0 0
-70.596540589919 4.46424573991973 3.81476234683024 0 0
-79.0558153552938 -23.5007379224359 3.37790638808068 0 0
175.093069040258 10.4103193490862 19.0023884648017 0 0
-77.4047045933836 -1.39905759948695 -6.98756690341959 0 0
71.0103438676126 13.7212786603549 8.88225430730222 0 0
194.646114973008 15.5342146325018 22.3414974669597 0 0
205.585009510272 -6.8540652279147 -1.57495486179762 0 0
185.151783320918 38.4004081795039 -0.284481487440003 0 0
-86.5012128049443 -22.9243628968071 -0.274976524119476 0 0
43.0428519867438 2.8354794456527 20.5561964801208 0 0
166.394440541019 27.8500425589869 -13.2838459816483 0 0
-214.413004513048 10.8489148656057 -5.04212485500518 0 0
-182.082171183193 -37.9935530610502 -3.07065088583297 0 0
175.829091754356 35.6889942056918 -5.58465352618712 0 0
38.9842283898998 -16.4478361144696 13.5545337603149 0 0
-147.419684200543 -11.0305988718264 -19.7349518759071 0 0
-185.027553455778 -34.831255566665 -15.2316247782144 0 0
51.1400822866144 10.6969709734486 14.8310195777545 0 0
93.6828956950306 6.2280562845494 -3.06477516953951 0 0
37.3775683854268 10.1843791151212 12.6507688691887 0 0
162.080089611726 4.96456291931386 -9.43369062756014 0 0
83.5030372730571 8.92520570251819 -0.889906134018872 0 0
170.718536391796 31.4029229100795 -3.00380381610636 0 0
-36.1921370573117 -2.32680806440908 -6.65872789076538 0 0
217.130061310172 28.8011418765304 -1.45211314107404 0 0
184.415256664214 28.0790986600737 -29.2470685031165 0 0
-147.263603212193 6.63453068065331 -9.25105033753388 0 0
124.624739519028 -14.8205873253802 -2.23079462142363 0 0
-121.335293569529 -21.1591571108666 7.78208059018959 0 0
-172.320226993205 8.14280018532294 -12.1361763582688 0 0
-214.699295266174 10.8088008625572 23.6054687003149 0 0
189.768311780436 2.2992113687624 -14.2125564974739 0 0
153.088694325283 -20.0216390060368 -4.66327282291609 0 0
-195.290682831455 27.3552189506009 -4.05952325494435 0 0
-157.133762512016 -7.48542121717198 8.75085287903397 0 0
-195.225836240479 34.2126647565227 1.20906811419754 0 0
-155.807415540419 7.95677974566808 -10.6344235629915 0 0
-74.6331649504466 -1.48268615658629 -7.01425022644392 0 0
180.474312226953 -31.7385397070101 -19.1410770090802 0 0
-69.8399041499443 0.893394817223447 12.1155577113178 0 0
-150.100265939158 -4.06126617618724 9.03209902951845 0 0
-210.105339859797 -25.7490590657524 0.0359338418775745 0 0
59.2781086726432 -14.9364917262254 2.49950274655893 0 0
-188.653438774359 -29.1539331543426 -24.5057825272639 0 0
186.330367727624 35.7657425947762 3.04730093542157 0 0
-91.5653400171609 3.90076198577943 0.911728481372168 0 0
170.874830774211 -31.7727024912754 -5.8139592434356 0 0
176.468295468457 14.1885955297905 -17.4240398593512 0 0
-164.040248605334 -22.3775718122199 4.05975991387593 0 0
110.604206645092 -14.3166608685796 -0.838302363904041 0 0
-204.699739657386 -18.4750366691508 -29.6696458569358 0 0
121.142349099757 4.6242061247702 -4.68223372674637 0 0
-94.6434963827615 -17.577322716357 13.3457279827831 0 0
9.62649069858499 8.49348669362991 7.8209483749516 0 0
-194.76687379236 7.53282104885625 13.5636974626731 0 0
178.827805742032 -30.9465335565999 -20.2116910655503 0 0
88.3645083950515 6.4463932034838 20.9919334674032 0 0
-161.080051113429 -8.52745068765844 -23.8687674719445 0 0
-52.6578649701025 -15.2046157319941 -3.69397048067397 0 0
187.126556525617 10.6771693886492 -24.5612703300257 0 0
153.897544284064 -8.36631496243824 23.6422622186398 0 0
-179.145441684251 -10.3189212858014 9.79713987365157 0 0
177.498588297528 18.7933799668352 17.9607969136087 0 0
191.973060472529 10.4962321743196 -35.7496607841675 0 0
166.185785846417 23.7214601304442 8.16115465368127 0 0
-210.654444497545 28.4853636562779 -17.4878167434771 0 0
176.233672955565 -11.623113161468 29.9665605075627 0 0
183.218503677982 -30.6765369462916 8.81051894127485 0 0
175.647974341642 -7.50375324820703 28.1828744481247 0 0
178.775293417581 -0.766510920773669 25.2991863354624 0 0
-231.278695368988 35.2340012867226 -2.4066348606773 0 0
206.453946067936 6.40343654464654 10.383085719152 0 0
163.768979534719 4.85844416024052 20.5489986187053 0 0
-32.2399184524664 -16.6824256279152 0.0541957091839644 0 0
216.2910625167 28.1248094093455 -24.5168740229811 0 0
187.33567113846 -37.713107691608 -9.2375934784448 0 0
182.373781993655 -37.1534111063627 -9.45427783768908 0 0
-220.96332318152 40.6469042175513 19.5196006053584 0 0
36.2836694827168 -5.61612809370359 21.6609852013932 0 0
-139.662080211889 3.17433446775091 -10.4235132021403 0 0
-193.149622553709 27.5143809588731 2.39981351336815 0 0
-202.223108924779 32.9093152031521 -14.8118542842226 0 0
206.355056902 -14.2772160478284 -13.3675982169662 0 0
83.5939861795439 -3.48707427933743 23.0055008837088 0 0
170.114567055934 21.664456609455 13.2152156619764 0 0
102.518432786787 15.8147815272266 5.43706355583318 0 0
-110.462160554978 -0.604259748553385 -8.0596802237478 0 0
208.199507033661 34.6784214223867 -15.315218477471 0 0
-121.128863241562 -7.22871593203343 -13.2006946253864 0 0
202.206419139878 24.4345981635271 -39.2788651908893 0 0
-154.407187529559 -4.02840904749216 -22.4851874072937 0 0
5.89985074566132 6.95198106062206 12.8993493072094 0 0
158.474181686544 -6.83925170624381 24.1192598825597 0 0
-209.77102273975 33.207781867626 27.4419243606645 0 0
-11.252042571948 3.27051075779509 -2.20532709321175 0 0
-167.825632158785 7.38413061646511 -13.7219382186116 0 0
-206.70051785876 8.32780000237435 -8.53511819791913 0 0
78.4199136824563 13.8269000926197 13.554334148308 0 0
196.452880194138 6.50370209429474 -29.5880250455829 0 0
176.098617894696 11.2205490094306 -16.3472336812719 0 0
171.127122731186 9.92677853771967 -13.3360287514455 0 0
-181.586547879861 10.9746144855206 9.40305875993684 0 0
80.9828207996053 -9.51555355982634 20.3439082888829 0 0
72.6387099858368 13.4880785170048 6.46809111024666 0 0
-190.222721946891 -35.6752087639944 -4.74977041052816 0 0
193.891328422978 20.9501054450963 22.3496932026456 0 0
171.168556092363 -26.1202622413649 -14.6037922091207 0 0
168.08046516729 16.207142465983 -13.9312919518245 0 0
25.2909944024683 7.82468059367401 1.77289147692351 0 0
-201.808456541657 30.6192315635313 -15.3357872046326 0 0
-194.422246356592 -7.78624953437911 -23.2843602616055 0 0
-22.6944164751921 6.0327745476168 7.50536189923465 0 0
-180.525812962199 -35.1898632017859 -13.7566292109017 0 0
172.050926196738 -0.0420262664055045 -11.9927049129776 0 0
68.5273504891175 -13.5965137550859 16.254193195435 0 0
8.78974375411737 -9.85187679467297 -2.55724749554453 0 0
194.050272653433 31.4769343729255 7.37522381488513 0 0
-227.75537004733 38.0633565583759 -5.92127207332755 0 0
-98.0377178034165 3.98118509904066 3.62825878358493 0 0
-119.682290725756 -23.3409752913898 -7.35138174249912 0 0
188.715026099059 -26.6543602154891 16.9891361783694 0 0
153.019441693393 13.070920426578 18.2301527059942 0 0
114.815623248452 -14.0817004989623 -1.7325870938347 0 0
-175.071531894165 5.99919400481756 -14.0914874469646 0 0
-234.296401475908 25.8226926282218 0.341009826557905 0 0
-127.747629193923 -18.8754351189353 -14.4452806514811 0 0
175.118862841815 15.326704534629 -16.6308069379689 0 0
-108.134551102341 2.61235466806746 7.90327387791563 0 0
138.772539957747 -16.2694106727098 13.315860838246 0 0
-42.3301744759206 4.4981055023731 8.95197811520296 0 0
-39.6701700359867 -20.9518267722551 4.33101108257379 0 0
47.5626754995892 -15.4949107628294 14.4354508489073 0 0
-185.342639081262 -0.313690997391704 11.9693835731979 0 0
-91.8442694835556 -4.54343312757247 14.2328815485674 0 0
188.724493707974 -25.5372211869858 19.7809394424385 0 0
-157.407028500893 1.0553816252114 -23.731734805648 0 0
202.768108443564 10.4006579324329 -34.0954011908724 0 0
159.47058359609 23.2781607482777 5.42891557361808 0 0
-55.9295814122278 -20.9897899507566 1.52712039535577 0 0
25.1515994163803 -17.1768140498176 5.26394429064943 0 0
-81.6819523751329 2.1129513083964 10.1051689740324 0 0
162.055550192682 12.9890770271667 -11.1079793725588 0 0
-10.1057981135574 -12.1749387841228 -1.62859314622078 0 0
168.950935777666 25.1557257753839 7.2885602535379 0 0
-195.807583066595 38.7056635963616 0.551311452241704 0 0
-232.978983599619 29.9291369702441 13.8254235104664 0 0
124.346762640297 -16.3562098723033 6.71735035952022 0 0
-67.3489611552253 -17.7606225721546 -4.26748501714899 0 0
-228.386917829212 17.9369307842139 19.5950903924673 0 0
-171.472656133761 -23.537313252438 3.82124293461016 0 0
117.871547835393 11.9852063500905 -3.53472517933536 0 0
-165.971915579489 -30.8848314089516 -8.71800767913216 0 0
-230.38902837059 38.4288445120854 9.92278804823972 0 0
189.541723882543 12.0468855408203 -36.3371552911115 0 0
-84.4677237285142 4.20663238784979 2.54038238323354 0 0
-76.8409859591962 -14.494100834415 16.2824410679205 0 0
110.867379437777 8.43968163213822 -3.72238387642775 0 0
179.474284005611 -22.6424462833754 24.2461848773979 0 0
-207.425477391018 -5.96118377356284 6.12158325449914 0 0
201.685268295098 35.983630981219 -3.06422620461627 0 0
-140.261557379574 2.05379657381643 6.95965159998888 0 0
-191.950807990268 25.6240891141427 3.72834420572188 0 0
-90.9810874393669 -1.66051991289231 -7.86319914195734 0 0
218.250603137822 25.4621274299057 -17.1399425146494 0 0
-182.857942300201 -35.6467609242468 -13.3892782269647 0 0
181.098843196886 7.97158686433204 -19.2463605908957 0 0
-158.543847192122 6.93334785894715 -7.28359140746474 0 0
194.026870862783 32.13386936927 -36.9990593591962 0 0
88.7593428003709 -13.10304539426 -0.954498758707985 0 0
-229.593722680271 39.3754809346198 -0.25302727819854 0 0
-180.980507964814 6.97769228722346 10.842925345452 0 0
-57.7605942301302 -7.69653037344808 -7.77973076200931 0 0
-223.596006092118 39.8217625110989 17.7718742141192 0 0
-110.432783191928 -23.8724978411013 5.27913497850809 0 0
188.407899576716 38.4790931995224 -24.2604532585977 0 0
185.317030902132 41.5698142390373 -15.5531134780428 0 0
200.109971995445 36.7123576593669 -19.7518416587799 0 0
-140.317248762439 -22.3577317204591 4.72835936466905 0 0
-128.284492153494 3.86865358036453 0.538390990084339 0 0
185.596642061971 -17.5858596512536 33.0701560185638 0 0
-195.695097700637 -29.9707390569219 -23.9339763702804 0 0
-161.578442856283 -0.946938779574011 8.38146608028137 0 0
124.530466544634 16.2608732398487 -0.299748872828215 0 0
1.94925116014179 -0.405889207439263 19.3961744650856 0 0
-87.8275585675753 -18.7080916716725 -7.54764656498554 0 0
-184.119026942901 -23.2092830898247 5.85311125845621 0 0
-184.095048297752 7.1420653372577 11.3510767537116 0 0
-187.705709656252 -3.22212623479331 -18.15214294929 0 0
176.376783483176 6.16772783191388 -15.4400066950487 0 0
-170.930145147672 -31.7992465787387 -2.64502041168436 0 0
-207.596326218031 -14.2847399624536 -3.48348862193316 0 0
189.163282245468 9.40185277849543 22.1247934813584 0 0
-208.352417125379 37.9531687997401 24.6246047922605 0 0
197.628409408897 33.3203687735093 -35.2191620969356 0 0
204.980053586659 -30.9859571409436 0.791242825991461 0 0
-209.16023139917 8.25108554858938 -6.74485079645175 0 0
-63.2264035561979 -20.8725527474774 0.123927717166054 0 0
-151.640102246683 -20.2229798067258 5.57766045967751 0 0
156.487404464733 7.28844192499675 -8.61760874812339 0 0
-122.915445397749 2.5483078899819 6.84071656133795 0 0
-166.440628616498 6.6140640393134 5.18325048895816 0 0
126.783865115221 -14.2425705719281 -3.70314840307526 0 0
44.6318413997197 -8.62263834899362 -3.01715494923438 0 0
126.578963870895 18.4556527156355 8.04696300985743 0 0
176.042883112111 -9.06109916452771 -15.8742728184507 0 0
178.499582380406 15.8963212623342 -23.8485939036077 0 0
195.170346400291 21.2173041263241 -40.0476732308606 0 0
99.7041000776825 -0.482550053076277 23.4477837385002 0 0
43.055541815487 -10.2401306202989 -2.06219900417322 0 0
88.2959561160394 3.04071144334254 22.5224548723347 0 0
206.142549817776 -7.09604215504838 7.34199854831513 0 0
114.269340988347 15.8126885447538 13.9974495655618 0 0
191.877574065886 7.1598777474624 -29.9896400315913 0 0
207.989645683051 33.7330540425127 -4.68079160947524 0 0
186.363339092921 5.30471234080898 -17.3409638011424 0 0
142.365176805309 21.2768238220998 -0.849449998274876 0 0
-7.64095473478469 -0.172127806088301 18.4835065413674 0 0
-182.314853070714 -38.3912404553804 -5.50307332294683 0 0
-208.683256217377 3.63121321958597 -1.64734639187626 0 0
-223.970850945032 7.614603908888 13.2992046204744 0 0
-202.386628593966 -28.2295057591266 -24.4398831437412 0 0
30.7023840594008 -12.8295325641723 -0.112862707177707 0 0
56.8321452395284 0.860873528493329 -3.8901780423251 0 0
146.926149219313 -9.24441658750543 -6.93390381632666 0 0
152.078916736388 20.2513031693443 9.07733505543858 0 0
209.66516426599 -18.0157080259613 -0.282827217649406 0 0
-199.597560728501 41.3372179049541 -7.34327948074948 0 0
148.444006118913 7.08054254485809 20.7901147172146 0 0
199.283321674855 30.4951042548777 7.65702955749272 0 0
197.565302452177 7.71083742035668 -32.291039496535 0 0
-104.539326626649 2.96044083199265 7.32587351349298 0 0
81.2639554073696 -15.618481815707 4.73858387315443 0 0
-4.21739530624223 -19.562180062587 9.03329312997638 0 0
15.0108724139268 3.288659666311 17.9102170847588 0 0
177.882036068786 14.0569743545115 -19.3799343459339 0 0
175.271102759203 -32.7065442744923 0.734095163600077 0 0
-198.228532713163 42.9650204709889 12.2926346432409 0 0
8.88514950098924 -6.80744272405925 20.9841770149571 0 0
-81.4777934905379 -2.65458901459808 -8.2507884567247 0 0
-8.54913221884669 6.26435841008659 11.6344690007915 0 0
-163.54131078346 -24.8661479885388 -18.9382957829857 0 0
-219.331807238349 23.3901881344914 -16.1026387666173 0 0
196.317255300478 -28.1674482234754 11.7738655802949 0 0
198.521158566211 -3.60398945680694 21.4853891201208 0 0
108.128669232554 16.8071840848667 7.07783471680126 0 0
31.1328709108186 9.3201987850501 13.1810161851949 0 0
-6.80834320185626 -17.735222939724 14.9910135884426 0 0
