"x" "y" "z" "f" "a"
135.958091558899 17.8821216390999 6.27025589138007 0 0
197.68214835829 -37.793947276992 15.5641165178176 0 0
185.124591022195 25.7266765451506 33.0191411749506 0 0
-72.9058446819544 2.1758642519416 1.46305772777721 0 0
160.21872172778 27.3193857845828 17.5393120769001 0 0
-154.068720065411 -14.0931426581738 1.35017679177821 0 0
205.120941419072 -28.1134086011365 6.06224750240252 0 0
-63.2743614531905 7.68484101816563 3.50546644775268 0 0
192.412111630511 -25.3942068891089 -11.7084708544426 0 0
199.095875998662 -7.63388563964732 0.954957574833406 0 0
194.176352608268 29.1507260402541 2.6536841794141 0 0
-62.2381651384722 14.6678882534961 2.91838980931987 0 0
-195.035784941375 -4.02406856807332 -14.8562392558782 0 0
167.067630262412 22.1549136845521 31.0995183733489 0 0
-116.98528500227 -3.43760375426343 5.69637209057856 0 0
168.524783880847 -30.977796642253 27.4147717445922 0 0
184.10282998982 33.5870712022944 17.7801189707698 0 0
145.725210923146 -19.3638960613141 8.86118243188213 0 0
120.845551650909 -8.01563133086352 -19.1833195271952 0 0
-186.639844255522 -20.2107709493153 -22.8027237754577 0 0
38.5277877099179 6.72803215833903 0.205331388629391 0 0
151.37904211324 2.61785532605166 10.3696055936656 0 0
189.758784908084 29.8929562019443 29.6810947345372 0 0
-187.861661453297 -39.2627235750411 -21.1649073812244 0 0
187.750268324542 -11.0226274140639 13.4682726549469 0 0
121.434894496601 -8.42358766941566 1.99838605603655 0 0
-201.569115990072 27.8365803096188 13.3651129477886 0 0
171.538939538781 -7.65938302811077 -20.9815423920774 0 0
-47.8479670726306 1.60872830043837 -0.520302502284929 0 0
-31.3860370519353 3.6284707975977 -22.346773153318 0 0
189.847995392313 28.2157784508664 -6.8178432781076 0 0
-180.445573490586 7.17487422818403 -12.0354421277456 0 0
-148.552557176119 -19.1800491093846 3.59588536989434 0 0
118.584826623189 -17.070864198318 -4.56141670741606 0 0
84.575525234487 1.70241565717326 -22.8066614674361 0 0
-204.164681786407 -47.5309489747108 3.32256941400551 0 0
148.862087756392 -24.945786071909 -9.37117580506484 0 0
-197.868715907427 6.184305335697 21.746816026562 0 0
158.080110800819 27.8305758515803 3.88463768550095 0 0
-34.0555287312806 18.7505907310163 -20.8207008271884 0 0
-218.652812221224 -25.0931168519816 3.76272140719218 0 0
-162.047960927589 3.71538826027689 -11.8486992498644 0 0
174.120826406034 14.0284993195499 30.7017779750186 0 0
203.557995372235 -25.3961274137319 -4.77118123249886 0 0
-74.5121261409832 14.4255315214772 4.84291492810385 0 0
159.780646838087 28.2133905967924 1.88302117088101 0 0
126.119984298098 -19.8704131489136 -10.7376688152808 0 0
-128.024484108724 13.7028420739131 14.4091943982782 0 0
9.38875880820963 -4.56205364340859 -10.2316612715838 0 0
198.443424720968 24.5153522369405 7.93847603219876 0 0
-191.770291092669 12.0931010311656 16.5481802779134 0 0
-127.048601406694 8.09004383851823 14.775857129849 0 0
165.564367593182 -22.3894775478455 24.6563316111958 0 0
159.110369727639 -8.85185574078583 -19.7022045392248 0 0
2.67601955962902 2.8338324070388 0.315082974913217 0 0
-86.8179054564953 11.9114104180995 7.2605504889233 0 0
-170.63087083994 -0.386516689827106 16.2407596727392 0 0
69.8362146623231 17.9645830213864 -5.59294202337646 0 0
-60.6302068897318 18.1739535233536 -19.404101817989 0 0
188.528630034024 -31.8965606065506 -6.24357396915797 0 0
127.554683731367 13.5464532060263 -21.4248929210922 0 0
-140.52896384851 4.38118687269538 18.9551507895213 0 0
107.710337232757 10.37531261061 3.69069572990887 0 0
-212.043157305924 -35.0326637766481 -19.6380036691382 0 0
129.708303107302 8.28814517292951 -22.5622454373385 0 0
-200.235554379512 17.0745433030309 23.6187004605945 0 0
69.2822961805789 9.18824002427275 0.0364736732507469 0 0
170.866686414693 13.30461623501 -24.5736379243638 0 0
-216.911048234932 -38.7286498614873 -1.43930006318232 0 0
-187.29468433593 24.1221763308127 25.6136942997652 0 0
177.390390882724 -39.1334602076862 27.0931859046338 0 0
164.249472672804 -19.425954506339 18.8708397768902 0 0
168.846820129671 16.5999233556685 -25.9618511088576 0 0
152.32718751161 3.73615500197674 10.8108394821473 0 0
178.192485715578 3.77412899197782 -20.9927075136095 0 0
203.979371518764 -21.4892838207685 12.5474238903654 0 0
149.125189891295 22.8852103232962 -4.70804478047378 0 0
-186.227997763211 9.76901365461141 -10.5644832689422 0 0
-201.719385865148 8.91926681752982 23.5624937388374 0 0
195.862855638648 9.17881181795832 0.190457426831123 0 0
187.556831702617 6.86034577817928 13.8773555373855 0 0
121.505472075045 -14.1917295519411 -0.125415469797688 0 0
-91.9496248736748 18.1372142005195 5.42485528696276 0 0
148.963239987776 19.7333203258129 -17.9098583701123 0 0
-107.560146495918 24.644638884037 -3.33436062787499 0 0
0.555775500472375 -4.399293896613 -11.0248328776777 0 0
-73.7416522146486 15.7888867410492 3.72810938082976 0 0
70.340956378912 8.80139779334167 -24.1587475875319 0 0
194.559334008871 25.5131536380384 -8.17620894253372 0 0
-83.4074301510204 0.669840381808704 1.56860794528266 0 0
-209.719467856194 -15.8542763641717 -19.764269561695 0 0
82.8019955259337 -4.67444785595082 -1.45588275863485 0 0
200.088903985213 -17.4068767702294 22.4712584816222 0 0
181.627864639352 31.6734054471897 -2.17150662553377 0 0
161.200790579615 -2.15725784284901 12.7734938082023 0 0
-75.961912433714 15.2113971674088 3.69903367163056 0 0
129.470820840109 -3.98857262187255 4.76901285143392 0 0
132.666501085002 -12.7936716298984 4.02556181983643 0 0
144.316291598331 -14.3649783589249 -16.5847378916207 0 0
47.7580265649155 0.411063569223859 -0.813129302610132 0 0
61.8393188145913 0.41040522172478 -1.03567714706659 0 0
-39.2215642429469 4.25590971153432 1.85681164657943 0 0
175.51087085597 16.6842432255583 -25.4926545629955 0 0
178.489930131462 -33.6724645301063 33.3890257119146 0 0
132.02879357919 -21.8506438632666 -4.2159246808558 0 0
104.8385594101 18.8203610398251 -15.5993750883909 0 0
-131.881327578866 -6.18506400066751 -1.90098069487586 0 0
189.838157338475 1.41551669265419 9.02652426131067 0 0
189.744659674088 34.847961742251 16.0866876749971 0 0
-204.873707457664 -19.2851548850316 -24.0967688432252 0 0
75.4422214971698 -2.41292030874309 -21.614231463277 0 0
47.2324989342225 6.89156847507999 0.0116185114293217 0 0
154.074542120558 13.7355701703775 14.7135158281904 0 0
118.036476599595 -15.0891697592866 -15.688206240652 0 0
-11.807747577873 2.1568990291352 -22.5107302899456 0 0
-178.472249495699 2.56054389505456 -12.2073042944083 0 0
-158.435360884615 9.8753032162359 25.0227916235208 0 0
-57.9329725990938 -2.16710375879302 -6.29961163526628 0 0
-131.909990068826 5.6390232149886 15.8408173418914 0 0
187.135476769435 -33.9760720523695 -4.66432477008679 0 0
50.2355577416475 -3.63752385783396 -5.47505662888321 0 0
-142.517974878766 -12.339293116388 2.77539170163812 0 0
42.3374299400033 4.46501085068235 -24.0846092255838 0 0
-191.096580226203 12.5223057872081 7.11091118938027 0 0
161.026419282682 -26.8664969533755 15.4486820094611 0 0
-182.791972802989 -31.4256721976346 12.6429161131837 0 0
188.889723233558 -3.45174020189305 -17.263885663 0 0
-174.063612400023 -16.2466970033585 7.63984096083718 0 0
173.250228631902 18.5541535537452 33.0835646949235 0 0
-217.766637143054 -22.3403139600155 4.92900986391946 0 0
-185.99469350611 -8.09116413611927 10.5363229144165 0 0
108.07661881941 3.86630509452944 4.07674127238427 0 0
26.7956597080866 20.9827683919271 -16.8404096873051 0 0
68.5771370090452 -9.65526966032727 -8.49945930062162 0 0
-47.6307050580774 10.1981718624705 -23.2453953577624 0 0
17.9801822477234 -6.04087082749649 -13.2705670829646 0 0
-152.320666559002 2.28673307448237 -12.9311820157139 0 0
-2.44239398625322 21.6722271043368 -17.4361713277642 0 0
204.09202991213 -19.0495103008532 -1.00899928784062 0 0
13.3073024071336 20.2877277931209 -19.6773545661281 0 0
-160.730406320132 28.7944418894138 19.5168812475154 0 0
155.723626980915 26.0857662051295 1.63504287940899 0 0
-102.238629476695 -2.95654131505488 -6.99666267943775 0 0
-197.453849569967 -50.0122480855671 -1.04485520014639 0 0
-190.080875857557 11.2706139588372 -7.79912151859863 0 0
-154.491417774259 -19.2755477693884 11.5960926295999 0 0
-16.3109907969 22.3669511262039 -11.5011925789342 0 0
191.445756177484 -13.8815687991191 15.2251439834656 0 0
-154.825049503017 -9.80262964036848 -4.89914012345339 0 0
-195.276210198867 20.3039894614958 -2.29038440916675 0 0
-132.628790954166 7.30961626532165 16.1256182115011 0 0
-177.63248688965 -29.5640178867039 -4.74926954242967 0 0
-196.164288139875 -11.5128749290634 9.7442828077955 0 0
188.077119825107 14.9358879394321 -18.6385197000709 0 0
-175.031106416303 -1.16863643660136 13.4991178530248 0 0
161.56213898778 30.9250568739483 8.51358139274007 0 0
195.342807599765 11.7945629183658 -5.8103465877886 0 0
202.390420203953 -33.7310793987439 8.31323834900957 0 0
-118.169337151926 -1.92271461902017 -8.89233978521874 0 0
191.645205793184 19.3203618776725 -15.0825441262577 0 0
-211.385371330614 -40.2868184279959 7.80733936413039 0 0
189.344095980281 7.32364105691165 16.5654481352557 0 0
114.906920255106 -14.8100342024232 -3.48454275638137 0 0
-204.584051558634 -27.1398322298697 16.9788298246156 0 0
176.19335586411 -14.3357311452151 30.6985871941484 0 0
-136.063182935548 4.92149712215243 -11.0247686159037 0 0
-161.008000107077 25.8564026766173 21.5153213966864 0 0
-145.650161891142 -19.5154790122874 5.26241753133391 0 0
-26.7713702841556 4.49821300933591 -22.9999816329139 0 0
-199.383344434686 -4.05951648454403 -13.3031716556378 0 0
-177.391086185572 2.78129801789123 12.2753775408704 0 0
198.681965251679 -13.129439115814 18.4378267102694 0 0
180.984934892192 -13.0456024062667 -24.6986636027711 0 0
-153.710584448204 26.2711695799259 -2.93302097566103 0 0
-116.878531155329 6.42009124209983 -14.3543439890792 0 0
200.193014060206 -9.66618808879119 0.0600836921480281 0 0
-41.4646954022171 -2.89273514514315 -14.2275075962221 0 0
-197.41537757767 31.2066444599939 6.33680945226425 0 0
5.45180729805772 7.79625084597368 0.748995572456877 0 0
-46.2633117913527 20.2858481794496 -3.25287022948282 0 0
166.671277908555 30.4520715428495 -2.60939609174174 0 0
134.138755580872 12.3777189895897 -22.0001543348 0 0
-39.2336446718811 7.79749300372344 -23.4432555193416 0 0
-48.0400446096734 3.40509791525712 -20.7872297173524 0 0
134.429046447029 -13.3021442394254 4.67622852684365 0 0
131.150224977015 8.68932581467831 8.06601701021154 0 0
143.69170773092 -3.7386329028304 7.81157357999125 0 0
-184.495179582311 12.1326690991485 27.2364511144654 0 0
-181.97585376954 35.4786578339691 13.1655759111496 0 0
171.642683373664 29.9019889129335 -9.01939234578032 0 0
164.924394532413 -0.925922683054135 -19.8409688860007 0 0
-160.739451351175 13.1720768644592 25.3041121637507 0 0
-176.588192209269 21.2735226981069 26.6423761763525 0 0
127.139870306774 16.555746530475 -19.172024292698 0 0
160.523885331772 -21.7093197781351 -15.550463119217 0 0
136.244459730364 -18.516114577171 3.27291691791469 0 0
-212.247670782833 -29.200718046532 -21.182517949017 0 0
81.1564175781147 14.2667009578062 -1.00883300765976 0 0
-138.962705370687 -17.8627553765966 9.50737214608136 0 0
-178.193154666584 -4.58618437954106 11.3348752431976 0 0
-144.365274860512 3.23141676359143 20.4056843696542 0 0
185.460392757494 -11.0860144503703 14.0839368958979 0 0
175.443784575461 35.7831553865379 6.43063660218069 0 0
148.134522264745 23.5640377048657 3.03276145857847 0 0
-104.196670446496 12.804340635234 10.1141305603929 0 0
162.958254933468 15.7246968184633 -24.5637061947939 0 0
21.4762796268976 -0.103873832963862 -3.0553658966701 0 0
-200.937806894545 -12.7135948116556 10.2109137219567 0 0
170.916719427651 2.6719861876873 -20.9356808849074 0 0
151.922621811043 11.8357690367553 -22.8123397409403 0 0
36.5462565170243 -4.58768973951173 -20.4816217590073 0 0
163.813800815253 -0.442402700716394 14.4056927040966 0 0
-144.615679998466 13.7623995684634 20.1704769375295 0 0
-173.884787322853 34.211566277887 0.256411667091495 0 0
170.637394532522 25.1238836732206 -21.7462113737561 0 0
-162.842977374791 -0.616873384300112 -10.7034991109015 0 0
58.6660510769051 -8.652067954658 -9.17443959262203 0 0
169.661052279682 -36.9486484403932 20.0824559815975 0 0
-185.219358144305 -46.1930898582044 -7.88365346930526 0 0
-82.4193015224665 23.6006601924455 0.681451383887962 0 0
-88.1466900964732 7.09698787719413 6.0468526650952 0 0
113.667222945399 18.8951733891793 -15.089076502125 0 0
-164.709300541134 -9.11597229272334 11.3229242681047 0 0
102.118814641448 12.7801177610391 2.00115954520553 0 0
-182.909708449779 28.8915237124649 -3.83563804224515 0 0
-159.778943542989 -16.9841800337998 3.64138215407316 0 0
127.526192211351 -20.8803425423535 -7.01230202834375 0 0
172.616711379737 25.5177471607896 33.2805989447981 0 0
-203.60725920644 -9.9396908743912 6.45058660191408 0 0
30.1108975173003 -5.9155295787856 -10.217957574231 0 0
-182.688565053288 5.92177515372742 23.7217350889743 0 0
-40.683824601676 19.3823946144944 -19.8850894658672 0 0
-192.328997388152 -48.1021535563999 -11.0956921591445 0 0
-25.5528529402183 13.6177479674362 -23.8429753680315 0 0
123.481814882416 19.6995229309607 -7.26733105991875 0 0
194.323982258748 -19.2523277270347 -16.027445077096 0 0
152.103106244792 -17.0792017495047 -16.134761293863 0 0
-167.648256722091 27.379264261355 23.8680346430295 0 0
139.056781337217 -24.3037607596694 -1.81286402888528 0 0
-139.387408107793 -10.4729150318171 2.27496130357462 0 0
83.1286593074456 10.8365614576429 0.88397874935382 0 0
145.409416466362 16.6356914658459 11.4445318428055 0 0
144.319005439148 18.7482869968066 -18.2953612077901 0 0
49.104495551875 16.115059471477 -21.8702400932096 0 0
193.695328063383 -21.025187773881 32.186364963725 0 0
-84.1661070448056 3.46983788580497 -17.1101319693406 0 0
-146.525660377541 21.3447318010254 16.3750325195885 0 0
-136.03167001574 -11.9350508051188 14.3986235539381 0 0
161.501193082524 -25.4282754889298 -13.0689992070954 0 0
76.2804561481964 18.8161826490109 -7.32858980255994 0 0
194.418433534969 -14.170258068194 17.3716269432762 0 0
-193.439642251834 -36.6982243834594 -24.6586431774704 0 0
148.563335172641 13.0310389494155 -22.5367898409252 0 0
143.106216947577 15.6780731950895 10.4531053290038 0 0
-155.865370441119 -13.1051237739137 17.2892964573727 0 0
163.306293752285 10.6481427225682 21.8064053044766 0 0
-201.441034190768 -46.6230712414262 -8.65973082411012 0 0
195.508950583549 18.9490401251594 -7.88914144180723 0 0
-132.628680031059 24.9780958495157 -0.861658871359532 0 0
-213.820555432181 -27.3438357981281 -19.8546765530021 0 0
-172.497032953322 -18.0648512224024 -9.08850802606 0 0
-155.95187270788 -17.2955131678551 9.46097782961987 0 0
-143.140908900932 -10.0429621670386 19.8942516634174 0 0
196.772666280706 23.57675092586 -2.73039985906731 0 0
-124.18239855358 -5.74459534873104 7.64402731394729 0 0
-199.404851136146 -43.8721267204398 11.0826601853587 0 0
-188.234945801204 -40.8607393554747 -20.0535564785916 0 0
120.690754714616 -19.6160890534891 -8.15598293618314 0 0
76.2316480062421 19.5418812375947 -11.1288195152612 0 0
-147.241783685674 25.453268357683 9.98866135059294 0 0
-216.860386979297 -33.9445103835345 5.26430846815046 0 0
67.5092214595949 6.39261494058392 1.29427447806761 0 0
-77.7471615064385 23.3312135967787 0.132744631349115 0 0
186.41538166117 -23.4477580172206 -15.5275013196095 0 0
163.09470957121 3.79829697393451 14.5562505843642 0 0
-190.864295939539 8.54795807025993 24.0836236601043 0 0
-193.516620683322 2.58865089828531 -7.18246841887195 0 0
167.453987968489 -20.2051116230683 25.0761453901694 0 0
185.75940836873 34.349369480449 19.7726922068052 0 0
-111.344708161864 6.4605142504292 10.1365083194523 0 0
-176.970179024041 -0.451728583141091 12.6586602530956 0 0
-206.048408487072 -34.6025532712971 15.0493729984627 0 0
-183.438915233793 -8.11421498582888 -15.6844057355836 0 0
-195.737101033182 18.5245368772747 0.907302513854929 0 0
-184.549450418012 -45.5747944511861 1.0232405046832 0 0
164.206871053984 27.0272699818246 -13.9934019398862 0 0
-171.601785900572 33.011653898331 19.8460669933763 0 0
-55.4339172833115 15.7619531269308 1.35372040258108 0 0
142.464219876349 16.9939439441814 -20.1454770347966 0 0
-34.3407774626578 14.6671486721409 -0.895235808946379 0 0
-151.037138665224 6.14939252957358 22.7685261545498 0 0
90.5955120971095 -1.32498254333291 -21.7913123643045 0 0
196.346457863987 -13.2386440646215 14.5290194891491 0 0
204.054492513133 -17.9653390740657 3.110531352687 0 0
131.855498854118 12.1698505653077 8.20750721782138 0 0
137.379770627106 20.6909263083957 -7.10712063511949 0 0
-198.46350372431 -12.4437979731504 -21.9466850457699 0 0
2.40863580994831 0.908817704442437 -3.24320455701571 0 0
7.92236112752012 21.8143394264893 -15.164089497381 0 0
179.903671192506 -14.0011645926836 -23.9291383790492 0 0
-124.353338630198 -5.90450932391289 -1.11320794240182 0 0
184.91914226351 -34.510486783241 33.8309802105122 0 0
157.499101009589 -32.3048399960758 7.09932695908619 0 0
-168.383362426758 -4.84835916836314 13.412931814726 0 0
-180.015518757746 29.1326842399961 -4.82696502580473 0 0
-52.1938976953002 23.2643132886636 -6.57226158130522 0 0
-47.4685781187226 0.0803372140739747 -2.57750877470043 0 0
187.639404739266 -38.3375290875203 1.41014189865358 0 0
-83.0103794770402 11.8754186449991 7.1122958400045 0 0
-82.2994425853006 24.4078174849862 -1.46598164690082 0 0
133.839244961468 16.4575432443289 6.79110523183285 0 0
-212.888892418515 -38.841871329955 7.45046644066897 0 0
130.880493923846 3.15566931461462 -21.9773686688698 0 0
-16.9523629224491 20.9892191813637 -8.52013753601369 0 0
-188.8841470926 30.9100058871378 0.666916122168371 0 0
102.842267231936 -13.8175636940093 -6.10795591030505 0 0
148.3733646401 -27.4399497911002 0.535218942226524 0 0
-111.630859335657 22.2687604093041 -8.26522712753039 0 0
194.077571551357 30.5311459289573 5.13244128411223 0 0
-177.536467527311 -13.0055010092526 -13.5863060519905 0 0
117.114690112027 -18.137229346774 -6.56936443621256 0 0
-179.210285172794 -18.971171434377 -15.0584026829749 0 0
-179.587525500445 16.800390410819 27.7867396150312 0 0
-128.721045456735 18.5443282330273 12.297203378889 0 0
180.151771555854 22.2378515411891 34.4214253973847 0 0
137.478050296889 -0.325521970121704 7.06202988486699 0 0
159.91104764066 -33.2851395332347 11.6074843091415 0 0
-113.805068016899 12.1604693236295 11.4809853644106 0 0
-132.663295426685 -4.0904588919077 -8.13679306425609 0 0
-127.634515279794 22.534888046085 -6.60851721698437 0 0
181.349010827688 17.1538914168575 32.8662034810716 0 0
189.102247828317 -39.5545023822105 8.48221750571598 0 0
-98.1988336071969 20.1044434023888 5.97306895301236 0 0
194.346985395503 15.569693913421 23.0094820462299 0 0
-37.5956913001649 2.93450285101297 1.36606214777801 0 0
-152.690871017161 27.6909606176337 -0.408704768759338 0 0
47.2970594633809 1.448959983671 -23.1291729529622 0 0
-180.056319351854 12.8072162259661 -12.5587213645924 0 0
192.738325316744 10.1627803867473 19.4119218507958 0 0
190.907800772858 -34.0068904807305 -1.97983792190017 0 0
-184.519737389391 21.5831463991464 26.7749412777463 0 0
193.477590922648 -38.8885902352703 20.4217210437068 0 0
66.81355206737 3.92301923964884 -0.0368739260926277 0 0
-138.005171596404 -7.76815278258542 17.4227476653805 0 0
-133.945244789798 8.77119271611139 16.8049262494407 0 0
-160.604652807013 3.96189220643972 25.1093925725122 0 0
-161.912886616009 32.0485641998523 15.9300241780699 0 0
-187.396206692116 0.0837526638141554 -13.3072354276442 0 0
-125.571001453996 14.6711736207018 13.6595209372785 0 0
-180.522367032622 4.70445390961868 20.9035903843994 0 0
111.998579464069 -6.60730810629378 -19.8080580817855 0 0
-147.581310329116 21.7517155842317 -6.94655826751499 0 0
145.675632978081 21.1217134900918 -11.1896456642361 0 0
-83.3553019711035 13.7108585526735 6.07493623708911 0 0
-141.236060404363 -11.3006155413011 18.7497360076684 0 0
-194.989174540765 -19.5722262009776 16.5454050959827 0 0
-183.966335505033 10.9057465203235 15.0730609987735 0 0
189.273891536255 30.3152222118992 0.219786252527271 0 0
-6.77015485396664 12.8581202533235 -1.52782701975253 0 0
-193.977193812167 -17.3216206107032 -24.302288024391 0 0
-215.377821870657 -13.842873687586 -9.09886607840603 0 0
133.48694760837 20.2873010901814 -0.251686362668614 0 0
49.0923521751489 16.9709155428995 -5.19436655146198 0 0
150.305959108284 -6.31948385079646 9.66078247385947 0 0
104.794993046662 -1.55017200348496 1.51140814172651 0 0
160.310856224393 -34.4867915477815 4.63673722627269 0 0
-106.803731098547 7.0143202908374 -16.1963460990503 0 0
69.4734661773287 -11.5865858085721 -13.7021807807659 0 0
192.807259196767 34.4633284080779 23.8564844499484 0 0
-188.241524382913 18.4696198960122 -9.16431771534624 0 0
-160.356682073043 30.7142079563215 13.8376545200075 0 0
169.31789234288 4.05344859753423 -21.2366242884318 0 0
-198.181176506663 -44.5203788490282 -19.1402082849515 0 0
-192.267202772273 16.2633250432203 27.5456255446327 0 0
-119.442804037444 -2.55919084021197 8.33239592359611 0 0
-136.728660979821 22.8271804046848 9.68263554763518 0 0
172.999159142458 -40.6181890237754 18.3958272224548 0 0
-175.243906234077 27.6856761976619 -7.04334919957659 0 0
-179.514750680381 23.0990372020222 -12.6457251084531 0 0
171.143350429539 30.3376574944653 30.0151383113996 0 0
-203.789248778686 -14.0466171824459 -21.7214805560075 0 0
-167.260214517534 -1.5177316551029 23.3160010993725 0 0
-80.0899045114448 14.6680358390837 -19.6574490952626 0 0
-215.395225159634 -18.2084421273517 -14.9668864494837 0 0
177.689150252253 -29.5406136360332 34.1961850397899 0 0
136.518448114755 17.2663300173192 -19.0965097857864 0 0
36.247316199825 -6.61374337613251 -10.5516715451923 0 0
-196.435508696697 16.6915126524713 27.6999566565005 0 0
-166.988836956428 -13.0393673983781 -8.44411490320909 0 0
-210.141816945016 -40.3773691241329 -17.9172548338802 0 0
-17.4100954908458 3.17408549952797 -0.477477574125257 0 0
156.180992435397 24.8836736027687 -7.03382181354921 0 0
-15.3298809144522 20.3301876719206 -7.67348488954726 0 0
123.392411438632 14.2341150580217 -20.9898641412195 0 0
99.0832052062614 3.84912151992794 2.31903721088837 0 0
194.785023257465 -26.5644289262636 -9.37403156142852 0 0
148.62862978485 -19.0867947975989 -14.3007245249134 0 0
198.743944048057 -7.40289436012233 -4.57753768732448 0 0
-199.231933894158 -15.0762015009698 13.4738111717346 0 0
-59.4847800033468 21.9846902302834 -2.26877663018402 0 0
-139.676695638239 18.9529386727672 17.2535890905795 0 0
18.9359904845033 1.03022446690129 -0.792153151171707 0 0
-204.818216933932 -38.1863455786547 13.8720558671644 0 0
-165.678456123208 5.33999038804066 -12.2230349675141 0 0
-156.620408959765 6.91205661174078 24.5544629003886 0 0
167.879515719449 30.6294338981046 24.057532607874 0 0
-88.4792774145945 10.7996714209564 -19.4668228833736 0 0
129.350617229469 14.732922746713 6.22887934883711 0 0
185.71925954719 -24.6382754821831 -14.6666342311422 0 0
204.422041032422 -29.552798658685 13.6306709945843 0 0
-203.817701058637 -31.8672234739172 16.6537060829712 0 0
-93.1626396351547 11.0859614428169 -18.8724719421912 0 0
177.361462512709 32.2940768131054 31.2547930739267 0 0
168.299424637636 -24.7333574974136 -15.9227954435502 0 0
43.8016553039058 0.337920453255289 -22.83956218035 0 0
75.2748604479862 17.4805652295504 -19.216989309591 0 0
174.618992138912 33.3214071324407 0.625601430210093 0 0
-156.571926543572 -10.3852584487317 20.1987370427723 0 0
-175.770664843767 -19.8390803078992 -11.3408680975805 0 0
178.17177723809 -41.58004649104 7.18513988870951 0 0
-108.253033868829 22.5578037029227 -8.20985446416126 0 0
-186.595141722057 34.8504474654592 14.7421011125209 0 0
-38.8924813404325 23.2647608966463 -10.9023707841997 0 0
-120.164330290394 -1.09172779154575 -9.96305004896328 0 0
-140.236817879021 22.7541762552688 -5.88806523953631 0 0
-182.55953966634 -27.5370593270732 10.9302989612097 0 0
134.204389985331 -10.3565586799263 -18.114199035695 0 0
-124.592034492339 2.87233859068866 -12.0482215225708 0 0
159.264259856628 13.2736793760625 16.9601717264897 0 0
-159.226289610069 -5.49363902331855 -8.93107827243872 0 0
56.6636988662698 0.0279904993822402 -1.03620346086804 0 0
184.825699512774 34.1944258049215 6.99534227196294 0 0
-69.1601137955453 6.53220555783539 3.52982215662984 0 0
156.188831420364 4.49621919693412 12.1504182955378 0 0
175.916288749623 -28.3281559528327 -13.4781372253725 0 0
-157.773897246842 -16.1334647953066 2.45926169638689 0 0
25.0032764790317 19.4847281210045 -20.0384192040207 0 0
-170.727500282069 16.3657471221555 -13.5718095401896 0 0
183.517637659943 -30.0846762155491 35.1586157128798 0 0
-23.1603477970029 13.2912640901701 -24.0198881736494 0 0
-187.356724404971 -47.0723652691908 1.56143374205814 0 0
-160.301480164991 -10.2991830866583 15.1984461356 0 0
196.718291410693 -1.72599710586589 -2.06847508630638 0 0
-131.853790739631 19.093080885768 12.9646340199805 0 0
-105.180611312167 -0.95605193379664 -10.2384961036435 0 0
-215.695562665536 -38.4817964373624 3.37383126457448 0 0
124.161398975647 -12.4293339968969 1.16008690551557 0 0
-169.291224014172 -19.0784452902817 4.39673833484675 0 0
33.3817041633023 7.51128665784678 -24.6313902828756 0 0
32.1998521950119 9.51309084820854 -1.37364089284192 0 0
150.185384835994 -22.3803655148015 9.9279742001037 0 0
162.419175237991 -1.06710310560899 13.7720768728317 0 0
33.2717164375659 15.7980279126887 -22.7027016909202 0 0
-185.317522409938 -16.541588575588 11.9580764432303 0 0
-143.567192423531 26.3153888979805 1.58627391704978 0 0
-119.927858165056 11.4397397602995 12.8790969015164 0 0
7.53803441097546 15.6248609098587 -23.4930610871055 0 0
162.214241639184 25.1770658253549 27.7900763944902 0 0
182.974644168595 -25.3800287286538 35.6680074832353 0 0
122.043428864729 4.05675625761762 5.41695765666847 0 0
18.5587237499356 21.4048046028289 -15.4501462931511 0 0
-152.652940953885 -10.8580365461914 -1.16413288677946 0 0
17.939927272931 19.4219844625961 -8.84994711481924 0 0
182.111056930203 35.2662733611173 7.90008514953543 0 0
197.437299088259 -9.80971162939556 -12.4418487668162 0 0
-179.72586555879 25.7938844098953 24.9912393442928 0 0
151.219943996378 -24.3339256447291 9.48893695837226 0 0
78.0945469220061 -12.9539327441379 -13.7985046331709 0 0
-163.021253059453 -5.34139536303264 20.3607174816489 0 0
-178.753458253011 25.9911207951998 -9.46287874025558 0 0
-192.916289518388 -14.0940805558376 12.6206335493994 0 0
67.5937602136753 -11.2088502554214 -12.3220034803534 0 0
-192.591901371351 33.6376844566772 5.96979649802992 0 0
-184.961593327333 -43.5553029013565 -14.2740224020718 0 0
-31.5189410263454 10.8603172405158 1.16293193971911 0 0
-87.9545404463317 24.1993019771317 0.268272432843836 0 0
-197.116722965566 -3.09248261791138 -13.0880529827705 0 0
184.7739302066 -36.9348778519656 -1.68771588276025 0 0
-143.802106986871 -14.4051076399217 3.36795220411523 0 0
140.486005157876 -24.5155212922909 -6.93348971221764 0 0
197.642266106942 25.6464046105329 1.1246045414959 0 0
-190.225502008698 -19.6378813562022 15.2065013406444 0 0
58.9550581339662 3.11619595505513 -0.605864867640359 0 0
-147.868602124629 -21.1584729589729 7.67128863458845 0 0
-199.683167856717 -47.105136258468 6.62884789505817 0 0
200.272226085205 -10.7720871535668 4.47529040866882 0 0
164.999330805342 -13.4143330713541 16.5918283242471 0 0
133.250395524042 -15.0197462073586 -16.0107038192837 0 0
-108.072508714058 2.69578587750221 7.94171091679476 0 0
139.162267016555 5.3711246437133 -22.1316711204248 0 0
-172.364508716522 22.4707388767208 -8.36673681061773 0 0
-201.505064460764 26.886378717885 4.89925022946366 0 0
185.324457514993 -8.76501964845893 13.2647180703036 0 0
154.74845083374 -18.2553836838213 14.1112632977947 0 0
194.447049488031 -33.9200216686541 0.517649253290887 0 0
-50.8982593674513 -1.74724158435054 -5.1541229849656 0 0
-139.46113856284 10.5610312962567 18.4379954179767 0 0
117.095000479975 4.37735626609947 5.04790341464732 0 0
-165.637910847041 7.67885934831601 -12.5377951116882 0 0
164.613204757687 -5.15287861604527 14.5985615413636 0 0
31.0437967809581 10.0783961066842 -24.4915752392671 0 0
-190.786449417711 -14.4138228558053 12.7468020646004 0 0
175.053513151712 -2.46585636005146 16.1901568693635 0 0
172.09465420858 22.9178873769589 -26.6594081452494 0 0
174.330774996859 -32.3462940317077 -9.60237618478655 0 0
-113.395466593806 19.1033711564445 -11.7881868320178 0 0
192.871190015223 8.56443419982637 -10.2396493837965 0 0
177.870830672462 28.092260589734 -15.2292389508854 0 0
203.436890775299 -22.8316123120441 16.852618134973 0 0
134.606204861343 -2.59390088951834 5.97667041600046 0 0
176.507055313624 -41.9158603735249 10.0008609472661 0 0
-175.132644038573 -10.20485727295 -12.5110373742621 0 0
69.8138715650766 -4.71884699903213 -21.0053018087423 0 0
156.691250880057 18.6235504522922 15.9473380815397 0 0
169.165676562493 -1.24774133637833 16.83093974381 0 0
-201.25627826138 6.72385819237597 21.7443224605477 0 0
195.853466493316 -11.9324077054963 20.2361013012287 0 0
64.9626290696913 18.8852151838056 -7.98744349783022 0 0
-26.2272445606097 8.8731284766819 -24.1811092273904 0 0
9.91028557952961 9.40020593763028 -24.7096329150346 0 0
-57.9214742887604 3.11089466588493 -19.593456329526 0 0
-45.0315384048307 7.77661095573333 -23.1780631596712 0 0
105.709658259787 10.194600885802 -22.9587028177276 0 0
15.7073422225268 20.5526304707442 -10.8791165758189 0 0
157.939171356174 27.1740796204708 1.20259180596539 0 0
147.44410319984 17.6995784997071 -20.3087935829294 0 0
132.411240194036 18.6357993037217 3.75833626158298 0 0
65.6845443638827 19.729864897031 -12.7391810408459 0 0
-101.727627764221 20.4699998512484 6.0404143169902 0 0
142.034498839097 21.7430593946343 3.6756459455622 0 0
-113.893435054845 21.2513083093445 7.10866967084386 0 0
178.281776203083 12.0160610720786 29.960942855814 0 0
-186.817487809455 -27.4574911600482 15.7416567155181 0 0
159.958523067077 30.293911960908 9.95799027522035 0 0
180.332173297347 -22.7653332927392 35.5069758701471 0 0
-140.451080446711 -7.06488400463335 -6.27731387221702 0 0
-180.737820004825 26.4023987638559 -9.32185975051441 0 0
-97.0591876235627 7.48811738449643 -17.8712548957299 0 0
-214.306728103358 -39.0711449613065 5.17447863187104 0 0
142.447187495721 -2.0549591738973 7.62890915940494 0 0
-26.5625225636307 19.7226641717083 -20.2819763691786 0 0
172.776845091104 -12.43304060163 -21.5488131800729 0 0
180.253132143367 -12.0641056972049 29.2422226930923 0 0
-114.487116043174 22.7172151315954 -7.11818021386016 0 0
59.8142460463654 11.269887601279 -1.26416855460997 0 0
-148.924069019703 -17.0047583754026 3.7910404199585 0 0
-141.958316152904 -2.23772548038695 19.5365435396582 0 0
176.610691737249 29.1630636796368 -12.7192731286569 0 0
85.0432992989573 19.5342979851667 -12.0536861545437 0 0
202.306215538915 -13.5947084651496 0.957498436976478 0 0
-75.2047355540449 22.4211525438789 -12.5064041315724 0 0
-157.295148273958 -9.84327631720799 -5.95926720109501 0 0
193.996470478929 23.2897035896189 -10.0599026141623 0 0
-14.2801998283578 18.9184702264933 -6.00571106718987 0 0
163.039396725478 27.2014821880058 21.9991497841797 0 0
-177.952301155247 -36.5198632524017 -8.60337110548813 0 0
-199.868527392712 5.80256822445913 21.3050728815458 0 0
-206.102856979742 -6.26799224978822 0.577617539691047 0 0
-186.837447104915 -25.9264811128189 -22.4930764347487 0 0
-182.568724549568 -8.49844768991492 10.8069252224806 0 0
180.293456359286 35.467226596724 14.9288788539832 0 0
154.66301759099 6.26927222831947 12.2215635257683 0 0
-128.418310723576 6.50373680695507 -12.5835895146343 0 0
127.958685121047 15.7576916098934 5.396208110027 0 0
53.2730875449258 12.4073044313981 -23.6810696497957 0 0
163.721247645883 14.3851904869554 26.977053957334 0 0
190.035506309447 4.66676496836518 9.30652628210744 0 0
-179.053331876543 -21.4551476074958 -14.9791888336048 0 0
144.759576701447 -10.5370044957256 -18.1896231447473 0 0
183.626737880672 -39.6787348152121 1.2483678637123 0 0
-69.0395732584702 24.1417413709734 -7.09922039136824 0 0
-151.461272624224 -1.35126511595853 -11.2320195407868 0 0
-173.221001036819 -1.08403737726074 14.455665187694 0 0
146.880910892792 2.97507771174328 9.23654102096203 0 0
-24.9873469886337 1.11896071784272 -3.05335591160422 0 0
186.384103085825 -25.2292622503949 35.2951916695192 0 0
31.8255530105938 -5.08609965804663 -8.88503146292922 0 0
-113.250275995839 3.70730819294975 10.1390414030056 0 0
56.9552433871844 6.90989807825705 0.207953518938453 0 0
190.972565662509 -2.40411281665347 -14.9825534135758 0 0
174.774253656686 12.5580866985181 29.6576362238745 0 0
-187.111396892937 12.3097913097892 27.2345942103779 0 0
169.496073959907 -7.65176088352848 -20.2638700702362 0 0
-162.503459134378 27.11250112557 -3.54442305711914 0 0
-87.5842821103279 0.60110014912658 2.11404073326608 0 0
191.988300116423 36.301386719154 20.5139179795772 0 0
194.435106906578 25.8185164894232 25.829029737784 0 0
-179.176233837053 -40.4089528231528 -9.13968903929919 0 0
-79.618846443152 17.6439882491024 3.62324370170637 0 0
-174.120657128713 36.592965965889 3.35018814975265 0 0
-149.35390253659 26.4786249169293 9.34503932847795 0 0
-26.177398570831 -1.49110716434243 -5.97609879107738 0 0
43.0724103774688 20.5002288310189 -13.5660578027276 0 0
-136.231281333669 19.7539483608326 14.4185453816153 0 0
-191.784578900289 20.0568321330032 -5.74326903920628 0 0
173.890217371872 -24.7327316456399 32.7192567509157 0 0
-171.128014441236 18.7964277316256 -11.1625471579228 0 0
-191.282542983343 32.8504618082224 16.6300057291828 0 0
-141.649471163098 26.0118174816127 0.927285117068218 0 0
-205.268164323209 -4.85333359985088 -9.86943024459165 0 0
-100.38740267922 -2.21010945916249 1.58581838340476 0 0
-206.87313115288 -28.2844190062567 16.073674390828 0 0
201.554613556249 -22.4652763078643 22.4553055472621 0 0
-6.30136250636728 16.9161451864788 -4.59511629892348 0 0
134.142641984814 19.7315337998438 -13.0884792124775 0 0
196.297350643869 14.0986242626267 -4.13379711548746 0 0
-102.690899739065 4.44713560621245 -15.6442626491814 0 0
127.416886231053 -10.0543165989428 -18.3474918702439 0 0
-198.669147223414 -34.4507545176031 16.9216356647616 0 0
74.4700749407759 7.55678042132376 1.24159953531885 0 0
-218.708928123172 -33.6536321812574 0.396766945358427 0 0
185.898253763172 16.4234311021461 31.1510439660043 0 0
-197.579689093087 21.5221159208076 4.29748350745415 0 0
158.370653398914 3.07282560272074 12.647830779507 0 0
-118.449687152627 -5.06509926284749 -2.67646063563186 0 0
-216.95068044036 -29.2989560895481 -15.5321683102692 0 0
-209.910917079061 -28.6180011929073 14.4675690034288 0 0
-181.968009548783 -10.7308585658697 -15.7367430555642 0 0
-100.161853253905 20.4059909697808 5.98163048680881 0 0
47.5722068203496 -8.76425819265159 -13.1960510462293 0 0
197.453534186428 -37.2221963586937 12.468806557196 0 0
201.66643033568 -14.3523431705167 9.43352179830416 0 0
136.142705745751 -10.4360039962652 5.59911248442626 0 0
168.318849541793 -22.3296306163972 -17.7493175525008 0 0
-185.534868371104 -45.782455832876 -10.4856559566331 0 0
-171.323805014963 -9.30118383816753 -11.1346600263331 0 0
-44.4005512699658 10.2551902833957 -23.4252914961842 0 0
-44.8515885064841 -3.11788927261056 -13.0467013602632 0 0
-185.342017285797 -28.490337755478 14.9636865145647 0 0
202.468321622874 -16.8036085862645 14.4617407545565 0 0
-163.018179719351 1.80177776543052 -10.3798515814783 0 0
33.5092824273476 17.1809926163294 -5.80075131554884 0 0
194.860592310519 17.6323364541679 23.6555466915229 0 0
-187.806142822561 11.7821569426687 13.642718560588 0 0
-13.9645786569449 -1.52826066339345 -6.30173810637284 0 0
152.362175341976 -29.0654453264693 -0.667881725619777 0 0
194.68573885628 -29.7124634560153 -5.8218726684444 0 0
79.5268612649947 -10.7981009280588 -7.35436638187609 0 0
137.715256797891 -9.06011728962202 5.92669009222847 0 0
-115.143267957928 5.49023764771524 10.6724667267835 0 0
-170.797686499378 -11.3518388917898 -10.7180250705812 0 0
56.5002644943381 -7.33769376809648 -19.2593546167276 0 0
128.728096524949 4.06896297537856 6.83306893714171 0 0
183.08242112734 -8.85570093383371 14.3011655046442 0 0
194.284376453259 -12.2824743488347 23.1183034146588 0 0
-213.185611188105 -23.6735640085356 -20.1736948514167 0 0
-13.0707032697984 4.49971674823772 -23.4745582322628 0 0
179.870418277889 -12.8037239871425 24.5399206862616 0 0
169.710975964586 -36.4031932032551 -5.27946817073099 0 0
-70.2390964921606 20.8248613908376 -15.841720762137 0 0
-203.301287716279 14.2442458977749 14.3192501690421 0 0
58.9871301019396 13.8037127055352 -22.951922189243 0 0
75.6143901842027 -3.59616953621267 -1.82996050630512 0 0
-65.3823740300834 10.5995345808889 4.85034165655318 0 0
89.3916006758663 9.9481716167848 -23.3804569471821 0 0
-96.8354760412771 17.71560398739 -15.4246897164279 0 0
195.105199138506 -28.378133830398 -7.3464488868384 0 0
-174.548745271476 1.16121877752673 16.0290746407657 0 0
174.177878470179 -39.7016974572168 -1.57722942998739 0 0
128.725801318534 -0.717174766045134 5.26783762584782 0 0
-103.922490662287 0.422168941478255 -11.9264464760401 0 0
156.692086653157 -11.4784116537787 -19.0645360972022 0 0
-65.802539455942 24.0379972771765 -6.72426740844249 0 0
144.811006012739 21.6644740635002 -7.14302528898715 0 0
-45.1290021587499 5.23773384342744 -22.3695246594124 0 0
137.558189576235 -23.1632816544244 -0.722559118970819 0 0
-160.115739511714 30.1155434592892 -0.661619481371415 0 0
-139.832997881909 13.30188947933 18.6995059407506 0 0
-123.825544403459 -2.96155787420505 -7.52823671256845 0 0
-184.253768427771 34.3969993648072 2.78867772879826 0 0
3.42787416391379 -4.54876805143782 -11.0450386233923 0 0
-156.594937930162 10.8243995844786 23.8555552015501 0 0
129.843912888096 -6.24180579352391 4.48030690898355 0 0
168.861382468055 -3.35592288119339 -20.0606143506299 0 0
-151.865223096277 -16.972876593327 19.42391287106 0 0
-85.8512964244971 23.7133890868861 1.02490438917343 0 0
-56.014292212911 23.6504647530139 -7.50001859349802 0 0
-67.6293313691246 21.5403728920032 -15.1824058761854 0 0
-180.052361020397 7.20011475110626 17.9377870292534 0 0
196.035866429461 11.8899974653998 -3.55126317417608 0 0
-165.412198251734 3.11119931922666 26.5074830373245 0 0
175.232582013686 -42.0587061101049 4.2729602764876 0 0
-210.987686182773 -43.9441527761298 -7.72496527545103 0 0
-195.407182585933 7.7493234025272 23.445525343648 0 0
-8.2880366153423 9.66760904878734 0.819074850651058 0 0
-141.398741291662 17.6359550450386 18.3670680555635 0 0
-92.5918768644205 16.3700182096508 5.74139280520106 0 0
-179.667200761803 18.774519924884 27.5877030047294 0 0
-116.95629714845 19.7524905258569 -10.6568079583365 0 0
-205.983865803559 -47.1459345758981 2.05826659078405 0 0
160.876796632276 26.2450682448694 -10.7008391520461 0 0
72.645563089634 6.58148990957524 1.13874080692747 0 0
48.7058671974487 4.42495808202422 -24.0746447418741 0 0
140.087500788181 21.6478539306656 2.62983748268749 0 0
-121.3914585305 -5.37064189061954 -2.36920043679056 0 0
185.197559263846 32.4969490561378 2.08576923348494 0 0
39.8639433428511 11.1585499609146 -2.05009369658732 0 0
165.821882887706 2.47001419781915 -20.5211951042909 0 0
-142.947811413169 -6.55699563559613 20.0850002794299 0 0
-11.0753946315295 4.14490979329333 0.372734115036364 0 0
-40.8224901932204 -1.38866284241173 -5.15386508205432 0 0
172.77321946582 29.2088056129038 -12.8348053090646 0 0
-192.026275979227 33.4996852338452 3.3858538215375 0 0
170.824792139475 18.2817573089166 32.2472609438231 0 0
-53.6777401872158 0.315387346643485 -1.89081023862904 0 0
159.790424179585 -30.5933140318055 12.5274277504031 0 0
-129.731546485269 8.98346379965301 -12.4904894031109 0 0
-144.373089492112 -7.67126139479318 -4.67047945713615 0 0
46.6468507197867 15.4161418696902 -3.8673401991395 0 0
-141.830360240876 -4.91292655718627 19.5953274741679 0 0
170.107163871533 -29.5727496765179 -11.8674254686621 0 0
-128.476747704786 2.53818067347446 14.0658198199387 0 0
-109.266281540674 -1.90952003353706 4.25229189827966 0 0
-164.621827298249 16.2822549200262 -11.473906997482 0 0
-77.1693419330142 -2.05712660036397 -10.7022129540401 0 0
189.589759421719 -38.7455643064987 4.34349848944944 0 0
145.038967238564 -20.0514215602593 -13.171856132256 0 0
-161.79117134892 22.1442332753925 -7.15983485220223 0 0
178.492573174479 -17.1962008473254 33.5507024805713 0 0
-167.85398336643 -3.22524667934167 18.8762107686934 0 0
-117.041836649859 19.6273085379563 8.58078071055032 0 0
174.311187724761 -13.2178105591209 -21.7432167028937 0 0
-129.38629977308 20.6092972593051 -8.51170061898621 0 0
87.9297595774276 0.468026456773472 -22.3753327679854 0 0
77.0284903399433 7.25144390305799 1.36996240715713 0 0
-177.009599471639 35.1069358449405 2.67796547317609 0 0
-94.868096488767 23.9432462628397 2.0646270905041 0 0
54.5411584105428 15.4104088762975 -3.57530133665237 0 0
-145.212497451489 -14.6422981532159 19.7508691134408 0 0
-201.147651515081 6.59806895098158 19.4996658575645 0 0
-96.7069739603965 24.3631381031218 -5.1059728070822 0 0
-37.8428150824255 0.959288144664511 -2.36381856092242 0 0
106.90896874978 -3.62319863016399 -20.8616205735814 0 0
-197.750249233228 -12.5421400598787 10.3342375212616 0 0
-156.281730162869 -17.1257162700724 12.5393987103025 0 0
126.163698861111 -5.7773734728656 3.76400310436771 0 0
-183.812226786374 35.3428119139318 12.4529982466416 0 0
189.126128037369 -39.1627008206359 22.6222514183696 0 0
-135.024468205707 23.8668504746194 -4.38076743926544 0 0
-135.625323967443 -4.47329986679284 16.2231287423808 0 0
-186.821076417808 3.59217598656176 9.59402022661212 0 0
172.789610107399 31.0583852048084 28.8375646964831 0 0
71.1746143285322 9.35113687175118 0.162627331895534 0 0
-154.205210975569 0.119403562555383 22.5964263955148 0 0
-137.711296937893 2.5971075074236 -11.3418975116109 0 0
-213.071595787441 -16.7991580340261 -17.2376647721717 0 0
-100.401693450757 17.4650112153339 7.02024389017837 0 0
-176.831646218008 2.78989234740131 17.7412168455268 0 0
153.625513170689 24.4045931838575 12.1097978120804 0 0
139.878987477796 3.92590332386366 8.63260302010629 0 0
150.401715641637 -26.9242173373995 -6.70232004878943 0 0
81.6100027476735 -7.77093196866801 -4.38904291772499 0 0
-204.506382898524 -46.2538348859937 -4.55845602753044 0 0
-184.19709060777 -22.6886243678991 11.9355141631582 0 0
119.44015663973 -14.2209187280752 -0.869756886660395 0 0
44.611910168858 11.6173977546325 -2.02259692317664 0 0
29.8104078232053 13.1947345459917 -23.8484889570665 0 0
124.737091214164 -18.7632153512561 -3.21173601479603 0 0
-198.444207060721 -29.4592402129047 -26.8909419157832 0 0
-90.5295114670982 7.03208966618725 -18.6579765194293 0 0
-139.692616127167 -13.3866105704226 5.54977469280363 0 0
-153.517895595629 -2.27597231693064 -10.3129841160022 0 0
149.664478677466 21.5380604901891 -12.8422901572769 0 0
98.7579130995748 17.2558054356098 -2.39590708386882 0 0
-17.7161763273614 13.4729324906455 -24.0698489821144 0 0
-190.86328290403 -26.5484889859222 -26.0489615968638 0 0
-156.376189750318 15.7995772521695 23.1348148710907 0 0
-145.463571222785 -21.0888812705361 13.296980943009 0 0
187.623024146146 -13.5670905322917 16.8028115933806 0 0
-101.944671905785 24.9802637763596 0.59577561556935 0 0
-130.415944046725 -8.57521839767854 10.1284957314888 0 0
92.4355204705705 -12.9737871310102 -7.48733458891879 0 0
91.2615144691577 19.1725626302265 -7.87128962871372 0 0
-171.353845831412 -0.782517027272625 18.3287867609071 0 0
-169.446162115502 9.9702303313028 28.466211098237 0 0
123.967632080939 -19.8798423258591 -10.202578933986 0 0
-169.61260164936 7.09067463956458 28.3996182680398 0 0
-144.757265175423 -19.7219549018787 17.1830249962429 0 0
187.34501175753 4.89900886367447 11.5469738080649 0 0
163.244042290711 -11.9020971592553 15.2865248228588 0 0
64.1368857701087 18.2213955472547 -6.45229771892465 0 0
112.021005523874 14.7099638348619 -20.6465894572052 0 0
40.2003954202946 -5.35299018179216 -8.09403351307643 0 0
162.168983078564 29.2018832600208 17.8882771663199 0 0
-167.475244643487 38.3579998799733 4.19150670012949 0 0
-143.254428094015 2.40691945427175 -12.1629131489129 0 0
164.11927898855 11.7387826977703 26.5193679681819 0 0
-181.361951855214 21.7303364012028 26.7663629241249 0 0
160.213175567047 -12.1684730190579 -19.4713673485427 0 0
87.6507526639332 -11.1495450254927 -6.43874934484512 0 0
-211.039753058715 -11.8444018253526 7.29083521886715 0 0
111.763841820378 1.26678489166413 3.47428134453123 0 0
179.359195672843 19.6730270249585 34.3032783437143 0 0
151.811136616188 -11.662018772618 11.8316868222085 0 0
164.643519853215 -35.5410377582174 -3.14821240021688 0 0
-203.845988831511 15.68636474235 15.4045207897042 0 0
133.761199063951 2.9754207417146 7.22860071594698 0 0
164.551369475376 -6.9030784777215 -20.1719836018541 0 0
78.7612051889955 19.3564425496486 -9.51384223604582 0 0
86.1892553385448 -2.24335672660636 0.111210258940207 0 0
-156.519653117452 9.47699083980998 -13.1359859314544 0 0
197.572618177638 -20.8709371120073 -12.8224580234157 0 0
-144.751646347508 1.20297949485576 20.5867364032218 0 0
-199.040125521805 -49.2702468028136 1.7462268413841 0 0
-217.742474528122 -24.8904366489093 5.85617938108591 0 0
82.4645797916091 16.6516608613543 -2.89419641727818 0 0
-198.456398471739 -3.11062072675819 -9.68636014628769 0 0
128.774563531574 6.79046943224443 -22.567094203063 0 0
191.224087069854 20.2362169726343 29.0810009770092 0 0
-55.8814187880395 8.61706119927591 3.44122541011964 0 0
-177.989295352702 -35.6699933440877 -6.34489549262829 0 0
-176.420088261743 -26.4250975543238 -3.59911674404816 0 0
125.338119662599 -0.721358946621213 -21.1734752061564 0 0
137.15457611694 -21.261024671958 1.64632568014236 0 0
-37.9974399253577 22.045885661067 -7.12204936579522 0 0
-170.846085876194 14.0187183322346 -13.1049893201909 0 0
167.024742725167 -20.1703306684774 -18.8060215607846 0 0
-1.61652675584183 2.79232593567225 -0.210156550619777 0 0
191.550996716934 -10.7693146254866 12.4144704132341 0 0
-160.024736178663 -7.26157328438994 20.2679026029241 0 0
71.937584533443 13.7965343861902 -1.52857020917121 0 0
65.674212408132 19.6697508920043 -15.1038186846346 0 0
178.610351574161 4.35033835334847 17.3599746200424 0 0
184.374671476126 -32.1866464360924 -7.54729384738838 0 0
165.717503026274 25.9543859221135 -19.4355097231734 0 0
198.15499415647 -8.02290791260738 6.90489035828543 0 0
197.94947413872 27.3517642007539 14.0177949893704 0 0
51.7205507190383 18.7241092704538 -19.0424399191285 0 0
-51.1742785511071 1.86465343317225 -19.2791290536428 0 0
-141.393287263377 21.9163721571136 12.8656118025251 0 0
-219.980865417119 -26.486004370108 -7.16353848442894 0 0
69.9680811408656 11.4854428546114 -23.6634632528382 0 0
171.120992800091 -40.4662204066288 17.9384539484176 0 0
175.469384645674 30.0160250059615 -9.07613310916185 0 0
-14.6041236040953 -3.2996849042931 -8.91887485193644 0 0
-88.5034120739065 8.59145947538163 -19.3355087425277 0 0
169.663972131909 -32.6373862753967 24.6082455045091 0 0
-172.664262588176 39.2737248635321 7.37874295596729 0 0
104.543078885277 -2.32658354843296 -21.3455810736884 0 0
