"x" "y" "z" "f" "a"
-27.7605202413386 8.53456398598649 -19.7115287281521 0 0
111.386251455617 18.393732339843 5.10462346499825 0 0
-191.564455412907 -6.5820712639007 -21.2111686907526 0 0
-85.8408807860558 -12.4194732669732 -17.6291727343494 0 0
-156.521219142158 -13.4009655442371 9.48993307165092 0 0
-152.694094134336 18.0485441528954 5.32212009593439 0 0
79.723227894852 9.02570682998733 -19.7682435483933 0 0
1.40049729742042 5.59942286182971 -21.8566201339354 0 0
18.9634454612706 14.96957555145 -15.5161668205644 0 0
-137.179729873093 11.1285025399112 6.81327455288505 0 0
-213.82135542019 -29.9891156835594 5.55872531768427 0 0
-179.519883968184 24.7335920912929 26.9595550576478 0 0
-158.801156377513 3.13160283604582 9.74054510069843 0 0
50.1082333199763 12.2770147977895 -0.774546021804788 0 0
-196.160955498404 -36.7022314361646 3.06077116997192 0 0
-67.5319862339837 -5.49456482592716 3.13970453537195 0 0
-52.738195874734 -3.2345388512435 -21.0504199705177 0 0
-179.213815508101 20.2636354385084 29.0513841920817 0 0
191.954905406286 -20.9932229742743 -3.184176567758 0 0
35.6456482446691 3.04306001346417 5.36833971615854 0 0
210.309248748257 -6.25967393659273 10.7261295914509 0 0
151.434534545226 12.7967537752098 15.1194559667313 0 0
-122.727635880478 -18.2755063050526 -1.70083551846241 0 0
88.0677838121447 -0.770486374363491 3.94877787978091 0 0
-209.068275747617 21.0038822507458 -11.9546096580563 0 0
191.230793807169 29.2751951190543 17.1631486607389 0 0
184.028459429514 -15.5081177064085 -2.03390977951931 0 0
-194.858482653618 7.09156117747352 19.8072180630172 0 0
201.342522478301 -3.9320648188902 -10.3041367043747 0 0
81.4990618860909 18.8125732969011 -5.13112132872948 0 0
-177.700126626174 22.4851551262686 -15.1259373938529 0 0
178.980754280483 18.1963709655839 -8.67489753935347 0 0
224.337337775874 -49.9479132222071 8.51552240821934 0 0
-185.196132879955 -25.7242092967589 29.3326227118728 0 0
84.2922495441141 -6.8251804092465 -4.87875637737845 0 0
201.989790841943 -29.0223815590032 11.9088700648687 0 0
209.613907248923 1.77869858730178 -7.42733954028804 0 0
53.8999956999635 6.04427547225851 -21.6057368978885 0 0
133.023031165929 22.814987853263 -0.695165827316286 0 0
-80.8929588221511 11.9928020039119 -1.64419714459435 0 0
217.5344645951 -52.2628845919307 3.75121412314888 0 0
-166.778947004338 2.64451532444872 -20.8269112806799 0 0
8.03981349183624 -12.0676215471135 -12.3532618589954 0 0
-207.935733126103 25.8319046890684 28.2363503196137 0 0
-211.119636440701 22.5342281022243 -4.47048814799858 0 0
-146.545182410912 -12.2465099244378 7.22881773270656 0 0
184.925641315583 34.3741078099284 5.23370884493437 0 0
-188.046560894892 29.6891325570048 28.3966531602398 0 0
207.49238870468 -38.2985392606076 -19.3554483368017 0 0
-198.86128072253 -11.3627717186064 24.1580115854199 0 0
210.286977748295 -4.66919321803687 10.1395327661784 0 0
230.573668695742 -38.1870406187335 -12.9969423106902 0 0
138.909810636806 -6.44305657465142 0.654772719516785 0 0
135.867705242586 8.95856046135706 11.898117244725 0 0
-113.383687918145 -0.351510046232273 -21.0408136752 0 0
153.415327667685 0.556003280431037 16.6503798709434 0 0
37.1886550791403 2.31620362098536 5.12430890824767 0 0
69.4407540297353 1.2062170326593 4.67358206437428 0 0
-168.858796239061 22.9138174569904 4.86705796357313 0 0
-202.089125632553 -1.14471790156671 -15.2019100537384 0 0
-180.252871994384 22.5153463205057 29.5948048693872 0 0
-60.0723633197597 4.83307152122443 4.68537181759289 0 0
178.809840120535 11.260096952959 -9.34174732051055 0 0
-138.318588608021 11.4123820658729 -17.5581998563077 0 0
-34.6394821847502 4.85028459435245 5.11152239180288 0 0
-192.772466748316 30.5714646992914 31.4829758123576 0 0
-52.3786256108268 11.3401572549524 -3.48698605476036 0 0
-201.573684388718 9.61401641291448 21.1663951160976 0 0
146.573082353282 5.53393909393831 14.4479665731749 0 0
211.244674716974 30.6616513846726 -1.9233741633417 0 0
-87.1890699863312 12.7609575479666 -2.46391106120272 0 0
219.171047225766 -29.1253325933156 19.8635842799423 0 0
-212.037051511428 25.0100232305358 5.58999552917544 0 0
-5.94775322341009 -9.58731153626312 -19.0968898062125 0 0
-178.06722388991 3.26921494960803 15.412049217014 0 0
-33.8739327405602 -11.9262350269169 -17.6182655980253 0 0
218.315440235981 23.5715748649011 -4.80188006243327 0 0
-190.212060999319 -9.51714919228084 -21.9517257324558 0 0
-95.7855365044928 10.9734839681602 2.51924027960262 0 0
138.644786865932 23.1200103789432 3.51920467309922 0 0
-35.5795681738442 10.3293623064527 -2.27998867107105 0 0
202.837198293562 -24.9665528210438 -16.0970898385555 0 0
-183.083226030265 -19.4457283578169 26.5448722523922 0 0
-187.79098295842 26.6755844097653 -10.0936484335033 0 0
223.775805134645 -16.085251492048 -0.191011767862026 0 0
-58.7056786700456 -6.3307485408192 1.97456783059492 0 0
128.491027448413 17.4085625981841 9.26057058632331 0 0
108.662266544512 -3.43503858831746 2.83619586001686 0 0
-119.101679190062 14.9686753641302 -3.86434949665347 0 0
-216.29161836657 -25.1823072265395 -3.81488636634937 0 0
-196.301599376042 29.3150147214502 -2.31004952021425 0 0
218.231445955211 -17.8363097857579 12.5809139005634 0 0
-71.9451589955245 12.88089151295 -6.80230332652255 0 0
-193.196715427242 23.5977612709735 -18.0581134967396 0 0
-50.9681470929645 11.4748671493661 -15.1742928275036 0 0
93.1254646899322 8.31551986085492 -18.634244525818 0 0
220.75952729822 15.6860705420068 7.17505617359511 0 0
-148.783750284005 -22.3903310445357 -5.55091020243169 0 0
181.885615445081 27.2839348687723 -5.97125931065711 0 0
-185.987653805697 32.3967987756376 3.35006703198152 0 0
-212.437300824707 22.9536030445555 10.9677505958574 0 0
-143.705867171322 13.2694567072967 -16.2574585556779 0 0
76.5655578309966 17.4857582611813 -2.84433160963346 0 0
-186.336923736426 22.6160387198929 -18.8834237714438 0 0
204.773710106775 22.7648956570194 -10.1468481792741 0 0
-144.012791732091 -1.66152620040087 8.13647012654171 0 0
-183.275436308507 -24.4739437753914 -13.3380147323557 0 0
55.3774079958742 -4.71549617337867 -19.4546510043128 0 0
24.7256817597681 6.12401782104251 -22.1274441747581 0 0
-178.333301297044 -28.7566473757523 15.664587043064 0 0
-182.551338978008 -35.9781744403606 16.0431520380405 0 0
188.24370744044 -14.0992150785157 11.7766261903771 0 0
198.78787838512 17.3881175037435 23.8579023682392 0 0
60.5887932641596 12.4440660087047 0.610710758896106 0 0
169.22192354432 -10.8488568922312 19.0765402666424 0 0
-68.1149113086194 -15.8483740805689 -13.0125338920909 0 0
-141.752639941892 1.95169655023452 -21.1420216971418 0 0
-91.0499012952583 -9.3921462279848 -19.1933241176148 0 0
191.963400628527 -6.16602684956143 15.0242377187321 0 0
-208.83430531875 -0.0805835106793141 2.02964783717561 0 0
-207.000826165678 25.7438226027979 -10.129220126334 0 0
-14.7385140131196 -12.995343661731 -7.77520012126347 0 0
161.579700718201 -6.03750849512305 23.5138559561304 0 0
189.220571777873 3.39241473738723 19.1331332962909 0 0
185.768552885813 17.5084273303538 -9.96899803922101 0 0
-96.7948946514416 13.5166695896244 -3.07752755940336 0 0
124.947443048344 4.52477437112695 9.94695836003496 0 0
-73.1651598043449 -9.7998541244217 -19.1171098137703 0 0
85.3398926118845 13.8190324159622 4.2404144617266 0 0
232.519065781564 -44.6019385755714 -3.74550484467717 0 0
148.332078975691 15.085116974838 14.6349796560223 0 0
194.444927138897 -26.7347201286357 -0.576917293249395 0 0
218.491856972082 -52.124107205541 5.30000855217887 0 0
-178.023790579005 -20.0060844910255 -15.545253014656 0 0
227.055953102212 -48.5694970190071 -8.36926143018171 0 0
-52.5329039726597 2.64130916471627 -21.2497202689859 0 0
203.849989636185 33.7569875251777 5.21246480646421 0 0
182.633113317112 19.0468452425407 22.4521552192513 0 0
216.276623603073 24.5243026278257 18.4141144293425 0 0
-212.395004454301 -33.0282721826542 26.9540371732008 0 0
204.706363337122 0.386032673756228 12.2694804284306 0 0
183.551094532994 28.2338194509138 -6.47232208196658 0 0
-173.331746218847 -12.0283027317742 15.4928225855375 0 0
191.425827568094 -22.7000011300457 3.36623285607437 0 0
182.508064569368 19.0936129800063 -8.60076266102358 0 0
-167.902224493395 17.3574707633552 -16.3241066469934 0 0
-159.33225964794 -20.4890074229762 7.13894634211348 0 0
3.90054283166169 11.1652966972523 -19.4999143340825 0 0
136.586677183714 20.3273291307674 -7.6290781021901 0 0
223.211161279798 21.351748607125 10.5918670790444 0 0
-172.410771917924 24.5313069448799 1.89657824672327 0 0
177.602880535807 28.023044236984 -1.57537586172309 0 0
-88.6032968982847 -13.3600155074687 -16.9893568370474 0 0
202.471844429572 -31.9101053819776 13.1068925620279 0 0
202.037728168926 12.4221682951133 18.1482222839276 0 0
178.034703535028 29.5494205080451 7.65132214535759 0 0
195.208583062737 5.50522919024187 -14.4261792147227 0 0
-87.4737915113472 5.92054238803505 5.52256833746008 0 0
173.170042727674 3.7791724159222 -7.88910877836837 0 0
-206.873730864782 22.8904790583266 -14.173024933863 0 0
-178.038205064772 -13.0387319900286 16.5614533963067 0 0
231.985037150658 -44.6823644692637 4.92853026057798 0 0
159.049269172959 -6.64100813861567 7.53686648650304 0 0
-182.283859462576 -28.0563113140902 -9.13677191133474 0 0
98.1376192215487 13.5615734607014 7.78023095968177 0 0
-195.386982944131 23.54498170559 -18.942665083 0 0
122.898535087643 21.8816661328395 -3.87884231719784 0 0
122.879336108724 -6.14079396572532 -4.69929766438442 0 0
-210.714330430047 29.622260544134 5.71293405247704 0 0
-80.7560830489445 -16.5896617372153 -6.33777462387697 0 0
130.970702297108 18.2826293438367 9.25214884335798 0 0
204.813912866281 15.4481735561576 -13.6810959093247 0 0
-100.917385953842 -3.47980419740508 -20.8722001096194 0 0
-207.767563633887 0.00909092001409808 5.22643998231411 0 0
-127.401789215615 1.26067738739317 -21.0321128262736 0 0
-219.150496761104 -27.5995490429134 14.2538994722348 0 0
-200.007797818125 28.4062973175766 -2.63535486441147 0 0
153.935189474915 24.1496014173701 0.840270009661046 0 0
-153.816446598157 14.0742594717602 9.93901208488347 0 0
-208.396579993406 0.0737362296902153 -4.04369647254935 0 0
-168.142092265827 -20.8132878940596 -12.3647697062635 0 0
224.894212796424 -18.3575751754853 10.7214316414552 0 0
-20.2076354710052 -5.35678867467563 -20.8635923597592 0 0
-176.096761585272 9.82442479957382 -23.7166505859915 0 0
-193.529035613849 24.0964291118139 34.4816924661336 0 0
194.630569954416 0.077490187018978 16.3456765943649 0 0
230.537727415896 -35.2366397223575 -13.8004351674632 0 0
178.526638072266 -3.5234013596333 26.4161660380977 0 0
-13.6329445415574 1.01851460423763 -21.8169484620003 0 0
36.083556380569 15.8898805100712 -10.9061224052607 0 0
-95.3246527415842 -0.861361699081032 -21.1755644108655 0 0
-164.301077718106 -20.4401997273981 -12.0774058483408 0 0
22.8474461836465 -4.50274402473088 -0.198479328760325 0 0
-71.5233590023443 10.3353628957617 -16.4627853265298 0 0
209.564168470046 15.2069667140556 -12.7219330506787 0 0
209.119728738065 11.0203010011829 -12.8750999491764 0 0
-13.1734375693134 13.4913552243444 -14.5716403523758 0 0
117.40603801799 12.2903758801155 10.2285658428253 0 0
55.2124794792161 -1.42370970126987 -20.7573714254282 0 0
164.50296857264 25.7004258215755 2.08167874177165 0 0
124.085906079197 21.7511641550813 2.91821905350542 0 0
48.8127991744282 8.39494345158319 3.36462558649884 0 0
-42.4820039973607 -3.75174532974698 -21.0024928582516 0 0
205.001616852372 -31.1970863338851 -19.0625899796321 0 0
-115.643042768158 -0.374482249513447 -21.036011293024 0 0
209.767326379575 31.2332990891644 8.41795243406236 0 0
180.669457552658 -1.83227852738365 -8.55412185434698 0 0
-190.385723662965 -39.3973521195524 14.9642826943611 0 0
-181.452004336575 6.50845611819133 23.3848357370451 0 0
213.67951659348 11.827893731323 6.86534816767735 0 0
182.603989878005 4.81354414218237 24.0416270355924 0 0
-195.412385119548 -9.38139527418374 -21.4026077486733 0 0
124.446986932905 16.7135896625675 -12.5756443789064 0 0
-185.887567682135 -16.3941477207383 29.6983700944515 0 0
-187.368983301023 -4.44932909856269 17.2791996036953 0 0
-182.39677762949 10.1767486289017 -25.5610253015875 0 0
36.7436668826711 -7.67581806626191 -18.5110407936105 0 0
-87.3694674372836 -16.1813474264625 -4.52368732377076 0 0
39.1016469895753 -9.6560040003671 -6.74938538052916 0 0
172.426476006457 -3.71265419887234 -7.67603713199457 0 0
-44.7257786560001 -7.71828556247073 -19.9552571766995 0 0
-183.944199847001 -11.9185402984661 26.582336725349 0 0
63.9732485238029 17.8626427607381 -9.65859640400692 0 0
-9.69774312685525 -10.6704976769123 -18.2141399552312 0 0
77.5744314596337 18.3543052548581 -4.70774330470689 0 0
199.505517875004 3.06841384443743 13.7292883552251 0 0
40.8519503032918 14.7750718041603 -5.70611555991442 0 0
-88.4645829788718 -9.80126363534124 1.45424527421515 0 0
20.1516593314012 -3.53504572721084 0.458919507097342 0 0
-2.76163702801801 13.6210496129672 -15.7836994451035 0 0
78.9925742994297 16.7717911936222 -14.8408828642197 0 0
-76.5762413479766 11.7397044668041 -14.1016629740203 0 0
-212.343619660575 28.5888764319301 12.387444108999 0 0
-87.7121833846264 13.38716087742 -6.22211126619521 0 0
122.347723504817 15.2270648104688 -13.6531180215065 0 0
54.6131397904388 -1.23884722848691 2.54638713112527 0 0
-175.409341399144 27.2408879562994 14.0261784403339 0 0
-14.6342438537137 0.926193286658012 5.28226701512697 0 0
188.763135289744 32.8304709825035 12.0642448958452 0 0
202.035836733232 -15.2810379387845 12.9457089420377 0 0
97.6918605849915 -5.08963428995489 -0.235714300038565 0 0
23.6255880912531 0.19968297046824 3.32663339588027 0 0
-194.159988304717 4.01433167649977 -22.3327683174012 0 0
-144.718626388896 -20.6996557962577 0.107506371066521 0 0
-200.952545371725 31.7230268053693 7.1324231182597 0 0
-2.7068465161033 -6.97043146215508 -1.07284361707701 0 0
75.0340466501629 10.0593851886232 6.41138208183033 0 0
148.855506638808 8.55479522263021 14.4689836114128 0 0
-203.181205151262 -0.924407006681549 6.78604496817168 0 0
-186.30409901551 18.944610052879 -24.0516864385612 0 0
-91.4021124005898 7.2749202113514 -19.0852881641653 0 0
207.927840738161 28.6645054270967 16.5706451684821 0 0
73.3967358302083 -5.24579570112947 -17.1892242870857 0 0
223.50440384514 -27.1552869462829 18.005851345535 0 0
-211.650989794007 25.5318524839975 3.70474045159163 0 0
-90.7961062052431 -4.09657130652091 -20.8955380817848 0 0
-174.026931859683 27.0574833136398 10.016294191341 0 0
30.3406609130846 3.87558033832856 -22.2815868508152 0 0
-14.5114351184666 -8.01754417052537 -1.22766097518045 0 0
-64.818050294744 -6.20360441847673 2.51154537696119 0 0
213.300597921712 -52.5399502614802 -4.35727576143839 0 0
-182.607022384997 22.1259981975469 -18.6030106077964 0 0
141.97471104115 -0.944008567464748 -9.09875388410927 0 0
165.395886173396 0.231034550571556 -7.75829848406191 0 0
-7.17723941979401 3.31793688732791 -22.01662276013 0 0
207.61489061555 2.12298925166443 -9.47574360416208 0 0
-13.8800378035771 -0.869852486221862 4.84370201279525 0 0
202.103330530185 11.307917624953 14.6651153608295 0 0
-149.766475452111 -14.1204670502187 7.37920649019992 0 0
13.8723010485415 -11.8138597950014 -11.6657332005537 0 0
202.74681088277 -33.5089610501205 -17.8177400174006 0 0
-174.226215397273 26.5236966327266 12.4378923084058 0 0
-182.760925110927 23.5794600698965 -15.5181003686162 0 0
152.243644846949 -3.21554114288332 10.6144318187363 0 0
98.4529785732404 8.09714366635908 -17.9959995271602 0 0
-186.184919700668 14.3643865833652 -27.5856497439896 0 0
217.484261413016 -9.40891638016259 3.05739543466919 0 0
201.902698782826 15.316444791988 23.2827994192043 0 0
204.661428804663 -27.7602236232273 14.2848330706764 0 0
-181.575172657315 29.5105693655327 20.274625441028 0 0
-208.980265760953 -18.7089585257249 32.3224950620815 0 0
-184.628829175685 8.3293644488342 27.3292116771726 0 0
213.189734138807 22.1075969989626 -9.79810809488195 0 0
-188.442067139589 -30.4045975089748 32.4023456779572 0 0
-182.665748161042 31.9847277389351 14.2181536835369 0 0
-145.6378564865 15.3110138463788 -13.1641203981177 0 0
167.186770783728 6.16776377843268 22.0378550633226 0 0
147.273654045336 -5.13664990692932 -6.06644384861044 0 0
-203.057554103228 -11.6100348658469 31.7426794479026 0 0
219.991186768949 -52.0788562434615 -3.94541517431493 0 0
76.7772954816477 16.0568634161744 -0.728769411343316 0 0
-139.097188140288 16.327905721499 -7.5758109779535 0 0
-127.924636360352 -0.108437867820809 6.94985694763652 0 0
76.4003778815824 -7.59124786859999 -7.2624732472556 0 0
215.930713425174 11.6503854979068 -1.70265231498372 0 0
-167.498294320729 15.6858990517198 -18.4702518608893 0 0
88.306583470576 18.4246885643696 -1.1055752739056 0 0
-140.535068508369 10.6943870307034 7.38673106706994 0 0
-112.863467830179 -11.590412161406 -17.9305689122539 0 0
-175.44295211095 25.910644671006 16.1081905993162 0 0
209.513893612307 -30.9873727606045 19.9648280857121 0 0
-49.0953558925656 -15.321819634308 -10.8237100413227 0 0
-7.30674579807712 -1.40396045029193 2.95014786346514 0 0
-12.0661470592631 9.78742917050627 -1.62828915661476 0 0
-177.980735043513 25.0307043449574 -9.80110550027088 0 0
19.6888089207887 7.9054916665723 1.4617846391954 0 0
215.59750616384 -23.7473801000275 18.5726800335056 0 0
-122.935336116654 -9.44610736186493 4.84911258235831 0 0
-209.492790006229 7.89403235181692 -3.36580430556078 0 0
145.246518001006 18.4922920916882 12.5087968599437 0 0
-169.981339570018 -7.06923503449322 12.0446310545637 0 0
32.5698748830359 14.3760830561492 -17.5287086489681 0 0
-134.368774929267 13.8818858605049 -13.722279338517 0 0
-54.9255701909795 7.85167165978954 1.72514250781838 0 0
-194.895811574904 9.38172084708077 24.9795384130404 0 0
-20.3807002764176 9.58521643864665 -1.5211696713673 0 0
-156.140747546161 18.7878697188862 5.51645009928521 0 0
-91.6980882587016 -16.1282780033813 -3.88832900556474 0 0
-188.532062372771 34.8456542450934 11.9997815941157 0 0
-174.972826678588 -25.9893552777634 -8.96200716673156 0 0
-98.6395573624617 -1.82127392304249 -21.1328057745955 0 0
61.5636109978937 -8.67524038513773 -8.49314861986335 0 0
154.960191597004 -7.93879718834118 -0.358665267646764 0 0
4.08299924232829 -11.0810803823475 -5.50792507620211 0 0
229.175517451077 -37.5153250517502 14.2168760089682 0 0
158.417617257263 11.0255614484447 -9.92865681175563 0 0
-21.0652148215256 5.64362977694797 4.12661821474247 0 0
-193.412359724372 33.8087357585298 12.9769845986951 0 0
-164.985358402629 7.76727223853865 12.277627500635 0 0
160.333733900805 -6.70830259755206 20.0063451220928 0 0
-136.079881752847 3.02092811426513 7.42572033939886 0 0
-138.334561695391 7.79158842316544 -19.9514578789618 0 0
84.1030907070027 16.2818888877339 0.958043113714829 0 0
218.787874481557 -20.3614949022264 -17.3259553843224 0 0
-163.483739363177 3.70211828808911 10.7459763289438 0 0
-187.486627325703 22.6187316086348 33.7891935578596 0 0
-194.827946989104 31.3943820646948 22.8583470667951 0 0
-211.721291515154 20.6220336180053 16.0747451661317 0 0
215.560276062303 -15.4766350223027 12.0505945456198 0 0
-217.989846939155 -29.0832131525067 5.52017518237633 0 0
32.1111980927029 1.14614297452929 4.41698767450415 0 0
-94.6597720631732 -10.6246867032748 1.5544098065796 0 0
10.5525006644229 -9.44410272246186 -3.67000199942155 0 0
-42.7333264153873 10.2792207383255 -17.4532610951476 0 0
-185.183328657944 -37.6458993378794 6.18493291640208 0 0
37.6536771544077 -8.44959772809463 -17.4429758297039 0 0
140.45884424887 15.6182816523539 -11.4474519913704 0 0
101.197060766568 -5.07045290693184 -11.7873879236795 0 0
-210.120895173682 -34.2809659599228 23.4531617205233 0 0
228.970559093421 -43.731159699177 11.0787225276959 0 0
-188.632042570681 9.36616921039883 -26.366100061155 0 0
80.7434573739445 8.07092783278222 6.48541404905197 0 0
214.106881096654 -51.5837979169613 -0.79496264943927 0 0
71.0284976615116 0.839839357548236 4.42433079974809 0 0
211.906089716813 10.9233849723419 -9.99910411677491 0 0
195.999774562747 -40.9534223259781 6.06569201979171 0 0
69.8158888203696 1.57900579250829 -20.4106830273105 0 0
4.6357901091173 13.0214340218411 -6.5394002381902 0 0
88.7172898376727 15.2238016789274 3.60746608779111 0 0
-92.1691377645426 13.187042439735 -2.98630961946463 0 0
207.283262884971 4.38114313676069 8.18447481485718 0 0
-185.687792752941 24.2759202255444 32.9614424551311 0 0
-184.208990194395 -11.3632774449063 21.1777522730386 0 0
188.886231961885 -20.0214749543946 5.58829733005517 0 0
-167.76835636676 21.831570612638 -3.69496995770856 0 0
-205.584480065379 28.910131392031 1.22104407871412 0 0
-44.8121722302691 -12.4311242801017 -17.124367868607 0 0
-177.977063731398 -2.49499553653311 -19.032685266035 0 0
-205.997103150761 -28.1753559425289 -3.67190547701159 0 0
60.2239177607592 -1.37125235224347 2.6657747512703 0 0
-206.175437382289 31.8424266053011 11.139628234699 0 0
213.695560767974 15.8580498433948 22.5274909143401 0 0
171.012957729167 4.5393493694947 24.0708172272575 0 0
26.033258431055 7.08524754093199 3.01621667794219 0 0
174.547724597571 28.1264118253875 1.19227935045646 0 0
-89.9254407016729 -11.9795167478068 -17.9660749864359 0 0
-194.608754296045 -11.1689369332712 31.1587930666544 0 0
184.517387232703 31.4306901379334 14.0237891396295 0 0
228.307515800218 -50.0919481366775 0.00838618595246791 0 0
-209.356936713801 -6.35455459849329 9.74660757301614 0 0
-14.3568085860529 2.96094615824344 5.25343782812932 0 0
-73.9249290817093 -16.224486871983 -6.50190765755894 0 0
-168.520391864582 22.4230173479908 -1.31908832971676 0 0
-206.949077119324 31.7575182280476 27.0335238555297 0 0
-39.8291031736132 -4.82033038534737 2.0247563982648 0 0
-205.768859797434 13.1168201875316 -16.9701166012219 0 0
54.0858953565597 -7.28628086706694 -3.84410684735744 0 0
-43.4534434859105 -9.25218741950752 -19.343948427945 0 0
208.266450359872 31.5514434488707 9.90850336289138 0 0
116.889406696999 19.7013041651678 4.972040079211 0 0
-18.8124071929632 -10.4314862031876 -3.02760683205475 0 0
-106.558363360616 -8.15744890211794 -19.4925880407538 0 0
-67.6016415260656 -7.23942170169186 -20.1016187562336 0 0
-185.496772723204 29.6899647351609 -2.36977367614547 0 0
175.286426714679 -11.4503812720819 -2.74840780471668 0 0
-114.807431482611 -11.3639456021274 2.93424545882842 0 0
207.858854939359 -52.0896962552971 3.14027769684538 0 0
-24.3459574584666 11.3877805000038 -17.0777233246356 0 0
168.71479320966 24.7474965977988 13.8558558681317 0 0
-170.986312112424 -18.0844778799145 14.4246297349505 0 0
-175.354295779428 -15.0942948771574 15.4969688402122 0 0
-197.36004482437 -1.88767668623715 9.74521119528498 0 0
-199.938752261361 1.42023445520901 -17.2791980889303 0 0
-184.622637512253 -1.05771397008092 -21.088259453839 0 0
190.931072330956 10.0441688606399 23.8724206779182 0 0
120.078846038074 14.4439556165634 10.4469365059428 0 0
106.476017999035 -6.1550066608386 -6.93936724608194 0 0
142.688472444533 14.1999086189796 13.637520970701 0 0
-219.448414186927 -23.6350077237287 8.99373253037055 0 0
3.47060015124293 -3.69323307562829 -21.573559449619 0 0
74.9054672225905 5.16723878889067 6.33506782622175 0 0
208.197857519957 -25.0432558914531 16.2799842014675 0 0
-74.5124378731791 12.1351984073871 -3.30263965522576 0 0
-175.057340297918 -11.7173963374459 15.6933084379634 0 0
-149.376465222165 -5.07860076144501 8.74697199900634 0 0
-37.9890286530153 3.7467942749463 -21.1536835812253 0 0
197.361288799194 34.8250371303988 1.45265502016441 0 0
19.4682350142506 -11.159351549517 -13.0670983500448 0 0
-196.203868616107 27.8531582303761 -6.1316548142532 0 0
-186.751030814998 33.1172169338238 16.9345831276284 0 0
-121.592403233975 14.4268045722603 0.935012426952366 0 0
161.427712433046 5.07259212887349 19.8694037306401 0 0
-151.127355710507 -5.88266968255436 8.93548382639379 0 0
77.7263454564491 11.7609442718301 4.5436272241367 0 0
5.62365296151256 -10.8336777312206 -17.4620347454988 0 0
-207.424184871021 -3.97292015333286 -10.007767072493 0 0
109.412780587983 15.0410792882259 -14.956344327938 0 0
14.8740503510449 -11.7436836416686 -7.75491010155647 0 0
39.4561017372542 -5.69240536687255 -1.32725641790931 0 0
-163.875814365517 -14.6043655790672 -16.5195137647048 0 0
-193.816648274826 -29.1186892698289 -7.49795337874934 0 0
181.532924733475 2.07775067445539 24.4087261443319 0 0
206.759076782192 -32.3091251451468 -19.9913129455724 0 0
-181.690589909239 -34.0532487694671 0.708333277459394 0 0
188.746075461512 28.3671054661687 17.6833297356965 0 0
-21.1906372946715 -2.92110674101535 2.18686084958976 0 0
77.8667709777844 -1.78226204824875 2.83827815921683 0 0
-203.040654165812 28.9235323530341 0.707632719526713 0 0
188.664843302921 2.20137829502126 18.9992203822597 0 0
149.89868968768 10.74255224861 -10.7977525907031 0 0
-156.585612060515 9.76193861705012 -20.4035547736828 0 0
-206.801540462412 27.5915538064501 -2.89903992615167 0 0
-177.347992412167 17.5833008875688 -22.071136343465 0 0
151.463085078414 -6.90975867994681 3.72497611426124 0 0
-139.377670235543 -15.0728525797405 4.54415905126353 0 0
33.8561745489448 -0.778420343291593 2.41931817919349 0 0
22.0314919316927 15.229054945795 -11.3188173812224 0 0
-66.9069216567984 -1.19061069282029 5.31889325938383 0 0
-173.125796232321 -25.9489024869511 11.8437854648263 0 0
204.983067796176 21.0800877536722 23.0317759002935 0 0
80.6433365649863 2.95907792743948 6.67348296850395 0 0
200.213420903323 -8.17927360876915 13.5660502222918 0 0
-183.436575495239 -3.41319753851571 -19.0758307972497 0 0
-208.792002981387 5.47597995979765 -4.00160063859132 0 0
-59.1220943847331 12.673759117863 -10.7074283737406 0 0
78.5047754830158 3.18202335987007 6.49000131179644 0 0
201.699483800113 8.85121725430464 -14.9647876148232 0 0
48.3607461339962 10.9279355705237 0.528622435652422 0 0
-194.266502409366 31.5068699163426 1.10156363450997 0 0
-192.352845737638 21.7346756409777 -22.1580850422798 0 0
-0.456338610464023 2.19499623664271 5.18827081758157 0 0
181.028246065085 23.4215599922127 18.7246010276825 0 0
67.0878881042578 -0.57960685172441 3.35442080428367 0 0
212.554466059415 19.2487087558524 23.1453759550723 0 0
-117.40776433841 1.07669781741125 -21.0286777968083 0 0
-189.601832421015 -24.9861691176167 33.7722198456686 0 0
-198.960543411419 -34.1646542347883 27.7296541434459 0 0
202.310182600522 -3.84286269951248 13.1072134212484 0 0
12.2967240717938 -11.7967208435678 -7.57665683853645 0 0
-210.446750759479 25.6171501726419 -1.58727090658245 0 0
-88.8296111121691 -15.2004939202511 -2.97716176918556 0 0
185.608666649488 14.9944327212261 -10.3526382752808 0 0
200.160870293216 31.0819209105321 -3.72893595169304 0 0
-101.231230609468 -0.746483254473249 -21.1289829102147 0 0
-185.278545285095 -8.47025728537605 -19.6321212709836 0 0
125.206975979295 14.8815092540112 -13.4557451971139 0 0
-22.0237687112313 12.8275880804554 -15.2221625060485 0 0
-202.313571286322 28.1274384844818 -1.69073117233843 0 0
154.085743931362 24.3969585025193 6.61934028034832 0 0
97.1733222819714 -2.14942202867299 3.26857457752623 0 0
140.73137247945 5.01069935007256 13.2441150334479 0 0
-95.5011051865375 13.646757968119 -7.29226448383134 0 0
-214.571201284593 -31.5679193508247 11.5806905666389 0 0
-29.6887210179508 -5.8049924274273 0.747577047505929 0 0
-200.513114531271 15.4230260499978 -23.2670345952667 0 0
78.16032211109 15.210639196214 -16.6287745789334 0 0
-40.7230078307593 3.55041663763346 -21.1281560295655 0 0
-150.240503277157 12.7189175252869 -17.6325124213606 0 0
156.012223772372 12.3051874618332 16.1361401371746 0 0
-126.924170400689 15.5644312707717 -3.365555664491 0 0
110.625362760944 21.4659373755587 -2.4465358923613 0 0
-46.5042561998745 -14.3438022847857 -6.29318502416296 0 0
27.0126581461538 10.8761437065763 -1.42213032815358 0 0
57.2308451769042 -1.73516495772724 2.32313862077337 0 0
-185.081814049341 -16.9894833127972 -18.342554868142 0 0
-214.021639035363 -22.9768299482055 -8.21422355426123 0 0
-191.391461139003 -11.136661250491 25.6432217623041 0 0
-70.9509107451973 -14.3110435046682 -3.43987618038178 0 0
158.356344577313 22.6271053746372 -3.64902968759364 0 0
209.159783024689 15.5927411235444 22.5105857578838 0 0
-184.986660303585 13.4290758856701 -27.0714610832355 0 0
-158.363185959335 17.9798291586423 8.42464831207987 0 0
223.001557625972 -20.8557415427789 15.1659021903776 0 0
91.597867970518 1.00950698409288 5.49431159140233 0 0
111.363043480121 17.0310631406321 -13.2611995803056 0 0
-174.734170067298 2.60289545981574 13.2876612942044 0 0
196.915215174556 -43.2399254752578 5.29401665755025 0 0
-15.9109490942067 11.424039984327 -3.80381818927485 0 0
-194.395136829038 21.3156918057504 -24.1039706067919 0 0
160.15327585909 2.75180542157887 20.3398336743665 0 0
-206.612553880315 -0.65999942862711 -9.51903627645935 0 0
-78.0336820914834 12.4159813462144 -12.2988631729738 0 0
-72.7925146754484 6.0948319023576 -19.8738541139654 0 0
-172.671571841779 8.10620231246649 14.3025613021329 0 0
-24.5260481073906 13.0394301660218 -14.2169023744765 0 0
114.811019288771 14.6987797706521 9.39994119393936 0 0
-90.5085713300856 -16.5752409384647 -13.2210180313842 0 0
72.4922535290099 10.008459109167 6.07590505211955 0 0
-59.3927873836632 -4.03237216124976 3.96240876598265 0 0
-73.627664555132 -7.43315412904333 2.23861237165226 0 0
-210.452809485018 31.9816768678368 12.5472983280011 0 0
216.323910447866 11.702492436907 3.78676175414932 0 0
-188.746725028116 -11.5421646973035 -20.9376045255394 0 0
70.5639711516862 14.3312280333604 0.125989921126051 0 0
52.7939834143093 -4.9230715030787 -0.596191408965547 0 0
128.894826241767 13.2272841783311 11.3782331724538 0 0
147.523002358609 17.7428373731072 13.9362517228923 0 0
-181.380544413789 -26.6543711316812 20.7934443938239 0 0
-153.762323842344 -1.89407981012531 9.04211774543761 0 0
209.384315328946 -32.7452808110094 -20.8387670809904 0 0
164.994211864775 -1.1160743554307 24.9905738337476 0 0
99.473398324615 10.3309889548708 -17.691688731917 0 0
-87.8562029993907 -16.2848614642504 -13.5664225812815 0 0
128.174516707781 22.5500722713003 1.02381850498024 0 0
-122.536810488453 -16.8561567613527 -14.3854980426688 0 0
-177.683904209449 -8.87633173088085 15.3822092522671 0 0
144.915456148083 -6.86854657102644 1.63224607313145 0 0
-205.279885626005 30.1182611953539 3.98033582338745 0 0
-142.154940345066 -19.7003595906198 0.829396153808215 0 0
95.0133042013601 14.0917484342702 6.13096910053137 0 0
-167.036091800989 -8.6966426688749 -18.3870023810701 0 0
-187.593793023902 -7.44339566848833 -20.9405791220671 0 0
-210.03509655521 17.6867313729136 19.7167267189906 0 0
-59.571374673587 8.73550897033882 1.08116209827409 0 0
-18.8330438055282 -11.3315434905605 -17.8818527494523 0 0
-201.931931186914 -35.3485573482842 22.8051356717571 0 0
-196.285393690917 -8.4726805257978 29.5530352509463 0 0
219.970257031365 -13.9823057915896 6.58417073749359 0 0
-4.1873842783129 -11.5421806403324 -17.0019829320485 0 0
189.062769039337 -19.8860275529185 -0.289502171682193 0 0
-40.9546792328448 -14.3359264222579 -13.3560846477492 0 0
226.387077443816 -46.0239203046404 11.7161186255522 0 0
142.035595142308 3.33255658259546 13.0848563293219 0 0
86.7994839835474 19.0559140999577 -3.57290356252393 0 0
51.6692377692932 16.9476927321931 -10.5294668987482 0 0
80.703595258655 -7.49721421802946 -8.41742293823721 0 0
14.4355887021917 14.7969645662682 -15.2230824839362 0 0
105.571286894157 18.4520255646897 3.87549232271759 0 0
188.783799866409 9.38059651116705 23.9760695996193 0 0
-199.287896803463 -7.39565035233531 14.3974915618315 0 0
-173.584732211794 2.92279168618713 12.911374432635 0 0
99.5631766581158 19.5911619029607 0.325679641387577 0 0
-157.900884032617 -19.351697247688 -12.6941492384559 0 0
46.3443309334539 13.8169261799683 -3.18658919114557 0 0
223.115479580119 -15.8678080977904 2.42500299167322 0 0
-196.311041644159 30.9175385883794 0.973491686411556 0 0
89.0115924403553 4.83050381042637 -19.0831406502762 0 0
189.511292390422 5.38589566208469 21.4124895205297 0 0
-118.200127497779 -0.346582838371662 6.42826088005165 0 0
-106.142883766995 10.9940886193424 -15.7490986940597 0 0
-90.1536659827845 -5.86542409055268 4.07051493544258 0 0
206.843645723884 23.792091379691 -9.781940761612 0 0
190.608030782471 5.75053877879948 -13.1420886828927 0 0
-128.548931162068 -18.9381935796164 -1.41319937013378 0 0
232.797172582927 -22.3663764397037 4.82314124664777 0 0
-196.016757913863 35.0723076442128 7.91868538144043 0 0
115.824974784138 21.8397802531599 -1.7662831471609 0 0
182.106406488083 -14.1849227603272 -2.42075486682436 0 0
-78.9942329610697 -16.7855577117496 -11.1592838491587 0 0
-171.052889467741 9.04138972455855 -22.818402542796 0 0
179.639711131889 -2.19892895033544 24.9388361186949 0 0
-84.352871183057 -4.98574795679521 -20.6818674946034 0 0
-62.0043685800557 -3.8323341363586 4.15238780121755 0 0
-176.374232222462 -21.9676207163056 -13.4508219270173 0 0
207.242495353344 10.0270753144491 -13.6633965586748 0 0
-151.126504046928 7.14839714585197 -20.9043319017102 0 0
-197.293298086913 16.3705997229371 32.6186930928545 0 0
172.407930036749 24.8200855756577 14.6997280723505 0 0
-190.827480722201 -14.8706970183832 -21.0966065383593 0 0
-200.115019491104 -6.7403850196424 13.2040256944662 0 0
162.821029490381 -8.01174170982758 23.8473859394247 0 0
-42.3093280513831 12.3907795803019 -6.74909159958222 0 0
201.666485789183 27.7998859862633 -6.86629537995577 0 0
-197.558673881153 1.3585554725255 9.5968740823048 0 0
48.4511505405069 -4.80478315670022 -0.45225811702156 0 0
15.9223072963768 2.13196502550573 -22.3148790240358 0 0
13.1939754614512 5.46057550218147 4.45624620454203 0 0
221.36097810715 23.254588134428 -1.61751962835834 0 0
-117.001940854317 -3.4646604411931 6.38472022281185 0 0
-207.902472406661 12.0594631670367 -12.7246771219539 0 0
148.915957270183 -5.05880196070188 -6.14935583425693 0 0
155.151396333052 1.4030069440667 -8.70275418242229 0 0
-133.950024305078 15.5623843309372 -9.06172481714592 0 0
-56.6889266288355 9.44414916349726 -0.0125069187959291 0 0
220.170826806872 23.1731528889559 -3.39382948065008 0 0
102.244865299285 -3.57590667272668 -13.8586502102255 0 0
-175.096873937384 14.6715929690745 -23.1936636108563 0 0
-184.090559219945 26.2851850116545 -9.33342292901045 0 0
-112.449274484704 10.7089598554224 -16.2877628120642 0 0
218.524635036725 -36.4873520623478 20.0376473054111 0 0
30.4929626648193 6.43057670103533 -22.0571599828891 0 0
-80.3725310072496 12.2686736333695 -12.8948203242172 0 0
-192.579623344007 -29.0267778682524 35.0188043950827 0 0
200.803344668117 -20.4966478417712 -12.0736683827506 0 0
-124.412603431519 14.9492373740467 -8.09435696313042 0 0
74.5961256896604 2.66841921307721 5.99824307097424 0 0
-15.115371900526 -2.2076777427882 -21.5804327161002 0 0
-10.5578863818783 -10.7916708616113 -3.94398181517195 0 0
218.111183376675 -48.4720294762399 -11.6810639892596 0 0
-194.228382138259 -35.654247443893 30.3897994554161 0 0
108.134140042402 -5.7358264778101 -1.3810279964192 0 0
104.83534356491 4.42856419392652 -17.1835051489923 0 0
214.796736662659 11.2991966708822 -4.52737027208843 0 0
194.31028583924 19.4237296302766 -12.0370211183916 0 0
1.20727214678342 14.4352783426164 -12.8181172342631 0 0
231.8989055919 -21.3927505141321 -5.77057721200615 0 0
6.92718867736805 9.87455480540944 -1.38535080560852 0 0
182.54597833216 8.34129273519168 24.0055714872104 0 0
-119.55349009593 -2.45716979968511 6.59220806705124 0 0
-44.4784851173782 -9.63516581267827 -1.28529927819605 0 0
-152.926704986608 6.49975829831965 9.37417796447793 0 0
-73.5203635895409 -15.4007944718508 -14.2498402635591 0 0
205.431938594891 -48.0649197237649 11.5910621766791 0 0
-196.062505262236 -8.98785908909027 17.6532315255211 0 0
31.5141050387443 1.03373368891032 -22.087587803354 0 0
-65.5206682919452 10.5293192687261 -16.1916207266903 0 0
-112.754853520134 2.13100721132887 -20.9295197208146 0 0
217.271938394926 -9.98112694585822 4.88042473608048 0 0
-217.633484247571 -19.4369459334957 -1.07247124964527 0 0
50.7921373366738 5.90029586238203 -21.7285990692408 0 0
206.095170662733 -51.133470441086 4.76072663222837 0 0
-211.595579862452 25.3496811030867 20.8652625541348 0 0
74.8264812948854 6.17603654124219 -20.349862476138 0 0
-193.192722194501 30.9821091874587 21.9601467767461 0 0
-98.8071062339554 7.4465491910189 5.34499450409672 0 0
180.061608359075 4.27107602988469 -8.78819621707862 0 0
65.5987329563619 3.71396283333428 5.76423136160298 0 0
-185.133905282426 20.5634855422996 32.9683142537512 0 0
217.960596667036 -45.8840769283284 -15.7836744560342 0 0
-164.328680181267 -11.5453768632899 -17.9133640070168 0 0
224.33785973574 -32.1682390379273 -19.1179049741644 0 0
-205.302950839194 23.1331816435721 -15.8406981479793 0 0
-159.96293761204 7.36671912824791 -21.4186545775906 0 0
-89.1889722857216 -14.9131142436911 -15.5318402283158 0 0
-95.8276092302652 2.17244000171795 -20.9513757507699 0 0
-82.7818461866169 10.5312094909431 1.32699911075598 0 0
120.52305108636 -5.65147185007119 0.0225921043898117 0 0
114.211042540348 14.6328777838262 -14.7597132335332 0 0
-20.9732758204568 -10.5064801045884 -18.6137436142512 0 0
128.681524112193 19.6981996633072 -8.93834669700173 0 0
32.8644787476051 6.67973692472958 4.52731703273336 0 0
-143.788112930569 6.70594599448581 8.22559866537692 0 0
231.127777671381 -46.7710030971836 -3.29751877952181 0 0
69.6309840665539 18.2822633988725 -8.35845109296915 0 0
33.2727420061331 -7.09554995930884 -2.34182298190154 0 0
67.3026432871192 17.2678126700793 -13.599062604787 0 0
-145.833746000768 13.5058230425852 -16.1954020761902 0 0
161.864603070998 0.0159344787704512 23.0232768494002 0 0
191.065466679298 12.2793164622121 -11.6959885135722 0 0
-52.0865263449701 -10.9985092402017 -2.14478674189144 0 0
-101.175163729797 -18.5484214188371 -8.07379299080543 0 0
43.0969973964711 -8.95693794184444 -5.99793035037359 0 0
3.445214621077 6.31328251348203 2.2966424175108 0 0
-23.8700374866782 13.3010205681226 -10.6895770746531 0 0
-209.360788127865 32.3921834341876 23.0325856374158 0 0
102.786870567972 20.2459109546037 -8.30579094028121 0 0
-204.040820928995 -35.5966059496245 21.032558114818 0 0
-61.1051874403793 -15.3662293249944 -13.4211901319206 0 0
209.649083031365 -29.2241394162423 -20.4626343266604 0 0
107.845060655983 12.0417217270924 9.32481408512589 0 0
-142.387888638127 -14.3460784906255 -16.2108539669724 0 0
-215.944809314711 -29.8175923459258 5.95012434119495 0 0
-186.339888910352 -30.8196243018377 -5.61889065586634 0 0
-201.183950797379 -38.3955932406415 8.24299731208275 0 0
-138.280518885458 2.65853548288614 7.61755389593992 0 0
-106.585699951059 -3.02847141201434 5.85146979203944 0 0
205.173154825218 32.8194909992949 3.93003925089734 0 0
-209.374077762191 28.195910842654 26.0305833550727 0 0
73.1485283772429 -6.41466733176758 -3.20282615104559 0 0
156.82921244617 21.6510130081023 -5.13790060619556 0 0
-202.451398189951 -7.83017372690903 27.3555595022032 0 0
233.421253059263 -22.3548609294623 1.0555688006387 0 0
211.620169482737 13.7217152511081 13.1005697922637 0 0
-104.070875205133 -8.22053929014192 -19.5046727778476 0 0
-19.5928495817815 11.4264304546462 -17.4443588320743 0 0
-203.789181056083 0.655235301139721 5.92740990371989 0 0
197.628690784552 14.3938916412253 -14.2425323560337 0 0
-116.489150885966 -18.8646656776354 -11.3634223629097 0 0
10.766534574218 6.46103808124839 2.58858707248155 0 0
215.986614952371 -14.1420055115416 10.7061680076063 0 0
-183.33765407328 -24.4657869653003 25.7690691796127 0 0
-97.97632406439 -17.6932935321832 -11.8634062880575 0 0
235.170946047227 -25.993968508819 -0.394271862820746 0 0
166.724666760323 -8.40171604253211 16.2307129192037 0 0
-186.304172484117 -10.5378469998286 -19.8807142934301 0 0
145.233241878785 8.91318468875174 -11.4466028486338 0 0
-28.346675891318 2.64913934925301 5.44015532067289 0 0
210.023744792816 -38.6476331084642 19.4231281320391 0 0
-64.0443960322958 0.576101086222657 5.51451653917794 0 0
108.216870883141 10.3972076569375 8.77803720084944 0 0
-137.79759941042 -16.1772188138807 3.31604839589143 0 0
-197.616908336841 32.6049795651169 22.7715782612585 0 0
-138.428341092688 14.7736430949164 -12.6602754957681 0 0
196.287697435594 24.8292028092226 20.8132940881555 0 0
225.194904362836 -22.5159242170157 -16.0981990175727 0 0
-13.5837818983236 10.8980877375843 -2.99203191717355 0 0
-204.865695649985 -27.9987386373744 35.4264362358517 0 0
168.308864658097 -10.3924427118763 23.0623565573722 0 0
197.093161500212 -18.3581975011384 -8.9912778213179 0 0
76.851716273926 4.43577225236253 -20.1029002298738 0 0
174.272483499948 27.3728539578739 10.9378077541106 0 0
-3.5869934007612 4.27291661177583 -21.9959236800287 0 0
49.7883776125476 -7.81458338184581 -16.7774890988604 0 0
-176.169569312131 -28.9018305614191 12.8457830715155 0 0
-162.037269017215 20.433392451427 5.63229373675847 0 0
-199.289391701734 -2.73889017856296 10.1165537512809 0 0
-136.91795807715 -1.65347873431173 -20.7719621862742 0 0
-152.302796511009 -19.2572209971006 5.28112828167558 0 0
189.989431660844 3.56060982626737 20.0756028218681 0 0
114.233596612323 8.74742584643522 -16.1853627200953 0 0
45.8379560827472 6.61092560068168 5.4305313440915 0 0
-84.8716089695261 -15.4938441512978 -3.63838331547792 0 0
-201.829272992057 -22.6179193903103 -13.9138147959901 0 0
-177.566665010426 12.1813317729157 22.3606835652691 0 0
215.929400782682 11.1669450538763 0.0145611115377221 0 0
182.515811788923 27.0100769905417 16.8985617062695 0 0
169.567883661951 -11.0520216014269 2.36260246078638 0 0
91.1641816562625 3.93144697822518 6.95689453480636 0 0
-181.13092105402 -21.6661991166286 20.2816933191965 0 0
-23.0288260483408 -8.7079134389968 -1.41450697459013 0 0
-205.697979235898 -35.7905693616505 15.2000864550127 0 0
181.583754655099 -11.2293280227731 -5.0226869101135 0 0
-150.412790678872 18.2067605984463 -0.518439372038861 0 0
207.891320784317 -4.02834844120814 11.3562545736841 0 0
-140.545523864229 -19.317039765956 -11.7626798867012 0 0
-206.767647405006 3.43732193584932 5.72180556415452 0 0
-197.348661008232 -8.23281424452553 16.1675707249793 0 0
-165.743026779156 3.2310606592082 11.2599386415573 0 0
-179.690477606076 24.5376396195947 -11.7776537959778 0 0
169.661970540564 23.7980713859105 15.2069194782769 0 0
-186.270384835302 -10.7942649997834 21.0572408194303 0 0
-136.305126699729 -5.50250148805401 7.39663026008561 0 0
161.573072528867 8.1636925429626 -9.00095665963223 0 0
175.992702397244 2.22466845646041 -8.08901972488735 0 0
-205.584986210452 -2.72152558195101 7.42778587810947 0 0
129.613167453011 17.4871768569201 -11.4192023783389 0 0
-117.604467451331 7.68538434946813 5.7318569660133 0 0
155.556491726071 1.82418834994319 17.8944686093447 0 0
143.506958393107 19.9118754342169 11.2047891928761 0 0
26.1448860069788 8.55858480932366 1.05776866498161 0 0
183.879205479616 -12.5217939244529 12.2744323163973 0 0
133.756777098599 19.3404171758141 -9.18861339700338 0 0
104.230794103806 1.73251651054121 -16.6528485089308 0 0
-212.164531730376 18.6405017071611 2.13404822430782 0 0
84.9838764373438 16.1538310479021 -15.5279136874758 0 0
28.350359865285 2.35061205000386 4.93039564481284 0 0
213.44443540199 -18.9958558948037 14.5005894044797 0 0
150.17486989594 24.0773183592592 2.5850065087678 0 0
-134.546593162518 4.74616572575933 7.28321510979256 0 0
-24.9962420696245 -7.8849024081861 -0.781040819087802 0 0
196.998994207616 -43.9033431766823 0.967467231085111 0 0
78.4932936515576 -7.37506306484951 -11.585365621264 0 0
222.37513918664 -51.9595583965721 3.52089332129489 0 0
39.7936843200565 11.5269013190925 -1.10341664920169 0 0
-178.316098259941 -2.2176190872734 14.4104461954447 0 0
212.530382765732 28.3254677654838 -5.203084853547 0 0
-191.017621408375 -37.3082317395318 3.12653359006257 0 0
195.222828394315 -28.4178267642238 1.60215563601398 0 0
-209.594104324709 25.8070101061934 25.9500395268681 0 0
187.845674617601 -18.2505570453947 -1.49621673258083 0 0
47.4579881393483 -9.30928715395889 -7.84192904049509 0 0
-211.156953697827 13.1246350356013 -0.438858685456496 0 0
-135.029164064073 -7.83427327230276 6.77649022213178 0 0
161.516025836316 -4.52716953447694 -6.66182585414893 0 0
-151.550793098651 12.9309361481913 9.46921394838547 0 0
-154.884235183937 -14.0625662732412 8.77101957863643 0 0
-199.645546001102 -35.5453302609082 21.8150683218186 0 0
-123.001521568197 -16.8168713576385 0.180491550093036 0 0
-128.960548234268 -10.9995450990934 -17.8767997067839 0 0
-77.2015836764269 -5.06365124747014 -20.7045331736544 0 0
195.075607912215 25.9985426821298 19.5144566267498 0 0
166.564747471823 -7.03848631584387 -6.60262433018977 0 0
69.7975511474735 12.5928544664502 2.09963463147761 0 0
-62.8721194101147 -4.58526397560019 -20.8459914205642 0 0
11.9887605493495 0.383214400202678 4.61533039971943 0 0
187.521876344756 -17.6840929814349 8.05987002278681 0 0
213.168364899966 14.9427236501156 -12.6204581823175 0 0
10.8631430209521 13.889992554192 -16.8110485684051 0 0
-161.06812772276 -12.3078114528307 10.9969176530725 0 0
208.851282897342 -7.80007793387264 -9.92921134259051 0 0
-18.3759604665298 -5.49057601793482 0.490761809775445 0 0
-43.5542161565245 -13.3157319692052 -4.96383485742518 0 0
-96.7619310552841 -15.9860007878061 -14.6473641087071 0 0
113.998508200462 21.6491968479912 -3.2185999860577 0 0
-115.420158882061 11.2975352152485 -15.6705697074913 0 0
-215.546079804633 -14.7524265174822 -3.06153524817129 0 0
-167.580134583893 22.0108037572356 0.424358913457925 0 0
54.0541127101638 1.54850192910278 5.17865638311745 0 0
47.5961450927021 -9.32630282583528 -12.6739873238931 0 0
-75.3331172274861 -8.48649943412953 1.63975809887763 0 0
-99.4876873999256 4.77628965082715 -20.2513966959231 0 0
-155.14377531285 18.9784349648085 3.37247154451632 0 0
105.633827019743 5.68625714129108 8.05999298461039 0 0
-186.32883991731 -13.4729754863172 29.4025987321753 0 0
207.215956995827 3.13320305087546 9.51154855061711 0 0
-30.0072337369888 6.15430268243792 3.63624744495634 0 0
46.6204522520399 -6.47358349988389 -2.2675152757941 0 0
210.198135389174 -0.97124081202931 8.4414953903267 0 0
187.012915023339 8.91886545017885 23.9749660286791 0 0
232.842753216818 -24.5485935889667 7.78914457268408 0 0
-171.475231520283 -16.0864040474291 -16.6498623080572 0 0
76.8226458794327 -7.89815867088837 -10.2458211720279 0 0
-106.208082316883 -18.9846513165468 -8.56948747749816 0 0
-154.01160637003 10.5420890203214 -19.8018332168839 0 0
58.4874151451843 -7.72166681556545 -15.3620022471327 0 0
-35.9834142944244 -4.3234640610223 -20.9026482602612 0 0
122.236211405762 21.4841023020969 -5.32166840943062 0 0
195.837775399494 9.70526563650039 21.4026638237039 0 0
-204.691422999728 -6.4447148363025 11.6321817055472 0 0
-186.90413852784 -29.0134613248559 26.8626796974597 0 0
-142.625771311561 12.1281461053534 -17.4545886407264 0 0
-191.890698674505 30.2436976582319 23.3347142922344 0 0
-208.325752385008 -8.76294419032351 14.0168014469681 0 0
63.0170311026957 11.9532875211199 1.62419234850446 0 0
173.166446352523 1.51300108252793 -7.81195331713803 0 0
-79.3922576680566 0.40314490454567 -21.3231426799217 0 0
234.550535960555 -37.4645000751632 -6.48052213905292 0 0
-201.88077601566 -10.7194500840018 18.7179374380529 0 0
