"x" "y" "z" "f" "a"
-148.066755315903 -18.3887097674995 -1.06339082093821 0 0
-224.646195442114 37.6392916334287 -2.60795116853414 0 0
-195.899397269195 23.2160723223957 16.3969663143743 0 0
-74.7382943791574 -19.8984044905331 12.4621852818725 0 0
-226.258172901724 38.4421576617387 1.84980034442845 0 0
192.560862767834 -28.1623661457978 -28.5571175971869 0 0
-209.592327781399 -10.968469451821 -2.58705772386867 0 0
188.579292495389 3.39525114189617 14.1536828673468 0 0
-107.998830395016 2.6219335845227 -6.17343929358542 0 0
180.734472567768 -29.0754540600623 -3.33471733356427 0 0
202.489165640132 -18.4450497179882 -7.51889792702725 0 0
-104.347442422186 1.53123986370424 -6.97695758023658 0 0
-146.339138261057 -15.5241326640636 2.60574512403735 0 0
178.374760670323 -1.63462127335828 -21.3293830802088 0 0
-130.770256672843 6.26340090567934 4.47321017063767 0 0
45.8805628304439 7.85192960766142 20.4912072349036 0 0
188.681060278805 29.8945976853063 6.95321831166615 0 0
125.421847080609 10.3362764173994 18.620684748803 0 0
-155.712906274716 -18.7993675463078 -13.6842313683453 0 0
-40.6420318716327 -17.1258178671357 3.90753871369502 0 0
-55.9107022161507 4.73702055301646 9.62978046364215 0 0
-200.510652669712 1.18731769186527 8.37590246659995 0 0
192.331592681593 2.51136914289924 -10.3963611935945 0 0
-29.4506083204071 0.172555617498975 22.2381386398356 0 0
-13.2059808002161 -18.357247208065 7.42501417602836 0 0
-174.65400311936 -2.09261754099955 -25.9900620461132 0 0
-205.638988982646 27.6490091361343 26.6135968094903 0 0
-195.913444341315 -1.41707869143427 7.57805962279797 0 0
-189.150691521263 -28.6635744870968 -8.79364360287458 0 0
194.220314315576 -5.28640662700721 11.1171165544785 0 0
-199.351942871605 4.25718213205976 10.0028816926595 0 0
-166.614413719137 11.1040554558757 -18.3359662772528 0 0
96.5427870174023 7.14484608418548 3.2025042981832 0 0
200.077483539303 -29.2234301881612 -15.7043865439229 0 0
172.024619699179 -25.6070649239814 3.49612971528649 0 0
200.525930789504 -28.7966088598466 -11.5446250505255 0 0
142.756955526591 20.771530740409 4.2677053543564 0 0
6.64267681632112 -19.9093347064772 18.6931222064324 0 0
163.037839533194 -22.0627960659254 5.2609311638424 0 0
64.3274677323852 3.33000465203761 3.65005624572277 0 0
106.021599287974 -9.89065543416524 23.0876989660145 0 0
-19.9663074793712 -13.5395215116896 22.2590288214001 0 0
81.9770911704362 -8.40025459447564 0.11800587592819 0 0
-83.8053371576184 -3.26099431431159 16.9390461921388 0 0
-2.55973142052112 3.72467111625857 8.48765657695446 0 0
111.189959002519 -7.68953849679941 23.6346119152641 0 0
-138.846639025824 -15.4679318192459 3.37374440059593 0 0
-192.41521097553 0.0196925575438629 -19.0662675787325 0 0
-24.779852697347 4.85470525316496 15.7715985074411 0 0
159.843015101496 -19.9059846233344 9.81215332222359 0 0
-153.867844739882 -12.928721500871 -20.421431673354 0 0
-197.85792262666 -27.7184934174376 -7.96900909227405 0 0
-209.163273083811 -13.9535791433238 1.1290973560566 0 0
-172.538241404313 -21.1396311915987 -5.1971434792413 0 0
-133.108396097434 8.14013027579089 1.68352089567505 0 0
-184.503227891578 2.84760409587908 -21.0921801571331 0 0
-62.5412232678574 -0.936431889542496 19.1819514133146 0 0
-216.226735081217 16.2338700920315 22.2436994861235 0 0
-176.896438996934 -21.5837972270082 -21.4997195626377 0 0
-28.7151777002477 1.17925164794214 2.39191137284988 0 0
201.837352774144 -26.9092382356344 -18.1261309707629 0 0
111.363018778307 -12.0630138473087 21.3394364808812 0 0
-155.386173013437 -19.5849864742443 -10.8129612226594 0 0
202.858938041075 -22.4351027009354 -11.7614109322872 0 0
-51.2233404793948 -4.22783154588747 -4.60901556560955 0 0
171.513497431183 -5.69550851771509 -18.1446650183075 0 0
-158.196675597856 -15.834787935262 -18.8310914961544 0 0
136.038381449732 -5.34434890791059 21.435331650097 0 0
-157.650566518746 17.2974562987333 -19.6409466946641 0 0
210.997039893037 28.7585970848211 -7.09376005294181 0 0
169.889818816396 33.4541794674958 0.909286763662254 0 0
190.128102485839 -16.1466420403854 18.5402751644069 0 0
159.394376042687 -21.6651008547393 3.42875720881876 0 0
-147.084680304804 8.48618868927898 2.16538850519115 0 0
-109.395911531834 -22.3945882746393 -0.0456693088991566 0 0
103.490764637301 7.78807888990474 2.58858592511751 0 0
-218.365936741762 15.724222559662 -2.79718281821742 0 0
55.9940307453205 -2.60380428801737 -0.646165735748946 0 0
12.6084470823157 1.3473836375146 3.74014814037044 0 0
-120.205252323491 -8.97041973967156 10.0259996701473 0 0
88.9966087279629 -16.2906956957215 9.62744484898148 0 0
-118.951088789949 -17.9503987310106 5.45693332114935 0 0
147.860207266771 2.21373784570216 -5.71699248998567 0 0
206.829743146471 32.5964692125289 -11.4050832214676 0 0
-114.039995794314 1.17043195735835 9.80558402359723 0 0
77.0313069057235 10.4560032869999 13.7365996020387 0 0
-185.054747116924 -28.8439955937889 -16.7152921873529 0 0
163.018824749453 29.0103818221242 -0.927720678342934 0 0
-184.147548832117 -25.8485019873128 -4.44382354393526 0 0
-94.4572878434357 -18.6848439443684 9.62370537203241 0 0
-155.04120931759 -11.6302309449216 -21.2891729456843 0 0
-5.87436791604938 -2.14269113645055 -1.30688269885514 0 0
-208.72682000028 44.4857625740804 18.9552772376907 0 0
-138.031897892791 8.44280044086165 -0.191239248463628 0 0
58.1647740292556 -17.7432703041287 11.6724072425499 0 0
196.893298731526 -27.8799883222395 -8.88920146265033 0 0
-192.268723062674 -20.4836900528199 0.544390015732442 0 0
15.7496273229105 -4.07167358887674 25.9090037142062 0 0
200.147207399461 25.0534863073763 7.95959214710125 0 0
94.8606835996796 -10.0253541758925 -0.262433116882734 0 0
6.91702894110811 -18.1747244156251 20.3980659222909 0 0
-131.903563118038 -9.73117410456234 7.68573431152781 0 0
158.982416909166 26.5092848369065 4.38693590041038 0 0
190.309602259858 -25.5979171954585 -22.0186338255273 0 0
157.454771759317 -21.1909573509193 3.8283051508532 0 0
178.95879394689 -1.52650293058289 15.4657105447808 0 0
35.9407687145325 -4.12423800915676 25.9789449203303 0 0
-156.081951063077 14.2005710584185 -6.86749925572562 0 0
177.307173502973 -25.5076941873579 -26.8017117079224 0 0
-105.431540718191 -13.6132747125706 10.8000671038593 0 0
-1.09723277450077 4.99419561022565 20.1236975633478 0 0
-186.721227857591 -28.0360757856776 -18.9261539386883 0 0
89.6304369765568 6.14803608026341 2.76621935229472 0 0
-157.506010062223 -19.483038245249 -12.1827347664498 0 0
-29.2223648577723 -2.07445476222086 -2.47661420398482 0 0
-83.3601082441688 -22.68740548124 7.60774944946505 0 0
194.187701894596 15.2610428906133 15.4372501936351 0 0
50.6075496480093 -0.85114119622823 25.4808098103207 0 0
-215.170078780612 20.4642320437305 -9.93869290470667 0 0
174.347603956837 27.4665680043653 -23.5313009677119 0 0
-159.479156725016 10.4165992542418 3.90082396110874 0 0
-192.217470168633 13.6345236548876 11.3034662478291 0 0
118.198086448294 -11.8772488755572 21.0503891517704 0 0
-51.0841987457926 -0.258196311949049 -2.48214292659868 0 0
107.382256387797 -14.0628296933344 19.5407063236817 0 0
172.553933060516 -15.9244750149835 -31.6688734486068 0 0
-53.7789743243692 -7.82089914271937 -5.3805090318218 0 0
186.423038922011 29.8196007074874 -34.1546181535277 0 0
144.43100605275 -4.54672913366582 -6.92064380019825 0 0
68.0624563591389 9.43731603924426 19.1516010770052 0 0
-108.814798386915 -0.456300750398459 -8.52532606750101 0 0
-220.342153041578 15.6202836199129 -2.62141928543713 0 0
206.8114287362 33.0381851433442 -12.9301589792737 0 0
-213.374968221192 13.1780298866421 -2.65065724682326 0 0
-91.8486626429225 -10.4881630354873 15.328617517992 0 0
37.2933481924169 -16.6056899829102 21.2919435982737 0 0
-95.6885367123999 -19.5397055888939 -3.98716364572158 0 0
-146.344500706873 9.15556788255234 -0.889272742565959 0 0
-118.085180055571 -10.495937953842 9.80147512027548 0 0
87.3463016108036 -11.4372748567446 1.91038661356737 0 0
151.851757557883 -12.9888525117277 18.201999678466 0 0
155.17916727991 24.8061503910077 -2.21867742746884 0 0
198.313442511194 -25.3054749238643 8.06766232365645 0 0
-141.447535261515 -7.4306781586313 -18.4902431665633 0 0
201.575742633069 -26.2225912319521 -5.71121499890791 0 0
-178.630098400019 -4.1285272121167 -27.5979123978065 0 0
161.467099337965 25.3151920217561 -7.94819106008515 0 0
61.8571574052446 9.46048201371706 15.5388023072708 0 0
-196.734460987252 37.572576297945 18.590451574513 0 0
196.582346436703 -25.1294701289637 9.8946086123686 0 0
17.4379531347557 -6.56042115068525 -1.49827159303855 0 0
169.279777139413 32.1293493859835 3.14430157147664 0 0
164.724825901709 -0.0142534629164548 -10.7495336579525 0 0
190.724617402431 37.0161467092706 -28.1617107941003 0 0
186.681127960293 38.8868966332218 -4.43827280074499 0 0
209.932866036158 26.9750784072881 -15.8207830946861 0 0
-173.27625970997 8.41307056411724 -17.360621717006 0 0
-163.066576729833 -5.27399287086709 3.64678809008153 0 0
22.3516947341587 5.1986189830513 22.0560144278286 0 0
-33.7736595516316 -16.9163278808907 4.6430225182145 0 0
-217.022689757937 13.007433602165 18.6305646379032 0 0
-94.8843744434281 -5.25404981474572 -9.8446789764201 0 0
191.982260413076 -24.9311764732822 6.49287660916876 0 0
146.19149043912 -16.3710345115781 -7.62286289679303 0 0
-74.4487004342033 2.03087509091408 14.4447162148088 0 0
153.34240793135 -20.5405203501299 0.503138174917417 0 0
198.448003301355 5.17172429719716 9.16252442745028 0 0
-158.843967352946 9.51621694279084 4.83225390032815 0 0
-200.147392591703 -23.4230593997443 2.56040136666074 0 0
-82.4071882317722 4.74017112852931 3.72574147789021 0 0
196.785186961122 23.5472724525348 -33.5547136493963 0 0
170.79995914842 9.1282377019384 -12.9453320144615 0 0
155.981092878854 -20.5734736024171 -7.36583343922553 0 0
-32.8499073995298 -0.570541680458341 22.3341526939563 0 0
180.870418409713 6.48722060962123 -17.9899000771261 0 0
112.475202840383 7.25458969376486 0.657431030800745 0 0
-110.806670245121 -21.0303891897627 4.01614213274089 0 0
-22.1325009409202 -12.1387925329718 22.8346312167237 0 0
172.541968259013 -7.80282780441374 -24.7130389825021 0 0
175.281145409688 10.6959866380094 -22.7327209696511 0 0
131.111350962728 -17.3630420837062 6.123897045386 0 0
-179.333987000683 -26.2774182181103 -10.2881257203815 0 0
173.205422814533 20.8447146079757 -18.2569075883708 0 0
-6.9328159454018 -21.397598170824 11.3808224463498 0 0
-188.907996919698 17.3402847056027 10.5496864050771 0 0
-89.9708312271982 -21.7477356247463 -0.261077988026721 0 0
-79.2257649702936 0.29311991052457 -4.668680223679 0 0
173.737297977224 -22.0388130161427 14.1012170412986 0 0
160.360993987025 17.8593617002987 13.8939098727669 0 0
46.5647817976957 -1.80086327124552 25.6861786664712 0 0
4.1237808076347 -12.7982807663212 4.95100048866243 0 0
54.356964089879 -13.2158820394544 23.284857378841 0 0
45.4301724177274 8.57403794644961 18.4878832390573 0 0
173.577848711304 -12.3300904419783 17.6881783047925 0 0
-129.503318929706 -17.9715522497572 -10.7123435789493 0 0
-66.0530214992378 1.74492109711541 16.0597742229554 0 0
-153.792549328274 -2.15200802342188 6.08926463178525 0 0
207.855607284706 14.7125256771823 -5.32532355083522 0 0
183.926533730724 37.380259413634 -21.8906661002192 0 0
-206.254790853058 6.33611081439409 10.7594253847127 0 0
119.116917751646 1.78526700686609 -2.04803959658476 0 0
-222.860218526142 19.0978454474275 19.6752429968254 0 0
32.2924386440617 -12.5254887284371 24.0512528756174 0 0
44.0634941429202 -2.0754941984667 -0.455877493913099 0 0
-32.6188599221821 2.79285573178761 6.28738159965194 0 0
-191.077912683322 8.32767103559823 9.69937827158145 0 0
34.7866221508112 2.44934379997012 24.3644583878498 0 0
83.1791039782854 10.9704656125631 16.720005724727 0 0
168.84265137704 -10.3529140678157 -20.572681575919 0 0
178.496615080097 11.7100410350801 -19.9136446697644 0 0
3.0485517374933 -1.60005477006503 -1.02427434229546 0 0
-81.6438859209458 -23.2362959043824 3.87208480835197 0 0
187.797202284696 9.98167919144405 16.2906250064293 0 0
203.108532941219 6.7863941432826 -1.85893889437927 0 0
-172.540441021588 5.18436239382758 7.59839383076805 0 0
-63.2197797228001 -22.1190796861271 4.3045128240695 0 0
-195.933851600335 13.2859399241636 -10.5655203367817 0 0
175.649550952035 -18.3061830883622 19.2186677247848 0 0
170.070149380726 -19.2690325483742 15.4970334730662 0 0
170.283046581877 -19.1793332175371 -27.1753379720002 0 0
169.103271214293 33.380459970555 -0.57209590464041 0 0
-163.795695431123 -2.88694374445916 4.71362280373808 0 0
72.6537524360639 -9.65297095808757 24.3770596375773 0 0
-212.093767867394 46.0544365481722 8.96788571989998 0 0
190.719776002344 1.45556294733198 13.4525185239019 0 0
178.962928489671 39.282931028606 -10.4129829073561 0 0
108.25887292894 2.30467344482145 22.6044186566847 0 0
-202.172213714032 -22.5024928673527 3.76262090054277 0 0
175.49907963896 12.5798805283438 -17.2418928693668 0 0
79.6852917769352 -16.8769331230112 17.3683745264212 0 0
-16.9868802995259 -9.50987130517908 24.0655032889497 0 0
-159.656461517836 -19.7813192912378 -12.3145057256498 0 0
-146.084810604146 9.92372055437458 -12.6208844513915 0 0
91.5945059684416 2.11941780854001 0.0597415939750524 0 0
-215.359770921892 21.1925506512403 -11.4003149699379 0 0
-164.076083816003 6.60548142876572 7.62426353738937 0 0
-107.123292251278 5.77607298007013 -0.716462799286917 0 0
-215.049947960156 -4.13738606104596 -22.3091632574906 0 0
-169.171034574697 -12.1506283906426 -24.222589455444 0 0
-45.0897991191583 -18.6335070164959 17.7565102899558 0 0
-210.896313199504 -12.4164572502278 -5.74130112819775 0 0
198.321055897908 -28.392006825138 -9.54907734221637 0 0
-202.711461987926 43.9097720303053 17.4007350552449 0 0
-215.399610014222 17.0846467292356 -3.78329882236695 0 0
4.14739765234436 4.13235510193806 9.12105017814788 0 0
163.375815325859 14.308315427407 15.572174921005 0 0
124.080828405153 10.6416819986807 0.988174696418612 0 0
73.1264246384998 -6.46659576787658 -0.821882420884788 0 0
60.865147171577 -16.3481126863826 20.0356371275624 0 0
-149.847446728951 3.20294679176946 -17.981583803237 0 0
-182.865297652811 -12.2531634205556 2.02473831164389 0 0
153.862137396471 1.86914677685025 -6.56796301391693 0 0
199.36600859628 19.2945158543797 11.9485359103097 0 0
153.780049849381 -18.6081873153282 -9.27901508170688 0 0
-134.009264487381 2.37760828797062 7.63307894161755 0 0
152.130771946492 24.2551007467071 2.96474177147969 0 0
206.08591674022 12.1591098260211 -7.92858516599305 0 0
161.958379596328 11.5005753073917 -8.80171577309865 0 0
195.668339155033 12.5004530751405 -25.7718168010888 0 0
208.468351408447 19.2356541702274 -1.43199050049894 0 0
195.990051814852 30.105534172492 4.68838961915072 0 0
-210.324541649289 39.243232058624 -8.97806256226719 0 0
132.921076215866 17.9494793409074 6.12527648287326 0 0
-155.706980068116 -4.78823438359303 -20.9622404658376 0 0
-200.972538731548 -1.15907096408136 7.01773645205945 0 0
-140.614162224281 4.36691055690304 -13.8128787886199 0 0
165.626477729376 22.6571484385967 -12.5846094819695 0 0
-37.4767918640025 4.38891110785828 13.0995382555586 0 0
-14.5110077488965 -14.1719564901491 4.80728466458554 0 0
93.7497639986436 -10.540011998365 23.0637639197271 0 0
191.786577033248 -12.7694740597631 -31.6420439872035 0 0
-182.841237147445 -1.38729587832314 -28.1545826539574 0 0
19.5567558896466 -6.38584383039338 -1.45160024977115 0 0
18.3115808014311 -0.652290591977406 25.12172640028 0 0
166.044486243307 -7.44862573672027 16.6083590022845 0 0
-175.208569270004 -5.05207911963959 3.81415053171045 0 0
116.159815424792 -4.50836886685242 23.5121715871758 0 0
75.9052713023984 -5.26659101659539 -1.42314358472103 0 0
168.799549009703 -13.5270455762578 17.3787686432203 0 0
142.639170111429 2.80352393548556 -4.74104796545359 0 0
-191.063912874386 -28.2048222337385 -7.05362143486643 0 0
-110.396133924292 -16.0673338073698 8.22680296894632 0 0
140.542295930188 -9.51226611835127 20.5687233946578 0 0
-187.74868352515 19.7355746934332 8.90293293051022 0 0
133.404132334554 4.23326030668846 20.2126843962122 0 0
59.934206100295 -7.61303926784668 0.301885575555844 0 0
175.151630855583 -11.5336762266343 -31.9028690116724 0 0
-142.869421374389 -18.1136013596828 -12.5284174951875 0 0
-110.826647386104 -18.8617648665982 -7.39448238470141 0 0
168.951976696244 -6.12851948103122 -16.0312372887425 0 0
-97.919970222779 -13.5709330835982 -9.7984032194551 0 0
33.8400723761847 -14.6711113560316 7.74715576787734 0 0
-192.574838104917 24.0860886954371 12.5225726165322 0 0
48.330767354317 1.43693198033726 2.46882609336253 0 0
-173.241476435704 -20.9728014698266 -20.2065549171292 0 0
58.1326132403733 -6.31333602782818 -1.17345683825063 0 0
108.597938825042 -16.0259168695456 6.65843212371424 0 0
53.0092158368652 -5.03935979718555 25.8726072148944 0 0
-183.988552236189 -21.3067385379557 -26.6348805911181 0 0
-74.880484068566 -17.9995126218061 -1.27418780642234 0 0
-197.12280358304 3.90340195965143 9.44535312862581 0 0
193.793395031259 37.5737178038949 -26.849524091062 0 0
-46.2683399002465 2.03525832693911 18.4031817367391 0 0
-179.93760361484 -28.4677413412866 -11.6828034248984 0 0
105.105466805157 -15.6600949512472 6.06157254134731 0 0
189.338894445158 -5.20362765140923 -25.5801425298883 0 0
151.459738727062 -15.3478591870827 16.5900929280937 0 0
202.942255699956 32.3180041658565 -4.82888363234417 0 0
-205.949744613906 45.3242651021356 -1.84090291197569 0 0
-173.679672206213 15.6239255854899 -4.41759378727941 0 0
-200.938215919145 11.5407425726831 14.9625011610176 0 0
155.736286762865 -13.5306609781483 17.6082482865801 0 0
-71.2482583206076 -23.2775689950213 9.03637792632864 0 0
62.6457567398329 -3.29767247106833 -1.01063406945474 0 0
177.071594716059 -3.6934660865653 -24.4466640737231 0 0
-177.94967750642 11.2625123799182 7.3995386164291 0 0
201.180752056204 -22.9162158724682 3.94968243446555 0 0
42.8990192100495 7.01866535325702 11.0488353821061 0 0
-176.202188391436 -1.86805561887936 5.71400712753673 0 0
27.0903683742374 -10.4449338087147 24.9277006174729 0 0
18.4292256817131 -3.62776077475474 -1.86614620854834 0 0
-121.68252819974 0.469601005443665 9.53070568481897 0 0
202.205009016425 5.32840863275262 -4.81657661539999 0 0
-150.123952124919 -18.9047108954527 -2.68065057161214 0 0
167.284314320532 -22.8313788414117 7.14020381287728 0 0
180.572500856895 21.8761931397758 14.4947020723795 0 0
-85.1769438630915 -15.7207928025826 -5.279525886915 0 0
85.0946496597581 10.1396668740958 10.2023679655106 0 0
-121.771352359091 -2.91471205025724 -12.3070106911505 0 0
-138.174360174414 8.3020485217175 -2.16849400569244 0 0
26.7295534278735 7.34203920317877 18.6584413863055 0 0
179.196031228316 22.5383480564158 -30.090194364014 0 0
56.6598544882793 1.80418202959693 2.50487698245399 0 0
173.784462560715 23.3961383707237 -26.1895565067963 0 0
-172.693305175214 -1.60500867613781 -25.2922996276833 0 0
140.457086030407 12.4230124732462 -1.66606839840355 0 0
56.7635642726704 -18.3700525097671 14.8349827013713 0 0
170.958881467069 4.14815757443609 14.7416829991982 0 0
16.7216683552077 -9.1521772987127 2.14358812985695 0 0
132.107978392214 10.5957553107043 -0.390210643060062 0 0
175.590921402274 8.86033785392002 15.439491086271 0 0
165.331035119126 14.5636537612501 -13.0899120954753 0 0
118.178897325282 -9.28644758293964 22.5810833742979 0 0
-214.788811710261 -13.9973858411189 -9.6169702129315 0 0
189.001824864831 -1.06245549179981 -16.9985947973556 0 0
-141.437619644291 4.56061912016857 7.04259515382306 0 0
165.579566469701 12.5901549124787 -12.5851152486 0 0
191.36474973475 14.518346064116 -31.2477306228664 0 0
-36.3727310620334 -8.76228362682476 -1.70060222567771 0 0
66.1693992630304 -0.227943740214517 25.1450078013729 0 0
204.041537622402 23.2224971610926 -27.5962695238254 0 0
-197.290403766249 16.9358482967672 15.5286658756191 0 0
194.512588665497 10.4370607543447 -15.2515510563377 0 0
127.974135271449 -16.4403291020231 1.99703958349904 0 0
-212.995128382587 44.2083179875519 13.2732325468911 0 0
-212.693896147711 -18.8455053277027 -5.82283914613377 0 0
170.21069800639 16.6763910013273 15.3301520761252 0 0
-134.570199804391 6.35925313675732 -7.2998751493999 0 0
-10.1212062143604 -3.67189729860228 25.1357646237873 0 0
1.64437296868961 0.172947147733402 0.817196727826528 0 0
186.72176454934 14.4019420182151 -24.7668462906012 0 0
15.318209259966 -20.3864376151454 16.7957530245672 0 0
144.638263460466 6.16973687468742 -3.97945820759542 0 0
69.1741391444755 -7.43757449615326 25.2106467280745 0 0
37.6812478964795 -7.24963195383658 -0.382057345974456 0 0
151.499547215365 21.9089257175867 8.65862993519597 0 0
-45.6373747736767 0.243916960173046 -1.34622276977758 0 0
-62.4700695696535 -1.84878402084937 -4.41337899934572 0 0
203.496539470297 8.99564757736752 2.4780623749125 0 0
87.0204780080642 -11.7757244109404 22.7416972535526 0 0
4.94874113863906 -12.5342157983557 23.6660129839768 0 0
-168.806000167263 3.12302796685025 -22.7619259120652 0 0
12.2373435514699 -7.39302821351588 25.5058224555074 0 0
-215.639933256882 -10.0283592990071 -14.9647583911389 0 0
86.0061998404951 6.68993477172353 21.8371456284853 0 0
166.121820444537 -25.3042829475247 -9.87297047020185 0 0
-44.6873760782439 2.00631426923548 3.92327806719351 0 0
36.6278907960785 -5.42627653666042 -1.65595761595863 0 0
191.196261259333 -28.0153661205235 -18.6711789256128 0 0
-52.5676394659036 -8.815366141167 -4.33905433873213 0 0
-198.976042900679 -16.5345770558632 6.61185425956563 0 0
-144.703929297972 -12.3389891535308 -18.7077774223689 0 0
22.8053014897418 -12.1800725741061 24.3962598758865 0 0
147.488093870559 4.10609892912689 -5.23273092135545 0 0
-37.2677631423474 -7.28626581404988 -3.61371741008411 0 0
-98.2823790254588 -18.1823811362113 -5.77880922744411 0 0
-50.9415729425675 1.04333763156792 18.9714323040871 0 0
-194.405307575029 12.819978983594 -10.5939070403216 0 0
158.23397502382 -21.3563532881111 -8.30743203428529 0 0
26.3033875237213 -18.7937667179445 18.856539568456 0 0
-122.97864315086 -1.5076267255906 -11.6358983737732 0 0
64.2313191892884 -15.8976497919687 8.05410107270675 0 0
-186.800098989629 -25.8681946136684 -3.42589047326805 0 0
-89.450403921762 4.85447862018265 1.62674255995653 0 0
-204.468059427429 -4.89039160762647 2.09490779921643 0 0
201.161564694443 -17.7479042007177 -20.6106067461916 0 0
-201.45343347027 18.3026285832996 21.9787192494565 0 0
-160.832842597458 -0.0447656873183781 6.36903715209504 0 0
174.030465570767 21.4116385284467 -24.6320462285851 0 0
135.051946399948 -2.0485733966585 21.1763743905714 0 0
39.0135151386981 -10.7471919993823 24.8145235952474 0 0
42.2154272393467 6.45076880355951 21.9959485778139 0 0
128.083729022436 13.0804219311246 1.48602840931998 0 0
-212.862392277248 -8.86749738866914 -12.3443245584717 0 0
110.802887934097 5.73072577692099 -0.0446126374303571 0 0
-178.200329166654 -7.11829568817343 3.55692693530491 0 0
117.608963134984 6.63495448877308 -0.280515578064079 0 0
-44.2113413447139 -16.305511997503 19.0113058149578 0 0
-213.366173967417 29.8370229850707 26.5509200315828 0 0
-196.982281273633 27.0418342952449 20.9753617935597 0 0
-21.1232088329752 -19.4519490692051 18.6322013231845 0 0
170.396686627046 0.735477169874838 13.9139527765963 0 0
-221.181587481481 43.4547725043662 5.36117789705537 0 0
201.587243026274 -23.8376565463282 1.47345807340108 0 0
-210.823213241022 46.0028974212498 12.7067798735882 0 0
-198.549018427981 -27.8687446163524 -11.3044431634125 0 0
-50.4112157814133 -2.16749274438991 -3.5218750070399 0 0
210.261625913205 31.5785448802988 -8.61690973948209 0 0
43.34729733927 -18.590140608667 17.2298567579253 0 0
-120.025330116815 2.38971956426825 8.34286382507451 0 0
-199.641569533724 -23.7174429464964 -20.8889759039224 0 0
-208.440414506985 -3.98754145234403 -18.6945023102404 0 0
167.908989242894 32.5971233025995 -1.45096837644211 0 0
186.286028738887 -9.05783921514889 17.2388132352247 0 0
180.361000194617 38.8197563428694 -5.2707118985181 0 0
166.995863932766 27.525011066136 7.43001293106699 0 0
-137.221337770176 -8.33277247339624 -18.1386096667991 0 0
186.835839573712 -3.20900941638089 -19.9257945030157 0 0
184.074412542791 -13.9320708902331 19.7599309622081 0 0
0.0869713614462405 -9.60435807051861 2.09603481684437 0 0
172.938250451619 19.0420038735635 -21.7767208938541 0 0
-193.559353778884 -13.2200088076261 6.02036347924692 0 0
173.943283927389 37.6964354941458 -5.50449961550738 0 0
183.041292680599 -21.7117188104855 21.5665866921397 0 0
38.3308177791656 -18.6784165299039 17.6481864056159 0 0
193.192796216821 37.0717559867054 -20.3839463936174 0 0
91.3815282968042 -11.1398300037739 1.1555139137177 0 0
145.818436122433 14.0580529451646 16.0853211284787 0 0
169.713916127902 33.9804375575379 -3.49970404625504 0 0
-87.7313364977896 -17.9343888601442 -3.9091950989017 0 0
164.124446841491 -13.319703172543 -19.1835848086407 0 0
47.751903120484 -6.92838118532367 -0.977216688386114 0 0
175.748234260516 12.5796080412244 16.2968859423873 0 0
62.3328985546513 -15.2168593227239 21.2378255970882 0 0
178.42953378488 23.9716571710845 13.0728246010129 0 0
-203.142595373156 -3.03431568255722 -22.458389992077 0 0
202.188565360732 9.11952202642173 -13.319923552755 0 0
-49.1190528850252 -3.39632616342593 -4.06703761821721 0 0
-216.494403977776 -16.3524855921758 -9.60431024725534 0 0
85.3929377954802 -11.3785310450322 2.06225158882615 0 0
-22.6912132071988 -8.56092978287105 -0.0232778884141685 0 0
117.736376305656 -17.0446993673242 10.1505323409059 0 0
200.411792657021 -28.7082961860113 -17.6929712088601 0 0
-75.0730384806761 0.135980183536504 -4.62795884804458 0 0
12.0303720629132 6.32271101841916 19.1184537593108 0 0
167.496946763746 22.2902840323322 12.177365052473 0 0
186.092106039166 -26.6725947233548 3.1378751513321 0 0
61.2055628395448 -17.6569928933259 11.5780819068465 0 0
192.370152740268 -10.7560646682052 -30.252982271857 0 0
55.4120146018972 -9.13856553484634 1.74229477900163 0 0
-49.0035907311313 -21.5513575959865 14.7467995616109 0 0
13.8745946896402 -3.97730373189617 -1.85103231801958 0 0
164.005259348551 -22.9053831820597 3.27084498934901 0 0
202.737124523707 6.95521627460726 1.10665867033142 0 0
-156.391844957039 -17.7991934279864 -1.88155117281232 0 0
137.155241739142 -15.8531666332106 15.1612206211776 0 0
107.041029587238 11.004072038608 6.01043315855029 0 0
-45.4613414646105 1.19968184773139 1.7222241779034 0 0
-173.447975600831 -19.1833506003054 -21.9303130934908 0 0
-44.1921515268601 -8.5405747850656 -3.04695358953089 0 0
1.52782938379796 -2.9036646878393 -1.49588763287962 0 0
-99.0644069222753 1.94365191945665 10.8457594996491 0 0
-107.013619480313 -1.53747628616221 -9.03048085765572 0 0
-206.786703556871 5.1295218145599 -3.76483711942175 0 0
59.8049675538077 6.05032737670945 22.6263768585143 0 0
-189.951691592711 7.05085158384903 9.43454735000302 0 0
174.417759041725 -21.8335061440599 -32.3715295078886 0 0
102.568295767284 -5.93810741978459 -3.44711692981184 0 0
165.301508103445 -24.9562778136716 -5.29975903725644 0 0
-220.499838332388 35.4156396116828 -8.22538110367232 0 0
59.6076114536464 0.983401603452706 24.7887098650829 0 0
-200.691385997303 30.1067767299349 -9.85834119670346 0 0
-152.447443422456 -7.03826220313838 -20.3117256681252 0 0
179.720017939509 5.94072552015881 13.2256264435705 0 0
-217.301524115515 -16.041846421373 -11.13119019649 0 0
50.1855266627728 6.97792656283034 10.2602720317062 0 0
166.451909319036 -25.6486375926661 -8.07102096766604 0 0
158.129851377532 22.4036232480919 -6.94352265333743 0 0
-225.606832966858 38.0891135507576 -0.47791731343669 0 0
143.917229228017 1.45255370461015 -5.50875143262425 0 0
95.9686789019647 -17.0473503629971 13.5037941150494 0 0
-49.3503913631786 0.244994756467407 -1.11409215417744 0 0
-5.25970446718078 3.15421738269004 7.13861056945535 0 0
-211.386817425414 -20.6520704848491 -12.5392192792336 0 0
-179.174217935251 -0.943207687757165 6.75239380801333 0 0
97.2587547191684 -9.83540427162523 -0.715865121061395 0 0
-172.583365616753 -6.62699378866048 -25.9153020125785 0 0
181.846995131775 13.0056925590864 -22.9652843976884 0 0
-213.294710325523 8.95565210529469 6.21166185000411 0 0
-30.5700531656268 4.42565351504437 11.7624965532379 0 0
61.995158873022 -1.54197996201876 -0.153233442814862 0 0
-106.415492482853 -16.0129856868724 8.99068109302913 0 0
-188.167151670526 -28.6964442143599 -16.6721715882725 0 0
173.153185992528 -14.1600789801937 -31.1079986139466 0 0
16.7723727364625 -19.4395378361534 18.7177187499242 0 0
-214.15122877123 28.2122508679803 -12.4377985068622 0 0
38.7848077861875 4.8210073521871 7.623513036174 0 0
-92.1090485503818 2.34988787610188 -3.79576598336973 0 0
-166.725601862698 -1.89192361563544 -23.6849055787652 0 0
-220.530397689872 43.9327420134651 2.78321533742144 0 0
-70.2946596480646 -23.4316920418916 6.17923579484408 0 0
-83.8026797103125 -1.1864466320218 15.9080302787876 0 0
-152.505735435605 -18.6673360001331 -2.85764989928863 0 0
74.405875794817 -14.8592133404384 6.36079716918562 0 0
-189.012207744573 4.21047555870418 -14.4590121898199 0 0
-133.6915813993 -10.4372781383537 7.15546244183278 0 0
-63.8017264710591 2.36442842387205 15.3250936572665 0 0
28.9374584761772 -14.2029200541417 7.22624387198278 0 0
178.060291204316 1.3965699696501 14.0288919296965 0 0
-219.47732495419 31.7161471517913 24.0195571622461 0 0
-150.222287609418 -19.7772811066232 -8.98149057302591 0 0
-30.1991500215409 -12.4699585943794 22.2581395091429 0 0
67.8428248339165 4.80448322981358 4.73452739784914 0 0
169.322173670704 28.7086782883918 -12.9503521519157 0 0
66.1987116132609 -16.7928362072241 18.5578792476025 0 0
207.776632487234 31.9812545272364 -7.3055883244177 0 0
42.2089999156663 -14.7452141855282 7.75254010189209 0 0
-197.075773251125 -7.72853894866899 -18.6284758164163 0 0
124.51591573136 -9.79490207633131 21.8226214373673 0 0
82.9654675423736 -17.0600973940153 12.9520313958515 0 0
11.2431271664682 -0.216989873904732 0.886712336096144 0 0
-133.828805216569 -20.963017903736 -4.55962706678243 0 0
-123.576556947922 -6.11639663212754 -14.8565197091518 0 0
187.029231932745 -25.3935802781677 7.63958470362535 0 0
-41.4597179680228 1.39870493617521 20.0518526512632 0 0
154.294595041661 -20.7689964256309 -5.11428341269579 0 0
-138.261828569681 2.78619732413316 -13.7598561672947 0 0
17.0995965319818 6.877019611985 16.5289013734531 0 0
142.029448078588 -0.170364316963475 19.9164401556465 0 0
54.1477592873179 2.76056731681203 4.0809923379605 0 0
116.999350302821 10.7261470225269 18.5741058234903 0 0
-204.267521581776 -15.4689110796563 -27.4124021716181 0 0
-211.022164879556 -8.08439910121641 -12.2783645792081 0 0
126.214249376626 14.6130037487829 14.9313568273303 0 0
-58.9688599211778 -17.0960002181016 16.9008242463334 0 0
47.9501681451813 -18.4305776990624 16.9095106297047 0 0
89.2922357414838 2.81209012432001 23.3415431718708 0 0
-74.5714682910961 -15.5180378311421 -3.21766007141651 0 0
208.565885147778 17.4506070660692 -3.48345861904669 0 0
162.17481919134 -14.4534272730325 -18.3187123177581 0 0
142.002244605269 20.464171811053 6.77826120952281 0 0
-97.5929440812364 -5.25301285420558 -10.2851423845864 0 0
175.086660754932 -30.1839842150993 -17.3985208812525 0 0
-112.626181315351 -8.63304817186797 -13.5953335688287 0 0
6.83730090094096 1.31312412086456 3.74727237520901 0 0
-53.6735094159908 4.61358827092526 10.8147858298078 0 0
-193.331031050475 11.4260137931889 -10.9013383572856 0 0
-99.0802951376373 -6.02365980567497 -11.0619674712729 0 0
192.308607547308 -3.99142277609428 -17.5364336355839 0 0
68.636683329965 -17.6273976976601 13.8803539776414 0 0
126.642127244714 -1.60015141571859 -3.80458772849292 0 0
5.41324553860465 3.08750671756506 6.81964524339876 0 0
-220.898953396508 27.0954625205765 23.3965579155837 0 0
167.120035700848 -3.4479099392403 15.4884548947029 0 0
197.671293368519 21.3440341315364 11.376005103539 0 0
22.5333359240767 -19.9001836920427 14.973627163871 0 0
201.229211578291 -21.8433079925578 -22.3343395137888 0 0
-60.2929668773572 -15.3983245939359 17.9663991187945 0 0
-23.6830598242359 -21.7916819673766 9.49430279748913 0 0
103.19334720464 3.39815486874535 -0.283308079309225 0 0
-55.8413415677445 -9.16871541541765 -4.52583909594253 0 0
4.00102507791854 -5.56904805542412 -2.53297710525774 0 0
-196.928615800705 26.2889330032646 -5.82056544533481 0 0
201.546690311176 -13.8116249026835 -14.3017290129962 0 0
120.813730957043 13.1567513999027 3.61063429574968 0 0
180.875285815501 0.288305878895882 16.6936344465273 0 0
-195.262054858469 23.3465540297933 -5.71600652526122 0 0
-116.004768827296 -16.8091664550603 6.76279830065547 0 0
-72.6437232016582 -20.7696321586894 12.0918639293126 0 0
65.1282227056042 -7.61608007350701 25.3303881718385 0 0
195.468274097275 37.2919986093862 -26.1592693209134 0 0
-104.682762582156 -14.8601076874076 10.1763712466021 0 0
175.800302013785 -2.67331414574798 -19.2319671639085 0 0
-199.209617100744 30.2865532292108 23.657336185132 0 0
-203.257911488893 19.455962830031 23.6869565118852 0 0
132.898844029544 -2.79278273551985 -4.78474521469925 0 0
-196.957697302499 40.4220160839428 -1.29644310675821 0 0
83.743148717604 -12.1792286607611 2.94103142539926 0 0
-14.0712801812704 -7.10325171380643 -1.19402510640029 0 0
129.331192426758 -17.2914131703271 8.11063767913428 0 0
61.483087897748 -9.99310706637474 24.6673585127985 0 0
44.8113254076035 8.71409114065493 16.4696919899068 0 0
-21.4033584632453 -2.4761177118296 -2.24664408030818 0 0
-140.905504755788 8.23322553508669 -4.77819879082908 0 0
-94.0452736460743 -12.9196289949802 -9.56848939936342 0 0
-158.93799874879 -7.89770212973546 -21.8507302492624 0 0
-68.4729079678697 1.72754274255002 15.6720749397747 0 0
-125.624862760068 -4.23872485543524 -13.815115860854 0 0
191.371780567658 -6.33488420717864 13.6688530687483 0 0
199.994211772929 20.2800804553938 11.1307130398027 0 0
-109.692894409745 -0.176717543081685 11.2578378027227 0 0
181.278162100741 38.7225153952025 -16.756037462844 0 0
202.231932595094 -18.9092457719436 -14.931043062675 0 0
-222.005292600056 11.97313773391 11.4006703781478 0 0
-43.8835755601952 1.55945046032102 2.67334168689372 0 0
192.002435035085 -8.79978865000085 -29.167091395343 0 0
77.6580399708745 -11.2371563604817 23.6962082469422 0 0
-118.852835296554 -18.1923577753415 -9.08000788852625 0 0
-157.127325713791 7.27961821806933 -20.5901413859825 0 0
-64.4940558063875 -11.5268610748674 19.4372353557035 0 0
202.3768660165 27.0238091335288 4.88960208439651 0 0
-20.6139170702655 0.891847298146842 2.06850183936296 0 0
179.038350429988 -23.0646335128294 -33.8837070343536 0 0
200.376514735265 -28.945324578333 -19.5173967365053 0 0
-24.3037872002421 -4.37471335362691 24.5151849380496 0 0
130.887389974631 14.7683399271945 1.75224863612011 0 0
-73.4063414165782 -23.6001943883626 7.21325945913523 0 0
91.2967596381097 4.11127748971107 22.7842860214318 0 0
-220.060228008338 39.2419102043854 -5.69797432034945 0 0
-123.348544081034 -8.00522810697348 -15.6932430746181 0 0
-150.225570623748 -3.86180735627658 -19.339392773872 0 0
78.9870651571744 3.92961642620262 2.15536288635286 0 0
-188.968243599087 11.4746276732465 -10.2665949088624 0 0
175.495971195929 -15.3638972712008 18.9503171465139 0 0
-203.602974545463 -21.6046067269075 4.25902311510498 0 0
189.520519123733 35.0396309985282 1.16587756279921 0 0
-114.110348657315 -15.6621834946251 -10.660604072678 0 0
199.577998384551 33.6576440766728 -2.93383291355663 0 0
1.42895654381863 -16.8010058396076 21.2379844588912 0 0
140.749107380917 14.1987292488623 15.9981836982634 0 0
66.384616957497 -12.4309615897131 23.3196126086411 0 0
-196.732872446541 -26.8855794088431 -2.36682719312898 0 0
-149.638889174315 -17.6224297822764 -0.184473909532282 0 0
58.8490858513763 -12.4245745814394 4.67720909207537 0 0
-32.4548189331457 -20.8793988447232 17.0034687768198 0 0
41.1282753832598 -10.4578311225135 3.56659140802151 0 0
182.976924602962 -27.9168127286873 -0.275058305621332 0 0
-219.783313508891 26.2673269859895 -10.4154859373918 0 0
104.188489863173 -14.5096014824008 19.1177614738164 0 0
-68.6125278385208 -23.6111225466806 7.55419397522484 0 0
86.5040611397241 -2.03827582238227 25.0418665474007 0 0
175.384831127419 -25.2728853808843 -27.2818186656499 0 0
-223.653485437687 14.671813805178 14.2629819045709 0 0
-197.880002153128 37.7285269008334 19.7448721162046 0 0
-209.541287395218 13.8920716809242 21.1791987619234 0 0
195.82913590339 -28.2351464262351 -15.3395079879995 0 0
137.233001137762 13.2435100071995 -0.496918848253939 0 0
-201.808307509042 -10.7259066944772 4.42294094824585 0 0
-155.406002166822 3.88730123320306 7.92406299831082 0 0
-202.29715457541 40.459776917788 -5.96590948173454 0 0
-171.974177845057 12.2010822914788 -11.5144824903337 0 0
-78.7148066061932 -23.1956074815342 7.48483143872178 0 0
160.202760549603 10.1097959566707 -8.41278986476395 0 0
77.6989518273844 -16.7756004804012 11.2131088445478 0 0
-28.1994752066713 -19.6240841085564 18.3052470634136 0 0
201.539321097757 36.9687648461634 -25.781110802802 0 0
162.29783926942 -22.4627039270667 3.1357520708458 0 0
-42.2728963356146 -2.35418843945564 -3.30647739610286 0 0
-26.2362060657919 -4.32196906461057 -3.53178131881653 0 0
172.443173045723 23.0601963970469 -22.4086872193574 0 0
202.061801767093 11.9047474678073 -18.1320298629188 0 0
-200.785579343868 23.374765360094 23.4523687304831 0 0
-218.392708142101 10.1464020560983 12.1477602451148 0 0
-215.288069549402 43.4716644184629 12.3700772861863 0 0
-200.549556634334 17.6556966853952 20.2242801023133 0 0
-225.981047719182 16.088541091722 2.66995958863107 0 0
-164.689745471948 4.25662057820741 -21.8286349616002 0 0
171.640913728791 -13.7637104615884 -30.0270086728296 0 0
89.4477625608249 -11.210377351002 1.42011383891349 0 0
-134.600685603609 7.59831309251663 -3.45821000300406 0 0
128.986931930577 -16.8287343882262 12.7958473178825 0 0
-134.287964580156 -19.4741021965763 -9.23201674273937 0 0
109.396838134143 -9.51253119898644 -3.04648751173229 0 0
183.38697449587 3.39144133910356 -17.6847519580519 0 0
-156.959930675784 -5.05027829492216 4.69263976573613 0 0
-220.791434783565 13.8177902253177 1.00262352524585 0 0
-187.016686889294 5.72644367409936 8.49586975336215 0 0
-18.5132191512804 -6.07532745999339 -2.57894210060906 0 0
169.722571714479 33.9962812943979 -8.04974619868035 0 0
156.341504473024 0.0592298528553379 -7.61284418332099 0 0
-139.271063580628 -12.2808753662392 4.85182096588086 0 0
-192.357276192815 -25.8597820823764 -22.9820715292663 0 0
-24.6007607835487 -18.5190942628735 19.1469648741583 0 0
-4.24187128446773 0.284995549376508 0.112592761078851 0 0
-175.053655921012 8.0904094777319 7.36705659128924 0 0
172.860323651845 -23.2571055335708 10.7715431772042 0 0
1.55306626659057 -7.6648452900519 0.191439962003553 0 0
-179.986546328827 6.10912910329106 7.69078597264502 0 0
192.302538080026 37.0395943694752 -14.3619719215484 0 0
137.955354545786 -1.74549034839589 20.7374538086058 0 0
-154.154806129862 2.09479667134235 7.41119830408634 0 0
200.39286547642 12.232976401588 -23.5384866692537 0 0
28.3602922969683 -18.4739324170068 12.0273662953752 0 0
-128.682949310441 -11.4868993237436 -15.7005694997031 0 0
-127.807760202347 7.43424745968959 -2.18590835556669 0 0
33.9264348012027 7.1013395321463 12.385137807714 0 0
-43.0193502077972 -4.59045246519943 -4.34799591080004 0 0
78.8694718834865 9.54980350830165 19.8755161937837 0 0
-193.168884089561 27.9950031647464 10.0686218275692 0 0
138.903813241904 -16.8962540305969 12.9266114721719 0 0
-216.245674708954 9.54602449070456 7.20218426425286 0 0
64.0815647818708 -0.795854382013228 25.3773959333332 0 0
206.662032856713 31.2448137321558 -24.1707971189936 0 0
45.6311608964599 5.15788705560068 7.75134229831138 0 0
100.549666445451 12.8115040229431 13.2663822960903 0 0
163.176129882944 -0.581459709288228 -10.2652706247001 0 0
142.332526771943 -15.8832202432484 -6.80514273085246 0 0
-110.21532362076 -1.49088209053462 -9.40128179148118 0 0
-47.2330005537953 -1.17799294338277 21.2294366791038 0 0
151.05355386928 -16.8285161284584 14.5131361346329 0 0
57.5196103262002 0.579099352144624 24.9245274301159 0 0
105.526081304851 -16.618297664959 14.7180987331117 0 0
-147.317412816577 7.19262240031473 5.81375590457472 0 0
128.93968579359 10.6632556815728 18.3497978218362 0 0
155.472509252486 16.3856690250389 -6.98971774851912 0 0
-173.618072706529 -14.8825566239315 -0.0451985792686765 0 0
-128.797525425816 -21.4074224027844 -2.31717041434053 0 0
-214.300445845603 -4.63968555568325 -24.7459580557812 0 0
-169.70254069302 0.564545848884675 -24.1441774525983 0 0
10.5214821775978 4.73313792078716 9.83500669785697 0 0
-30.0799952863401 -3.80611455933392 24.0415527390619 0 0
127.719434679615 8.58017176440433 -0.46025850203735 0 0
144.214337913014 -16.5172991503032 14.3776645075393 0 0
-173.949301180605 -2.6648983126452 4.86887747363127 0 0
180.452981025555 11.4291138102193 -19.618896833596 0 0
195.493978412511 -14.0596897653176 13.7112107888622 0 0
-34.5830180036637 4.1952504046032 10.6549806466683 0 0
-176.235154068683 -14.9014705554298 -27.2541780308995 0 0
-211.689616146816 -2.17054149594344 -26.2223061460541 0 0
165.834084442261 -23.3279335027297 -15.705821054402 0 0
174.285977639037 -0.928577476340424 -16.7979497849086 0 0
173.64181936719 31.0401556705359 -19.086849390739 0 0
87.0002432645168 11.4265758094665 15.4899731957388 0 0
-194.882888182006 40.9408631442568 9.77889702067666 0 0
-9.94291191082668 -12.2736821852749 23.2748573688484 0 0
-215.096641098646 41.1920468301134 21.258773005365 0 0
13.9122464376354 5.72489461737656 20.8375325806333 0 0
-192.148174607745 0.658739836057599 -20.5683460180522 0 0
131.443888854989 -17.1221938688955 11.3790403341887 0 0
35.471326216004 -9.82986978678818 2.95177816584395 0 0
-155.313003228097 7.13627327892971 -20.1710475983242 0 0
188.485511284244 3.98461059085585 -13.9554100995803 0 0
-86.3664768588085 -3.14478182466005 -7.44334410816739 0 0
-109.005998092035 -15.1127425906921 9.02883086746326 0 0
74.1048709850711 1.95210504647146 1.0771189025902 0 0
12.2623608786041 -18.4765373969031 20.1531914028312 0 0
201.951133789041 -27.4865082064213 -12.8159292445472 0 0
186.914671634796 39.3579533023537 -6.17183083415914 0 0
-139.224991313437 7.81914360016034 -6.04066973038218 0 0
100.572084457599 -5.87359404211002 -3.20270089341353 0 0
199.502848185918 -15.0956328303326 8.53110698571408 0 0
14.1804781310187 0.545062640304687 2.21750384031497 0 0
-144.389371661802 -20.0053213938627 -7.94413556920297 0 0
191.685868607907 27.497754631724 8.75424415479819 0 0
178.682991196422 -28.0573823584344 -20.9410267930609 0 0
-178.20539160149 -4.84243087981136 4.42551658663396 0 0
21.9608865712119 2.32740886473217 23.9843777439244 0 0
-48.3978206405404 1.64202962672738 2.73627658780047 0 0
33.8155866907903 -18.6197022047669 18.3781517576741 0 0
-179.366509561799 -26.8569729308775 -4.60538884803608 0 0
10.7048153539276 -10.141323693626 3.23826097090148 0 0
-206.890817151731 -18.5910337571646 3.33744711311708 0 0
-202.307250870395 45.0226199471413 -0.452692858507333 0 0
139.445239657612 9.25250318215141 18.429379315771 0 0
-93.7580258939272 -20.1308176291628 -3.08387285939128 0 0
163.543804997405 1.32602063802004 -9.77033873246358 0 0
19.6377424252808 -12.18762250141 5.31812281198903 0 0
150.571941293709 -19.3726372461801 6.49592042994938 0 0
169.106286223607 31.2276305303074 4.18562184303092 0 0
-62.0068406624423 -5.09153024906993 -5.72745540316198 0 0
-134.642084512021 -16.872410263074 3.32370247451552 0 0
189.935023184811 -4.25170626963722 13.7736898300675 0 0
207.234475935783 16.1646853808322 -14.0302772481749 0 0
24.6691063339659 6.894656278996 14.1742528804766 0 0
92.3695995279023 10.8482272054295 9.9069464866318 0 0
-29.4153955548266 3.66255032451961 18.75672078833 0 0
-50.5367338984727 -1.51343603694128 21.0558415776324 0 0
188.914464121887 -21.5349625665028 19.3021149679077 0 0
185.997409628738 -5.02756954032075 -28.9855320136593 0 0
-212.498357325521 27.534983024774 26.7567604465818 0 0
183.680353525247 23.1819518810492 13.5978497040412 0 0
-107.462032124599 -10.9763295044974 -11.9932368721698 0 0
79.6642907623034 -8.79625191581952 24.5372657015998 0 0
-197.482872747338 -3.59274895484791 7.09901347833032 0 0
187.971468107433 13.238094099202 -19.8174284004483 0 0
-141.631360166302 0.672178843995076 -15.7101084061961 0 0
21.3354094064965 -2.98241095511665 -1.58104658882056 0 0
127.670061867562 -14.8668832248744 -1.76421369517507 0 0
27.3385415809805 6.94448423938483 13.8070066210037 0 0
181.094870679445 -3.18333220464049 17.0035714847952 0 0
192.270905582917 2.96218295748051 12.8551305569277 0 0
182.716137085254 -2.98555723424818 -22.4434959429581 0 0
-197.457873378017 -22.5446929744244 -24.3757811226576 0 0
-175.224523809135 -12.4418982888939 1.10926492307209 0 0
-109.725918403772 -2.50406391447258 12.4162987999373 0 0
62.9260866180306 9.12155409087964 13.07679476901 0 0
182.629397667399 36.1863008488707 1.54903206017232 0 0
158.798622981719 -8.76258627515323 -13.5954585999689 0 0
-29.2977118997358 -8.29403970945032 -1.24522947064332 0 0
160.212174312932 -6.82854689863785 -12.5920431410111 0 0
-139.352532641582 -13.7084187970283 -16.6758499811714 0 0
-196.663724270634 38.0625711701065 1.18039444919668 0 0
191.837906227815 13.0024156415273 -19.4471373680439 0 0
-147.535535423441 -18.8763146922992 -11.6197277868811 0 0
3.2874032281223 -11.0046895358221 24.2600506926316 0 0
-205.044004316705 -0.440099390580564 -24.769093835946 0 0
-160.431162607916 3.52834169541819 7.68924443644054 0 0
190.72092883716 -22.8414596163297 -34.6772170888662 0 0
-150.569544122079 10.7712600926443 -17.8068985924543 0 0
-188.396195009587 -26.4650269895814 -21.9666718652927 0 0
70.5680343455795 8.34535665994919 9.56901611374424 0 0
-152.50356119415 -6.9147799505685 4.74949959033058 0 0
175.845840576165 4.26279466190199 -16.4388790902531 0 0
-157.268767639126 19.8429637331467 -11.8564853918897 0 0
142.817437356741 -7.09618242445025 20.6199729308738 0 0
-168.885693365857 7.38610826492971 -20.3034614635237 0 0
200.4864491043 3.30205932233822 -9.0485815086688 0 0
-166.265457868783 13.0207781840856 1.2219936918074 0 0
114.970005787138 5.74010330763509 -0.438712240613837 0 0
-199.980127595711 -27.0243221244578 -5.96812117872489 0 0
-187.175708679036 -23.0545597554332 -1.47399587424007 0 0
-204.271246454953 17.3494278831497 22.7763817276218 0 0
122.912107013837 -17.1597248680233 10.0208050641531 0 0
111.181920627541 -10.5992257809443 -2.67050058025339 0 0
210.522877846013 29.3710834819032 -1.12636803691592 0 0
-190.300204167909 21.5194811741659 -3.41918539003015 0 0
150.868117860377 -19.5295285293452 -4.77246840494839 0 0
-206.959188454513 35.0052892449619 25.4195516690407 0 0
196.997242389143 -29.2424483604623 -21.6171992749382 0 0
184.825936303637 37.5377703400587 -27.2416236839226 0 0
200.889167477165 -7.26176713225741 -8.56625287164689 0 0
-222.870091138773 26.3854922347419 21.8131913542433 0 0
145.925414835319 -18.9905754865823 -2.50961295242357 0 0
-169.50307630373 9.19820223196693 6.92428178143536 0 0
-11.3119410777942 -7.54923431868254 -0.365099461766495 0 0
-206.598059079171 -5.23091262824513 -7.55653188857499 0 0
-173.419970369124 6.87531067172226 -19.2210130715399 0 0
