"x" "y" "z" "f" "a"
153.966810463942 -35.5689516218735 -4.35656867920629 0 0
-230.21962950513 -29.8569330793975 4.38968731684006 0 0
68.2813969716187 18.5471052109201 12.3309701014349 0 0
164.773777442168 34.6289704299487 -12.7805120334987 0 0
-60.548386041081 -2.70409266006053 12.3981539750984 0 0
162.161491927537 21.812449174285 21.2181880545767 0 0
-214.146086144244 17.0762645209961 -21.8244790388147 0 0
172.51416414237 30.7372216192115 -1.8739382628613 0 0
185.044895966555 29.6183378811449 -28.2598866194397 0 0
-108.776180868264 -5.16241639987826 6.11507344454275 0 0
-156.640483730059 7.32124250620512 7.22049553333385 0 0
-191.235333760061 -27.8836068364555 8.62688861928904 0 0
-97.1650331450605 20.3892030851059 3.2762894833368 0 0
126.536478097001 11.1959003095724 23.6542453288991 0 0
154.39429775445 26.0244417161548 8.04191547090088 0 0
167.979538168449 33.3178243528386 -16.5013712820086 0 0
182.286675292614 10.0658687690282 -30.5561887332304 0 0
159.15319803507 -40.4673921171848 -6.94894130318336 0 0
178.212894952972 -1.47615065182083 17.0094340178251 0 0
-194.451180502971 3.40030765860371 11.2311020428079 0 0
143.623783645038 16.5129102883368 -14.9704487434057 0 0
12.7393269432446 19.3133056555253 17.1289725577983 0 0
104.05615734878 -12.0106768892413 19.7998000666606 0 0
-219.592463635775 -10.0644134155298 14.597920602268 0 0
67.8009443019399 -6.86889976608348 4.75051706492412 0 0
101.295485894766 19.7517939904261 10.4008284075386 0 0
-138.450757213755 18.2574354723767 2.81347046968614 0 0
-150.983430191959 2.95877328216987 9.28557971211124 0 0
-113.102289370955 16.8434649610846 -6.64850147746781 0 0
-206.821235249611 -31.8232987359864 -13.1185615895207 0 0
-207.404748932888 23.0070010359543 2.00528485088381 0 0
46.7537025918155 6.57265130717274 26.1923607961687 0 0
8.65527326708296 -0.621063787723475 23.5521699048303 0 0
83.8860005344194 4.47758915061047 25.938934009261 0 0
168.821413572716 -3.10324939619191 -14.2317419602802 0 0
-29.2209120226953 0.0121500686983136 21.4957528527361 0 0
178.2653169236 -37.6578417707849 -15.5765646053481 0 0
-20.6424381645601 2.58241266267182 -4.89078784148808 0 0
187.894750771833 -36.2550998657106 -18.8704429460929 0 0
143.188206673026 21.6388707542118 12.8370181670714 0 0
185.207892137045 -0.0968742084012058 1.59597003628528 0 0
116.209985218847 -0.596694375687187 -4.2591479598396 0 0
176.60345275261 28.458944008186 -28.8123217220084 0 0
152.995869707599 -30.5154116120632 -16.7560650435163 0 0
163.941081690613 12.0847893378125 -34.7423240023583 0 0
-13.8726135792814 1.75637393069271 23.7399483753809 0 0
-213.890088595077 23.8104332119543 -1.71065895602754 0 0
138.224643673677 -25.0367678497719 -3.14469402464388 0 0
-120.727642527773 12.0752962122345 -12.9321076473388 0 0
-209.352952600578 2.45233729687172 -2.60622425449361 0 0
108.057337230696 -9.75413271667452 21.5685170569803 0 0
-225.741329954245 -34.0989026652168 -4.81173653447953 0 0
-198.131374864369 -23.9812408394924 -9.7321445740276 0 0
-212.075440844871 -11.322064619813 -4.47575860757952 0 0
-34.7786750606594 -2.20854949315625 17.541907157288 0 0
43.149316809821 -4.15173569327497 3.523125064438 0 0
-209.077176908061 -15.2874436561578 -10.1966585269715 0 0
-14.9521016750362 -2.08790134464499 5.55231165578346 0 0
-91.2621438692334 -3.05478284283542 -0.380558143759974 0 0
-169.447769711294 -9.57711151564101 7.95392571047473 0 0
193.574210894551 -22.2561044084357 1.858815963136 0 0
-103.629713786089 -0.478823290491518 -7.62414563031939 0 0
-92.5977928409865 18.7363530609417 -1.00136975781315 0 0
140.063908900526 -17.7398033616531 -11.4206590120615 0 0
-134.812661300812 17.7182900154236 -6.58124482334205 0 0
59.533749040459 4.38413487232428 26.4728195837897 0 0
172.007216835496 -37.6391193264432 -24.9583457536567 0 0
-174.868213062189 24.2060622817914 -12.2129280046056 0 0
-201.64431664343 5.97268748906129 -24.7437614128298 0 0
-206.586949504517 13.3668080662519 9.94484725905851 0 0
-128.138603782897 3.68031729833119 12.525000039228 0 0
-189.462546779294 -13.641030217818 11.8794685394378 0 0
164.907045179853 -40.3660846723946 -16.2238312757504 0 0
-47.8727937205882 20.7770167378162 7.36196326552221 0 0
141.559725809495 -17.0301474931243 -12.5036272306061 0 0
-172.609876534834 -14.6687760454126 -18.7765085049281 0 0
167.221066181986 -37.0190445221549 -28.0632073528679 0 0
114.094090244974 -5.73799492599731 23.1251991253434 0 0
166.615220126555 23.4222305929329 -32.4068655577936 0 0
7.13846798895091 19.8850155890269 14.7955641515033 0 0
156.433115939988 -4.00068485580631 -13.5357324213063 0 0
167.41005526571 31.315627861005 -1.83152519478806 0 0
-218.700773372352 -31.9805735559266 -11.3338436208729 0 0
87.832869143817 13.7979324235549 -3.69021118081272 0 0
82.3424890224055 10.4471363504297 24.7578394971868 0 0
148.765968952991 -0.710451394561818 20.61229527055 0 0
183.902454086863 27.3856557687787 -3.23606847483338 0 0
-18.7485066173882 8.40116802366325 -0.796181635877533 0 0
-85.8758577891225 9.17618874556843 -8.79216813994845 0 0
-194.099301238737 -11.464395835308 13.9922643701659 0 0
-164.427660530886 8.37417277901127 -21.4033600523191 0 0
46.0786292982974 18.5892690342991 15.109302757574 0 0
170.289624414151 26.8320973449782 14.267896313145 0 0
-164.632567340595 -19.893187816619 -14.7941131180206 0 0
-99.4934992460275 -2.40580847533233 -3.62849469050848 0 0
-149.487005145804 -9.64279643270874 -1.23125184440294 0 0
-181.588102451601 15.3434415490655 -25.6926775439144 0 0
160.01354638529 -27.3097398393952 -30.5605524279155 0 0
130.170519042484 -21.5543403110115 0.755936684874888 0 0
-193.755450108022 -15.8477362646404 14.3266900749101 0 0
156.334825505632 22.0458078241468 -27.4310030573873 0 0
141.972530870757 -0.511386778947588 -8.20331956763507 0 0
-157.667531596395 -10.4823625458837 2.12819622732114 0 0
-21.4964577382117 0.922673984299829 -4.23264209760485 0 0
186.486051996246 6.89891027164499 3.59305244856035 0 0
158.390898942989 -29.2251039763565 11.1115097593466 0 0
168.34492141984 9.62178030254586 -34.4735560429076 0 0
159.085240731448 2.96662097586659 -19.0036978245802 0 0
163.448957821008 19.7853104006182 23.7119775637666 0 0
-210.472060593436 -46.3366450625444 12.4612772013293 0 0
116.235753324379 -6.50212301176968 22.8147206377748 0 0
-62.2582098060384 -2.24230287268105 4.91606571678756 0 0
162.981279930283 4.46615967357747 -25.6081705481221 0 0
165.546552855541 -1.76791681804701 -16.3426510417842 0 0
-63.7393563832918 21.8546541259057 11.7094676762752 0 0
161.295125617376 11.4747864169659 25.7552471329509 0 0
182.987067523762 -23.4227788552306 -35.0433664834204 0 0
176.7123823572 20.7369125161255 -36.4902948065328 0 0
-87.0174114570443 5.61773739934919 -8.64201345083974 0 0
-98.5921534090694 12.6105288142749 -8.58505782541505 0 0
-170.577336301883 5.74693855765446 6.12969251887606 0 0
188.65003516006 -36.1150136067657 -16.1755453833978 0 0
26.0096165436685 -5.90126023471145 15.233563805446 0 0
-211.234515707011 5.01687587843508 -21.6023308372191 0 0
63.7078478398158 -9.3084912662205 17.9368804602013 0 0
-200.850947569968 2.42946976429249 11.4551619051014 0 0
-58.1968232083673 19.2088246506111 4.73095950577269 0 0
-167.449431901329 21.8326313187671 -6.37936720417006 0 0
-190.346544584145 6.43824880889099 -28.5826103205853 0 0
166.338029465359 -36.0796285877909 4.36312605703324 0 0
183.763762376882 -1.96193144209338 8.52693535824615 0 0
15.1892218725472 11.3707994667547 1.94914426924504 0 0
-167.634196213817 -19.2400534629132 -9.06205745719763 0 0
44.1455019715666 18.5817482127523 12.1018579826892 0 0
-196.142848010566 -39.2790141036699 14.7997221620434 0 0
-96.3462989881482 16.0278394059417 -5.60874939686824 0 0
153.694282772269 26.8984743675866 -18.9413342820823 0 0
175.776195735264 2.95860486186232 19.7783271168117 0 0
-5.10914433766796 -3.88867042444921 12.4193144001709 0 0
-140.717646865984 17.1921395106244 -9.11619050490066 0 0
25.6157324822213 -5.64987444560696 12.6010771260886 0 0
170.938715033176 28.6052760565957 6.37439427187901 0 0
-93.0359243929297 17.2381756305601 -3.33551023510415 0 0
-204.62614460286 17.2219730387509 7.5156385234978 0 0
-216.9968054344 21.2040559168476 -10.656863496939 0 0
-27.598264508002 17.1014620301476 5.91024024312674 0 0
-207.017733408646 28.4097048477016 -10.6796987408231 0 0
148.666032001617 -31.3848457093103 -4.57661819090663 0 0
-106.032241105468 15.2683684497952 14.0878041810482 0 0
-217.655565704474 -18.7789300790054 -11.4121594652445 0 0
50.9012137446907 1.04126026650009 25.8315507397495 0 0
-104.3267397751 3.02369552082816 -10.0349503776231 0 0
182.770245583294 -36.8420313840504 -25.3845895983182 0 0
-184.853855154305 -1.71744617798193 -22.0887724452756 0 0
33.3084861586119 -6.34072903611811 17.5226990632261 0 0
-54.600644437639 -2.77839347859783 8.92281760158808 0 0
-170.073845087923 7.22134494272853 -22.9997475507252 0 0
-185.281409354967 7.40109771850221 8.50176100722866 0 0
-210.521067092273 22.0007797613437 2.40825350231678 0 0
179.84270546033 28.381386935247 -23.6937732478829 0 0
-227.208497970748 -28.506952070967 -4.89851995556178 0 0
183.922157546113 25.5382025067615 10.9743982067719 0 0
-197.158019800474 11.3357446070456 11.6512271074299 0 0
-46.6149354090086 18.9189741487141 5.67100244998914 0 0
41.2149718367146 3.60906864938459 26.0424713949961 0 0
-135.637598759257 11.2415715877134 -16.2866210570446 0 0
176.629391638588 7.7866530656901 -32.298742956817 0 0
-60.9797049616066 -1.19220156124984 1.41715559567004 0 0
63.0100912228787 -10.0117966739825 15.331238319185 0 0
149.311534717915 -13.8792072832661 20.6018056151918 0 0
-173.778052074269 14.2514947907105 -23.2733831608924 0 0
96.8749211336599 10.7436340523537 -6.1811922206893 0 0
77.7951639016927 1.53968417842575 -2.68209705860323 0 0
170.97047149262 -26.5253957566218 -36.5454928946841 0 0
-87.7048815072156 20.2530815154912 10.5120879200415 0 0
154.439820648097 11.4528680457278 -25.6966621678762 0 0
-13.8710218853664 -3.62915416618054 13.5491764468879 0 0
170.612579092021 25.3967386811441 18.032841750337 0 0
190.801468061648 -11.7576777969164 -12.6159721987451 0 0
-199.446720384194 5.39130462534501 -17.7092097127086 0 0
167.774363801279 9.49352496770481 26.0986394001302 0 0
167.280266990859 -4.3340762713125 -14.7968018629047 0 0
-195.107220829141 4.24345786034003 -26.7649492573293 0 0
88.4268262217358 6.70327394509179 25.6725131071996 0 0
92.0625173983476 19.2542346743729 5.47678098835822 0 0
145.655453952234 -6.21584942894174 21.3642124763452 0 0
156.851727660164 -10.5745544093829 21.3662066907736 0 0
167.353007118651 1.04225807476413 -18.475979941576 0 0
138.094924541954 8.60717121962833 23.0726924820244 0 0
0.208712245173601 5.15000744124152 25.3765898627577 0 0
-209.90474559398 17.3322443290234 6.6092286907682 0 0
165.809133877167 24.257684188917 -29.6626236942984 0 0
149.692756171498 10.971284078192 22.8716028870265 0 0
-138.891802019546 16.6283219331695 -10.3074709302357 0 0
122.790791297707 19.7442635553352 14.7988782819509 0 0
160.195974548408 -24.0870344943749 -31.2064140823454 0 0
-28.9250607440109 19.0987950371538 19.6262961988073 0 0
170.053535778653 24.4197756482228 -34.5481808230235 0 0
-121.859180968918 15.0969965742816 -10.1166470115562 0 0
-80.5027454613551 20.6139489224792 11.5480489584656 0 0
-89.7999514358436 -4.16214018079165 2.30431611795061 0 0
68.1935968229375 10.2457250086944 -2.54896052162007 0 0
-129.661806895467 5.43382018644711 12.504353398478 0 0
159.568552569864 -2.96495044732454 19.4064959534215 0 0
140.183184231859 -1.67372559815296 -7.73821541182254 0 0
163.615642190908 -37.8325833986102 -21.834160360593 0 0
-159.065621823845 -3.72892276989644 -18.9070983610872 0 0
-129.494857412741 7.93540443442468 -16.1098226596982 0 0
164.910937200502 22.6362605697471 23.5109089903152 0 0
-73.0525595394494 2.84523508021871 19.9549080242932 0 0
60.7717385634668 -2.67070285240796 -0.236822209376348 0 0
158.708417705106 30.8852116610707 -5.74062344235762 0 0
89.8539941645504 19.1206706688385 13.0007520365012 0 0
-62.8030964204814 2.49847685052262 -6.19072480379728 0 0
161.213128046297 -37.7382294093649 1.21620327890709 0 0
-20.8126088541337 9.45017314566267 -0.156836256185702 0 0
155.614944778022 3.86923237384766 22.1647141521173 0 0
168.506619987195 34.2744723675385 -14.0267208241647 0 0
135.39960926156 -5.0980033427773 22.4995137951136 0 0
-202.423487593871 -6.95761328389707 16.1857057802402 0 0
56.4996847320063 -5.76643519478637 4.97497483404155 0 0
101.727070305729 -9.03148614304651 21.948101709494 0 0
-200.775709066424 6.75532398496823 -17.7883542698502 0 0
-88.3212613984682 -2.4358987991275 -0.912439076058433 0 0
156.042457132174 -19.842360488878 19.2032701876108 0 0
-150.976147091166 -8.96885967853788 -4.1499095333351 0 0
186.265289761071 18.5610563875432 13.9823175904747 0 0
81.9301926797354 2.67850464072672 -3.60043502966013 0 0
174.318907691512 31.8701569521527 -17.1519443732001 0 0
-128.871504099302 18.8222336076025 -1.93082764616336 0 0
94.9288425569386 -10.4700815265526 3.19840189287212 0 0
-35.5363459864424 -3.10676727829621 14.2936946914783 0 0
144.008025157898 -20.3988592232354 -13.8883766352599 0 0
-41.0415713320776 12.1239439523677 0.296478674406393 0 0
-205.739508182369 -45.6205128806665 4.4372247837886 0 0
182.130249580644 2.25753179429442 12.7212624608746 0 0
160.638204226834 -11.5651634934057 -17.4461297646657 0 0
160.733473315752 17.3768219868049 23.8212123213133 0 0
-19.7534739507735 9.33260334355261 24.6995518716029 0 0
187.490234634186 -8.11906687859332 -8.52408871561045 0 0
156.476303904492 28.1493113991609 0.722399909742639 0 0
-210.88845946283 -27.0230849567349 26.9678065512691 0 0
78.4271795554994 5.61027885254798 -5.00680898676082 0 0
-170.212697236304 0.791288822434823 -22.8451760900801 0 0
56.0635276756 17.9578454821106 8.30615528464739 0 0
106.927090756043 -13.9682791060756 17.9121558635275 0 0
72.0829498121528 -10.8414464325071 10.4687773927034 0 0
149.596939757376 4.60294639378958 21.3977292854411 0 0
182.276658574554 25.7656547730469 12.9077620267855 0 0
172.439435715798 -37.7531622354002 -21.684755589872 0 0
177.873890684121 -37.3490065221038 -18.811343988037 0 0
132.31702322101 5.12613214397402 23.4991483465007 0 0
185.8022663673 11.2811885943101 -27.1682763307458 0 0
-22.5961031884918 0.197785900788557 -2.7869562347081 0 0
178.073328736293 3.93214001283365 -20.6264327301025 0 0
-202.369711055771 -45.8006623442542 8.97746404043435 0 0
165.11068518048 12.54993724635 26.7076185226687 0 0
-50.4814635981429 20.0573953139601 6.35101607076972 0 0
-210.888564441145 25.5682442423455 -4.41208954738109 0 0
-94.6634864778673 13.831442881568 17.2434830552389 0 0
-155.287682890802 -9.00548774404777 5.14937074327895 0 0
-117.614994200755 8.73354321222384 14.3888028532389 0 0
137.793037163861 12.2464200516206 -12.1933252561463 0 0
185.843597535945 -19.1982220538352 14.8682803737725 0 0
-208.462607787543 9.75068217965827 6.75958457382476 0 0
-159.250111387248 18.7440833494376 1.25823758999093 0 0
184.42162932751 30.4444527434773 -24.2558229751298 0 0
41.7598160466782 -6.41398785800161 19.239870449157 0 0
-124.113442261244 17.9698867867241 -5.18048359254804 0 0
164.215901131841 -36.9221429720576 -23.4193848015442 0 0
-219.22155920012 -15.1510524618777 -8.25700524941248 0 0
131.337670883366 -12.477465882027 -5.73016442036514 0 0
-76.3123470850847 5.24837947842027 -7.85438371898334 0 0
-98.4632647719047 1.71623392209057 -8.94589025084111 0 0
-36.0637815561272 18.479068115095 19.8897994429403 0 0
-141.024774784556 -4.80275694147306 6.58660532187891 0 0
168.323505590226 0.103527379498754 23.1418811486062 0 0
9.93263479499096 9.57293618585531 0.757473325767353 0 0
-221.060441310941 -12.7483270265755 -4.35994287013348 0 0
98.404849443533 -0.814903705318313 -2.75486769165606 0 0
143.098149382384 23.2873676224698 2.92943089802036 0 0
83.1372069701822 13.9666091342201 22.6544142658286 0 0
-164.696170804187 -7.01204149746365 -21.2902798695405 0 0
189.002145820262 29.2334947015573 -18.9292074397601 0 0
166.946626447668 -34.3995492408558 6.23514668885392 0 0
-176.867288522964 -1.35157543363 -23.9001725389154 0 0
157.911274540995 20.4973408439727 21.9775399692235 0 0
-183.338166488189 23.5036308490689 -21.7312694566632 0 0
-199.458127590174 -28.9585953088069 -10.8266349948934 0 0
-192.673795108888 30.8407088564125 -7.11502414260871 0 0
-197.637587115472 -27.5745230251557 22.9033974608968 0 0
-223.134251798262 -40.4615828627114 15.5259394061125 0 0
190.688267637131 -35.3277681913343 -13.3752624087376 0 0
99.5521600194998 -0.918652627938205 25.0288997400689 0 0
161.117034102248 -5.70250330503566 -16.0620623495086 0 0
111.139640540819 8.45982319315045 -6.95933266784891 0 0
77.6780616875294 12.5999255102741 23.8526233294991 0 0
-134.700582024843 5.27112771214719 11.6924633189967 0 0
10.6150639596692 -0.0789376257090627 -4.1123783028287 0 0
129.515155173255 -2.49065265792167 23.2488611177338 0 0
-89.0090276029564 -3.11656673104899 9.65992952308247 0 0
22.1057682485457 2.46758677657407 -3.93326295599035 0 0
-196.277490534775 -25.0071982623279 -6.50226739729056 0 0
-69.1699579477907 -2.91574151548333 5.34073065374253 0 0
-109.631814844881 15.8560495187227 -7.66357369912746 0 0
157.256356204035 -26.0452981072793 -27.4377608180397 0 0
196.188140993029 -24.9795128175715 -16.9055638357096 0 0
-209.283531451149 26.0477687018215 -15.2902185828212 0 0
189.885246562421 -13.0339071360799 6.37519342297292 0 0
-161.882332019677 -15.765439809902 -18.7817632809191 0 0
-218.568826416058 18.7840929657186 -10.2503040956538 0 0
119.498285802749 -15.1131442512416 17.6627176281004 0 0
186.891744168247 -11.0419442730576 -18.8762118207347 0 0
54.4857594650317 8.63775589973481 -1.82088002272551 0 0
154.717544963562 -13.540254564763 21.2547858003561 0 0
-69.3508827712475 -1.65872705019764 1.28925818975113 0 0
-127.680232079142 -6.28919459046888 -4.40442938825654 0 0
-180.335549610073 -16.7134576887258 1.3528087366025 0 0
-193.423395904724 -37.1539142763497 11.966757800723 0 0
183.271547914374 26.9922006137262 -0.183738835735009 0 0
185.753025710358 -36.2423633089114 -24.3177899646859 0 0
-183.647551692817 -6.6250902338741 -13.1008029409584 0 0
186.222618550176 5.31357883234908 1.10360691024313 0 0
-228.081687179944 -36.4138558488637 2.27949525125711 0 0
168.150760678199 -20.3884095036822 20.3462555063944 0 0
156.455347385592 19.3175430882167 24.1408281682522 0 0
184.80189274271 -2.26064839361289 4.84620757799249 0 0
29.365717652405 -5.94895648753573 12.3224117501726 0 0
-135.809793694776 18.6435185715553 -0.349932367714575 0 0
184.651613747092 2.69864030964557 6.65650993322031 0 0
-63.5047008081223 8.32614701838456 -6.30948290648051 0 0
-146.945273735523 9.34445457671886 8.06551411268779 0 0
53.0706546071569 18.3594342767235 14.602455634487 0 0
-195.26989836471 23.0972102227928 -22.3163133737644 0 0
-115.766342143887 -3.89064879347545 -4.99998198296331 0 0
-205.614903015985 28.4238670088095 -12.4750842505407 0 0
173.31946721271 -13.2376887901322 -18.4611796332948 0 0
185.853895870474 30.4983317448044 -21.2098371387527 0 0
-217.931569110365 -34.2842796415272 -10.9325287840665 0 0
-102.024367930743 20.1158631460272 4.34628423633867 0 0
187.513999708755 -26.6799892136773 8.33870971079137 0 0
-55.2672817191786 -1.93401146038914 4.97270589009468 0 0
176.836399150514 28.2951119140945 -25.5870051836124 0 0
-190.7739815549 24.7792178807181 -20.9245505920132 0 0
76.7046059592016 7.32825824023679 -4.70446138445768 0 0
-203.778492045935 -1.45803325246176 12.6313457455992 0 0
-130.001881033257 -1.09565016839422 10.1925238845874 0 0
158.436377286449 -29.1522388190843 -27.9261266381421 0 0
194.297671299785 -32.4219190300252 -14.0725729938143 0 0
-212.817218066039 -20.4884453447682 -13.0623983276774 0 0
139.617985944077 17.811144402234 19.8948388798727 0 0
-31.3055627154509 4.3729137495539 23.9535496923695 0 0
-186.932239162771 10.3231754322321 -28.3624711409285 0 0
134.433074744369 -12.179502202861 -7.09549823268717 0 0
167.919900666061 -38.4331608858045 -20.4321833004769 0 0
-157.648681816047 5.77263626463028 -19.717351719678 0 0
-169.733341789207 20.6229897056748 -0.00628066971990335 0 0
-108.866679704095 8.22473286971939 -13.4175776263054 0 0
-122.180551461658 19.1993499294162 0.948749900459231 0 0
-175.287167848184 18.3172465614027 2.26567990897981 0 0
75.7920333879739 -4.96177959350884 1.37309264108643 0 0
-206.241873781987 9.4987087219963 -26.090664075573 0 0
-152.185048955045 16.3722456977042 4.2580342924316 0 0
176.714962291599 -38.0350222177093 -14.8868852773843 0 0
190.852324408387 -19.6307377985336 6.9153961487236 0 0
-77.3592358964133 6.65176378880504 -8.58948314855169 0 0
171.896865187147 -33.8718689846412 5.86921616311604 0 0
75.8459016861035 -1.26701291609454 25.350534895793 0 0
110.519609500237 16.9888073688688 19.6234334580494 0 0
98.0667694839953 19.7142400173515 7.75028338632571 0 0
-57.4614882805267 -2.93709606150447 11.4123355768374 0 0
170.40177098917 10.4881749004343 25.8684305016063 0 0
97.0465244700096 -2.75674941811086 24.5453499632389 0 0
152.036949416797 -22.8877129153219 -14.7521671203894 0 0
-224.427445167293 -12.1656724701879 3.19017590734905 0 0
15.8633992661433 9.80748247468682 25.1053167635176 0 0
-205.33827039431 20.3738180651887 -24.4109959686548 0 0
-93.2628442073327 17.3559107235021 14.6211618629588 0 0
-202.406263720281 -39.0770342093521 21.2627661347989 0 0
112.8378461253 -1.05727253648183 24.5524174429475 0 0
163.49961454818 32.1984454167329 -20.4996507360127 0 0
74.1348759847643 9.7026266374459 -3.59734276784635 0 0
-111.74264336698 2.97429945612482 14.819885772834 0 0
84.8549480911004 -5.79982114133551 0.853109058767653 0 0
186.933456773854 8.07865633504247 -14.2746518776613 0 0
-219.218765339378 -8.91773056436499 1.56855625275148 0 0
-191.538045961017 5.16924291910873 -28.1326196230726 0 0
194.085965218402 -26.0195368344644 -22.8752906343506 0 0
-55.4038402334029 -2.99012678444168 10.4118832792312 0 0
171.135065854017 6.3809188220385 -32.2310663116822 0 0
164.858088088414 -14.8195839750534 21.9877364210177 0 0
92.4324121887188 -14.5216155799291 10.865355129827 0 0
-41.9984135078913 2.93770512072193 -5.17169764958525 0 0
-153.182769775142 9.29575190346772 -20.2383366040164 0 0
-163.717814412895 20.6945210553173 -3.10355663582376 0 0
173.3991715897 2.79063469623494 -18.664596440911 0 0
189.058487656294 -19.0657971457426 -29.6201589826082 0 0
6.35336640743292 1.46081709707994 24.6534306962511 0 0
160.50939953447 -13.5899898401541 -18.4390993051279 0 0
-200.819764971594 -30.4291941211866 -11.4608054000088 0 0
121.067095377706 -4.13950477851742 -4.00560413786321 0 0
-210.656599321947 6.51691594008648 -18.209039446105 0 0
5.28643438747398 -4.08910219126043 17.8931470954325 0 0
-84.9090924064624 7.41889673963695 -9.60277199371875 0 0
150.022697248867 -6.763070462907 -10.2058727449245 0 0
143.083660278521 -9.88781894397458 -9.13449702315742 0 0
-110.557925398244 19.426311812199 4.72642421272929 0 0
44.6710037393537 -3.58160455407774 1.73219912313414 0 0
-207.898453655785 11.5921687332381 -26.5948061204471 0 0
186.553864318631 20.4785885934015 -29.9361625661559 0 0
173.331825724008 11.2731999507877 -35.4246103521193 0 0
178.340219796544 -17.148100940972 21.1074561627691 0 0
176.1186133562 -37.6650024659387 -19.8212313366076 0 0
-88.8058184841651 0.13987822945287 15.7505359786502 0 0
96.1645031367292 -6.32443318854795 -0.078136918994387 0 0
135.203744849175 21.8859147755951 0.35483487377664 0 0
150.166269893739 25.8313405658797 0.38976007640827 0 0
154.115102336132 -30.0364110611109 7.55499400899453 0 0
-208.920553731819 0.663402338883185 -2.59795721894226 0 0
157.801846791555 27.0637105772898 -23.7236921887219 0 0
151.300820478179 -31.4432058171983 2.03667152160307 0 0
-158.227949027016 17.2189166766974 -15.2099347567628 0 0
157.455491384295 27.5949967463752 4.12052564070712 0 0
-218.09161029543 -12.6413840125006 19.3364037400106 0 0
60.1580342410821 17.9108397703331 7.45700474868687 0 0
135.012063879753 -15.4026716125073 18.0717842545217 0 0
181.038251894442 -6.1621861607967 -7.76555645476192 0 0
27.3167872952987 15.3146485867652 4.77314608942865 0 0
98.1870256084068 4.5307581042278 -4.92053991353809 0 0
166.983480107386 -37.0903543071942 -26.6233138153451 0 0
175.831671677785 4.69700691009379 -27.2097754838318 0 0
133.138540610802 21.8779120768163 5.14326784126298 0 0
-187.707239326048 8.70987916971999 -28.5832493495042 0 0
-187.123021717431 -10.5744056421048 -9.19931441448998 0 0
-119.736385996717 -2.66978883469484 9.32035052403997 0 0
187.289317557562 8.39182681339062 2.06250280122406 0 0
45.4046321926111 9.02495267289699 25.7205071831631 0 0
-189.733112693663 15.119089112408 5.69103271858746 0 0
4.85802004483706 -1.58545312678008 -0.0338933199178627 0 0
186.106514804259 -32.3763059884527 -30.9154345088469 0 0
187.790142110373 -9.38885491022076 7.91760894375068 0 0
125.222839644364 20.5654810631237 11.9992459461623 0 0
10.1647238690931 6.0115724127855 25.6304907151911 0 0
-205.124212371851 7.07781203451454 -9.37215622929008 0 0
-168.942427683976 -14.4888161264218 -5.30102780790797 0 0
-34.9276311926461 -1.66367290348282 3.48313202325072 0 0
108.856596729382 19.0220686635049 15.5234573744427 0 0
168.729065417646 4.83744489617631 24.4228139380276 0 0
144.833081123282 10.3637581165817 22.7322026088555 0 0
-39.1859937604881 19.2581275286333 6.62693274728441 0 0
157.726666182155 -16.190169892487 -22.8676130618131 0 0
-195.107114576008 -31.3389922828846 -6.17463045316897 0 0
-193.808939125575 -6.32489883733053 -11.1811720664887 0 0
164.818509541241 16.6248811280252 -35.8681833933005 0 0
-7.17412206540449 9.07862845356914 25.0435056282417 0 0
-168.774139534406 -20.6114191079034 -13.4706361554418 0 0
-24.7800829127875 21.2453086584937 16.0714426165972 0 0
111.991420526429 15.9529865224345 20.8739876454586 0 0
-205.098594812394 -40.197207070346 -8.38191274299368 0 0
-186.489621261688 -7.19389468880944 10.4935868954453 0 0
188.651718888013 10.5641382672904 -6.15817227058487 0 0
83.4294157304134 -7.33791975417034 2.42372695855578 0 0
-120.302485570506 -6.59064354311164 2.09640067365423 0 0
-177.973770458333 26.7949477785244 -7.5989653681796 0 0
-96.7136706394854 -1.73976233988173 11.9686593281931 0 0
166.68611293339 -32.4752266697492 -33.562335123823 0 0
-179.297928944021 27.0845497236272 -3.55040948047408 0 0
102.77186772248 19.819882733479 5.52754787139519 0 0
180.815618675756 14.1696423988497 -33.9528524591307 0 0
-194.99840551042 28.4369925768156 -15.108840371667 0 0
-203.641493913831 -0.780630084098065 -8.50001606174252 0 0
74.0115083986045 8.0918146824875 -4.13317137283653 0 0
115.283886610488 20.5446415873549 5.53817130856712 0 0
174.316256620308 -13.0829469506202 -31.5145114607429 0 0
6.56091860084497 7.80932803917374 -0.426686756770673 0 0
-99.4709339475375 11.4865489350998 17.2517850823428 0 0
158.645002557685 -37.7049476853886 -19.941378159994 0 0
-9.94324687019436 -2.64762257045494 7.28178634885685 0 0
-63.4584259746365 1.87522809414744 20.3600271608998 0 0
170.239865156726 4.67708253644983 -30.0851002683344 0 0
-187.450095265983 -1.40679122943325 -20.285713876092 0 0
51.892857891178 -5.00772784075789 4.29965203551438 0 0
29.217195167727 1.77836594125591 25.3212418582252 0 0
-72.7172990926629 12.3342190805238 -4.30350844985117 0 0
-213.163575255333 14.0372179537813 2.42800546902266 0 0
-170.919274801421 -13.5650401433779 -1.20334950323763 0 0
111.368299780218 19.6851735166048 13.5185388422559 0 0
-112.814221475873 17.9746663405546 8.65410399209965 0 0
146.637541413091 24.428941447485 -8.21772630746472 0 0
153.95966298646 -24.1908199434774 15.3650888405767 0 0
98.7979091684683 15.9372600271949 -3.97211330267814 0 0
-143.612767536438 -7.11387651806565 -8.55369691664912 0 0
-96.9447950560605 20.0256711252599 1.20404335864007 0 0
-85.3471568760509 10.4838055738006 -7.49838707967037 0 0
193.901060332237 -15.0633518476173 -14.3898872266034 0 0
80.6225602576559 -9.02926499895433 4.85336800900475 0 0
126.837699701087 1.1790860377583 -5.87899782055506 0 0
-210.749313190481 -26.0831531960294 -13.9432488250179 0 0
0.0686552136181849 15.7498980994142 5.47663491386058 0 0
175.469703531909 30.5589005050518 -3.37154353899329 0 0
144.616253441295 -0.985617930462129 -8.62340668173478 0 0
-24.77728633696 2.84122897141731 23.683337209299 0 0
-205.504950320431 25.3078826516999 -18.9559877343708 0 0
59.0544424790072 -2.11723954293572 -0.878278299058002 0 0
148.760925289834 21.9964363406347 -16.6821960253239 0 0
-186.887301230281 11.5305318769935 6.8029908199233 0 0
-213.288402326118 9.37628276932118 -8.40765361350291 0 0
-165.09126907118 -9.01302858660964 7.91002256260924 0 0
-148.166439621768 14.2358135848408 6.11892560729926 0 0
-191.64076175827 -33.8481514367699 12.7996388802501 0 0
171.730212020217 20.8052422246571 26.2846943520597 0 0
-204.367520525109 -46.8043398383157 3.45664295934103 0 0
-178.664174296206 20.3415889560734 1.90672740278796 0 0
188.665229342594 12.0714925971006 -0.319764912611552 0 0
183.247065250588 -6.07841725614865 12.9046774187385 0 0
153.40022332274 27.6462789613492 -4.14031523545268 0 0
-40.2656292327988 -2.16923960828717 6.07244752721209 0 0
-184.57182770366 5.31319228919765 9.24264466970109 0 0
-108.258637646644 19.1995728072857 6.78980876635499 0 0
74.1575195672401 14.8901235634524 21.8152884683514 0 0
171.968677897603 8.48927656358179 24.5877924012809 0 0
-213.824744151426 16.708201234563 3.4245872081207 0 0
43.0587645166945 16.834497394389 6.20571423091486 0 0
184.172510127915 10.8908340368336 -29.3388676944392 0 0
-201.481547355549 22.9089824984055 -22.8035143623267 0 0
-24.7937252304818 -1.96179737161238 5.02338831266663 0 0
-6.84610074303695 0.734241660113423 -4.39065657025575 0 0
-160.918422912198 20.3045219932362 -5.7041859243511 0 0
-230.255437305924 -29.0803813963755 9.10402208886275 0 0
-131.516728069645 13.0194313285781 9.79268720633544 0 0
-204.111234981671 0.43140234939908 -7.21147557443727 0 0
159.397271820647 -41.5680485688024 -14.6260098700768 0 0
123.354660241898 6.27111123218386 -6.9963613271217 0 0
-52.0266086861988 -0.759664241587794 0.755980952830768 0 0
175.859367658049 28.2643904062279 -29.4889196170952 0 0
-8.36077407132908 20.1108630080749 11.0010129521009 0 0
177.670138897508 -19.2627990658126 19.4152674760745 0 0
144.047337497076 23.777759472703 -2.57800153684292 0 0
107.811041662003 20.0022599849045 4.40841850892467 0 0
124.255138586235 -19.9555639058898 9.29619707663445 0 0
76.9905429820846 16.429526633336 19.8569567705243 0 0
-141.601382764093 5.86021114669566 -16.4371557921889 0 0
145.217961944506 24.1581771274834 -4.36728585844501 0 0
160.540264184977 -1.39519755134603 -16.8292283489806 0 0
155.794808480993 21.3581413621784 22.0585479160982 0 0
189.682583811234 27.6766945803744 -13.662728286981 0 0
-165.956391069227 -15.7243427755932 -6.58496472896859 0 0
-206.577067329811 8.56130304643214 -16.3511723783352 0 0
126.538861848253 13.8575764469015 22.5725041812955 0 0
-167.378575497089 1.6360435189923 -22.0910041927139 0 0
-219.439237466401 10.9189970643334 -16.3115709776789 0 0
-191.943040807898 0.912039972857621 -23.3270500472215 0 0
168.919810648082 14.5145123970925 26.9480059851415 0 0
167.136134346033 -6.23327591236316 -14.9956221609733 0 0
-194.808659131641 0.219375068412935 -16.7987499322907 0 0
-88.9511487652584 -4.46540822560049 5.7447773665748 0 0
172.842930851379 19.3200420282981 -37.0539008100852 0 0
138.390420668351 -16.2416837646068 17.6040091547436 0 0
-179.97464220757 17.7080301606317 2.93104072140684 0 0
183.951847216769 -11.7553386789517 -20.9050548152077 0 0
158.13133294219 -40.4903016416854 -16.6222766352947 0 0
183.236337290383 -11.0447512567722 -11.8470690176959 0 0
-164.485482048478 6.18465433408661 -21.5696408442035 0 0
-111.171751262296 -5.32966516706826 5.86684897046864 0 0
120.628119997858 -0.141999758094967 -4.73873676119622 0 0
154.906175172236 24.0895409988018 -23.3870890922575 0 0
125.06197235725 0.848295773377773 -5.53588572317979 0 0
71.0613001009562 -5.10200374643433 1.96579577468966 0 0
-120.132697801189 9.78220880276577 13.6559433857461 0 0
181.747404712186 27.3582916003219 1.15080213622477 0 0
-200.911129547926 8.3360213643172 -16.0540782044494 0 0
-192.45788989246 -14.3370789636381 -7.49354269855978 0 0
-97.2962749106217 -1.86182280452051 -3.84183739782133 0 0
149.45530475743 -21.4354233496671 15.5970363280996 0 0
147.762174175454 -25.7826721942787 9.88855033990543 0 0
-89.116957149638 -4.42576999945337 4.12155634702818 0 0
169.888533536033 -36.9159735095562 -30.5121624533652 0 0
147.033359334937 19.9314241898584 -16.4918479783689 0 0
-4.39901806626568 -2.55511344509819 6.68220178294142 0 0
-173.268138663474 -14.2121081541378 -0.341587380543382 0 0
-159.452816932641 -2.36955107206755 8.30828073301948 0 0
151.006334264722 -30.4352613984381 3.9493140421895 0 0
-172.447705599383 4.86226805871266 -23.7408771418505 0 0
142.59594239398 -8.06935990592584 -8.19329880684915 0 0
133.309902507812 1.51566329332895 23.1155557495023 0 0
-194.047219408588 1.29756775819366 11.143065902099 0 0
-179.14552047699 25.1438234385024 -15.1877881263932 0 0
-2.31592864307434 -3.56888377800562 18.2882163093702 0 0
183.929899182672 -36.8784790877972 -19.7462077965545 0 0
-136.363402197912 -1.45915535464095 -12.5942538266821 0 0
100.52009739692 -10.9244172640234 20.5414755959412 0 0
150.852653868471 -27.7963181316877 -15.0675948817074 0 0
-212.073067966935 -3.65377921346866 4.54041753942707 0 0
101.24557320728 -4.7189503299926 23.7570425444708 0 0
169.712003837754 -6.36531906492057 22.7249101244356 0 0
166.068843800089 -37.686647483819 2.44166871053627 0 0
45.8983984152292 -7.33658978110962 17.8389646896899 0 0
-207.109171690085 -2.47978250098382 -3.30099331273945 0 0
-147.423275790409 8.66894074322948 -18.8558137759914 0 0
-165.611865934588 16.6190237464946 -18.5883038027773 0 0
161.523889333784 -20.1925373328844 -31.9575013585409 0 0
101.218206780399 -7.13671025276185 22.7633571597911 0 0
188.195789620288 -32.5328758718389 -2.6250667343071 0 0
160.12099689006 29.5703436667409 -0.162738296721032 0 0
130.714505167735 21.5934858801837 5.64695897578648 0 0
176.300470270596 -13.9850261499416 -32.4763220107443 0 0
96.5903892717145 -11.3132648726873 19.770685849759 0 0
-196.510972345613 -28.5458083842974 -8.85556251424034 0 0
-12.6718834449868 5.1080747194192 24.9519713872807 0 0
-163.562840860151 -16.758721421164 -8.21931011654903 0 0
164.225909039842 18.7762143934917 -35.4045863791234 0 0
117.766820904619 -9.37921683005799 -2.36088080701489 0 0
109.897758697804 -12.873942881864 1.48985885849422 0 0
175.002955377951 -6.23530818872254 -10.2844816171433 0 0
-178.816202737819 15.981338065735 -24.5395164063413 0 0
-221.897148319013 -28.9505227910146 -10.0915962961587 0 0
109.993453978168 11.8437192508746 23.7287743502721 0 0
-70.8378595055305 17.5811251559455 1.30522674167361 0 0
78.2034789948075 -2.78813558111594 24.747619490444 0 0
-198.71337270157 -3.82070842305045 13.4493426580027 0 0
66.4748050263819 -10.3242201034767 11.831109093211 0 0
-126.400680649099 11.7404536726783 -14.064150277475 0 0
-204.333670912959 5.36874504887338 -22.0956654233195 0 0
-225.389254083754 -16.0515733344046 -2.38724766746526 0 0
-141.966843384449 -0.802677460557046 9.20558919234274 0 0
15.1534332204988 5.00721677178038 -2.47871734843441 0 0
-175.348391145493 -13.7222926979856 -15.9379539394612 0 0
-180.77597406479 6.95405000294879 7.33055532420475 0 0
-99.4105955089558 20.2260420333138 2.85153603198818 0 0
-199.392635366019 5.75389979677315 -15.9112830883614 0 0
178.987127534616 -37.5417998656788 -12.7208857557814 0 0
-223.514527618747 -43.9436176828855 5.39994850403321 0 0
164.669417302266 -17.3320911143223 -33.2977515255923 0 0
-143.541611975511 18.4939028507282 1.34997562819433 0 0
8.136914888161 12.2485459052027 24.4261391043315 0 0
176.228323289259 -37.7976872069524 -17.9515481546222 0 0
65.1423853172384 -6.71850146847406 5.04027276220778 0 0
-45.2390504640919 21.1829531371538 15.6912995648912 0 0
188.030943748923 9.82864433947391 -7.80717694880582 0 0
22.779266046274 -2.18512900796878 -0.268532616442244 0 0
64.3048713237072 17.5741921399232 17.602344408192 0 0
-76.6246238982582 20.6406405335608 12.4943069599302 0 0
101.849519016127 -13.295305461034 4.17478925070403 0 0
-179.472494788484 22.9461872074501 -19.095183726493 0 0
-190.718338722472 -31.0513058870673 11.6336434328378 0 0
75.9231621515236 -11.0942628149083 9.37304059941028 0 0
119.208401298887 19.7927869873542 14.2796976292342 0 0
138.562702862501 -0.488368049704668 -7.59141729027953 0 0
-165.890600618667 18.9098397356498 1.50459646710346 0 0
-196.04814256939 -9.43640563175022 13.9045932217791 0 0
93.0367442606968 9.96771100162076 -5.77833780870625 0 0
163.667097203547 -14.6972236425832 -23.1275805981828 0 0
-183.264998407181 -13.3724192962889 9.28854118130376 0 0
180.948897526351 -22.1530505097671 15.5442391058887 0 0
156.946094844551 32.0858870552428 -15.303523038045 0 0
117.433688436564 18.4935037199437 17.5283260673814 0 0
162.612959624462 10.3844440581329 -33.4166046820007 0 0
-38.7305744078682 1.33009165842834 21.9621035510027 0 0
-205.012463219758 1.29896433486426 -6.11397581001029 0 0
-214.337499026485 -44.5997039909908 -1.09991269617282 0 0
-134.206092474138 -6.91337484221498 2.96837382278745 0 0
-198.065659121505 -43.6844148332639 7.52236654080216 0 0
180.896963790756 2.89038364724845 -19.5925226454199 0 0
131.462311163023 -20.7975240659108 -2.99797566386315 0 0
161.010862319833 -19.2030372374992 20.9120167118908 0 0
154.367582530382 12.3327029540041 -28.5450740723046 0 0
-112.443380337478 18.0364194529067 -4.57887108263313 0 0
-52.1112225782163 6.72061210193093 -5.30714602645263 0 0
33.0538525624413 3.2205145437142 -3.9088935006278 0 0
164.026954567371 30.7645778370535 -1.14166578060223 0 0
190.770556381766 -32.991160221565 -4.77235670660745 0 0
-219.612493284979 -46.158942007936 3.82158560135684 0 0
27.8606660628198 16.6635832752143 20.8190853382319 0 0
50.3826476637199 18.5139907515716 13.1483945644197 0 0
105.308893111572 10.7560963636994 -7.41286835592815 0 0
-18.7208231245165 20.1401399891173 10.1395784459317 0 0
-167.19006323154 -20.1823215474931 -15.9970820512262 0 0
-145.439635515151 11.5417265509017 -18.57538622287 0 0
112.304063995135 -17.9652098445711 9.00630918180786 0 0
-229.172440828708 -19.6138269087395 8.5709846658417 0 0
85.2044777520828 13.7680411003623 -3.24894490958386 0 0
43.4645002155016 -2.9636313490903 -0.424870062501884 0 0
-136.688770856044 17.6222621103521 4.71106811561113 0 0
-159.249770935705 -8.41393541575672 7.61584990362733 0 0
-103.930478746593 8.46745496226077 17.0814357712104 0 0
0.387550641666954 -3.72041573673484 18.2743042657036 0 0
125.472683955711 19.9955460946519 14.2567597810427 0 0
128.089449042041 0.801441063641454 23.7143513967297 0 0
89.2919843703486 -11.4186095193691 18.8587048813425 0 0
-68.0558866608618 -1.00561852708332 -0.57695379562549 0 0
-196.999753272157 30.8337334584209 -9.85165524445403 0 0
-208.614633947607 -45.3255125754165 -1.18207221896149 0 0
-133.501848885955 -3.54846491386291 7.93648938236469 0 0
94.5299342509771 4.08390273690246 25.7391807999517 0 0
184.932286909447 30.608451646993 -22.4855618245026 0 0
131.511728780539 -13.9307356810084 19.2557626932506 0 0
-138.981112579225 15.7882126905668 -12.5145566607506 0 0
-160.489403657289 -10.165268669941 6.09104922689056 0 0
-154.261189266396 14.7066442701461 -20.2685505431296 0 0
-18.8671484325689 13.5998483465467 3.0176711514783 0 0
-125.658697265876 -3.10053745909613 -9.33720817090265 0 0
-31.950239401568 2.16514237722811 22.9824446897058 0 0
191.044070460871 -29.3638534630923 -27.1206303412211 0 0
156.898814297415 32.0404424827472 -11.8527763385889 0 0
-148.641098174612 -5.96834589784631 -14.2158619152705 0 0
5.44799672351011 5.30976265500712 -2.25619388449337 0 0
92.4405918452406 -11.0940096947823 4.36308134874715 0 0
-204.045621274979 29.8723557241746 -5.61640513928284 0 0
175.747827447332 -1.5531510007181 -7.85113724503188 0 0
92.60316278767 19.430056062134 10.3082251112885 0 0
-69.3140918101493 0.526757904234844 -4.71244204307728 0 0
188.000635976035 11.1134291822921 5.80306591040238 0 0
-159.691044352744 -10.9527647886461 0.723938224094963 0 0
-192.589233606782 -16.7476720899537 -6.26023228987254 0 0
185.961977550582 -5.19160692926693 4.09943030742462 0 0
-39.9253421923058 7.08381674222891 23.8401926668673 0 0
137.831817768786 -19.0245928950412 -9.46826094918318 0 0
109.642346223112 9.03026729938012 24.7452299577402 0 0
35.9221845648627 5.34082782455466 -2.99651840794347 0 0
-1.31282751186855 9.19912120160079 0.544957612839408 0 0
186.77667548566 -35.6865130415639 -25.0393682029077 0 0
-65.885715639318 19.2330056992073 3.71456249798417 0 0
-4.37177395558188 0.861975616354211 23.7802459628069 0 0
-128.71407147361 -0.246524671158448 -11.5111486907378 0 0
-43.456046101292 -2.84748000052222 15.3624534111412 0 0
166.804579573497 16.963744481146 -36.376796433285 0 0
158.037881335678 2.14374294964062 22.1915892330439 0 0
128.38806096191 18.8764116800852 17.3393219560089 0 0
186.908182000543 10.1611287181217 -22.7431826811598 0 0
-72.7182213274245 -2.76491548518209 10.8199293077206 0 0
161.606912693765 -39.0901231806534 -1.23718433587533 0 0
162.717933019927 -38.5037152657328 -20.9132948647644 0 0
-229.727199990542 -21.3132147383669 5.91929881929216 0 0
190.983303743961 18.1176517522701 -14.5309796869416 0 0
-31.1948681891576 15.8074954931247 4.59982980749361 0 0
170.086706833578 -6.58004588693671 -12.6630281798995 0 0
-204.359821129608 -41.3021772248921 20.0847110211285 0 0
114.266253909889 -14.3942287896549 17.9910689262254 0 0
-153.574176122384 -8.50335042566177 -15.2746692052727 0 0
174.753888161521 -37.2567991879548 -29.0147715950778 0 0
182.198189145906 29.2156826833738 -11.4306114732141 0 0
-7.17963059313141 -2.86359355230446 7.84885043804879 0 0
175.529043222931 -13.6948966027438 -21.1984897130768 0 0
-165.356564263903 8.37653591786145 5.75071287261363 0 0
-114.996992999904 -0.180563303006783 -9.79890427464164 0 0
-47.4845532642175 -1.51106842391062 3.42726150343397 0 0
94.5206710918691 19.1607142126504 4.07941606464742 0 0
191.236341148561 -21.9794583829775 6.62775730946594 0 0
-136.990934096478 7.7931222217291 -16.8525644807227 0 0
-223.089949471308 -11.8307176004172 0.196992737457805 0 0
79.6134132676137 3.31729542947592 -3.8993443157805 0 0
149.159395329173 -28.8724399039027 5.28407094390555 0 0
-190.152799524657 26.0933917031911 -0.74284572727734 0 0
177.861412316225 -33.0260127958197 4.50066123556158 0 0
-143.685694337154 13.8193060633973 7.07985753801168 0 0
-70.8392591669811 3.79726011954609 -6.93711021793537 0 0
-141.995530706213 -8.18979741154361 1.10034906868515 0 0
-191.565663940334 -33.9047824457574 1.96745411852136 0 0
113.829287237741 -3.32795282977739 23.9450089456309 0 0
-180.667873517948 19.6087766780742 -23.3220715096007 0 0
-84.8817206612283 15.6174390125451 17.742990878834 0 0
-219.485718884211 9.67829915491296 -18.4696504917349 0 0
145.540394174568 8.71327579645278 -12.5422768863529 0 0
110.145427067618 -8.36385667104492 22.2330837052614 0 0
142.400895766732 -5.22304849636771 21.7707869419244 0 0
-159.792882172606 -9.31212641651233 -19.141113233612 0 0
164.22692687993 25.794316085954 16.4161274706529 0 0
-23.3864727319436 -0.123960635985191 -1.21540069417985 0 0
-6.28191214062298 -2.08112184223832 5.02328791418728 0 0
-27.8218770154877 -1.56265067241951 19.6358989941846 0 0
77.7465351510207 7.07342323035647 25.9736330923148 0 0
-96.9117045664134 8.93911895348929 -10.9944955052659 0 0
-129.025879323955 17.0412901126456 6.81010952865 0 0
117.715454816957 1.89129570936261 24.7205971552306 0 0
-116.752985226853 14.148733593912 12.4128563848477 0 0
-150.792385308756 17.4499898915985 3.26711287694383 0 0
-198.696432849531 -26.1959640754626 -10.4491871510753 0 0
-187.287684823748 -0.938985362672449 -21.4279171939275 0 0
118.711145350833 -19.0977617508991 7.17667311635793 0 0
-193.477351887582 27.4250321114822 -3.40794753674762 0 0
59.6076032866158 7.67754250048984 -2.78373736761262 0 0
-229.738312549089 -22.1330801830646 9.51354770633258 0 0
-179.600374185696 -1.81108105808993 -23.81529672514 0 0
-201.269039773103 2.85617019792963 -10.3906300250691 0 0
162.357764787914 33.4406945945206 -9.43061138024017 0 0
76.6767523893243 -9.79773782411347 6.77250017535808 0 0
137.520970696457 21.9175231523219 8.16301070367197 0 0
-1.05975429553242 20.3573678019882 14.9248266894013 0 0
-189.524499821384 3.06542786793407 10.5772366495247 0 0
196.351783794722 -26.6519020047548 -8.03101947047663 0 0
-98.5896321669089 -2.93529976847862 9.38390954013999 0 0
-117.679563317609 16.6891002216329 -7.110175184146 0 0
-197.608485277294 -42.9070923392777 10.3583783509377 0 0
-7.4603918710575 -3.90208229913847 13.1298462791416 0 0
-223.145251079712 -16.6716722128753 18.7066699989445 0 0
121.561826205372 -2.38855114044965 -4.36093621898669 0 0
164.32446017772 1.89373847224784 -20.6387293012848 0 0
157.552512954645 24.6645148521598 16.6021776225067 0 0
-154.279610683507 6.87813396558492 7.74592001104546 0 0
-124.60296786472 12.9170215238308 -13.0629042489309 0 0
-200.161299482749 5.436187373028 -13.8533073416075 0 0
162.729677734472 20.9048083635275 21.7349869672396 0 0
-163.009006544494 2.26542487289925 8.01291723303279 0 0
-181.917738124649 26.2822304430123 -17.5644892949798 0 0
-93.7074049481808 -1.14874701005293 -4.57016788369576 0 0
126.064993621525 -19.5888454397845 11.5013263572244 0 0
-187.801587599654 -14.282226867307 -6.44979228244489 0 0
-226.29258026787 -38.1860051477986 12.6370509307686 0 0
158.226645149862 3.11488107744524 -17.3283288642113 0 0
-190.261836788064 -0.0117952558720372 -22.1473433882538 0 0
190.432984043773 18.9342523251287 -10.0958673920636 0 0
132.055576600153 16.1577175284818 -10.6029398591019 0 0
109.868495451504 20.2552301693103 8.63660677662324 0 0
137.430925076643 15.1068307227067 21.9486527490278 0 0
193.045157509586 -24.0161551664724 -25.0709160247741 0 0
173.96065338877 26.393106743704 14.4030995066898 0 0
192.301718656717 -34.0382476019791 -8.89333013738748 0 0
-211.961134395749 -3.92646547844093 9.15253067052851 0 0
-207.529361077993 -20.3048564861369 25.7585664940798 0 0
-201.626953658011 -45.7058377543912 6.71419350608611 0 0
143.220160629397 -15.8475665131656 18.5475727339989 0 0
178.888135959257 -37.1575552267615 -3.2453497758905 0 0
154.0326804592 -6.55166305633097 21.0630295048104 0 0
-205.315690545631 -19.4879921787731 -12.1264445418695 0 0
12.6054955808674 -0.751409159739121 -3.95766211452839 0 0
156.52710809618 30.1178164833107 -6.38646220540193 0 0
159.628264670583 -31.0452373972833 -28.5160992134743 0 0
-212.306609410636 -9.25424188111329 0.773396651546603 0 0
-26.0301446656469 5.08198015591604 -3.88129913663237 0 0
134.521734946724 5.57070940347183 -8.45706231087965 0 0
-200.777372582504 -43.7810860777698 13.9503532157684 0 0
188.985902273602 26.915298562263 -8.54403737902413 0 0
-183.528235481461 28.2124696880826 -1.3854961265569 0 0
-157.698114154785 -14.8924815520715 -13.524107026509 0 0
-162.61143885202 -3.4023136338889 -20.5491434721711 0 0
-188.712919538112 -17.3359074812309 10.6016280609241 0 0
-163.289551802052 -19.1597806988561 -13.6806774073861 0 0
6.52824458944592 5.80467706770924 25.5871999973349 0 0
