"x" "y" "z" "f" "a"
124.046276234564 0.51646359179964 4.16016416600938 0 0
-148.819736091067 30.8062980028283 2.48540195130648 0 0
-145.735673651927 20.733571382209 -9.24135242956726 0 0
-49.5775336296413 17.8397424888174 -0.525578462954619 0 0
-95.3707977984601 17.0101635239888 -17.3786542856759 0 0
-171.91185304633 -6.84774909494064 12.3948762971467 0 0
166.323086106086 25.3962364425599 5.28582552532834 0 0
-176.456793520048 15.9587706796422 -13.7050846751463 0 0
-209.52806097699 -38.7523999554636 13.2485412216345 0 0
-169.919175928115 -22.3660269545146 1.57284356602056 0 0
117.720077445685 -17.850805246842 -15.7023316197621 0 0
206.929592089924 -20.2124487976817 30.8207039862495 0 0
-95.3835250792427 13.8041223797358 -18.494085563675 0 0
-20.5646620638082 -1.3107192562171 -24.9483137856175 0 0
-189.407292469453 -23.5678739368581 19.1852611061043 0 0
-109.649663828981 -3.59516225514833 3.30736533018972 0 0
-68.0247867326083 0.664040633073657 -18.9429766696514 0 0
200.281098557524 -41.7143758384904 33.077790363605 0 0
-92.9162374569849 -3.15417294960997 -2.82179828573849 0 0
-197.101059052563 -10.5371691482384 -16.8377617999416 0 0
184.074238848657 5.65254008788114 26.8088834297858 0 0
99.4659485917511 -12.070285880426 -22.2378908319521 0 0
177.995955776153 -4.07367978518458 15.1065319815326 0 0
-193.924172984805 -4.72560118880459 -1.42253776569589 0 0
181.892748848103 -30.6094762719397 -12.7912928834755 0 0
195.21475291224 22.0613989652274 -25.8897426984353 0 0
-191.149388694917 -3.06862211930287 -11.2045314882884 0 0
-179.336751092461 6.79906965896226 14.5782093179693 0 0
-38.94842000288 -3.56001248772988 -19.0360517848794 0 0
-163.443543365914 -5.77473360171696 14.7997519512278 0 0
-119.865133466761 15.7640578188106 16.8817775362922 0 0
207.284635636096 -23.5941352748932 33.066200817692 0 0
-41.4801468780149 -1.78074526230187 -4.01157397415426 0 0
209.874052759374 13.193733154253 -6.23205335312012 0 0
-85.8429201866726 -3.46747285303666 -7.65501444536149 0 0
193.076059816804 -8.99986683194175 15.9009868747225 0 0
-189.710709270406 -53.3678552386554 4.25848975528052 0 0
207.405238855129 -11.2967592777733 12.3747655872148 0 0
44.3239044578691 -1.69925880747046 -27.2081266100089 0 0
177.789535623028 -1.77437256674099 15.5245064536491 0 0
-167.829893686879 26.6429849716533 26.212789341731 0 0
-108.68822487118 7.13371244740088 11.3331344537693 0 0
-95.2647206497768 6.0309166071857 8.91238525791647 0 0
125.206049474884 -16.8920688461166 -18.2800719200982 0 0
205.650973960709 -15.5033486015127 24.8718424915712 0 0
-159.753882796739 35.5531791666752 1.13963550844965 0 0
154.049676278162 -7.70905913506821 -21.6792211036057 0 0
209.443166520889 -4.97915323964754 -1.05821289127655 0 0
209.449796397901 8.21502048593731 3.51541556933066 0 0
-4.67137179689697 19.6874067931196 -21.6985503288343 0 0
86.3480508074525 4.15954986202138 2.86491216108415 0 0
149.247183126011 -8.07915034752331 4.92117545401014 0 0
70.8943857395132 -1.31724204078461 1.78867273658997 0 0
192.79302175575 8.08360579157075 30.5845549827895 0 0
-186.961888630421 34.5799238806389 10.7883825701962 0 0
-182.70995496907 -49.8819592055625 6.84338547360373 0 0
127.296769114472 -17.2794726632525 -17.7983816836068 0 0
-201.21851509453 17.9800757861355 15.8297051447071 0 0
-162.630607418644 -7.53244322733158 13.7135719468159 0 0
-173.432942200647 -19.3867815720381 -11.2874325981324 0 0
46.8390990733948 11.0933750706383 -4.35905264214325 0 0
-57.8858725860541 14.9726692994765 -23.9181630127517 0 0
41.0895545574107 16.5970874451619 -22.1707252052286 0 0
193.801755780176 -46.3023386909655 8.20206533113129 0 0
148.914880863791 9.03136058043587 -23.2043713269184 0 0
178.337980987699 26.9794370886499 -11.2759474151858 0 0
-62.1564548935784 19.9911087605146 0.966424037887621 0 0
130.495020184102 -1.5207489308524 -25.0505900736529 0 0
45.2802642220475 15.313285238994 -9.04510139947486 0 0
-142.849922800524 8.77262908238683 23.2778547339077 0 0
35.240972720029 7.23520845641508 -27.7146577229868 0 0
184.577992284329 22.4666309866438 36.5825845926756 0 0
211.460327235432 -11.3975384266984 -7.75350660607836 0 0
205.483331566257 -43.2459636187739 8.16445185226603 0 0
210.227204726702 -14.0793099824012 16.1511576395889 0 0
188.327834798753 38.645129580789 15.4847981808066 0 0
-195.125130815297 -24.0494215162426 -25.54312924219 0 0
89.3078381873425 7.71451969506163 -25.833232800491 0 0
-122.01062559738 22.821628169686 -9.28427531937785 0 0
217.024656789849 -37.696098874439 17.7383761469427 0 0
-197.335910597703 -45.1781442297305 -21.2783136121885 0 0
-143.310757866583 -16.1738398485156 21.1546526821963 0 0
-167.03812358018 -17.1499907979435 6.68480592644251 0 0
-177.83946709481 -19.3332085988404 -14.3781382576596 0 0
-128.533849024457 28.5195546842455 1.05291675324343 0 0
208.155188109377 -28.3291624348249 -11.5561112988046 0 0
-91.3613940373989 -3.23429937877332 -8.61335333154317 0 0
-140.58783174855 -14.2884091448245 11.7561144097006 0 0
-30.448809416639 -0.945670187681372 -24.1325059843825 0 0
-89.9216721927991 19.3711015270451 8.21501929942202 0 0
-160.542924445094 35.0128208515936 14.6580674201539 0 0
-182.96975719547 -48.0822568427851 -15.2794308780505 0 0
-152.524453324024 18.7460416219492 25.1983318002951 0 0
-207.209934813091 -17.8860663070753 13.3243130167201 0 0
192.027397102922 6.56454982389663 26.4671485908018 0 0
-195.144434912301 12.3645413457535 12.2794445734013 0 0
53.0755079310567 -3.65640428989051 -0.619603274727041 0 0
-185.22994436949 23.9097274143795 -8.80896815279669 0 0
-210.304477486325 -12.4979939777458 -4.37538310149702 0 0
-191.805104619138 30.5062295157193 15.7765605312949 0 0
171.494913236493 -7.94398366350933 11.0797616685784 0 0
-149.066974676263 31.1294007443881 9.32560355972689 0 0
93.8874816820446 15.3373610795246 -17.2422954914402 0 0
-109.218767838445 28.0097081701152 -0.153658821141514 0 0
-170.977701931037 6.75031639272787 -14.2016941204992 0 0
211.804626942368 16.9342329943699 -3.16029391071814 0 0
-128.216520907383 -1.1864633298486 -10.130207348038 0 0
-177.466961839865 -40.0338136268869 9.09751548199378 0 0
48.5816940223227 2.690818585969 2.31086405040982 0 0
193.83859983605 -39.4447481788897 -4.45567454636924 0 0
-153.878197192782 -12.5260642212455 9.27970423300307 0 0
138.179515683853 -2.50138722995802 -24.2516034037462 0 0
-196.965575891535 -53.7601990156559 -8.67246153772344 0 0
177.293712576726 -19.4033889262061 15.0723034653923 0 0
34.2942108868198 -2.24722209191015 -27.1318334954952 0 0
95.6537149937418 12.5299597756157 -2.17517556586659 0 0
194.555324735696 -27.1973288539898 -17.1720293482734 0 0
-67.3425481894552 -2.26889270451899 -15.1547953503229 0 0
139.679945690721 -20.3950576935627 -5.79551754865346 0 0
108.678663125876 -5.96569230590373 -25.1659322601901 0 0
179.225501115167 -41.2311873119671 2.82284524243515 0 0
-175.670389317543 -34.2859819632758 0.0448156974075174 0 0
131.212063141925 -16.0883224666592 -19.0790387801678 0 0
-187.754745670678 11.8473578394772 -10.7147778355587 0 0
-86.7649475821319 3.48037206191312 6.37612369026204 0 0
-214.755329285606 -18.0872729453165 -0.258863122209647 0 0
98.028263739112 -0.0265560233648854 -26.7054517287748 0 0
168.845921651382 14.5853626128942 15.4205999552674 0 0
-21.2304369978531 -5.15684929057872 -10.3327262282321 0 0
209.898702324718 -7.71012066002025 9.09434086492379 0 0
-160.343132508203 26.2104220704531 -7.02522023786865 0 0
-58.847973786932 10.2339605237716 -24.7882031515557 0 0
201.901260105058 5.27422972186804 19.273607726118 0 0
210.084236345526 -12.599576867504 -14.2177667633917 0 0
153.349867982271 17.8964212127204 -13.8880377445657 0 0
-195.940565259738 26.1278031840517 1.60287507215508 0 0
202.186597469284 -9.54659265497528 11.5526904940965 0 0
-152.834278504596 -5.53288303928453 -9.16263956126229 0 0
11.0684569202083 6.18060967161781 -28.3199683102559 0 0
-38.6763314436922 22.2259906900365 -7.53079245041285 0 0
135.191326572496 -2.9093642140195 -24.4490087635762 0 0
199.046836257049 30.5808932730623 -2.76614684313178 0 0
198.118128829383 36.7780056805376 12.5701910363215 0 0
139.551859228482 -5.95679048387774 -23.368670383848 0 0
-172.10138032278 -21.1673137697187 -9.36993847455781 0 0
-190.376108640101 -43.0338699033072 17.4675798015693 0 0
76.640724979274 12.4679733202207 -23.2838170779013 0 0
-62.8668579853345 15.7272925805212 -23.0848769886362 0 0
17.0738047417745 18.1609270633155 -10.9453162766382 0 0
179.80729186509 15.7563428294111 32.0966488065404 0 0
-187.935461565841 23.5118685574442 -8.57590174667496 0 0
-208.905749879045 -35.5126429667081 15.2317007237831 0 0
52.6485045490594 17.406788224961 -15.1809894765355 0 0
-164.886360810984 -4.37091000148605 -10.316121585559 0 0
185.331923807565 -34.9939268309269 32.2806591481732 0 0
201.607487896331 28.5889499468475 -7.16180960555946 0 0
-180.998045899617 -20.7571981484464 -18.8251532054281 0 0
135.049041587196 17.285443924975 -6.415288611784 0 0
-185.405946875248 -2.35144075073758 12.1468075435851 0 0
-55.3411059178618 0.271794094811558 -21.1136724438726 0 0
-72.9565823510551 0.320390079250593 -17.7608757131969 0 0
100.976543211521 10.1942685359008 0.585104111818569 0 0
-89.1156200016308 -3.38295685998108 -8.12282627398545 0 0
-67.2181907002599 21.4018338057281 -17.760234969125 0 0
-175.904065542659 3.519847752595 15.8964177094946 0 0
-49.1614601505225 -1.38108944784926 -20.4698208449436 0 0
194.887491361692 17.9786280214727 -25.4538507690977 0 0
215.805638127653 -33.1900601231508 23.5982513255241 0 0
-192.696454133188 21.7656009068103 -6.96288412186787 0 0
-27.6393272374196 -4.69167675695194 -9.58363306260969 0 0
208.690034268518 6.47593866720985 2.09560722270552 0 0
183.107028213131 -36.9947366965756 28.0326125072092 0 0
83.5490090723516 -13.9852463178761 -12.3114219448942 0 0
114.199211790902 1.54650472607235 4.1424695470869 0 0
171.045004187979 -32.7304596566735 3.05785543483178 0 0
-154.283872141996 4.88482053720138 -11.2820972872169 0 0
-56.5601000306295 13.5654908719492 -24.5043240946281 0 0
53.5440435982756 -2.95009802409753 1.55779325897332 0 0
169.775684671336 16.3735016557313 16.2975715513938 0 0
-134.659472997927 -8.86831167227889 23.4463739192948 0 0
209.856647404621 -25.5980550735888 31.4568502870485 0 0
206.92116978849 -40.7879124936814 30.6675773467313 0 0
-104.015424680548 -1.71957301711761 5.26217822835725 0 0
196.265825279468 5.61791356580972 -17.8262947250047 0 0
-8.7530678587039 6.21576001837763 0.945428088826702 0 0
-154.766622725896 -13.3919051137639 6.41015366357196 0 0
74.3239360380928 -5.14400033006457 -1.7608886886725 0 0
5.89999097244882 4.21025364383894 1.10102853857078 0 0
-150.731957433878 -0.93068183471019 26.3246711660068 0 0
-137.524379825548 0.0466857060518851 -10.5041008559123 0 0
-210.728550370949 -13.5584812524375 -7.03288830605911 0 0
6.00931180836619 12.2083894018502 -4.47882651413614 0 0
6.74063937029611 -7.00481621416772 -12.8899322474319 0 0
-189.30334040149 11.1798348601008 9.02097965340881 0 0
-135.117551975321 28.8941103139547 2.21731118374171 0 0
-129.270489646793 9.1988576138562 -12.6834906160873 0 0
203.68481055509 -35.1054238523738 -5.93527286025494 0 0
-129.501896505725 28.0124459277675 -1.86403777114367 0 0
184.840440911843 25.9554703748508 36.4039077512045 0 0
-204.048193451975 -12.4581466360529 6.18790413784798 0 0
32.9003388719638 6.63521640747325 -1.51431011538262 0 0
198.486817002722 -45.3200691851202 8.55826147974631 0 0
-166.594178504112 11.3391823084495 -13.0063386379532 0 0
49.5552713042691 0.547585348268407 2.3801866246651 0 0
204.654249719481 17.4763292091261 -18.0929551974752 0 0
-209.476226021405 -12.062121958655 2.63425674853164 0 0
206.654908251553 9.44353851148993 -10.4763467063015 0 0
174.299884719046 -11.917918936782 -21.1759826578867 0 0
-192.871455850446 13.0012858603812 31.7777478098712 0 0
-200.280921986977 13.8174034081977 11.1825313956318 0 0
187.943149125956 11.9400414836662 -25.0790137526858 0 0
19.0456313828423 -6.06787177097542 -7.65580896482359 0 0
161.086439902175 0.0182870514332753 -21.9274696081618 0 0
204.264361847923 14.6611027834595 31.9061650780711 0 0
-134.862913801055 27.8153797137287 -2.87582956521918 0 0
197.218776891828 13.0387883494176 34.7386328436032 0 0
-169.999316943052 3.48421139195543 23.3582131352464 0 0
-191.016602353551 15.9748416610436 -9.69954710946196 0 0
-10.8683764048019 9.97234820885841 -27.8361078043174 0 0
191.130528503498 -45.3974825175713 15.9411059601837 0 0
195.284557387183 -14.9755181359143 -25.5242984188802 0 0
-167.279125708655 14.4766862887291 -11.2170204449284 0 0
-181.406081478975 7.80893427254907 -13.5060634159169 0 0
-68.6377653737295 24.1209628404092 -2.0935071885474 0 0
-187.218114641707 -52.3585211800709 5.64626302972513 0 0
10.1778557555852 -6.53621764955602 -21.2658318769827 0 0
-184.238319529433 23.3754235518503 28.4982629165555 0 0
210.600622699504 -8.61431694980931 -6.2961856103714 0 0
-108.598476319 9.1412818450463 12.1365312897843 0 0
-143.943829117108 25.0544377593772 17.529610949859 0 0
-200.198586945069 23.8093451404719 6.63827712055418 0 0
210.374684935699 28.2233636000669 28.37189355156 0 0
-148.860189648025 15.3295083573047 -9.63840457204826 0 0
163.287944164062 -4.32721094524567 -21.6090853185902 0 0
187.685745554127 -41.4548678206907 29.9062079583898 0 0
109.720774065362 -12.5319735649795 -22.0058624154236 0 0
-185.794277579135 21.6258755198836 -9.69179476746107 0 0
99.698719280258 14.5285466258174 -18.9415822269615 0 0
-159.021896105669 5.05615626601236 27.9637078260678 0 0
-187.941164160569 -6.21858688424853 -14.0118458959504 0 0
161.022367322465 10.9463408539602 -23.3852514240617 0 0
-185.206255287922 -36.5350785664395 -24.4729694115134 0 0
167.076110305184 -29.0585743537354 6.30955505837363 0 0
-73.1189355157684 -2.37153935164711 -3.2600706277926 0 0
-130.841692825905 4.11078858389846 -11.495865899233 0 0
119.724478992111 -3.45750789165109 2.78477174025756 0 0
-131.647669741276 -5.64664757389668 2.80468183735934 0 0
-197.087363553388 -7.05213609064331 -8.69703723566611 0 0
-38.0361520782105 23.2483257861847 -17.2400379767466 0 0
156.289676946798 -22.9199860217486 -11.117226720321 0 0
-215.687734855523 -27.7296419480062 7.68869294785154 0 0
178.201917466818 30.0534581874075 -1.76550680108647 0 0
173.767244600491 -22.2027947095785 -16.8816793772348 0 0
-182.359477450354 5.54713450713699 10.5522927602497 0 0
-150.320166893578 10.4980622376729 25.2655724307415 0 0
101.420123766427 15.973479926001 -9.85030345116602 0 0
-164.084181094922 1.69576636185745 23.3760365433603 0 0
81.892200101034 -0.382342307920302 2.09157097143907 0 0
-132.945774750551 -6.81056978937716 -3.58334558945856 0 0
-23.4935459666979 6.80438102247364 2.83960598998789 0 0
-113.225257929335 23.4408967467371 10.709020951504 0 0
-56.4476727696967 22.4935190662496 -17.7597444886694 0 0
-187.55968101665 -22.0912952470259 17.6379438626294 0 0
-7.09135349203979 -0.70545915826994 -26.7988157768761 0 0
201.308272468149 25.8086939778637 -19.5896731959047 0 0
-190.081501870632 -54.2785737393831 1.4506458017901 0 0
178.409474005087 -21.1055440352564 -19.5304781722883 0 0
177.896067478771 -9.32637990204329 -21.6677816344882 0 0
32.4000056820006 10.6160677411328 -4.06536465653337 0 0
-207.09076315023 -31.0211484671018 17.4361836576243 0 0
173.02984649044 -10.1189581067281 11.5612204066474 0 0
-70.8434465547682 7.69002449353304 6.6234834728599 0 0
69.1200862900494 16.1860023647604 -12.2816106999742 0 0
169.984839202328 -14.1430742538494 11.8060165516514 0 0
218.588050279357 -29.6480800071539 13.2011662620745 0 0
-158.673678997746 34.2625940858893 13.1665837871137 0 0
180.070713663906 33.577023291867 19.1159207471233 0 0
191.198555887419 12.7031849751774 -24.3425148435938 0 0
-141.931800334273 16.72922351052 -10.4209488597493 0 0
-214.833660378166 -35.2495009767044 -13.5163050672189 0 0
-200.48676702506 9.16886167154723 21.1936482631896 0 0
199.523390140851 36.0733305435203 11.4134590553321 0 0
185.721658380545 10.3695460447172 32.1167880524678 0 0
131.549140571433 15.7916108079978 -0.45552034595689 0 0
80.6491231639427 -2.54420863023105 -26.5520382757069 0 0
73.9915863346022 -12.8377387341399 -12.4508693942793 0 0
-118.168984134867 -0.528098233233112 11.6394593735281 0 0
-188.70048699828 -29.2858494684539 -26.1318023599229 0 0
-193.246020135012 -52.2055018338977 -13.2534182278263 0 0
-178.878423852416 -26.5638956170183 -18.1388536696174 0 0
-122.172492456376 1.76271001934568 14.8248197222338 0 0
-198.245439646804 -52.1900050244009 -2.35757120003165 0 0
73.3381450476055 16.1518167863556 -16.6072922775032 0 0
184.086225589748 6.32329103483095 28.8560529109112 0 0
186.322399393823 -39.7924739518006 -4.25441124390324 0 0
173.345979206857 -11.6296097343085 11.8995545609501 0 0
165.680429093527 14.2644391213503 -23.6809245234642 0 0
-9.1700178477601 16.3505633153089 -6.17988587635159 0 0
-178.605496075028 0.511470979317456 13.5098407387357 0 0
180.689969291113 -21.7203735714426 26.2603942693044 0 0
-115.417964680504 12.6253111430771 15.8192298184335 0 0
-96.5181384017766 -3.13924194296302 -1.89661930249545 0 0
158.627894563621 -23.6903947809842 4.24884852743419 0 0
-175.309454064518 5.71695596189702 23.9074044042146 0 0
-130.57062574347 24.8309866521985 -7.03239942792514 0 0
-197.363810785794 12.2904461582114 11.6940145220104 0 0
160.996062851856 18.0734514534194 -17.3189060731763 0 0
-119.375945117034 23.9724513286025 11.7113115548345 0 0
192.781136820196 35.0642589500231 22.693400015759 0 0
205.770568863999 13.3136000682735 -14.8005769873102 0 0
122.618196436764 -1.8892342308465 3.4487889398645 0 0
217.314802334424 -35.7853890525341 18.5951418239151 0 0
186.67750136701 24.1297088608721 -24.5188619956222 0 0
-173.154187013279 6.37226245143254 -14.0203494311844 0 0
-9.17355797526816 -1.97299237332918 -25.5318513624617 0 0
-185.589093107698 -9.28534886081039 13.1501906306617 0 0
-24.7941213043568 11.5679424048924 -27.1866560418662 0 0
114.790884702112 -10.2568825738236 -1.52061940582512 0 0
-184.759843375538 25.4220775027601 27.092341059839 0 0
88.8886907276942 14.5931511089868 -19.553239251101 0 0
-137.679452608385 -8.99391028098158 7.94896774378008 0 0
-208.062811425648 -46.1180150391105 8.36882931095717 0 0
154.041835883328 -3.238126041119 -22.4942589811989 0 0
173.877708708023 -34.5338754045217 -0.221462875057372 0 0
-127.36629475296 2.19493434023929 17.0915960386216 0 0
207.342255173374 -22.583926766194 -17.1910386039687 0 0
-111.997095902755 5.82225713775818 11.8169154927812 0 0
-20.2291621646087 4.05867198171323 -27.9032186644763 0 0
-190.155759659894 -8.12715492558257 -14.7966837089095 0 0
-182.814272817217 -52.2690631106853 -0.758249632062469 0 0
209.56282157152 -6.33169757901377 -5.2629660718387 0 0
-178.2490275462 -28.9853856187634 -17.6625096821841 0 0
179.90309310398 -14.5101252977773 16.414720324355 0 0
-195.989328891629 -8.19892287564443 -14.1441243899494 0 0
-214.643857115457 -42.9317266098311 -3.38101551884381 0 0
132.100278712052 0.69141310021243 -25.1513863738644 0 0
174.185928602492 -35.6317050499778 3.19444053159514 0 0
173.460469728499 -1.99412710952758 12.63722009671 0 0
194.181856938789 -31.4561520858021 -13.4547065886106 0 0
199.941801628268 35.9837563586426 28.6037156216198 0 0
192.773446359277 26.5941088418672 -19.6585215618066 0 0
185.049872840573 1.65744317564226 -22.1361671820129 0 0
168.711845292328 3.10622802945688 -21.9843228232445 0 0
146.269679312773 -6.87321849874672 4.71362325396201 0 0
-19.4152687010776 1.58138024892781 0.898812965873047 0 0
55.9516109001158 16.3492635400219 -11.6957433181338 0 0
11.5068161426564 15.6763242845563 -25.2156614074802 0 0
-199.069013216212 12.1670299427355 14.3495455505699 0 0
85.697184831762 -6.77383406632563 -2.48488151810716 0 0
149.210415252408 -22.5648924929486 -8.64009709605642 0 0
68.0182387514276 -6.64031826490386 -25.124450180492 0 0
-141.261582668803 4.39527253145788 -9.91705280684008 0 0
-170.798884926493 9.99548786933928 -14.7791376218872 0 0
38.6042474726359 17.6648806076454 -20.4459121031998 0 0
-157.976693737496 -10.1727484551773 12.3459090208912 0 0
213.229615844238 21.2938650254604 9.3033843633043 0 0
197.434263241961 -42.475794775965 25.892796816949 0 0
198.662664516669 34.0141243905928 27.0885491474482 0 0
167.339722901163 -22.7113328765317 10.82413497036 0 0
-148.908137227881 -5.00991115493428 25.7959012559347 0 0
196.165241412342 17.7353910336789 37.2871153561689 0 0
24.1156319686372 18.8241289018411 -20.309483039009 0 0
-10.5085990438778 0.585894589890923 0.562041474659919 0 0
-26.3472614149022 13.2764054311481 -26.6253689989345 0 0
67.2020644422764 -4.0343698317883 -0.341940402301743 0 0
-201.044561042876 -8.3770581079856 -11.6563199266829 0 0
-146.040155042561 -15.2489731135587 21.9596380127591 0 0
-213.989935396528 -42.870736799117 1.91773569022946 0 0
122.676198776527 15.4551331088279 -16.6584238599981 0 0
-178.610876677637 34.4837705103252 -0.549952209108007 0 0
156.421165683909 17.6802103149276 -15.7979683350975 0 0
-62.8450380285156 24.3720956096093 -4.74587075104936 0 0
195.979423179588 -13.7021602223651 17.3346577192397 0 0
211.163738671314 25.0613683431869 -3.78086608326972 0 0
167.021070941028 18.5081864538095 -20.3208542237414 0 0
-173.938090736834 -35.5696931479318 -5.72277954536706 0 0
-184.033587388908 -24.6835520695099 -23.4736647790164 0 0
-215.782142980392 -36.573882462771 -10.631973631247 0 0
-205.643041388121 -18.2007902006141 14.8386876982228 0 0
35.3062519438738 17.5477053022974 -21.2558039767166 0 0
215.50761054601 -36.6323446646615 3.20465379007247 0 0
174.383868765148 22.1009684202694 20.27731635546 0 0
-113.582489475999 12.5847606345228 15.5357675130945 0 0
-187.956101985866 15.3274545332488 -12.7769823856148 0 0
49.6979767194743 15.3800212077991 -9.21109303448645 0 0
155.800003310631 -20.9257033733685 5.10388572141174 0 0
-179.360445399623 -48.5085686791784 -9.67408841088221 0 0
-63.5226860240679 19.4699700959169 1.87503751076229 0 0
201.46447274232 1.20116510516612 -12.9120008291191 0 0
178.990442133372 22.5256321194258 -23.8902161962096 0 0
-121.561041885941 27.5307985728922 -3.37305700975889 0 0
68.8096482617496 15.3487469988469 -9.37812152441976 0 0
-143.539871902394 -7.54787434725902 -0.855893145489162 0 0
-5.94833979405998 21.8672338320121 -16.4542704944038 0 0
-208.7782701215 -48.5172426818053 -8.48014655732935 0 0
67.0411453556701 15.7572319257684 -10.5844182464705 0 0
-175.205993609807 36.7442642135267 -0.593380078856439 0 0
0.963248926045995 13.1182695491128 -4.76684261071548 0 0
214.697559184797 -27.5555878909261 25.2118265130592 0 0
181.787107524908 -34.036373098475 25.046621981119 0 0
196.85037550522 7.08566087350686 24.4475180555116 0 0
-196.047607800018 -40.0102481716208 -24.7592665080169 0 0
168.047591164688 -9.88943217121733 -21.0308620471582 0 0
29.6768611380638 18.7393729445311 -19.344050269036 0 0
-180.97149240519 10.6779579875757 29.2721275084553 0 0
177.648230656541 -24.9843396904073 -16.2923450699497 0 0
-174.518470594162 -42.8642793970033 -9.79520424524813 0 0
-122.370909997053 20.4950637602886 15.1332245524017 0 0
-199.555350847144 -45.7574119095604 14.4879246163234 0 0
74.261058081399 6.79105540280631 -26.5616228757265 0 0
-177.642588748271 4.61258904259619 15.1479609792173 0 0
-143.75966633846 29.9939787727768 4.7981255149707 0 0
57.8936186492942 5.68577032718653 -27.1100858245755 0 0
-51.1698197846586 3.16606444761501 2.34214279756591 0 0
1.8361463665603 21.3581856376275 -15.5068517250228 0 0
-168.537191956953 3.2474232204782 20.6840683439778 0 0
-160.716150066349 33.4619267797539 18.4536064441048 0 0
179.356079122005 -38.0023322869066 17.0517642051494 0 0
97.7088895463145 8.29304033414887 1.52147820511858 0 0
-66.1183689571511 -3.50684003482392 -12.5863778609158 0 0
-176.576188427504 9.92279227788858 -15.9339415620119 0 0
-206.259283932564 -42.3456973541372 13.7649255694029 0 0
-84.6213522665219 0.124565926297513 2.20483468914234 0 0
-100.52729253647 10.7165733434693 -17.8146595062934 0 0
-77.2610629684999 21.5160789060812 -16.3022949255266 0 0
-55.6039276344789 11.4295385780928 -25.0414262231255 0 0
-7.41769521559481 -4.04400977903894 -23.0954851327645 0 0
-157.668478483867 -14.4065286244907 0.893966435305266 0 0
-176.427102227653 33.698249128508 -2.10657478890161 0 0
191.57751529302 -21.344992592353 -21.5896453379233 0 0
182.07307542416 1.39361643241204 19.5434365814675 0 0
180.567154044088 21.4083318448225 -26.0167029853278 0 0
-203.437557719969 -10.6473590887643 2.72265680771419 0 0
-140.189242746839 -6.35592060633322 -5.77309751807047 0 0
194.478583998558 21.7269595665137 38.2298403117432 0 0
-193.742902834485 -13.7066153621625 12.7288117850953 0 0
-177.558801645873 23.1139965777169 -10.1821095558767 0 0
172.138010377047 -32.9745666043893 -1.31711491442608 0 0
-180.412181016425 -12.1066202296807 -15.4428288244252 0 0
-180.375729437047 7.52785127203765 23.6006429977205 0 0
117.904850491839 -1.68799987482395 -25.8032322338986 0 0
213.713888488257 -26.2203335723447 26.4610541686636 0 0
-161.237135310226 17.9900695711695 29.045742849567 0 0
190.632490060088 30.386791827918 -6.45350737365139 0 0
207.90967750475 -41.0726203674454 19.1923547550212 0 0
-176.121703228044 -19.9450055828012 8.32040597249045 0 0
208.735399957649 -27.0545005096805 32.8086011523307 0 0
-83.0649256479206 19.7134417993916 6.81458064765417 0 0
-190.854534269281 -14.2690612326218 -20.3586603520285 0 0
-165.56740601451 28.7889358722633 -7.37647036034138 0 0
206.986424290268 12.4943664370145 -12.323903221238 0 0
31.9462126446188 18.8955857545973 -17.8835245854045 0 0
-215.661867159516 -34.4432309652541 -12.1169307090435 0 0
197.515010807399 22.9439797594325 -24.3194258235954 0 0
-194.283571700682 -31.3351852692389 21.1595989051719 0 0
-173.932022338109 35.8298281121131 -2.34802978313754 0 0
-143.243089739427 -8.15171349172408 3.09749371569379 0 0
-32.0126482919369 4.13406002216643 3.42385789615087 0 0
218.624401212047 -29.4746562414935 5.43781544600776 0 0
87.4168939199755 11.8406191267419 -23.2695342082945 0 0
156.111113731546 -24.6004466442507 -4.04643399434771 0 0
154.446625478073 -22.8538845210089 1.12032391728929 0 0
137.411066327229 11.3986673336768 6.37534543506491 0 0
159.368115563792 14.1908128986198 -21.8519739205525 0 0
-32.0520635377341 -4.91420771615656 -11.5146087890435 0 0
-30.7686327124637 -1.50710072912662 -3.65674378765349 0 0
26.995774057531 -4.28878703693976 -3.74827867770033 0 0
-112.406454445676 3.71832166048419 11.4049473389528 0 0
180.902964138323 -41.2218607265843 0.950612622461264 0 0
194.313998734397 8.22070365527069 -20.6640701297499 0 0
151.170448062538 -3.09893676157379 6.04226332365724 0 0
-165.085036875675 34.930177533921 18.8673069117626 0 0
184.004962384918 1.63380310229126 20.5663502387071 0 0
-159.17959109661 5.83218446217143 -11.6816311580496 0 0
182.595054814042 -41.333748169589 19.9132149767908 0 0
37.7753275058613 -9.08290291877025 -21.2406501543148 0 0
80.5362033284809 2.92553312072542 2.88536029751447 0 0
-182.964410720834 -36.0734642261951 -23.2539980496897 0 0
146.770880674483 -18.8266413707986 -15.9791373726833 0 0
190.553640212325 -25.4390739946171 -19.0224120799469 0 0
207.857261801227 9.64314578667549 20.547512219442 0 0
71.0097479960666 -7.03461346782948 -4.12732117719396 0 0
193.21683349285 -20.9572675076942 34.707124795293 0 0
-173.810483940882 -16.5701184091231 8.96032450384294 0 0
67.81627762344 -12.4868988258928 -13.906251840884 0 0
-98.8171454786422 13.0872475894286 -18.0190554169693 0 0
209.628055112998 31.833989276504 28.5381345522442 0 0
-67.0603878614219 19.5661639028931 -19.7986708185029 0 0
17.6919427010451 13.9042479781586 -26.1243600322993 0 0
-170.072555012418 23.6053686202278 -8.74900128111861 0 0
30.3302481608282 -0.572987618782292 -27.6904614303596 0 0
185.243773820457 -46.2864844854606 15.1236098407375 0 0
203.562301558786 -5.61856488948202 9.00323837132873 0 0
143.057588375491 12.6183729893115 -21.3295094378131 0 0
167.799716654593 14.0049389340899 -24.7562844545224 0 0
-196.533931674349 -17.7103030199776 16.1702216351711 0 0
208.945974307091 -13.7195485193609 17.1522767101645 0 0
30.5117524901025 -6.65204916419873 -7.39833592051396 0 0
182.552731972872 -39.7278396605034 -2.34033326689927 0 0
167.091921259271 5.46471744954229 -22.8346874042082 0 0
-66.4192329870473 9.2667848573203 6.92275544346485 0 0
139.243181791543 17.7912702296345 -6.59933409967573 0 0
186.630058301611 27.9761348006127 -13.4914091899537 0 0
-137.919442935609 -10.6908677735716 10.0681991286915 0 0
181.248465575705 -24.6154587925056 27.3019527167585 0 0
100.838772734396 7.69381591953432 2.41995714737649 0 0
206.116330550527 -27.9124837532375 -12.6448579013025 0 0
-162.496637811817 5.59121193413421 -12.1639815560512 0 0
-179.94358841448 -21.0105117567528 -17.1732107657611 0 0
-73.1252364816773 25.8887512139972 -5.78468302876813 0 0
-160.413814703139 9.30443784226646 -11.8617458439909 0 0
-192.453464036939 24.5014284079252 25.9706289597685 0 0
-23.9679010051222 22.2221870043299 -17.9759936012109 0 0
-193.012893285075 -30.2091204950498 -26.7199425179178 0 0
-118.083490904132 16.1930894052708 -13.7960220355735 0 0
-192.502637891676 -15.8740010745687 -21.7842219605544 0 0
181.672085961227 30.7467512598589 27.6030109150135 0 0
175.749448810819 -19.968258604732 14.236563789416 0 0
-32.4809159724237 2.45510409034404 1.40821250143636 0 0
-194.852069489349 25.0922351453106 -1.07746704080084 0 0
159.080697204544 -4.82412924032917 -21.8627202721249 0 0
-144.468620328311 -0.284096574414246 25.5351550813107 0 0
-157.072549084714 16.6538443073625 27.9489929870293 0 0
179.11096601958 7.20844083877563 -24.0793990809799 0 0
-182.459727709452 11.5484514900447 -14.6506359631985 0 0
-169.162026516979 6.66409074698675 -14.0182849335205 0 0
-188.624036267138 -47.8023371979947 -18.7135450672919 0 0
11.9828346437091 -3.14092944629145 -3.23974972550034 0 0
-10.8874474850845 20.7533473192566 -20.1998261608976 0 0
18.5883282489042 -7.62118536390747 -19.7585587921413 0 0
208.096439357322 -18.6224644464372 27.7523994388581 0 0
71.6205932609888 7.54165443279354 -0.534251415798015 0 0
208.598430575825 -35.1389539505995 -2.78139781805328 0 0
212.6726893405 -14.9833170351674 13.5649315804429 0 0
-165.318460529295 4.20762388057787 26.6069529552332 0 0
208.140639396554 -41.0711261320076 13.0795497205323 0 0
-139.115835434298 -6.10807470288029 25.5534372524098 0 0
-185.063313358396 -29.705305446973 -24.7482539691359 0 0
139.455274262813 -14.0443965531025 1.48554100451676 0 0
200.074275405374 1.36106560408598 10.7469528142495 0 0
175.282637027091 29.2802350441922 1.29543487761721 0 0
-211.098640490246 -47.1848979480882 -5.49889624157685 0 0
-192.511824046908 -8.73815081172947 -14.8990892631858 0 0
-172.332886386434 -17.7833872282663 7.94907489516215 0 0
177.21924873132 -33.8089062495915 15.7379721496078 0 0
-188.789125130642 -51.4622873784687 8.04114015501995 0 0
-137.702115494981 -2.74937143849933 -9.95013003595268 0 0
154.533127431675 16.9752782842164 -16.8778874075216 0 0
-150.560962904575 31.0340505682022 11.7799165039161 0 0
-17.9192492880452 5.71178256354982 2.52744799656808 0 0
-200.83416325971 23.8558454750074 11.8695396851335 0 0
-133.797300447761 -6.25606405879672 3.96410018608895 0 0
197.338896230261 7.44851123550889 27.1740622592752 0 0
203.634221301621 10.7765497176037 29.4351250681988 0 0
-179.481425533523 9.36851702585169 21.925160935234 0 0
189.141879394253 29.6635859931424 35.5781851359485 0 0
195.215991135266 30.5946352913885 37.0954013160426 0 0
197.654453015668 -41.2941702615684 -0.321274764737567 0 0
-176.061117510798 -24.9677424523527 -12.8742186670391 0 0
181.625529356284 15.0155814496547 -27.5793671637109 0 0
-177.074662077253 6.3784925881556 24.2940178529096 0 0
197.984251535009 -43.7766845705833 20.8772831223408 0 0
-198.545617292171 7.52996009439064 25.9788535226776 0 0
-62.3785112167422 9.25666827451926 6.89769048098078 0 0
191.078125917176 -41.5879108976126 26.7909780890031 0 0
150.507182166975 -1.3775202555387 6.30427125150504 0 0
210.060981741062 -18.4535845259175 -18.2203727670312 0 0
-149.398927016306 4.9357492680924 -10.7270787392201 0 0
-174.830017698373 -5.84565167644789 12.4434890925347 0 0
-194.031695610916 6.555484456299 21.9701925514466 0 0
135.246475776195 -10.1986386896197 -22.1050315410463 0 0
-163.89713081984 25.1615082324027 26.4637629981024 0 0
144.139849541572 13.2434396222951 7.07702926557201 0 0
-178.513035931637 -48.415540322237 -7.70937488306468 0 0
-14.7233109753489 1.01873026751114 -27.2717658611414 0 0
-111.178842827152 26.404105911607 -6.47908424642596 0 0
-158.272180220071 34.9548845769638 10.2361951284662 0 0
-117.361616975598 23.4223913934802 -9.2018466462734 0 0
145.48042593245 -18.8597346667525 -0.268293366737492 0 0
-152.396458697628 -2.43803218576637 25.7173899320325 0 0
216.749605187186 -29.7340330358243 21.2101442319261 0 0
-169.132079273942 32.2273520279764 21.8616465343381 0 0
-135.598474097882 -3.02074029104169 23.5325884980355 0 0
-134.209968194528 -1.78105958610958 -10.1272835313532 0 0
177.718907576573 35.7082342092411 12.160588077386 0 0
-195.628485564054 -53.3445166427586 0.287522075315727 0 0
192.889855785152 -44.9914866221526 17.3519085571508 0 0
-182.597422459591 -51.7318072626912 -6.94212298930914 0 0
144.438478798639 -17.052640136792 -17.8644330045727 0 0
160.515960355782 -17.9578111879182 8.19841936207931 0 0
177.152942090308 6.86540517919826 -23.8375269286635 0 0
92.7902826881272 7.52545934603113 -25.85197165008 0 0
121.243887730595 1.24223041695421 4.16934054492807 0 0
-40.5145252027636 1.55385994546114 -24.9087033718821 0 0
-139.505453035921 29.3345364333891 3.11511144055683 0 0
192.619706843664 24.2575224642207 -25.648397259139 0 0
-124.091980537049 18.774192376907 16.2734533957247 0 0
175.071554463425 -31.9312757536166 12.6791673772449 0 0
196.974490316635 -35.1476558162907 36.5381999726242 0 0
-62.8836396611217 25.4043449928683 -10.3800623184426 0 0
-39.8793892056052 22.5152613381056 -18.4788111933882 0 0
-181.982723499303 24.2976680810262 -9.12780842341073 0 0
190.356529313308 -0.96271516718237 18.7268771193876 0 0
-40.1842798778419 -2.95481020497459 -5.9264520933138 0 0
-171.786735399776 32.6571041366086 21.6437504411285 0 0
193.5158020644 -42.0664111436204 33.0275007885477 0 0
-190.969929095165 14.3443461918068 -8.07179029107174 0 0
201.586657903095 10.842100307676 31.1686847527359 0 0
-213.845116160242 -43.9758935856797 -4.90291295337677 0 0
214.034212718192 -20.3687314573018 -8.44493543646225 0 0
-162.379434212139 -16.7904687602159 -2.95679300509754 0 0
204.374772268608 4.95188079569184 13.7149923568789 0 0
156.881726370619 15.6583613354109 -19.7108798766637 0 0
-34.5215551340941 2.18108456652311 -26.0581526119877 0 0
193.459252369288 35.8054738713259 6.26405357038151 0 0
192.208419224809 2.21287213342573 -18.8856822029361 0 0
-93.8320791735687 14.9142689900665 11.1428691288637 0 0
130.372438725754 1.38015297486516 4.8695918301933 0 0
153.649816223327 -12.1325767614862 5.3407345617207 0 0
-183.431387420135 35.2443215120097 15.7730081949706 0 0
119.948871923603 -18.3124633895531 -14.8137314183831 0 0
-161.300332892374 7.11078578903977 -12.299954328971 0 0
176.84099667824 -17.7340139159481 14.1544562985144 0 0
23.2321067834593 -8.10648045229085 -13.1933758480482 0 0
-180.961496099538 23.0106994810808 -9.7435601200975 0 0
-188.895960632786 -53.5550820702878 -9.43674427280666 0 0
-217.499879794401 -34.4683178705928 -4.83011951894969 0 0
39.3587014871421 18.3197638658162 -17.790412669882 0 0
-54.1007817310019 13.1083444070357 -24.8501852471164 0 0
-175.933970760856 13.8897482442784 30.542086177639 0 0
184.518183469017 20.9078896592132 -28.1868771048123 0 0
5.21481309248204 1.150313754173 2.75671845378123 0 0
121.041899881938 16.0470333169952 -14.7945084579441 0 0
-58.6131396261195 20.565597558273 -19.7718162907002 0 0
-191.715752475738 -6.58330543939632 5.66763083261778 0 0
-191.458852013755 23.3815758510037 -6.0816095637579 0 0
-138.947197250303 29.0339523041222 0.766640277823148 0 0
96.6878195926723 15.3578389107121 -17.019022418686 0 0
179.033526378166 5.05822399403566 -22.1902391434313 0 0
-212.039144559075 -14.4104114200384 -0.154997988023313 0 0
-170.530445571702 34.3252756458815 -5.8891275563747 0 0
-181.945193135836 -33.4288753619545 12.2637922272668 0 0
-41.9351859897087 -0.550170803917608 -22.7782282659875 0 0
-154.076629496042 -8.30521989365676 -7.64649025624505 0 0
178.614259987694 -10.7288796039901 15.2471310606075 0 0
109.329889933378 -1.30281558390428 -26.2595307654402 0 0
2.31979646669607 2.756836323094 2.70557066534901 0 0
-116.539663515604 7.20252208202892 13.2793711136012 0 0
192.423512706294 8.56226419370975 -21.6252298645956 0 0
199.471977108361 10.0565849721864 31.504864269472 0 0
-82.4075166463221 26.3432656594102 -6.80833771403312 0 0
181.894270038289 33.9887285200788 19.317959153156 0 0
-90.0311938612571 2.60938500073491 -17.1749126756054 0 0
29.9753526701181 1.49095573354209 2.63653380719001 0 0
-175.785309838317 -43.4535448309692 5.01942280193036 0 0
-131.942142386935 27.6112929026637 -3.14595017045156 0 0
-103.551986102141 21.1098542511486 -12.9414358525389 0 0
-122.230972683955 14.3283644329236 17.2639318559586 0 0
-198.329042447186 -7.44407298618239 -11.3385204818287 0 0
66.8835624303237 -9.80248061380275 -7.78810659581306 0 0
-146.098143526661 -9.28105990543465 3.12849296509947 0 0
165.728423320205 -14.6619386222243 9.79513565893393 0 0
121.052371156363 -1.023901301912 -25.7088280964764 0 0
-176.570273897335 -3.18651106269581 -12.2214306406719 0 0
-212.826551673075 -37.7699710103226 10.1239435690818 0 0
55.6478108117088 4.77641967271934 0.586879365225483 0 0
172.082263523506 -12.8786045163537 -20.8064275539816 0 0
172.276824470084 -10.1135475229835 -21.1604344219919 0 0
74.3616689493004 10.060228210946 -25.237370937279 0 0
-189.76968367633 23.2408420394031 -7.96284207797343 0 0
213.494873797906 28.4250527208074 18.3930948320306 0 0
165.387477271942 -12.291412776201 9.48602591022108 0 0
181.481813983765 -38.6482657261128 19.7567641098797 0 0
-110.074809527061 27.9125823408732 -2.21157631959693 0 0
111.739190894783 11.7199156973872 0.95501500333734 0 0
-199.445145483604 20.5190717824865 3.84979252186064 0 0
157.214162433424 -10.7364755896512 6.25017107532968 0 0
176.80594247951 34.6212352082866 17.3696172096246 0 0
-40.3440110660514 3.71759291186931 2.95811624666514 0 0
204.206550771745 19.4883973219425 -18.9398197273178 0 0
66.6944229755879 1.7515955454214 2.36886414777259 0 0
-79.1884987358879 26.316558261634 -4.98140264485987 0 0
196.150409469517 -22.2726685378128 -20.526060619825 0 0
86.7974305884046 -10.494242366887 -23.0228160666184 0 0
-140.145675737858 -5.50224591957551 -7.88299134761189 0 0
-158.098318980598 -1.64270216654954 23.3077954028908 0 0
-109.718005894884 14.8930163027401 -15.6307304711569 0 0
-29.5345679457428 5.65644010771349 -27.5729649434015 0 0
187.120707235278 -42.505113189929 23.1346083295316 0 0
-188.24339048651 -52.5747281327028 -11.5492526029488 0 0
-175.026522980663 -25.6443580672246 -11.1194807306572 0 0
-195.107190266917 16.523286654614 -6.30090655667388 0 0
-46.5130117634586 2.78987600540659 2.00931991903595 0 0
-198.048487639995 -14.6073527018079 11.7198754312478 0 0
183.835975654893 36.5109766397547 9.33289013818257 0 0
205.974550051715 1.64848811496396 -7.63410196283386 0 0
-177.679723677979 7.39027770683844 22.2347862143295 0 0
-196.991533741447 22.1879999077179 21.537362325116 0 0
123.118696801459 -12.9795621880416 -21.3529339680015 0 0
134.161431941257 -9.36689814953516 2.37184903621622 0 0
163.141993751408 -14.6446095120114 8.87717911510732 0 0
-65.8035485487 6.29744751114609 5.76890940435848 0 0
-173.075900208593 -1.98321178359694 -11.3220579581414 0 0
-158.380084740208 31.9371650119807 -3.27753401660896 0 0
-211.01430419221 -22.8720012454559 -18.2312180347966 0 0
122.986966457046 -16.5546658728825 -5.5327356026576 0 0
-199.258439619062 -11.5052019083239 -17.3278683988767 0 0
-152.322322432027 -12.1154603811318 10.9602873340949 0 0
-165.457988455875 7.55672288550696 -13.3139856351291 0 0
8.10288679403575 14.4474740349316 -6.25032521482199 0 0
-111.375664226092 11.3734057369394 13.9624267472075 0 0
-99.604938958865 10.5924859398211 11.3696508761685 0 0
187.526295963389 -4.40077706719851 18.0199696473065 0 0
206.308957210521 10.8182428010853 -12.1053470047379 0 0
-212.029508493887 -33.1707942499178 12.8845565798333 0 0
-192.755444519765 -54.6774907102442 -0.588265283212079 0 0
176.914808344797 25.0171008728122 25.5940911132633 0 0
176.491295763547 24.5153845794087 24.0177176732642 0 0
-180.101953946379 36.8945312727164 12.6170353169094 0 0
102.10767993729 15.445404395535 -6.85591719115995 0 0
-145.080154315894 29.4987078620096 10.5600296353381 0 0
-107.637921953548 26.9005746321224 -5.78977672689823 0 0
-160.7049839661 19.237758353762 -8.78207543402316 0 0
-26.9025874679705 23.4743444911919 -14.5699204844379 0 0
54.2206295526043 -10.5528200672688 -20.8293274781075 0 0
78.1977360402558 15.2389756263264 -8.75662575328373 0 0
197.239432739931 2.43333052570505 15.6297809900096 0 0
190.070181066069 27.3335322385692 -17.6220860344884 0 0
208.867721213503 -12.9863468919483 15.1856961141298 0 0
212.943558095263 -22.7624486077932 25.530763102288 0 0
-23.6400280236106 -4.97861692209259 -18.6724333974343 0 0
55.5226884174472 -3.51365162713 0.142491873828029 0 0
110.857455095018 16.2113696862236 -11.1493877554426 0 0
50.1814610952849 -10.8972399296242 -16.5794265246969 0 0
-192.663624618434 -38.9894118874498 19.7493043669582 0 0
171.381093980116 -10.4492181025503 10.9957501887566 0 0
64.4222061806203 -10.6141136702665 -9.65587354742284 0 0
-146.02229627276 18.5770793568536 -9.76531132736479 0 0
-7.21294906113542 -5.97160752771587 -11.3761692474259 0 0
-173.198612878656 14.1288790450928 30.7228956137196 0 0
-95.381550264096 10.1262820089109 11.0022678964512 0 0
131.403725771078 17.0060667279664 -6.96651728102322 0 0
-184.827350428259 -23.2602673645594 15.2276038329199 0 0
172.252902378535 -25.9317608233359 12.2177931852125 0 0
52.8317534576282 -8.97783594403023 -23.0640701882208 0 0
217.963347539369 -24.3571527902229 1.98737222313166 0 0
166.101242449603 -21.0535472615969 -15.5530378562905 0 0
-194.178136232312 15.0963237713223 30.5226252829114 0 0
201.672869968666 6.50588222120188 26.3400461873892 0 0
-53.9799166902081 19.8191286518998 -20.8616055677275 0 0
178.236986352187 35.0324774804683 10.0656388261886 0 0
182.961495923614 -27.7835130758291 -15.9092493278557 0 0
195.839364648835 -39.7617106848727 -3.33544131857915 0 0
-193.001814050044 29.1307717108588 4.49440343475525 0 0
162.256771907946 -4.23805208374244 8.05200877228002 0 0
-193.037705419262 -52.526145330357 6.9490884677143 0 0
-204.687692686888 -18.4810287014041 -20.5958509473068 0 0
218.033544923269 -26.7868260382663 1.956184887337 0 0
-189.606048314841 -0.114309184926162 4.24480410902026 0 0
42.5914361494813 -0.334942754501235 2.49150355829079 0 0
-110.455972888102 1.98809633004461 10.0791802786099 0 0
-112.946369692656 7.3597690608675 12.4919458080204 0 0
182.976244978391 -3.09046942668516 18.2559907155279 0 0
176.128978133629 28.7772885895101 -1.67934296581244 0 0
166.516459505249 23.4056262134776 -4.11189941733062 0 0
178.567498700161 -18.7233878555898 16.0169119329931 0 0
102.554419305704 8.64009694000054 -24.8993047616036 0 0
-153.642181083005 4.98432767582167 26.8565082013676 0 0
215.733794707004 -24.8653806030024 -6.1023258882531 0 0
27.1630058403041 -1.55452941892958 2.12771834374178 0 0
213.652064699777 23.2882196251205 14.5286186453298 0 4
-185.171676605677 -36.1633836409681 18.7861636084559 0 0
-187.08046540125 -4.02345841861577 11.5341439177823 0 0
-193.607137641957 -3.62844789499416 -2.86231699081859 0 0
-192.295165960445 7.34692271159417 28.3587149571228 0 0
190.481845713094 2.1379276228744 -20.0801240992451 0 0
-55.8261018998451 12.7672955084009 4.82189709200914 0 0
182.572080837431 26.1599580912516 -18.0429455431646 0 0
208.576440602634 21.1361612709741 -12.1621711895974 0 0
192.376425035604 -17.5411189181811 23.012565407433 0 0
-186.166575496164 30.6503390196479 22.4683613695308 0 0
-186.947555898177 -27.611337538376 -25.2950549682887 0 0
158.182970974755 21.2605770468802 2.6695912594344 0 0
133.80616503715 16.6088716093466 -2.49575339610848 0 0
192.27493635828 -16.0536810798844 20.951919220354 0 0
207.175454000214 5.10814767633009 -5.76503740615292 0 0
213.131319134666 -13.1217605089201 -4.87913447075741 0 0
-64.1490911349491 7.98192098658055 5.97777835436385 0 0
202.883077041917 23.5362295271971 -19.3234543372401 0 0
52.4969634873207 13.6839919873014 -6.62037676293002 0 0
214.991454672801 -35.2358225903457 24.4139258248098 0 0
214.442305103194 -15.0401075109528 -3.34409956153513 0 0
-183.63026536632 -21.6257537836403 13.5357632612146 0 0
176.716560914665 27.2160739139501 23.8017969881381 0 0
208.944624010543 8.52338584724838 12.0949520836166 0 0
72.2937196898568 -11.3416827315896 -9.4652456095387 0 0
212.644412993681 19.3580209939363 2.02926854834142 0 0
127.930326263166 2.55693179055239 4.97308939258429 0 0
-90.936607665193 13.2374596985412 10.8621919466518 0 0
-184.891315207004 13.7929544917643 31.0130942506245 0 0
-59.6531536690467 21.9210602006513 -1.98980119882361 0 0
-18.540543486221 0.0653837166478049 -1.38908826579122 0 0
192.128539576774 -13.8563547768043 18.8380225440373 0 0
185.968447999988 10.2175001754042 -24.9274641817241 0 0
-172.975833182796 -4.00328832776891 -11.1336946699713 0 0
179.654453984032 -19.4503531288497 17.7533469451021 0 0
199.15659081213 31.3763523157305 -0.631415212218399 0 0
198.017901067996 36.3797321003658 14.5348124346928 0 0
-125.3076939375 0.98358797582427 -11.4489418006906 0 0
25.727653182041 -2.20390695597436 0.967473514765989 0 0
199.067642422423 -15.9689054236266 20.5057945661874 0 0
-61.7287644098411 7.25621335808392 5.58474652072859 0 0
-12.4690162461069 19.1434280326174 -22.4909102400784 0 0
-197.39669100411 16.3384275259101 26.3168675001467 0 0
68.8854877509588 -3.26535777420762 -26.5074135460584 0 0
63.573568360998 11.3049463279676 -3.91133570398537 0 0
-159.97263711998 31.1864799201494 21.0982264895947 0 0
-173.997636507493 39.1477980272432 11.8066188925452 0 0
190.995183154794 -18.9548982076623 31.7630019316465 0 0
32.173067216089 2.42277756465537 -28.0709777859145 0 0
166.699759102387 8.20818146856968 12.4194951005397 0 0
166.854602945065 -13.2325998478414 10.3823005500303 0 0
-2.65096994400739 -5.85990783192295 -20.1266619043987 0 0
73.3428200421019 12.3793678627845 -23.6128436516149 0 0
-178.555366528109 9.14911082211657 17.2624063549247 0 0
-24.2096412926106 -1.92509786835047 -23.9320983478565 0 0
152.444942139288 14.434428983401 -20.311464906993 0 0
-205.731574684718 -34.6393295767229 -23.2300785621246 0 0
-198.391724307979 8.71619540397901 18.3400329169142 0 0
-187.866321360699 26.4120581375935 -4.80423996823285 0 0
148.379921025692 16.3193162737059 -17.2173711382016 0 0
-192.89523505843 18.6022856339086 29.8445382530935 0 0
204.652110497231 -40.0098857753945 1.79975299415193 0 0
197.096946408182 -44.3092758181942 16.2721106622261 0 0
-18.0381921458155 19.3894967980985 -22.1709957955853 0 0
-118.88472354637 11.331921143263 14.9979049320882 0 0
159.340770771732 6.69896907916513 -23.1949835521086 0 0
-91.3261800292857 2.8749545160274 6.62426577963577 0 0
