"x" "y" "z" "f" "a"
72.9998055903913 -10.1647649777487 -17.7247372126488 0 0
170.944382351461 27.569091742654 -6.56876420841768 0 0
161.369573148009 -31.5101661061401 0.808389731244515 0 0
-166.424240649568 13.9470535540245 -9.79568166482126 0 0
164.772653724821 -4.69656947613642 -19.401115876254 0 0
-185.000089482219 25.0203742198166 13.3478336195059 0 0
-153.799458480027 -13.7752552824008 -0.538240657201704 0 0
-171.65643758063 29.4746327215934 12.401325094363 0 0
104.894734174121 13.388488352166 -3.20733764453223 0 0
-66.6436681188024 11.5831845756873 -15.0949352815528 0 0
157.193693679161 4.69965992728356 -23.1675556118703 0 0
172.677551014037 -17.2891749606232 37.7507616111309 0 0
-66.1966238806031 14.9203553349619 3.3950359466853 0 0
-187.021457504933 -36.6140368501719 1.68148141828708 0 0
-103.414722199964 14.8433423131548 -9.00784824090225 0 0
156.74386418639 0.837398058990677 -20.4154555193015 0 0
-147.784015543498 -10.3384393368663 20.5220138694522 0 0
-85.7053123224142 -0.99665556048175 4.95412974055177 0 0
112.725156861192 1.52807142486504 2.95429582895003 0 0
173.342534421085 -2.87214122951861 -15.7215800585711 0 0
153.500136432211 23.1087000484608 21.378483850199 0 0
173.408193112012 28.924911341372 -3.38714023105022 0 0
-43.6923075525544 -1.04195478585997 -18.8469653694908 0 0
-124.22777509822 17.4609744576548 14.8862401242058 0 0
156.541587718531 -33.8008966243847 16.0828478103946 0 0
-171.578154496751 -18.4980443345134 8.58004338884545 0 0
143.950724752847 -24.239952687805 2.47200220162421 0 0
56.289685780556 8.67328995141814 -1.34193784557929 0 0
173.206679786045 -20.6993871798398 -13.3884704034825 0 0
153.036567790497 -30.3972306043268 14.5940563521498 0 0
153.103930109745 8.92375067474648 -23.0675264259019 0 0
-149.85745352865 -6.2562430335353 23.5163173464248 0 0
-173.545311286582 -25.0051420145375 10.2631642694778 0 0
9.74436246655956 11.6154645955516 -5.10808557589505 0 0
-171.787706783513 -1.95267076301512 11.8815152975303 0 0
14.6201601595247 -10.1708007710845 -16.9655778453116 0 0
-172.380306966978 -0.108873270228333 11.5715567495213 0 0
161.713531476209 11.9873967663625 18.3506563103536 0 0
-137.317759236943 3.03201029832573 -6.36417352212363 0 0
182.941855636075 27.0493374880685 14.4878824199328 0 0
-152.870876019733 15.5541352550174 -6.21463972240742 0 0
-167.712748809597 -21.1799563345232 5.20227140971928 0 0
181.050179911143 16.8649299401167 13.3706266220678 0 0
181.234665499237 -12.6276458769708 -10.6931493504409 0 0
-166.342461479556 24.8733387859876 -6.25545233085426 0 0
-168.867702175034 -13.1376473166919 9.69406327940005 0 0
146.657016689588 12.9154863973571 8.71885880916922 0 0
105.56152031547 -17.2012600331361 -7.71991164744184 0 0
-63.0701903966705 0.0656187655991805 -16.7272056210826 0 0
130.607083073542 -20.2601606949365 1.72195085043978 0 0
-92.6598556595867 5.74162994166053 8.41726737455668 0 0
-172.175960462818 5.11475617760556 11.9351258820663 0 0
135.214046994225 -21.6114095786339 1.48320362594392 0 0
-89.3686384241203 15.0137227350228 -10.4833455250928 0 0
148.472909136263 6.99295938320188 -20.8608587309442 0 0
-104.802414465467 6.0362087839159 10.3216677039294 0 0
-181.117900874614 -14.4124730840084 13.1479153482462 0 0
-174.879322834416 7.96332856472483 7.45109197683742 0 0
-158.97720467097 7.18658353407958 -8.58785088584296 0 0
-142.075926450426 18.338244837404 17.636575685776 0 0
183.162144979772 16.4138450533453 7.25586673021791 0 0
107.133335346944 4.34931172594208 2.38301915341488 0 0
145.273296578234 0.888611288596694 7.05546380920577 0 0
182.281915273155 28.1437666095055 -1.16758295555574 0 0
158.957328304235 -20.5760102386368 32.9519241327332 0 0
185.254436451701 -11.6502444263066 -1.20521733800746 0 0
182.378605474115 7.85058411388403 -8.78068132057181 0 0
171.98704975 -32.7409683644621 11.0823024325683 0 0
30.0035719081324 3.65828956091887 1.5769373188148 0 0
72.6824659165859 -10.4926310315038 -2.06679799094982 0 0
165.640082355431 -6.20546587148183 -18.599937897859 0 0
-117.671155681422 0.471034766433181 11.4008687824092 0 0
-172.515279234932 10.7402403241191 18.2513179890993 0 0
-90.034179912835 -7.25707442233416 -3.11534421281218 0 0
173.012462836085 -7.4544510888208 15.3019839074097 0 0
151.561138655435 -12.169691931958 15.054568721605 0 0
-93.4198518398549 0.309878992384795 -11.7470981478266 0 0
161.974996609348 -16.9907971939271 -14.2262366596472 0 0
174.238331369955 -0.228364952925219 8.24078659760332 0 0
61.4363560755772 7.75725027308133 -18.335185510634 0 0
-125.505613896931 21.4434201769307 1.39723789712563 0 0
-177.925098017257 -34.5522452906415 -16.7894630278326 0 0
-55.7525659989231 -1.81678413478041 -17.0736112417178 0 0
-151.667312584022 25.658513724248 -1.09072113930093 0 0
-99.0704022263869 21.2405586678538 -2.14518621067263 0 0
179.976555928583 1.40049145691134 4.84353893442397 0 0
45.9734372735848 -4.62357350399442 -21.2621368637495 0 0
171.534738498842 -11.0603576097698 -16.70249894101 0 0
-165.812197305561 -16.8219231019704 6.74467870346647 0 0
-161.560386988145 16.362786093985 24.8062723694262 0 0
-134.074121302673 5.9723100954432 -6.68362104191987 0 0
-195.79708433415 -40.3029407106573 -2.04416268703188 0 0
156.733867644477 -17.1264590373287 30.4066160899569 0 0
47.4497522474322 -12.0436826175256 -15.6927707515754 0 0
-151.826365444006 0.423611086544019 -7.20120224500881 0 0
-18.7014709827799 11.5022539831955 -1.66643342453654 0 0
177.97904923894 -27.9894202881159 26.0961994434584 0 0
-165.604396014267 -11.7489132290155 -8.34742795119721 0 0
-71.4303771519201 -4.03332411989279 1.27775100788965 0 0
185.473249907471 -27.4997691061182 8.03982809653309 0 0
185.749788278208 -13.5475393706626 -1.58119082295084 0 0
157.948654782101 -0.388410224346939 13.5739555754089 0 0
-74.9105648769404 -0.248749091123882 -14.7275172889521 0 0
-93.7563376060792 -7.03320815257911 -2.01385695919569 0 0
160.43018654568 17.7772218054802 25.018262316731 0 0
79.2241593615341 -12.3477588197156 -15.3422026457861 0 0
-189.942941711118 11.9425509106789 17.8147493341736 0 0
183.754691308366 -11.1257232009407 -5.30667610612442 0 0
173.591991772241 -5.26696328413435 26.8213659755714 0 0
177.788511749315 -7.35529320502479 13.6396566991507 0 0
-140.917115626004 16.7539570536419 18.0129097510296 0 0
59.4136669466884 -7.36392349670699 -1.19031994893238 0 0
159.914685466386 -2.69037892574828 14.7572714486294 0 0
172.38591136602 -30.9900043579603 4.817840520362 0 0
-118.713395036343 0.683833137588431 -8.22838701596797 0 0
183.15945468834 30.7606305519885 4.50976562575779 0 0
-135.587712005437 23.2588700968075 6.08765268569964 0 0
153.244912514775 12.587018784063 13.3204549995966 0 0
-177.871382818429 20.1413953026258 22.2775347343287 0 0
11.583716053861 5.46972401423491 -21.5831109313732 0 0
178.979147650305 8.94318344254217 -19.1271654879388 0 0
-135.452728837735 -8.39702781164985 -2.76135531537981 0 0
-152.157465022633 -8.29466023560491 15.017049271345 0 0
165.576910201753 -14.7424086013941 -17.0534263720767 0 0
-44.2512272989259 16.2021288343358 -4.38678624236178 0 0
136.301951502191 6.72173775332866 -19.2560135243079 0 0
-139.94295822949 -6.12084735037312 24.4370553807711 0 0
-147.669623524665 18.8183860081786 -5.25319672526268 0 0
169.028307165285 3.48526833107912 10.2083735799661 0 0
-171.274819686872 26.9987332188972 16.8847785253568 0 0
170.602641754665 -5.74115047427634 12.5663454881677 0 0
-163.756303172803 5.60674860568991 18.7604579786427 0 0
-161.946298647831 -6.07396560786534 -7.27355861173189 0 0
-157.924946849645 -3.96351626398704 -6.96831998900833 0 0
-160.315941341371 30.7339221378914 10.8734873656995 0 0
-172.256988230858 11.8292423625267 12.3845893254124 0 0
-179.301357522507 9.94880736581489 -12.2807809087982 0 0
-170.815214477261 22.6286105622901 -8.43625224034552 0 0
18.0720972163835 7.47088835220459 -0.537214693743554 0 0
44.9192354926246 -12.0605753666451 -15.5543578085335 0 0
14.3781662019004 12.2989203862241 -12.2160589818042 0 0
-89.9329209908308 9.62412067977594 -13.0065673527485 0 0
75.2741619730802 4.94916289692804 1.56471482583242 0 0
-115.941298895882 7.49050106944407 12.5052911584326 0 0
-108.51048664598 20.352475875955 6.14481112340043 0 0
16.8964360380444 -1.06971956855197 0.74168894649501 0 0
-106.368923680338 -4.18298825230811 -7.66609207682782 0 0
-138.162729573924 -6.63179608429203 23.310356556005 0 0
-138.658154568285 23.1107886014021 11.6461266351219 0 0
-134.437163623205 -6.35782109762063 13.0924114847794 0 0
-172.627339115507 19.601199483865 -9.43162189212783 0 0
15.6439930789186 3.96967929557197 -22.0351829130001 0 0
52.9595583913729 -3.41044387257698 0.554435542728972 0 0
161.368001646384 34.8522882942371 4.12820451913948 0 0
-183.208193911186 -5.58182989834713 3.99011514549666 0 0
176.093511695255 -18.6126780071515 -15.3779583610107 0 0
120.854433185676 3.94107092740074 -19.6698998334375 0 0
-180.716842707535 5.47187988411026 0.836298171099197 0 0
95.1584013372287 -15.9952718515504 -3.6147942163024 0 0
-165.9934494849 32.5018180780999 2.38724507488193 0 0
-74.1543062929029 -7.85669317688111 -5.71474095629995 0 0
-90.260175115847 11.987097532491 -12.2183217124007 0 0
138.112508467309 -11.225747666428 10.4756822184588 0 0
-100.585914431633 20.7086924520008 -3.78808489029236 0 0
91.8357434262368 -15.8565382164804 -4.19366760882172 0 0
-139.377955951732 17.8267410059019 -5.06809918249783 0 0
-0.376572879634086 -6.02943383772364 -2.5800566114318 0 0
-197.843344574939 -32.362821239178 7.78621925129907 0 0
171.262700510079 28.5484724396625 25.1187994112928 0 0
166.463657295415 -7.72121005676327 20.4954192041537 0 0
158.550105438014 28.2787170740478 23.2611325670634 0 0
-3.05362368456646 -5.89870042291397 -2.52516215249263 0 0
180.706940382672 -28.5803930742839 19.0033918969387 0 0
137.069078192477 10.2562305890898 5.47702979902952 0 0
48.2995320431211 11.6899568042239 -9.12503614500084 0 0
-167.355426926781 30.6379114522992 8.34241547358459 0 0
-166.86263435607 29.0427652846442 11.7208445217165 0 0
127.017798116406 -18.2218631074606 -6.88107979941769 0 0
-87.0307789009356 20.4876290042352 -4.96010984693194 0 0
-83.4483495948511 10.7900149637943 -13.6209954311496 0 0
-140.374427353309 14.5327865456522 -6.1378089697074 0 0
127.79576326872 -19.9756033245925 -1.67956527335275 0 0
7.10678993244973 -3.63334141999847 -21.1418701016385 0 0
187.317069840299 -19.3317752926089 -0.851795535173103 0 0
64.6280643312941 -2.63457230903532 1.45120637666413 0 0
-185.048569966044 -6.99251418738018 1.57248065353137 0 0
-20.5914021122488 -10.4401206408438 -8.04718622373509 0 0
167.531414883124 -23.3813692266979 37.3457747076904 0 0
-138.0331470477 -0.710830181728353 -6.32501351098952 0 0
-126.038610526573 13.3489666087285 14.6533592740103 0 0
-95.924928177615 5.05082867377674 8.79691599207773 0 0
-85.7330839480469 -0.880364659532503 -12.6484446001313 0 0
-149.570985179822 -11.3842131029355 -1.41560199889863 0 0
-180.108152726404 4.81465489209045 2.59594473825253 0 0
-160.336434387508 32.3122678459507 1.12997457609145 0 0
17.8719194654765 -6.31032895645027 -2.63439614954127 0 0
139.57535680611 -23.0179064729355 4.53334050184529 0 0
-40.1163726055017 7.5940970334958 3.49598452654904 0 0
-60.5482486264851 11.7144308640834 5.24721148669884 0 0
-104.602910279606 13.2508079105229 11.346478003601 0 0
179.2372228313 -0.116643615572978 -9.05230095319859 0 0
-87.7815301140781 -7.37089555278635 -4.82696268108471 0 0
184.527654009839 -13.4039504285781 -5.01649309670221 0 0
138.009535917474 -14.4468019500035 -11.7085229295815 0 0
184.053046769753 -13.9019143551506 -6.51611618703857 0 0
-149.476338611082 -8.60282702434836 -5.80448936156161 0 0
45.9804218101073 -6.64527400652111 -20.3065716965847 0 0
118.00932709383 -17.4662333782873 0.192898713041214 0 0
-15.9582527580375 11.5780686299272 -2.03037572406682 0 0
141.364452590603 -1.31011060905769 6.42484984215602 0 0
106.887193731421 4.78421592270641 -19.4848249632874 0 0
68.5108347957196 3.75672776084474 1.64580174641031 0 0
-173.569633747891 -12.5497787603713 -14.0031289738821 0 0
-189.466709308861 21.7640251511375 11.9249068081623 0 0
-29.3992272648825 13.125709110843 -16.152565178497 0 0
-145.882347911643 25.2738591470056 4.98220899457138 0 0
-61.4268774962019 -5.93574355341502 -12.6741085508657 0 0
-164.061156116895 32.6984980498149 -0.711924645005366 0 0
163.159681779824 30.9109912933861 21.5732176241656 0 0
171.484527316191 11.1039025211558 -27.3636642160737 0 0
-168.195981047937 -31.6174702471209 1.0743277328672 0 0
78.1184573081661 -6.04444688013482 -19.9799304483939 0 0
-186.986616083934 22.1942406862494 -2.49526612080798 0 0
-146.593066173278 23.1516562454869 -0.998140168931358 0 0
-172.095724717513 29.7420853600575 0.524919339571384 0 0
166.027454953892 8.47911787527841 -28.6975110285499 0 0
187.017120074419 -23.7571923528621 27.1970233071342 0 0
-32.8096435012646 6.92849260016216 -20.2014768666588 0 0
85.4436741325579 -6.13374950122981 1.84013398512488 0 0
-173.63071310317 -28.334982301306 11.079904611449 0 0
179.163809742583 20.9046657712913 -12.4588403225278 0 0
84.1956635151818 8.4031293524625 0.414558163740521 0 0
152.060331720129 19.424906520638 -12.3567441343799 0 0
164.205628944091 -5.31225503020669 27.1338078186928 0 0
163.673225186516 23.5792380774837 -12.88029078387 0 0
100.141772147446 4.086725128701 2.18475171649776 0 0
-65.7582706816018 18.1635373856214 -0.725588495502909 0 0
-186.160643434816 19.1724509188924 -5.97655118446187 0 0
183.786945678427 17.4676946406423 6.14208323409811 0 0
-165.198074682462 3.74187345653893 16.2824154344825 0 0
-34.5063981713214 -9.8992641431911 -8.65885058625315 0 0
155.189984113696 -17.2513940121838 27.5600135076975 0 0
120.441324729683 8.0682044347464 -17.7830373547125 0 0
171.823500518368 33.7260919981521 21.7789722293271 0 0
111.297232566516 -14.0193066871104 -12.6323453051313 0 0
117.542094658269 3.20985573916787 3.07003774848409 0 0
-189.936903236455 -9.01599979093931 -8.54694905798863 0 0
-182.071075724043 21.6867443846332 -7.39368226997969 0 0
-154.02224557306 -1.24260391596261 21.3318670559777 0 0
-99.4157517753055 0.159194232345691 7.16966412258721 0 0
-176.464518249763 -31.25735633169 14.5970715116565 0 0
172.088472516087 -28.4040369915792 27.9034030044945 0 0
-187.99995084316 22.0085679874226 13.9551723065028 0 0
174.226380262773 -30.8918872107829 22.83792107268 0 0
170.614778960146 -8.02057670465524 21.2318793230578 0 0
42.9552524035827 5.03544711616163 -20.836822803683 0 0
-74.3934683585974 16.2787605669805 -10.7774901716072 0 0
-61.3248201977081 -2.0231794099073 2.28234129800201 0 0
-170.438369196517 -27.117920485405 6.15044531961348 0 0
-175.613060410164 25.7808526659684 -5.80431033374621 0 0
89.4011759976607 5.90456723124604 -18.9689335686911 0 0
153.4673896636 10.9026056050684 12.5363151544901 0 0
176.076251601112 -18.0062641803325 37.1324309625892 0 0
-113.055089560836 21.1205838388452 5.48285102967917 0 0
85.0313233149526 12.3192967962824 -6.19254396292986 0 0
18.8421128907199 -10.2478929796935 -5.6016086361641 0 0
44.8038403849894 10.8376403045443 -4.31907003563517 0 0
-140.231534028045 20.6469583566727 -2.19950762529116 0 0
168.135522084268 -9.88335293516044 -17.5344246108529 0 0
41.9497507985941 9.15325944520421 -2.03076456877968 0 0
-6.83139978809938 -6.90578065772074 -3.25463556366838 0 0
90.6448600037897 -12.2266213378024 -15.1516935047413 0 0
-200.328060457018 -16.5644555904305 1.09154101412817 0 0
151.765410836025 -18.4589849105628 18.7629656274065 0 0
-167.468712243007 18.0178455983313 -10.7450308812865 0 0
-13.9141233341847 9.45246985085527 -0.0146043586037469 0 0
-148.055430917537 -9.04503434427056 22.6074777330701 0 0
-186.877696877449 19.6667668883503 -4.26129888323097 0 0
145.509525894602 -9.74460563875972 12.7093388633312 0 0
166.402799517488 0.72118170375687 -23.2389072499303 0 0
-101.499404091642 20.4664532475585 3.95409833747484 0 0
-110.429036025193 15.9002241311662 -7.77178861939529 0 0
-152.576448331474 -12.4658973253652 -1.86717090422154 0 0
186.267211391769 -19.8648278441941 -5.577846060163 0 0
153.427498459344 -5.67034939480691 12.4503582486497 0 0
144.944175061065 -9.65059066736461 10.9478844358149 0 0
66.5250938329839 -14.7843641948363 -9.9471215411943 0 0
8.38905683905629 4.21320157821396 1.7779195698836 0 0
-57.7916093726167 6.15602753789374 4.92741267875002 0 0
-20.2021807639458 -4.71289509201941 -19.393913185084 0 0
180.96591115027 32.9757564320858 14.2314663077114 0 0
181.650154864393 -15.2420656106298 -10.873582693787 0 0
-176.305203953228 16.4313480943081 23.1825266016616 0 0
131.752903305018 -12.1887844036011 7.58376322817204 0 0
-11.9523670496611 -7.74542199829533 -17.7023268105526 0 0
-188.433275918948 19.9498952600951 0.424264443077034 0 0
144.60051845281 21.3932421774813 -0.0967832147865417 0 0
-141.669757494793 21.2180621145354 -1.78388534082338 0 0
-137.86747797673 13.5832945486666 -6.32204869619499 0 0
-75.175255313907 -7.33536098010552 -8.28293980144918 0 0
82.2893459091203 -15.7984708505763 -6.9774836882217 0 0
-148.271516722699 24.7152089945438 13.4424258515123 0 0
-172.318974750386 30.6952435030263 7.76596286519919 0 0
-128.009292817249 21.6256245021739 11.7852612700459 0 0
-67.6184052384161 -8.10455920048972 -7.1911119222379 0 0
-88.7513312023324 17.0472767085422 -8.75451968519004 0 0
112.705018309647 11.7992612307949 1.83558550914748 0 0
174.311995329066 -28.9323802875935 1.04526069122335 0 0
151.626705471511 -15.2747525070496 -12.6229846274706 0 0
-201.558264512602 -26.7869132083525 3.00960566319085 0 0
-36.4267136553808 -9.67800225113644 -8.29136222041389 0 0
37.4462614414931 -9.04663084951509 -3.61948391089786 0 0
-146.562215664969 -10.4950432226951 2.78446374675406 0 0
156.161921510732 23.6086023765551 -9.73142633462388 0 0
-14.8268110272441 13.0697107563237 -5.14125818902905 0 0
13.443395794352 -12.4462296137878 -10.6890820345693 0 0
173.394681180952 4.73710815915047 -22.8131521946677 0 0
-127.965775565843 14.1150638733455 15.0146030637975 0 0
69.1897778735107 6.4086536828308 -19.2713162712945 0 0
-189.680537056961 21.8291452345237 10.2137578636004 0 0
-94.3805342706765 11.1792297153775 9.68248787947463 0 0
-18.5210234296676 -5.26800833892243 -2.08966672671342 0 0
-6.21839211783547 1.25916629611614 0.989788849280624 0 0
170.761624095549 -31.3369654969006 3.89688175375426 0 0
-183.425274116649 -40.0726471156906 -10.8169121930919 0 0
-159.413254192538 -2.67796051173872 15.9504742653242 0 0
-181.030075139024 -0.78104655995599 -7.02095959314998 0 0
72.6247699439413 8.3725094901216 -0.306654213181261 0 0
93.8835278542549 -16.1753230767728 -9.54933304043275 0 0
105.536488929562 2.53944956512459 2.52799672683129 0 0
-188.918556109906 21.0794811760901 9.27521293318181 0 0
-4.92245682804235 12.9481105979685 -7.4119099616477 0 0
-187.800131227286 20.5997552141724 -1.07736650058862 0 0
157.992323895529 20.5044134009863 -16.0827281679661 0 0
16.0191001684534 12.1306072081837 -8.58429866930943 0 0
82.8644411864052 6.12839817730395 -19.0632469649812 0 0
134.804660290062 17.584991861737 3.26727569445344 0 0
-201.656715506271 -29.3399114353306 0.108894881990508 0 0
-50.8909958482054 17.1643746308694 -5.16504978675291 0 0
157.584679656221 -18.9396995781676 31.5384159385232 0 0
-174.375421755608 11.4353261183716 20.7758444550473 0 0
169.722796339404 13.219869179332 17.3741351120359 0 0
-151.938132757161 6.16673591905327 -6.29486925952743 0 0
186.29521174194 -15.4824533498337 -1.09599091866254 0 0
-181.448191392533 8.35192728230689 -6.52257306714007 0 0
-151.466432285338 -7.53123578741417 18.0779386334937 0 0
158.858844745428 10.0325551099477 -26.3224787762281 0 0
-160.988758452463 23.8616351212138 -7.14425945031972 0 0
163.731758405449 13.4993105226939 20.4611146984679 0 0
152.538542992171 29.1462727589463 9.80737351198983 0 0
-127.724646859789 21.4091898515292 13.8581957851524 0 0
-156.228258483131 27.9061097152857 -3.12217305458672 0 0
-11.7265338282447 1.01023340001177 0.944868464222978 0 0
142.281054985021 20.2665258360753 5.67561813723196 0 0
-186.71632393486 17.9878104616594 -5.18971076036823 0 0
18.7723588193231 -2.72206662460271 -0.204349679025885 0 0
122.448085185666 13.3138433159599 -9.15564226924277 0 0
180.826248390689 -24.9378288250462 -2.74239938388228 0 0
141.713588027813 -9.01923710955296 10.3484151098727 0 0
160.503164677184 5.40108963885624 -25.8485014696879 0 0
176.076836072607 29.57424848942 -0.550435669309211 0 0
-7.81271316539693 8.23754192389857 0.922820795693339 0 0
-144.391362225511 -9.7537031370347 -3.41732400994686 0 0
152.673622109895 25.0191498974182 16.2575024763612 0 0
152.928767060128 -29.6932701722822 18.9907083770756 0 0
14.4792002038834 -12.1111319891567 -14.3294075269876 0 0
150.553062102403 -23.7659447382512 16.6264705329467 0 0
-138.041740961754 8.18863329910208 -6.15293506361419 0 0
83.2397528819715 10.568238092987 -1.21295386765691 0 0
-142.867172280043 22.6253623175449 -0.146854171429851 0 0
179.882396487387 -3.13155910438827 8.2503537648276 0 0
170.927128464999 -9.06257904045757 -16.8468783387074 0 0
161.557655005661 -34.8999326600536 19.5107380208814 0 0
-98.2832727137407 18.855844876322 -6.7329778439874 0 0
-104.595706166575 -4.19856265172442 3.68470945622762 0 0
147.767571724992 -19.9878176140325 15.6619165079986 0 0
-160.95465626407 -9.63443980088825 10.8347085195408 0 0
-14.1446001734573 -1.79161001077497 0.0999294190600632 0 0
-195.821903619579 -15.2949779926184 -12.6963718841248 0 0
49.4302411608871 4.14673066434391 -21.0385548104794 0 0
-161.148630227863 -13.8041610240777 7.77494772480628 0 0
-178.307912946119 23.1680267746739 -7.48228976156474 0 0
-182.833255758499 27.8403431776046 7.02140765770099 0 0
187.691647481956 -19.8058238679188 26.2972759203095 0 0
-9.41812795479336 12.9884589203835 -15.4476612569822 0 0
-186.0658004134 22.8586600062291 16.8306411554012 0 0
-132.053420399243 14.7264195717286 -6.54110504166643 0 0
100.562153177269 13.0358296064223 -3.326781413562 0 0
111.372507311385 -4.88031235518802 3.68359487151176 0 0
180.342835679268 -7.40955055360422 16.057107845339 0 0
-197.131978962004 -27.595684268337 -13.984661337849 0 0
97.7977563808395 -12.8420565372384 -14.2767187807098 0 0
110.388146670722 -9.89242255187518 3.33074741549624 0 0
-17.2383068068593 -3.16351577083269 -20.2767144135838 0 0
153.10277644251 17.6001020893319 -16.2877384384304 0 0
-178.307194066091 14.5511394375215 -12.0023242941047 0 0
172.567710395375 -19.3988729402911 -16.5469811439613 0 0
-70.6013821582703 -7.73953770338616 -4.17677813466443 0 0
55.9607519002259 10.8353558639233 -4.06290520744018 0 0
57.9067159486581 -10.5056151469543 -3.33680854026913 0 0
-92.9413228882208 0.983589384638662 6.91114260253906 0 0
-23.7200599097589 -10.0125312710814 -13.3128103768368 0 0
-98.6275843561462 2.92842691051995 8.63987148076057 0 0
-110.690813696312 -1.21424943619839 8.49200409952616 0 0
-184.116363747458 -19.5931160879528 -19.8887896058995 0 0
-21.7700017388381 -2.62837223860832 -0.239094837929615 0 0
-170.296580728663 5.43288554455351 12.0350333692135 0 0
-145.648989505563 -9.35376105597462 7.92981270983018 0 0
184.087310799082 28.5357284888612 3.92425123100866 0 0
-185.770194421787 22.6449113224125 -4.34030225589046 0 0
-117.91901498542 -3.6525856599506 6.88852755581674 0 0
-97.3473101084226 -4.81824823107122 2.31631432899683 0 0
-6.73426893965314 -11.0776157992671 -9.37144239091151 0 0
161.485243778268 -8.50732176843294 21.7091747125695 0 0
165.350815316514 -2.93751715126698 -20.5114200404414 0 0
-48.1904324811076 -6.65324254367681 -14.4964556539356 0 0
181.618812838108 21.3823102559252 -9.85117046393415 0 0
-102.55291969058 -0.821421265460426 -9.96789922275945 0 0
67.1226610482757 11.586871474334 -10.3684077238065 0 0
-16.7320555687494 -10.8539645926175 -9.22847395703536 0 0
179.954903018602 -2.75614944368544 -7.45234276292116 0 0
184.477236520285 -9.10232980159677 17.5655869630019 0 0
-174.42710197365 13.5587653839559 -12.4876769181383 0 0
-190.697998518313 13.6172898340341 16.7885498624388 0 0
178.21544820869 11.4970245607003 14.390505725607 0 0
-62.2292485300336 14.7022820578392 -13.087943961622 0 0
-106.28870006918 -6.76704208351839 -0.405175121466666 0 0
122.532385596408 -17.9003753394337 1.41532309534178 0 0
143.939372031743 21.8040390684755 2.97128693205398 0 0
-102.140833945546 19.8207080743195 -5.30935265409588 0 0
-134.398815945743 19.5651496861037 -2.99755029317309 0 0
172.779607599186 32.4034791332258 10.2118270768042 0 0
84.1084736094491 -11.2321112059994 -1.16440880623407 0 0
-170.586128232092 -30.8671308334595 6.59100616263057 0 0
-166.774951536719 -6.16984342041414 11.7679395479048 0 0
189.228193682042 -25.0286712367454 5.46690763664413 0 0
-188.255680207303 -28.1158357610362 16.1860905580198 0 0
-104.638695268763 17.5495785500264 9.6210133990947 0 0
63.2463340734791 -10.3083086226378 -2.75167862794938 0 0
-179.637310301127 13.2224718714461 -12.4877801360024 0 0
126.028010412951 -19.4463604788262 -3.78706687212952 0 0
133.144340982374 14.5300869244757 4.33678278728982 0 0
-157.115197781873 -14.6598262691036 -3.04524306051815 0 0
77.000000502506 -12.4558308964494 -15.2769568984268 0 0
130.140933482308 15.3406418075269 -5.29624912512833 0 0
-100.605088915935 12.7332393260825 10.5658257973371 0 0
-184.931139734947 20.0787499742936 -6.95982733111942 0 0
-170.976703411511 2.34181437634858 12.1151609671872 0 0
-15.6786622439327 -5.33862150305884 -19.453227858633 0 0
-193.882964244974 -37.4625408141744 -11.0280151389679 0 0
-131.921671725359 2.44522875404509 -6.97064764205909 0 0
151.059401901508 -28.670392848547 10.8306686802661 0 0
-110.987931768242 13.627674336174 -8.79102622027085 0 0
164.222544540129 34.0868354771064 -1.01213620299531 0 0
126.644589532365 4.14979330700147 -19.6038152396856 0 0
-107.265406117825 5.68176365698003 10.7368196908878 0 0
-18.0456223518704 -0.616285434949467 -21.0398286354017 0 0
-16.3150881760936 14.1916982345847 -11.1453192440108 0 0
177.422686278104 35.2773865443937 14.5869425624685 0 0
162.329445022781 16.8589161305821 -21.7529136139138 0 0
143.735262943965 -23.6607315526039 0.342000203944976 0 0
43.3370144937156 5.48673999020079 0.749823999930679 0 0
153.554253818926 -12.0858885617567 16.4030665061421 0 0
-180.629878013771 12.6146377372485 13.5128514192928 0 0
32.71986573394 10.6332694641272 -15.9496811462726 0 0
-154.578026795413 25.3494382731996 17.044374053459 0 0
186.797059359262 -10.8848859830149 7.59533265532053 0 0
143.811359557793 -10.5209552299083 12.5657412013353 0 0
176.814006919411 -31.4130895793485 14.9471434365239 0 0
176.223262993158 32.4567339864902 7.07564270855126 0 0
184.661600821852 19.5347628792411 3.63540945448826 0 0
125.433413052749 15.170170470713 -3.88368644784279 0 0
-184.393987498165 13.7053474394382 23.4766519476435 0 0
-178.49816384297 7.53826984783526 5.41766072122836 0 0
-155.24929555918 9.89619009561551 -6.59112248132533 0 0
177.868713661384 -29.0563115533117 24.1844141024737 0 0
-77.0340701938379 0.455619606233604 -14.6099232461326 0 0
-177.14600202879 25.8556101113328 17.5047712474771 0 0
170.999662550297 -25.3043839324399 36.5545568071999 0 0
-82.0722980671199 20.4906741541389 -2.28635698185887 0 0
167.638145083089 -7.58736400714424 19.0830191510028 0 0
-162.537519160562 -3.66459394274996 13.7161061015942 0 0
153.057851433314 26.7902339322548 15.8479708969293 0 0
151.842835774731 8.67228342940555 10.3454896511601 0 0
-124.397282645503 21.7059346874835 8.1506060120278 0 0
137.2406103396 7.93459214220628 5.27892323428018 0 0
177.87522808916 -28.5802491681742 4.24078818758007 0 0
-122.582771546217 15.590093475447 14.6450512380485 0 0
174.003317562254 34.8401188863008 13.7500057437913 0 0
52.3720190306465 -13.5119291530623 -13.0416339278267 0 0
-161.925943464311 30.2021261145087 12.5911797892145 0 0
-198.697213116939 -13.5533806983343 -4.48301540926482 0 0
-172.873273014801 20.5411434952288 -9.27416805177389 0 0
99.2406197420711 8.97052217107162 1.53898584365043 0 0
-171.445641378387 15.9978169109479 -11.3333613900942 0 0
-172.745347966682 2.70292695733551 -11.6046809846186 0 0
151.362123469258 -28.9985857045028 8.7912959048973 0 0
-146.497399877001 -4.45792309702707 25.4971136615182 0 0
-73.0051316146703 13.8058903653294 5.30187512901785 0 0
-126.793246937235 10.8553267765521 14.8846601062064 0 0
157.830464731278 -33.8435122097928 20.9381372326656 0 0
159.093401790855 25.0522367465218 -10.0031285300544 0 0
-182.417467707252 -40.2179922759769 -1.48954968523659 0 0
-153.400038195269 27.9929886655386 2.25539891313178 0 0
-10.8809601190119 4.58210669028989 2.18770616313912 0 0
-188.37698275006 -11.667982520101 9.98196815118234 0 0
-17.1043530817861 -9.6657641826794 -6.4090756777208 0 0
141.176973160206 3.97978526933531 5.81566161091804 0 0
-108.144921902161 21.1949058519855 3.18039589057691 0 0
185.275531462448 -10.1120876806357 1.34063534738306 0 0
-174.797617924245 -22.2224120940196 -18.5075479100651 0 0
77.7539377287485 -13.9664300506533 -13.3287243625562 0 0
178.008375382543 -27.322227272947 0.970463202808468 0 0
102.847563651985 13.0034562714197 -2.22736875521965 0 0
165.698270308471 10.8979434926383 -28.5041425017582 0 0
-24.3920453772164 0.0588137586105742 1.10900621218309 0 0
-83.415975366614 20.2765076333371 -0.262554319897287 0 0
171.227931844619 -0.72025351398682 8.86555715214937 0 0
-200.454367305072 -24.0314219733172 6.44458391099389 0 0
-190.091050372218 20.4242087683342 10.2274707231193 0 0
-63.4463530191888 7.08250264797756 5.3359095037855 0 0
-60.790438606214 17.4361599274521 -0.967258572293386 0 0
100.278792006759 -9.25014304531228 2.20596044446593 0 0
86.0825605133328 -8.14434594909518 -18.4919996503642 0 0
55.6071397229484 -0.881105596929889 1.4771888372154 0 0
103.662931879446 -13.2844362269001 0.5983001440435 0 0
161.375796188313 23.2983227372811 -12.8666292175054 0 0
39.0152705286967 0.202475882114974 -22.1612677815069 0 0
24.3615759613326 9.32422822039528 -18.5769971949483 0 0
60.4251504710658 -13.274992154675 -14.0782629681822 0 0
-145.822576458715 -9.92779674883963 -3.42619311792254 0 0
170.246993110134 -29.0705999912679 27.3731867134461 0 0
103.302017856296 -17.2382053108547 -7.28067856075115 0 0
141.700691509233 -16.2806911148374 -10.5031405045136 0 0
171.08015900529 -5.59619428454418 31.1731794472329 0 0
-77.9737907629762 16.0204675006012 4.44341134804319 0 0
130.934536584193 -12.5258390439207 -13.3646632550165 0 0
-188.874386207506 -8.54803682112319 -3.84241468206618 0 0
130.739472445577 16.8835875431802 2.3945862271118 0 0
157.25819821254 -25.470836513519 -7.56624016761945 0 0
150.489953430375 12.9082472527643 10.0062300387411 0 0
-96.7705709918 11.0049188819987 9.69917458749914 0 0
-146.546321930628 -11.2784401062543 19.7079539928471 0 0
-20.7847021907444 -8.73716575598121 -4.93239318261092 0 0
-183.803850983188 -28.8507597347355 16.7081176702084 0 0
114.25988638125 5.70750796378809 -19.1390941611909 0 0
190.079629943449 -20.2835016411357 14.5213573850811 0 0
164.610488616034 -13.4301489647677 -16.7149270195735 0 0
-191.690557095593 -32.563241996704 -16.3661621391085 0 0
164.752658371045 -30.4208874878318 -1.95704533911509 0 0
-127.076964165743 0.568501496576505 16.3484853997101 0 0
-130.728275445311 -6.78510160307549 -4.23950416057257 0 0
169.856349725465 32.7530656574948 5.65677943630946 0 0
-128.774964791404 22.0469989752843 3.41279400269379 0 0
176.04140629753 -13.0223047144619 -15.1862123300628 0 0
-176.591469337501 14.5928391440165 22.9682676297099 0 0
18.8452964177555 11.5047032782606 -15.5997685869281 0 0
180.119716464511 -22.332087286119 35.2309915946789 0 0
156.588090811644 -8.46671558728121 15.2842426172594 0 0
-170.843459291055 19.586564362317 -9.35461764450322 0 0
-194.861364407079 -10.8552009908879 -8.40091753651129 0 0
-47.714942468994 -7.93444949779869 -12.2827804184922 0 0
-53.3029346232989 3.73653100635369 4.31377179127038 0 0
163.154440550653 15.5973395606025 -23.2979458127184 0 0
95.5537335807608 4.61384748407919 -19.5404655658878 0 0
-54.5392813598737 15.4280504554628 0.588822726661048 0 0
-126.318563982925 5.21809974800681 16.0210588896527 0 0
-42.7187024371984 13.8261489048539 -15.2935502820813 0 0
151.567497229299 20.1448597226135 -10.0821210887095 0 0
184.85931421217 -8.08068739609044 6.42308077624171 0 0
-181.685530171147 11.2825107963325 -11.0773795238249 0 0
-40.7264896187433 -9.57906966443777 -10.0285091181224 0 0
-106.01200731592 -0.111594735353143 8.38850441803796 0 0
-184.173794733985 -40.52149694736 -8.56532996752794 0 0
186.20801430219 -11.2411329709494 20.0846925851128 0 0
12.7837669368039 12.1750681179385 -14.373625160602 0 0
-175.239529193371 -24.2524267892734 -18.9414650475365 0 0
179.659220031012 -29.224532191088 10.5379157815106 0 0
-4.07212219181091 12.8811042425229 -14.2861386041352 0 0
-39.05699746323 -6.35187935962283 -2.34310880551654 0 0
189.837935904332 -18.7079223470863 16.4900990921086 0 0
183.177168702611 10.0505545647977 -4.0977962752829 0 0
3.19011975788336 -11.8301503800232 -12.4225937713118 0 0
81.7851270098676 8.17883679649364 0.348697852268763 0 0
-182.926260403409 -20.9926971651831 16.5369383650227 0 0
45.1130664407794 11.575060007026 -10.3230764414315 0 0
144.953152715152 -24.1335334664176 12.1537281037343 0 0
162.896143899588 -7.43095360949459 19.1722522224628 0 0
-181.391878858525 -25.7452350707537 -20.4450397248896 0 0
-15.3080615735105 -7.39749362920349 -17.9074247023871 0 0
-96.7853671070961 9.32502007713851 9.34211239747589 0 0
-181.500064494309 12.2175808808884 2.82181892074834 0 0
163.295444361654 25.3393477763045 -10.8572628341325 0 0
45.5071137439602 -13.5782373230992 -10.3155329341425 0 0
-173.841838630742 11.9075920073251 -13.9706550132992 0 0
171.338695694933 -12.9891410784691 -16.993944524365 0 0
-107.727454277168 -6.87099797265688 -4.28857193230088 0 0
-168.654019457893 -19.7856886711177 6.39492403106835 0 0
-100.984932723165 21.1749034717041 -2.15209509574174 0 0
168.30138473062 23.8547448572962 -12.2159921564557 0 0
-133.272808469553 -3.4691142562778 20.2556781839168 0 0
-193.456462828397 -10.7801374057237 6.10760249915707 0 0
-4.6440594140975 11.9874373658727 -4.31321579260049 0 0
-155.95178337468 22.1176387774738 -6.20434550559876 0 0
50.6136791048846 -13.7823032710194 -11.3789367038489 0 0
23.526352988404 -12.4756311089322 -13.314924311114 0 0
-132.083490738647 6.87687537643101 17.7852027453779 0 0
-164.987772005271 9.8923818531561 22.7381427318243 0 0
146.832230320778 20.391905594126 -3.5943977155087 0 0
-117.975509177413 -3.92648354241113 -6.48317339110234 0 0
55.9732999053914 11.5858929418475 -6.83634548191947 0 0
-69.68420070409 11.3129724509813 -14.9298401088951 0 0
-184.393453918268 -39.0736977338366 3.88839562621857 0 0
163.853257791511 5.95798338277186 13.1126554866138 0 0
-32.6121549834857 7.94469184315134 2.83628771741981 0 0
-178.513141932631 5.34111919448089 4.9169778647378 0 0
-158.055356681111 2.60741710600116 20.2612531855871 0 0
-108.799583478432 4.04572313656473 10.7519420021487 0 0
-127.910772703246 3.21349125912902 -7.36815665504281 0 0
176.884334346506 25.7630521996195 -5.47672061383012 0 0
166.761490647614 -7.37463212262258 25.485698511209 0 0
116.326230743835 -6.14348708640737 4.16006824290674 0 0
-24.3743755949683 13.4463515591312 -3.78099972200082 0 0
-168.857552698851 29.8647772646338 9.56409471169933 0 0
-39.7487194683446 -7.95101062079709 -14.4792940980752 0 0
-186.213176852747 -11.2829672611208 10.2642506538442 0 0
145.45598339637 12.2338145283634 7.98709872556618 0 0
161.868824123422 -7.89962257463564 31.3057902374883 0 0
183.028954395999 23.0476651247568 -5.36660789387115 0 0
27.9655497316686 6.01929593205983 -20.7244932788772 0 0
-146.108237379012 23.797804087677 14.045351991293 0 0
129.246992520158 -10.3914325462104 -14.6358031802402 0 0
155.610784284725 -11.2100678425965 26.7434456195894 0 0
147.640941970423 23.4167405872721 0.335346770774957 0 0
-150.665506705671 -11.2637299363421 -2.69448544638362 0 0
78.5307176291751 1.06293567533672 -21.2218771663987 0 0
33.6063288551452 -3.11319632379797 -0.0333931978338752 0 0
167.576932347496 -5.86045708861314 15.5252419656739 0 0
-188.246512378846 -23.3984651550193 16.3766293661197 0 0
187.095690978744 -11.6230781334408 16.443143876981 0 0
177.883840717294 23.1241149086669 22.1977800646686 0 0
-2.58018263914281 11.7069332826293 -3.94004007111296 0 0
-163.664270182626 -20.1354599090249 -4.11165452512644 0 0
-112.353190673579 20.6486813270821 -1.99957957002538 0 0
173.13131695016 14.3245290665051 19.9906402417305 0 0
175.642406041922 -4.75798059349397 27.1143466274992 0 0
-74.6889662345619 -7.20178368408283 -2.54197494248589 0 0
139.549605814328 -7.16390429344587 -15.5834649072279 0 0
114.686656080879 -12.2611001629496 3.1224490257154 0 0
74.6219919305069 11.9280360742552 -5.81959438713599 0 0
152.635351836511 19.8950369757555 19.6687083449235 0 0
4.89864007251954 12.7437464843314 -10.9191060451219 0 0
-191.182825282074 -40.4205910730428 -8.75144815187255 0 0
127.635295574611 -1.40758904534914 4.47076136480794 0 0
39.9862308661315 -6.39370840791403 -20.4032553544817 0 0
-180.161339415421 0.0949684790092353 3.7896518327446 0 0
-78.3226109820306 19.5318647089407 -6.16821278067044 0 0
166.492863392658 33.9711524629146 -0.178286380546844 0 0
167.018882880327 -33.2219508289735 20.8546077888526 0 0
183.930820063151 -17.0196111379428 31.7710492174825 0 0
146.456933581356 18.4937640070193 -7.33546448499421 0 0
-187.505402122107 -16.4473269353202 14.7084478845278 0 0
-100.337373352328 -7.19115119468364 -3.18329283393624 0 0
137.778034744612 15.7190631110817 -7.62063110293636 0 0
139.788884741284 8.79758074904864 5.94202381717108 0 0
132.637799898674 1.37750016680101 4.5069679647604 0 0
-10.1816857123505 12.4699335938107 -4.54714603770106 0 0
-38.7927160905599 11.5204237493481 -17.5853770961152 0 0
13.0931259985575 3.83060285955289 -22.0933259755567 0 0
-180.410271821783 11.3141828289038 20.0649886552993 0 0
-110.028663722688 10.6564934233115 -9.71420739922619 0 0
-166.166427271699 -26.1317910765714 -4.13605994591556 0 0
-181.527138429969 -12.9796387618696 -16.344316745258 0 0
136.73963150913 3.59617269043692 -19.4986607323749 0 0
157.808187155969 -5.83881292280658 16.040646167708 0 0
92.7267510757611 -16.6064381703126 -7.55578028749504 0 0
178.034048432298 -29.3916457691819 6.93161153677485 0 0
184.20259611937 20.0007594797318 -3.57165018929269 0 0
-4.50244990046506 8.59831896310008 -0.0212504543781949 0 0
181.205717668811 10.5605629660981 -16.3905603833097 0 0
164.955031262687 -34.2078876975174 20.4791469709957 0 0
-60.0698862488678 -1.56469325436189 -16.5834861697461 0 0
-155.661159134631 13.3093513350621 24.0423236922925 0 0
-141.586854915041 -9.72176616690893 -0.269870379549179 0 0
148.698229383113 19.5770380063319 -6.95443391387155 0 0
-180.293152829683 28.3307353825357 4.47818711405871 0 0
2.52806069912827 10.466662259154 -18.9509071471041 0 0
12.2529813551973 -8.23295323641778 -4.2211451765579 0 0
170.196111646701 1.86019312703797 8.1447019802108 0 0
-156.098677607448 -0.575446030704735 20.0148700248736 0 0
163.718858215517 -7.0285959703845 31.5666158543944 0 0
-168.095320091133 -29.643227470712 1.88764930949344 0 0
136.095712341669 11.3696973538109 -15.6204196406511 0 0
100.053892377666 -16.3812381207206 -3.08404206623464 0 0
59.0484137223305 8.7785009870009 -1.28087098198693 0 0
-34.6632156792025 -8.23147729510199 -4.1626097089762 0 0
-11.2962874743138 -0.72979922018296 0.552838856570387 0 0
163.259880819313 -8.18154362816461 21.998052957907 0 0
103.785485362629 -0.311131607822983 2.86615682112002 0 0
-150.544509369194 -9.78275761935217 -4.98971465649571 0 0
172.801982580642 -7.77962759159138 17.8069934995254 0 0
100.438595007172 -17.0199703071403 -7.54603497759873 0 0
100.997073301084 -17.1760437543699 -5.14515684469729 0 0
-122.901482212755 9.72998300273833 13.9095490039191 0 0
166.829895410726 19.6462080965848 -18.0184736727578 0 0
118.997302204186 -16.2708213191942 1.8930759545184 0 0
155.066985516525 -11.7717128564462 22.0523543239371 0 0
-84.2668140549077 -1.99366814038182 4.22186254271462 0 0
156.436861519379 -32.101531961258 7.91539622883979 0 0
171.887583701678 31.7728755339738 5.55104446384869 0 0
-163.166758222104 27.6107519458675 16.357294806356 0 0
-161.340225203345 32.7263886779935 1.97068787855427 0 0
-43.9872685497258 5.36270957461758 3.67759526476411 0 0
175.011725424007 32.8017457671586 9.99437861528622 0 0
-193.698953390717 -21.1366264006782 -16.9668336316084 0 0
-168.618347119022 -32.4225174136346 3.18134424778292 0 0
173.485091648639 26.5018255915302 -7.13957405488285 0 0
-157.395577010837 6.52932977704325 -8.09011622605127 0 0
-146.647707577654 -10.5490926309697 16.1246747299807 0 0
-149.700947362659 -8.15495767533344 22.0829009754424 0 0
-46.2702656817558 2.67214853929974 -19.3726738346621 0 0
-108.208734678551 21.07232989838 -1.52178499169208 0 0
107.432608035597 -4.59554449828679 -18.9646408335881 0 0
-139.974236247721 -7.55165090049541 7.67746055361221 0 0
164.246743909079 -25.9615452280249 33.8027172496293 0 0
-141.85634890838 20.5581736632029 16.7927586881759 0 0
-155.565291969539 29.33590837491 5.24136630679964 0 0
122.621367720643 2.99985891374924 -19.7228731092737 0 0
-173.258112786288 29.6169828076838 1.97628948988414 0 0
-103.709256732783 -2.18260860730292 -9.26783053185619 0 0
66.0067105541349 9.96306682996705 -15.3163623305888 0 0
135.523220399157 17.9836565195361 -0.447607236876968 0 0
80.6166888391883 9.72687427401811 -15.2914473939576 0 0
-96.6654417976144 17.6218024188914 -7.75820249750505 0 0
-158.449293704232 16.504554724346 24.194352076257 0 0
176.066633707553 -31.2414196339146 18.084728917224 0 0
-26.855242080196 0.224992933275325 -20.6595836690685 0 0
159.396137345909 -16.3946554690436 -13.9901250521607 0 0
-93.1878504807767 -3.56364979139098 -9.82543012120922 0 0
-116.964647984631 18.2313615683344 12.309013132956 0 0
180.732430759838 -6.57542906597866 12.5761604923883 0 0
-171.976138209892 -5.74720621599942 -11.1359694791505 0 0
-197.072162880983 -23.1766255453283 11.3170210562584 0 0
103.049752367641 -17.4269261960609 -5.68994302293054 0 0
-155.576092169374 6.61076470488412 -7.24974940617648 0 0
-170.113297248832 -26.3687006445224 -14.6810490109034 0 0
-186.987526823946 -40.2989178011638 -10.4915013730505 0 0
-143.080762957992 -4.45064769089627 25.5191542630227 0 0
-135.046120587158 22.7587423041796 12.3595123479634 0 0
27.0430782231294 -11.4784046761485 -6.85508330218791 0 0
125.264111344684 -4.7609800902123 4.93556042113727 0 0
-22.2078082579436 13.5997836616143 -4.77138207443237 0 0
-171.170640724409 4.20609353429904 -12.9137927090015 0 0
113.795876231816 11.2942479137625 -12.8805720785847 0 0
138.55789172195 -22.4864163016206 1.94076073121887 0 0
-134.512546352614 6.43719004115294 18.8166910804962 0 0
131.402691520034 -16.3058833924929 6.35801376350061 0 0
-170.252258695034 -33.4080871440096 5.89699638799051 0 0
167.067866839707 -13.5800250742759 -17.3218840678556 0 0
-39.3995408810847 -8.05592516055338 -3.92368170324985 0 0
184.501519413264 18.0279543399381 -0.322435154646787 0 0
-6.46247877124705 9.12615440543026 -0.455647724887738 0 0
-176.431975873435 28.7866876574413 12.5105788505343 0 0
-163.630350157855 2.93460160979445 -11.1301386703024 0 0
177.358306278598 16.2166944317354 18.987919924995 0 0
183.701878275108 23.4114737111709 -3.20756302385886 0 0
126.976569601556 -1.89892082185175 -18.6743756578914 0 0
22.6734319056893 -12.0171502326246 -7.76248378977963 0 0
29.5262209239037 11.2205267235921 -14.8918680896459 0 0
155.073737322238 2.8715412370964 -21.1953305981493 0 0
-28.0683727027345 -10.3751244602279 -9.30396763809506 0 0
-98.6893727681647 15.0498837620362 9.48647360208338 0 0
-152.863062789299 26.614890518015 0.619574042856889 0 0
-185.661286614229 -39.8111240196339 8.67173013106765 0 0
162.3402998911 -3.85904527715181 15.4584004743961 0 0
-121.714055929048 -5.5861049578297 4.18317348021001 0 0
-184.10875080038 11.8154426180411 -0.753806529580246 0 0
-76.5861656521873 19.4235132279528 -0.0270689870472445 0 0
-185.040917701794 10.1784461732648 20.0226327538943 0 0
180.947622948023 -8.93034709228977 -9.03239761784019 0 0
-185.059931496905 12.2926299052322 13.2199137625564 0 0
-109.742749577749 -6.59719015504085 -4.48231377434892 0 0
-181.655527075507 23.4392949587492 -6.15144716438689 0 0
-197.260123497576 -38.6520737226193 -1.55823342916338 0 0
-190.131729609792 18.5298297760963 13.9444844026839 0 0
178.765015673256 0.787211151326736 -10.8502504938631 0 0
183.242222975958 -27.8138404656602 16.2383755080303 0 0
183.509504590534 17.8039576007266 -11.1630711291604 0 0
172.036606101564 18.5393345142989 24.6966565652963 0 0
-156.974457327336 12.5173493254783 -7.06892029632052 0 0
-3.90625813210086 7.0320961635971 1.74749489561415 0 0
98.0477385304278 -16.9214334276691 -7.46940263726723 0 0
157.570194339867 -33.6414177394019 13.488092182386 0 0
165.400199240573 33.6215632367885 6.38333803562947 0 0
101.968047935104 11.646813554031 -11.0168495036377 0 0
-187.067933828857 -27.0663708479244 -19.8643575756667 0 0
182.497639040707 -18.9164280859768 33.4196666611861 0 0
-174.539102001842 -7.45276810664418 -12.0851435321331 0 0
177.223315481075 -23.8670239800985 -6.57529550705354 0 0
184.901052908685 22.8463309199342 3.13764352893863 0 0
-80.2907811292051 4.67962309481922 6.92546889824121 0 0
2.22965176616663 -1.53778226865526 0.223918999989541 0 0
-24.7693648460513 8.47120095802707 -20.0938898124713 0 0
44.8469214219499 -11.6355089121411 -5.61961755546659 0 0
-17.9481508279322 -5.42494310850456 -19.1988294021742 0 0
-161.140843772823 20.1245017282658 -8.174867121821 0 0
-185.519128680031 -39.0656622457159 -3.54499327469328 0 0
102.051700792145 6.76888690511742 2.06614657110627 0 0
140.446218242634 -13.5030603024228 -12.5496725509782 0 0
-172.491156303191 -32.5638461942501 7.66578967806202 0 0
-149.863988605817 14.2306775134177 22.4695494018192 0 0
47.150239073357 -12.1439390766306 -6.03467630040007 0 0
-163.383014262197 -20.4158182542333 1.84451113553795 0 0
-148.439787092023 -9.07376747034353 -5.23882463689551 0 0
169.08940793057 -33.1128531235446 8.35900039589906 0 0
-65.1550461772966 -2.56448907692949 -15.1872690741962 0 0
145.530812356859 -7.28892033736007 -15.3546505480138 0 0
142.141924044936 -7.23479659039983 9.26369268477213 0 0
-180.322292643744 -21.5381323238271 16.4173825087959 0 0
39.171480998472 8.50722914201768 -18.315684862396 0 0
168.239444598338 6.93397014524598 11.7688744216212 0 0
184.45294020634 19.0229289954233 5.64365451204987 0 0
-175.338726039474 -15.3200593226882 -16.1241830820693 0 0
174.896256228139 32.2658004549107 8.57916739205934 0 0
11.7819145704699 -3.60141828248507 -21.3042567511522 0 0
168.7503151422 -32.1266232357448 3.9913090429148 0 0
-34.5789030685995 -9.51783240627442 -6.30584204014847 0 0
-195.497385702128 -38.9745847756148 -5.7399908848605 0 0
-47.6663999537053 -2.49876147414704 1.36860516909007 0 0
-184.392549908587 27.0998673006712 7.70183742691912 0 0
166.252177899443 18.5675824888974 25.9592439390599 0 0
-159.615427402843 -0.0710254475598298 -9.20713493163946 0 0
-52.6867067019259 -2.19462841157362 -17.3118004661424 0 0
-146.30717410707 24.5736559187899 12.1888751166339 0 0
-112.372094316705 2.13477513991767 -9.24659549152636 0 0
-83.1754317156661 6.3259169379963 -14.5217129942934 0 0
-179.703067757409 24.7431551151668 -5.7906904672748 0 0
