"x" "y" "z" "f" "a"
-180.220625463856 30.5484142736975 -1.14982567833032 0 0
110.424255553317 -10.4919049044504 -16.3663712449726 0 0
63.4550750639926 1.80117334117473 -21.9096364054975 0 0
-157.405808756504 13.0098094359483 22.431454689249 0 0
173.156230686732 -15.7589576357059 -19.7877946746476 0 0
-159.966370726816 -2.03384812491428 -10.8279731079436 0 0
183.725883644099 -36.0012116003868 27.2819449212933 0 0
33.3757402470756 3.1969604697619 -22.4445618959296 0 0
-172.962443001811 4.62189020794651 24.6479228898909 0 0
-207.04815326291 -34.56992484363 -22.496631357663 0 0
111.298904073055 8.56486393531085 -21.0122703707366 0 0
159.977144478419 -20.2067343202535 19.2577555254876 0 0
34.384482632133 15.5942051146712 -15.8728239686459 0 0
110.662698362004 0.39111281767041 -20.3814984735068 0 0
-9.49098206247895 17.8457993223565 -10.5203036011266 0 0
-33.7077378919585 -4.02455162094553 -13.0882796623801 0 0
94.3108822046052 7.39127968232548 5.09044448175464 0 0
160.397380799134 23.1364642882652 -19.7716780964358 0 0
-9.49057430150606 -4.99470288869192 -10.188858871124 0 0
-194.999061146784 23.0028804982833 -2.98618064569404 0 0
-146.739260115074 15.230255169034 19.6757494747253 0 0
137.381165870518 -24.0372640129568 0.227399458668773 0 0
16.3851678698814 10.5393365605983 -21.4186137908536 0 0
173.449679185427 28.7680841667837 20.6061745964461 0 0
176.267911795779 30.1829031727141 14.5093045139913 0 0
-167.334349365612 1.304506911537 22.8051300760708 0 0
-16.7486474357701 -4.28240664366644 -8.33326722349431 0 0
-179.447204678873 -3.69715092129173 11.2481962656487 0 0
137.27263395725 -2.49100269475951 5.33112910588607 0 0
67.6632537797849 13.3923723795681 1.3482862089171 0 0
-196.238122637975 -5.94265392859538 6.45891848520264 0 0
-182.6528788667 32.6484455595806 4.47756080864769 0 0
154.240007138377 -34.1661480632737 4.3057209691041 0 0
-196.868217935652 20.4089154909955 19.2936384752848 0 0
-142.582196858752 -0.0968799657287205 -9.8683942260089 0 0
-111.638498998694 -4.84546177816636 -3.84582102582297 0 0
-36.995801205491 15.8516597651878 -18.0143271608896 0 0
-109.022675766557 16.1708679304839 10.5818066760334 0 0
184.834764005001 -9.87230063026754 11.2389654035893 0 0
135.661726307043 -3.5208038460118 4.89063138395413 0 0
181.35476898372 -36.1424406173033 21.8372613190244 0 0
185.172494322995 29.5234771764764 12.2805129760698 0 0
155.49035724703 19.8058190395284 -19.9503883903929 0 0
157.128890026919 30.164665569977 15.2463892790957 0 0
159.218960127051 7.64923138076794 -19.8425194302703 0 0
57.8420679313541 1.29032440343818 2.02036720057587 0 0
-183.233794819429 0.413753262787063 -11.5496678176016 0 0
-212.690287886421 -44.3415187654469 -9.22858051679816 0 0
65.4668417982121 -2.84811598049205 0.950595490285267 0 0
-94.9373861192611 11.7601603109017 11.2501407294228 0 0
166.62225756745 34.6327546674818 10.442741139331 0 0
178.051435473441 -0.628334329342431 7.48301437768482 0 0
187.334021372133 26.1455798460147 -8.99234718387665 0 0
171.945452479096 -37.9024885326663 15.9550599425534 0 0
-85.1283021093301 4.58605978383593 7.18948928181716 0 0
-55.4614378431242 -0.821189848068492 -0.0450625365544663 0 0
-81.6727241955593 9.02673291837106 -18.7853153832044 0 0
-124.355160915551 -6.25810545615087 -1.18847158391135 0 0
-171.929476904868 -17.1632861796891 -4.93415315010283 0 0
9.27261365709561 -4.56618465904396 -18.2074877488701 0 0
-171.469597541342 1.21895236981184 18.8350633092472 0 0
-184.192787452376 21.1494466401683 23.0740827128061 0 0
-185.443587096271 -36.2266076179041 5.68636667547561 0 0
182.427659690975 -6.00780090347562 8.3508164320682 0 0
-27.5993317372428 11.9394621419603 -20.6237712202751 0 0
-85.4262103942804 10.3902674585621 8.26765007460442 0 0
170.881767974082 32.6969215023593 4.11845667570624 0 0
-204.053574193882 -27.8338440972455 -24.4274605133513 0 0
169.192770793829 -5.06648867031889 -21.5392194767649 0 0
-135.143679515527 13.7496511704152 17.4449067511841 0 0
-10.3483442468015 10.5488533145523 0.918952829680457 0 0
-154.362720142688 20.0045725264392 19.1775443391416 0 0
-61.4825128583525 15.5497308607207 3.06267583945532 0 0
105.977176373135 -10.8663361067073 -15.961034449123 0 0
-85.874296446666 -1.20175479468031 -13.213100000531 0 0
-123.795823144796 11.2777076323194 14.1600239581044 0 0
-218.709154724749 -15.7516502105522 -1.129121307883 0 0
147.390380714596 12.9716870532422 -19.3351364717456 0 0
150.663765609348 25.8601918368512 8.05532200037974 0 0
155.221851738024 -13.0144486974234 -19.3073021833992 0 0
124.00915966635 8.19383002270256 6.9566444151904 0 0
-191.076227412981 -26.3267993307142 10.8159218621612 0 0
150.283393985779 -24.1906705795884 -11.62681684797 0 0
11.8194436438279 7.24721479202081 2.91571004952604 0 0
-82.1999818128282 17.4924064998834 -13.6183857178316 0 0
-154.862284768153 14.148993882768 -8.72791723999552 0 0
-28.3505144420191 -0.97640736211799 -0.56189432340815 0 0
-203.262726791364 -14.5299547168189 10.4968504376482 0 0
61.450591994439 -10.6481109626325 -11.5166925600887 0 0
75.9899953945993 -5.24051588843913 -19.0442905824839 0 0
-184.253052438235 -36.9017442907762 0.134628458683695 0 0
1.06710350405092 17.0066288418952 -15.7345357232374 0 0
147.714513104299 -22.9766362799633 -11.579564983895 0 0
-193.679975873476 -43.0552098806004 -14.1107292158218 0 0
0.571319182692128 2.22854139986374 3.56111993198478 0 0
136.515819503266 16.4679415724116 -17.4914444940406 0 0
-211.573544689869 -19.3620037337307 13.1584880783039 0 0
169.698014327397 -8.71351563373618 13.073825532441 0 0
156.518828832562 26.3864941760887 -7.86199658708081 0 0
141.204893386131 -3.64164617531136 -19.0369754751326 0 0
2.35521359279719 11.9815763647429 -0.65147808818946 0 0
-28.4465966852348 15.1999376950348 -18.5085495212927 0 0
184.043521623293 29.3604900531006 14.2718836831377 0 0
-169.422830468602 3.69792298870764 24.6873905190527 0 0
154.715900636549 -21.3782770790118 10.3456135479924 0 0
-17.066037991468 0.88753808948579 2.64122603708714 0 0
100.40977502086 7.83949710236387 5.51112358490241 0 0
-112.781286843914 20.5370928365563 -4.84887594050851 0 0
-130.4822604146 -6.75934610044378 -1.3823506136514 0 0
-190.39588505145 6.53151242928216 24.9475957682996 0 0
-146.12193152433 -7.25946497959766 -4.94016053764257 0 0
130.629495683414 15.9679613918996 9.10735693118956 0 0
183.147259394941 -35.1971908965907 15.0411040778297 0 0
-185.709438883433 17.0515443619254 25.440697765908 0 0
-115.131650070272 16.4221680474098 11.422349005488 0 0
-183.709016284606 -29.1292620838296 -12.376971349947 0 0
51.7215151177666 -1.8202051599805 0.98867925890494 0 0
-156.370892681153 -9.80525230652134 23.8318133485921 0 0
-194.536274077696 5.59354696442742 3.75418509760149 0 0
104.879704448393 -16.3274963407192 -7.17906066355521 0 0
-136.757777083447 -1.23804325895298 16.1888864863458 0 0
-144.191786353425 -7.92600477805552 2.17720916042098 0 0
84.4285421935624 10.4095786077331 -20.6296193464871 0 0
178.360776279977 6.68097893511897 23.3771478523202 0 0
76.6642773151379 -12.227094922827 -7.38998391610807 0 0
102.198185851245 -8.90694082162661 0.578492515253395 0 0
159.192358211155 5.98484051703893 15.3431117332568 0 0
-15.7692177447202 8.07948802268454 3.73717019059138 0 0
127.507876281074 -13.4110933684493 -15.5665135882381 0 0
117.523264219471 -14.5144365845491 -13.8043017324706 0 0
-102.852863128557 -4.31560974034253 -3.8486192316081 0 0
-205.995701032152 -19.2513092399337 -22.6252964477162 0 0
-63.4292672311675 0.993490835284246 -18.6798984817677 0 0
172.840103099282 -4.09598539826818 -23.1822533277719 0 0
167.49453495953 32.5319645986055 5.40071645944849 0 0
-197.105654873552 -4.07711855538135 4.02339390461228 0 0
-212.184671017289 -29.863917159234 -21.640185283075 0 0
162.921343686554 -9.65739947170364 -20.4713369590426 0 0
-200.108339171235 10.9101219364924 22.662248094917 0 0
-196.258866420421 -7.12516339945706 7.56732653529992 0 0
107.757763170212 -4.49340651137761 2.37202578064876 0 0
160.67009314092 -20.0999415775761 21.5820746855525 0 0
-149.162869476766 -9.64544228709205 23.7015146488776 0 0
-168.085920913777 2.27675591628004 20.4479369762192 0 0
171.128227204422 6.04954631947163 23.0509722144411 0 0
140.918710373765 18.948163829879 -15.2355247408274 0 0
182.787132706328 25.3679744090094 -16.8100137956849 0 0
-122.70013130268 19.0334972123598 10.9290731581612 0 0
143.756791915382 -4.29446504760141 -18.9582793521988 0 0
162.459584107515 -10.075701379832 14.026419139375 0 0
-113.981356723928 21.4534864256751 -1.12122903650331 0 0
193.488602813379 -12.6517972696922 12.7243809641563 0 0
187.759408066772 6.90588552346739 0.342610118487541 0 0
-197.91921420426 5.61235924804654 -0.826524577876212 0 0
153.218085346809 12.6407755749998 16.180048127261 0 0
165.651754348747 2.21401587221434 16.1051118635851 0 0
0.924688141406012 14.1698514443096 -19.2849313588967 0 0
171.537637576246 -38.0226321585513 6.05245195859874 0 0
185.302517116262 -18.0993490982051 -15.3290296069824 0 0
82.430777312397 -3.54827858908619 -19.782543219971 0 0
184.989035819314 1.24310591091149 -13.1354545542823 0 0
85.9397503063452 -7.99940605569147 -17.3136240646327 0 0
-10.4746936115093 15.9819354592731 -4.92594463720458 0 0
-155.54918707157 23.3262902868911 14.1474443585879 0 0
161.967412279648 -28.4971746468441 -11.5524867579637 0 0
-77.0088909846252 10.7377961424899 8.57139922133497 0 0
139.105766260207 9.61313453481948 -19.9146336681561 0 0
166.771948503476 31.5167424261948 18.1131129024689 0 0
137.012096937053 -23.9979860929037 -1.12641535226533 0 0
-122.611129288734 9.87300189610797 13.5491698590262 0 0
164.954341057476 -21.060262653769 27.4385418621585 0 0
123.669388801593 -5.73906286232824 3.17147133758715 0 0
100.49697827781 -13.3827650718932 -13.3759070326868 0 0
-127.262342197081 2.29176545944867 -11.8005766689966 0 0
196.299093579733 -25.3152047929799 -1.22542179824983 0 0
-218.154212485709 -37.1512964997812 -12.6758497322024 0 0
-197.515921052743 -40.4353536532304 11.7940697168196 0 0
177.939744999326 31.0732544104035 2.51480954704342 0 0
-150.886842053183 9.84478964826704 20.8540404696432 0 0
183.315638582365 5.29696338968496 14.8794579713189 0 0
-43.7664931154632 0.430180312332514 -19.9718399766762 0 0
28.5571564336268 7.46620204891225 2.72882173013106 0 0
-165.870599680381 20.1315021163377 23.5093427584112 0 0
173.605555520107 -17.3822475638775 -18.9915453050783 0 0
163.139631222752 -29.0476514831317 24.014567059463 0 0
-92.4929587898713 2.28110386351948 6.45424296424234 0 0
163.945376471535 -23.5487768433022 26.5417296874004 0 0
92.3842951602771 16.466936789529 1.4097485973735 0 0
177.855407876896 -35.7201527418624 1.97802500070455 0 0
74.2940603788502 2.25358478101079 2.74862379212896 0 0
127.024971199943 9.06436527887687 7.49923342942232 0 0
58.366327346269 -4.22814330148211 -19.6442377519504 0 0
-54.0177805837973 5.80859651126242 6.13188564062489 0 0
193.79850776725 -11.5338309915872 8.66114375551583 0 0
5.36306472836937 -0.7233624788504 1.26328669372129 0 0
169.97318063533 29.0714025261708 -6.81550943982299 0 0
-188.112513032478 -42.0701225474178 0.0174104005653958 0 0
-53.6788014983439 -3.41726845474124 -9.33969426136624 0 0
174.732033018308 -8.75271039761305 11.4469450018068 0 0
-16.132215222224 17.8498108205231 -14.4699289156161 0 0
181.708119575485 1.19439335491264 6.21464137629828 0 0
142.001090827033 21.4606730138857 9.17623279880841 0 0
28.9272435885243 11.7903380490544 -0.575791495641188 0 0
-171.412144182422 -5.96376016680692 12.8132363128386 0 0
155.210203697834 -34.3389410101247 2.96678538601588 0 0
-182.086292512357 5.64118384826139 -12.6755102157512 0 0
-47.0758119245983 19.9604359213474 -8.20674324966448 0 0
-45.834068679279 -3.72192754065293 -11.0557967634356 0 0
-175.005785223986 5.42550644880859 -11.6920870921763 0 0
-103.203147861295 17.4023623505555 9.19024478970945 0 0
147.831844278333 -24.8143225922917 -9.7568957206751 0 0
194.356753549846 -18.0341495373456 -4.5192442790291 0 0
-145.118667016353 13.5965047406762 19.2799636174269 0 0
-180.647499850058 -16.1488601550051 -12.3167049087324 0 0
130.851359410769 -7.29370441191177 3.70726373553826 0 0
-193.791988258951 -2.6413668893008 -12.7355647466233 0 0
-148.861228477896 -10.0364937629557 7.13073491777018 0 0
140.438594648021 -11.3341554414656 -17.5126234966505 0 0
178.014824308795 2.44958940537921 11.4577780020633 0 0
-189.980252232605 17.7531623713125 -5.91683252944275 0 0
-61.0580161209219 16.251838190867 -16.4766116266175 0 0
123.460560247729 -3.67562493268613 -19.1212435216443 0 0
-208.933148077969 -43.1086985946774 -15.4737074741916 0 0
153.582781727955 22.2957472393388 -15.9236575701155 0 0
-162.186899052853 -5.29154940044948 -10.5428679359947 0 0
153.69005131375 -32.4881343987208 0.921808426933429 0 0
-215.992027001675 -42.8981637044953 -3.0273534352898 0 0
-145.265846382418 19.2361118763388 -7.23376575271666 0 0
-188.010849087965 5.1137987519606 9.03436178605118 0 0
122.805115558507 14.1307283694432 8.14457283782489 0 0
192.958163468814 -9.3940449741106 3.87103347206447 0 0
7.44696651604168 15.313476260702 -4.78072587170421 0 0
-197.046722554643 22.140050996785 16.6779871308508 0 0
-60.179402726963 6.56333266612656 6.24701208990696 0 0
-196.575904588718 -45.3568916130187 3.92459730534091 0 0
90.4336144216196 17.1273721223142 -11.3096533089656 0 0
-170.039440507983 30.8412851552868 1.05892873317652 0 0
-202.862242480757 9.17131182485557 20.3053648053318 0 0
-91.3403301426024 4.04918939005552 7.61328308628947 0 0
-219.014823460888 -17.1783481382469 -8.93172887893572 0 0
97.3213300532811 2.88275092645954 -21.2514061060993 0 0
-145.251966020436 18.8361466609415 18.8893587618475 0 0
148.639241009148 -28.8329302714465 3.53240217981157 0 0
46.1818635401206 -7.36165670312925 -4.33172298248612 0 0
-192.453669562809 2.17497255307409 -11.2625573463199 0 0
168.709201335547 1.75084728942614 15.5963069762131 0 0
75.3983626111351 -8.94347539131152 -1.91815451129746 0 0
-111.24918246783 21.4810462662048 0.967470125954391 0 0
125.08011479299 -9.8459375169839 2.46403844702929 0 0
-191.046183523452 -8.48696722055146 -15.2559575109529 0 0
-177.95207884624 -21.8263309594277 -3.82947228477753 0 0
-169.110246359301 30.2889912309038 2.62266378130766 0 0
142.505834070152 -17.476433413861 6.07143090308839 0 0
-194.878182776827 23.5832564903545 17.0137181973005 0 0
-137.113953576218 4.11181601807143 16.6754046912574 0 0
43.6103937246967 -1.50048977969515 1.07614657927582 0 0
-68.5598960289252 11.9229180082797 -19.1740797910785 0 0
-44.6450809798344 2.64657055166425 -20.9686162369251 0 0
188.181338441975 -5.24942212656096 5.13085636039361 0 0
193.404405703138 -24.7091344158976 22.5369800082466 0 0
-201.71284939425 -25.5366707539058 -24.6153573802122 0 0
191.415702866021 -20.9566983413145 -10.2029501071115 0 0
-57.8755585079721 5.40230430796181 5.95109318225577 0 0
-138.882432826546 -6.9349131008385 -2.29730716046042 0 0
156.526754629603 16.5477783591681 26.4271711666491 0 0
-9.69706748410889 6.27571734994339 4.36534904704426 0 0
-183.557964638963 -30.9401357941916 -11.8498400191326 0 0
-197.907508433386 -1.25352806246545 0.322908016181579 0 0
-171.814356367674 1.53417518626811 19.6379353791753 0 0
125.086001328272 13.5840406443581 -18.7629793121073 0 0
-154.446588512675 21.4012613708313 -5.82948473411203 0 0
170.002962354484 -38.6813536757738 15.3519119395253 0 0
-212.039273221773 -16.6146151941651 10.3552971584941 0 0
189.573220183807 -5.79208757507433 2.84387732819076 0 0
162.47463435185 30.8524104336528 15.4812776677326 0 0
-119.003303800431 -5.27071041229923 -4.90291138903894 0 0
175.784891838472 -33.5911516152906 -3.17794805793756 0 0
138.644314768272 21.9432129364973 -3.11469317368444 0 0
-87.0223395192433 -2.82621693252364 -9.4616584475716 0 0
178.909937163357 -0.280630322858493 -19.9245496017585 0 0
-148.200961253651 16.3744923736936 19.6772737721713 0 0
182.682109961629 -11.3418350028054 20.966185525925 0 0
137.729739292652 13.9714201114638 10.6825372826538 0 0
154.369822260466 -32.0403627373452 8.51039428030236 0 0
153.023214224276 -25.5675576768562 9.17757369589171 0 0
183.592189942459 -9.91599797741632 -22.7530101134577 0 0
-216.621333131161 -20.0829274670807 9.01287499123809 0 0
-173.776269483923 -11.7437108210059 8.23757481292644 0 0
-171.027616144328 -2.03311397499941 -10.4667550964404 0 0
-180.568751923382 13.2934744826612 -10.3427094250263 0 0
180.019158676189 9.61912598650813 26.237507891637 0 0
9.71293590503378 6.16996444854009 3.3844575222502 0 0
179.054339740196 -36.376577306358 19.9537482309895 0 0
-185.032428800328 -25.6530175672434 -14.8018914897142 0 0
149.949999910065 15.177673345646 -18.9938992753105 0 0
47.9744443463993 9.07826433766321 -21.5200962083648 0 0
-51.1023324038835 19.952444831538 -6.38880634597444 0 0
-182.158266434844 27.3787917097744 16.24895204899 0 0
191.38834715391 -9.9217133036764 -6.50517223435912 0 0
-29.1557873848914 1.08583031999796 3.52454655417882 0 0
-173.382107922394 32.8694696797615 0.445015898493441 0 0
158.632476529388 -14.2035239370665 -19.9113684871659 0 0
40.3230931511751 14.2076272100433 -17.9421945216567 0 0
70.6230047695373 16.423900857468 -2.61637565930511 0 0
182.009837957053 -34.8553254549734 29.1172230089636 0 0
-122.44586736242 6.53394736834766 -13.2624665876522 0 0
38.9319074693619 16.2537734098138 -8.58349305984433 0 0
162.112367232412 -5.50451541968775 13.5682065707168 0 0
146.480504952145 -16.0599292197383 -16.2500922783342 0 0
140.057291641329 20.5474798394518 9.27643917434847 0 0
-204.354811442794 -41.1788973794419 -19.2453156581386 0 0
172.864889639569 6.47309111983421 23.2692726397981 0 0
4.36997528520943 15.1338730765547 -4.29018940502922 0 0
160.004368539671 23.8616959323741 28.2410173919293 0 0
5.16387165530856 -5.86375615752787 -10.5961782883988 0 0
-184.505152903782 11.4193372759751 -12.2816925899051 0 0
7.43284221054195 17.1080358703739 -14.4829331302007 0 0
-191.228622944129 -38.8281323511917 9.5367109523212 0 0
-187.642245568654 -9.30584004031228 9.73342687134717 0 0
127.869959611651 18.3077653054782 -13.225812213611 0 0
-152.839629113403 -9.32303481094584 1.52141210735607 0 0
-175.923479470097 3.26428175774826 21.3094180050303 0 0
92.4206546684375 -9.44793466092436 -0.395431918239301 0 0
-200.240012192967 -6.06166070595794 -0.163970025086281 0 0
169.812841275789 -6.33811820017308 12.4046028918569 0 0
-215.134397408514 -19.1758204394535 10.4500050339504 0 0
171.678995987165 -0.640050386333278 12.5600319676501 0 0
-208.635124485477 -14.8371161074256 9.87921549817676 0 0
100.71215583422 17.5026585789258 -10.9914242952033 0 0
-73.8849404644009 12.4040773037668 -18.5661732934074 0 0
-222.537719953218 -28.3598787325033 -2.38740544242814 0 0
7.49731117131931 4.24072782793659 3.63044423406194 0 0
179.516345612465 30.2686197890568 0.936029917888175 0 0
169.790606375834 -37.5157642596534 0.413380292537432 0 0
173.01294959899 -33.6892068233109 -4.53029970235073 0 0
65.4383469741488 16.7259651751084 -9.9635741439331 0 0
36.6407551152812 12.1317882634152 -20.0215444947295 0 0
129.893956907415 20.3041592923362 4.59033275820511 0 0
-213.889254792074 -14.1504050643489 -6.07199794921749 0 0
115.386149331213 18.2332027805201 2.92365069878559 0 0
33.8831911382792 0.417123340805393 -21.8532152282126 0 0
-106.67324161325 19.5994421696886 -7.96204021555979 0 0
114.63340042427 19.0079552275869 -5.95417971738963 0 0
181.035395768171 -18.4815827198237 -16.3757679019868 0 0
187.312202636256 -6.32148462344902 -17.8047800071335 0 0
-165.221791050453 -3.8253961283405 20.1599340301493 0 0
171.544387999184 -30.8724108922103 -8.96597417534854 0 0
-110.387320034799 19.3489161672119 8.51422938166661 0 0
-75.8859850733582 13.3635811830774 -17.8895903833185 0 0
-194.751261042753 8.6096031163965 -8.28640953967798 0 0
178.997702778507 -11.5928949759105 23.3291266914713 0 0
-188.016730592947 -0.490231529450054 9.61945325200866 0 0
142.215259780419 19.780256316745 -14.1754363143981 0 0
162.935489343282 -27.866618048547 24.3257110134816 0 0
-157.602184279335 23.0380331218191 16.1431057958181 0 0
-187.297605785265 20.0223583307337 -7.57929982582578 0 0
-70.8381456774009 12.6848656195927 7.32927890445623 0 0
174.895510276868 -13.4274112718973 28.4372794307021 0 0
149.711289465136 -12.3986897425064 -18.3603111576677 0 0
-137.908191436048 22.3452389751706 5.55068087833402 0 0
126.75302343894 17.5942248472367 7.65821956664903 0 0
115.069527374461 -3.08454499316971 3.25703913654904 0 0
180.754468809924 8.80286524711431 24.7556250250932 0 0
196.953645893822 -18.0643483398283 2.1559387106679 0 0
-203.970578586228 -18.7034360643629 -22.7389699700681 0 0
-69.8498850992851 18.4504229058133 1.07147314663042 0 0
-141.439682592354 7.52296861199552 17.9426933587273 0 0
-81.0074894339944 3.57171574768141 6.29128445149114 0 0
159.452232164448 -12.0669436546185 12.1983392408376 0 0
24.885996269066 7.53275103984249 -22.2683855600623 0 0
127.562144548059 -14.9152680631245 -14.5005353141163 0 0
-73.1840667999149 3.34130135090076 5.5853533940825 0 0
159.47302572543 4.62959216239587 -18.2177422712741 0 0
6.15711027198766 16.5220364640879 -16.1926075666463 0 0
135.516452303223 -23.2706767860011 -0.331743231521624 0 0
135.285126244343 -14.3698161914062 -15.6562764882176 0 0
-191.720588097889 -28.0213638604567 -21.337962197571 0 0
-193.378546508335 -25.2239038504175 -22.6808591923884 0 0
174.686644422873 -12.2561648495661 26.6566626014045 0 0
0.929875921562409 0.271175796567602 2.44778461536926 0 0
-129.91346051253 16.6164404955772 -9.6707994664632 0 0
-85.5782067955391 21.2007094815934 -2.0468112671994 0 0
158.031708310129 -36.9376472964735 5.84942349219565 0 0
155.013202028943 -34.9184571681753 5.22138590694094 0 0
134.559723015409 -16.4128058558578 -14.1159902432012 0 0
187.678179666763 -15.1374038745973 25.9327474442212 0 0
98.2244561378761 -13.5657288962139 -12.8998659712383 0 0
-169.990229986988 28.9696953386974 -3.78566616135827 0 0
-152.42670725734 21.1986403307038 17.6820778621305 0 0
-122.455258070725 12.4277912298921 14.0341483156501 0 0
-84.4589914880545 16.635535570203 -14.5014338001418 0 0
188.501002183799 -16.7513835226064 26.6896007483081 0 0
-192.693135655481 28.1364246280146 2.9656478192739 0 0
6.59881577969831 16.8733158542053 -9.49002888490778 0 0
146.021592460474 23.6327769338131 -1.4766211664081 0 0
-85.0997305827599 17.534419688113 -13.3264868204042 0 0
147.16364578467 -14.3885902707799 -17.2645696073646 0 0
180.727658324288 28.3651748334512 -7.31709489398623 0 0
107.849712004277 14.7515093861374 5.88987300881156 0 0
-19.6692472407174 12.1548152592984 0.393194989191438 0 0
145.137859233076 -9.91306019070435 -18.2689122376783 0 0
-151.727716507907 5.38395004659363 21.4250411849798 0 0
173.194214997989 -20.472932489617 -17.161112697588 0 0
165.280611540558 -25.7546259740684 -14.0338842223781 0 0
-56.2518331823663 10.2225438976571 6.65370918541028 0 0
-7.27198753134943 17.8129385630601 -11.8815627057353 0 0
159.601278079674 -26.7158994380967 -12.7024372425966 0 0
-11.3501418225592 7.84711157477799 3.66787006602811 0 0
106.958382380558 -3.30684788919289 -19.34132543294 0 0
109.372632106585 -7.66570529494709 -17.7544800430995 0 0
120.09736206498 -13.0940916873561 0.948208949457451 0 0
184.555640970695 -30.4299773278373 29.6325591342345 0 0
179.744207110243 -11.0835384660661 13.6666060015062 0 0
182.392203216779 -15.9397483782576 29.7927725918409 0 0
161.856522851256 -27.1584493632874 23.1580601650352 0 0
159.524122852861 26.2626533426074 -11.8028517106118 0 0
163.33846033639 24.1361101439904 -20.2023441647389 0 0
44.4163592090544 -6.80278546496177 -17.2917904010514 0 0
-197.099290890478 -14.9936559795973 -19.3501969931658 0 0
158.681068474206 24.4369668271824 26.4879004121272 0 0
-200.9107586776 20.3893201771155 14.9215159383651 0 0
-142.338167176271 2.67869524809446 18.6191714287198 0 0
-167.138942890455 0.54191824821929 20.501645086772 0 0
-116.000937316141 -4.47432520155223 -6.63941193759871 0 0
182.110934944373 -24.7229082969217 -10.5666238281567 0 0
176.399359380833 28.4142795388526 -9.94105519574969 0 0
-142.231568440834 -10.0761948427833 14.3772863021211 0 0
-191.792186218406 14.6083515040061 25.6789611473058 0 0
151.347383054817 -6.76157864590375 7.98096160140401 0 0
-159.394591001567 -7.2199814480738 22.7145541120547 0 0
173.856782101819 -13.426643667921 20.2629636771401 0 0
172.708629836811 -25.5214690190489 -14.015521295981 0 0
-84.3620509664895 2.70922594125321 -17.6173586526014 0 0
-160.688808458341 -12.7890029033855 11.7838239772361 0 0
171.71202166018 -12.0967625143431 15.048645342748 0 0
-155.355150957971 1.50989689113399 -9.50931993079452 0 0
-139.318173326928 4.55533921361977 -10.7381760930697 0 0
-28.0824150334831 -3.55777315702635 -6.97474110024495 0 0
186.955575251844 -21.4811496235452 29.2889141025023 0 0
-171.241996236684 31.1061856731898 -0.817243585925969 0 0
-183.400583536189 23.1756172413626 -6.37467331935981 0 0
-198.24925768834 19.6138149397938 -2.8597840766657 0 0
154.160188456873 10.5667164068878 -19.410300936609 0 0
97.802780866863 17.9623467761068 -7.69806357492873 0 0
47.0800131463093 16.3413614915289 -9.10818973389856 0 0
91.2445462495922 -5.41559576331649 -18.758562105981 0 0
160.284854657651 -4.9053798394968 12.6528444579133 0 0
-197.151999694609 -45.5068340477749 -10.375109799523 0 0
1.58890710408503 15.3963234872706 -4.65402538390952 0 0
-201.156014908426 -33.9471570023536 -23.276534140577 0 0
-144.124424995949 11.7962798125181 18.8844403914003 0 0
-16.7467040461589 -2.56215892800405 -3.45012356512341 0 0
-20.4273514022014 12.8530988744611 -20.3483566154072 0 0
118.981330971991 3.78560291393568 5.39354649289123 0 0
174.043831080518 10.4258747258564 -22.1930639768112 0 0
144.269381271834 -4.92730064286146 6.05585780772118 0 0
132.254639635993 -12.4861864523058 3.0988803716293 0 0
-76.697844107468 3.90261159846837 -19.024761522335 0 0
113.97646587359 8.71364770037004 6.38373346256028 0 0
-156.306503120455 18.6713824836234 -7.51194484782417 0 0
186.31299380353 -28.0249541362732 -3.59125961636562 0 0
-199.821892508308 -46.3656030483254 -10.4827923989368 0 0
-174.417201708603 -2.10972054853498 -10.3570437327409 0 0
-216.498511767868 -18.0088670983637 -14.7312892014246 0 0
150.900380619673 20.6056657991589 -16.7717843544049 0 0
-42.7157190895711 0.45651161857112 1.85928787452616 0 0
-150.088309065531 -11.7705522054866 9.65997991264157 0 0
165.310196933845 -29.2611219725823 26.3964980807647 0 0
77.7557207499383 5.48082042483327 -21.9099796427644 0 0
-209.107124967955 -9.41219548325763 -9.44662409528987 0 0
142.669792750825 22.8144003833861 -0.319264779642448 0 0
171.310920506477 6.66572003925053 24.7039521734413 0 0
-161.01945147951 -12.6886070080317 5.01886905279444 0 0
182.927960433044 -8.7653425199666 -22.7632573860381 0 0
-37.0291234758344 2.47078762812773 -21.417591552004 0 0
85.040076682409 -8.68516525058097 -0.673766604613211 0 0
188.696179013129 -4.41819665953762 -9.01705596228106 0 0
19.3841424710831 12.3805454620192 -1.2271787474866 0 0
-100.108954979177 -1.55026643311676 3.86440081404703 0 0
187.230317196335 -19.106170575052 28.6860795251006 0 0
179.435200832495 -34.2269829686156 -0.0858665354544429 0 0
-113.03203994806 20.1288619203843 7.70530877186137 0 0
-181.079029773564 30.0833426283721 13.1066542722695 0 0
184.873106334684 -28.554838870327 -3.686716758926 0 0
-146.950876661372 15.962948693209 -8.78419377677366 0 0
-48.8501930258017 -3.63001352146533 -9.71162659694172 0 0
-101.451951487939 11.8398858497876 -15.7146683719847 0 0
-70.8819463573735 19.779746176663 -0.880236555104901 0 0
-140.577876920278 14.91812336871 -9.59442450081023 0 0
170.067827061688 -35.9197096516331 21.1485443965699 0 0
165.402580240264 28.3835408645086 -9.03239701973327 0 0
155.1265540987 -13.9506562807561 9.99931175429111 0 0
70.8471628466743 -11.2641268850213 -12.4095822004649 0 0
-131.433244427597 -4.98791192805829 -7.168376769064 0 0
-206.530388368251 -24.0788595028618 15.8755521880912 0 0
-154.885454893946 2.63192894014925 22.8921058930166 0 0
-81.5351055951949 17.0252267388142 5.80544671189045 0 0
-150.382162848183 1.21309999049577 21.9857596126261 0 0
-209.224522823074 -10.288077369315 -3.21897390231456 0 0
-170.986077128958 7.16146391280898 -10.0988525003256 0 0
35.0250849399887 3.67259137737417 2.66787110720153 0 0
24.697204553849 6.06248283177047 3.08759899835547 0 0
184.510794459495 22.7128238158802 27.6890461729842 0 0
184.640543307615 -31.8057669639711 1.69684040871435 0 0
-193.684160596869 11.6837730219003 -9.89116027759611 0 0
-132.004223264207 21.1157155487696 -3.66795789318084 0 0
164.311433643334 -11.9596067233343 14.959113295832 0 0
166.913808805571 29.595698873579 -4.78430104751217 0 0
-108.762149824258 17.8470437997374 -10.420863017602 0 0
176.724882529967 31.0217744675448 12.9834101372759 0 0
144.549106277061 -24.3845191331459 5.06842811765237 0 0
59.9627580001708 -8.43123798236258 -16.0233433903364 0 0
-112.520189114743 -2.59765700260071 -9.80755581209021 0 0
-33.7948595063858 13.9374219591825 0.0817483972934513 0 0
-118.133357152758 19.0480777049064 -8.01129198429901 0 0
-103.93439689223 -1.61605082224533 -11.3365744285968 0 0
165.282943267616 31.9849242265657 3.7420586828711 0 0
-186.202348339897 -32.7656092772985 -15.8850965731773 0 0
-15.6317054164897 18.170002692083 -10.1653598689971 0 0
176.347524464471 -12.290858103508 27.74086777072 0 0
-17.6495302532135 15.9106628300237 -17.9455707971836 0 0
183.824774783042 28.0592878494151 -5.48298385839149 0 0
106.66589479762 -1.09261282168736 -20.0509196213927 0 0
-118.917725081382 -2.29884847431701 -9.94352776525852 0 0
119.989250175938 -15.9643951305991 -12.6502386816453 0 0
56.9765828540784 -8.82373116709067 -15.2753814679463 0 0
173.035369319422 -32.4765529179509 -6.50795209504941 0 0
-192.949891820294 12.033327003142 26.2145366498801 0 0
145.752239063441 -11.2857647092844 6.64748820052144 0 0
-162.498208501278 -8.38675500190582 18.3981893987575 0 0
-41.792397043417 19.5926835985176 -8.83665361640342 0 0
191.269164084677 -6.53403951283935 -1.56813166520501 0 0
164.132545832089 34.1297699675435 12.6943196454125 0 0
-190.903576794654 19.6147424638951 -5.67891822417478 0 0
148.533327012269 14.6444478938624 -19.1050133385929 0 0
136.280186219862 2.89667398950957 6.53362865250835 0 0
-184.409789619589 -31.6258613465444 -13.6969948298951 0 0
100.598771176748 2.26717815677177 3.84355843981239 0 0
-192.919910068862 -18.0148243123826 12.0151676362307 0 0
-79.3276729065541 4.81666292474115 6.96371972950219 0 0
5.58167400080965 0.273475591944374 2.32752259287264 0 0
-95.4814546984708 2.81196693012112 7.31190482076637 0 0
45.1456324211728 8.36798585051998 2.73251095114056 0 0
194.588954612061 -10.9436350985245 3.37980044678682 0 0
184.75613127091 27.8526351360023 -8.26871296212773 0 0
-146.801305043427 -13.7245031299404 19.7635586652531 0 0
-78.4671874666965 12.7278870708322 -17.9069192376278 0 0
-160.049227244605 12.7373952821827 23.3171321705254 0 0
-40.8509010305469 -1.38428826456262 -18.3657788873096 0 0
-192.486961157232 15.1501542009061 -9.18368999502166 0 0
54.6183472564204 8.9376418373559 3.08397232690677 0 0
161.610839486546 27.9254419609627 -7.10015814556815 0 0
158.592804181604 26.994595044562 -7.9806307763621 0 0
175.499306302292 -17.3275829709605 31.2595056514045 0 0
155.821284107529 -19.5974421055739 -16.995000433722 0 0
-41.0266191085151 9.31527312183682 5.20241459500488 0 0
132.453499679783 -21.7152346009446 -0.260037350071728 0 0
166.240006707288 4.13856237055745 -21.3029705984707 0 0
190.135320023158 18.5688780303357 3.42709150268496 0 0
-166.894698755879 18.0962017657224 24.1073382673786 0 0
90.1534458248024 0.238212876942264 -20.8880774350727 0 0
-154.804464407953 -11.6842166406017 7.09711258759052 0 0
176.897768235325 3.50412523350738 14.7495215767089 0 0
67.1590249274572 -9.32655582780996 -3.4594544213702 0 0
105.615062210896 9.88838755363706 -20.7214653531404 0 0
155.95092123182 -35.3619362334598 4.13492673275631 0 0
109.320371414504 13.7357221260028 -18.304988656305 0 0
3.64483720279412 -0.819907966757557 1.00755161271595 0 0
-132.725491862213 -4.01122223563038 11.3299351400154 0 0
164.334777078275 30.9970537195403 17.8954759536523 0 0
179.049420957609 2.40730562050243 9.29262886384029 0 0
-37.3288739642929 5.18692213103934 -21.8399069968719 0 0
-133.850367760985 4.92341881270458 -11.4659561069718 0 0
-184.834876932927 -11.7732662025065 9.14866995699981 0 0
176.17055021294 -26.607664445666 32.0111826972273 0 0
148.444494152157 5.15610087470775 -19.0476849063608 0 0
111.849090673643 -11.6973785483442 -15.6080900882418 0 0
178.321452214293 -35.7500585769931 29.1841887417556 0 0
-92.1579470754043 6.15882360577924 8.39095442793736 0 0
-109.263261876546 11.5182486030964 13.1467657850494 0 0
69.57826874132 -10.3474583370563 -14.1419204904325 0 0
-146.013569990349 -8.72383810482584 4.96872523683534 0 0
-188.536595011306 22.7091791009913 -4.22094292902689 0 0
183.383484449261 -33.4342624820146 5.23756403638267 0 0
137.539591324666 -22.061619729223 -8.70945543028006 0 0
0.266700530028682 15.8735940160937 -17.6803159485624 0 0
148.122217128856 -12.7428731856705 -17.9624647497448 0 0
-7.58170230174837 13.5742722355205 -19.907506054507 0 0
-107.198762877612 -3.92685183980245 1.46156293273341 0 0
-5.45824644034977 0.712216424313387 -21.7291038290134 0 0
-213.582129176746 -37.3184088423338 -17.9928761600355 0 0
183.281972142627 30.0206541280772 10.1771847129159 0 0
184.741141552926 4.36214918163932 5.8723714031245 0 0
189.217533558999 -21.2902528324599 -10.8289302568464 0 0
-50.994421822893 9.2360547905265 6.31806756596081 0 0
-107.03229362757 6.50789614307901 10.1910756571896 0 0
-74.0318127839199 17.1962958176434 3.89662584852328 0 0
-7.48994702227888 9.82396717742479 1.36614414292793 0 0
-127.553420551356 -6.57483783307878 -1.97877627708936 0 0
-105.938804314018 -4.4861672566289 -3.72004299074756 0 0
43.8647135649503 0.868378980240208 1.93954621352259 0 0
40.0448648253428 -8.00954928790887 -7.70212959236165 0 0
182.149191279935 -30.4618245856877 -3.83818401446302 0 0
-164.35833001854 -7.94900861387287 -9.18921069975263 0 0
164.785288516825 -29.4952436334745 25.0705556123342 0 0
-137.138957599347 -4.80961207163597 14.581645835552 0 0
-202.214561240139 20.0543846680436 11.0783770896007 0 0
158.725252801569 -10.121870552371 11.1248739494081 0 0
-46.7929356029682 19.1947741705965 -5.30900940435093 0 0
-178.514885883789 -1.81281325333816 12.4486444002047 0 0
187.729215822441 13.7271691061216 15.5013539807021 0 0
-186.794968668568 10.0892747489502 12.6611855946537 0 0
-44.1891791670938 7.24877647484625 6.36877799343014 0 0
-8.07855926600331 10.4334049490313 -21.4102693906519 0 0
-146.462811478777 -9.6216412801971 8.36386524215096 0 0
-182.174171147171 5.75213503361034 24.1626522773684 0 0
-196.69476082208 10.5515715068342 3.74668545725487 0 0
187.203950501966 -1.28677432379946 -10.9002965971633 0 0
122.750318474682 13.4460013199219 -18.7754969115714 0 0
-98.050036774607 9.07885189782417 -16.829880050489 0 0
-205.424312425422 -12.8857304815406 -18.7749467691499 0 0
-175.20085912287 -0.00793437402578091 -10.5732656217093 0 0
-199.279524166399 -28.4029403261711 -24.3365709475718 0 0
-44.6864612935589 8.86642663456685 6.07720666614104 0 0
-60.1279523410909 12.0471758457518 -19.8230618205763 0 0
145.10858804891 9.39810434670732 -19.6063010503198 0 0
123.560604975469 19.0270512253673 -10.0826297602995 0 0
-53.2252898086468 15.1546285335075 1.6692000860139 0 0
-144.92412325524 -8.01560142771691 21.6804761767494 0 0
-182.542599802434 -29.4504971645247 -8.66898519091095 0 0
-197.101962778491 25.3501274783801 0.636678050020241 0 0
128.029056264683 20.3338245827124 -0.174980953382649 0 0
-217.155875324527 -40.7276902676258 1.08235195464548 0 0
-56.0933790045915 4.33588207721855 5.45707011334921 0 0
-191.772351701962 -45.0564850784609 -5.02049274484706 0 0
183.655857464634 -33.1325797606353 29.0639996934004 0 0
-158.252281216985 5.7609579041152 23.4067205614381 0 0
162.970291102497 4.83066428551057 17.7728618832934 0 0
-169.072501793534 -11.4630259908014 -8.32982370005722 0 0
-194.310219594998 3.81634106124033 23.6721178030169 0 0
-176.89573291233 3.17114197741235 17.3480478180796 0 0
177.445236390581 -11.6738369531719 16.1122817044907 0 0
-65.2536166441455 2.71981036992353 -19.6870107078872 0 0
-185.6316028193 -23.6075441181069 -15.4207393458151 0 0
30.7803857675492 15.7417288049372 -5.98981995276037 0 0
162.661322585973 -11.5646624144615 14.0630517162132 0 0
182.170358310023 12.4796524039499 26.609675464022 0 0
-194.316475016016 -37.7060543843947 12.5240636984471 0 0
194.601486752964 -15.8128331017239 15.7741033868071 0 0
-183.756424124165 -1.94745445795985 10.4641969364085 0 0
159.147156800129 0.449702344877243 12.5691235882549 0 0
-154.905734512001 9.02253349572756 22.0690106115669 0 0
-84.9504075738809 19.790476960543 -9.69023526475775 0 0
-178.38869730225 -1.29179980252538 -10.8116399771872 0 0
39.7826942736636 14.2859271313064 -2.38515876470584 0 0
132.642675820034 -10.6230684641403 3.51885675639002 0 0
-194.663489897316 17.805101356449 -5.17666967151421 0 0
74.0976321243024 5.72087680675111 3.96669947782351 0 0
78.4955265480167 14.3635370663267 1.87013741946176 0 0
180.382599224781 -33.6675072209396 2.10155246177026 0 0
38.8299130594216 15.8738995827308 -6.19965289418774 0 0
178.10480299951 -37.057114072342 27.3635390027733 0 0
29.3276166737583 -7.36590729389798 -9.11808367876727 0 0
172.294314037483 30.9888318824398 -1.99592485866191 0 0
-116.872219881435 15.60779476159 12.4883520102731 0 0
-187.018572036445 -23.7645459656125 -17.0891062665878 0 0
165.664808728111 10.1951059719093 28.7295045633042 0 0
162.032683653067 11.6517561834405 -21.6050400080404 0 0
-30.5600667438581 -1.14893087342625 -19.5984300591941 0 0
44.6153456258513 16.2871751586035 -8.52402030883928 0 0
176.029058312052 -36.3567460219274 28.6992867953779 0 0
-141.162003659494 -7.46213675474598 3.19453192918102 0 0
-178.842699894968 27.7428683770226 16.2038128654248 0 0
-150.251215497709 19.0598221878156 19.0352103146386 0 0
21.8729832606219 3.26759305891171 -22.5920034233608 0 0
-199.308695816028 -26.1992308870894 -24.4871282934873 0 0
-164.157108838225 26.1957157780024 14.1677807249405 0 0
164.73283699274 -13.2314441441839 -21.2662050764009 0 0
-190.120725354146 9.92956553345505 13.7714768416076 0 0
157.672953413902 -23.5486547786797 12.2782829275273 0 0
-203.520498476151 18.0226250327205 12.0939277556825 0 0
-20.8167821141089 17.0025399079156 -16.5681997447333 0 0
108.390954879067 -16.6367526755109 -5.1660896269483 0 0
-200.752417511155 -7.82199073740274 3.48950446688549 0 0
-84.7137343526609 11.4563592037279 10.1946000111115 0 0
-188.323301084455 -32.0760681491244 -18.383234415882 0 0
-201.086229010603 -3.12512094879557 -3.04603154129908 0 0
67.2177715347125 2.30711164716072 -21.9539274603524 0 0
-21.8253103811564 15.7183792671306 -3.22570917033423 0 0
-77.2234961562002 6.32234477650099 7.33912285843118 0 0
129.575322807374 -3.0467767725565 4.31556757687834 0 0
-146.039036733436 -11.0725863072402 11.8690187381951 0 0
12.7680568172151 9.85716418958618 -21.7340334760344 0 0
158.831834890407 -16.8281056167155 12.6077098321378 0 0
172.023532446062 33.1080100328256 6.55978996641503 0 0
-131.428793923764 11.5389889540823 16.0337205362145 0 0
-197.909502987926 3.7361925261877 -3.95884987907476 0 0
180.077646572158 -10.7624965545715 -22.3888766904942 0 0
-202.805589911288 -16.6141931209867 13.2393630997328 0 0
-195.196327023859 -10.8328190537598 10.0103408835248 0 0
-145.091281455142 13.7267306081818 -9.51604984062496 0 0
-186.153648552767 -22.960783382132 5.98313213700193 0 0
-85.8132599632359 12.776468105656 -17.243619009138 0 0
190.834158863302 -13.4716326134311 19.7852437488598 0 0
-110.566143865351 19.3775821365405 -8.02097033299567 0 0
-34.8789005891528 1.72986445721307 4.30163294273793 0 0
127.761759526935 20.2652261086899 -1.96940389484233 0 0
162.67282780965 34.2920708447566 11.5790126075497 0 0
38.0090321304873 13.8026140007115 -18.5440755440352 0 0
130.038797233028 3.75115506264029 6.14597477088304 0 0
176.63188607162 -2.55827963143075 8.38145759662777 0 0
188.374003907028 18.7269751871736 -11.084291560652 0 0
161.102076594431 -27.3635070429461 21.5232109757514 0 0
169.493971450675 -39.3369907845403 9.3518310089326 0 0
154.363648618387 -0.304944338662955 9.62932082201834 0 0
-201.715123809388 -9.75397113037332 5.68933300230907 0 0
-162.82567658955 3.9381361973385 -9.17273335707472 0 0
-199.447860774592 -6.11900811349073 -11.9972610362917 0 0
-186.650241305637 -38.2748753960218 -12.035661303829 0 0
150.600182972931 -5.32812049776384 7.81933711492702 0 0
-30.7011152274776 12.7390310401101 0.835985913719186 0 0
-191.450758630723 28.7206766419433 3.87420842185858 0 0
88.9539184044022 10.6260250541108 5.01767977678108 0 0
150.346244599027 -15.5212149197856 -17.4408229116428 0 0
4.05919509316949 7.60526781071436 2.97784213529 0 0
123.58612615746 19.4308366927572 -8.07010311406573 0 0
-219.288761537709 -20.6712292847323 4.65836910849973 0 0
129.749798788423 -15.4491830711287 -14.3009407248625 0 0
181.946011158308 4.05204816321236 13.2985531224864 0 0
135.186581035582 21.247782756454 -4.23100201128116 0 0
-164.804357862036 -11.1631202673588 10.7656735295684 0 0
-98.7305763511935 15.9158570862778 9.29122038109805 0 0
155.777158411413 -30.6512724879234 10.021702642275 0 0
82.0135473136914 1.16804862014521 2.81537116939447 0 0
184.83783731372 12.0083842786033 -14.0296289881373 0 0
-202.207140163418 16.143885364456 1.72638474642877 0 0
-213.86552541447 -12.8701024615926 -12.4632222295691 0 0
54.4940271611245 -0.159519755555609 -21.4726240817079 0 0
102.992220649219 10.0894205070804 -20.6478213711363 0 0
-55.6969270106594 8.95119845618587 -20.6534971217277 0 0
122.82829973361 2.17224419769034 5.1863712712682 0 0
184.482289513118 28.8465819719117 24.3192796745647 0 0
-155.990406476732 -3.85593538380081 -10.9296195355491 0 0
189.119544391615 -21.0926752240569 27.5217273527329 0 0
-85.9095187490498 10.9573066239716 9.36630368403051 0 0
182.848396887298 -10.2349888966156 11.6406542899323 0 0
-55.432448340532 20.5534474365109 -7.53443086754844 0 0
154.045907290443 -33.8900984418435 6.6742642358761 0 0
-125.812799664454 6.20535018659402 -12.7649800959068 0 0
-116.963882709337 -5.39535304596279 0.656858321765574 0 0
182.678899754694 -32.7361796750999 1.39313267514156 0 0
153.495963939708 -32.374696896985 7.17272543958198 0 0
-54.6481724134127 0.296392418686752 -18.9595594112734 0 0
-218.557882199427 -15.3462962472929 0.463498722236061 0 0
-199.268687404533 -13.7088454827179 -19.4776648691038 0 0
-218.263119149005 -19.0293244727553 -13.1144201100855 0 0
182.366212434757 5.00975035986371 15.8681099381001 0 0
-199.454846679752 -12.9705419601263 11.2378107001192 0 0
-159.944729000477 -12.8933448959017 16.6921387097142 0 0
-190.186837906967 -22.6814752636047 -20.5503473308468 0 0
-190.992940248083 -5.02839800641728 9.31323348940225 0 0
189.525374946046 -13.185618971193 20.7649217835315 0 0
112.157820667662 -1.12903910814621 -19.9137305557428 0 0
-3.02324848220033 -0.902399943155865 0.471325881204001 0 0
-6.37591298681042 3.63725294773174 -22.3417178830466 0 0
-35.4107916696172 -0.0688762318774046 1.00008004852378 0 0
-68.9255278026679 15.6422554507531 -16.7284231442137 0 0
186.23440698394 -23.9264187942474 -9.83304245172187 0 0
-104.94508802132 17.7186868285409 9.24529269425372 0 0
152.191602631266 -32.2402381943273 4.26235319947152 0 0
-101.819402841084 -0.526126983532179 -12.8180979526781 0 0
-110.928242537482 17.4786103383467 10.1426924649708 0 0
-15.0435554154909 9.51834549610154 2.2720342210459 0 0
172.351185768258 -15.3293422769887 29.178012059422 0 0
-70.0827905034702 -3.20855188616162 -7.68688604601465 0 0
-133.377676181645 -4.71910979420885 9.72600710730546 0 0
78.2799737884906 16.5845558928406 -1.45500693255599 0 0
-86.9881804762826 16.5046531841081 -14.3538284565296 0 0
100.809175547219 10.8319005145107 -20.2859325351355 0 0
-155.61273889903 -4.21061793325544 24.2215116576308 0 0
148.555911320292 -21.8771337672829 7.42809629260679 0 0
181.247649875926 4.33427271862163 15.4685112870003 0 0
-202.121262656792 -9.10612950689891 4.37080617824411 0 0
173.661135281427 -37.8540867643173 12.9965791094943 0 0
-192.294733020306 9.11126540834249 13.0542481458186 0 0
180.562143279817 30.7485105489363 7.22642649804514 0 0
133.094244956156 -17.8981777487671 2.04530330924735 0 0
-166.151311921124 17.7877455204077 -7.85372314140936 0 0
-36.2801948305904 -4.03350688303039 -11.6436383120858 0 0
-136.884356405651 -6.10625917828424 -6.01541069393412 0 0
-2.70367434408984 9.7810800835543 1.13677749963473 0 0
170.965332010896 -12.0248547949206 -21.5148836390485 0 0
179.52516752173 28.3504687127659 -8.09624101779256 0 0
-68.0937357766742 5.3580091228625 -20.236521493445 0 0
-160.494704872444 14.5106720665552 -8.53914185017457 0 0
153.603441232268 2.6639497385542 10.4562845498295 0 0
105.631232355559 14.8204421013053 5.44296847635742 0 0
-173.515607032446 28.8099510923642 15.9800663897637 0 0
-104.729719194948 -4.34651275367661 -1.53354638686885 0 0
-175.488223573854 23.3182213138837 22.2446723946403 0 0
175.354846878077 -37.1697347713801 13.9962582634633 0 0
83.0208540115083 -1.2410248345634 2.11925072349403 0 0
-199.564407885327 18.1550288012894 -2.53012763092963 0 0
-182.136174971507 -25.2595261902167 -10.9055242472739 0 0
-177.966834475311 24.1763656844769 21.3714378095425 0 0
168.232753267971 -23.5810401500357 29.7199677915124 0 0
-183.346002422874 -13.0357395372327 -14.2913153759956 0 0
-220.639831875445 -19.4109414105038 -1.34313759081496 0 0
182.832667188696 -11.537387471631 18.7872210237692 0 0
169.471276763578 31.6275714718434 0.0963051664302707 0 0
-174.038151564037 -11.3835445552349 -9.81442750871743 0 0
-98.7794214470869 16.9628364190838 -12.4371946253627 0 0
-199.76846121579 -17.5154899470161 -21.9989599893554 0 0
-133.30097822537 -5.17342298408238 7.64188257292111 0 0
-217.059887489909 -21.3131517254424 -16.3398868127989 0 0
-180.989249483678 27.0798595775384 -4.53567213323076 0 0
-156.399815438124 16.6616460743019 -8.0827964088944 0 0
166.211959571707 17.846381623225 -24.63898702471 0 0
142.646777596537 -1.09396213213711 6.36665193810674 0 0
189.84976134888 -7.87586338639769 -8.90900886101938 0 0
20.1867662982832 7.70819689487957 2.47899208963578 0 0
-42.9302772739205 -2.17777742841033 -3.77630929051401 0 0
178.190009907012 3.40206967214397 -18.4421666586665 0 0
46.1400722050501 10.2474831797044 1.38973025006405 0 0
-210.16444928573 -12.1480171566411 -0.71745094122486 0 0
-64.0107004186749 9.59591529465012 -20.108868057384 0 0
-203.045416095826 15.6089403420405 9.16211866699433 0 0
165.216959249028 -15.370654144086 -20.9223805564801 0 0
32.1651472497882 14.8392919600745 -3.78314000674081 0 0
-194.649390240369 20.0536405907241 -4.15186568546644 0 0
-218.901827255494 -38.5363825879339 0.585281101919161 0 0
148.672253357887 2.81000158679352 8.91147087334506 0 0
-134.007886832268 15.2324602104353 17.0505259288996 0 0
-186.855602433871 8.76876349077391 25.8552015256533 0 0
174.258583474791 -14.7259777828466 29.3321277509955 0 0
-162.830963196036 6.9607970201824 24.6642545444943 0 0
113.32079795625 -9.92470608928299 -16.8309194238251 0 0
-57.6520308032228 6.07693955578306 -21.0151945388134 0 0
