"x" "y" "z" "f" "a"
51.7428111665794 9.1575742633312 7.07004448230778 0 0
84.2176684373525 3.50565719614907 23.1813418803412 0 0
96.7614672948955 9.60973771739955 20.8082130378669 0 0
16.010787314147 -2.5531643844067 -6.40449062337247 0 0
-55.8953294258142 -14.7481678156348 16.1853828405736 0 0
-193.753891918962 4.37104465483092 15.7297178233758 0 0
190.484793545633 11.0991846523192 -24.8703442933317 0 0
179.378065932442 -27.5375202163319 13.3131682982744 0 0
190.739880413146 31.4968656135035 -36.4986115416422 0 0
195.096866994806 10.518485090941 -17.5448078612927 0 0
14.8569954109533 -22.3035568992899 10.0030562362476 0 0
-167.957379001213 -10.6951348934137 -23.1578062439845 0 0
192.975263977638 -26.7054587949012 8.23270867219932 0 0
-197.64029318096 0.575339414758809 -12.4988989225257 0 0
-225.123004559361 16.1590290113471 -2.68499568590892 0 0
176.485340170315 42.6419773846616 -13.3585336931948 0 0
-196.418453523087 22.2661460641066 -5.85581544459079 0 0
-41.2929242479682 -18.5358445318999 14.664260825468 0 0
-138.407428733627 -21.5929222589507 -5.02766508374662 0 0
109.422004446266 -21.0504133851459 3.48271200203999 0 0
84.0653991001713 -18.0011058090432 -1.30882703986589 0 0
58.8365658620322 9.5283636673831 6.38385799082262 0 0
199.964970955848 22.2812249514503 -26.4808739075833 0 0
-169.552570277065 -5.73869636829184 -24.5464803133469 0 0
12.1377377602643 -8.85470082216663 20.5342140988151 0 0
-176.691039646179 -29.8391066765798 -7.05599203439625 0 0
-190.842230622354 17.6438899918492 15.133376778347 0 0
86.2167460434354 -17.9127180457967 -1.53047192655379 0 0
140.480047919193 5.09985249850337 22.686858105015 0 0
-74.320894447733 -12.6735262085173 -10.3471066647856 0 0
-123.986930695401 7.51392947823478 4.40547924740868 0 0
197.436124927808 -21.491144452365 -15.4165011067987 0 0
183.156543216994 39.3836510691509 -24.8576525836675 0 0
198.173848579643 12.3072212322088 1.75398207950119 0 0
-177.106084973157 -29.1640137451707 -1.95036766187718 0 0
195.433499109417 24.9157808900041 10.6573047453575 0 0
180.274202389737 -36.744621380387 -12.5279102016124 0 0
156.771067706899 2.62690472309122 20.0088095020789 0 0
198.736894196348 24.6693136582179 10.5049173344049 0 0
71.2838749475987 -6.42684612667359 -4.00633241160521 0 0
31.5495883916772 -21.0404640814817 11.7519332166806 0 0
8.74703572253654 -1.29909815193699 20.4306949238401 0 0
-229.134085500016 24.1943893488054 -3.46632146559162 0 0
194.779649264848 -23.4214876987579 -20.2156972324316 0 0
43.4434743127949 -6.21767300209484 -5.85284501236936 0 0
175.78043575905 30.5898300716938 13.6506119483054 0 0
186.243475668039 -7.38437807237854 24.3476984214145 0 0
128.987739434132 21.3220921514578 12.7394870700063 0 0
-185.707820331885 -6.1692730068011 -29.0463706392792 0 0
-208.529483584507 5.06475344161869 17.5894209169646 0 0
184.298434763178 -10.0774635753963 -20.5972870243254 0 0
197.433703070277 35.4744721586961 0.362046086891238 0 0
-216.219240797117 48.2270392799099 -1.52845944739475 0 0
166.257292345497 0.638441885649274 23.1926391162903 0 0
199.786309603173 -21.7872769869975 -3.36325927002992 0 0
-194.229541166851 24.4780003708241 -2.94335550780699 0 0
-209.114646905962 2.25499041633703 0.433259464612725 0 0
99.1946604770747 -20.2325125764414 11.8206465479844 0 0
107.656811447178 7.76142420353663 22.3279958807881 0 0
174.500495170352 -4.99712012540717 27.3584636605235 0 0
-199.300888063912 5.68023482380516 18.225794215356 0 0
-70.0491493947561 1.72313334587614 -2.57507711726131 0 0
197.849958964599 17.2849614624063 -25.826887877662 0 0
162.760709475315 -29.3425960408545 5.10175184521153 0 0
176.27975995844 -26.4622200460357 16.7682812052989 0 0
113.296044191809 -13.2105599379418 -5.26298218342729 0 0
-67.2336154433317 -13.8980136600424 15.7316519994929 0 0
192.952693191709 20.6872046098654 -34.9063028127966 0 0
185.724341769944 39.4126746836122 -22.2450978131427 0 0
-194.6810087376 0.218513330429653 -14.6178454694422 0 0
-194.192650162342 30.2633782895153 3.08026924021017 0 0
-163.144455108715 12.3069073037663 6.7322425376824 0 0
31.2956424128942 -9.60704897959553 21.0271601790128 0 0
-205.523705209437 21.964780105082 -9.87266872691304 0 0
-165.58276369617 10.8303790455767 -23.6434191776799 0 0
186.07270551001 9.67424346551911 -11.292249238683 0 0
113.616512706334 10.3955862487262 21.2336983853766 0 0
-90.9508834244298 -16.2104042511104 12.1101868792964 0 0
197.324241472446 -11.3821831744918 -1.21728667327199 0 0
-201.02915757716 44.4677727521753 -2.05168858427746 0 0
198.179094104032 37.5173895253388 -24.480870109536 0 0
39.0374921295501 0.204954558899222 -3.61075846331517 0 0
116.579290538514 -0.581663135185982 24.4505959567594 0 0
-202.851966393932 -17.6568908612469 15.0880061866555 0 0
-227.493274054212 32.3884725427817 -5.50831460131488 0 0
183.75471396463 35.9267030063621 -37.7169097912708 0 0
-109.719364761551 -14.11944757064 -15.1476409244218 0 0
-94.9092062816103 -22.8211146013965 4.04255324140982 0 0
-177.335751573628 -18.0324808535735 -24.2363729986842 0 0
-72.1966199213635 1.04858615980844 -3.93977343590523 0 0
196.546522141944 -35.0979567646614 -9.23557019552798 0 0
-105.10011775935 -20.0639909394141 6.50245036952109 0 0
-19.1656437905003 7.32452665601375 7.85171749796124 0 0
80.0200485986056 -11.7187890270525 -4.32809632750453 0 0
159.558333943124 23.7794461066001 -20.2345615260758 0 0
166.725534202064 35.4714162534874 -30.0287467390699 0 0
100.131294003421 -17.7173573393906 16.8808374315999 0 0
160.150700542806 -31.0169026511716 -5.3130550757145 0 0
173.378660149176 20.9728432863094 21.9761021075206 0 0
-14.7768324681609 -5.60193641145767 -7.74810444373399 0 0
183.911321745779 8.30505809981315 -10.2154325066649 0 0
-209.373861008062 -8.63272263138887 -10.1597104475694 0 0
-31.538421529055 -23.3905321807218 11.1009238323328 0 0
-196.557949526151 37.1910134857419 -0.025438865482195 0 0
-73.0295340271628 -23.6180866314016 5.11410494250741 0 0
-179.677289457633 4.9100453280584 -23.7248349587842 0 0
-218.383003755267 47.4501945033021 18.9265636880824 0 0
-220.985631057487 45.233244305504 -3.00001449694217 0 0
-38.9321447633352 -18.3359812500922 -0.369477122486342 0 0
-191.139530615459 26.4729103866813 5.37022674039972 0 0
198.446015867824 27.7759415441134 10.185388217381 0 0
-159.471417800512 12.1733084726776 -1.09111865636037 0 0
-185.220838271882 -34.3440682635724 -11.9816263482321 0 0
-144.657131480864 9.05916488743844 1.83053599496772 0 0
-210.06614069799 3.59788688320548 5.68786239202377 0 0
187.445611642453 8.03582531498893 -9.72584049030417 0 0
-217.147797082807 -8.86579592813838 -21.6137295262608 0 0
106.972537978353 -1.96580586658335 -2.9948715258663 0 0
44.9152400148406 3.05233597789728 20.7979538631133 0 0
185.646920492383 11.6578810747087 -28.9105590831198 0 0
45.4942034160989 -15.6470756904159 -0.730009181507927 0 0
198.776583074513 -17.9259012964576 7.38093948476536 0 0
176.707999735988 29.2232084373799 -38.0510540788898 0 0
-210.332458011212 48.9328747791862 13.7301544283337 0 0
138.746972049682 -5.86363862327542 -5.29828925006158 0 0
-224.04042662418 46.4170781911532 10.9993010549112 0 0
-210.074155336348 -6.74847950388043 -1.24253104980472 0 0
-33.7435663086524 -22.4398455445468 3.04146303622989 0 0
-194.259755992618 -32.9215104321746 -3.48720796741934 0 0
166.037983936372 -19.1867281357323 -25.1377767878868 0 0
-219.031871917445 -21.2507560526476 -11.0774181848486 0 0
-183.216976263711 14.8502501574133 11.8848151605474 0 0
-193.560499865246 -12.9420387511613 13.7792969203881 0 0
-171.284119514052 15.6767188457291 0.827688627097935 0 0
-108.958771085934 -17.87654221863 8.04742406868347 0 0
103.813501780676 -2.36281034005357 -3.21486092925549 0 0
-227.054289854011 34.663952325202 24.0611415746675 0 0
153.131439955894 -24.0742068140306 9.87304389092788 0 0
111.07943680538 -19.1385874250132 -1.67423993469153 0 0
163.408103801143 27.3526480055892 15.9822131193357 0 0
-32.2561272070246 -9.13151532945586 18.8986269856605 0 0
-43.4131437591198 -5.49385162050172 -7.93204619823043 0 0
-46.2083318097364 0.365997404850825 -3.36432979871427 0 0
-65.2477508800492 -2.22993598328873 15.6736611775808 0 0
123.604538455422 10.7018964735122 -2.08204458403421 0 0
-34.1296687950607 -9.71823540836302 -4.92453400535594 0 0
191.268758987723 -31.3767958852037 -2.16331864782435 0 0
-207.133609546377 -5.65424857183079 7.08627357473849 0 0
152.685592225572 -3.86895040465577 23.1628432885522 0 0
-201.082211615559 3.98898729069891 -10.7594415385423 0 0
-204.413100819642 -11.1723896573392 -27.3919280761652 0 0
-21.1567474001329 -23.3139699339633 11.5428726348935 0 0
-147.883360397569 -19.4971487303374 2.89904637715454 0 0
-116.086962396864 -17.1015347192995 7.7342662484255 0 0
194.644295169915 5.97904422714395 5.67295483874951 0 0
184.662937863284 14.3997901140241 -20.7884136324991 0 0
195.339412723593 9.12022626643546 -10.6619484172678 0 0
160.733332296031 27.8265538217584 -23.0078526363339 0 0
-193.195745720524 -27.3267978453498 -20.4046220824403 0 0
161.203878145491 -23.271527652586 -17.7512090615759 0 0
-209.270022055441 26.9547935947068 30.8968728578046 0 0
-199.347819689952 -4.51593735985948 -18.8012269869932 0 0
-185.580039945876 -32.7264137531564 -15.5810513840978 0 0
-19.2620935565238 -14.6064147160663 -1.24014251096621 0 0
194.600602440805 -26.6237573537702 6.32415271963976 0 0
-106.12024816174 -21.5711739642122 4.71572469953147 0 0
177.637398047021 19.335651915749 22.6476536909542 0 0
163.122928977021 17.1737931901028 20.8097459919188 0 0
44.8293337983446 -12.2102995792623 -3.18853503196583 0 0
40.5360191732274 -6.55132575399892 -6.32426439395167 0 0
-167.095829999458 14.1200753450018 0.764349551701273 0 0
191.30733371097 12.7461910558765 -25.9477615034391 0 0
-216.8423158053 -21.1359295754865 -0.288395776046382 0 0
163.653775839926 -8.70645171080031 -13.895634296451 0 0
193.940836258375 20.4259479570297 16.5900089678098 0 0
162.498428153001 -15.4957323280447 -16.4597991103637 0 0
162.890980041021 28.8545289507842 13.9026998496543 0 0
-92.8619929093558 -14.2469822540449 12.8198773221888 0 0
-133.379496407074 -13.1782597532456 -17.0315260765624 0 0
-156.855882212609 15.3247400248491 -21.4843878545417 0 0
68.3659464273575 -12.8377952107704 20.5910387656111 0 0
81.4224736269072 1.0887450412086 -1.73731281028638 0 0
159.437363940439 20.1134880327975 19.8916575517889 0 0
-155.796028540913 5.05322649546872 -20.9818980136256 0 0
-233.648892765277 25.4872832888785 7.78081666972031 0 0
197.01341103999 13.0207231630885 -14.603824450987 0 0
-20.9972000574739 -3.98929091590332 -7.40167394187835 0 0
159.014875521386 6.10749041931862 -11.9317595410178 0 0
180.963556357615 41.248260313317 -17.0073349719837 0 0
-211.54809301224 -10.4640324387885 -1.18309973375276 0 0
195.861610837311 14.6673529298381 -23.1313007454906 0 0
195.007862711886 17.8043105350784 -30.9913475690675 0 0
-22.1440628225802 -3.0229458262268 19.1415008468068 0 0
-153.039973960115 4.91217007814006 -19.6228048489668 0 0
117.656454434883 14.0250765389564 19.6892529975349 0 0
-71.9296907063009 -14.6350247599299 -7.61850553150746 0 0
139.885803402592 -16.7616578189374 20.8285539676896 0 0
123.488309149021 3.61674538199096 23.754852816709 0 0
-212.556078580247 49.1500584351448 13.6028179314291 0 0
-190.601357102343 -24.2538644127148 7.46249182431878 0 0
138.79878624857 -20.4020110103165 12.9974947474493 0 0
-99.8381260869917 -1.09343066657197 11.5760669407158 0 0
-226.761076422029 42.6409815492151 0.055831167265989 0 0
-11.5817996026711 -17.3686366010834 0.959544650776623 0 0
-188.242023634991 -24.0847221110377 -23.7434867454861 0 0
187.926733826984 -19.8694090319171 25.5663202277349 0 0
197.44770488617 -22.3661443605774 14.5443458008483 0 0
-90.6530595665412 -20.9634293690122 -3.90142610847556 0 0
194.806624753048 -28.4733320001171 2.33853414030976 0 0
41.105168095895 -18.2827477224658 2.58057218519199 0 0
-100.800324193798 -4.44160837274134 12.9059633043674 0 0
-192.830464907938 -14.5191642818245 12.1086105805978 0 0
68.1054670113722 9.38824553169193 4.90978133704032 0 0
-199.745803572879 44.8397520266604 18.0185954351196 0 0
38.475765963794 -9.75556195212905 -4.85121137382787 0 0
196.106293580429 -32.1264748637726 -3.54692718349218 0 0
84.8358091008369 -9.27166551760135 22.9103712220398 0 0
-203.602801621279 -20.8668832957566 14.6995360911933 0 0
-33.7043535070343 -23.704205417119 5.1356329358815 0 0
-198.907092144684 -32.7552271483733 -10.3094690766595 0 0
71.6455331052452 12.9857714792572 9.84940203725536 0 0
-202.750189671907 -4.20171633891248 -22.1351304809707 0 0
82.2711653497017 3.20281844926642 -0.237061026660416 0 0
-72.0257769017495 -19.7533604861982 -3.07854429823444 0 0
21.8167131385184 2.10574724225276 1.14085760644031 0 0
185.31461067207 -35.1016089807817 -15.757757534066 0 0
-207.850613628287 3.89246257620525 -4.4685212557113 0 0
-203.80619165673 47.8258583626846 0.262342141342683 0 0
203.194666460518 30.8350916051195 -9.04608811911396 0 0
-171.912827562068 9.01174728525671 12.4897427733447 0 0
105.706359486047 3.68335509627226 -1.62940287861143 0 0
172.638835445566 -22.7898095417325 24.375238698588 0 0
176.46834191415 -17.3031404405492 32.9354229238803 0 0
-40.3114998854118 -2.48918822620561 -7.15819186436088 0 0
10.7623769747002 1.97276277181464 1.24713225510478 0 0
-194.253275147127 33.5686128007341 18.7290297080083 0 0
36.135321405669 -0.0704464393574703 -4.04917096918808 0 0
-22.3532632136998 -5.11583027326441 -7.86553822039305 0 0
-168.847892843923 16.0990511404983 -5.33835452329125 0 0
183.463211603672 -9.36899184425207 -19.929167806836 0 0
168.463249305112 12.9598795418982 -25.8056417313186 0 0
-198.168297923929 -5.23245394278358 -15.5507946024945 0 0
-45.1408322820739 -24.1302060575095 6.91417940542054 0 0
90.5560861301228 -5.65502700142772 -3.03472650728495 0 0
164.85232059534 22.1740982534099 -30.8920849895468 0 0
55.3945919779393 -14.8137314199802 18.8137428642993 0 0
62.3524221360129 1.71542043879775 -1.53308706593231 0 0
155.576211856615 7.94204486658223 -11.0811995751741 0 0
-62.253147700377 -15.1583768253844 15.5565155714472 0 0
-184.339402433316 -5.38206377376093 13.0706466978486 0 0
16.8395677281512 3.25263843700398 2.69510703824524 0 0
55.9656427436736 2.15596803131559 -0.65002339182387 0 0
194.026630395351 -25.4051565237438 -21.9687810915648 0 0
202.521561237265 33.0333631255916 -15.4735469495243 0 0
194.226171655106 19.5583812912903 -33.2596235965165 0 0
3.75555261548589 -22.7643811781649 8.99618029092776 0 3
-178.596845761736 18.6135034446081 2.2168592946326 0 0
191.172251458016 -37.6895128859907 -17.3109181579258 0 0
199.662692457814 -28.3203134187171 1.87770418160388 0 0
-116.336565513716 -5.36852459754761 11.4867211061682 0 0
-232.021646815545 28.7668206293223 0.309464721404251 0 0
-14.6859675261554 6.83138294800804 13.6507203219017 0 0
155.444562419821 -22.5378523443299 17.3500701068294 0 0
-207.695315950821 -11.3298213293514 7.69324473538005 0 0
202.590533999329 27.7203696632456 -18.9497155654387 0 0
-161.160026897399 1.22078964670552 10.3565151017878 0 0
5.20867153715381 -10.239426526495 19.9264375474074 0 0
-97.2878647598571 7.16383098973924 0.720419403814388 0 0
60.3681686101227 2.83482394890842 -0.0608399621355117 0 0
171.760787838305 20.2741963915326 22.2480900882954 0 0
-204.492881943413 50.110858375919 7.44832923447782 0 0
134.147780004118 -8.51413109638855 -5.025046739299 0 0
-229.890465036888 38.8707227405733 1.26614757734303 0 0
54.8216965245046 10.7503300715532 14.2029389116535 0 0
64.8817881412317 -3.42260956644365 23.5713472174168 0 0
143.683793922141 4.14944885208224 -6.49413147823126 0 0
-215.648083425205 15.0935313730155 25.9544376806856 0 0
52.8178805302733 -16.2587414768982 -0.620229918117788 0 0
-197.907853609468 4.5052547884447 17.3597075768782 0 0
-189.393819163457 5.50640938193654 14.4452791394417 0 0
164.867202187795 13.6847238562748 -18.2611192188332 0 0
74.6903661661765 -1.83017724669651 -2.6588439773982 0 0
-208.545807998972 38.6041024498188 -10.2200656753214 0 0
-204.062410103895 47.6372392189256 17.4769786509127 0 0
196.600182239333 -9.39488998837295 0.521102876155226 0 0
192.706602380428 -22.8171387817704 -22.5030101538809 0 0
-212.576955126823 -5.79011572357002 -18.4860660423978 0 0
191.520360416713 -10.3266462477621 -18.3320070572173 0 0
182.138067862138 -20.0229854341053 -29.5986792442849 0 0
150.157376677476 13.8434960123157 20.1728035304837 0 0
-206.926734211665 49.7241256621418 15.3382476618694 0 0
-201.670785129939 6.42885073833479 19.7686366293623 0 0
184.286321753922 39.9383241757826 -33.3129144143458 0 0
175.313324433259 -11.2809810271621 30.5634453274821 0 0
199.10112350357 18.9956786579057 8.67856723094957 0 0
156.438972878171 5.56211287382841 21.8247842868315 0 0
169.821409327893 34.6288260380505 8.5283326520138 0 0
-210.723854121726 48.4013177120898 11.9521410034153 0 0
-184.504492763954 -7.17744749917922 12.6226991897033 0 0
137.987641135414 -14.4523764815436 22.9928895330648 0 0
49.8198624641802 -6.61869060794826 -5.90560052456968 0 0
165.81012066494 -3.53082733638875 -15.7434236668209 0 0
-218.699692061933 -21.272154736998 -0.219544406677335 0 0
124.300712969912 -8.54867152282782 24.3638195035134 0 0
187.815721930979 -16.7575995768463 27.1641416103542 0 0
33.645373131555 -0.809901732303542 -4.30877104234689 0 0
-183.670898892073 4.53676272452749 -19.9545604618216 0 0
-146.978964655794 3.1497610095049 -17.9803008872605 0 0
143.007402046282 25.1685506737628 7.86325739406086 0 0
-215.47234897953 7.44076905978362 14.151035927582 0 0
202.0939769098 36.0585659483723 -10.3881748120393 0 0
-148.509565915092 -20.1968872927588 -10.9424316365356 0 0
74.0689817225091 1.6360846061124 23.2005495613186 0 0
191.43126352909 29.7880766976575 8.19283201244068 0 0
-194.401397386474 34.8172677565247 3.19768825824464 0 0
100.636659814308 13.9146143628741 5.27005975449373 0 0
-148.297252983446 -5.39393462626228 -20.5047680897426 0 0
119.401304535865 -5.08642576911673 -3.23119437180636 0 0
-226.682721571573 31.3702227114029 25.3110815248709 0 0
153.230448787066 -9.68065382830115 26.9639264029066 0 0
63.5827682649807 -15.1121458863062 18.6987411025246 0 0
-159.466376069393 11.1177769450536 5.8803681289394 0 0
-84.8462347230073 -0.375109586793891 -7.89932127466904 0 0
-149.77955594969 11.4188538222477 -16.405796028649 0 0
181.064442164987 -8.37533656307848 28.299108749463 0 0
88.4650518770722 -10.0281657808047 22.6809916981333 0 0
174.599361222654 -7.14715482747628 28.447506124497 0 0
-215.226560652217 -21.8956451026655 -18.1729559320721 0 0
199.242559190733 -23.2192597603177 11.9841999308258 0 0
-164.540909613789 -1.97475610694752 10.2304128200402 0 0
-190.097293619258 -33.6814435787581 -13.7054940994502 0 0
-163.012946776029 2.33003579442691 11.0071375354545 0 0
162.589743990743 -31.6889829635356 -1.18813847750139 0 0
176.719211807977 4.28306440389166 -14.9259541666999 0 0
172.245157079852 -24.7858670353385 -29.4290410142875 0 0
163.910578585593 39.8268684903075 -20.2426955554179 0 0
-87.0282535886102 -12.1755631319804 14.3675638257003 0 0
123.111182790691 -2.95457702606975 -3.45148799288634 0 0
-205.092263055602 -30.756749724915 -6.67269511405833 0 0
175.958234380883 -15.5350211816503 -27.9936026127808 0 0
160.096414116252 34.6556918863051 -18.4406751553814 0 0
151.219211994527 -25.3608274432246 0.866804417947813 0 0
168.496752095114 -15.7500537129167 -25.7114102417847 0 0
33.6539734870149 -17.7605560854492 16.5028768183272 0 0
197.532931476742 22.2264483883864 -30.6594084953991 0 0
186.467717116201 -18.8852004710844 -27.3872137056937 0 0
65.8800756509219 1.5803200012105 22.7557856658758 0 0
198.445144513827 -15.4569013304758 -3.10711653722751 0 0
165.403672192116 -5.81330455824424 -15.7172536052711 0 0
46.5910575417221 2.52034565450325 0.355225948726454 0 0
-232.438892778607 24.9613238943445 2.43757939824069 0 0
-217.541481520596 44.4444112423584 23.6847151441288 0 0
-227.450121303305 39.7392631861625 20.8900562588031 0 0
176.828782249422 -19.4568809527956 31.5456878781625 0 0
-0.561598980137996 -20.8848448359768 14.7908448433569 0 0
172.037182435164 -30.2717680011045 7.13396296058176 0 0
-217.804785246687 -12.7372797914268 -10.5446885926958 0 0
169.778169164998 -34.847369063483 -2.05940457447925 0 0
-183.09359748437 0.857826056631864 13.769122781018 0 0
-151.640519079741 -22.1167622691855 -2.0648285420247 0 0
-63.8310374340908 -17.9293054984643 -3.53311992583942 0 0
160.185133761605 22.0512259605747 -26.0385653495676 0 0
-52.6967075742524 -6.08391523832179 17.8629858221316 0 0
193.610142259498 33.6950466249656 0.246516702509309 0 0
-14.1457952326773 -23.4852975245268 10.192876932886 0 0
-221.774515858971 46.8440695465776 0.822374891381803 0 0
171.498380981174 38.9328897655751 -25.1446099535371 0 0
95.8513522874109 -9.84554996911493 -4.26505320264973 0 0
77.30582142418 2.06788830827118 23.2425625259877 0 0
-28.46793484966 -23.1401999879711 4.63009812440598 0 0
-115.63198028544 -10.0290985411563 11.1088798635291 0 0
197.455188749131 32.20260240016 5.39958807675017 0 0
-91.7932351287106 6.29257215672761 8.30200326359818 0 0
-175.517406629577 16.9835370717119 2.51159234784133 0 0
-154.483477567266 -21.7610547684633 -0.17145115244452 0 0
-38.4538754097477 -16.5218833395095 16.0502738482804 0 0
-176.475811274338 -11.8089937319923 8.05385339665316 0 0
188.079623521896 23.1838042045616 17.1450286149609 0 0
-26.9802090991016 -20.726188386886 13.9850966159048 0 0
-205.733879506973 -14.6383832602475 10.6660568580764 0 0
-154.25100272777 -22.6529248234153 -4.57311767065778 0 0
178.451328373896 -6.72622079244566 -18.2129699334388 0 0
-42.0846428060905 -8.7435746982447 -6.79137782597415 0 0
158.771398029035 2.33687632537855 -10.8927004394846 0 0
29.9375651360847 -19.8422223252105 14.7480018371429 0 0
194.872882820295 38.6734474216086 -28.1530992709621 0 0
169.307840519995 18.0045069620891 -32.0244227666918 0 0
139.666298893668 23.8336363312967 -1.86068577789065 0 0
2.21119280324125 -7.60129096371334 20.4322559578199 0 0
129.346105980521 -16.9459355757309 -5.91425387613012 0 0
134.756588878654 -2.13105228547588 24.4538071224192 0 0
169.882388370443 11.4250116477545 22.4286396380758 0 0
-9.8434251476391 -22.6541028138857 12.7808536546632 0 0
177.858886260336 17.1329825472489 -36.0709983844596 0 0
-119.014140155389 -5.27189481858889 -16.8632337470824 0 0
120.951650951964 -13.719753331568 22.2798693374245 0 0
159.055890281126 -26.143339427996 9.91109365958475 0 0
163.254848678625 -18.3223296948691 -19.7123982214919 0 0
-153.626704509945 13.8281791232208 -9.65649485798754 0 0
-1.57898174370118 -17.0175414565513 17.0848257449969 0 0
180.889746543866 -4.43022256794102 -14.7718295686872 0 0
195.362188189028 -16.0699323891976 17.0995865164879 0 0
42.0670562735972 -20.7700541236311 9.20057765752396 0 0
189.55008064373 4.92526960096723 15.5544754635779 0 0
-200.477167318344 -2.77198606957749 -21.6905577024172 0 0
187.368702509614 0.938840521581868 -6.44337476982106 0 0
-18.4735836548357 -23.2663590176091 11.6749651243686 0 0
-88.4572589217401 -1.58652246208372 12.8687924729163 0 0
-77.6268727628061 -20.0886632923262 -3.44154620181266 0 0
200.822051223771 16.2321511777048 -8.6198637221382 0 0
-212.83344396523 23.4746861102955 -11.9457316231964 0 0
193.556780814901 -16.0656067902132 20.6633663045622 0 0
-202.868289489246 -6.29479652860869 -10.5830221173211 0 0
199.905233897471 38.8051510100178 -11.5088906354536 0 0
-17.4792195093247 6.61762282362811 13.6935029974368 0 0
-188.849557839777 -31.9230770872627 -1.12964057763413 0 0
-199.518400297534 22.759810983015 -7.68893586374495 0 0
-17.3745262922113 -22.5644809499161 5.1353878819426 0 0
159.762172205562 -1.426716939445 23.5318747492422 0 0
-185.049949841584 -15.0215401423563 8.34789972792806 0 0
56.1044265543782 9.84174478599879 7.29517517780947 0 0
169.83717921709 43.4534808112898 -16.0744422509915 0 0
180.825963355185 -30.4003809379024 6.19721776866559 0 0
105.994889909841 3.60578924347186 23.6543642818986 0 0
-200.563740217735 -5.92353899190922 -12.4843021516261 0 0
180.280303725845 12.752000086453 -18.3400176839933 0 0
200.980650641256 29.3992688639448 8.03118462047319 0 0
154.761336450199 26.0870901530908 13.0815145906003 0 0
152.546374514699 -24.6858375837996 6.60219421684529 0 0
182.781020247647 14.3486832045 -21.8754933655823 0 0
-121.95302759862 -21.1699837689562 2.77671825721691 0 0
169.786202706505 -32.2331755696041 -24.4306199162624 0 0
-217.22659996312 20.0875276492994 -10.0288699539172 0 0
-94.9369781811797 0.453999720704924 11.0927743002742 0 0
-211.188338163295 5.83182479127216 9.95357180613881 0 0
-198.271993403767 21.1379264384485 -7.46264110054512 0 0
185.129026308485 -17.5912455429986 29.0309712016116 0 0
-164.795315846094 0.160203059468509 -23.7042694774077 0 0
-32.8284737236408 7.95884349559859 9.16394262110606 0 0
194.405879108635 -26.6667797154806 4.74825845996189 0 0
177.809679677463 21.1034571093486 21.6093442422711 0 0
-205.884879340964 -17.7099268491015 11.3878439945034 0 0
32.6450636215192 -19.9247929604638 14.4609531747358 0 0
46.2126036095374 1.05522366250083 -1.59217571210351 0 0
186.562479399882 -8.05141496328076 -18.1717708551192 0 0
48.7804070463878 1.74796331613786 -0.526872370765828 0 0
-188.076679472162 -34.1771810517479 -13.3503075619617 0 0
189.427526027722 14.4035804060581 -23.5489272249869 0 0
178.802685432833 -20.5228579261384 30.5832564605154 0 0
139.99604060214 -15.2859478408906 22.5672034822397 0 0
-197.139032592854 18.0774231184918 -8.00293037099167 0 0
110.6398418252 -6.8956124999707 24.2367355422374 0 0
-26.5411257295126 -13.9851062653751 17.7845234352557 0 0
86.3785938329262 -0.550284091168061 -2.4484049180434 0 0
139.084816528062 -2.5562585718731 -5.22826073681269 0 0
-57.1966313914929 -24.1555180675926 5.25142794532658 0 0
60.4520942666158 -11.0984160569846 21.4188123229353 0 0
-190.548828284931 0.351875995142681 14.7503021484789 0 0
-181.778919885724 4.93298267249301 -20.7055795603755 0 0
200.146247211077 -21.6361054828675 -0.326303433065248 0 0
36.435533931907 -15.8170404200031 17.9802199158152 0 0
-177.179372712181 -30.0933155165394 -4.38323835391915 0 0
165.597359921954 -5.45499797278767 26.23767813083 0 0
179.876140664038 38.4847315573313 -29.5337983638879 0 0
-111.44014513608 -18.7410011371059 7.00129253338699 0 0
161.373085674128 28.7908076854554 13.2713944956754 0 0
152.251389944218 0.270583938379634 -8.36861645946633 0 0
113.401585457519 -21.2511901320984 4.78198695054715 0 0
136.064164094563 3.19152650419734 23.3060281820419 0 0
-181.083349613683 -30.0888504078051 1.94027185537319 0 0
-209.837542734112 2.45167696356895 2.74179586361056 0 0
-228.075649411519 41.4816490875203 0.697954641465309 0 0
-173.263352512951 -18.9457651924186 -21.236305874025 0 0
-150.982686077938 -20.5207374063613 1.79487370313461 0 0
-165.267653305834 -24.7623681511066 -3.78713483879127 0 0
28.6415112440836 1.41952122848123 0.0719056303553653 0 0
-157.68840393077 -22.9999800745091 -3.00774253992003 0 0
136.178617612783 -18.6658707848896 -6.0196226497861 0 0
-3.76290880833235 -19.229947771349 2.89109106781232 0 0
141.162084953818 3.67897685584839 -5.96760633549006 0 0
-177.490242533322 14.9904775166289 8.84524549797889 0 0
-89.3605691980573 -22.2060221931196 -1.74595292024563 0 0
-216.816022871471 -24.196539964673 -1.73126654983763 0 0
-117.797522410138 -21.8294456632392 -2.8764229982458 0 0
180.699740505543 -15.596933787466 31.3025065320109 0 0
83.8568021797582 14.6085263534403 9.37466661309954 0 0
-166.351989326086 -14.6559745138391 -20.8145434845662 0 0
80.0608642309571 -13.9196930728651 -3.69309648621141 0 0
-153.012809118693 -13.9287700054338 -18.924033844075 0 0
183.132495226984 25.4089605099629 -39.3214295869971 0 0
194.529358218822 35.5618533828152 -31.7638117290552 0 0
47.4453371514243 -3.59501252865301 22.65299191 0 0
33.3699830278837 0.764693673274533 21.0312912456936 0 0
179.640521324994 6.39607353980215 22.9146523980062 0 0
-18.0883203934503 -19.2898660232439 15.3873813435144 0 0
-187.879564739011 2.39150344672627 -17.8940077482574 0 0
-95.3125919638744 -8.07738620289695 13.858401098732 0 0
4.83610789388984 5.08774276768952 5.10246013664028 0 0
-168.53220495091 21.1250897173516 -12.2870964967756 0 0
-215.690598005296 49.8792755779757 16.5273496986209 0 0
-29.2415038429371 -12.862707552977 18.0579480809434 0 0
158.775495605773 26.1000125908489 -22.9182542411487 0 0
-201.448955242636 -6.77441521810793 -11.7330736876948 0 0
176.29329545979 -7.21583133550226 -18.448368106021 0 0
166.090270966134 0.150059890534887 -15.6429915394137 0 0
-185.202890465269 5.69807195147294 13.441109336875 0 0
189.701609657845 -34.6019867010363 -11.6575378315397 0 0
-213.909332616266 38.866081817547 -10.2302478449364 0 0
-191.162558330501 -33.3250065555668 -3.74604868899087 0 0
-134.67497511995 -19.0171986464483 -10.9773377773866 0 0
17.6781146718304 -12.9393660032234 -1.64402594858146 0 0
152.941753274431 16.3594102678825 -13.2490891045234 0 0
174.016308009564 -32.670177330377 -22.5118174120169 0 0
-209.19515049868 48.8735172257968 18.268466086514 0 0
137.359189118681 -6.79363463036635 24.9574534485474 0 0
95.2246253828421 -7.7561954762994 -3.33181038927994 0 0
-68.1558918279217 -7.24936158706741 -10.2178830273252 0 0
124.681622439189 19.8066622549625 14.6695168763112 0 0
142.859885072341 5.31133897671655 22.5733883686574 0 0
-66.6776502391078 -7.7981127127404 16.860388390507 0 0
56.5550306667795 11.4053270583269 12.465830447463 0 0
-157.577909048088 -20.3647819110315 -13.5394294286835 0 0
190.210359995854 -30.4402380104281 0.555292611757174 0 0
145.8579442515 15.6400779095556 19.4316978444506 0 0
11.1364993454294 -22.1936177438036 11.8532118985023 0 0
-208.031764149672 12.4127808292688 24.1301666800583 0 0
17.8723252460062 -4.26309440141225 -7.2139192836005 0 0
-182.703648194544 4.11501020492871 -21.805555550975 0 0
-150.114179031328 9.22049947495601 -17.9327163815906 0 0
-170.227075244548 -10.1266589705626 -23.7038861831826 0 0
139.074170940326 18.523594201674 -4.98435568490628 0 0
-93.3374424595612 -17.0752065460463 11.1213604874799 0 0
-139.553274537534 -15.0229183933591 -15.9728884856368 0 0
-184.380824959163 -27.6624249103951 3.66184023842844 0 0
-162.981186020748 -4.73116888554386 -22.6197710797719 0 0
-198.598431972082 -7.30879634763216 14.882527932242 0 0
-140.79365314794 -2.81324271345632 10.0277932613368 0 0
-207.598289134099 5.79364534279063 18.9296176689118 0 0
156.416416446894 -18.110387109853 24.709284623612 0 0
-65.6943487726319 -11.3867591539936 -9.44000458763829 0 0
-50.1235191545255 -7.58534714676916 18.0510988610797 0 0
3.93444648842532 8.37515191798441 9.56455668256744 0 0
156.688269362772 22.9882226220057 -14.9998384480748 0 0
175.131988899706 -21.4432086490263 27.6556810757941 0 0
72.6378278654951 -1.45691979092193 23.8376435163818 0 0
76.4777566950421 -18.8502754025457 14.51529063743 0 0
153.179293894437 -25.107174968698 -7.66837842623711 0 0
130.732547623989 -20.7212417815041 10.6624579958031 0 0
192.613704842114 5.956038657214 -10.931694463447 0 0
169.112431095754 -7.68987188820929 -19.463213192368 0 0
127.185364222234 -10.7307860604138 -4.85081770190948 0 0
-142.63851044756 -21.2595657508618 -7.38118761089992 0 0
153.388198142947 1.8058965549285 22.7875455592571 0 0
-43.1333940701483 -10.6128014087217 -5.44016837450041 0 0
184.286275598769 14.807322777915 23.450953765564 0 0
-174.92590539147 17.5464197015574 -4.50219240520471 0 0
164.105247332764 34.084826954037 -23.751982857611 0 0
43.071004932703 -19.9267505287088 13.9048332549419 0 0
-168.55111582338 17.7041453627972 -8.54555183662723 0 0
171.501015223654 5.60511620674903 21.6445226612296 0 0
190.669390831715 11.3416595198459 -11.1644977366844 0 0
88.1920799678075 -5.3219658935213 -3.00833138287439 0 0
-104.860878186948 -17.1491839418145 9.29201410362065 0 0
141.352356193893 -22.9563252312747 1.09170455228268 0 0
40.6978533859459 0.919957747041759 -1.64739949273123 0 0
-31.5792946774109 -12.440703575435 18.1036618593159 0 0
-181.583145083482 5.82363208859034 -19.5278482555068 0 0
-182.359886911034 -31.7892595676845 -13.6918145263845 0 0
64.8541593740425 -20.2688402484893 6.23514397197311 0 0
-204.884241734914 -27.5768312696915 6.48489034601054 0 0
-172.200060542487 15.5206926865814 -15.904951012555 0 0
-55.4051763981976 -11.1036270377224 -7.17351030764617 0 0
186.008618269512 -28.4569174531061 -29.1396804087511 0 0
-68.7318197680686 -23.5453681119719 6.64857183613103 0 0
23.9263184641656 -7.5666804353563 21.2700332453756 0 0
173.263103775991 -19.6733642975004 30.1140226697558 0 0
-176.991488849697 -5.21819363960622 10.7962971875945 0 0
-39.0471185848849 -12.8115601390914 17.7542640334978 0 0
-172.206196291915 -27.1690836853167 -3.66226895582488 0 0
186.54461576696 22.0389450024594 19.1541842182488 0 0
-158.202377899573 -17.3698180961929 4.60017538106968 0 0
196.644769334167 -9.65866487759133 3.48321103871228 0 0
49.4570786618562 -19.0444942236021 14.6284312745379 0 0
-193.308165575004 34.5795772087114 13.8368460297918 0 0
167.076248209538 15.9679849710262 -30.7481751311424 0 0
-36.7374176602723 8.34818969107575 9.58774522633827 0 0
-202.932252938724 30.1295789587405 -10.7160714343464 0 0
68.5227180769285 -20.4017652754502 6.49389729771357 0 0
176.674859379963 13.528008236369 -21.1514590991653 0 0
-12.683532339913 -21.8518227153539 13.8362595376474 0 0
116.093915773014 8.00264668253604 22.4330221126675 0 0
153.674250658907 31.0294496580916 -3.701118368004 0 0
-197.562700955908 32.2198448932744 -4.91310771595401 0 0
159.311040269538 -13.3460318966606 28.0044709847566 0 0
88.3915040214724 -2.44679790136619 24.4418450850174 0 0
-140.83918597704 8.80691518178017 1.76018896614583 0 0
-193.565798405747 39.5388462285231 4.90326539977097 0 0
-94.4586346748314 -20.8458297684812 -4.11571274726102 0 0
-203.833597866302 49.0325122919781 13.2293213185667 0 0
184.293030400289 -5.99500553751398 -13.3005679391493 0 0
70.0238889869917 -2.42860998008607 23.785090917368 0 0
19.1401800108297 -22.0047801849584 9.29560875626684 0 0
-191.485967993417 -32.7710340119806 -15.2132462757613 0 0
-201.160192486034 8.45141323192488 20.4979318086485 0 0
-81.2795041476864 -23.4195433572106 4.69757905649097 0 0
180.678886556823 14.6290803148625 -27.6766126360814 0 0
200.158047689296 24.6488855619303 11.20668154025 0 0
-137.296416769953 4.86641501470523 7.30423937935374 0 0
-197.7997886307 -23.7807221787032 12.2227913946891 0 0
-209.715201205413 -21.2554724344531 11.3936210614217 0 0
75.5505914617756 -20.4195794813736 4.5159638933502 0 0
143.435764504589 -7.2829191672696 -6.22160899497468 0 0
98.2388588156793 -8.23207705175555 23.6849932394079 0 0
-182.514197958178 3.51216828743805 13.2740445662572 0 0
190.539271407773 -10.463023205308 21.6291642242566 0 0
-180.401912725882 -18.6936865248044 5.51094288801206 0 0
191.19331089165 -26.861076818054 12.3171036161327 0 0
-204.777645287139 48.8655286144761 15.2999730433548 0 0
-9.522724372664 -15.3239941121185 -0.516736154674396 0 0
-192.6201818149 29.3859386238265 8.94507263943051 0 0
-76.8593294023773 -18.1598962142999 12.1615846453186 0 0
180.382596426106 -22.7756832435714 25.6497307841092 0 0
-1.93507233911989 -7.070327310996 -6.64897768267019 0 0
-207.077176863196 -15.3505813502648 9.82013809378145 0 0
95.5305375965428 2.00618722606304 -1.84726973258626 0 0
198.871210759895 -24.1069241498932 -13.0737938567361 0 0
199.004698104969 -31.5283664324369 -3.29771499989988 0 0
195.14625365804 19.123265363899 15.808678881013 0 0
196.221356417235 -9.9370847363165 -5.35476525943279 0 0
87.0802353318537 -13.6797132570291 -4.02480793276297 0 0
-210.716661954194 -13.6257599447102 -27.5666033260385 0 0
-213.530051403302 35.7355102580034 -11.4154399238034 0 0
-129.200383926091 -10.2309996898423 -19.1317143639134 0 0
-205.273357651745 -25.2395473206075 -20.8874030352813 0 0
-204.760004467074 13.8756359454745 24.4153871899261 0 0
-155.561589555841 18.6765022493857 -17.6648495405912 0 0
149.551814207021 -2.38855018239673 -7.39696829471226 0 0
191.168424896893 9.03818379820997 -16.4200443704831 0 0
-194.563942783634 0.00406621294472413 -16.86513598934 0 0
200.777166437444 16.2294455925332 -2.38441171965672 0 0
183.617212159713 -4.94277065094532 24.8713665422164 0 0
-192.510187380635 12.1897826817787 16.5188699906512 0 0
87.0728265815136 15.2899218893006 10.0994135752741 0 0
194.705012833788 14.5751787985226 14.5246162254038 0 0
-26.5960171182996 -5.76426321003869 -7.8644100794368 0 0
181.685067793057 -20.3514096253076 29.6419216510627 0 0
192.392531323812 -7.02233844195251 -10.9161074516851 0 0
-60.9000451984961 -12.4835864353119 16.6596795591463 0 0
161.792974225022 41.1812804905499 -10.7987488873939 0 0
118.732225289959 -4.92650579828217 24.5934031941234 0 0
150.363065840956 -19.9260780768254 19.2450819377456 0 0
-190.77207238311 -15.9484157439721 9.90383607726115 0 0
53.5953139201695 -12.6539925978923 20.3086450814945 0 0
-200.22405901094 -20.8942739977837 14.7786236242668 0 0
184.552281966207 40.3070143390916 -16.4960583847868 0 0
182.376227386986 -17.8636837506085 -28.8711453128671 0 0
74.9814930169366 -19.801035843626 12.0603336153745 0 0
-152.677725441839 16.9734008941069 -13.6983638320177 0 0
-189.295012019371 -34.7595317406012 -6.73482066854648 0 0
161.611819001728 13.5409007349767 -14.9438448153372 0 0
79.9454362491167 -7.96279797380196 23.261712365401 0 0
203.067376917364 25.9226641399496 -16.8703711611044 0 0
-227.878389157469 22.9222664297659 -4.46763078387794 0 0
-190.521468036491 -26.7955991571667 5.63915029243672 0 0
-178.260594224327 -29.8621352897323 -10.7446043299417 0 0
-75.6631030052426 -15.3631802487683 -7.63718105372981 0 0
174.359945979159 -35.0822334956051 -1.37050106523315 0 0
112.980747050186 0.0981655612909679 -3.03563093126929 0 0
195.696226362147 -33.7203858259995 -20.1826615340575 0 0
187.620008776975 39.823940343925 -30.6817151807124 0 0
-38.604637645305 -4.51718751713434 18.605169625931 0 0
180.109381575869 -37.8114419274039 -8.82887386868942 0 0
90.5806992939667 2.38178833942858 23.8229336884442 0 0
-210.155764913975 4.38726179855312 6.86411994271441 0 0
168.19676779878 10.8267365350764 -19.290577641361 0 0
192.285019269495 18.5662804593995 -34.2806451791817 0 0
-192.012297290209 -5.20162251195467 -28.8729504000312 0 0
-123.992520048809 -20.7413070264642 -7.04792812236328 0 0
-156.680241889521 -22.6526109330865 -8.03299318923166 0 0
197.743976094652 16.8012913300275 9.20555359475529 0 0
151.51514538178 -24.6624699124047 5.10662328490032 0 0
192.602479133759 7.54013810963851 -8.59483626865237 0 0
-75.5466801039641 6.95084361615859 2.61219585521674 0 0
17.7390723259674 -7.21723997858454 -6.78122825692695 0 0
-179.875124579517 16.8066160326942 -6.32436395607368 0 0
8.64792250630314 0.0770659893971931 -1.60702624896328 0 0
121.660643770055 -17.5915921623329 18.4441870892943 0 0
-111.261254641765 -22.2409751898568 -2.04249537494399 0 0
-200.137443999735 13.2458850240683 21.6204694796758 0 0
73.7866967031085 13.4165445768683 10.5259359820436 0 0
148.929948933001 9.65605513848167 -8.83025028466996 0 0
200.827302831251 22.5984356380078 1.83828037987436 0 0
10.9710820928808 4.48062660270678 17.3306290001464 0 0
201.438986469501 22.8769676417335 -1.11058185096864 0 0
-95.1500367196286 -18.7013915283743 9.37638914701801 0 0
172.218908040498 35.7186220755311 7.69434759856568 0 0
144.151920358921 13.9552997949485 -7.80731409991659 0 0
-53.0557996095049 -20.2437387622325 -0.331261938099076 0 0
-198.578868219031 -1.77579761952341 -21.3160471866386 0 0
173.810562643253 14.0157308092322 -24.5507719701548 0 0
-203.549529912502 27.4264274823191 -10.7847450411714 0 0
-15.8304673880927 -6.94859722568075 -6.98303206503587 0 0
-90.4469546992108 4.12556553294923 9.82339696116696 0 0
-131.103878608318 -17.7978537595033 5.4103456881821 0 0
-73.4475364015224 7.01942502359342 9.33279664139968 0 0
-169.300361991773 -12.2807447483607 -22.93613654241 0 0
-175.486864297256 -9.30378264611442 8.81455711261747 0 0
-225.345253172903 29.054919934744 -7.73633754543336 0 0
-23.1427481644619 -0.00665372466509715 17.8320786113042 0 0
-202.374291024072 48.6808594015063 11.2175147136471 0 0
-218.67580509795 9.66204610251039 7.3510055443742 0 0
185.759037116781 -16.2870491087941 -26.9234226179635 0 0
62.7194118465648 8.73792728431062 4.83129485108604 0 0
130.860611540178 -21.9046845210452 1.95639768446515 0 0
169.164476080858 36.3305864627023 -27.4477512450311 0 0
111.375423915596 2.34372737367635 -2.60206411587882 0 0
187.968776409331 25.62268164846 14.5520381238067 0 0
184.050378029285 7.76611919101812 21.4191614120417 0 0
-234.013522279993 28.2332157703664 9.29147595848103 0 1
175.790086724974 -22.0866168551858 26.50865217316 0 0
180.234623299315 -18.2089152899567 -29.3078916707929 0 0
151.280948746766 23.8451462498514 -12.0436366303659 0 0
-210.673937545457 48.563962974807 19.2881450060009 0 0
168.879676154837 -2.93713885267745 25.3089908896287 0 0
70.1028997200899 10.6450129541586 17.4715640942922 0 0
-178.221364804268 5.43568874844412 -20.2282039299134 0 0
13.2066716454252 -6.87557227665438 -6.7565497208187 0 0
-5.88651261681968 -6.55808466023671 -7.06891648549602 0 0
6.89699895074022 2.19006803625373 1.68382454325544 0 0
-39.8805943375024 -10.606438418336 18.2842188516441 0 0
-141.811274578552 6.90770958817139 6.11295499392486 0 0
-68.448384201231 -3.60653900812375 15.9852799705957 0 0
-48.8264832669871 -13.5003545496039 17.062062941533 0 0
114.727454418392 -19.3786531634891 14.6857554400851 0 0
107.439017529281 4.94706173944759 23.3969429774313 0 0
-125.237368459482 -21.4525620464959 1.28590855557031 0 0
-206.980727466551 20.1857277800971 -9.73615550700946 0 0
3.42951196387412 -3.66289085352282 -7.12826640519122 0 0
109.094076428009 -20.6129812936526 10.9429769380778 0 0
-166.157703500674 5.23210034621821 12.802860363252 0 0
12.3245961599669 -15.6174912272859 0.2293450773148 0 0
-128.016049335657 -11.6723683431822 -18.1894981557443 0 0
-231.303807876228 36.8432584320468 16.347113458807 0 0
-213.956997089455 12.1597055848827 -3.02166445440434 0 0
-166.399423941758 14.9342652951141 -2.42781817605589 0 0
13.803370037234 -0.802228420116636 20.5743583979181 0 0
-209.876226434078 -8.75935197205068 -12.4086950644292 0 0
45.8984313033024 -12.9633141593083 19.9103206473272 0 0
194.622250381142 12.4731617593069 13.5261818736779 0 0
194.298803096727 -17.8001501846675 19.7848349221268 0 0
95.2267515499122 -5.4150240748867 24.2494676681392 0 0
56.1013855369922 8.56392841752892 5.58199270280696 0 0
181.769267145503 42.7558584073113 -5.93832178815445 0 0
55.6883078379141 -17.590800556536 0.581592685728403 0 0
-194.680990001262 -33.9533776539922 -5.33364087165655 0 0
167.170761309634 -17.3540085187382 -25.410575581768 0 0
-185.82715787256 4.76179720955191 -17.1130315927625 0 0
-157.792711496912 -7.46168586586006 -21.2960756891564 0 0
166.698080466733 -36.2273077842392 -6.40119924759748 0 0
155.148335902018 -23.9897708124006 12.6277807150643 0 0
-212.147645895523 40.1215347983101 -9.71526013618242 0 0
195.28958905089 26.9827254074209 9.38559735365656 0 0
115.642715701549 -6.11797847038033 24.4407981350704 0 0
-209.947276123135 -10.1025480329159 -26.7942844680906 0 0
178.284999344844 20.1621087830896 -37.8492532400873 0 0
63.5271454810587 10.8971804111174 7.51046760924745 0 0
193.221836060586 7.05596721103269 11.5877494142365 0 0
-62.4813576586819 -1.14776266638492 -6.43576460168592 0 0
193.069995514073 -33.8509648136807 -23.0769612866393 0 0
-197.801371156538 -5.27674048915667 -27.0698613469857 0 0
137.508159672765 22.748380118902 -0.454814321561793 0 0
19.6001480661894 -16.5990245084376 1.09150752332071 0 0
-28.0371914994484 -19.1996848249341 0.949872955540974 0 0
135.148675143585 15.0449610611502 19.4424833984749 0 0
-125.815510327535 -3.68813817999113 -16.4252756081047 0 0
17.7168170478026 -10.0531304061604 -3.50915972104058 0 0
149.897241573371 24.3676224805457 13.3826799556 0 0
195.219890713916 -8.50037943029506 -6.81734144181456 0 0
110.473833529461 -18.5271395657633 16.1634780839006 0 0
21.7070221006592 -3.33878798580116 -4.99422830633908 0 0
-170.622161400537 18.6912992815332 -16.3890919311609 0 0
100.451062131986 8.56184631067442 1.63548239544235 0 0
156.649840390256 -5.0786742989026 -9.94480026429786 0 0
-189.522387050854 -14.1101446807699 -28.0287598368888 0 0
-211.919153195628 11.0378727412979 -3.78935148991527 0 0
-44.6064791119421 -7.07232094507166 -6.96158007549018 0 0
139.767425963318 -18.8545280087328 17.2213373127855 0 0
-63.9620006704914 -17.8510085359003 13.6132454136271 0 0
191.841035649553 37.9831903003342 -16.5579756571214 0 0
169.986482596464 31.7808940969142 11.9538771485057 0 0
-185.54198605477 -10.87145752604 10.7706357112783 0 0
61.7241158455555 4.12724075102915 1.19615782979836 0 0
-210.488929673371 21.5870970390206 -11.1973112905943 0 0
163.788861996465 7.76363330203992 21.8391613713312 0 0
194.715087659748 0.372076256597753 -1.42378450263784 0 0
-193.394839304504 16.604335314989 17.3118848805601 0 0
-207.941939835056 -7.16969323945862 -18.5947840183035 0 0
181.805480409398 -25.6972668320337 19.3396822363476 0 0
181.299274887046 -11.2226208211372 -25.3600084486774 0 0
166.512557916381 31.4159455252124 -32.9996625121413 0 0
-212.744489926733 48.8019088867846 19.2445741700979 0 0
-168.219405460214 19.3010682905845 -20.5791726461224 0 0
-205.240102139353 -23.224075664247 -22.6960829252304 0 0
17.1470995460663 7.84350198235397 14.6399861688438 0 0
-19.2646297702589 -21.8046140457961 3.78669827959064 0 0
146.011160957288 23.9735289009882 12.6103331541197 0 0
-216.085877952932 -6.63379150306545 -19.9017302985029 0 0
158.701262779066 -19.1173786238269 24.9406093762395 0 0
-73.0207188769261 -8.96666258779502 -11.6057030964501 0 0
-203.166059486843 27.1085055216163 29.1216198018251 0 0
-12.6321365887725 1.46594036266337 0.4210615930541 0 0
18.4453720075096 -18.8675315819122 3.24296000996407 0 0
-53.156510629573 -8.45875905863929 -8.94889978498584 0 0
-201.494822381842 10.7973277381748 21.8303652258193 0 0
142.207943089056 -20.0513184537019 -6.86926895006631 0 0
-156.145017506323 11.4323836395548 -3.55375550902175 0 0
162.260940521875 -29.0422978468718 -16.5143847303197 0 0
166.91971229499 -22.8915079074378 23.4462815595601 0 0
-117.351839787958 -21.2383406043297 -5.15740472121673 0 0
-213.499412593371 -21.1250065562247 -22.7248599460669 0 0
170.539850457461 40.6415455599209 1.18594570071269 0 0
148.174417497005 11.6285450411707 20.7393382764663 0 0
-186.278447514973 -13.1851843335326 9.76504655233281 0 0
127.476905389839 13.0309744254894 -2.48461691781723 0 0
-101.312265679155 -15.7681462775042 -12.1663745336813 0 0
179.842452639172 14.8524572833953 -24.3860805251677 0 0
-194.521839510877 -14.5064555519109 13.2428211882849 0 0
-211.840992488726 -16.5758550284043 7.76508888326328 0 0
166.521093339643 -24.1249003840496 20.8860163148775 0 0
0.237187596975692 0.146898516759455 19.2697743822077 0 0
151.517016106117 29.4993158618977 -3.74894366410012 0 0
-210.760825711917 5.4140376206636 8.13768759428963 0 0
76.6747900821707 8.34694750038103 3.70454425341774 0 0
42.7515303792253 -14.2901776439165 19.0147362388913 0 0
-91.679876757894 7.86130209798999 5.18618083510551 0 0
163.736650105797 16.2775654174757 -19.8765614560353 0 0
69.6605044310931 7.54598609303557 20.2942692568047 0 0
193.880070841731 7.06195795474877 -10.7299517915259 0 0
