"x" "y" "z" "f" "a"
196.676718319281 10.4224229385377 -19.2496554122337 0 0
172.109678116861 -37.0969196910389 -2.44086726730793 0 0
-238.239324914458 10.8104502958641 17.5314840773383 0 0
181.936137301948 -28.8649672536642 18.6015941607485 0 0
214.434694876785 24.9042389523177 -15.4879405882818 0 0
188.758061769848 8.07924219101048 -15.0982928039636 0 0
43.9630779833183 -4.94849430507763 19.9134973123605 0 0
204.165755727134 -39.2071142338723 -8.03839706292682 0 0
-208.783113760537 30.9184834321004 5.08970829949052 0 0
-160.332174630433 -24.3006456494682 1.81297895792773 0 0
203.909604020851 -28.1622234640534 7.84674817828854 0 0
-233.536181653588 11.105270097948 -10.2452230666756 0 0
-212.776613695153 -4.99399063914502 -9.79270847792615 0 0
80.7387097848961 -10.4320797301146 16.9547858078094 0 0
-191.420785692838 -38.5202541900883 0.77840500491756 0 0
-90.0194670888213 -0.984440469303586 -8.37922089843018 0 0
195.411204725844 -20.3000675077677 22.241532045248 0 0
20.8286964394484 4.67268547956243 19.8362796690727 0 0
-236.986518048992 49.0143676059157 -6.0950255038051 0 0
-241.806493915618 33.4557589440588 23.2100512267891 0 0
178.778198081492 -27.9964570259153 18.8696477729427 0 0
137.268495759269 -20.3752172400936 -1.44488441264908 0 0
205.002623229123 -28.1058075519019 4.44373067758696 0 0
-114.135493206532 6.40613691659811 2.45965285173686 0 0
-187.013839571246 -22.2673958600677 -21.3255872349478 0 0
147.712931212873 10.1051496949533 -4.73653225664583 0 0
-168.465939655471 7.70454155970504 -13.3713761645136 0 0
195.740527910303 -1.90363896223707 -3.93543273618536 0 0
-221.373574609848 -9.91257832606708 -0.588190011781023 0 0
195.448177520763 -13.6025031465023 -12.3114265344688 0 0
-36.28870181853 -16.6612843294057 5.86910378196546 0 0
-172.898258863353 2.40710407758967 9.0058994337309 0 0
-212.134502604316 39.0105547178702 -3.61391392548054 0 0
197.847226678769 -30.4769155144612 15.2892051763822 0 0
142.272812032461 16.3367340613574 14.1817277678371 0 0
-198.931425345445 -19.4107788046625 11.9846229989078 0 0
129.627270727518 -16.094004109336 -4.52559815627946 0 0
-196.415481031583 -4.55988198805427 -17.408507245493 0 0
179.526087150029 1.84700547412451 21.0790402791202 0 0
-130.826873905437 5.1954996130261 -0.219168482977662 0 0
160.794790065284 -8.18241055601376 23.9696504930178 0 0
-183.099587944603 5.98826892346099 -19.8141809324549 0 0
169.516626934689 -21.2932829100656 24.8448103017279 0 0
171.688951852412 -3.55819061278687 -12.9027414492941 0 0
-206.21545922907 22.3548102889569 8.86648479333472 0 0
195.633464773647 38.8256897200643 -4.6670383132316 0 0
176.377181831693 -37.9544828556786 0.707839970559028 0 0
213.350427556551 29.7803711733059 -13.4261915558524 0 0
187.13037121007 -14.5152859028998 -20.3984751295583 0 0
-209.75222860819 32.3895760064223 8.22711753801207 0 0
202.607329879154 -30.4285146520639 9.69151464282874 0 0
-96.9656620040798 1.01013780280487 12.8277973029487 0 0
-202.806524548632 -28.8296853565511 -22.4111502246498 0 0
-143.896065038895 -24.0803321573828 -9.11568324738508 0 0
-203.478388786927 21.7818240462259 -2.84883338833166 0 0
-24.2155234050466 1.07060733261664 -4.99557374684901 0 0
184.948920546149 16.561942071312 21.3705328326253 0 0
-101.78527483973 -19.826491168983 -5.78949053521578 0 0
-22.5158570799857 -16.121514153044 7.87216521159614 0 0
-132.351271556837 4.17916295773541 -5.16686409040275 0 0
-122.789055475998 4.76508532965068 7.27569547136155 0 0
73.1688860942956 4.07537205118738 -2.91974101104398 0 0
-216.36734554729 22.7273392635475 -11.1481026351241 0 0
-10.317467705284 -0.00334583505995221 -6.02108261922989 0 0
196.32911059286 -41.1308542210231 -7.59835285170868 0 0
-215.026586705215 -36.9482863698431 0.237742688580656 0 0
87.3101459815537 -2.4882777156615 -5.0166616754576 0 0
159.077604078069 -16.4562932911487 -10.5499715073404 0 0
171.904693150914 -21.2283939768517 -23.7346315074367 0 0
-214.187352059571 -22.8480365643199 15.111460312206 0 0
195.133736638651 20.9042975948641 17.1674471747703 0 0
54.5472420637215 5.31110930146532 -2.09279017168762 0 0
27.1385172007916 12.0956241525165 9.60549329792068 0 0
-57.4345095355594 -6.20944537673461 -8.92633733615617 0 0
181.421943757382 29.2220949125615 7.82639998385017 0 0
-233.060423355786 43.832359460077 -13.9430988627633 0 0
-197.799525065193 0.177277770575614 -14.9446192056633 0 0
143.04577298727 18.4242546449866 1.96759425402665 0 0
-82.1445922941429 -15.4959004570933 -7.17351238445766 0 0
201.001090611414 35.9399241392474 -18.1111238291344 0 0
-247.579209291239 44.1613315279169 2.06478161199385 0 0
184.762184737936 34.7828689230649 -30.3805353095273 0 0
-145.744442308681 -12.7579634832466 9.24246783258019 0 0
108.838936022563 -5.07689304250558 22.0900152521588 0 0
20.0706131741836 -10.8844170709852 16.9246050747537 0 0
189.523138211143 -2.70939802035733 -9.44503508477639 0 0
-230.414826273608 -20.8870391205126 -12.3147113188008 0 0
-195.074635707018 -30.2511386506899 -19.3891198523606 0 0
122.45335975111 -16.9333081440212 -2.30700652173388 0 0
-92.9538902606594 2.2634080435767 -6.44217113264481 0 0
120.803572828443 -12.4685691928615 17.606412694608 0 0
-232.911756767842 31.4012942943201 26.8540976309247 0 0
-213.429170555794 11.5736322957412 16.2599739297198 0 0
199.11590362877 30.3691963277251 -34.6239434303113 0 0
-233.663662049109 36.9381874984073 -17.9612244037603 0 0
183.162507330474 2.9261084474408 21.7433943571987 0 0
196.287657015908 -29.1750862373034 -25.9299275302016 0 0
-201.364775495342 -35.6958079320377 9.09318987763265 0 0
99.3316705480215 -12.7050908113557 -1.36399085479396 0 0
195.883668070373 -33.817665346471 7.94714811959102 0 0
-236.988431572217 30.5313977242941 -18.5958619276434 0 0
202.45563902657 -25.0979412021422 10.9953836086303 0 0
-11.9400446542441 9.51082256021592 3.54992946864676 0 0
157.021945951221 -25.6788757040047 -0.20646234998411 0 0
162.965242927633 -21.7919152901609 -12.222792756026 0 0
-219.061218114583 13.4892729207619 -12.6261129324013 0 0
-171.281735320832 5.26513115147846 -3.29472222765581 0 0
-143.75208582996 -21.5264431646478 2.85996038653505 0 0
165.023247109877 26.4724888149564 -0.735310353477694 0 0
155.752805270759 9.0321183747577 -6.50768143960415 0 0
215.002006945246 26.0139567715277 -10.1859594502668 0 0
197.968058177639 2.80928576534326 16.594416201111 0 0
56.0853586031742 10.7095713814595 17.1836573420826 0 0
-195.585853470871 15.2622870851647 -5.36386321920752 0 0
-222.995526105675 -32.4003381020187 -12.0195545937012 0 0
129.624273163594 -4.32480307620718 23.3880486793686 0 0
-125.945978107124 -17.7693703359997 5.78696897682421 0 0
207.807488507209 33.7009121864496 -23.0506602289628 0 0
51.0647643002663 -12.3388274002523 3.32192791035439 0 0
126.628146585252 -8.26647530305415 -6.28162641472028 0 0
126.212262270064 0.445371119057309 -5.24361605600235 0 0
158.407887001666 -8.70125365597476 -9.122865690184 0 0
-226.558138330405 -28.6328361265389 -11.9052164411473 0 0
5.13895316792152 4.29705853940736 -2.42003811591369 0 0
88.8404410361347 -14.2977639353662 4.47447180288562 0 0
50.2752195339759 7.26182604889383 19.4150762233637 0 0
-56.8823093295084 -10.2611201078485 -6.30381296156751 0 0
-68.1035506929827 -14.5220762746306 -5.17850225504403 0 0
-104.329438150625 -14.2332766389256 -11.0232456371175 0 0
132.256520294427 -14.355166342614 -5.61443586298668 0 0
200.435349781704 -41.9315314008493 -6.09179931836646 0 0
75.743634364872 -4.85599556394777 20.566062558776 0 0
170.498295373962 -12.7966638267241 -13.8374025033899 0 0
155.383383852372 8.96205235125152 19.3214592523797 0 0
-215.295826497262 -28.6917466997534 -21.4601860363848 0 0
17.7519174269509 3.67171312029113 -3.35669125515747 0 0
-61.7808796685913 -3.11713844700171 -8.18078129300761 0 0
-6.72200164596288 5.62067520227948 18.3056972840415 0 0
-63.5997326159818 2.85088827402386 -4.28935528936938 0 0
118.416147841672 -15.9325866234838 8.55778483887131 0 0
-217.695868433099 -10.4084430786904 17.0205811055268 0 0
206.802086929401 32.3905246537971 -29.707532314867 0 0
-212.471617343197 38.1645628182527 15.4652644525749 0 0
-136.408966528998 3.7831121287579 7.27994563919619 0 0
179.243630096303 -4.69589239073931 -15.5115979835521 0 0
-213.928555526692 43.173969103281 13.0186525857787 0 0
140.038906480012 14.8723318080221 15.5349617056414 0 0
96.8260917649367 -8.03894786873505 19.978040433309 0 0
-55.0454036803621 -17.027528524466 8.69364317315661 0 0
23.4190763977414 -6.01713404636933 19.4738906708164 0 0
209.206989769777 10.2762532989015 8.10960792776922 0 0
-111.264175327786 -12.0301444254533 11.4375895236056 0 0
-237.437750770814 14.0038487153205 20.8290289343657 0 0
210.316510478406 14.1722418262678 -19.9156648464913 0 0
196.526619368778 36.4134427608515 -20.1831349161969 0 0
-212.803729269379 -16.1202689163529 -17.6341264140705 0 0
57.7151794313344 -6.70677014489251 -3.37931246350342 0 0
47.9712867193435 -5.39015333561506 19.784697306111 0 0
-133.08600270047 5.15120655337757 -0.0365015110312635 0 0
-91.9371685494233 -0.11155366748656 -7.99896219734696 0 0
-195.286595798875 -20.5545933664966 11.2462006231896 0 0
194.343941439859 -36.6887287702935 2.80356184789147 0 0
184.016874229916 20.892288197737 -31.8470953699826 0 0
184.406497727821 -34.9707978469439 8.02927494358151 0 0
23.8272453507915 11.9947914015857 10.3988683494016 0 0
-218.249911035407 29.9687423759199 -14.2077030176318 0 0
153.503807035493 -15.9907316898591 18.876561420354 0 0
210.281488876367 30.3705718488869 -26.4738685808242 0 0
-229.021388575588 18.5687687693621 24.6351924996021 0 0
200.023344564741 35.67855077179 -4.83902947323734 0 0
-64.6632077958437 8.68297239374625 5.93399914814421 0 0
-226.351931519 4.01093567328554 6.00447694552876 0 0
-143.565484617523 -25.1176206982713 -5.90381567692676 0 0
179.539525044019 -32.7257251693676 10.7004809591928 0 0
-6.58076305952282 -9.4294749872842 -1.39994581039965 0 0
207.933826732284 29.2389272973234 -2.43590138033893 0 0
191.446139597097 30.6588110988262 7.25871288077551 0 0
152.121726357405 10.6920306104978 -5.46042328780394 0 0
132.937211114081 3.43432701609339 21.8592435239959 0 0
116.503332971714 12.9137877775263 1.10273350268326 0 0
130.15467494936 3.16753285042233 -4.74734393069335 0 0
194.622707950978 -14.1362691092989 -13.6730554216572 0 0
95.0755614129029 0.126052703863522 -4.56216038807429 0 0
-72.7699796781577 -7.59116947209378 16.7402627818386 0 0
127.563726446023 -2.53126461808522 -5.83750299204702 0 0
-145.284589925567 -14.2598948397428 -17.1702681165378 0 0
204.999859068783 9.86957836758979 -20.9245244812263 0 0
-20.2202284319961 10.3333068930299 10.3244673504315 0 0
-153.740669534693 3.50670440681166 -10.3453462468826 0 0
-202.042508662195 -12.7762697303085 13.8437802417216 0 0
-77.7535093075469 0.302264566198808 15.4520671032266 0 0
-230.238914279792 -27.7790739204851 -0.517634666763397 0 0
167.095325956454 20.2245835921588 -9.42132705610428 0 0
-99.4043488700936 7.15018317601298 1.53676398150417 0 0
-183.523126959562 -3.17563502119173 -23.3809620237419 0 0
179.639061986519 -42.4977561587457 -10.4901504971563 0 0
191.340243462301 -1.10636495605457 -6.92979745473834 0 0
-195.612603588619 -40.1140695323316 0.696181238123072 0 0
180.910311270607 -8.96124519793213 -17.1592884709871 0 0
-161.522446887492 5.06090085336539 2.31300086466069 0 0
106.972573512963 -15.4846669535544 4.58697032621049 0 0
164.340959203268 1.42247187090432 -9.27165875372056 0 0
188.832705920551 19.2101133035977 20.0497384913013 0 0
60.0148977767461 -3.99492892746921 20.388747743479 0 0
-157.874625984522 3.35688096114358 -19.8835783239494 0 0
157.692963757013 15.2316067113843 15.4417938812057 0 0
165.505475640343 0.510611804911781 -9.5760601874923 0 0
62.0078704754679 8.65616676622208 18.9173210563239 0 0
179.722230333518 -37.4126013398329 2.99107923361584 0 0
-181.930520804255 9.10723038849671 -12.0708729669481 0 0
-167.235939338005 3.25466733744511 7.59581778491629 0 0
167.933892650739 26.3713004775547 -6.58536251045248 0 0
-217.964484005172 -24.6407382398191 -22.8769628630723 0 0
198.685885921772 -40.3361555704581 -22.4395923855174 0 0
-189.480458053079 12.0462118291467 2.76602394172368 0 0
129.956566920412 16.545339411263 3.39044775206951 0 0
-94.2306465597527 0.248050595276504 -7.93256274741166 0 0
200.340832444256 -36.7639690017425 -21.4379561082608 0 0
183.672136184836 -39.5703462640911 -19.7247145491454 0 0
152.458135653818 -24.0242295209529 -3.25413708108182 0 0
147.300019933429 0.941117906368433 22.1144969792362 0 0
-67.9648513891867 -15.6641273562585 -3.78766661843734 0 0
-226.392672121552 16.4451645105807 -15.0399326888251 0 0
133.396837870988 -13.0937021393161 -6.09471838658299 0 0
-148.488562480751 4.72925579038512 -4.0005414295035 0 0
136.019795761304 1.16221366501478 22.638145251399 0 0
210.44715483046 22.7068829084308 9.74868386811518 0 0
177.196399000555 -8.27362283204889 25.4105068398287 0 0
46.0723014604373 -0.56627720668787 -5.17538999497333 0 0
12.2934053664812 -3.5159686600764 -5.96927666821724 0 0
-198.908242848318 -8.6145318589034 -17.549633874259 0 0
-198.044167814832 10.7181523397067 -10.1240993372709 0 0
6.68454897835985 10.3441794703457 13.7126020817909 0 0
158.306028259648 -13.2355761167709 -9.92382314694835 0 0
-47.102117202318 -16.7699010286057 9.20361258379831 0 0
-235.308865555057 23.6518469187299 25.9761520450936 0 0
63.8503754371243 -14.0115032785697 10.328160583704 0 0
52.1572111502916 -13.350057111706 5.33528030273846 0 0
164.781888130922 13.185709054169 -9.51843207698268 0 0
-132.099650637948 -8.54748181190004 -15.1983520377009 0 0
-24.9641418298801 4.10821044334156 18.3005591257466 0 0
205.629906410212 33.7765369764448 -20.6636587889582 0 0
-252.385338956833 27.2406169929533 -4.05772633494552 0 0
189.267133302179 3.38236763579324 -11.3114964196418 0 0
-209.506102951657 -17.1321152196104 16.0529090784136 0 0
-202.699609218234 -33.7625337555948 -17.454563898864 0 0
180.974476665384 -31.8951915779513 12.5613228365857 0 0
-196.205900117188 -31.9793475828158 12.0208957854472 0 0
-194.16551091453 3.25045429069789 10.4410488736521 0 0
-38.5794884774187 -10.9273249228031 16.3073197369926 0 0
-219.223362211249 16.0949086601413 19.7556361546996 0 0
165.484956204755 26.8547188388041 1.30568171514816 0 0
-24.6754700676545 -15.556350100979 4.97911900551569 0 0
62.9450127005483 3.33949230600482 20.8372978355958 0 0
-219.350712570859 -5.82561574098157 -4.15973055249989 0 0
213.289460684008 28.4964838621835 -20.4127434329514 0 0
-158.734304239197 -19.4545419000319 -17.9398875291115 0 0
164.637342207128 -28.0780181605924 4.02383582590279 0 0
168.215166739383 4.87431189095456 -10.5778727269748 0 0
179.691492825536 -40.3555760233061 -17.1910010310014 0 0
170.200757222449 -25.9375425685322 15.2538999427409 0 0
183.885788488209 18.324741491481 -31.4041045724952 0 0
-160.415584844508 -18.1205236535246 6.08668956654299 0 0
-102.931549879512 -9.60809212132781 13.6725039159925 0 0
-212.514330608061 44.0541611753498 2.38806154930535 0 0
-151.199270963836 -4.12449800713825 -17.7832423110174 0 0
-210.528298411752 38.0474709319449 2.44509930770718 0 0
-208.838755426961 4.88481032239104 13.8191042579418 0 0
-171.11365521998 3.88957561747075 -27.0095837185591 0 0
-222.167765366738 -2.01802284836684 -4.62533783481556 0 0
-188.800425274616 3.95972026990208 9.68318839136266 0 0
185.528221468647 29.3320219467997 -32.2106919967196 0 0
195.341688416957 18.2499097192017 19.8799152244223 0 0
-210.134148048268 31.9174977708453 -0.894583779908791 0 0
138.527005948725 6.93200936122237 -4.43713622384674 0 0
-239.941860022742 6.50864272038815 7.13645463718185 0 0
195.965165792203 10.9345488518603 -22.6067756263684 0 0
113.90007839996 -15.3857107902447 -0.0308431140900854 0 0
-226.135583800016 -1.01716127372062 8.04222145569107 0 0
181.106965777913 13.801243047768 22.4422754726458 0 0
-116.593030028849 0.858628844143646 -9.81452155208773 0 0
175.168391421575 -35.4468100010681 3.98739420844366 0 0
-203.542401611022 -11.1557870175655 -18.1289438754898 0 0
198.658646847267 35.5623444582611 -32.1204494052392 0 0
-172.578159458849 -4.37334549941515 9.01443753231179 0 0
181.469632523722 -34.1879641383052 8.70098784345053 0 0
146.159043765049 -19.4645460835666 9.34114036841873 0 0
-198.049673106813 -24.0097774096743 12.0146748904045 0 0
-95.5340108929021 -2.8369318773872 14.6775053581475 0 0
-173.096484777823 6.81989252515593 -7.49600130762609 0 0
178.003302421965 21.0360422850892 -25.0271339056008 0 0
-210.350358795808 40.6977133825809 4.54077211035588 0 0
181.341576627763 31.0149591791098 -23.6956225720942 0 0
179.899942825589 -21.2922348821559 30.2904797905054 0 0
-218.097921113526 -21.798527511165 15.6314231342111 0 0
209.654993059303 16.0416091356182 -23.4848860312439 0 0
-113.849291306983 -10.962472936231 12.0090366902611 0 0
119.35093511765 -15.2988441568316 11.3413311472831 0 0
206.666132287703 14.3890103440425 -25.7856939058603 0 0
-243.164966664247 31.8134826778934 -15.4658074750818 0 0
-194.96311118893 -8.26226014627425 -19.3780134896482 0 0
-196.126020869446 -36.5410311743237 9.59528786493979 0 0
88.7388317108848 -7.85963543458468 19.6291456266806 0 0
158.748941781282 6.4839578951015 -7.07536933433445 0 0
176.830768867638 -26.4680197643855 21.6542589861925 0 0
-131.309152779744 -3.37765521567919 -13.1865259515056 0 0
-27.0723241011987 -0.611162593516641 -6.67404679760402 0 0
166.135027318504 2.92056376171857 -9.83742959196779 0 0
179.710950553699 -20.4863690833555 -27.2626363072646 0 0
125.598581866142 14.0492360041472 1.26017349418213 0 0
-166.862190562974 -1.68390071822893 8.86060204139199 0 0
151.943281146411 -12.5196398884312 21.9645496975217 0 0
144.569722446541 17.4251028666869 12.9451370098923 0 0
-222.072660888547 -24.1293765791836 13.1557571070883 0 0
-164.806318562772 -19.7659440547609 5.4161443835683 0 0
-186.881798161378 -10.6096741987449 -23.5302868355732 0 0
-136.087013626642 -22.3626661108178 -10.0442778636942 0 0
178.896057464706 -22.9656861881614 -28.0921481916309 0 0
51.3985017086066 3.93752380032529 -3.59127528402537 0 0
-236.583317944248 13.0104531301489 -11.7969419805401 0 0
206.203047092697 5.94268488981818 -7.10753439980873 0 0
-34.3578411146155 9.45968588008049 10.6541338326105 0 0
-175.093766787198 11.966310182177 -26.4755616342677 0 0
-45.4487569253957 8.2185697028056 11.4868679417655 0 0
185.787197919852 -38.3589468121279 1.75099559102654 0 0
24.2287644154145 4.83168046790511 19.8410809377246 0 0
-242.714596629328 38.4131498283376 20.5393673077192 0 0
122.715459240187 13.2811403967221 0.87512198615962 0 0
-221.875568080685 37.2734358857346 23.9723994631671 0 0
165.9892781812 11.1084737337806 19.3421437425567 0 0
6.43869090605078 10.8336921410772 6.13416081041398 0 0
170.72208763668 -33.5962246528735 -18.6016324062001 0 0
201.617349060753 34.555805074203 -4.36839423979913 0 0
203.234063196248 34.6365585821488 -27.9984888358117 0 0
-137.244858404424 -10.1706634900152 -15.6388141261661 0 0
-203.703530872625 -1.78846227759693 -13.1494107479298 0 0
-201.931534419411 -6.25843863356069 -15.8473555332497 0 0
-161.116137744237 -19.9231265093598 -17.5737442861959 0 0
-137.22470922805 -13.8432820208157 8.83601614146878 0 0
-234.597219217243 24.0099478337973 -18.7511645331998 0 0
196.607508153948 -21.3386883845227 -24.0425916552979 0 0
89.5972640317456 -4.75016704438482 21.1726476397082 0 0
-194.205116417229 -17.7792284580408 11.1484992143814 0 0
-140.867696321535 4.58455070279486 -4.83679643461537 0 0
29.9368538238654 -10.5897437331029 1.51467238631734 0 0
88.7836691285699 3.08456883173599 -3.58091757635358 0 0
160.22188338572 18.0415356602196 13.353271753908 0 0
139.082432968888 -9.21132745343251 -6.94131842954812 0 0
95.0940847577632 8.28302433691196 19.7676913317782 0 0
174.378101732427 -38.6058269306003 -11.1754816762073 0 0
191.156470447021 5.71938954882291 -11.9088559425341 0 0
-201.404045763021 -37.7753314201505 -10.6002414170578 0 0
164.385544766676 -22.339649641292 15.803026210725 0 0
55.5782827823399 12.1221414553616 5.56162050295729 0 0
159.098163338853 23.7410744754373 2.2902489035929 0 0
186.022413970012 11.5137587532641 22.7496012303469 0 0
198.600955910101 12.038023818511 22.1686947834823 0 0
-34.9637066911577 4.07353066169111 17.4627638944863 0 0
-116.941569808764 5.56582231659302 -2.12472485413094 0 0
173.787324727138 -5.94742101243228 24.3788508105548 0 0
-175.889551357017 -8.2965778887632 8.92025926164478 0 0
7.64898309395518 6.61489047171846 -0.353405517131163 0 0
98.6695534090083 -14.1156323079915 11.0241369687873 0 0
-217.384724487038 -19.7462563189697 -11.6066967503687 0 0
190.629380952984 11.0139649035866 -28.6473321510694 0 0
136.378633106506 -15.0888650214372 15.7388905299307 0 0
100.807719374944 -9.64515804665271 18.9590547455626 0 0
-29.787661276937 5.71075691105625 16.4561605920377 0 0
61.7196465792569 12.522020982124 6.23327924282537 0 0
195.227919730664 -43.9795495871929 -19.7229617318637 0 0
172.075493359815 31.9311809721001 -4.32398992952842 0 0
166.780784656042 -22.8160333154904 17.5674148843752 0 0
-225.919242754639 -16.7082344676044 10.943884291794 0 0
-243.246600238946 47.6931218932981 6.79321199040889 0 0
189.735687348518 39.2328882505515 -16.948542088719 0 0
-127.64310122838 -4.02820167747341 -13.0121594763448 0 0
198.126806364902 25.1207750602166 -35.3569655020165 0 0
-189.467920974001 -22.1043706144612 -22.1886843164949 0 0
-33.9209860145649 -8.37125465816612 -4.38404283767787 0 0
94.6367907089197 2.82575952951934 21.7130061514337 0 0
-195.723321033089 16.7664012937983 -1.59039121910657 0 0
95.7944589885413 -12.6306120813725 14.4278848554116 0 0
159.982401832451 -26.3523658190319 -8.00335177785516 0 0
186.660230867623 12.2707636698378 -24.9203874917431 0 0
-233.415694481093 49.2898884177276 7.93925213111822 0 0
97.2385267070504 -5.72221580441839 -5.34834975474625 0 0
-222.383681834058 19.1405347604724 -15.4191700368226 0 0
16.2171273963747 -11.5805597933989 2.11798056778489 0 0
55.4009232891218 -13.3491079184291 13.181182053129 0 0
193.621773821476 -27.2956591764174 21.469043824416 0 0
-158.339807091073 -27.2030051764863 -3.81905191428506 0 0
15.161711821434 -13.7306562628848 13.9337085550854 0 0
213.12072249005 28.3161182830699 -3.44749842656406 0 0
-47.312482741871 -6.20914565642051 -8.36816478612174 0 0
171.058019224115 24.7495848626567 -10.1841213354802 0 0
151.853054659914 -21.452218767574 -7.13279570457239 0 0
183.418373174751 36.9207066189949 -1.18998258697572 0 0
171.270983062421 26.1329253891601 7.299970162709 0 0
-240.602470066466 28.0872957857756 -17.2033275571452 0 0
172.329866228969 11.6254360562548 -12.2575666459918 0 0
197.433521757625 -43.7649337086393 -18.8989199883192 0 0
140.057923529727 12.6192969243397 -2.53693835766961 0 0
187.616187905479 -35.9110305594714 6.26249784096306 0 0
208.633678764947 13.898060625148 -22.5926329511622 0 0
-181.466746654722 -4.42965422536078 9.3977603182454 0 0
-105.934477449972 -17.6489385277913 6.81366174779135 0 0
-196.274845635732 14.0884692960199 -7.82878434585081 0 0
169.517402792665 0.104453370895819 19.3590292892456 0 0
-216.158620483695 -36.9291805992263 -10.0595610577707 0 0
158.787943147764 21.8497509011497 -2.70970256229135 0 0
176.544641073959 -39.2368082803566 -2.2991301375774 0 0
-226.438945392118 -18.8798617876503 1.53180571695379 0 0
-163.192993306465 5.96379933824565 -12.9599036723529 0 0
161.382280443772 16.8904429046565 -8.19177211559563 0 0
-163.900953099837 -21.2383314407101 -16.967903765639 0 0
-221.180780319493 -30.3017525901287 -17.4705884703208 0 0
165.982586391606 -5.55278112195994 22.9023317921474 0 0
-135.132791947793 -15.9755978889351 7.20673866370129 0 0
-212.676787792351 -10.294659552259 -9.43320084758778 0 0
-36.4430539759221 -16.4730785802412 9.64648111816845 0 0
144.13176948887 -22.0186919776448 0.936917934385932 0 0
177.573981771512 -39.6243947051343 -1.44877220599276 0 0
98.5823221023904 -14.5806746971499 8.92462226871002 0 0
-227.236298779505 1.3439118329239 1.36633923065388 0 0
-69.7953260386076 -6.08676452392102 -9.41946944139491 0 0
-177.690068695763 -4.92224482927128 9.02098701760078 0 0
51.4004807824818 8.84729323998609 0.914117374149768 0 0
199.442499654389 35.2474194103882 -2.71123433902199 0 0
-193.960033323456 -34.5025103943934 -15.3220236875238 0 0
-128.733555926972 -3.4550529729785 11.2297697826383 0 0
-144.203958560351 -14.5237951788151 -16.2437971196137 0 0
-119.988499917424 -1.72715170344394 -11.480733528239 0 0
29.163306567411 3.91378848038474 -3.15232565697099 0 0
-54.8826603866727 -11.7641208589131 -4.76006057381136 0 0
-169.124043179858 -21.7714467824683 5.07814321096532 0 0
-78.6273303077255 0.929020912585765 -6.27898703125555 0 0
208.916280771663 31.6155320967873 -11.8189318493944 0 0
91.2042962269674 11.0985524074709 18.2297807083106 0 0
-195.059893365927 -9.46150821369739 12.1034332592026 0 0
178.266792344268 -37.947739597368 -21.4151377615353 0 0
-71.7352396400626 5.78521467875107 11.4152492609944 0 0
4.24518021342429 -1.19641524423647 -5.82404772877018 0 0
-225.893735684243 48.8565616663345 15.0421529267033 0 0
-192.086410405095 10.5240285509306 6.99889200909558 0 0
177.72016160095 19.7241271374444 -23.5097540994599 0 0
94.0815179239979 10.6806974550432 18.5330992500541 0 0
175.14930968339 27.6885418686209 7.68269513568208 0 0
-208.826706604846 -10.102017936915 17.673342575804 0 0
206.129347584735 33.3773549534642 -24.4422164677761 0 0
117.31743694501 -12.5119466998007 17.1437944906719 0 0
193.292850580246 35.3494574931374 1.31315933815442 0 0
194.694587648527 -41.5121210139339 -10.1846547833457 0 0
97.2238598316017 1.83347488104572 21.9390980521631 0 0
-96.0453496151407 -11.526775754885 -11.4698060554743 0 0
-210.144523215523 15.6025725426102 14.0981014441099 0 0
-215.391537346215 32.1139597654741 -9.17629794250312 0 0
4.0908193270727 11.2409804237771 10.8836263453749 0 0
-221.014011510884 14.5117925474218 -13.2405868389357 0 0
-227.003090859201 -21.609795486004 7.95309653361358 0 0
-202.77997690606 12.6377408962938 10.6948875224924 0 0
-141.78714235365 -2.6025143354644 9.74758365149883 0 0
205.181176192186 -28.1080656589392 1.96619176868347 0 0
-217.138969639014 40.2533246656839 19.7485244494438 0 0
-174.817912704542 6.46017480715413 2.10213254482135 0 0
147.892960108893 18.9310235624834 0.454701049859161 0 0
192.671568748337 -8.56579508196158 -6.84136756608333 0 0
-205.550701634377 -3.08684819394761 14.2742896704283 0 0
-203.48106140284 -5.90551118492103 -15.0734914477504 0 0
-171.081044601921 -14.32404725577 9.06825806405561 0 0
179.058056279628 25.2137255844065 -26.0250278503997 0 0
-58.293463318933 -4.72680388999421 18.2508892181987 0 0
-241.868214552829 49.5181892667478 4.5078010600503 0 0
-232.397211838112 34.2563918413893 26.4270910922072 0 0
-36.545184284348 8.70876217374429 2.46732187614124 0 0
196.564428094326 9.97270517360202 -26.7830576422723 0 0
-249.266583205676 15.9556450438703 9.96359496414382 0 0
-32.328199260986 -15.919392475426 4.40049264208938 0 0
-204.372029435975 20.9420455488781 -4.5192242584125 0 0
102.220660330041 14.7065657094462 4.81572882153245 0 0
147.000027308175 16.895859180761 13.6232459733625 0 0
-198.123418284081 -11.3968996269795 12.9247851148555 0 0
-224.465245742593 -8.87134392196699 3.98471741083836 0 0
-164.694589309013 -24.7683395053944 -13.7016286920881 0 0
186.287860592456 30.2483887490527 7.9528140352537 0 0
-179.68079964278 9.08499206338823 -10.0766998260367 0 0
-200.967207321317 -39.8694175980744 -4.6067412863869 0 0
-211.943711803097 40.982422168718 12.0292782205658 0 0
78.2272598290464 -8.00778860167321 -3.78202405064064 0 0
180.849245974601 5.48309529978265 21.7760439288872 0 0
-207.349217386329 -23.1178961287043 -24.3528102033092 0 0
204.712428859275 -30.4188835204702 4.56101916064617 0 0
-225.938426451934 49.2256105072315 2.43033692042656 0 0
-0.990126749896946 10.3097751188913 12.8229519335283 0 0
171.445365991002 20.057490666463 15.093016771521 0 0
-198.116403764715 -14.3460717225602 -24.2043537771891 0 0
-210.546237567776 -14.2651416018318 -17.8787425430104 0 0
184.719639718879 12.0555530072379 -25.8004918147624 0 0
-248.069153210571 26.0098296587658 18.4501414232607 0 0
-44.025864199078 -17.2001226007846 6.76572023448614 0 0
-197.217752629401 -40.1168616144817 3.09927491024396 0 0
-205.478529709403 19.931936128443 -6.41003254565009 0 0
173.501814965868 -36.5458048499577 -14.9821109637119 0 0
116.624898746336 7.67104361607902 -2.14273512235842 0 0
-87.1825729055279 4.02301671294232 11.7066368065388 0 0
-113.595837730943 -14.9818745100307 -11.982896072828 0 0
-164.988343249183 4.63186324051935 -1.20182647848003 0 0
-217.96559330281 -13.6549771541326 -4.02459276488384 0 0
170.368561092965 30.1677988706014 -1.59894584434239 0 0
183.872338962403 14.1883293067746 -29.8629796684489 0 0
190.176252556284 37.9317440424259 -21.066469915181 0 0
-208.331197173297 -26.7114814567568 13.1690300667518 0 0
-3.24765731024577 -5.12161917530628 -5.46837116483987 0 0
-148.081504754256 -18.8557251986558 -16.1076254913987 0 0
87.6228617738321 8.72225495014823 -0.103594946024606 0 0
-223.095064121889 -0.0295727316587999 14.6012256296613 0 0
-97.0357967073939 -6.67351463936368 15.0598853670515 0 0
-237.722144742719 14.7230331301756 -13.8342841802824 0 0
-122.975159534839 -12.58090176196 -14.7254812175544 0 0
137.145064779983 -7.93176597168211 22.7629056984769 0 0
-137.266966868777 -18.6540505019067 -13.7937012950069 0 0
-226.098655638913 51.6945886932627 6.03112767419239 0 0
179.948935994399 -29.5991213604561 16.7794892579421 0 0
-186.020719488511 -24.1805979612421 8.86092241137682 0 0
-37.0167368201835 -12.6391143269786 15.0176412389228 0 0
-21.8900645170774 -12.1398156668086 0.0747740841145326 0 0
-41.2437962824427 1.71303109813493 18.6207769719697 0 0
194.818046523776 32.217796113912 4.31858686905678 0 0
-220.588015679296 -11.5231505845768 -1.10994540964519 0 0
-197.132971807768 7.36736976307851 -11.8384722723905 0 0
132.053185491005 -17.1737790381053 -4.07294686184161 0 0
173.038173125974 -28.4471749512176 13.5182707436204 0 0
-130.898561677128 -23.4909028343207 -4.76163125241257 0 0
-217.226579105936 48.0864942858197 -0.996955838236855 0 0
-191.260964883538 -30.6331093959011 -17.5486202589405 0 0
181.104590576432 6.32714656800737 -16.7159616285078 0 0
17.6859938967998 11.5498598195129 7.42927073632365 0 0
169.725195675179 -34.0675401988726 -12.4618245370566 0 0
-168.722575233965 4.88109215995978 0.101345638975045 0 0
194.389899481571 -12.5786516470009 -11.3550181574707 0 0
133.737227528301 12.065558181209 17.6168265248299 0 0
-206.52659275686 -11.6096670396153 16.2445593760062 0 0
-18.9127100937008 -10.8270697773316 16.9142594618251 0 0
-203.660003914257 -40.2093446082055 -0.18787200810672 0 0
165.430113494369 -3.34470299724338 21.3091465845069 0 0
-27.8276060461967 9.06702638948364 12.5109173649545 0 0
-208.599813259188 -38.8273117830822 -4.19116629194704 0 0
98.8619325149274 -10.8964622436306 -3.74827080653504 0 0
-152.612929825542 -11.6585814748348 9.38045709708196 0 0
193.782608953252 26.4151688865629 10.8939607390189 0 0
-184.599861357819 -0.794438324508252 9.99591213331057 0 0
206.124953948803 26.8636515137342 6.98443156446596 0 0
123.781073101873 -16.3496276241047 9.04654028163519 0 0
-28.7839116660687 -15.5894991251106 4.36573505074789 0 0
165.741408037303 -17.1286252085489 -11.7571206315966 0 0
43.2889323568954 5.71429202159327 -2.67563763968352 0 0
12.5399070600124 4.30049157545801 19.7988661084001 0 0
-113.598118593116 -21.2313738822072 -5.51680875910356 0 0
-93.6924268151447 7.37482129774521 5.15597355534825 0 0
129.81050093915 3.31375870974124 21.9508624656392 0 0
-210.86192004343 40.5456658042378 0.566717147494395 0 0
209.624951065784 30.3733294702842 -9.01546292807311 0 0
-46.5434154099244 -13.162971217971 14.2961446905798 0 0
167.439332058397 11.054486723536 19.6991688046105 0 0
-107.899757072025 -11.6193769098951 12.0113199807806 0 0
-104.327175693616 3.64307566493968 -5.82443089666542 0 0
184.715050712342 -28.7957909346701 -29.9273284672509 0 0
-146.418905021117 -1.19763915568198 9.12180800554734 0 0
-144.24036362265 -19.6942885795911 4.3456366421751 0 0
-195.744078015744 0.146899416106584 -15.5916225407839 0 0
192.116131754055 21.0284653529115 -35.3516681758936 0 0
-76.287440828049 -6.1219882496187 -9.59927786875063 0 0
-211.401780781129 38.6049882096803 -1.30541534542209 0 0
195.749300307735 24.5284123094517 -35.9570607375367 0 0
-206.952215851992 18.9108819033217 -7.54881150591748 0 0
42.1045098494055 -7.97074285911881 18.6332058123352 0 0
-213.2974495935 34.2314400874078 18.6596936090052 0 0
203.129209205452 -41.2231581619343 -10.0405684594059 0 0
161.072300559871 -5.70959754877518 -9.30800010494768 0 0
-144.647118248681 -15.3725765461629 7.63978562962677 0 0
-146.707899231233 0.640337205424634 -14.5020955462916 0 0
137.489525107315 -0.635045963469594 -6.04533162211267 0 0
210.456160982104 29.0827197315968 -2.60094220266938 0 0
-207.115794489352 28.3697477905553 1.22217353187895 0 0
-151.897374029009 2.44490760994242 -14.9878335142041 0 0
-93.3797418714038 7.44408415881361 1.87736548661458 0 0
196.102477869691 -12.7357828829864 16.2645314448601 0 0
-215.507200343633 -4.07153015177211 16.3093071355412 0 0
-230.775732151546 28.1199304590205 -19.6050295284186 0 0
-177.936941279865 -12.0937843841037 9.15957982488983 0 0
202.218790305197 11.855100676737 18.3093897478104 0 0
-59.5134691831568 -13.7954871515854 -3.89288730436019 0 0
123.745809750004 1.8299862172619 -4.80260333133841 0 0
201.037108284999 -23.5413971451028 -18.0415697292271 0 0
-225.517828169718 -3.8570788735889 3.16088690446997 0 0
-212.004750210533 -21.6557485950965 14.8653695707724 0 0
144.589778345776 -14.8900128792511 17.8539304044346 0 0
172.004662592324 -38.8177586178488 -5.02191136197138 0 0
-210.104910384279 34.6315289988882 8.8465401103917 0 0
-214.587855306035 -37.3413525858138 -4.27073598333092 0 0
-246.020668599173 40.0877651742766 16.2553990608729 0 0
171.038688359108 -28.6684318759512 10.7926645194095 0 0
59.2543590225672 -13.5364264038537 5.66328185492688 0 0
179.797232450211 17.9015259168507 20.5888282223651 0 0
-21.9252954409174 -12.9253825761992 15.2198986680281 0 0
173.722722292149 -33.1804988935274 6.49042475464151 0 0
-211.345543938023 33.7701889771237 -1.77338360570347 0 0
161.383271686704 -10.8448925749103 -10.2259593480014 0 0
123.983770674463 17.2390397613937 11.6102962170917 0 0
14.7835740905986 11.2836770581775 12.7860969917194 0 0
-153.840958074446 4.48744603299369 0.956947429605257 0 0
42.062546265587 12.5665919179652 10.0523134120064 0 0
47.8515628594216 -2.45394363930472 -5.27018130758913 0 0
86.4108295725872 -8.78331303955445 18.8206375853625 0 0
184.34319736645 40.2133390905256 -5.92964884812132 0 0
-71.1569868922208 -8.16278045927304 -9.86964503797377 0 0
-230.430081836872 41.1060104789036 23.473432656264 0 0
-253.099155519459 31.9404770210847 -0.821895200467279 0 0
-238.86470284554 49.005835205645 -5.480437537765 0 0
-28.314387461047 -5.58223272952636 -6.89109598306107 0 0
132.943190715244 10.1804255045013 18.7154184477786 0 0
75.3080144853791 -8.32174474729005 -3.29792940701579 0 0
176.641016506872 -16.8736251983576 -24.3051163850461 0 0
-182.27728433358 6.52990439860536 -21.5001796177879 0 0
-72.3361704235305 3.61481240510171 13.6256003030365 0 0
-222.892445653116 -13.0090718155115 1.50624956001976 0 0
-122.407359319428 5.87032116859656 0.373357997016746 0 0
-183.92284972821 9.73371908308792 -3.28033680931709 0 0
117.109248190557 3.85910063580367 -3.84095418659234 0 0
191.926738992311 -14.0583291264898 -15.5046160689107 0 0
201.579420344882 -27.2783262533619 13.3400128385852 0 0
194.703412175992 6.25917201122792 20.845087966652 0 0
153.660135138835 -21.7782853499795 -7.87180744879916 0 0
-78.6026056747545 -5.49235260145062 16.8069526863643 0 0
-45.0709588746271 -10.8788087106666 15.9837905055959 0 0
-226.360588144003 -23.4969230552916 10.5607489250419 0 0
177.480336996174 -20.8356104872754 -26.8072302594273 0 0
-115.731656327917 -2.06320594657137 11.8787157573712 0 0
-140.567580789269 -24.7305572902517 -5.87399988912274 0 0
125.600561104673 15.9976132610589 3.46429565120099 0 0
-181.951839625557 -33.1785403004157 -4.3950098890132 0 0
-218.507314013216 -8.87457803935371 -3.72695150430511 0 0
191.451522350846 -15.643652897582 -19.6721791453179 0 0
97.1890030229625 -13.7891782515161 1.15170098371991 0 0
-222.459292724509 51.1353332225779 4.55100491805018 0 0
-232.880348603211 23.4426284964068 -18.9058227134645 0 0
185.155944283096 -30.0098491915833 18.0718161778737 0 0
191.491373475636 16.1483058532078 22.568958647003 0 0
118.622325657803 14.2922682869918 2.37544016937722 0 0
137.475353918282 8.67884952304406 -3.74610469627807 0 0
175.418013875148 -28.6565575945594 15.1811976447157 0 0
-175.706519619945 -28.1781413314522 2.05475536009291 0 0
-149.806738041156 4.74610180540583 -1.3510357450692 0 0
-175.699661131841 6.56770357685534 0.314438559905478 0 0
205.538705303944 21.8028533087941 -30.4940652551899 0 0
-84.3160897234928 4.80067980918515 -3.43674881489102 0 0
86.4593295949517 0.507056361635469 21.7115652613136 0 0
-212.476289116618 43.9674980394247 6.64841052499751 0 0
189.017907531249 -21.5774560007179 27.974448097157 0 0
-131.308836914716 4.977445931646 4.33433114848182 0 0
203.312863398251 35.0134934197235 -18.1785653902852 0 0
36.1463817391242 11.6515120860863 14.2860562100987 0 0
-223.728260074156 44.1738134928441 -12.7665603821094 0 0
124.598361443345 16.3695904332576 13.5989920496302 0 0
-163.85135120786 5.05993956843846 0.0127471546738263 0 0
131.427321222178 17.9135165928658 5.86293804828731 0 0
-222.590152857831 26.1529202689696 25.5727836515307 0 0
191.60995582116 13.7722032227357 -32.8802947741148 0 0
-65.6586163884998 -5.36370663021481 -9.10871109657356 0 0
184.739947397334 12.8059337003637 23.0078345728176 0 0
-91.368200826129 -18.3732670074217 -5.63956396983068 0 0
-215.944252914635 -35.2622076434288 4.29097096765889 0 0
139.842671449924 -18.7789276666237 8.060075423848 0 0
174.016907690781 -27.7282222793447 15.4822578351549 0 0
-173.032787019218 4.07560116550052 8.17854976495871 0 0
195.425736920201 3.98379375765327 -8.41470913321273 0 0
-154.771234448482 4.84028517543101 -3.02852536596838 0 0
-212.649054027516 36.1146586380187 16.8134808665916 0 0
153.457787765709 -21.6102459175502 8.59717465364836 0 0
186.112660960858 33.8617829778321 3.56832925572245 0 0
182.174687252835 -27.2791690391773 21.515546379201 0 0
-113.080897987513 -15.406893935024 8.4744035688454 0 0
187.211362938549 13.8749539708816 23.4829168470196 0 0
175.012494045789 7.28075715266891 20.671346714912 0 0
172.051496229027 -3.82211101766607 22.302070014269 0 0
-174.413784632397 4.86263002489076 7.58512486306476 0 0
94.4093954176015 -8.50047544295808 -4.94124183106956 0 0
-210.033337274648 33.8147227391574 0.78205306609969 0 0
-63.9891285560515 -0.811032482706645 -6.79658977054463 0 0
146.975623938601 -20.7782500351856 -4.79586201825188 0 0
201.602146674109 -35.1114346786831 -19.9657182424181 0 0
-221.452253387154 -14.1055681175131 14.1619032867666 0 0
-225.442759083933 -1.19760895020529 0.927887923236729 0 0
121.924898492235 -8.29673560746931 21.7142773029089 0 0
-59.1432142038582 -10.4699326167539 -6.46544728597204 0 0
184.132824940553 9.40842143302686 -17.8067279775861 0 0
193.994206820839 -34.1339939253884 7.96874011209045 0 0
-103.06340400124 1.6794701788026 -7.68632564502079 0 0
-227.909702223608 49.994954025496 4.58984892052993 0 0
193.285317048984 -17.328794056154 -24.1417221424522 0 0
-3.45360394881194 -12.9376787682252 2.415707873598 0 0
-205.092034370204 2.59840637850916 13.062570736924 0 0
183.666847567599 40.6807107549144 -9.93646460089675 0 0
-218.8707718942 6.27373001827214 -10.6006453141258 0 0
199.21635673309 -40.1428989104487 -2.16601073667648 0 0
-169.629971919922 -3.6168831208001 -23.4461655717671 0 0
-209.408322915059 -31.1476395257777 -19.9770537343962 0 0
-121.385656837986 -4.55167018819768 12.2494132431694 0 0
183.367989296508 34.6071258915964 2.52634098187495 0 0
-205.174574428555 -12.7027850710018 -18.6967999935079 0 0
203.147837515187 34.2450118145936 -7.1718531930292 0 0
-202.328849947661 8.3065057893682 -11.0202253078219 0 0
-34.7147248328769 6.34308299771211 15.3345220090298 0 0
172.726184303015 5.91799349302676 -11.5964778078012 0 0
-204.535074281637 8.15741661400873 12.5404445734195 0 0
176.303413056095 16.694995883701 -17.1450079683319 0 0
103.310846114495 -10.747999234858 -4.73788067787934 0 0
-108.584803413463 -5.99620305313943 13.8602258312368 0 0
136.518414822787 12.4727791896318 -1.96518897031452 0 0
-95.7747196912687 -17.8939101207674 -7.72030706034051 0 0
35.9966371576699 -13.6200621028224 13.2009459200377 0 0
212.632628219802 22.5224127753546 4.27477733861105 0 0
209.701831495061 32.7386700438189 -14.4497171251373 0 0
173.143566803771 27.2530992561863 -11.5015089283788 0 0
177.822496046953 -34.7055763657436 -27.8005580901463 0 0
-19.1764881947952 2.53200664852194 -3.75235170594186 0 0
-156.37914412016 -24.7900499889741 -11.4936207097442 0 0
-195.753250173546 -27.7059666573138 11.5803169572661 0 0
-170.147800622781 -4.54997519068391 9.01132340237853 0 0
-183.263823334468 4.65550667186041 -21.3316523207709 0 0
-221.345648952961 50.2376517871849 8.43585145526511 0 0
200.034338764819 10.2697053387882 -18.0031713199502 0 0
152.740843970134 18.6695846334211 -2.32340544838605 0 0
-93.1765014739893 -19.9826681186311 1.94556790755481 0 0
162.021199941789 -16.9715580345894 22.4256111937988 0 0
-42.3558995933154 -15.1887703844594 1.33160226075707 0 0
-219.399864965844 44.5390259428442 17.5834559374295 0 0
-209.383636027832 32.7098194289165 3.83115301088053 0 0
143.97218522755 0.444096477584706 -6.26729794469443 0 0
-105.547346498569 1.22178779616289 11.7621196986336 0 0
-207.758313183191 -28.245069344012 -22.3675287835985 0 0
157.799621027129 -15.8138204137844 21.0904327066001 0 0
181.716736206895 -32.0200937557456 -29.3822144724548 0 0
-54.3166572808581 -12.3586499993303 14.4690176378638 0 0
-211.825295299759 17.9355228211318 14.7185284288495 0 0
54.4823379705496 -7.17237382391548 -2.65888034129301 0 0
147.353385235143 4.86381841186581 20.8690477687344 0 0
-235.064561892381 8.82508686926175 -3.45788650404549 0 0
80.5752848300819 14.911087311199 11.7877184137035 0 0
130.207294539368 -13.1750933168994 -5.77529718253957 0 0
22.3880815317885 7.11887825420708 18.7870201120866 0 0
113.006375514309 -14.2560032237527 13.0568934996816 0 0
-45.8278973415952 -5.85809686231038 18.5360003754561 0 0
-67.4586978048947 -15.931966397991 10.250500997295 0 0
-225.689709054166 28.7295033610228 26.6705128160015 0 0
-168.223026631408 -11.7937953557048 9.14727279761637 0 0
-31.9901795582041 6.89870385026142 15.0039200943675 0 0
-78.7221608074589 -4.08673654977914 -9.12975812624167 0 0
129.481704294914 -10.4379429430652 20.7890341873788 0 0
173.052678520138 -10.4831373133238 27.8766632198625 0 0
184.233843689126 37.6348268520245 -2.28386734125203 0 0
174.607743242821 -9.0734811264044 -16.0699117978838 0 0
131.886663792537 2.02479333196835 -5.20224118651768 0 0
203.844220753719 13.4335116407624 17.3375150334705 0 0
58.4111001126543 13.4115855053141 10.0334276475848 0 0
-155.45497073764 -20.331665961926 -16.5606865491462 0 0
-84.186161649638 -15.3579155833939 10.2175874794752 0 0
182.349251131661 33.0501505012335 -24.060305994414 0 0
187.349595283354 10.4228752732079 -18.6357201470639 0 0
183.392585785647 1.22459178051858 22.0663157903434 0 0
-232.735679566066 7.91255383366566 -3.65806306113344 0 0
193.613520543658 -34.9102816121661 6.22267173779269 0 0
-218.939753978648 -10.9893583784999 16.1622824020084 0 0
163.656130736114 20.9627523845019 -7.58023980515004 0 0
143.805873333635 -21.8741491818024 -2.35940191757461 0 0
-181.063614312997 8.70056115795879 -22.1535731532059 0 0
-221.797723264539 -27.6535035409971 -20.3144557008437 0 0
-115.351975738762 2.5001319840202 -7.72495408940382 0 0
-139.22142294268 -24.6073140476749 -4.20575906188063 0 0
183.110994948076 -24.6883289615984 27.2466991566416 0 0
-74.983044755258 -16.614691279653 9.28715978871516 0 0
170.441747291774 -31.9404690109777 4.71617370301766 0 0
193.705420824214 -10.5905698826383 -8.02817710683919 0 0
132.819995938556 6.92937801485812 -3.83301783544258 0 0
-48.3767928045259 6.52131745691487 -0.864271935545205 0 0
163.647773300238 -27.4455174178477 4.23136957608639 0 0
192.972736389073 36.3586327340618 -0.312067484027499 0 0
-108.157384041423 -5.44190584301944 -11.66904666533 0 0
178.583891182602 -31.9655665873491 11.0610025040768 0 0
122.926218983893 -12.8380856962487 -5.361693529215 0 0
186.958460481494 -21.0740365861374 -28.167455481341 0 0
-212.890539823584 -28.8954905846106 -21.4161879680019 0 0
-215.860731763922 -11.428511870789 -5.52784053707732 0 0
205.248632999991 -31.9849964888282 -0.923050300129602 0 0
-178.540750373432 -1.11007483428354 9.60629090224804 0 0
156.978982754623 -24.600510242006 3.73397098766574 0 0
-209.636879231911 6.94217616512816 13.9628343102196 0 0
92.1673715922457 3.18451694609722 21.5686627578495 0 0
199.529933818323 -9.58565216058436 -3.3271454477908 0 0
-191.299156948243 -9.71845646965446 10.8511950132319 0 0
-213.721554195618 11.8978077647816 -11.01947883614 0 0
-182.618808838076 8.20883802551019 -15.9659911884595 0 0
192.281688039388 37.059480350201 -28.7675658030612 0 0
166.240119847236 -19.7462195728867 23.1185093878135 0 0
-225.653419031707 5.40437016804979 -7.05076878171101 0 0
169.494028248975 -28.5994675009247 9.23035368868134 0 0
-102.180743156433 -18.182606079837 -8.72367799977233 0 0
9.18214668198864 -0.13945970102553 -5.69896954989405 0 0
-212.694569413057 -27.0342869738138 13.3005290774332 0 0
-157.668416801962 4.30125538222914 -13.6298629202655 0 0
178.446153795136 38.552875253132 -9.08256927312458 0 0
-112.57492051346 -17.3663810196009 6.72486210883375 0 0
-203.326268777161 -32.2983867341864 -19.1774687584339 0 0
171.422744203785 -33.6009317656669 2.81559563385706 0 0
41.6110655662919 12.299705294326 13.3868018036641 0 0
7.3064460511897 11.3668967232697 10.9492983252671 0 0
-152.921225868869 -14.0782822346645 8.34589692246458 0 0
-113.67463014647 -19.6739321733723 3.97149115484922 0 0
205.091201162187 -34.0889811389083 -1.99705311296276 0 0
-222.464221084959 -33.9175402394836 -9.30831753216508 0 0
-213.701805558217 -18.2886929163554 17.7096608987101 0 0
-189.541857186277 -36.2368431018762 1.22583857687553 0 0
-199.666016697408 -37.607985652396 -10.6524636976234 0 0
170.910646451004 -20.8302748457333 26.525411313139 0 0
207.006021960374 5.19696202876318 5.21175926394354 0 0
-216.793676589135 -24.5499468169453 14.5615306540633 0 0
-173.56107353762 6.37760953780913 3.37875261050398 0 0
131.874529904751 -18.6551813080581 -2.29582507680997 0 0
88.2328370233844 -13.0845285738629 1.11110759506495 0 0
170.259933681515 -0.202805600852453 20.6880772620379 0 0
172.92039730018 33.9361404820751 -11.6249404667565 0 0
192.672881751089 24.1506652123411 -35.6803785338668 0 0
-166.341274426225 5.54200733078255 -5.21597314338455 0 0
-224.043074905798 -20.5950341171138 13.4542736267404 0 0
156.958490610158 -25.8170010208997 -3.23848082154123 0 0
-191.235751683348 -28.9945186485023 10.1099103829354 0 0
143.528354462262 -16.2379523676327 15.381257683072 0 0
-98.168461508557 -17.2518101902404 -8.80164134518801 0 0
