"x" "y" "z" "f" "a"
188.426411672991 0.478934935563285 20.9448081006585 0 0
173.872529490367 19.6722357028377 4.49570256256935 0 0
1.46637597309034 6.95680292571934 3.87347886468818 0 0
200.289728815625 13.4926406566515 12.5598121216747 0 0
-183.782806877059 -33.1306628867199 -15.6129373681544 0 0
-182.981677387304 21.214182340904 5.34509966382476 0 0
-21.688773619045 -14.7181566534386 13.9823423934035 0 0
174.148606783729 -19.2762678165321 4.85462401464688 0 0
51.8833220690919 10.3904614038012 16.3285911132707 0 0
-108.736013036991 -6.4822831410433 10.7924032398042 0 0
-181.542527226525 -1.47017894926052 -12.5920183215477 0 0
49.4504847639443 -5.78900157268068 -4.29388174143466 0 0
178.636655771697 -3.40684683630062 -6.64125272295024 0 0
-109.127693173407 -12.7387317479707 9.81520338415824 0 0
125.055156854034 12.2428024707609 -3.33992981812592 0 0
228.103969343369 9.99679214629829 -13.6491817235664 0 0
-179.079375854176 -32.6137032681087 -16.0212621000747 0 0
220.382547024239 -22.1011936812213 -13.0620278829855 0 0
-154.638468991181 -14.6922641435525 4.806570484412 0 0
-171.123969789514 -19.8065117289658 5.74995198370104 0 0
-91.7711918068971 -17.7186451376457 -8.31590719193952 0 0
-79.3756694977132 -5.09066919829491 -7.60409485473166 0 0
-193.504514261931 4.89727234186712 15.4040377109988 0 0
-151.083650018509 9.35353561628201 -23.5619921092551 0 0
220.34819224035 -8.57332597775465 -2.54940914974465 0 0
-222.528272041972 28.901307775385 -2.51953614852972 0 0
178.455071955628 -16.5730013933172 11.5941120556648 0 0
-52.9117336676347 3.77962873324888 15.4808865883317 0 0
169.866693440108 5.85313467014408 17.352322156431 0 0
-155.918646100741 7.34686448728507 -7.68936348834196 0 0
-215.752937994493 8.87208935508491 7.72333257878397 0 0
44.882784088682 12.5744284372912 13.3258737317794 0 0
-6.18070915886997 -3.44659687300948 -4.89008518674441 0 0
199.187119301216 16.058767547873 -39.4104104214532 0 0
67.8193851007732 -8.41713283952 2.77463909127048 0 0
102.55992035596 16.4883325658319 8.60135907959803 0 0
31.083419328131 -4.56787598742064 20.7560887485955 0 0
-15.8736573284487 6.50845571389144 4.65630943332844 0 0
221.653265892953 18.6493305163862 -38.5232063003198 0 0
216.061245255623 29.6679560697746 -10.2497486552229 0 0
-200.326417194778 -2.57211547671288 -2.52243249169251 0 0
-51.6910154304833 -1.62332647921324 -3.4410196409679 0 0
-207.335842318507 15.4047303644179 -14.4665066435114 0 0
-107.58959978444 -20.5566628067674 -9.93055106373573 0 0
-218.070722731322 22.052822754369 15.3020297267349 0 0
130.928244858935 -3.27970601270609 -3.36535702400441 0 0
-166.883630523509 12.4790712557425 0.670408808552881 0 0
32.7383293422768 0.163886075506874 -3.61367271380713 0 0
169.377010261839 -1.67507844755752 22.2842361592557 0 0
-207.565021847755 -19.4108777323233 -4.22480775543935 0 0
113.684281032216 -11.7224646032964 8.34860802392977 0 0
-208.287013988755 3.35424779413152 3.50143271120382 0 0
-15.1398532558921 8.64264003439251 7.77774936379324 0 0
-165.608252888892 -27.9376407697731 0.895195561862503 0 0
108.610385711925 17.0756980709944 4.42564341853722 0 0
60.7354677989955 -6.40362875435824 -1.46893543505719 0 0
188.449851513722 6.48049111837499 -15.8874039820963 0 0
159.406434935362 10.0606339953456 14.6115247090026 0 0
-179.852930859813 -14.1950783301993 -24.8635023450124 0 0
184.813096479571 -6.39587912949603 -8.38621062452824 0 0
-22.8047826970794 -1.43020846073334 -3.0891387378856 0 0
-158.423699229447 -2.40771579243522 7.18187610542784 0 0
197.382254620889 7.61629895395553 -34.4697423344502 0 0
189.720860305171 -25.1542644670757 -11.7530177447014 0 0
-203.67842903364 -16.5176799576228 -23.4322686188477 0 0
-194.831876233403 31.5227663804669 19.5895525062211 0 0
193.617087825412 23.3474972762081 -29.0832928191161 0 0
-168.003255998326 -1.91849958852888 -16.6956861990796 0 0
216.800796171742 -13.9257105147912 22.3152609079067 0 0
43.7056749233096 -9.19530953716575 3.73613052299655 0 0
25.2766986668945 7.15767581578002 18.6967665566629 0 0
-166.084192807183 -11.3633219793783 5.2745439723808 0 0
228.854728662793 11.9209840885851 -16.6117668229534 0 0
-10.0820283648924 -13.5746111853041 5.30275773697952 0 0
170.305138499034 -17.447095609741 -1.51905013799013 0 0
-168.909307076712 0.304198084639237 9.23231676116409 0 0
54.3852116404657 -7.31351829581949 0.753285442547785 0 0
117.450753550082 7.15069560923334 -4.09054577477443 0 0
-185.779771997521 -14.2276981250847 -22.6235791570014 0 0
-59.2821462730355 -19.5795401227982 -0.284627375078147 0 0
197.403187415579 31.3743859515224 -25.5739396991501 0 0
-36.366810395647 -10.0852030883043 -5.32234223777146 0 0
-143.304876530735 -22.2543915647284 -15.7905004949585 0 0
-10.4484572846021 1.05117979656605 -1.35182069384627 0 0
81.2909623401265 7.25910944586309 18.9844234043382 0 0
75.6805971401782 -1.52350337842356 20.9707236856126 0 0
-200.335559528002 27.4711968527358 -17.0481858004384 0 0
-60.8661218386041 2.73678469444128 0.700708341574396 0 0
-45.5205172727782 -18.7626582865994 6.89056502748317 0 0
124.776121842623 -7.42487040783114 -3.23339285710549 0 0
-140.213678890787 -13.6428120788337 5.8499488039159 0 0
172.223868014152 10.6997910615713 13.6985912117804 0 0
-50.5620011881346 -14.8701086154646 -4.16000815151575 0 0
-176.888430511063 14.6193180259567 8.39759398468023 0 0
-109.336154068224 -15.0147757431929 9.16051781923019 0 0
-208.483341713183 6.98717968816683 14.9131241586798 0 0
-2.50233233918398 -6.38894102236567 20.6268336043587 0 0
-209.707753236027 35.0207660743985 18.8993372098341 0 0
-169.551684690426 -1.26989693735565 7.91389099555919 0 0
20.1211358987054 -11.9601972632023 7.79316322470752 0 0
175.351225260803 5.5810717443268 -9.15748310405712 0 0
-49.6571505105026 -3.51191970616242 18.7762892504828 0 0
178.19702019674 -12.6641120282861 -5.21650387145753 0 0
170.836259509014 9.96160140758845 14.3494918224151 0 0
-166.688188448864 9.91710987862516 6.40684227681561 0 0
-196.347638621184 -4.45660994500271 11.8696235223864 0 0
-172.697109323135 -25.9335617467303 7.09020010055601 0 0
208.216533002112 1.69188160984314 21.4582731042078 0 0
-127.227340258118 2.17524632010403 -6.02067116786295 0 0
-159.682061321548 7.99130767828739 6.64483160163698 0 0
-200.140950509589 -17.1449922800449 -11.3718745351011 0 0
14.9949280446146 10.2317289036788 15.1597228855071 0 0
74.0167277466975 -10.5422872419708 6.67389739738287 0 0
195.086775884337 -1.06061434450746 26.2151990208995 0 0
107.7628388621 -11.4524505531758 8.43999979974303 0 0
156.474089818802 1.47921947570081 -5.19613235930157 0 0
203.514643198348 -17.6039425597818 23.0120451907662 0 0
-104.020456717169 -3.06496978536841 -9.31411830711986 0 0
-1.06579461527525 -13.6327295840769 8.49454066097447 0 0
212.965759732676 24.6316262269599 5.83144881565955 0 0
214.94549113332 26.5470729323821 -28.5907980867146 0 0
-185.85661749292 8.40944121784394 11.5941303970707 0 0
-216.668917960291 14.9739078060139 13.6497334736317 0 0
189.960508022751 -13.4302462838121 23.2462414576827 0 0
-60.2149980428755 -4.46197063517032 17.7128522148804 0 0
183.985784680168 25.5539805451397 -8.71962191576784 0 0
200.512938748706 22.7287179473533 -35.4254105222173 0 0
187.199484649914 24.1245572365294 -19.0778766893174 0 0
-180.44440030214 5.60123698349677 9.88463232440801 0 0
12.6837304764971 -11.0600604754791 17.055935483793 0 0
185.476702584758 -15.7149171851091 -7.60079487557068 0 0
203.562868384429 7.10030106176354 16.1185575927676 0 0
-26.7553488229446 -3.229485926732 -4.1582210752716 0 0
138.659152292487 -8.28499011556857 16.894384884346 0 0
-124.601419973974 -2.54707919341538 9.44726531066686 0 0
-134.825704006751 -12.0747417256174 6.43674506823909 0 0
-211.684385163778 37.8482736450693 -11.7529437889634 0 0
223.363899965754 -19.0916776717983 4.94210137137978 0 0
-217.424814393626 22.9478219969018 -11.350615203442 0 0
-197.732468158428 -32.1673797083477 -12.0943980763778 0 0
34.4387883974429 -0.115211574683933 21.130391953938 0 0
-200.940549120747 41.8543177248221 13.8771533726215 0 0
-144.367706852666 7.9922555461482 -15.5611755027153 0 0
177.426457745148 4.8591498435423 -9.41780647547868 0 0
-179.082957824266 -1.31219887085314 10.0206217994408 0 0
-207.625167430258 2.15610600365919 8.26850186519422 0 0
184.908004655101 20.9117589363965 6.2938974698297 0 0
215.418839518104 -24.9491005605875 13.0680331031302 0 0
-114.226052848913 2.84832661980287 -3.95752961503752 0 0
220.939241454397 4.70202228608989 0.418005085756972 0 0
201.239424446456 33.8697108518643 -21.1943218522532 0 0
200.211456107033 -6.17789944671944 -14.6582680593569 0 0
-193.41651087539 10.5751985033994 19.1677768281094 0 0
188.213651843229 -20.4073080054942 -9.80117618364116 0 0
86.0306462065593 -10.4836298415251 11.4845030750123 0 0
190.690128060675 25.0676610033355 -25.538624708751 0 0
-215.861776786009 26.3251743433391 17.7366706566485 0 0
-118.916632733626 -10.1196023608927 8.66802039560977 0 0
-214.814732081289 7.39019789869001 1.41849170575212 0 0
-175.899099728418 -24.885092396639 -22.7419244369188 0 0
112.380075374188 -8.98085484935906 15.0202203040857 0 0
-107.454006815201 3.97581967442509 2.4379794885315 0 0
-190.419552975628 33.4423134137171 -11.0585224372521 0 0
166.592378716004 -6.99126376325773 20.0982418675228 0 0
158.195533712154 0.293785138860685 21.6094372964576 0 0
2.35420786583302 2.41389041742059 -0.41498950139457 0 0
-111.204226960717 -3.0877947777822 -10.3227203689057 0 0
-187.132904410145 18.2281449452443 -7.64564506449292 0 0
-192.76494349371 4.77396220515553 13.6698314904931 0 0
135.326794929403 18.6333223316241 1.19080266307834 0 0
39.1894636202709 -9.10901191998172 17.5763294392813 0 0
-143.05042197137 -1.624494502922 8.07072968636679 0 0
-159.976635707664 -9.10396164369627 5.33283277072295 0 0
-216.171170786627 13.2819294989312 12.6402638182692 0 0
-183.803925538132 30.4610186659128 -3.47281773686877 0 0
-190.06020024322 -20.5407959519883 -24.6910989374939 0 0
66.5713319206779 14.1499887273252 7.19225485762611 0 0
-56.9560108416983 -18.1218687499927 10.3845371838532 0 0
-33.296763288744 -14.4156099852751 15.0732403350013 0 0
-5.23594914936536 -2.07044635762597 -4.24201681010699 0 0
-190.799275599012 20.6319841452449 18.9159445157465 0 0
219.29273468812 19.6012708639283 -39.1280964427064 0 0
213.261665079941 -8.60767452445619 25.8061536911786 0 0
-96.1346914718579 -22.8444894519526 -4.22659922324888 0 0
-198.623543988349 0.253960661488846 -5.66973238830772 0 0
-201.531574595609 -28.9434659583876 0.924511700350536 0 0
128.26051151619 -11.3549797791655 -1.72187348695576 0 0
-183.468704311478 32.4464771025741 5.04541684838852 0 0
-197.834485607946 45.7004190635624 -3.76265233486293 0 0
25.1375721911018 -3.12879349034176 -5.11876446257098 0 0
-180.32535828371 -35.9194926401613 -5.62390655564037 0 0
92.0503378328088 13.1167672654101 1.464346496921 0 0
158.042187550403 -16.2243115083465 0.440323948133569 0 0
-215.03625318994 41.4190050237658 9.38447617493633 0 0
-62.8988145128286 -6.17340839375632 17.1798650428475 0 0
-208.078882425469 8.01834869153255 -8.85342247427523 0 0
-144.012420183367 -16.7489712663221 -18.4850180643193 0 0
-54.6707671257739 -4.94354234002414 -6.30642604929957 0 0
-126.507299814225 -8.60961768291839 -16.3285268761386 0 0
-219.550767622732 18.8391598308039 -7.39613616480935 0 0
165.273854472179 8.16471872801522 15.9059075797224 0 0
-153.077997871412 -13.7050060676275 -21.7348198272483 0 0
101.630905945278 -9.70237447065933 1.44780809357653 0 0
-158.990243932087 -28.0775555378132 -11.5879504014906 0 0
-80.4248996126936 -21.7657592219802 3.16747701924543 0 0
-210.99714881763 24.7104291685529 -15.8124072691964 0 0
85.0223829186398 -9.65254217503055 13.5170105141308 0 0
-44.7311646648832 -16.0153743598511 13.0818700920422 0 0
-160.366309158774 -13.5958780261158 4.81974998289584 0 0
-158.096654374951 -7.66638639653794 5.56807179312197 0 0
-115.655152314204 2.84432520105588 8.11209064682394 0 0
28.2118486232747 -5.75693633034099 -4.74387728632008 0 0
-189.139723538129 -11.3429246199246 -10.9100354793199 0 0
-164.502780542559 -3.05328529333235 -21.3273818536566 0 0
218.338966874787 -17.6732328755272 -14.4387520005525 0 0
-35.4348336996214 4.85326101359634 3.12957393927163 0 0
-199.286858128897 -31.9412077967294 -10.0018067281337 0 0
-200.060737004883 45.0084823736314 6.79681448483063 0 0
48.9504305957359 -10.6688599388442 13.687061001238 0 0
-202.922324544896 -13.0821361646399 1.75392535097546 0 0
-95.8889255617556 -3.28635591245289 13.1015690401166 0 0
22.3501923896484 -12.2268720042889 11.3287331523987 0 0
16.6275817750849 -7.3723699423897 -3.09682909389955 0 0
-204.84287555442 24.4629378447841 22.3938646767755 0 0
208.77390572797 -39.7418019284108 -11.8900104463447 0 0
-204.774873342768 -16.8107406583245 -3.01298009387852 0 0
-201.516779210798 -31.2964972078499 -7.5400742807997 0 0
-73.4415193413263 4.44100174498856 6.42855184108137 0 0
-205.03567132601 4.97889451935402 15.2649191401497 0 0
-189.379947466392 7.60653093985294 13.0959712938638 0 0
-149.058485588148 -18.5109799199843 -18.8282001072971 0 0
-199.143357095722 -16.785341999674 -16.9667774125603 0 0
-190.841515846073 -33.488360447471 1.12728593015844 0 0
-178.417700770534 1.40395775289922 -12.3055290836602 0 0
-196.315120156957 17.993926256258 -15.0484857763844 0 0
-174.955150781066 11.2858640464316 9.16340039226433 0 0
57.5671106088716 1.67583363313898 -3.65107892668923 0 0
-81.4113085272593 -22.2110693636769 -0.300356338487859 0 0
-145.961044966792 -19.4257343553518 -17.8498496391985 0 0
-195.010478947437 39.9224877961502 -9.86726794654765 0 0
-80.4558358072249 3.81872692268894 8.85938141202885 0 0
208.827491631333 23.2728115180828 9.98598429669723 0 0
-189.022730090919 -34.1397140757142 -3.56985126357447 0 0
-217.285974045726 27.6971919864004 -11.6012544015172 0 0
-69.4486338168552 -12.798612787403 14.637239871239 0 0
205.581223654901 15.7268043829265 -42.8879229613303 0 0
179.590410973259 23.538161994714 -10.0706898589194 0 0
195.275446525801 -9.02941933122862 -14.0852005817809 0 0
-186.154333768296 37.4818870155845 1.04817893621063 0 0
197.496589264803 -30.7329433614014 8.88992489943763 0 0
211.30224791858 8.24521238712335 -41.1820959248463 0 0
-163.790617656752 -29.2390049804153 -12.6583325266992 0 0
149.079909556 -12.3839972078773 11.6545877160235 0 0
-66.5334439604162 -2.16776674544437 17.0234121400329 0 0
37.6512505771476 -11.6156963050801 10.50160844262 0 0
-111.930766846493 -1.61463865972155 10.8358279072562 0 0
196.971917932132 -2.50170444954925 -15.9335915292867 0 0
-153.502414359406 -9.19049217673808 -22.83872357667 0 0
-189.882145938638 41.059143589028 -0.0787166098073152 0 0
188.525593444078 -25.6195894000067 6.03184677375193 0 0
130.206769754573 18.5999766198913 3.88314616448344 0 0
-193.096499141347 -16.4848986176501 -20.2378554855325 0 0
-195.589096819503 26.7143663413202 20.9749779472972 0 0
208.594276100166 -2.44111949619235 -11.2622953339041 0 0
158.20024745137 14.091760986637 10.7212453666943 0 0
-85.567091767521 2.95891522793069 0.411411327276653 0 0
-160.907557199062 -27.882567805123 -13.7090039093348 0 0
-141.455104133267 -25.4894906131637 -6.65305042201381 0 0
222.622491446681 16.1984285044719 5.15747274560499 0 0
-186.008895095718 26.7155828847669 -2.16428222171043 0 0
-135.470804598199 -21.7431264739776 1.20445825192765 0 0
-205.793281015662 -28.894100797605 -3.71450550460283 0 0
213.450916318463 -6.26692871854024 24.2370013404214 0 0
99.7006179924504 -4.62929057786223 19.5458258287318 0 0
188.45193634304 2.13205995287826 19.0654752521523 0 0
-118.90245978844 3.53631541436941 -2.94587517607015 0 0
98.0417489075913 11.6103836484595 -0.331769344802101 0 0
62.8437054068734 -7.3279841979105 0.866108941316406 0 0
173.063316011704 -2.41575253402723 -5.74150076801534 0 0
-194.537984062852 8.88792173649217 18.9454208728519 0 0
211.320612789589 27.426028128676 0.167955453494035 0 0
150.635614268565 14.6963189335666 10.1955687143724 0 0
-146.800679594768 2.96632251685171 8.4186279083117 0 0
-191.690704046494 -13.4377478403966 -11.1783488556923 0 0
-57.2786568682014 -7.87583630540831 -7.27522427429481 0 0
159.817535030069 -2.85828430246064 21.7761097944026 0 0
-191.050007169678 -18.7521129501763 -16.2376522933126 0 0
-43.636709325005 -18.5354634836602 5.90150596677496 0 0
39.267519513661 11.7631171421957 6.89991419536735 0 0
-41.8299852594413 -0.99277013850591 19.3117487897719 0 0
-137.060760155318 2.96032467062137 -9.385101163725 0 0
-82.1258059931803 -15.7477087525078 -9.76461197684143 0 0
121.893473001187 -0.792830452284322 21.0750063055056 0 0
-181.066899076071 18.310676156128 -3.7637869749022 0 0
227.695632340158 19.773117765759 -4.63849668979181 0 0
229.817698356967 16.4816709610092 -11.9453379033774 0 0
-116.055663740227 4.27679701370336 -0.467861305557871 0 0
-206.559225195121 29.7717850812783 -16.7706667419716 0 0
203.19802512545 27.0932527023486 2.74634307395805 0 0
-159.547382114981 -23.9124681425419 -18.3244300847199 0 0
167.524802461677 -16.4954612536346 7.44871983013697 0 0
-182.531155325045 -19.4670378967034 8.13283413959872 0 0
-218.274000490198 39.8790307870202 3.01008704219331 0 0
190.632105033789 8.08766935699616 -18.966727771347 0 0
185.024535901119 25.9634361917724 -10.6966369075055 0 0
69.0992267458734 -4.70574709823544 -4.18712874268612 0 0
-83.5794449988922 -5.30506796221553 -8.2223213350696 0 0
-146.148717291869 6.37458336133895 -11.8927951401955 0 0
124.783081321421 14.0550819357444 11.5194045265614 0 0
152.6046618803 14.2471937899554 -7.10764747414192 0 0
-56.3620725334872 -4.05519221636916 18.1292727313768 0 0
-196.259880222621 34.7484817461648 -14.0336431705918 0 0
202.120916827308 -24.1144405315903 15.9698800707389 0 0
-156.771764905964 8.4592307813944 0.778775083696993 0 0
125.773903023337 15.9482109385213 -1.0248437782131 0 0
177.689954043235 -19.3905303021415 6.6635642250949 0 0
68.8222368797051 -6.10994583514721 -3.03615484337644 0 0
-165.712822626254 10.7598230856945 4.56169814465683 0 0
163.081178716355 -0.919754253610286 -4.92257471545666 0 0
-76.9832447917054 -21.7364532659995 -1.04862828193348 0 0
-10.5159442592959 -2.87259399076472 -4.54484074635115 0 0
44.2779398575275 -6.62861079648802 -2.07514684846034 0 0
-107.399364581645 -0.882477172233068 11.2082593450545 0 0
-165.35603873544 -25.0930133206929 4.23782574157144 0 0
-204.294246549478 13.4281691159797 -14.655637105767 0 0
166.012078907402 -1.72221041144275 22.1234924645354 0 0
-7.10365290327171 -11.1977319042305 1.7813897942392 0 0
197.065453408019 29.6925909116479 -28.884168652355 0 0
-205.161323274962 35.5173568557375 -15.0286732708425 0 0
200.277439428876 -23.8714059106045 -21.0606507396964 0 0
-123.41483565115 -23.3352137018488 -1.79644587200399 0 0
229.895317786655 21.4322139887988 -22.419823329039 0 0
182.877411512706 24.1987303723241 -12.2348745431937 0 0
227.03907247862 9.98184961764894 -26.7372981330085 0 0
44.816266550993 5.52310563667019 0.552296910139735 0 0
-24.5407706707864 8.78564333435974 12.5205630426724 0 0
169.925693283412 20.8773778640906 -8.12024876314559 0 0
113.456417424427 0.753464014515722 21.1232797542195 0 0
-118.419073045647 -2.75858906933254 -11.2528937379597 0 0
210.891186320352 26.7588200615011 -29.7409131869928 0 0
-188.134074549726 -32.8978920035513 -15.7125151567105 0 0
191.339340374948 -22.0847612773455 13.4690914850977 0 0
-189.805662368725 -21.7063649955684 7.93527359715408 0 0
212.932002896146 -19.289238275525 19.6084357207904 0 0
-122.539279267333 -21.550960397275 -12.2703798102804 0 0
-180.926463161073 -34.7155161095173 0.707897422993217 0 0
-212.621426487888 42.5676209275453 10.3904732383033 0 0
-112.067600070025 4.22206390010442 0.571945511201597 0 0
123.181129246641 11.5429900988193 14.2024711447796 0 0
-183.502747734433 12.3529736682272 -9.04795507051168 0 0
-1.90623588925443 8.83230711538456 15.8053716492168 0 0
197.200866362755 4.12995097013384 -29.954560008796 0 0
-26.9291974575168 -14.8635893516304 3.18595416452708 0 0
217.194521676405 24.2995404355304 4.2528748046114 0 0
-144.355313771136 -2.35618799359216 -23.7077814969555 0 0
-114.21624048195 0.783140448557193 9.71735134874535 0 0
204.069082060302 31.9010608835085 -11.3271761089837 0 0
178.162917160186 -14.5658186845493 14.2236487437465 0 0
-208.650172095746 -23.7060900743494 -11.4135559477497 0 0
207.476900433506 -11.9605667923254 -13.5467161667311 0 0
147.210397676429 15.3370894335153 -5.10808682233928 0 0
-172.408071003497 -22.742762716547 -22.8173298537309 0 0
-186.668473110265 -2.34916149487575 -12.197833799463 0 0
146.514147442929 5.95138637740886 -5.59991797774404 0 0
-162.370432423049 -29.5294408638035 -9.44645660561619 0 0
57.736866061879 13.3732185418041 12.8758640248482 0 0
141.074927642866 6.7305227725969 18.2802025253412 0 0
178.437113300713 6.70041342744441 15.30397948265 0 0
52.1852917548185 9.86895094524545 3.42507773664797 0 0
-197.094976303901 43.5686947817575 -6.82061049444844 0 0
-190.905842605415 -1.27816119461009 11.0157753241829 0 0
140.278634280992 14.2879897513874 10.7024823995955 0 0
-187.596664885276 -24.5123475026354 -24.0073993094914 0 0
-219.979119577408 24.2202756347 13.2900517811474 0 0
145.972845713972 -4.08921728062311 -3.53273590002263 0 0
160.799158035074 -17.2902885486666 4.90818912964991 0 0
-199.449415902032 -28.9263888534176 -19.6879945583097 0 0
-188.426240353559 39.6396489503253 -0.550015794025504 0 0
-112.661181569185 -12.4422666855111 9.356232957894 0 0
214.834449448365 -27.3374720903793 -18.6459871184185 0 0
-201.698321947732 -8.83192845029411 0.121618701411946 0 0
-28.2182897041558 2.169984890732 19.4733541219463 0 0
-64.3066974087941 -15.0850086983006 13.5102727513869 0 0
-130.669683592724 1.71375433602618 -7.9842004687327 0 0
-85.6180837041798 -4.80120882789883 14.4303853804247 0 0
108.844250564346 -8.85746509800769 -1.57202279657233 0 0
112.873428284205 10.3397511073972 15.9039544738844 0 0
-29.8156432802279 -5.97652276903493 -5.26647178646259 0 0
-205.187090671876 45.9484514260694 4.69583148128041 0 0
103.984075869514 11.3887483967764 -1.0500198339376 0 0
225.527394115476 16.3153737308151 -35.2722290277329 0 0
-196.487007276882 -31.5268409681001 -1.49048428767927 0 0
-197.631909246607 10.9431821329937 -11.4631180331107 0 0
206.455966211029 19.8758684368102 -42.0287716510114 0 0
-183.026737983885 4.94108514228526 10.0894997102301 0 0
-179.059482369493 -28.7943339426123 5.90230876487777 0 0
185.730855661683 23.0526675376191 2.92286271637612 0 0
213.533440267511 10.6009497752757 -42.0665957253877 0 0
-209.150907372792 20.9525753472614 21.0992597615777 0 0
188.320689330522 11.537523402238 11.3126879819225 0 0
-169.837044367254 9.00023101050805 8.09104616749291 0 0
-44.1258037780259 -14.2927109597423 -3.19777101089669 0 0
-83.9252690119717 -16.1717084645515 -9.79893180807093 0 0
50.5726622176594 7.50964592861177 1.65375263083156 0 0
217.906805634122 -2.67700427914326 -6.37402261699399 0 0
178.436078226724 -6.59580926627342 -5.87362903734666 0 0
222.538280290279 5.86618012490546 -31.9811387756856 0 0
30.8883157841099 -5.8710497819957 -4.80436976752883 0 0
106.827199668145 -7.95293970165501 -2.81446213316867 0 0
-186.124641861219 33.6781151350498 10.9201111586078 0 0
-18.8483476296857 3.05421425966741 0.849993799236285 0 0
-143.359941483197 -4.29566048160995 -22.7261410753798 0 0
20.6634268340149 11.1846128204634 8.42174415243118 0 0
-155.508570532897 -20.2366752027859 4.19625757818614 0 0
-151.170095951494 -12.4112672264611 -21.5456096517976 0 0
-221.888019149964 22.910181171063 9.81497077179001 0 0
122.460944633737 -4.78766984639879 19.6953461301289 0 0
-178.97377492488 13.3929444265068 10.5744577909186 0 0
-98.3740260560883 -0.0671047513880483 -5.80141564666386 0 0
214.236748456627 24.6014570320823 -32.274424778921 0 0
-95.4810775669061 -7.01539193062967 12.7697950081078 0 0
170.927999819758 -18.888296677315 2.00192948444478 0 0
36.7308070596239 6.20075831883009 1.59528466528773 0 0
-82.4930939306915 -7.625294951242 14.6276898694121 0 0
-169.278520284398 12.0034750816 -6.92469996066482 0 0
177.309252783496 -6.50575759897957 22.1921532888101 0 0
-24.7716636650086 -4.75822743695353 -4.96034483633668 0 0
128.84124393717 15.4294612580944 9.86812286993175 0 0
-170.492390283887 -32.45523121946 -3.81837508013586 0 0
74.1802878147827 -10.1467001943541 12.7678555174855 0 0
190.503431783635 10.0154460027235 -20.4310633474048 0 0
-222.150117345931 23.1423631987814 -3.97874912180064 0 0
221.56130382238 -35.0173966542988 -3.36691000490096 0 0
-193.097766200947 -25.8595117146572 -23.174136562353 0 0
-27.8699655467865 -6.9789428609961 -5.21533201212305 0 0
-10.9119518985758 4.34214690216517 1.83158145301667 0 0
175.341699783062 4.13975015614985 -8.22274204275983 0 0
-40.7259812876479 -2.23870767222855 -3.57576670756678 0 0
52.1695393575302 -10.3786111197762 6.51092119597974 0 0
-197.000998066504 -20.8845404811915 7.80595941234945 0 0
-126.887717616469 -18.2239349951354 5.29844855139138 0 0
-188.152618102939 -24.2581602952204 6.3477123897993 0 0
-137.53459033936 -12.012304058871 -18.5604043267217 0 0
-36.281380935016 2.83609848004519 18.563101395216 0 0
-121.489861237402 -18.0972885720989 -14.2662424953148 0 0
-113.457989017806 -13.4795919432692 -12.7972038783756 0 0
-153.57057734057 9.84864939520807 -18.568955960451 0 0
-178.955212332779 -35.6705676873753 -1.28989481670629 0 0
-201.995778010027 12.018627226341 19.9712423765889 0 0
-44.9783408743293 -5.73180264791426 -5.59244962831734 0 0
209.904598774358 22.6129457014001 10.9690535309506 0 0
214.761065290716 29.8181506588935 -18.6106216660188 0 0
-107.769282007738 1.44877681143006 10.0372139788952 0 0
179.532090112961 -14.1632810434695 -5.65397356135135 0 0
191.422568384551 -27.1835739861277 -14.6308673443579 0 0
-193.381908971533 -13.6175719890104 11.1136836441952 0 0
173.938325181995 4.7118345948638 17.9852584935731 0 0
-136.444255218016 3.62196017362764 7.69065405389619 0 0
-132.232895573638 3.6783171836068 -3.81697114854008 0 0
18.2761525301186 10.9584942997049 8.2553326888084 0 0
-14.5107676864763 -14.9599595399584 12.4469639397117 0 0
67.8632568909525 -10.6583390443567 7.69945211999271 0 0
-79.4310901355192 -16.4151369564967 -7.2491345677115 0 0
145.207860346188 -14.4278540743146 6.76688677704463 0 0
156.524521688086 -6.82029807206048 19.6745812029463 0 0
194.258163671011 -3.6080014089 29.8645944918401 0 0
218.683646633132 2.94699405418471 -17.9544560718179 0 0
6.50669679728558 -9.80574806485441 18.8442226684344 0 0
-153.3004417018 -16.523880496794 4.87502502327975 0 0
-53.7850070022293 3.53472678011928 1.69764638763456 0 0
-166.630165863366 6.08491784134474 -10.6485793768243 0 0
-71.6187994491604 -17.0696605086136 -5.66751582491371 0 0
179.035630886637 19.9316565688606 5.54002957292872 0 0
189.00636589553 26.5106457244541 -16.2114731640635 0 0
-163.982672366581 -14.5444334888295 -23.5983329261596 0 0
211.511330270841 31.0479710033221 -19.4303534662878 0 0
189.314938384649 -25.9978786837251 -10.5454326207984 0 0
-88.8795276611046 2.70365855769395 10.3383227108949 0 0
-107.956698289655 2.00755440631215 -4.8452191974196 0 0
-119.128461983133 4.95743090132756 1.67838355599439 0 0
-203.823211924613 9.04979919386047 -9.32075574072068 0 0
191.988993443131 -33.7283086326467 -0.569970034272034 0 0
102.290978313706 14.338644510362 0.92143868506099 0 0
23.5470288105343 9.43675563640964 5.35200828785874 0 0
-206.336409777592 27.0668504783192 -17.1726903592174 0 0
-182.759303741864 -22.8982688667584 7.71639870854809 0 0
179.006824063407 -10.0090473202385 19.988035795024 0 0
116.980089833567 -2.0352543188598 20.7437335463931 0 0
219.869165602008 28.2045405815035 -10.4910226779601 0 0
150.362295733906 4.18355451192085 19.8503750050796 0 0
-108.914466632776 -8.15144786831744 -11.9351022600033 0 0
-25.4568443125674 -9.47542584924972 -4.09260004595448 0 0
-209.348681456541 37.1710392846613 -13.1645777399729 0 0
62.0201266312183 5.16170797306206 19.9739464358608 0 0
27.4414441307945 8.96370806778048 4.53255007186701 0 0
-12.5247816971462 -11.4284321015592 1.10621440024471 0 0
-185.583581799461 -1.97251161613962 10.6927545763107 0 0
105.050028803457 6.47121780830293 19.4076183882327 0 0
-195.999756590161 -32.9426830663127 -11.3802415166998 0 0
-113.297967347995 -19.82945771471 4.80344418844596 0 0
-212.266904293764 27.5965727034132 -15.2391985150221 0 0
-184.451406253927 30.8995913870151 -4.71556675448995 0 0
-22.2436750081286 -9.82628815426435 18.852554736762 0 0
-39.5936559585541 -1.29608927658587 19.4953159055268 0 0
131.685569864016 3.19149684508392 20.6478530982585 0 0
-136.241169577549 -0.199242378048426 8.69426121169229 0 0
-196.136906076301 -13.3882205013975 -7.38541083173662 0 0
226.18134722077 18.8907606549009 -1.0823714498551 0 0
211.144928178077 3.51564476812216 -17.1385904921881 0 0
46.0418119447422 -5.5901713243623 -4.6280039405306 0 0
72.0613741723839 -0.240675767066711 21.163171296752 0 0
-67.5692370327885 -18.6518177341655 -4.27337947861289 0 0
109.62396978206 12.8462912185725 13.4926937019712 0 0
223.6339162297 -28.4126106920506 -1.97653155338161 0 0
194.08334039179 24.9309676396758 -29.5720583897916 0 0
203.692023881671 24.876967001251 -34.4969369164114 0 0
229.108274761925 18.4066110794605 -8.57746767667311 0 0
138.458698755813 8.38810264687756 -5.30423261761864 0 0
10.9819657699553 4.93032388356476 1.72568012674038 0 0
-105.31273367619 3.50903633407434 -0.186720172650941 0 0
71.0992825647897 14.8100509721527 9.16250931103088 0 0
-112.118910348251 1.81543569421809 -5.59820168016913 0 0
219.613482618419 -10.4068719302603 -6.6888309995786 0 0
-155.544572593614 -8.32107526726052 -23.4610885582468 0 0
211.847034472422 -28.3132849659169 11.425970892555 0 0
222.156129847814 -13.2077851750262 6.03806741997224 0 0
174.515452110655 10.2023517476391 13.9332996855236 0 0
-191.606971917385 -7.7938421742413 -10.9108783677067 0 0
-216.626458867112 21.4803033737764 16.5749249848341 0 0
-25.8111140207231 -1.42895219506 -3.01312513037567 0 0
151.050574202323 11.1736055246234 13.6577549785112 0 0
220.882293190932 -27.6562375569923 -12.4412432763015 0 0
-161.772120821581 -0.0451405532629741 -19.8842470304919 0 0
-127.323855211502 -12.3210825306402 7.35384183329335 0 0
176.210992838551 11.1613412737413 -13.564123155627 0 0
14.0017877367488 -12.5724620129317 13.1739934041656 0 0
3.22282986733366 10.9381960471818 11.0703295608901 0 0
-60.1889813285449 4.33677308717128 2.76341531673147 0 0
150.788472537088 18.2873203038547 5.96984999157156 0 0
167.834610753028 -4.39908244900936 21.7749606045946 0 0
-217.622455675667 38.0187963590712 -5.75625825782696 0 0
-203.655783661919 13.8990110577645 20.0922358715525 0 0
-59.92545573973 -20.145397763898 1.88914223205557 0 0
-194.950025832644 -23.1026550415289 5.89561633241379 0 0
77.6156223295358 1.70014407950885 -4.21591113106103 0 0
50.0777248129497 13.4940368693475 9.16089301411524 0 0
93.7225867336549 -7.76075833525955 -0.76640608317018 0 0
50.841535475587 -10.4599755159805 14.0831819614059 0 0
168.100895351323 11.9953836287368 12.7179015400657 0 0
-121.389826304839 -0.920960568672728 -10.0044534660524 0 0
147.531655991729 17.0358139426121 7.68087688471113 0 0
-185.748878178331 -32.4567535667336 -16.7552626519401 0 0
170.251468911285 0.939808128489312 -5.96160439102366 0 0
27.871156749159 12.1726380196561 11.9506707582599 0 0
-29.2311839507658 -6.02081157435998 19.808252667476 0 0
-221.299439399223 16.5064437332732 6.02573489089051 0 0
28.9170961586962 -5.70056840009703 20.4392477913691 0 0
210.85247242378 24.6302730072608 6.49975066635969 0 0
-133.783099531452 -1.26060085247655 -18.5983297915516 0 0
211.994219677591 -33.8665567238039 0.449833766908718 0 0
191.467856007709 28.7195059554188 -9.70396659263664 0 0
-208.852252722685 -19.1483655080498 -13.2385238540034 0 0
-106.668087112122 -2.01596901032983 -8.87332147363446 0 0
-213.114806880308 38.8535098573589 -9.9500771546594 0 0
191.483707603195 -29.5532797403403 4.05689474893743 0 0
175.447742571022 -9.81223510572488 18.9590822714992 0 0
-171.625875324941 -33.3763747712327 -13.1600318833463 0 0
-210.252754697618 26.8456649755097 -16.144541696246 0 0
124.670689628088 -5.63709966979028 19.07020895804 0 0
41.7295803204386 3.14685867088184 20.603246618504 0 0
102.718870808927 8.17539254293665 18.1534309986501 0 0
6.03346782303851 7.92971242563751 17.3560230542446 0 0
203.512365218433 -5.80492893006597 -14.1361016486483 0 0
-163.712359496539 -0.337064857516727 -17.9157389259334 0 0
213.621690505099 -37.4966164196627 -15.5374150368562 0 0
132.988297637877 -5.18301299006116 -3.19971875207439 0 0
-114.984101746997 -17.5052364382256 7.14533824760163 0 0
-179.358203692985 18.5914793093895 6.1312199504951 0 0
-140.316957410226 6.12432581266038 3.68119295761716 0 0
180.92338016193 -22.241982791894 3.81271423978018 0 0
-46.0358252437859 -2.71815608972493 -4.16866165142953 0 0
209.240349617001 0.989644535843926 -35.2273450293844 0 0
-181.001397314354 1.89442136031505 9.82856423428518 0 0
-112.896835995937 -18.2692962733286 -12.8857406980924 0 0
-186.190855303283 37.467559407291 3.008994403136 0 0
191.805039331764 -12.2843103570732 -10.46398972839 0 0
-199.879946064133 46.7436434256612 0.372348334979725 0 0
87.6743432280561 -0.260233770577235 -4.00440055698724 0 0
134.287102477462 -13.5350166568831 4.02701489091499 0 0
60.3494058534854 10.2191924099912 16.5287181376004 0 0
-202.163713962121 -20.1988214643551 7.23574777070652 0 0
-208.08733586338 -19.3881158133612 -9.30762458281354 0 0
52.3130141962295 -6.71095524697129 -1.17639667432785 0 0
-153.635549643495 8.21400512260948 -23.7774542158819 0 0
-35.546799890173 -10.768488176896 17.9314500776003 0 0
-183.077624943935 4.6128742367276 -11.3469450674368 0 0
-149.813258481663 -9.9259207614573 5.38341289208961 0 0
20.7329732196368 -4.29564066618126 -5.3284068439833 0 0
-161.08949700794 7.17261599723084 -10.2670333629743 0 0
200.494442386495 15.5204545802181 12.6273584097321 0 0
-155.158042001347 7.42643131977049 -22.1122311285982 0 0
169.210507198704 14.1840006269189 -11.705152245238 0 0
114.491874519147 6.46056631765094 19.2848135188217 0 0
213.772923813126 15.0795919617103 -43.2887177183171 0 0
-152.053084044313 -24.4182120222845 -15.9298294622867 0 0
-3.48044272524343 -14.0417142154818 9.38394722895518 0 0
8.74180778684279 -12.1811032427272 15.4012239318269 0 0
-209.067231756132 22.8204687328088 -16.3378069795103 0 0
77.5086375970939 -6.38252299988678 -3.19659738695184 0 0
-194.489542463887 -15.2269859845903 11.1675216635284 0 0
-68.8605729577639 2.69056067346827 14.1582296058189 0 0
-185.639206200479 7.04287910882139 11.3344478041031 0 0
-199.979544760758 0.972524236240044 -4.47280292971197 0 0
80.835827011874 9.01421691875078 17.592046012514 0 0
-173.825981562432 -16.0092885848342 -25.6267088892355 0 0
217.498454346689 29.4969312888694 -14.7441571912762 0 0
56.0064790250865 13.0607720669404 6.63205631566996 0 0
-172.621434370258 -10.0460536112089 6.25593074481765 0 0
209.699802375926 0.445366588649246 -33.1483919026399 0 0
203.932374328935 -11.0934839136199 -15.1159047275613 0 0
156.344027964826 -3.96955751203123 -3.98225592158769 0 0
-218.807491137649 39.0814136677338 4.22813259843547 0 0
-197.999674783468 44.526015166696 7.12666485415558 0 0
224.297228899965 26.5188308845582 -8.11137625686901 0 0
-220.560587242063 16.6089062385286 -3.35076542935062 0 0
-182.593014109781 -3.20781620297521 10.5627503647045 0 0
-161.836359058393 10.1926595990649 2.24179040243399 0 0
-185.894317737388 34.7764392482213 -4.25348606373573 0 0
-194.969165506649 13.0980341081834 20.1968367165032 0 0
227.820242093584 23.5710617211234 -25.7200809926382 0 0
-26.0566396883579 -11.9348372800272 -1.22469144823592 0 0
23.697177885583 10.5281554601134 15.3652917712249 0 0
189.270093124153 10.5266327139092 -19.5357900349334 0 0
-201.412345667806 -16.3516215800797 -16.4885160271539 0 0
-218.371803500707 36.8484483054856 11.1168117043413 0 0
-116.408652091496 -19.1641129530187 5.28251357414455 0 0
169.406227248521 3.289566456466 -6.86129459666282 0 0
-209.099925904766 -23.4598717901616 -2.48602441267579 0 0
223.51467385087 -20.6391018018262 -3.63966036726755 0 0
-190.119967335114 10.1346794801455 16.837391572093 0 0
-187.181682842316 -17.7152646043394 -24.5582125674125 0 0
221.842887268632 27.269976983559 -18.1010402610958 0 0
-28.7029543508542 -8.81053992546641 -4.75718316035816 0 0
-41.1301308915206 -15.980320639073 0.051644036764081 0 0
-91.0610923991088 3.70704721547844 4.76556623342959 0 0
172.410653179052 -18.4483678038631 -1.35909165914419 0 0
-156.095786226328 -18.3489323808992 4.72477306458202 0 0
-190.949610773341 41.8329160091609 3.33898234331384 0 0
196.984612690659 -8.98267065969647 -14.9652575402803 0 0
215.035928805298 0.402563397632097 -10.9291217751036 0 0
29.2387681151435 11.6269777806233 13.959776334239 0 0
-158.531192418386 3.39683114883746 9.44142813033014 0 0
-222.124993866111 18.7152899211089 -1.26162628695169 0 0
181.657017456792 8.28236921354611 14.3581083554836 0 0
-10.9303719613394 9.65568387108128 13.3678337951628 0 0
110.744539504636 11.5018778310967 14.8819083541151 0 0
173.304165023838 21.8180683322925 -1.67233692966188 0 0
-119.901391490761 -4.74385669082384 -13.2687091507869 0 0
108.787531748384 -2.36298298119572 -3.8827577037723 0 0
-20.7709723528708 1.68915028294079 20.1066395293064 0 0
190.809349816185 7.26450775241391 13.9070994111044 0 0
-133.853832003593 2.18445380715076 -12.6110832098669 0 0
207.93972582717 3.57585331775228 -21.7944352063832 0 0
186.820608405614 -11.6882611795177 -8.30032381968292 0 0
-123.604486048869 4.78887212800461 0.212700343248975 0 0
-123.465320382318 -8.64951419066867 -15.4578816988296 0 0
-133.584819263671 -4.4412089769123 7.90464045666714 0 0
164.622955765735 -8.7429324301184 18.2170542763542 0 0
-162.890039989182 5.04570784711428 9.27731110838 0 0
102.025092996587 -3.78174387345153 20.0327369259646 0 0
-161.879242893658 -21.4253975816433 4.50029865377567 0 0
-215.541096020077 40.0477138891699 10.9135739471773 0 0
136.120929185805 -3.16315227000971 -3.37411879882358 0 0
140.80163505975 8.76510575804249 16.3758545156614 0 0
202.576714608226 -16.0472400115011 24.597691217281 0 0
179.960014229676 -13.0752386882272 17.0812672186679 0 0
144.520883986499 -6.74925585680656 18.9485661054947 0 0
-169.718514503567 -5.72310775465638 -20.8470432191497 0 0
-208.188402859846 -27.6514983596026 -6.72107303842914 0 0
-200.055488254944 22.3230641176226 22.2589780894078 0 0
28.8522624743933 -11.3070434402663 7.01696534727158 0 0
117.586022471028 15.7222177524922 0.0359880788547478 0 0
61.1141519041803 2.50850552143902 20.896047786932 0 0
152.902746332647 2.79077583925176 -5.45318204254992 0 0
-69.4062241347631 4.19828278567296 2.96977789576527 0 0
-112.908185862562 3.02165821775834 8.00880232769083 0 0
-74.0974417664254 -3.66937834861325 16.0705352340813 0 0
97.8075610354498 12.5460645273844 14.0567173681464 0 0
-86.1189266657212 -7.35490519685166 -9.35519859304878 0 0
-147.559070507715 8.43310728255521 -15.0434456899829 0 0
171.598988292937 18.0708126531015 -13.0114325471018 0 0
-122.280824956029 -23.9141807397619 -6.21768566843222 0 0
189.363910143005 -25.2665362078171 7.27386591740271 0 0
-86.3424389905353 -22.2731628724944 -3.09983231543181 0 0
147.920173176618 13.435546327914 11.557925107648 0 0
123.407960158104 5.5023352193406 19.7905846649283 0 0
186.159184250563 18.9140986000086 8.76887326883893 0 0
104.002309339987 -9.87752146371243 13.1529875217856 0 0
66.5199188799016 12.5627071504263 14.2623204678823 0 0
-69.5578778374988 4.12379081389081 10.9623618606284 0 0
209.195380289263 -34.9767235448151 2.6603877955235 0 0
-77.5831117894775 -21.385825218441 4.22390492322683 0 0
155.279156324016 19.9443774728555 -1.8955496425704 0 0
116.140711220327 14.8973964796608 11.0081832976018 0 0
-70.2805099878474 -14.0092258078537 -7.5483969634109 0 0
-58.4632307223888 -4.45198260436465 -5.98650713530062 0 0
-162.04699541263 9.47815009506356 -5.22295130717151 0 0
100.403403463873 2.22669928841036 -3.92705662051543 0 0
54.9695083350509 -2.075268779408 21.1135032927058 0 0
65.8215473648897 -2.08575517040428 -4.54666851449195 0 0
-206.941897707063 -17.2356059384279 -12.8862328194043 0 0
-218.218242892912 38.1277449314004 9.60751188071833 0 0
-181.239061925925 15.6649087590592 10.5336339100071 0 0
-213.671693824515 12.0514440771567 -8.96271003854324 0 0
-149.180480840816 -10.3006539592804 -21.8108225682883 0 0
215.327192500239 -28.5337698202545 9.6299451687003 0 0
53.0296002615666 -5.20604426967339 20.0554474016271 0 0
156.034767950855 -10.422272420831 15.5729289100498 0 0
-194.48471467448 18.9207342389627 20.1979825754768 0 0
-8.48390739503593 5.10045945405612 2.5199154473269 0 0
-30.4573281332177 -13.7470091811776 15.6917049855257 0 0
-117.236068944454 -18.0909804716655 -13.6561814280708 0 0
-154.525876284257 -26.682282038289 -12.5380125053611 0 0
114.446664556021 -8.90166489657358 15.1697472390469 0 0
124.804336491331 -7.3206222312986 17.3628451123594 0 0
4.6503730200375 -8.66174163707329 -0.925772904960811 0 0
-169.055511341809 -32.2450411386167 -6.71511104686778 0 0
8.86369166039262 9.83180901951778 7.28123024203617 0 0
-106.116815701713 -4.03636711932953 -10.1871126514644 0 0
216.743050918531 15.1600104360688 -42.4537443487878 0 0
-1.18854517218665 7.39341446762135 4.53120216912852 0 0
-6.05186250063685 -10.042812303074 0.0710957857929688 0 0
180.581954385964 -18.6357024839391 -6.11537799650427 0 0
163.788579693346 -10.5879548211672 16.0109618928046 0 0
-57.7818864736265 5.298879405177 4.85468225724383 0 0
153.558638149298 5.97118218723507 -6.29409617294783 0 0
-202.016812269617 -1.52547282814048 2.6862663012465 0 0
-204.461128570068 -21.5155805780737 -22.9488452335806 0 0
-210.570485185097 6.60785510525394 12.4441106586103 0 0
46.6153491668932 1.05074284350942 -3.7407057118965 0 0
-180.310816679931 -18.2900494032627 -26.2416479845397 0 0
-145.394846466806 -20.0119802500274 3.62534430165131 0 0
87.3376983178358 6.31493142387543 -1.91763689548163 0 0
54.8038657450327 0.801922921271557 -4.30297147208268 0 0
-177.132205431444 -9.61752386131905 -21.2389326034485 0 0
-57.3312649856328 -13.9271569654847 -6.19396595610332 0 0
-188.817029286493 -15.0813979515968 -20.6597623417211 0 0
-219.659970425797 35.8675747762311 9.65734186247852 0 0
-205.976885255094 43.9034874900582 10.9298063588903 0 0
-200.266483733258 -6.11526208274139 7.1664018645 0 0
-120.689877665084 4.45780446728014 -0.686078806527726 0 0
228.926545269401 14.273911603865 -25.9605802953266 0 0
-186.30235768457 -27.7751429053218 4.02810845977719 0 0
-44.2406955343029 -2.31674105554099 -3.74978708968499 0 0
-51.1923246960805 -11.4976327130671 -6.18910666614299 0 0
-7.92163220716735 3.30714216116163 20.0619925400798 0 0
106.513234115728 -10.7930115931028 10.9849552315044 0 0
-144.157831857264 6.77255460462422 5.16484497562427 0 0
-197.504217509229 14.4706754646665 20.7395671786116 0 0
192.079925508476 -12.3940332904506 25.7087435898004 0 0
200.620252941284 -18.8964846511196 -20.5540339856163 0 0
-61.847776966694 -11.0145488653485 -6.84658398725468 0 0
189.17044802841 9.28874125462324 13.2111296452882 0 0
-140.648914821521 5.58012171604586 -13.4073603401637 0 0
198.148058785715 7.08740940940963 14.9257909932319 0 0
-158.765748085853 1.56760004119295 -22.0811938620078 0 0
-179.146170323887 14.8148170404234 9.90134282673557 0 0
181.912029965735 -23.1035407968708 1.58335859601807 0 0
194.523431132924 29.6286383166464 -25.7365695000148 0 0
-208.335857876239 -21.9515627996479 -1.42019934310191 0 0
0.898439197801175 10.7818349552646 12.2014193552764 0 0
0.253806673883225 2.98310536679638 20.3695602381431 0 0
209.632810608595 16.9486661569594 12.6083768221698 0 0
-0.681510564041715 -12.8955951924499 5.90479272788797 0 0
227.600164425797 25.4718110577513 -15.5782973893874 0 0
-191.316285508527 42.2971264927572 0.465109196271142 0 0
213.553519434931 -4.36092167051277 22.2951596706817 0 0
-181.856672937741 -24.6680770916731 6.94634781776471 0 0
-161.425019756551 2.20163280756758 -15.7165551239939 0 0
-123.449144133041 -23.0885381791367 -9.65009842391718 0 0
202.987266124164 -10.9156250260245 30.2071342230367 0 0
210.812155577357 -22.0530240827102 -20.5317933427292 0 0
98.8018595575664 -3.70522407198647 -3.88120713233752 0 0
73.2050595555205 14.745642808636 10.6464449755731 0 0
199.213460198447 -26.6560089004474 -20.6368224455979 0 0
-177.627862543397 4.80151611193117 -12.0139109991645 0 0
-192.893123195355 12.3223951783247 19.2257933919528 0 0
-200.595241592478 -15.7757390769784 -22.3195184554981 0 0
19.7159450845608 11.7042129729904 11.6514689190789 0 0
224.677307633818 5.14271213451131 -20.0262469742486 0 0
-85.7614472676974 -22.5274514224778 -0.835770283231948 0 0
-91.8310019012085 3.81155912511484 1.99401466564404 0 0
118.042892795193 16.0406891885696 9.58915677832542 0 0
227.837664273207 10.3591668692539 -23.4238274680389 0 0
209.260707569563 31.3403232477281 -9.26091649894678 0 0
-204.162244335984 16.4291891449955 20.8984475544639 0 0
192.062700864237 17.782924246218 -26.6682678351344 0 0
210.455169854422 -16.3628821823766 23.9399759416893 0 0
12.2139160675741 11.3781692170488 10.9111629087395 0 0
208.000722887783 27.5710651162864 1.18029339696019 0 0
169.837998011779 -16.438626953017 8.27596046531371 0 0
-194.243081580687 -12.2636888598873 12.388671001274 0 0
1.7598253471606 -0.532346965151439 -3.23057221461074 0 0
31.9522509212871 -7.36880748860995 -1.07298853247353 0 0
-211.035680987786 42.4549593036313 11.8363272467682 0 0
-197.815456186978 -5.74066903702037 11.9347102199746 0 0
99.6662952999592 -3.06924892131851 20.4365336379326 0 0
216.259910998225 1.76847363592236 -12.7754439282674 0 0
-55.0756997073305 -11.5621181922111 16.4219564480676 0 0
-153.674644806172 -21.0092563354855 -18.8980923676845 0 0
213.681805661625 4.2809879432678 -22.6153811210711 0 0
-193.201074332473 20.3522194306059 20.0816343615189 0 0
196.987932304543 27.5508730270812 -0.768270475530296 0 0
-200.841064105602 30.6963207927689 -16.6780460185392 0 0
-216.41118136068 41.3232454924262 5.62266611695305 0 0
-84.8848316055408 -16.9048538045179 -9.09096875919497 0 0
214.595801979707 30.1619339925615 -16.3999810487591 0 0
-97.5769286524669 -16.1802746569232 -12.2977246543156 0 0
172.753402634389 19.9770896045329 -12.2371231388504 0 0
203.799089407311 -37.5022277043038 -12.2861424046929 0 0
146.552245356298 14.4595722895581 10.4862706249381 0 0
207.816973291625 -21.9687820635841 -21.0488950872507 0 0
-105.367904144201 -9.20609177451814 10.9179998276252 0 0
219.885398156571 23.1999051088366 4.10823074685856 0 0
-199.592874615882 17.7850439233662 21.3394986836121 0 0
115.253077222135 -7.57683750478021 16.9416170165748 0 0
-126.753279359504 -8.35274799317087 7.72282033430411 0 0
77.9570217026547 3.67824544109471 20.669272454389 0 0
223.333860915115 -21.0831534690344 6.43979707866527 0 0
-193.849500537909 31.814170103423 -14.0398629712677 0 0
169.905756472256 18.7723757279084 5.50122965437187 0 0
-56.2246719527405 -1.05506836514216 -3.11001909488969 0 0
-192.616321598352 6.23693797281135 15.805858032262 0 0
-169.575298302487 -29.602472628084 2.74112892301112 0 0
-110.90297791947 -13.4278556498419 9.45301155152342 0 0
-15.4452922849947 -7.76049964133513 -4.64256034145712 0 0
183.769344344538 2.23998299875171 -10.6460367982082 0 0
