"x" "y" "z" "f" "a"
-244.034930430044 -33.2362925857108 16.8756645779504 0 0
-55.3451865806586 -8.78098135175274 9.65276831159489 0 0
-196.874207292661 39.0987446498438 0.375684548563124 0 0
219.369362648027 -27.7134685282669 -7.66841728924439 0 0
177.860153762563 -2.1514992692236 21.8153452816142 0 0
-15.3724738956246 3.70294996359814 -4.04088151641136 0 0
-12.8028111716347 -2.32301402313158 1.0684620870863 0 0
-206.412501687667 20.3626096942307 14.7664451099865 0 0
183.366460174348 -20.4691103705618 -32.5010078918313 0 0
160.709878148513 20.8108765370564 -13.010254735177 0 0
28.7065975219714 16.718909533988 14.270969553292 0 0
-193.185766659599 31.0345097491891 10.1667002042127 0 0
206.844138345544 -12.6826476224577 -25.7817903949166 0 0
215.631499463276 -14.1565709420013 -3.07251017653458 0 0
74.9695920550588 7.29241648425559 27.1967324799686 0 0
-185.753731285625 32.8316665391485 -4.83701196020028 0 0
196.003380627729 -6.00228423898172 23.3686824697984 0 0
-97.4678887525676 20.0049228505975 10.80660445256 0 0
193.123667266124 31.8472430318753 12.0700050039799 0 0
-89.4953212435693 2.4485924288083 -6.2830181043934 0 0
184.476437002247 -16.4116759765616 -28.5603648294037 0 0
-162.383121548264 -10.6531833052529 -18.2269966090417 0 0
108.088692556587 -4.35173262075901 -2.29044822562793 0 0
-40.509644681176 13.5718798941526 2.6596814076703 0 0
-179.535826036023 -12.6808408789385 -5.01968445507446 0 0
-110.826751545755 8.50035276218703 -11.0295538590208 0 0
183.965238063751 41.6333608395055 -8.7303623848623 0 0
171.023567206417 35.6641319684222 -9.70398716343296 0 0
19.8484151700021 -4.05820870982939 26.1621795736826 0 0
-164.680119702906 20.2285428035448 -22.4835328031822 0 0
174.252678637487 -31.9708388026444 -22.0616078362398 0 0
73.694228733231 0.449852371778138 27.4915778891364 0 0
171.828991166003 23.3798380408252 -21.125411452806 0 0
-244.974601090325 -45.1303572150093 3.07408339104926 0 0
80.5444228802056 -7.03148974288043 24.5350166371731 0 0
177.830402463631 -34.2513864598396 -21.1991510562798 0 0
95.200592340837 -9.2179429783842 2.8727729970311 0 0
-218.696139537485 6.60764442659489 14.4691882077005 0 0
219.0357076636 -34.5934292608161 -14.8125879400896 0 0
-228.117195497307 -9.3896854512309 5.61533946541973 0 0
91.0878042287438 8.57900386792992 26.7320408749223 0 0
-45.926134356491 6.85122830316136 -5.50733398142204 0 0
-155.106936122918 -7.13518787485248 -14.5052915024338 0 0
-241.413978100528 -28.4513707136005 -12.9552534630768 0 0
-216.881825725442 10.94039889491 18.944957179783 0 0
45.621232152165 -11.0296610698125 10.6161896026587 0 0
-180.461054225512 -13.4747099086701 -1.94488573008616 0 0
90.26897621122 7.60067330236489 -3.74210449959389 0 0
-70.7719335017805 2.53941062223957 -5.65167582630815 0 0
-113.5301383261 -5.39127302729137 13.1819530456784 0 0
209.096302281305 10.6377770233234 -11.8118375638281 0 0
-68.8732010124091 -1.82551658300949 0.527135587064752 0 0
189.830985565042 10.2915064304731 27.1580571199049 0 0
-196.565965302133 -24.5243133075808 2.4690350805583 0 0
184.48812893331 41.9092637731758 -14.1088882183186 0 0
-190.576431036341 30.5372733534111 9.48376448801016 0 0
-236.738231468781 -19.6333035391547 19.283660496843 0 0
162.181440570218 10.6060653332231 25.6959411733834 0 0
180.019778967161 -16.5351556235587 21.7587455486725 0 0
-227.680717296434 25.0943330771881 0.962579449016984 0 0
153.286329288279 -13.6132203190274 18.4097148283315 0 0
-155.330440593737 -6.42393576521637 -4.62436117978026 0 0
67.3994634579218 12.9348591630592 1.72924745361035 0 0
71.583447678456 -8.89335027583961 5.31823412411429 0 0
-235.640854854224 -35.0013396622456 -17.2579067006668 0 0
86.681106716895 -6.38961193821738 1.10974476079616 0 0
-203.616500907811 5.16013373985748 17.8587815751897 0 0
193.744327867714 -1.49430472408121 -10.0922853950833 0 0
75.8117293720475 17.4671173753127 11.3041735712543 0 0
118.233637576726 -14.4255875618635 4.72952177439408 0 0
-30.1842738961101 -6.93010963576885 6.04169889324019 0 0
-228.636282044965 -10.814604684204 -3.17475806059124 0 0
-215.728462023359 -24.0327819050823 -14.3411819614623 0 0
185.827036774239 41.2588407884654 -7.65153102668328 0 0
-150.819545542988 25.0615116019924 -9.92236084170785 0 0
-208.679649105582 -3.73819432822705 -13.3744369881818 0 0
200.77091306178 -15.1319077586267 25.1276092137197 0 0
4.57226218679657 -6.45527438428734 5.11766420889911 0 0
-210.769673012593 4.34093995639389 19.3643411672893 0 0
-194.374609897195 6.27130215767931 12.9247603461751 0 0
190.84710393938 -19.476431955205 -35.933814015314 0 0
-47.4746336104267 18.9359315186563 11.3709980731551 0 0
83.8431768258125 -9.61878449847613 22.9859806792718 0 0
-149.396487964374 25.6636564646867 -3.12482730867942 0 0
53.4810506444366 16.5879697590605 10.7611608947216 0 0
203.440344850181 6.61449970910867 15.7355375906902 0 0
149.545412472454 -14.1475913612221 18.1922330019619 0 0
152.67568360743 -16.7641890440288 16.6598776421717 0 0
-167.907979861913 -9.5302441873031 1.00022234292151 0 0
156.387792697496 -11.3391911504142 19.6484142803252 0 0
180.215483749981 17.6622385249847 -35.5136718128405 0 0
10.3734434629966 -9.55752493424598 21.6462665023234 0 0
-146.793395421206 5.64918234915089 -17.4081754340569 0 0
112.266106807273 -7.82298267399748 22.6643385560471 0 0
-235.987801072752 -11.8093648719898 2.50922309380696 0 0
61.6122500541227 -12.3872914997789 19.5653178562922 0 0
-117.43284909283 11.9885969655532 15.6784494039987 0 0
216.039746220409 -33.1679371714395 -1.29204772940139 0 0
195.655735365182 1.4637539731934 -11.5281243724859 0 0
20.0929352346527 -2.27067809878504 -0.0996134077429651 0 0
-208.575154170221 -33.598579352641 18.9803271541667 0 0
78.6854841476251 12.868015195825 23.8002688659261 0 0
157.3648770404 25.8851534183664 8.33814765232768 0 0
207.252536640818 -20.0192867375201 -32.3671998335614 0 0
-19.5751693862442 13.3238867223921 4.61349910386431 0 0
162.674775672559 -26.234049436984 9.20124395688309 0 0
-225.852483307965 -51.2507692737577 -10.4384509354787 0 0
138.541383810914 9.44029861559117 -7.20621161942321 0 0
200.506112545178 6.23590321153166 -19.1179275377615 0 0
181.365459781403 25.3523112461685 -37.1453250870788 0 0
207.50182424888 -32.2895625265168 -34.5204570676241 0 0
-216.739617221689 -31.2247824044336 24.7554138364397 0 0
192.958487458763 40.8889986581901 -10.2525152230927 0 0
-37.9352700435434 2.55827201289304 -5.15854489941464 0 0
134.41830011909 8.89176686119206 25.6267821698091 0 0
-148.626003673299 8.61277147061315 -17.5053473271765 0 0
-211.63276117068 10.4329937820434 -9.77503951033043 0 0
-208.114308807874 -45.2832422254741 -5.14938169242294 0 0
207.396592154145 -5.49462624578806 13.5378278016891 0 0
-103.590438051772 20.6772930001075 9.48501431434436 0 0
-225.866147597538 -33.1975693897634 -19.7258489779643 0 0
-191.726687490516 24.1740970722535 -25.4958928361719 0 0
-82.9877013463632 17.4723175347784 14.8119134381684 0 0
-217.831330846839 20.5925697552762 12.2216483385617 0 0
150.859690925915 13.7851333167866 -9.80400102802138 0 0
-187.42561091544 -4.43299403037313 13.6055724466448 0 0
153.966500919026 25.6090075513947 4.76020488377659 0 0
-147.990802875716 15.6201262267053 10.7006770575069 0 0
-208.280437743025 37.5808565206126 -8.4161618707532 0 0
-168.857796808179 27.6351497211142 -8.68448492024588 0 0
216.811853231745 -28.1130038914033 -21.2688675706972 0 0
-170.746512223118 27.3821484455886 -1.96296522374142 0 0
-219.889674962519 -11.5565178333465 20.059668541399 0 0
158.744962015643 17.815605218461 -12.294112922761 0 0
59.6119589395692 -3.99331235153176 26.3697908767293 0 0
192.959988790925 -43.7599005131069 -4.86830619082562 0 0
86.9297972641546 17.1013593829767 5.05743527647051 0 0
83.7647941285375 -10.6423724957319 6.05904316871299 0 0
142.814551085925 10.9027916981994 25.0549547513265 0 0
132.92751352988 1.47829173197593 -5.70762167997567 0 0
82.8638407800151 15.0562742577361 1.96349714539444 0 0
-146.200609150241 7.79068616735064 -17.1011773177486 0 0
201.404649692105 22.260459931899 23.7824327468951 0 0
198.911528497651 -21.9159891507155 18.8980232578378 0 0
178.796779309659 -3.68012703997986 -17.6560796588427 0 0
154.91205720424 -22.3834185108092 -5.1440899589566 0 0
-230.853090944742 -12.8709050578543 0.56836395689862 0 0
201.35914411438 -23.6836708329501 16.1326330357756 0 0
-159.124300683444 -8.83681018545777 -16.3596558696434 0 0
161.344776610873 27.9561354767238 -4.94395130984288 0 0
209.237842001288 -4.9789263403525 -8.23049482835062 0 0
175.769176696184 9.45985813827709 -28.3095333761378 0 0
134.640195938732 -8.38314445872716 -3.94839106228761 0 0
190.066689125793 36.3114348491784 -23.9128798326954 0 0
-200.823581467151 -4.15770922332029 13.9461641782844 0 0
200.685079687962 -6.70801147964312 20.9954488631345 0 0
-60.495115811921 10.8405552545213 -2.67983002739145 0 0
210.256865989957 -31.7116679178142 3.91975023816728 0 0
95.8496096739364 -13.3962743658975 7.65788221781347 0 0
-210.597367569008 -48.793913168927 -4.16779575067469 0 0
-212.620648589902 -48.2168460345286 14.2837813495972 0 0
93.3025340842113 -13.6262916782678 19.469719438919 0 0
209.07595435408 -11.3526223865299 -14.2581122167304 0 0
149.880801178176 -20.3706577506303 -2.25775800049309 0 0
-19.0781387699258 -1.9680080659921 26.2541393854353 0 0
-157.102288333363 -5.7550082649688 -7.57299460675306 0 0
202.121210447137 -42.2823249369932 -15.6816166756031 0 0
48.1130327964566 8.04792438893084 26.6759432041127 0 0
-216.48407336144 -10.4416893438777 20.2939258246321 0 0
124.83885509942 18.1622387181482 -3.88114088266942 0 0
-178.115452849533 -11.5450263766735 -6.61808917051394 0 0
-218.211397400814 -35.3962100460977 -18.6191350983459 0 0
-227.61330343805 -54.2387914185959 5.08843726112935 0 0
18.303533246686 15.4470715846374 21.3056069693547 0 0
-144.867146557157 23.0376565792175 -13.2475844085743 0 0
-97.037361053724 13.1604293574792 -8.94757529601746 0 0
98.158468955127 18.6382252906484 7.23648172655554 0 0
117.3061980185 5.83126909626544 -4.85677405068025 0 0
190.057224753676 1.43948771000517 24.6879890363767 0 0
-3.93470250402687 -9.49200535274717 20.5994079925132 0 0
31.9734905893497 15.2851144625737 21.2557252872878 0 0
157.44952570646 6.85865965856655 -9.95586575558161 0 0
177.065717481551 -12.837496210006 -16.9116159769273 0 0
210.593366020482 -12.5774474934957 -18.3772120968746 0 0
-31.2677409166578 18.013530188769 17.4485264103162 0 0
-123.341924124607 17.8281593583146 -11.8935862154411 0 0
125.095609323477 21.2247421116287 8.64306919432416 0 0
194.314583511106 -42.4145413778533 -12.2983260166095 0 0
-76.8861673608978 10.7137235328309 -6.19670563556706 0 0
35.1964485198044 -2.76045740219077 -0.585768508346422 0 0
-139.185764916634 19.6758331826896 -14.9931308957047 0 0
-247.081190893537 -39.6041399553675 -1.92833677458663 0 0
201.303376867374 17.6852923197792 -34.7342824371573 0 0
-220.533606068417 10.7090595170765 -9.06451267760766 0 0
204.695319181055 -11.4979033033235 20.9606818670299 0 0
-118.062573264294 -0.880716822818875 -4.56302095525878 0 0
-205.554669886271 37.1133409261415 1.86383230845767 0 0
162.888274050487 15.0364120110165 -14.7409452553449 0 0
100.289493281522 -0.323493472450422 26.8157509860731 0 0
-102.327140335637 8.87683221783946 -10.8144475155878 0 0
173.427302932849 -39.7900387809481 -12.6529838708877 0 0
-106.678466768531 15.0149743240135 -9.92455924534834 0 0
-123.200763536041 19.7193144942525 -10.5312455295007 0 0
39.2707338746513 13.7609705372497 23.1398942714038 0 0
-166.327195061469 27.0996692534674 -12.8167819177855 0 0
-0.228818112502387 -0.788126360770768 -0.889844899900364 0 0
-197.455366918995 -16.0409075049105 12.4029768639492 0 0
211.212803121012 20.9496164432688 6.04989690008656 0 0
130.37626722266 -4.3333137554919 -4.67188215869036 0 0
200.377816295631 33.3313359319043 0.787225317684164 0 0
-154.023817697871 -6.44795907018514 -20.4185456652312 0 0
98.0752884468228 -5.13946861539569 24.8544338850303 0 0
-85.0723422690084 5.28092666033554 -6.9213896432166 0 0
21.6218285477686 11.7159083033808 3.38277522108167 0 0
-219.013811192341 -1.87423940849821 -6.53582173690626 0 0
-179.07092272585 -12.7857778727153 -3.79839440720811 0 0
-3.05082755459053 -2.34244238274975 0.754061289256262 0 0
-206.544580670018 -35.6710908279588 15.4938024424667 0 0
157.649948824631 26.4390816931902 -2.04930308684448 0 0
90.929781670101 -6.1964074620424 0.555547382726862 0 0
22.0753679202907 -1.99031114236574 -2.07347709334079 0 0
-183.069881766137 14.2510503551873 10.9410146656511 0 0
81.4084355998099 -4.77066757228389 0.263787221543518 0 0
-245.478690985374 -33.159107041728 14.738726439448 0 0
-243.336028528955 -47.1228146312997 2.85281804209592 0 0
-180.468643265849 30.1557496199088 -11.3258011541343 0 0
194.853344574797 -15.5379936513929 -23.0715227091536 0 0
-186.599005740025 3.23057746124254 -23.2678405604902 0 0
179.673755566994 29.3460096154201 18.6786817961502 0 0
175.24160292695 -10.9853457816692 21.3605896894031 0 0
139.097545947411 20.6879749846304 16.177625426331 0 0
169.15667789476 -27.3362843403266 10.5485174963667 0 0
-193.120949663782 24.0029392516042 12.7316416080545 0 0
-218.58090896417 -54.5315959768828 7.41011554299227 0 0
29.4625309772666 15.9075956726359 19.9603977981265 0 0
-176.532353227359 -12.4624918046525 5.05062005097246 0 0
-42.4046451398596 2.09697101347045 -5.84419849803684 0 0
-183.755255234566 -7.44963579265112 11.1036663655617 0 0
-237.601764865311 -12.7482466674095 1.19685317132757 0 0
-220.780937534912 -23.5708096621273 -17.7801684445962 0 0
208.312277754126 1.72726478003746 3.59821142479192 0 0
192.970393458436 -18.9254294702807 23.3699855320072 0 0
208.928652189707 14.1398505698524 -21.0249753657285 0 0
-180.928259774709 15.1493441142919 10.8712302004743 0 0
-195.925689365023 -22.3626668228428 7.50229659904639 0 0
138.834086868459 -5.26283682664247 -5.3366056367455 0 0
189.124873265164 -16.8377209514053 -32.5486744881032 0 0
81.580842687314 -2.90599273967936 -1.53162657818681 0 0
174.377361146563 30.1922094136526 -22.9570272695319 0 0
-11.7171951162913 15.8155120568228 8.51955527408546 0 0
115.872811885566 3.77322763498631 -4.60485686770991 0 0
165.872838819114 -27.0700586628118 -11.2634694368173 0 0
-229.186469506942 -11.2430806703627 15.5157551865674 0 0
195.828601228865 -13.8717100200492 28.0382841450251 0 0
-93.3747607977676 -5.90526270917527 15.6287250124802 0 0
-210.495763151235 33.6722102189092 7.19718000133483 0 0
28.770428854312 5.47692812072083 27.3066892342839 0 0
172.89144830813 22.0495986272307 -23.0005570982674 0 0
-169.880463875066 7.28350628204324 -24.6866852379006 0 0
174.758992710224 16.0534813607801 -31.2429046907014 0 0
-45.1391936855786 -3.15220884773616 24.311141385681 0 0
-70.3174317381279 16.7475623908241 0.258100100351837 0 0
-119.407696238673 23.9918683822878 2.1925010498317 0 0
-213.607597032256 -6.1332457805468 17.7195046485983 0 0
-157.796302937745 -0.162961587238652 10.6829440813772 0 0
-209.14035076541 -14.9721283760025 19.3392904094643 0 0
-248.464109979451 -31.6143466587994 6.6627589184085 0 0
119.046552311409 -17.2737273847387 11.6412617798809 0 0
60.1401352387187 13.8594612404783 22.4703544305481 0 0
-19.4071301341872 17.7436146564337 17.9001081215134 0 0
-233.545284475284 -53.5428884753743 1.29656732894976 0 0
-89.8548749191281 -2.29144102899251 -0.0590085308972318 0 0
157.731477174977 -17.8728913290895 16.1048419776998 0 0
-82.6388914157742 15.3771368572352 -4.17339370989808 0 0
-188.548600704007 35.4446308722792 -3.40781193415788 0 0
-36.4969456165433 -7.14935079584044 21.1371362639599 0 0
-209.552283413306 7.99227881113527 19.5354080890035 0 0
-240.098273910895 -34.6715142751477 -14.5280978255996 0 0
-194.360773752792 29.5490307641613 -22.1841901391397 0 0
-172.144203380399 22.5601654624524 -22.5561278039186 0 0
-236.029242576345 -53.5828351755559 1.57378375650176 0 0
-221.14285384165 -2.24272031413709 -3.88688814018684 0 0
34.6063258252565 -4.73371340368626 26.0276334875969 0 0
-221.856054449913 29.3352265111932 -18.0250436316239 0 0
-97.2744300173565 22.4176664486223 6.17114014397875 0 0
146.403040307131 -10.0074410682595 -5.95118648624555 0 0
-207.952851515865 34.2199599101057 6.89924929321751 0 0
112.380840395136 15.7912023376786 -2.54065725187626 0 0
175.169561725174 -38.0875886041236 -20.4794027723755 0 0
211.549129241486 30.8136508895059 -15.2121811799764 0 0
-43.5937389316606 6.82943728766885 -5.57133533985725 0 0
187.788379577847 31.8620708350658 -38.001219965194 0 0
-216.939837435995 22.7500717624638 11.8392248851588 0 0
215.951296618733 -34.9072282192301 -5.16407335269118 0 0
206.560308822732 -40.9274720602824 -17.4641251012619 0 0
179.509504901665 -37.3300698066448 -28.6498264964827 0 0
-245.115191772973 -26.2868425607556 13.9100844248716 0 0
-228.655815092588 24.6437407848387 -9.93156524696828 0 0
-93.5795978043617 14.6043182201733 -7.15103758510889 0 0
142.624033782924 -20.4339130433359 5.69369664246217 0 0
-134.74251497156 10.5866570860469 -14.9667021312334 0 0
192.648435581837 4.78589965183716 -20.7720140863648 0 0
176.43021158468 -38.3779734491132 1.08359415633903 0 0
199.180913562143 -27.5015956369551 -37.825346464099 0 0
-66.753681572268 -5.0718472183021 19.9686585914551 0 0
151.619566542769 -9.62942373918029 20.1717171255985 0 0
81.5000989604685 -2.08751414517816 26.6955227277339 0 0
-117.405745747929 8.4913161878575 17.0165480365839 0 0
201.003089728224 -35.6745494778127 -37.6790260583505 0 0
-223.048530910491 17.7434932930646 11.8913042312492 0 0
-215.357327499252 -23.2937636091542 22.6508117656014 0 0
210.572001069935 -39.8898552178236 -29.389648086658 0 0
-229.655139410388 -42.5145222069176 23.6315371399809 0 0
-208.755373477593 -47.4483513157464 -2.09478407132434 0 0
207.237194434128 27.551008866604 13.8827941956412 0 0
192.927390176264 31.2164406560456 13.4198534187928 0 0
197.960515554757 36.7852452934069 -15.7997576081968 0 0
-57.1596941833598 6.95698719676153 -5.35235273519306 0 0
166.483431840708 -28.8511317141552 -9.66571130515326 0 0
-222.692529672667 -21.5913850757016 23.8515614390228 0 0
-123.826089718528 1.88220609365189 15.281127773754 0 0
158.104918306256 -23.8701649987014 -6.85871100053616 0 0
-215.772685825771 27.2834520888344 11.6363059143495 0 0
185.282928322005 39.3187863969688 -19.6338772291603 0 0
-209.583640133778 -1.1051223933307 -13.208708647698 0 0
139.902458685901 -5.79342707487246 22.272018666673 0 0
-202.54696667082 32.0911929650682 10.8093868456546 0 0
124.489807020668 -9.22935520702056 -1.70261451672235 0 0
165.233840700246 -15.5152805674095 18.2591818103773 0 0
-156.106440925972 -6.61733488440602 -24.7070847739712 0 0
194.279550959998 -2.77171164881377 23.0153361866958 0 0
209.961796440214 -8.34620581965825 11.8828284078093 0 0
159.605877424264 -3.07363207272635 21.9718823648647 0 0
202.18667953027 4.60671187487179 16.7926531312261 0 0
189.583897023198 35.9177266310334 -28.5227545354161 0 0
-198.370043248768 -21.4851884483047 10.5053122985201 0 0
-68.6172609885409 2.46916639492173 -5.55267356207515 0 0
-128.570871419875 12.8668316562261 13.7699807329718 0 0
179.202627823323 -35.6882683790975 -30.3364729707026 0 0
1.87325276540935 -5.52175500926628 4.12462068955597 0 0
-199.066009435071 -19.6866053152406 12.1238917332178 0 0
176.0307465573 -8.53204973277782 21.3825357156861 0 0
189.956407520883 19.8762283410913 -38.8092959627154 0 0
28.1403985713774 8.70579682069232 26.5644083647648 0 0
90.3218113568215 14.784183408053 0.563750742965916 0 0
-170.125991107572 22.3576291059356 -21.9522593049976 0 0
-209.943549174492 6.30805522354379 19.6957124566612 0 0
49.9087386528789 12.2629091376884 2.5772212866298 0 0
89.1265270042974 6.16685912676965 27.4207318953178 0 0
204.584153060519 -27.2977549335532 11.8524964014562 0 0
-44.858668204537 -8.12298116036816 8.13985828384684 0 0
-206.752425822181 -24.4437603725938 17.2290925684991 0 0
-15.4008126462389 12.7496424894589 4.20366229108392 0 0
-22.3804178271055 12.7370651063634 23.8858203847059 0 0
-244.454268375851 -44.6956037837393 -2.25073127598451 0 0
182.641538330096 -17.0452662866854 21.9958258793356 0 0
-211.376922407154 -22.4044766945933 20.0551451290775 0 0
-214.371910274131 -2.56109474127591 17.1268713814013 0 0
166.824957018328 17.8713221517088 26.3466215362462 0 0
125.640459025488 9.60830330189788 25.6286360402835 0 0
163.933838322983 24.7018542674263 16.7383550522951 0 0
96.0427317560312 15.9266338732868 20.4182994293858 0 0
182.969421275446 -8.42925889677239 23.3064901117112 0 0
187.153287528573 -30.8160915289079 -36.8862173311517 0 0
-33.3388702244981 -2.55138616120866 1.56728232929713 0 0
216.171818864861 -15.5537973263822 -5.71981137508821 0 0
206.755581916669 35.6264736332645 -5.84430116978895 0 0
-20.7904716150155 -8.57449477090683 8.67029628355263 0 0
159.53354277534 -25.0051665383925 9.44864976233371 0 0
-243.685546988065 -41.9694331615767 -7.36739934129078 0 0
198.894671043837 33.1530559373902 -35.9733189587554 0 0
172.817454176665 13.5959782330006 -20.8253128946514 0 0
151.522201504072 23.8377586423463 -5.82202087053579 0 0
178.302915299637 -18.1907646067969 -23.8140162794016 0 0
128.293567349016 -6.91673136453102 -3.44552696371221 0 0
-175.995572028004 -11.6566353098538 -3.61558951518568 0 0
-214.520393129496 -39.2563358814141 -16.1496530216435 0 0
-85.6151291400366 -3.16258026347817 1.09059081384041 0 0
-219.535043742353 22.1477134615877 12.377370772047 0 0
188.550295229804 -43.9535308996389 -19.0780435780502 0 0
179.268556698286 -43.4794864812881 -12.6769949244581 0 0
-229.370255935672 -20.39596752329 -15.461570326957 0 0
-192.264023310721 18.213587537839 12.04484950689 0 0
-116.364103177317 11.59706758421 -12.6303189572115 0 0
59.2954890340332 -7.74406336673258 24.3420677746316 0 0
179.111849974823 28.4570213823727 21.159217666316 0 0
188.058569223472 34.3967506202121 6.52574568389542 0 0
190.637651885733 -29.5261498281221 11.9269739754027 0 0
-158.513153007023 2.96733238763059 -24.6457180433408 0 0
138.864880642213 -13.5522103471149 18.7162425201341 0 0
202.292948866836 38.2945558519955 -22.5219101141362 0 0
-205.365528934171 -43.8724367959275 4.42175942484521 0 0
-149.873202400893 16.4748862711365 -21.7685651522722 0 0
-95.0203492203252 5.59107220285818 -7.73904974075394 0 0
-191.527058691668 1.04714461769547 -18.3262899755735 0 0
92.0438944752512 16.8922634101857 18.2253836468281 0 0
-206.955148546302 28.4602774364917 9.66648376405364 0 0
22.2585088029737 15.300074957081 8.28923111084285 0 0
-33.4409538422895 13.225896814394 23.3498848743005 0 0
-159.779732832532 8.73848949934657 -22.273780217489 0 0
-103.275702015953 -7.51367196516328 11.6854155358504 0 0
210.343722509039 19.8207354444475 9.44795553892814 0 0
197.725243604665 -42.3954977314859 -9.45924247797308 0 0
-174.244426847848 28.272710623891 -2.42927024751907 0 0
170.371787500467 -20.9452736577127 15.8802191386898 0 0
193.552589552446 -43.32524724033 -31.8536131450932 0 0
56.3195061679077 -4.08694949408923 26.347230104136 0 0
195.978213459643 -17.8504615996586 26.7639085677875 0 0
-202.422541573165 -21.4783314834048 -8.02132582920343 0 0
-179.908719155605 -7.3848671874907 -16.3887745657491 0 0
-142.368045891192 -7.21831401073872 5.75652495901627 0 0
200.260160835421 -42.5166407828219 -17.5758095180155 0 0
138.420911210414 5.80339660072486 25.5168873810493 0 0
-159.278339211667 16.4480881447477 -21.4605430524898 0 0
-209.643827313714 34.3904990319465 2.1820002715791 0 0
61.5441101799318 2.16869347443957 27.7143466548714 0 0
177.063199128861 -42.2941283891086 -11.1717045163479 0 0
-61.1834283508869 6.29121535963582 -5.63749428012797 0 0
-227.626452820616 15.9184488246049 -7.98100624160162 0 0
-165.721054248209 -9.74534362745682 1.91659275332412 0 0
-63.7277805499656 11.1326778323422 -2.93964572071436 0 0
90.9528208693621 15.2902218329705 21.1232992510392 0 0
141.918826456128 -11.6501725462656 -4.55084071203671 0 0
-34.4949933627701 17.2509836016402 9.17788536382857 0 0
-89.9968597370223 13.3428360015527 18.0033311700083 0 0
-57.3791392803085 -8.73933945606448 14.8779533113458 0 0
-211.635473527755 34.7461120487922 -13.3362310858569 0 0
-115.284029337151 19.2151662178209 -10.2973717311572 0 0
199.697949683684 -28.8662045459455 11.1679524395558 0 0
209.112649403074 -41.2724929884263 -27.9375287000585 0 0
-90.8947781833396 21.8661454067579 6.92662721928686 0 0
-144.854430172377 -6.56391859216818 9.54104608841362 0 0
-208.445914801907 -0.820202953111448 16.3903001381843 0 0
213.726576530772 -27.4904606652237 -27.2814953626772 0 0
184.978064777512 13.3097971244493 28.618935131249 0 0
-200.292066699772 30.0399552727072 -21.8204039323004 0 0
-69.1825168627312 0.322039083931415 -1.69755760310747 0 0
-116.217682259674 -1.66171548366507 15.1221729385684 0 0
-155.050723590592 18.9688905324645 -21.5539750108293 0 0
19.4243057914637 3.86533832717304 -3.36571046794963 0 0
178.307093203955 16.8521946178272 -34.0619241613347 0 0
-190.779063170452 38.3110908210187 -2.57674855118298 0 0
-233.127570704399 -13.5778641890428 -4.47846440091558 0 0
-224.840823291667 13.4636055183091 0.50838716297983 0 0
206.877237684573 4.45009428783299 8.88415614689639 0 0
207.413938510406 -34.5374232578529 -34.7441775493067 0 0
-217.094477884385 33.2210218988032 -10.2099409813701 0 0
-200.021830478794 7.25210879026916 -22.0446686985924 0 0
-53.7826985076324 4.58418017259977 -5.05783800050773 0 0
-218.975864020931 -14.686319666504 21.652717053818 0 0
74.9262036245638 -9.6041954526566 5.88522301009963 0 0
143.494917820352 20.1385685616059 18.188610197866 0 0
178.640932981756 38.4352283385274 -17.7509021221283 0 0
-223.617862106469 -6.14782055743587 14.1556883236257 0 0
183.203884415762 14.9737096419278 29.1768373619776 0 0
168.270972229964 12.6734024464861 -16.5232175628381 0 0
-227.808536199264 -55.0322059208718 -6.30438140967676 0 0
-81.3003306065858 -7.59911096444981 6.50805201593527 0 0
-228.857212357249 -46.6372617912916 -14.7729610826237 0 0
95.5979022631359 11.0230382304441 -2.79926383199939 0 0
175.213991069689 32.0975489673581 -26.3760388315549 0 0
43.2046577211986 12.9194498013764 23.7913700416069 0 0
-211.428416339582 34.9504611299483 -1.03703978891392 0 0
-76.3417210273751 -6.90627105774668 16.482505484131 0 0
-64.883425825604 16.1144445423556 18.2651327394979 0 0
-151.498678456169 19.8222870230206 -19.965040380851 0 0
-237.231786302851 -15.2455788304029 -5.73710539593405 0 0
113.990479207602 19.4775682965445 3.62305441227597 0 0
172.520734350808 9.85031549000117 -17.4260194344259 0 0
-134.405727918555 -5.62198858807336 10.9787219528566 0 0
166.39759668372 26.2720841358405 15.0888276493469 0 0
204.530335633054 39.57419720671 -22.2123570223864 0 0
-3.40293329795047 17.6904816570706 17.2179742415341 0 0
-5.40940502013124 4.63374638454395 -3.76077871426287 0 0
209.29870187367 -41.6529999014482 -23.0290605877071 0 0
-172.422534124751 -11.4421048903218 5.14883917732652 0 0
-37.1345504044017 3.78873692429113 26.256777011195 0 0
13.4153196932439 6.99109208560706 26.7735813678195 0 0
67.2172940264211 6.24721168829418 27.4142458145918 0 0
159.066078301445 -25.6547604768728 -1.63062635173848 0 0
-14.5410675614397 16.1400393440995 8.93737297967688 0 0
16.3694944698701 11.0293907739107 25.3433036630473 0 0
-110.851335550295 8.26308615015024 17.8972553698308 0 0
134.954592478761 -6.43278520744315 -4.52200513561333 0 0
-109.229949859425 19.3344729094792 10.7985466129818 0 0
193.0802922354 -23.2696403231985 18.4327662602044 0 0
-1.72779690333452 15.4554523589821 8.46583160145681 0 0
32.499510386237 -3.26532750569251 0.155075313249332 0 0
16.6492534339477 -5.40543689491035 3.92355354304654 0 0
147.036182274534 14.627481964576 23.9038980648654 0 0
219.166733811727 -27.0799960813956 -4.85704623878959 0 0
168.577132501056 -28.1903549352739 -12.4747039237382 0 0
-220.421994275642 -25.3792976497793 24.8153627499001 0 0
206.079676173883 13.3606028452122 15.7213482131786 0 0
174.507950427133 -33.8629496348816 5.2765374083417 0 0
-201.1206440048 -20.236636676738 13.2766909339557 0 0
79.2573954815452 -3.22772845096325 -1.18354744687206 0 0
-12.3578904902514 -0.0514911314093345 26.6970584720006 0 0
-137.454086772441 -4.11654008832006 11.865874410885 0 0
-63.5270140875471 2.1517486842299 -3.52347140150844 0 0
116.622715412257 4.23660481478488 26.7270739834227 0 0
181.126073252921 35.8955397900253 1.14246509359065 0 0
-155.201319436124 24.5342212606996 -17.2107339543315 0 0
-219.779505981338 14.8147439802732 15.4207604164717 0 0
201.286213779927 -6.22711374980591 -9.46480616834319 0 0
-212.119468175539 12.4622117015681 -13.2753227471511 0 0
-168.966977229944 7.37990445934747 10.2486778660533 0 0
-234.302965083612 -40.3563615611609 23.0923302190556 0 0
188.062790478667 42.19534118134 -9.45324812849243 0 0
-24.2509418991041 15.1300844041941 21.9272571324003 0 0
22.5362055491099 4.15912011265697 -3.16504009206519 0 0
-224.612639236547 -38.3820653389833 -19.0719540246503 0 0
163.111764518924 -28.4186204809612 2.63131677247018 0 0
199.252850729585 -38.8519310111342 -37.3099998521858 0 0
22.4105213806193 7.63326112942652 26.7852791308443 0 0
108.36917556541 -3.64629872613959 24.9596270798908 0 0
-140.312430061052 -1.76374976126248 12.2033528565695 0 0
193.957441985912 -42.469640875589 -22.2824168132235 0 0
159.807082301978 -26.6146931250918 4.15594078755134 0 0
-207.071531224921 32.7657955951973 -18.1127295370264 0 0
197.774275703588 -42.3200125659572 -23.5557357624486 0 0
-226.594979081784 22.6174766434972 6.87334193395142 0 0
204.018065883969 -28.4061387094732 10.0373511019639 0 0
135.812626258847 15.4119100661856 22.6654609832449 0 0
88.1304841702959 -0.663667835436643 27.0679004570367 0 0
188.08468271508 -15.5053416950603 24.9907430651768 0 0
-237.282795714864 -17.3547654522288 16.8578138442759 0 0
-103.361018795689 5.90361923511831 -8.79667355750941 0 0
164.513800964187 -27.8688679838572 -9.18465942331992 0 0
187.969633533204 -13.2294666194673 27.5801122600346 0 0
167.481167596103 16.5409109597605 -18.7972199657265 0 0
76.9605340931482 -3.22733129911588 -1.02497988591939 0 0
-150.595652447018 -3.0015810489894 -17.2782627847528 0 0
-171.273618794626 26.44150380103 0.686054063513505 0 0
201.363010520747 28.530473802744 22.1900646004911 0 0
-170.186176047967 -11.120759476282 6.90323735669614 0 0
-223.276696751286 11.2552329207223 -29.6649583279419 0 0
-220.120752346332 31.6305944040641 -6.15714934206374 0 0
161.872440230309 14.7842296694029 25.6370089693831 0 0
-218.872156404049 -0.0478873360386508 14.6392955533524 0 0
-229.320581086916 20.4004580733385 -7.00385328030372 0 0
-245.27025202356 -21.5187748852738 -2.52767037175312 0 0
186.897445731608 -13.90824559039 25.7503829731246 0 0
-211.140614562946 36.0830457907316 -2.72019432764541 0 0
155.830710031656 -8.04118324845026 20.729227830121 0 0
-218.805453221308 -43.3517311322851 22.6596853496929 0 0
-212.544215469911 5.5824671407153 19.034572720284 0 0
-216.408398830844 -1.68018434136313 -8.9119241353455 0 0
-141.764136424899 13.3609907258787 -17.9266092470136 0 0
-156.980702966812 -8.90403681551597 -16.9616061803912 0 0
196.983598925611 -4.18937984594289 -10.2230433462 0 0
-220.88667166008 -33.5376237366221 -19.3598934432052 0 0
-227.531242735126 24.4154222119085 3.05866073750226 0 0
174.811886964553 35.306382022442 -19.6833341670857 0 0
178.794383201724 4.99085733231764 -20.3856228488206 0 0
-173.855312943336 20.4394614929703 -21.6309289784049 0 0
-219.463679049639 11.131205064964 -13.3257056458483 0 0
89.3537304942715 12.0931759002633 -1.42018596127406 0 0
106.375323457851 -10.0300865959947 2.05277521363636 0 0
-205.028249281458 -20.978273741878 15.9119513872923 0 0
163.535724578954 -6.7543173666295 -12.0996592287485 0 0
-204.828030406229 -31.2549561106279 12.9152031548399 0 0
147.635356727481 -13.816725555027 -5.80339905735877 0 0
170.718878255903 -32.865660737082 3.29584398026888 0 0
17.5024095944586 16.5330004426218 11.9081037514254 0 0
169.639220262823 9.24850802735507 27.1302641340012 0 0
-213.064307659374 23.0092209352014 11.9826910333079 0 0
-131.770350928953 24.1002692554708 -7.73194482809892 0 0
187.591623136338 42.0436544360976 -11.9050064213751 0 0
91.673507647335 -3.75913381836224 25.7347609318419 0 0
198.159774375726 6.39628870425948 -20.867257700133 0 0
-227.256389453243 -36.0464395305589 26.1672862062829 0 0
-156.423657129969 -6.91780929802498 -12.4751424190074 0 0
30.60075251529 2.83228353379152 -2.82569245865793 0 0
147.33886785963 -4.83187979041341 22.1692246342404 0 0
-91.7391162373427 21.6835516495706 1.05945604896239 0 0
180.449682373111 25.058683910202 27.4282573474281 0 0
-88.3261960507011 -8.18810141066812 11.9815412827475 0 0
-198.044374669109 18.6586129307297 13.6127837158142 0 0
-172.077422444842 25.8254214450655 -20.4407189625269 0 0
52.956793982334 -5.39301905835903 25.7608285440686 0 0
177.107349430667 14.6832008637409 -32.5734529248864 0 0
-190.41526560137 3.27007158250492 -18.8344199355622 0 0
145.853060235269 23.7627795300204 1.39660996345719 0 0
207.54136359626 -42.1159724544545 -26.4103731579471 0 0
163.191704967184 16.6841487017271 25.4307715572122 0 0
-148.331100217039 -5.70839244854244 -4.05432514663665 0 0
212.040490739374 28.1817990749352 -10.0107534075948 0 0
-186.774675092252 -9.57295418698093 10.9113484108732 0 0
153.995001365012 8.85306628933345 -9.71894764360318 0 0
-56.4576523101525 -4.58225911137839 21.6521822113373 0 0
159.652172354975 21.9615144141105 -11.7903270969205 0 0
173.194091236658 15.2893968958178 -22.3675442051792 0 0
-227.68949658699 -53.5944949259498 -2.24567206167966 0 0
-201.727036482547 37.5805249082089 -7.25205118432987 0 0
-160.214687735202 13.964018826186 -21.2991141109524 0 0
183.25628882974 -33.7866365725682 -34.3772806849867 0 0
-208.9481921651 28.8968982937349 10.067780554851 0 0
-71.9838971105718 5.77902660826624 23.3353400575681 0 0
-50.6816141050737 -1.99659604117537 24.3295142371774 0 0
-161.539449000766 0.451070288747941 -27.5332308675596 0 0
-154.950210239887 20.7482717705718 6.67766614724916 0 0
128.498176260117 0.260929303096075 25.3958673456453 0 0
98.4226949321258 0.990237491825126 27.1344996826672 0 0
-112.675173406522 9.37414191481808 17.3433219531179 0 0
148.805136124675 14.7726246795206 -9.42614778110465 0 0
203.684753519041 -42.9223606881346 -26.930394424183 0 0
-161.060691310986 11.5024037817177 11.1721110437568 0 0
-89.9960610182872 20.5985761638433 10.2436296147424 0 0
-224.767267075925 28.8014626572919 -12.2099955251893 0 0
198.879271892284 34.582260835862 -24.2438081837356 0 0
175.442158478532 -12.6467391123583 -15.9233937765448 0 0
-119.949677857527 11.5051273181772 15.5755459645838 0 0
-201.936974419133 17.6734789956842 -28.3341965092244 0 0
-174.984531902656 -9.36541319315267 -19.0518614706032 0 0
-222.298739337028 8.8306455304133 6.53870531587574 0 0
-10.5954303697409 0.215767044399479 -2.16877006427292 0 0
20.7413618348251 -0.393844130919482 27.0906668717646 0 0
29.7440445387547 -8.37690227913923 23.8332124109608 0 0
-216.739935013536 25.3585599492154 12.2437293335205 0 0
201.914333843691 -27.1714927666882 12.6195623930614 0 0
-189.458488214773 33.8764772252465 -13.9477948422237 0 0
-220.327048301653 10.1065676579855 -6.59910778479423 0 0
90.8217308510755 -2.05926400131186 26.5467417963285 0 0
197.026428807045 25.7529751827503 -37.8103388554826 0 0
-170.816723620237 -6.02233315385144 11.1529082369656 0 0
-113.612159385744 5.07239404167563 -9.91751209373313 0 0
-231.304072492064 -52.1783612284403 13.7021716916659 0 0
-141.356976038647 25.2293059275696 -6.92401294469725 0 0
-132.727137056518 21.5091995484995 -11.15389709794 0 0
139.195640558739 21.328587410256 -5.75442114944184 0 0
120.534428341309 8.38735128941141 26.0526839655778 0 0
-121.39649223177 24.2134725607739 0.948352805883026 0 0
183.072708393644 37.5427860219249 -2.82791719755372 0 0
70.8979808495246 14.8477782777113 21.2442337725081 0 0
208.893667760298 -11.98601707094 16.4325015216404 0 0
193.265013417662 34.4975276030105 4.70020568947106 0 0
-105.728493615499 -7.12875313745771 12.1738779306256 0 0
-70.0214379565312 10.3605030363073 22.1862589805761 0 0
87.9874712294066 18.0360867133076 9.18900805245793 0 0
214.625816649976 -39.3976642228945 -17.5773040015743 0 0
-209.712621525724 -20.1145608216098 -11.4303048092725 0 0
163.044635598792 -16.854770637787 17.187374542269 0 0
-246.732625641051 -38.2896589679738 10.8936732150587 0 0
-68.9777516572014 -6.06504451222385 18.7451369262732 0 0
-188.916971884421 34.099725476281 -11.053315469751 0 0
-195.113995280803 -1.42273183322664 -16.3085126865561 0 0
-152.101721485272 -1.45877834508994 -20.2895361860738 0 0
208.965607436364 22.153032188535 -27.3324580264662 0 0
119.765164070024 2.9361241627286 -4.75775609463515 0 0
-166.603163831652 16.3437033139109 -21.7894825949335 0 0
23.5319325211175 9.40226080119914 1.19772795149843 0 0
136.020374736964 8.50657449237596 -6.87984202486648 0 0
44.0178392540722 -6.51235578042323 25.1386937475029 0 0
210.563601822333 -5.87835150129774 5.16991910033438 0 0
202.237050498414 -29.9466101436387 9.15393037483137 0 0
-202.662692770035 23.8258159861098 12.9949369442409 0 0
-77.4968585261366 12.698967950068 -4.89165483888596 0 0
-142.885787547486 -2.04865256015686 11.9585549416632 0 0
-205.143907873417 -18.119699097307 15.7002941283013 0 0
-227.116140472864 -31.1109918291531 26.3995481875165 0 0
189.190190612643 27.8717569826183 28.2428874978515 0 0
174.122911376271 -3.95626721087493 -14.2049348914148 0 0
192.019721567682 11.5829442731272 -35.2730006979978 0 0
-122.803190468631 19.4339712405212 9.51814962144016 0 0
185.391251209824 26.8113693667449 29.1947387954363 0 0
-38.0184885354661 7.85239448541517 -3.94852399021668 0 0
192.958548072123 13.6372129644177 27.3530509452965 0 0
165.900248624397 10.3117118487244 -12.9196228223067 0 0
57.7401156215716 -13.1895900170336 15.5150592537561 0 0
85.267317230264 -12.1645042039156 7.82954005944376 0 0
61.6612588241867 13.6433199613793 3.0771354387278 0 0
-136.2121471276 -6.96191193745201 8.24634818163856 0 0
-130.230865449874 12.5113168226074 -15.6806944831646 0 0
204.127545542393 31.7306237099304 6.57901704723249 0 0
-86.7702340570615 2.09087055543339 -6.06412105656078 0 0
-197.697490649574 8.13697800443169 13.537691899057 0 0
-231.477292914639 -32.5701595787567 -18.851627371848 0 0
-168.099477441028 19.6246107546571 -22.6337288185657 0 0
-155.783157241124 -3.69867197309563 10.9333598167117 0 0
145.816839983577 -13.7805157706407 18.4331599229604 0 0
-193.756277267581 15.6738177796456 -28.4979500512833 0 0
-125.760196616622 9.03476859267593 -13.4070326097635 0 0
-191.446430254096 -18.0242337744168 -3.68657340404965 0 0
196.436415974116 -33.9851755387176 -38.5594390582437 0 0
-229.740003055634 -53.0025971978158 -2.41233093022458 0 0
134.819242785096 -13.8912435222316 18.5362626959905 0 0
-16.5521973949489 -7.84977282857826 22.224562277005 0 0
217.615755834215 -34.403043990319 -5.81123058656335 0 0
90.4450634603363 -14.3770870666896 10.4247423219927 0 0
131.186350327186 -12.4712296487204 -1.32313265494156 0 0
-147.031130821611 6.6863691426994 12.4563712468613 0 0
161.554879828697 19.8736387393904 23.0101153729927 0 0
-227.918804682861 -18.5028922783751 -13.9551146633857 0 0
179.387051528652 7.56706980191797 -24.0583553301124 0 0
208.094274910954 10.4069172434358 -18.6057174576034 0 0
-223.384273286052 3.97207605317096 3.35220609260826 0 0
-169.28456165571 -0.299727541521349 9.89225476694525 0 0
-244.674628535086 -41.0179426925281 13.3441510396308 0 0
188.114982314124 -7.18998203795964 27.9694317776185 0 0
-186.74164418233 -2.14051061677639 13.6982194283217 0 0
-206.253444043912 -38.5539876266487 1.58484815115197 0 0
88.9503452506936 -3.43847643863706 25.9903277883364 0 0
165.355868471212 28.6234385555118 5.02187089479463 0 0
135.235215243649 20.9085533075203 -4.04098509350298 0 0
-174.515554768246 26.6013179286948 2.05974161804138 0 0
45.0628616671632 -12.5842226285059 17.2465601335953 0 0
-183.524564997211 -6.17690364840801 12.5157004878012 0 0
193.528387081821 18.2360985194506 28.2704036794329 0 0
154.262071292589 -1.03300954611559 22.760267776811 0 0
-156.329691762517 10.4084084811623 -19.9860925944999 0 0
-194.186006263261 6.7487395279901 -23.0104741296851 0 0
135.380845226406 22.5294377973053 4.93838780746023 0 0
181.894536509757 -22.1276628426119 -31.9723941617351 0 0
-206.194558500409 -44.5340511275328 8.35718178028119 0 0
-206.651893994449 -40.3050841410827 -0.451954597340551 0 0
46.9592302950182 12.9793243243016 3.63536367908073 0 0
196.055952000974 -37.2271873353555 -38.3977172392125 0 0
164.044200767718 -18.7023731727176 16.2321434226146 0 0
116.671806370209 -1.20982786970485 25.6305901583579 0 0
175.843935528965 -31.7610046528517 -21.8350530448557 0 0
198.480083877145 -11.9393125111411 24.9485285704886 0 0
-204.209965406658 31.2542443521156 11.2593594091648 0 0
12.0164336240795 -0.286359829338241 -2.41972890564046 0 0
-58.4184567127348 -7.56625599416791 17.6162556082354 0 0
92.835117717198 8.916125404786 -3.93101373704108 0 0
-152.104274196993 25.8759793125272 -4.87475673821854 0 0
132.002784970666 -18.6844713706627 9.68862553979998 0 0
-242.85241205066 -43.5666957638997 14.2817953519163 0 0
190.996579383102 41.8108748901053 -9.39621738645328 0 0
-25.2382728608591 14.2594150424656 5.40433075661932 0 0
184.325204976738 8.44312958056005 -33.4356800923261 0 0
-189.547859243818 20.2963481886055 11.9203892268212 0 0
171.81295560557 -35.0063108114476 -3.02023509002031 0 0
185.228618751401 -25.6091145452918 15.4370000088415 0 0
78.176181772031 7.64472126262041 -2.66900861009491 0 0
202.128180086013 5.79087251667991 -17.0535760914335 0 0
163.172792305876 -2.42476199656251 21.5760486704261 0 0
201.30237520917 -37.9618490598739 0.0665328507257958 0 0
195.928500455787 6.91140279597724 -24.2413079169125 0 0
55.2101197609097 -10.9152107885941 9.49562829541929 0 0
132.356922287645 3.26478046075225 -5.90866184327229 0 0
-124.943149107397 21.7360441929994 -9.42132596809303 0 0
-85.340106327724 10.0759391330625 20.543354668421 0 0
216.310254713823 -35.7128888258505 -7.14239324342121 0 0
-195.152883469687 14.2596549758478 11.8898752825242 0 0
-103.643641818325 -5.4146118269562 3.03906822779559 0 0
-235.083429628286 -10.9616849874104 9.39376149056836 0 0
-146.140700762353 11.7281806853345 12.4113236029217 0 0
155.236110673897 -24.2612812731219 0.645567626869482 0 0
100.026294300817 -15.467165105697 10.778206117329 0 0
6.43338744683586 4.42663248794389 27.1820397172783 0 0
144.497443745606 1.416136191747 24.2842729844934 0 0
176.45395232582 -25.8226842616334 -26.0494388177142 0 0
164.551349237702 -3.42787372979448 21.3972106655058 0 0
-193.812237396267 3.56346077051185 14.7265397324367 0 0
199.063031342914 -42.8793699619847 -32.1652738933766 0 0
-234.209674261283 -49.6310421562457 -9.50466991195497 0 0
-47.2337956528357 17.9245528546627 7.68008470770697 0 0
18.8219727796047 16.9059836818007 15.0585802306764 0 0
205.897755018233 -40.7973082295542 -15.2659814674236 0 0
175.904431651009 -0.220662879276922 22.3325278751808 0 0
165.66004570648 -27.1468088650911 9.58090323611653 0 0
187.41924864684 39.7800661005872 -4.44975174684164 0 0
-232.293315111806 -16.1207111298549 -8.61281762266586 0 0
-12.0866828113661 7.88062332672572 26.2493444177896 0 0
-217.007406110558 31.1674785634287 3.7169510983895 0 0
128.60951748669 12.5632889984195 -6.16003483796649 0 0
-177.761962262596 1.92779795035728 9.9379450073412 0 0
-163.875850861819 18.617303596624 -23.2124328244519 0 0
-99.2345286439453 8.01353349169134 -8.83298684518736 0 0
-117.49875774597 5.52998605225417 -10.6040991276577 0 0
169.566183865302 26.3776810624124 -18.9178084066967 0 0
-207.557321608727 -18.6222372688569 -11.037688959311 0 0
171.546416354105 16.1725123683482 -20.192445261045 0 0
143.786110363553 4.23574578890845 -7.1778764801821 0 0
-208.147444991327 35.9702913752995 1.85273659851725 0 0
177.90284389865 3.449976268879 26.6036786761149 0 0
141.11508365295 23.2408993464197 5.59448403406587 0 0
171.756071398959 -34.794080494419 -4.64932696373928 0 0
114.873566839457 19.6927951553649 13.5312932690811 0 0
-90.4854868660594 7.62178106039815 20.8956432131704 0 0
-174.24514214699 -9.83448507772083 -21.4349848918944 0 0
151.852320238218 25.1916084405889 3.44022522675703 0 0
147.721450664641 -19.9848280281955 -0.575961079818154 0 0
174.088029150753 -19.6863175161103 -17.7882939429797 0 0
24.4483799196277 -2.46000226117632 -1.84550994952925 0 0
170.383788437229 -29.031504120775 -15.1430003288275 0 0
-126.756967384042 -4.31667187428204 12.5616617001753 0 0
179.221105724769 -5.4725722928336 21.7836941627403 0 0
113.965166126407 20.0554255885366 10.7325639834656 0 0
-20.591573277638 1.09084160984217 -3.41823492617703 0 0
211.145627411992 -36.8819541129798 -9.7934536905313 0 0
-167.367491767393 -12.4073105123205 -22.5948715796265 0 0
191.36007503843 -43.6645367360012 -30.2807253642981 0 0
-71.4023022691084 -5.35465242719273 19.0839426876915 0 0
205.768749234587 -26.9186484643966 -35.1496615745581 0 0
-178.389059244221 13.6877873123106 -24.0822907713774 0 0
13.5273354697844 -11.1386561680574 15.582991565346 0 0
-60.4807042657067 -8.36603306950689 8.33907164983449 0 0
-69.9936211523791 1.58420613486908 -4.04404554675087 0 0
-11.0800829608489 -9.12928001056758 20.5519887251736 0 0
217.672455961379 -34.9615349737813 -20.2445880688417 0 0
174.787939356102 -24.2568405293795 14.5235240114756 0 0
-234.69077170335 -53.7741966315935 -2.32507195680987 0 0
171.109807833651 33.0142207064328 -5.92301015170396 0 0
94.8670652917216 8.77272531086975 -4.24446562983482 0 0
190.629961299451 36.0526568244561 -26.501235636365 0 0
35.813333046855 7.09448749667809 -3.10543758531357 0 0
28.6544615240406 1.68713891013102 27.4082854140326 0 0
-179.774966318544 2.70868014289807 -25.2837850432017 0 0
14.478526168201 16.7931042238632 12.7987436717458 0 0
176.179592395278 -15.8572931716961 -16.3904143583728 0 0
-184.308339193978 29.4736051429098 5.1860678572622 0 0
-35.0338146449099 -2.60846187011923 25.3754473109769 0 0
-132.980041732296 -6.22813770244198 3.72662038430819 0 0
196.510852276288 -41.8636245905757 -22.6751467066816 0 0
-149.661473551157 -5.09846271731369 -12.3542652375364 0 0
-170.384512652927 5.42949648012268 -24.8660037035838 0 0
187.095710474264 33.9633925410932 -36.3314770183243 0 0
133.955103884199 -8.05701543399299 21.6503296946161 0 0
-217.245943812311 27.4598115486099 -22.3515509230432 0 0
-18.3084306839099 -9.34058994098942 10.4460228680097 0 0
-210.086245576489 11.4626809747537 -12.0552675132523 0 0
185.01893436503 -40.4334421085581 2.95515586829884 0 0
-216.220236086292 -27.7940700066088 -15.2286975177898 0 0
171.649018091867 -4.89291642721995 -13.1388190372704 0 0
34.3826588468892 5.53895417426856 -3.04778325094954 0 0
190.534790852237 -9.93384157351463 28.1182949990863 0 0
-208.653466897888 14.7622413969219 16.7168320858581 0 0
-114.689369394697 23.1224399671026 4.87079559357244 0 0
204.899530624947 -14.6435064369802 -29.3720551766244 0 0
185.328048969844 -2.61535780150346 25.8463926175612 0 0
-210.6388092855 -45.9667283390573 -8.23015724124159 0 0
132.589057763847 -18.2407325780751 13.3280779267425 0 0
136.593631213757 -6.76541124985545 22.1275455891062 0 0
-184.123967478066 31.1678290589268 0.816979772532608 0 0
152.953833599636 14.939706230805 -10.3600117332016 0 0
-83.6582095625596 -0.79532052016316 -1.17993801249891 0 0
