"x" "y" "z" "f" "a"
192.914748330472 44.5228482451494 30.2935613007828 0 0
155.870685730469 -5.68424708993834 10.910339455065 0 0
-25.2990724947688 0.0760583306089118 -6.8115309996066 0 0
-198.639978994435 -15.9553928526569 29.948216771791 0 0
-232.697134364174 5.3413177407296 -17.0842700812866 0 0
-18.063765581222 -3.29500581419298 1.87818919142487 0 0
-222.080479003851 -34.6384665475404 22.6894527983947 0 0
-255.844802913439 53.1005599011071 -26.9844131205723 0 0
187.253156240288 -35.3907688243617 -0.182409029340722 0 0
-237.381957177869 23.2212948578744 -30.4482024356956 0 0
162.438731774513 24.376158452955 12.2895728058525 0 0
-180.68895081429 -19.5798323006988 25.5630415939228 0 0
27.3523385436757 -20.6375943982646 -25.6668241180973 0 0
162.628100567516 -8.7815595901476 -26.8952398199288 0 0
28.297129099173 -15.5643592602539 -0.359054979386764 0 0
-234.8591180882 22.629130582972 -28.7732153315283 0 0
201.551339569455 43.2724335596969 -1.41067516266412 0 0
217.29342579453 37.7002995497281 25.8906670529843 0 0
-248.189274226598 -19.2513862735967 -0.923852270661409 0 0
213.013653906362 12.6393367578005 14.8007559457285 0 0
-264.602801347344 14.1189771835766 -10.0478949983405 0 0
14.0302498253867 -14.5865025023593 0.0844363119112597 0 0
-95.0133492489011 -16.6165027844057 -21.5387926923392 0 0
-94.8169095342867 -8.64914282318246 -20.1504412163995 0 0
190.167364211305 -33.7365786185622 24.3776192855409 0 0
-189.281428981764 10.2638096185519 -0.104698951364124 0 0
-241.921759296921 11.797697070277 9.78135962364477 0 0
203.227086651787 44.6209341151361 6.75189703806988 0 0
-226.821757692497 36.763669995581 -24.1630859328808 0 0
-119.140538897286 1.0562090928525 -9.20203987902764 0 0
-167.640574108068 0.996775895167489 -10.1755974509874 0 0
140.544872994929 -17.7571681495349 -25.4090055403581 0 0
167.391016620403 36.190089946264 1.48633823923876 0 0
207.089203749414 -1.74778867275414 6.81479845813401 0 0
-238.624969285739 -28.3419914100901 -0.636771083589923 0 0
206.628512059634 -8.95555473139705 -17.6258468675151 0 0
194.265065214017 44.3779117389125 34.343079505315 0 0
173.172412112748 13.8268320736005 15.6382850664819 0 0
136.880875033178 -22.9624301836829 0.657507578384999 0 0
-1.60398583484286 -7.87676997546633 -27.1184404746508 0 0
-236.147373756297 -1.35129644719819 8.86258188978421 0 0
-237.795599861736 31.2601234062345 -33.0626852038278 0 0
201.980605125968 -4.75230306703873 19.3374595329348 0 0
-87.819594179096 0.37059767868494 -3.49393078160053 0 0
-109.87122864865 -7.5831261358529 9.89392147583732 0 0
106.039771184889 16.0905729086806 -8.12099868223051 0 0
-242.452056322756 -25.9305213201676 22.5093586932666 0 0
123.609276757852 16.7906785923179 -0.243165810784184 0 0
167.036217275603 0.485226943924816 -26.001478506847 0 0
171.774994216151 30.3037937374159 13.1085668476876 0 0
88.5138627778045 -24.6950170381082 -14.2571160574528 0 0
209.960384528401 -9.7525407140475 -14.688236916257 0 0
-216.928447842784 23.8669581021202 5.26514597891753 0 0
-136.47593242755 -29.5972283770745 -4.11280156177156 0 0
-209.163049160875 -13.5730309949481 -7.76107294432792 0 0
179.393478294557 -32.7277588523398 20.3230398083617 0 0
-223.773873120435 37.0790793362303 -13.2374973155424 0 0
212.915490078672 -15.8657761038794 -13.0657673744089 0 0
169.970173094115 19.2225055636149 -19.9551954729341 0 0
-212.754566254527 17.9978936885209 10.0376422843007 0 0
201.458994067149 -2.9040858397329 12.7630493695119 0 0
132.268553077458 -19.113952317746 6.0829931095437 0 0
-250.084561690942 5.89093388408845 -3.61777725715881 0 0
-229.247283955112 43.5201714637305 3.25119622549781 0 0
-111.273386365219 -25.202813757877 -15.4511406002792 0 0
193.156947886848 -36.6828886536064 4.6143617767161 0 0
-94.5533570494871 -13.5810896348589 10.3746508255474 0 0
-210.023605410054 -16.1139336768753 -6.98365092052841 0 0
-197.618246319751 14.5703065170852 0.675675978352857 0 0
-182.412536185314 -9.42698751481942 24.9920134518509 0 0
-123.760736622995 -27.8942524447546 8.51490772197525 0 0
169.11245878485 25.7822304132331 -14.1992802568646 0 0
-227.52303951448 31.7940019011314 6.03241338868141 0 0
-234.337012867527 46.8688440979659 9.90314500003921 0 0
-192.665776164853 0.964082887885772 -10.7515895121068 0 0
-229.71986420067 8.65053149766427 -16.6434159136001 0 0
-197.1898317264 0.472397509615215 24.5210396842846 0 0
191.555122439839 -19.1231883777776 -29.8290475022801 0 0
220.707333955763 24.2294463975408 16.833680650884 0 0
-236.468427721925 17.4256343420872 -26.2325450925803 0 0
181.225942025517 -31.0309217955948 -16.4986157061678 0 0
202.485562269212 -31.7953487317504 23.025510143661 0 0
46.862009659301 4.83693228090977 -6.38161859331011 0 0
132.664810713124 -24.581937667145 -5.99954454477802 0 0
197.003516173602 5.67035387075313 -23.9057897168322 0 0
-210.09601136384 -37.3930498570759 14.7606448186926 0 0
202.590517801543 -34.531937884243 3.83340990435965 0 0
-222.297706988033 -8.2898466504121 -11.7830790460899 0 0
104.7626629263 -8.87735352744837 -28.3642636485032 0 0
-225.987352401131 37.7490476903632 -1.66180513996319 0 0
3.67003567088479 -28.1531377242021 -14.4689952155795 0 3
-196.870605062722 -17.4664582276911 29.3717688430501 0 0
12.9489299128028 -1.99092800980688 0.601731974105288 0 0
174.577138527663 -30.8427572251117 -4.49799728147071 0 0
-237.979147223535 -5.37866673873245 21.0031578352816 0 0
-145.381922939682 -24.7756692945973 14.6866934888804 0 0
-152.684672873556 1.56711344491699 -8.39282395190658 0 0
180.793387009848 -16.1167270119097 29.7458780662991 0 0
-252.401911139798 60.3000616341491 -1.09731570968921 0 0
168.761509766497 13.1581586531271 -23.4717201586073 0 0
194.268777648332 -11.1381697075071 -27.5477510838766 0 0
-264.064860935823 35.0268933064285 9.69775729838327 0 0
-225.360589773535 -5.49636214572095 18.5101061006958 0 0
-236.531584822265 24.1576807318281 12.7346616249856 0 0
203.905520385263 -5.1796500524108 -18.3366056756554 0 0
210.778853161884 -29.9981372351282 -6.82307035336223 0 0
198.880846185918 0.278327359859269 8.47577954401118 0 0
-240.202278917209 60.6871690515515 -5.45647800024334 0 0
-230.426455465943 44.5518705923444 8.11556336414503 0 0
-233.239160651038 57.5009028701787 -6.14844625778721 0 0
204.497490235552 -31.8821330062158 -2.8038705239602 0 0
125.656944138605 15.1751997527591 1.15858874848208 0 0
199.813940786263 10.4450376385178 11.8587055564268 0 0
211.736549730819 28.2245941588389 33.392599556278 0 0
171.295669655394 -29.9079137550963 -0.395209055452044 0 0
125.054839481733 -3.44878062694859 -28.2844534856712 0 0
163.520189041703 -5.34573482322136 11.9016616702688 0 0
124.407249247983 -21.4347830591858 -22.1686095800045 0 0
-197.983791306905 -8.69171142192989 28.9486168737313 0 0
6.24136521507288 -25.1676369794499 -6.96857986935644 0 0
2.37597686254976 -26.5517804057536 -8.49422945377573 0 0
17.7223958145383 3.37452321806447 -21.1001638426365 0 0
41.4051677424159 -8.04536922045413 -28.556444582816 0 0
146.898690112949 25.9467265395506 -4.30018704677411 0 0
-245.869439643181 -18.7568015353322 -2.51707326498865 0 0
-244.312536365886 -14.5769708121502 -1.3396843113025 0 0
-188.668099583232 -9.25322504698768 26.7419735843676 0 0
-85.1067214083078 -7.83937089576412 7.59141857397339 0 0
198.786284676424 -3.15235939058006 24.226799650371 0 0
-198.742240354847 -0.503501747473609 24.8627602655516 0 0
108.86989408381 -11.1116574120323 6.43204889589211 0 0
-57.3619333263804 -4.10732777869509 3.06662215529098 0 0
145.368295092392 -11.6405227387083 -27.5216233018016 0 0
-223.514044616196 -30.0289445728973 25.5801708559941 0 0
189.336780577983 15.8693394864839 25.242056117954 0 0
-215.789825000761 -13.9122555977679 -8.30285665899832 0 0
160.066245809642 28.6932799507628 5.29964841399285 0 0
198.936346979892 39.615473922797 -9.15835459353189 0 0
-194.057781927556 -15.0819891314235 -7.50740385574995 0 0
187.45889221221 43.9190744779542 23.8836185000818 0 0
195.565621708011 -30.3954983086406 -19.7252774365893 0 0
70.4390016566503 -11.733649320871 3.32389669223304 0 0
214.944267723366 38.7127338006874 0.92551133922551 0 0
180.123114934393 -36.5107537488817 16.7395015254276 0 0
158.269034803294 -6.77459596371619 11.3804722553833 0 0
175.528379267647 14.1401261841115 -24.4175547872319 0 0
180.995193384986 -7.13184378602321 19.2753494046471 0 0
71.4501796074054 -5.34362737788533 -28.3518081931268 0 0
202.570706546719 3.58029269646237 -21.1252989871418 0 0
202.017556869142 38.0464629280487 36.5800909477135 0 0
-224.993455566841 18.5592500284069 -16.396381661517 0 0
-186.618377267875 15.7105252347065 9.73014300735754 0 0
-234.291701951756 57.5641372392219 -3.29908317422161 0 0
185.601131703728 -35.3401358605887 0.951719651369895 0 0
-252.746215327972 10.6741422787449 -1.28527285307623 0 0
-235.428669055555 58.6599971966481 -5.29079300176647 0 0
196.639835584583 25.2940328005844 -22.5326384839675 0 0
-223.029693731802 15.3271473482346 -15.5015647600825 0 0
-114.357765062245 -28.6294592965632 5.69992058024136 0 0
203.775572411932 -18.0885614320516 34.9632091844111 0 0
173.561070759938 -26.9767245583079 18.1892392136459 0 0
187.289817205633 34.3054445075115 32.809574608647 0 0
219.214809307139 27.8524052331783 -16.7435416710703 0 0
-242.189491480202 39.7192386333704 -35.0029176065586 0 0
-108.53851417201 -27.6453151176074 -12.9040416728129 0 0
153.678922521875 8.93253226853493 8.11184001739085 0 0
-236.186089088672 -11.5266759796122 34.5299845122668 0 0
208.994782684127 -11.9598890919754 27.0634599591418 0 0
191.479699712557 15.6130687443712 19.5841252184425 0 0
-199.36838535788 -20.4034784627181 -5.79552185008277 0 0
78.2629776242967 -24.3333690863873 -7.80555756198259 0 0
204.829169840577 -32.8614170245274 21.4641074970034 0 0
195.475500374181 46.7782320761186 15.2617207275578 0 0
73.5574066490787 2.91047872540141 -25.3830023076505 0 0
-229.643463565367 -9.15687693977853 16.1493626615557 0 0
-236.132383424555 0.428719128382117 10.0256422753317 0 0
120.464693816432 -6.60996885088885 6.71632020849217 0 0
191.109258416248 13.6512735976733 28.2173875885385 0 0
90.8274335710575 -8.23588507063269 -28.463791048953 0 0
-41.6940561445754 0.0767057664540557 -6.82131528950748 0 0
168.549744350968 4.1816517221001 -25.9281241125725 0 0
113.23469907371 -12.0404588908398 -27.8002836946144 0 0
217.498570699801 31.5003719785718 26.3720262408978 0 0
216.048759325351 36.2029409811886 28.2216297331434 0 0
173.519159141118 7.72208151419032 13.0733769283663 0 0
-242.693737381701 -28.5386042655749 10.72364240583 0 0
-6.28364279155022 -15.1014208968278 0.137290311184212 0 0
176.898990190019 37.5980109804307 14.6972733693545 0 0
-212.480498963281 -20.5202296771482 -5.60151108573914 0 0
199.993155002491 -4.70417841999558 24.0248632486793 0 0
40.9985589307617 -15.8486702886582 -0.421847483798261 0 0
38.6541953379126 -2.18259823709489 -26.8402070386807 0 0
-168.234549301171 -30.8436573346334 6.10210181375107 0 0
50.0673893146543 1.28846313016848 -2.11759032518735 0 0
-240.606770112714 -31.0134660485326 8.70331373742109 0 0
-210.624859992424 7.06559002371247 -12.4721601870188 0 0
212.437695013859 -8.44387213455667 -8.43799863257564 0 0
140.355155851192 2.39087115960451 7.16040218243826 0 0
182.497068011837 40.7361335592553 -7.12818715582451 0 0
-108.455897111439 -24.7136944918281 -16.2103693353999 0 0
177.011222858973 -1.47860930967831 -23.6924495809039 0 0
200.175531599482 14.5262840619876 30.0339855654727 0 0
-220.617088426994 30.5795560826583 -3.99542259298775 0 0
199.985540291283 -2.90543861437355 22.636548693595 0 0
-119.573577968585 -6.74380818158186 10.59964705962 0 0
-95.5747298280626 -10.9749165107842 10.6976462063303 0 0
-262.762070478111 58.0950273582744 -13.7504993503882 0 0
-110.255747260415 -14.5608566225465 -19.7236854144924 0 0
197.862813611403 -32.9933013294242 23.9084276029356 0 0
191.135564719465 -32.5973993813991 -13.4428857373598 0 0
-249.301383836119 14.1429112683656 4.87994067902317 0 0
-207.469816356358 4.64702961366221 19.7745843694481 0 0
199.063392697894 14.590537388528 -26.8107519596541 0 0
176.53558197038 -18.1145895169883 23.6568459691137 0 0
210.45893707793 -34.002925586743 24.2985253433193 0 0
-20.4863764900076 1.63919271267789 -12.6734165484308 0 0
-50.4815921830596 -26.6834560070624 -2.9814855729003 0 0
-213.796552170316 13.5096199468967 -11.0588484154403 0 0
-231.414848431339 -20.0071196407129 -11.4094313707763 0 0
-249.128127382855 -8.08170751631745 20.99143523957 0 0
-185.29173402555 14.283843597582 9.11742495916594 0 0
187.65980708405 -31.9616720765702 27.4970182305113 0 0
162.100110191222 7.46227657283545 9.59337848613562 0 0
198.371817814165 -32.179360285281 -10.355522869471 0 0
207.134442190948 -1.48130889380322 -13.9098029547014 0 0
215.531970280468 -16.0196479584515 -4.61365163424416 0 0
-3.43179056367155 2.13119198297085 -11.0142814459768 0 0
-122.41966383827 -16.0705776536506 -17.9052984198161 0 0
210.891977878184 21.4093734063427 -22.1325268413528 0 0
-83.4311145393144 -21.1743120906298 5.52023829459448 0 0
71.7084858084126 8.37341690406931 -21.2423343215819 0 0
-198.774822546972 -23.7330850358556 -4.63989673496466 0 0
215.538744442248 35.5661159731385 -8.13254041698428 0 0
-252.640142065693 29.3163854890249 -34.3496784947304 0 0
163.684811148234 28.1060899000597 9.02830137406001 0 0
200.578165813861 -1.49069658135597 9.07986786967464 0 0
201.018667145763 45.624632936451 7.5891161121462 0 0
2.96807616009054 -9.72193756484052 3.67772222831691 0 0
-230.366290141849 54.4901673297817 -16.3402322817149 0 0
125.840122505776 -15.7815930244208 -26.4244981647558 0 0
-245.056679075513 30.2801811703706 -35.0867800782891 0 0
198.722544342105 18.4275885203341 34.1469417110356 0 0
177.431924762501 -33.0731293889441 18.7932207951984 0 0
-190.991240605767 2.47393017650347 -9.99746770870447 0 0
190.006499632492 2.34999146563926 -23.3621879494144 0 0
-248.157411884424 1.51398737442321 -6.98825999086959 0 0
65.876417881809 -7.87951894447306 -28.6353886365082 0 0
-165.592820410896 4.04713835922303 -5.28391251533536 0 0
-263.514900706166 13.1257512280807 -11.9944027581567 0 0
-240.43367533859 -1.86207799838002 26.7904245177173 0 0
-244.122516954585 4.92483538617983 5.63865630434171 0 0
-175.114113847702 -22.0173255573259 -7.24589064049938 0 0
-253.424062159051 44.415456120924 13.7237172648359 0 0
-248.215616351132 0.98901711481531 -10.8535655675437 0 0
-225.534692109356 49.2466061901676 -7.85508383646157 0 0
213.128299910638 38.4422452166999 -2.86651228949069 0 0
-246.570502196969 37.3104653635675 -35.7233074421306 0 0
-74.1184143574747 -6.55918520170854 5.98260149445776 0 0
216.216327396706 -19.3130518264846 1.89769041623121 0 0
-38.6754651903014 -6.97680245214979 4.8362268147937 0 0
-40.4796041789143 -1.68102416256511 -1.0912640934498 0 0
50.5488613688256 -22.5800366605825 -23.1478072048323 0 0
-32.8616587884764 -7.62861453588126 -25.2717032441542 0 0
-139.142206521747 -30.727733489853 4.51542164230426 0 0
20.5909243591182 -12.3488785446543 1.58231218258449 0 0
39.0926634671511 -18.9365872808597 -26.5676035545885 0 0
180.423122695158 -23.5794635839726 30.6467697181542 0 0
165.787030293446 30.3215944692496 7.96198550503957 0 0
-215.25175876507 8.61746495474582 -13.0464694528552 0 0
-86.0490183660771 -1.01654894200304 -14.8479482416606 0 0
72.3876520425163 3.8160970624814 -1.10294973501913 0 0
-209.753818593783 -0.971483732196242 26.4935562345348 0 0
188.785101710509 48.1726213347945 9.93121215269577 0 0
184.823509685141 30.7622707891136 31.017534426406 0 0
190.390130786558 47.5711936394452 1.01360556743567 0 0
-244.22985038694 2.26887776183484 -18.1562252396231 0 0
-234.737786859822 -23.8890472462521 -7.51405453955985 0 0
211.7232998877 44.5532607643385 18.5275059070877 0 0
217.208903337688 40.1152696372436 7.28294975230905 0 0
-261.972224290343 11.3136524959155 -10.6922224167636 0 0
206.659218373078 14.5085208739455 16.6630715069671 0 0
-248.619608781 -23.0030849133768 17.3593300030737 0 0
189.795178497201 43.8752771104733 -5.25246264007476 0 0
4.54776336675835 -4.10758146694006 2.43977519814036 0 0
196.171593223557 -5.40411179222771 25.8201709399445 0 0
166.098137087891 -19.5501344797633 -25.6289893182001 0 0
-167.098550912598 -29.2302003075474 -1.36981127686383 0 0
188.694917505287 13.5111451408706 27.4901754549526 0 0
-49.597475359447 1.0693754742666 -12.8103774662492 0 0
216.508635606356 10.0335954631944 4.0406353847827 0 0
159.78223788597 -26.3677306706322 1.14344658585499 0 0
-166.668196158654 5.56606326512945 -2.53884664797095 0 0
190.064258660338 46.0202356667045 20.9595467530096 0 0
100.182930332536 -19.8982560075943 1.26692337222494 0 0
80.4677799939706 2.89111061044364 -25.7313111179157 0 0
-104.031808300619 -17.1345085758303 10.9453128141193 0 0
-78.4017993459118 -22.5928867931358 3.74340510703726 0 0
189.652220451897 0.278478961009693 -23.6590831722345 0 0
183.921254123151 -36.455358492994 18.2531737834751 0 0
203.588281081459 -9.00569368721469 -21.1133078550274 0 0
195.234931733503 -31.8811291233578 27.9791991814143 0 0
-197.611784210794 -11.1851123636305 29.3940275985068 0 0
204.561853664662 -4.20060224528112 -17.0289977497769 0 0
-226.219917114784 -36.2439310084789 17.9382193603771 0 0
165.449768903239 -16.0880167390259 -26.7039059831229 0 0
159.22245837177 1.86717933703294 9.85627345867208 0 0
201.900181964005 6.61531407456888 7.9925251800326 0 0
-229.497418772346 39.8976803910805 -28.2164657442182 0 0
66.8463686097182 -22.2469774159371 -4.33580965251913 0 0
119.070650030089 12.4435757077031 1.14087731531401 0 0
-120.383088845894 -9.36245737450098 11.5459459646493 0 0
184.641874107548 44.5030919335927 -2.96637305429528 0 0
-138.426667715511 -26.2131216990835 12.3865402412442 0 0
-176.378759835516 -2.97779769382799 22.7856547448347 0 0
190.439391043779 -35.0258270033708 -3.08873616551872 0 0
-182.119991732395 -30.0355877402764 12.1243852863669 0 0
189.189648817734 25.4578457318002 34.2053509020687 0 0
-230.200396958485 -14.9135958213712 34.347583457736 0 0
113.78721320713 17.004960853344 -4.7860977256355 0 0
208.180185169635 45.1012869029417 22.1689739595059 0 0
149.808670708228 -8.73544604044376 -27.6607931573962 0 0
-248.947951879215 3.39192234195674 -10.1330213531367 0 0
164.64325880976 -11.9526269074366 13.6140486711894 0 0
191.168661871413 16.7751366057076 29.7231242902397 0 0
-258.971878917074 39.8429860109095 -31.9880276376213 0 0
45.497776848241 -17.9103434201731 -27.0618674358051 0 0
218.278933684757 42.0999297223147 14.1618430488248 0 0
-229.911398237784 31.4160917668571 8.68660935364651 0 0
-177.187237574783 -27.7370100883277 15.5435366028485 0 0
-19.1958447880691 -12.2249313495924 -27.0664836348057 0 0
-248.14984291829 38.8984395202351 15.9792541915429 0 0
-91.0079360724416 -2.27694874846306 2.14707817798844 0 0
137.341713284017 -10.5911563741886 8.96295889793189 0 0
-116.208822238845 -12.1944541330386 12.9562053409461 0 0
-204.602766932193 -11.1372629683371 -8.20965877254555 0 0
-65.5398057427935 -28.4463469169592 -16.9004748741505 0 0
195.761493357719 -34.5378033978085 -3.36359982624354 0 0
-113.305999585022 -0.704794318909738 2.08641522715725 0 0
-47.1271724222562 -23.6042461434097 -1.37517090249556 0 0
192.213016951785 17.2729021551348 25.3480998059308 0 0
19.4552346261093 -20.8687697749569 -3.05776368153156 0 0
63.1866232876253 -15.272972711981 -27.9128135286672 0 0
178.835864044892 -35.484934944677 15.2518998974252 0 0
-246.652968195107 -0.79871079479603 -7.17631139156205 0 0
-99.0960579257612 -15.9917149124565 10.3904058221978 0 0
220.36951039259 26.2248193947635 -10.3964250227345 0 0
130.911417194531 18.1421324912638 0.940448332528694 0 0
173.353671010884 -8.94423199627917 15.4557990355527 0 0
-224.564021368901 6.70556850058489 -15.2490855486127 0 0
197.290817730171 46.285722320529 16.1729540784396 0 0
-232.119858459006 -6.64648707814325 31.5434454694112 0 0
-256.070289607738 38.1319408794127 -33.7569590553301 0 0
172.44972748816 19.6519384270972 -20.6299566459501 0 0
143.192014900379 -24.1775620570041 -0.677649990364594 0 0
202.292473868341 44.1164354482056 24.0707374178505 0 0
142.222235310071 -19.5258425151968 -24.181548984313 0 0
182.811871144936 12.7549983761033 18.0975329378421 0 0
155.157282202965 6.77282632085546 8.44782578680204 0 0
179.197026347065 36.4136583480774 -9.02529898788604 0 0
74.6597850475526 -21.8515991584783 -3.32310093921554 0 0
220.427278998319 35.4582898982043 -8.85522505636622 0 0
-252.044757873309 58.0993775417706 -21.338132734522 0 0
201.944871168459 15.2702076208689 24.6795589372772 0 0
-242.683259347148 36.442441586678 -35.4355453569047 0 0
192.456356930468 -34.0705401625964 -6.7288283622835 0 0
189.820729074331 -4.49030197145382 23.3682561728317 0 0
-246.629242829649 2.15335187131484 -15.7379985290503 0 0
174.922534295124 18.0542398060705 17.032418723522 0 0
205.04465866796 38.1663593034355 35.8203772300674 0 0
-225.227419183393 49.2307641741423 -13.1898292203404 0 0
-233.868670714469 48.2463327197978 -28.2206617120761 0 0
-215.176617838131 16.1596399226691 -10.4036731397002 0 0
-25.125079820353 -23.1153643889326 -23.4988568737758 0 0
-138.916720985228 -23.2244047471617 -12.2364003721362 0 0
214.1880535065 39.4171539559653 29.8633532321451 0 0
181.965950276237 42.1900395180251 18.3800110929519 0 0
-34.0481842486025 0.922681668436491 -18.2075557759029 0 0
-169.832296206992 -30.9152965639948 5.24393014538708 0 0
-249.782740572835 -13.5392023930973 17.8617907588669 0 0
178.053866858468 -32.6550152294307 1.19487009709038 0 0
209.074430104228 45.8658455927841 20.3912682473327 0 0
127.864102378065 -7.66548093288303 7.62704559442439 0 0
171.442938175994 13.4069929691246 15.020518736371 0 0
209.220757526162 6.26599652655201 5.46175717530199 0 0
-212.734263359879 -9.55967275410755 33.385714473497 0 0
199.582252367981 -32.5225261835093 17.8849403555481 0 0
215.339998193537 39.5263831256993 3.70446507500902 0 0
-110.991851487648 -7.49297247556262 -17.6383878266261 0 0
211.915407536814 7.88109098971866 9.57802610414347 0 0
-248.139940844574 14.4792255689194 6.74507985021731 0 0
150.231420434404 -11.7465873087267 -27.2944758012096 0 0
179.233606265116 13.8892579928109 -24.9769252415599 0 0
204.119797820147 -4.78481768052703 22.6976999402712 0 0
114.348901720748 6.83717885942676 -24.5999461364729 0 0
100.927552603254 -9.58356163891044 -28.3635996790192 0 0
165.579060190619 -24.020216546768 -20.4014611920731 0 0
115.692289354774 15.1720563183529 -17.2539898230506 0 0
-172.105549620826 -9.28787984011384 -11.2581741528273 0 0
189.914901485535 -29.7287791435556 -22.1946573638973 0 0
178.589620169468 22.2006143116834 22.5804492355145 0 0
212.58210708521 -29.9265677181237 -3.05137405704051 0 0
-199.652394246896 -0.406371371842565 -11.443359408293 0 0
185.932989559491 43.4423501049889 22.8790274306374 0 0
209.836679416944 36.7960130950569 -8.43729436119214 0 0
198.275287658751 -37.0943204546213 15.5097087483308 0 0
161.329422894402 15.212156166355 12.4730766999827 0 0
-152.192559892586 -13.3107268854826 18.9183689068646 0 0
-252.41025597004 61.0714057253524 -8.02172623492725 0 0
-228.197954974261 48.1207735818776 -22.5922850196497 0 0
207.456601010021 3.89641220965463 -17.9916823547402 0 0
216.893573944123 -26.0347468952812 13.0912114167243 0 0
158.053637700098 -21.4126364959169 10.7441907596746 0 0
195.995698227732 44.842044089425 34.0421189608351 0 0
93.2484866540375 2.4434114863762 1.33599879470148 0 0
-231.588427293588 34.7728541976146 9.8275534608608 0 0
-61.6569556586806 -16.7520590129034 -24.4579963628337 0 0
218.245305577015 36.6785396404083 23.7354483248753 0 0
200.628196022277 35.506038414146 -13.7214670223593 0 0
152.633965869978 4.00245667458725 -26.3772965882924 0 0
128.640694158761 9.45455300788885 3.78216315561394 0 0
-37.6706699650904 0.45057536205713 -8.31675382730875 0 0
39.0885597975648 -16.4140577827572 -27.6383827640063 0 0
204.967686246162 20.0959697345248 -23.922812583713 0 0
214.735080004186 -21.9690278188304 20.5440343081558 0 0
-204.103900092386 15.8341050966452 -2.82474541041185 0 0
35.5394771244002 4.98174793344939 -9.11447257791287 0 0
-219.422565582214 -33.9926570080743 -1.30756830938847 0 0
168.401965892219 27.1088238259786 12.8043340258404 0 0
-95.836847207158 0.795068876875481 -3.80098305661305 0 0
203.071396681267 44.6375614213745 4.20168188007497 0 0
-236.481544379244 34.2661823455176 13.6773928139375 0 0
221.617734400533 22.8048097346194 11.1010183369287 0 0
77.1081791367388 -2.99939471924664 2.13176652389987 0 0
198.498899392656 -7.1003221434434 -24.0889180931831 0 0
-199.323702406369 -4.39598219088233 27.6595233088252 0 0
-35.263832308132 -6.19039553069112 4.30864306516655 0 0
109.288361203049 11.8298485636365 -0.06062649909285 0 0
212.182951540647 -32.3655141682693 24.6872161174906 0 0
202.013929591371 -2.61889070087389 10.8135738762568 0 0
49.4769579598295 -14.762079335129 0.198406061797283 0 0
-19.1511197583886 -17.0145351899159 -26.4616898746661 0 0
-181.206697104538 17.4072651023246 20.6897352879216 0 0
-122.309543306079 -25.9910759191466 10.4698126261008 0 0
202.037703454186 -1.27589865626261 7.8991759093413 0 0
209.149818552017 13.1472961739353 12.7366877887869 0 0
-224.352307828225 33.2860346768489 -15.2822733609674 0 0
-245.127769598525 -8.8050790110298 30.1878523760059 0 0
-151.816874300885 -25.3820082281924 15.0975503138037 0 0
-140.047895064667 -6.95508253596494 13.4030581555711 0 0
-182.76447364076 -20.0107163969023 26.1096177395759 0 0
96.6757557123591 -20.9158830985127 -0.207624391342106 0 0
77.7966320062623 -23.4374472691671 -19.9924775720861 0 0
184.593393303996 18.314476271647 29.6941491228359 0 0
-216.593673128042 -12.0115814325839 -9.25366923621054 0 0
-255.250365389096 19.8274413401446 5.2948214566088 0 0
-242.184076476472 -4.03090624704103 6.89385473293861 0 0
205.597566663224 12.2489754180691 27.1387866715622 0 0
-216.028004650114 -29.7842963615971 27.5712567123939 0 0
133.908392718185 -20.1630341700845 -23.621987640896 0 0
-205.588431878599 7.20772239609519 -11.0934671715266 0 0
210.471217485663 -24.6996271716499 -18.2532509755808 0 0
211.799496461348 -24.1772260285064 -14.9088115618729 0 0
162.957634394257 -8.30727750877008 12.496848757899 0 0
-202.492266109394 14.8210906572004 14.1304563938997 0 0
200.42177099797 -2.09355394366905 -20.573337588127 0 0
-42.3567367210843 -18.2262561413382 -25.1550043019398 0 0
212.422465673857 45.0299783967408 19.7305743029728 0 0
-126.604027630413 -10.3093954477956 -16.6476195372358 0 0
180.604568708037 -32.5801553796801 -6.40621020901486 0 0
-16.0129863219845 -15.3798933121918 -26.923350541596 0 0
-236.48868260119 -28.9424398899338 23.216909231592 0 0
218.971879333344 22.261413241406 -18.9480930103786 0 0
193.844701961247 43.774371314983 -4.63551827777051 0 0
-181.387035440224 18.7146041472084 12.2547275110358 0 0
8.79700934088861 -10.237109429724 3.63840363190931 0 0
177.417564108949 -20.3389800498592 24.9060880108725 0 0
186.560987057895 -12.3832083335437 32.4968485652744 0 0
-244.419889821897 7.14160531400577 5.62036878110544 0 0
-62.269942597267 -25.1576230152183 -20.3944295693005 0 0
-224.973012507626 49.4236346617402 -10.6054777429253 0 0
-21.7520186983587 -14.453883617483 -26.9542515375245 0 0
204.212785748682 -34.4577119332085 27.3905466083858 0 0
2.00052540847533 -3.83521000800028 2.27791469385185 0 0
198.414135217138 -31.1253607288284 -15.5212827231179 0 0
-192.559572485021 14.1767510742241 21.7041249269937 0 0
217.227215168405 39.703023508228 4.59812065793306 0 0
-36.0831915577192 -30.2396593451597 -10.2095432372343 0 0
178.762191436215 -23.1437033495153 -27.8055859200622 0 0
-72.5648358367699 -30.6291093400662 -4.55355147446767 0 0
-249.952444759104 62.3533760643343 -5.70914496517736 0 0
-99.1965937063962 0.777329806080836 -3.33215362704098 0 0
-139.079927586753 -5.95505050802599 -14.0657732922285 0 0
206.32106909315 -5.5867601790011 -16.2233936210599 0 0
221.208679208649 26.9221220223886 15.5986698886912 0 0
-92.5402151337365 -11.3558182962575 10.4706208703915 0 0
-78.8248798851443 -9.53783691687514 8.14308569068085 0 0
131.617990238984 8.23365989108975 4.64068701655376 0 0
177.275587756281 25.1159134645096 23.2077187249708 0 0
-72.42370955139 -3.6842212177044 2.75920727310783 0 0
-204.896239554628 15.8723485776213 12.9759634835337 0 0
-18.5337448501961 -23.290817996319 -23.5458278273632 0 0
167.225454225062 10.3961783450904 -24.3463673123931 0 0
-91.8600942828866 -30.857329446638 -3.10051295187776 0 0
194.375331646063 -19.4916411322197 36.8833413778224 0 0
190.262425856774 -27.2918590099865 -26.9841019638402 0 0
199.080499005868 -35.6111630097626 6.0315673486521 0 0
201.101236601823 -29.3839289920944 -22.5291655303606 0 0
162.184872107784 18.6490362115445 13.9373531336055 0 0
-206.933944908019 -34.1048118504999 18.5851022340213 0 0
156.342438044639 -25.4615905658091 -13.9845027626791 0 0
190.930608611862 -17.7264063273595 -29.483861679198 0 0
186.474133501339 37.3911144510133 32.2098088286578 0 0
160.998538391583 -25.8898332915379 5.00846637621837 0 0
-155.83752874305 -8.90131340123462 17.9896947800476 0 0
-4.33511305746099 -16.0032064260382 -0.298781506321447 0 0
60.7934568573928 7.40212376251624 -8.22051126659976 0 0
-42.2580421653804 -2.97274759402356 1.87247555859589 0 0
-127.22302645017 -3.89363705251146 9.04008327440791 0 0
198.71822870889 -32.9689071148766 29.005830548961 0 0
-5.06213297784851 -4.0443498116266 2.02324509638481 0 0
30.2301933731875 -10.182587686406 -28.5128700340557 0 0
-156.152210046605 3.88888188843 -2.54633098413797 0 0
-154.915113327313 2.91229004920647 5.36044265844946 0 0
-23.4697221367684 -4.99501074010726 3.46820875750376 0 0
-208.071529581398 -1.8769011615124 27.520450158161 0 0
-65.3106557581946 -31.4496265631749 -8.96277570127226 0 0
161.678651186385 2.71738636802722 9.96314893293911 0 0
185.274623865497 39.6290888477434 31.5700440251358 0 0
-158.521818033859 -18.7969218645475 -11.0365897857074 0 0
-230.773578488369 -29.6239165813579 -3.67397711557641 0 0
213.877034734043 -12.5724668490869 13.7191059630452 0 0
-219.550851710107 -38.8030125814558 15.7792164337387 0 0
105.052246378263 -22.4551442453526 -20.4701919382276 0 0
115.016611162717 -18.0414779929058 4.52189650712328 0 0
2.94098654440028 -27.9325160559693 -16.8068301799535 0 0
206.18280135699 44.0869455502838 12.9109329518173 0 0
-110.9446566985 -20.5216448962947 11.4917811081675 0 0
167.630156796726 -8.33132226584936 13.2446755810715 0 0
-263.306500810743 31.5903438699526 10.151074928182 0 0
-62.1548943443628 -27.0553037443698 -1.82947382797506 0 0
169.529482700822 6.59618407226108 -25.719992081288 0 0
-94.0826843291094 -30.0514617617002 -0.696181699631675 0 0
203.196464041576 15.8256895707117 30.7374730327218 0 0
-127.892371954684 -14.5317052374459 13.717508939114 0 0
-223.615371774898 35.1597869263245 -10.6711711409246 0 0
183.234466465612 -14.6444199216929 31.283596774999 0 0
86.3349177867922 -23.3150356797714 -19.316178634097 0 0
160.267876117022 31.7395474562405 1.85614354311309 0 0
194.905422914032 40.2933932973305 -9.28080446880434 0 0
-76.9714148667315 -31.3096091730061 -10.0357106880557 0 0
-44.6136798984939 -30.9234311270175 -11.3753566348873 0 0
212.029384457079 -19.2710260716096 -15.5522753965302 0 0
-219.645656452616 2.80108684365666 -13.4116854205111 0 0
-185.096462651919 -15.5090296731485 26.1394897844573 0 0
-210.554578765979 -35.9938560062859 19.0568333489444 0 0
165.420186805391 -19.7361801052714 15.563707506982 0 0
76.4793191597187 -18.8568493868505 -0.326092315847331 0 0
186.336142324128 -16.4219088321503 -30.4532841697487 0 0
39.0550616299757 6.1037762909279 -19.2809642822153 0 0
-103.610687391012 -30.5135582696999 -7.55253681814714 0 0
165.012947605398 15.7571613513512 -21.1717209971936 0 0
-143.648544531091 -10.0312476324547 16.1346108078468 0 0
-218.539147674871 22.3472278655394 -10.7061169638882 0 0
214.131695806232 -28.1523133532274 -9.60663824763438 0 0
-214.229730800446 -36.3729640681866 -0.273034285630315 0 0
-269.440770862995 26.0069978740387 0.288209463976759 0 0
-232.331268100925 -10.8662546367018 18.8408417752558 0 0
-45.5121715052014 -27.6871746813713 -4.38098660009231 0 0
-253.248353767003 58.8988170540533 -12.3377715119188 0 0
154.456142031204 -25.969252920316 -11.1749044235404 0 0
-152.041697311732 -0.406133260084068 10.2501061819929 0 0
181.55000158075 -8.12967712971047 24.7299724482746 0 0
-103.231691820687 0.89390913950876 -2.89082840353252 0 0
179.251384833608 27.4993925919082 27.0647810791078 0 0
-40.0480593851214 -6.63940924752133 -24.3050312899915 0 0
185.193504022205 47.1489768980478 2.49745965968361 0 0
-258.234452088159 10.4198139889177 -7.3105823110465 0 0
216.334319065296 29.7963406212002 -16.0635891431202 0 0
183.171245842723 16.9978069790367 25.6093586647218 0 0
208.113319974715 29.9596089531882 35.6158351400816 0 0
-159.392735612664 -9.72043640197577 18.9512128015178 0 0
-222.909773343858 17.7505451805922 -15.0624894975121 0 0
205.674392516878 -3.23352663032532 9.2378553275972 0 0
-183.509224098408 18.5979937650641 11.4916139866814 0 0
211.754034468205 -9.98583846877082 -11.4501915566563 0 0
198.909367783158 -5.52652509059549 26.8991255944992 0 0
-230.951167454968 -10.1686436364276 20.0778536939731 0 0
-70.9074099876227 -8.55159973066536 6.83323106878106 0 0
170.774820456134 12.526685601343 -24.0401477055859 0 0
-146.45952751334 -13.9662201020122 18.2439959769763 0 0
-231.762551213485 11.376881785761 12.8760459183962 0 0
-122.785987055983 -30.4857846101675 3.14944327998885 0 0
-21.5430542158613 -29.1418801708661 -10.1945727863576 0 0
172.005759423069 17.4565481448359 15.6020924273749 0 0
-249.669853005056 -13.8938067792918 12.4857409925268 0 0
-265.247610265422 55.001946492876 -11.3783700575787 0 0
-267.340439761622 41.9554890493266 -24.1351146974881 0 0
-164.688927767525 0.831684441796624 16.7112686009576 0 0
-156.18181753971 -28.0837545990224 12.5418092152297 0 0
190.408861334306 5.94278712678426 15.2503858318786 0 0
203.427785594146 -5.17744954063492 16.6525367034649 0 0
219.201513779025 25.4150016706812 -17.8581721931438 0 0
-39.9158190989014 -28.6678741348613 -17.7425506858265 0 0
177.093146066718 35.0024159480483 16.6120401185847 0 0
151.084940437566 21.7030600353049 5.77685500104637 0 0
-217.74428996229 -20.75752110693 -6.38206284343768 0 0
181.612856481082 7.15440465687049 17.2248963123915 0 0
-254.276300588465 51.3371190795186 -29.2121761419977 0 0
212.52866353881 17.782278256813 -22.6803177818358 0 0
24.0484380135255 -0.00498667115534234 -2.5556132810449 0 0
213.807454330958 -17.2410108699211 -11.5170411587375 0 0
150.322171976919 2.850231751199 8.46340630545965 0 0
-205.86549132608 21.0370303330444 6.48269378343368 0 0
-211.593825657214 2.13271645786349 18.6112419731872 0 0
-74.965364881273 -4.78961460740375 -19.9909823180817 0 0
177.733793632952 -32.5683733117096 3.24903755441383 0 0
-36.0913575120053 -16.6869380894739 0.946951326738013 0 0
-238.012997552231 27.6763419439159 13.7718530481472 0 0
-44.1440321751309 -6.63743715014962 -24.0125842315945 0 0
-138.128990720843 -30.9134206471424 1.57916729525933 0 0
219.439556421442 25.0231468156863 21.4009332591255 0 0
163.973881880119 22.0751483813909 -15.6538375071846 0 0
192.140132506837 21.5114919097133 -24.9488577150311 0 0
75.1568286434306 5.18305776528926 -1.52370036135776 0 0
-228.892761228855 36.8751257142981 5.21495592333223 0 0
-158.61721502805 -30.7415214409063 5.24724232243964 0 0
48.8245150992342 7.25354392979431 -11.5423625511159 0 0
197.482616431698 -34.1509245259666 18.6647353443188 0 0
189.383235688266 44.4820660356826 33.1637664416164 0 0
142.743494911057 9.3628594408901 6.18448198130429 0 0
184.409037240886 38.5060091887922 27.434660308628 0 0
-120.369331965245 -15.6949171013364 12.574825156464 0 0
191.010231290049 -2.2901497980521 -25.1412544170974 0 0
204.388167408153 -8.13589831979512 -19.7742937815371 0 0
-50.5531149469393 -28.3521372576102 -4.23569328720545 0 0
-16.1538008172657 -14.7892780771458 0.707052483157079 0 0
-12.1071741647665 -4.37785523012028 2.62346597150486 0 0
61.8301010170713 5.50030320246392 -5.03014914698082 0 0
-190.883905247525 13.8451792939878 23.3383093050741 0 0
-220.499575840837 -38.1076300434256 17.4413426770047 0 0
-5.65762783264683 -11.1672284324408 2.71379476194438 0 0
108.410718466439 -24.6657332971336 -8.68818067331425 0 0
158.079952812843 -25.0300919311935 5.06152485467704 0 0
-246.172207378984 -1.89540701531071 -3.91571122987509 0 0
206.204078141459 -33.9015012568541 9.8424230652857 0 0
166.164820693282 11.64795429601 11.2571672160699 0 0
192.27814442946 -26.4666306897795 -28.3075771873304 0 0
199.334298027114 10.2251777507071 -27.1639679489608 0 0
138.584483120755 11.7878902636099 4.87540107412061 0 0
196.963779394657 -35.3373217671402 1.42214633807204 0 0
188.218203830666 17.4608221775707 29.2057229955808 0 0
-224.715950798526 24.0431526950257 -15.9068640304077 0 0
192.713380550338 -21.1125537121132 -29.9557255291186 0 0
184.306304335148 9.79247842696488 17.880098657385 0 0
-244.422378010909 -9.11697953262592 -4.41925995272369 0 0
152.091311849106 -25.9022510529496 -6.98018432096909 0 0
-63.7703940047186 -4.13372047213742 -20.8618257329877 0 0
198.617764669867 45.4049205355411 -0.115703649073441 0 0
199.936728740246 -33.1894475885569 -4.9871632567352 0 0
-223.873285239783 -24.9250198082674 30.9627940559201 0 0
220.406286988863 39.9174365257176 8.08250442606492 0 0
-11.7574440074507 -9.56897351913858 3.89961518852002 0 0
-183.540883022989 19.712480363124 16.1585307710479 0 0
219.296140785965 19.9487218561865 18.1333889727679 0 0
207.772859966991 37.9106636942849 -7.54669158236853 0 0
-41.7158076280225 -9.45228726070116 -25.4022897269001 0 0
157.868598247575 26.7405679345322 -8.33198596241577 0 0
56.6678987829912 -12.4179807886767 1.99099525480538 0 0
210.883111700166 -21.4345311635797 -18.2121317468069 0 0
60.1851729934854 -3.41526162934413 -27.8902984218828 0 0
212.483939082703 24.4147323799904 32.3108893109578 0 0
202.969587099647 -31.7850905671707 20.3992240332183 0 0
-71.7840733451333 -25.9701042598378 -19.0806330605437 0 0
175.495356550486 -6.07821305083234 14.8258426790838 0 0
-27.8828200566502 -8.96815759984891 4.48396161052641 0 0
-125.150111066218 -25.658300296242 -12.7131904344351 0 0
112.358614499195 13.1273023958351 -19.3864861193095 0 0
-215.562322055202 -39.106567632125 3.10853827361953 0 0
184.201098930894 -34.49733456228 20.0349459104844 0 0
-107.915544161806 -7.84115934298705 -18.2543524300503 0 0
-237.556953135857 -5.66255889213248 9.93716499232083 0 0
-88.5676349293526 -8.40909137417204 -20.564873487494 0 0
146.089409695105 -3.52911489333626 -27.8408169220904 0 0
-265.016094010667 38.5823127559881 -27.5993856589015 0 0
-104.16019415234 -25.9255969261699 6.9378401809665 0 0
-101.538765891692 -6.26723889660314 8.25665089565999 0 0
-232.323654259688 -33.7836526319064 3.24073659408337 0 0
214.279541641576 -34.5275322516831 17.1999732908277 0 0
192.812330947821 -33.1978997973161 24.5232827505543 0 0
-242.629379506371 25.1606072433464 -32.6906406349909 0 0
-52.8473642378513 -31.1946159836979 -8.47691339760655 0 0
183.373527387017 26.5802035912643 -19.7626993866915 0 0
-260.129525781087 20.9453174118345 -27.4142829889292 0 0
-167.204646889501 -29.4804405580447 11.4186790754677 0 0
184.311748130691 -7.16190603303538 -27.0006398897954 0 0
110.48789375631 6.37143636881835 2.12943094508174 0 0
-231.716631225621 -5.12432904338677 12.212329179242 0 0
190.376147936247 -36.8901979075746 5.50818065220604 0 0
207.796627928952 1.88713713798065 -15.2723357448187 0 0
-0.380117704840234 -18.2906696046625 -1.32363537486937 0 0
7.12415463049516 -8.16607726675698 3.79776932447154 0 0
137.31051101632 1.70204898874136 -27.1368556132589 0 0
-264.00211183211 14.0049676849255 -13.6457765510966 0 0
72.9062853779296 -12.9609268895088 2.90886286176948 0 0
150.156441226841 20.4175586884256 -14.7773566322732 0 0
-110.096177281446 -29.0794620372937 -10.0489669383709 0 0
-54.1318394992557 -26.8286680014088 -2.70870933352933 0 0
173.815596138345 -1.70509632451858 13.0460784760186 0 0
207.435117106612 -4.34369109110462 20.1277893184324 0 0
0.731763021332066 -14.441818121478 -27.501655533064 0 0
-252.396364479332 62.0262177677075 -6.61047844207591 0 0
-211.010478864129 -26.5769048076612 -3.18922951582589 0 0
-200.332775103159 10.9538695112428 16.7426371887148 0 0
180.740355520898 -21.8998733130524 30.8736127333355 0 0
-158.537610146042 -25.3151793902805 -7.32766092132912 0 0
-246.268160555535 1.80650312392142 -1.35483050293762 0 0
158.634178720784 30.8434055875791 -0.038770217903221 0 0
-263.333286139664 55.7468968320437 -17.1596481205714 0 0
-220.138712006447 -33.1281457621366 24.3092876175137 0 0
198.781171457041 7.89725082576745 -24.7503004369666 0 0
-240.981122092023 -24.6554095062424 -2.67788435672624 0 0
204.567854519063 34.5517560750594 -13.6146749670363 0 0
15.4272151945142 -0.874260825187887 -1.56715241793147 0 0
-253.276012678215 8.94739576068992 -4.52074630072837 0 0
176.132200286556 32.9166552195191 17.1225141382431 0 0
-251.904976083793 50.3418573718252 -30.5905948715357 0 0
-67.8627277544124 -1.09859309727791 -1.92298458775265 0 0
42.8862717063307 4.04597147148658 -5.82238313523852 0 0
167.855400738471 19.9246722126984 15.6968143888097 0 0
-30.629559041527 -18.4455927816433 -25.6037036728288 0 0
-258.346738405514 26.0410983389423 11.6141558440589 0 0
55.9016835321735 -19.8087902751565 -25.7765404924817 0 0
-227.289946474051 26.527646179887 -19.8505543365688 0 0
199.30915423918 38.6364187836724 36.4775336898973 0 0
186.463834183978 48.0855087494611 11.0862135962661 0 0
-240.091428657147 -13.819631546059 -10.6963038914895 0 0
-243.414927658616 20.715327269314 11.1252245215421 0 0
-67.7207440122809 -19.7896710428612 2.96962794877055 0 0
-165.043082522777 5.17563717865741 3.553621288655 0 0
138.866179232621 -4.25684335855304 8.22093652438724 0 0
215.118285262923 -20.4966483155887 17.3457205257978 0 0
-226.276017754145 26.2510587265847 7.58688474940317 0 0
-252.375021935295 36.2136285021989 -35.0698026536454 0 0
31.2489166223856 -17.8207355004372 -1.36939460946272 0 0
-165.726827717557 -30.1331580604603 0.897455695244649 0 0
-210.816345039087 2.81272446860517 19.8321314300562 0 0
216.838398568509 28.2887891318219 -17.5557651791111 0 0
-224.153629670219 35.1486190700975 -2.97640978071162 0 0
199.23634935998 -19.2769236515396 36.705025122095 0 0
-152.277562370015 -28.8899726350263 10.6585072713373 0 0
-141.435941376118 -8.96654436557378 15.0193196149179 0 0
207.501303887617 -31.6007397712903 3.53357390275199 0 0
-209.347945565609 -24.272316623289 -4.21316425896178 0 0
44.6566622869193 -13.685501506435 0.676606962577958 0 0
145.036888842275 -14.2157501228331 -26.9018868737369 0 0
-224.388329952635 -39.5500804352668 11.726984709258 0 0
-255.429033779993 31.8987354041351 -33.8901050636023 0 0
-48.4371354945627 -7.28826336035039 -24.0789860679027 0 0
212.790696733547 -27.0013934238174 25.9008896886704 0 0
-226.815521159155 -1.0922650478242 -13.599963494437 0 0
176.319374572778 37.633886362239 -5.95583565935041 0 0
-200.238223176198 -26.2167037732456 -3.21010188110994 0 0
-61.4148888613378 -17.7974488333677 2.82880917458488 0 0
161.494278593944 -26.9901856141947 -0.340716807413815 0 0
208.552047143572 44.5148770158743 23.625942059996 0 0
216.835244618162 -27.1197316903606 -1.40185925695919 0 0
67.8474870749025 -14.3078407689747 1.79422379961494 0 0
-224.834823036713 -27.9886420303394 27.7195495319147 0 0
192.730645143115 -34.8625163143533 -3.65732250609288 0 0
196.821060569372 -37.3948598634656 8.08375261519858 0 0
166.678567060135 12.1669432113233 9.41953646860623 0 0
-216.979572312252 11.0996440735081 13.2632879237714 0 0
-262.532733307095 14.9404385932671 -18.6703090289391 0 0
-175.277803597406 -7.11814924062042 -11.1317457301955 0 0
-177.198635003739 -27.0628899018783 -3.85265666713908 0 0
-126.493567543021 -0.010545064035244 2.869574226843 0 0
-240.402188902261 13.8917907967726 10.9148812386218 0 0
175.262107901791 5.21742911632545 -25.1205852142152 0 0
175.287454043663 13.3064601943954 14.167131743255 0 0
-186.845516006514 -27.8686068642596 18.0221744138367 0 0
181.428352342074 29.4367665476017 26.3425775017825 0 0
-203.905109646693 -5.08472332593148 29.2722204182329 0 0
152.050011787981 -16.6080522147469 11.0354453417645 0 0
187.463970489639 40.3585355231498 27.7154071349157 0 0
-127.591925749318 -23.4524340099754 -14.1357059863096 0 0
-208.013193978949 -31.4365769997889 24.3348806661345 0 0
-239.882288586363 -21.3996033776903 -10.821885500879 0 0
-155.555947837696 -15.9051693383571 20.4748147433085 0 0
-164.636356058811 -30.3380451267151 8.71100226867278 0 0
-37.7868879064236 0.822556552645095 -17.9397307616131 0 0
-215.151713463742 25.6293288891668 -1.80356855010412 0 0
214.230506731573 32.0805187421623 -13.5133309250456 0 0
209.691299242026 -10.8022451577845 -15.8477616631214 0 0
185.619829727685 -10.7157589923323 -28.6818553330343 0 0
-238.735302250473 -24.3406104792559 -3.3076803106456 0 0
-156.513125535753 -1.48573519990395 13.516599988338 0 0
179.2103267068 46.787764161802 5.75313625191088 0 0
-242.540658847366 -28.1787800039499 1.32595142243733 0 0
189.70989389175 17.0159234830467 29.2013945607482 0 0
212.50719915009 -34.4712723790244 9.42861044466856 0 0
155.184059985436 3.69915238151534 8.95930520208155 0 0
133.164291776657 19.9693948801994 0.142716128355459 0 0
176.339031885401 24.2345620689263 22.1913042925962 0 0
-191.665859933768 -19.5781884935996 27.6436671278012 0 0
-252.441145829777 15.4724058176103 -26.7667011986925 0 0
222.027419873845 28.3354790867274 2.19743407795923 0 0
67.5253758471753 8.84889252493226 -20.0225649641105 0 0
208.696604207685 -22.0751214210925 -21.2442799334148 0 0
143.361028313168 -4.25714085776212 -28.0095497138055 0 0
173.857255300544 37.8159484091579 10.6573926612648 0 0
-201.866436539656 6.39358084458777 19.9141332244322 0 0
178.737479197301 31.3514230817892 27.7023557429887 0 0
-251.087969561969 53.6456647462612 -27.8773625435307 0 0
-207.542076059729 -20.166569062552 -5.71086121789785 0 0
172.56283424795 -3.24734304491434 13.5709883984158 0 0
182.543096897372 11.5654762231628 17.8355359037626 0 0
-86.6241446829083 -21.657769727116 5.96374441779408 0 0
148.932470404718 -20.3187154541222 -23.4264189331184 0 0
188.735259249903 42.7985817664552 25.7925403410586 0 0
-229.930307963005 -7.1329752422868 32.0998089559743 0 0
-159.387045622902 -28.5930503031654 12.2578445169258 0 0
-195.04566335333 0.923212858690833 -10.8669723896352 0 0
168.675603524991 29.2086541311459 11.2113372780309 0 0
170.410253360975 35.1707781487466 -4.40222664670615 0 0
190.710735601605 13.4241250293756 17.5843641861203 0 0
-251.565575195901 4.84112542212795 -11.2221952318524 0 0
-114.149783638713 -0.296791145709159 -11.3962228106695 0 0
64.7912263866896 -1.67939689960216 0.809194105100902 0 0
-207.070325569499 14.0965296419001 13.7174999470231 0 0
202.112018668848 5.49374584715628 -22.53991943226 0 0
148.28108653361 2.65983093031176 8.1936932724691 0 0
209.888257170719 -30.7623304455709 -8.05517838142049 0 0
-186.226190345802 19.9971126681238 14.9445509654413 0 0
-243.244171677648 -16.2022416634875 -5.85649597397293 0 0
-247.646287967934 60.609550924673 -0.591524730562956 0 0
210.758807255235 -32.6036672213828 26.4449782065489 0 0
-204.199947163862 -28.4055534775818 -2.02774032033349 0 0
