"x" "y" "z" "f" "a"
-109.306425495367 22.0412970237118 -7.57688256807074 0 0
129.88721072774 -10.7331978354597 -0.235460025284672 0 0
-204.548036613725 12.4764031532764 -8.48026223567894 0 0
-146.234300259352 20.9710215452229 -17.1974107251758 0 0
-185.311983269199 34.6424131736134 0.737004482192323 0 0
175.882750436504 -13.47953195197 19.1456387196252 0 0
193.689318460963 12.3959889888231 26.0272900475268 0 0
-56.9234922767439 5.35689614460575 -5.98097931217121 0 0
211.999609436368 -11.3414688432813 14.2096311299046 0 0
-218.052930022472 -29.9762058877263 21.5736273279531 0 0
-179.830649523059 -4.35655014354193 -14.697331170531 0 0
-123.138835541665 11.2899600494943 12.5024682605794 0 0
-33.832568832736 -4.35426994082523 4.95707950274605 0 0
-162.153218011016 19.695172680944 -23.5434688000277 0 0
-148.433806648923 23.1162776236048 5.3713313801093 0 0
167.792467766703 22.8903569618165 12.0549983011171 0 0
-109.941444991616 -0.77729679889811 -7.70369240574472 0 0
-13.0659156992325 10.405264516755 -2.11166386213143 0 0
-205.640749305408 -21.7135628270965 -16.9623775862216 0 0
67.5694824482684 19.3088322575575 11.1418826714607 0 0
215.744248278874 26.3389642779516 -5.01995806051124 0 0
-169.600882923294 -14.73339298513 -10.8735997770158 0 0
188.340174687181 -27.3955991878071 14.4906414400515 0 0
141.093517657711 -15.835643946545 13.8682056524 0 0
213.313662895529 -16.4578814796893 -26.7911340082996 0 0
179.636494981942 -2.12447668021672 18.6754600844377 0 0
-111.444976109468 22.0192583154293 7.01112219703662 0 0
194.06056754738 -6.76997677191338 -16.0360329996928 0 0
182.537691246854 2.02182280602207 -17.1478274829463 0 0
139.198740763316 16.2966753639933 -7.17327422739634 0 0
-29.3127889159413 -1.79223987821084 0.713211507509836 0 0
-169.462043154676 31.7732297396215 -11.0459501941522 0 0
157.714829428597 -15.7220645831453 15.0117185435762 0 0
-154.179919438969 -6.74554973858553 -28.0642088915189 0 0
-208.529828966522 17.8701983720234 4.52700739818187 0 0
127.68468207598 -4.89923149379382 -3.10635934024651 0 0
113.136694970268 -15.7694600027158 11.0991427916621 0 0
93.7128614934417 -11.1462870112067 17.8970125513858 0 0
-91.3709563096231 21.9823223625976 -4.880744374023 0 0
92.3687954576001 -7.43156973189844 2.05362207976982 0 0
35.42225311539 12.9667475967935 -0.162193684017914 0 0
-166.967444995175 29.6016299250646 -13.2191246849364 0 0
-173.458578290201 -0.8025778029258 11.5838901892534 0 0
70.6143456006225 -5.70738595379688 2.81354088180611 0 0
-207.895367955134 -7.55193689279582 1.91543386860285 0 0
-103.925091621903 -0.505401996239345 -6.52622372401515 0 0
-189.101988592883 30.572042230869 -18.4007275647637 0 0
202.585150741495 -41.2843950804397 -8.82698676202256 0 0
-208.097633625581 25.6239246214044 1.56287131269623 0 0
102.1496565612 -9.12708739098974 19.3152651332991 0 0
197.012945174518 -14.1542384567442 -21.9796781324026 0 0
-205.628583764514 16.6755418624963 8.73592627395637 0 0
-207.500168226162 27.9527774829771 -3.09816926891421 0 0
203.783481394922 34.4176651007456 -22.0765263877781 0 0
199.04290685906 -37.5265954956929 -33.3247847724559 0 0
-59.8065776149944 19.4809789932175 -1.23331284087463 0 0
89.157606735748 -6.14165681340789 20.8047592502097 0 0
-163.721323010241 -5.71321026983636 10.5304550810351 0 0
95.7476039236309 -6.30687078018843 0.690614175541814 0 0
61.9262843220614 12.8431132450869 -1.01876531478317 0 0
137.820858563075 -7.4744747659615 -3.02045257470104 0 0
-151.327477864228 11.2223116273981 -22.0649551097479 0 0
173.790358815561 26.5536672504245 -14.2150397754595 0 0
-211.038623802047 15.9390939735271 -10.9676727228384 0 0
-178.154892510523 -18.6495612802433 -7.36994465411218 0 0
-148.56440861637 16.121597701471 -20.3475101503441 0 0
-94.7292360846902 20.3747613091148 -6.79899564837402 0 0
206.556770359395 -38.4962032319554 -31.8359165895708 0 0
-143.77390093386 -12.405679419331 -23.5825651106988 0 0
-171.699502350816 -9.29144308828272 -13.8816408696131 0 0
-4.60922675634602 2.69761712702395 24.1755923000705 0 0
201.950896420062 -7.00532304361012 17.5497106712345 0 0
171.89848723652 27.7169959244176 2.29574554637369 0 0
188.238935005879 5.2178561403287 -20.5435179582422 0 0
37.2087111077012 18.3711360267116 7.02412138327437 0 0
-110.687736345764 -3.08612083152554 -5.02991992572158 0 0
-122.445018685064 -5.87279585191293 7.33930614947785 0 0
201.062000565763 -1.8237477817887 -9.63711137220523 0 0
-184.683310524501 3.15823619291425 -20.839284848362 0 0
-119.369521415656 25.0578487149116 -3.44179996961159 0 0
-224.896581330037 -26.8589545806272 -1.31458364255145 0 0
-50.7285965784407 21.0284603757385 3.12000549621243 0 0
199.733840462592 -39.2936288947501 -27.8394812929766 0 0
65.6316014307793 -0.63745879054652 -3.45050189245784 0 0
-188.605831393361 35.2705011340904 1.03316495077295 0 0
-140.016339979163 15.2649408413463 -18.3318208992074 0 0
-158.062243241127 25.8036178025361 -14.6717163965506 0 0
170.233158936008 -11.648395405742 18.9624676969059 0 0
-148.865426744751 25.9540285077024 2.81215986187338 0 0
-142.225372092079 11.5370945004833 -19.1324456078813 0 0
-199.762977972983 -23.2361019442811 27.0599070741047 0 0
-145.462282425855 -14.1310649368045 -24.1593597635507 0 0
180.616292204881 -36.1363239385144 2.44293782279884 0 0
-210.175012540135 12.4104474419113 -11.993338838207 0 0
195.803474266431 -12.6234892574495 20.5478277774032 0 0
193.833213131428 25.9154445983279 22.2708481369806 0 0
5.31823646598904 1.52347198413407 24.1588395560007 0 0
-64.9892827480871 11.7044838155055 -7.30584322188724 0 0
118.542191590116 6.59638009201337 23.1063178672658 0 0
214.796901929744 30.5626334708272 -11.2680085493597 0 0
185.451186217034 -23.7882524903121 16.7672314012176 0 0
-130.715859947445 21.6094222036665 6.64762835074065 0 0
-152.158872955703 24.4577117874848 4.6950743301339 0 0
203.325012685523 -3.50579022611278 -8.88358632909733 0 0
-69.4101479449911 -4.17557415484196 14.6685857999642 0 0
39.5186655971179 -3.19783713031824 -3.24430727118071 0 0
-180.726593164139 -25.2141496551038 -2.5084613272741 0 0
-186.388503985024 -34.1597159980536 -1.11540616757788 0 0
192.324756060903 -4.68218022873469 -16.4867730071402 0 0
-197.878783607091 -25.38116580073 27.2511226542709 0 0
-206.746631042467 -32.899279466104 27.3535126758793 0 0
-200.529424547193 3.99301457906439 10.5730391503208 0 0
-36.0353976408589 20.2740846687122 13.8130582730835 0 0
-9.42468383918257 -6.20133811205927 16.9858114684502 0 0
145.179885565203 4.23679782950812 22.8639766660651 0 0
-185.13137606893 -21.7685001319012 -7.52329558314573 0 0
-219.643638513638 -45.1250721066435 4.35315958713571 0 0
-121.407657611229 12.429645460601 -13.8173935919387 0 0
181.193043417095 -0.0692784618034379 -16.3244804552043 0 0
-161.92744132226 12.8645917090607 -25.6460925998794 0 0
-162.749444061121 -15.6551497165976 0.658763482516418 0 0
61.4738982569104 -10.766869207037 13.0138749618764 0 0
-131.353754828712 14.9822548383364 10.3744989019248 0 0
-134.07558824169 25.8943317917929 -1.76442909171451 0 0
154.992269797032 -4.31704956813624 20.7626248399808 0 0
-216.183581158259 -14.721972984611 -6.44223053461366 0 0
123.424706222641 16.5336474059084 17.7119780943923 0 0
-145.009211992858 -6.42435696615606 10.4437414384456 0 0
-203.651786168265 -27.7307435137068 27.9255957074488 0 0
168.497289678711 -5.38793677465349 -9.83428653676833 0 0
188.428660048334 28.9860474249415 -31.7700753003434 0 0
-155.532292124387 -8.37763681487441 -27.8730833407065 0 0
151.448838644834 16.4350452938698 19.6300194895416 0 0
-48.7344869704423 -0.0152387295613786 -1.33735168368724 0 0
-191.66126048537 27.1587805227827 6.43249064073989 0 0
-163.218027769112 16.2600768230654 8.87617089408082 0 0
69.4785601146438 8.78096556653854 23.1950521672672 0 0
-156.087527608425 8.37119816380174 9.482998008845 0 0
-187.468414301607 -4.4499131080764 -12.2458935691857 0 0
116.615822150259 9.39413624374572 -6.97073775755477 0 0
-189.430534844228 13.8356535022348 14.6631845154272 0 0
196.843356720289 0.645239781302266 18.5886272619966 0 0
181.88228588801 -21.8023958655093 -20.3357105175706 0 0
-137.671254944144 4.82885133723242 -18.8642366666919 0 0
-101.073994195248 -4.18651496491618 11.4927560638482 0 0
207.993522491052 -9.87508790547924 -11.5363241657439 0 0
198.099027430912 -12.6104474394071 -18.4399228482389 0 0
35.1204706762584 -4.66269854819778 21.7538253472488 0 0
-206.996053985134 11.3652127746135 -11.413064817982 0 0
124.019408190323 -11.2848003212521 18.0509427173702 0 0
186.011232024366 -9.96331989569151 19.6685040231656 0 0
99.1582274716717 7.66865754540332 -6.30811758171084 0 0
177.045771702482 -21.3285250158372 -13.9174683068916 0 0
-51.545131054519 4.12137263429453 -5.37822256027824 0 0
175.243061176555 -6.49159648084672 -12.7777915770542 0 0
165.646441666 -16.5646479902086 15.6100216678432 0 0
206.888598630855 26.3555717838982 17.7112250429299 0 0
213.643542666513 -9.12109015411143 -10.1199812255489 0 0
170.251605035987 5.07821911179963 -11.0635195691286 0 0
-110.987096316179 0.548524225753532 14.5127593106065 0 0
40.9344976019337 19.1807422936726 13.3309483982723 0 0
-127.047097897355 22.1689924140074 6.10694654165945 0 0
106.163018419458 15.5118108348038 18.6368354601212 0 0
-208.138724949231 11.6641410471152 -23.7464662383909 0 0
70.9719472246055 17.3703170625552 3.12421474677837 0 0
147.555969840655 -8.95738785143524 19.0382040968472 0 0
142.118490342343 -15.5530372596384 -0.138104316746994 0 0
196.371760161605 8.72052352066551 23.257140848533 0 0
175.778837816956 -17.2977394321069 -13.744287788098 0 0
33.5892378382554 16.2411223204459 3.03761142856932 0 0
-126.678653900582 4.67590359025631 13.0480051994329 0 0
-203.13791816578 11.0672242108707 -10.5392123049695 0 0
-199.815108895489 30.1444719226004 3.96451814871619 0 0
-157.202659167906 -13.436097572981 -2.88353005838863 0 0
28.4508519266697 -7.10186926903561 19.413153564458 0 0
-196.59593728206 12.6004855368945 15.9059987083977 0 0
-188.31563028743 1.38764932272648 -12.8493888779294 0 0
-107.319153405678 20.8698435566624 -8.20004153409002 0 0
-18.7948535115615 20.3258780122258 11.2119839131022 0 0
-60.7187011705206 -0.910217781998981 -0.780548374617725 0 0
112.288210656914 3.31797398477934 23.3591738650927 0 0
-128.973724236444 14.4804772795255 -15.576689949401 0 0
168.132534677811 -17.1392218895769 -11.5100444880107 0 0
-170.10862388919 -17.5352282400096 -7.83730468169084 0 0
-58.6962085569733 20.8335945827696 12.0405513306595 0 0
-189.161172068624 35.8337105723266 -8.97400936807509 0 0
-193.601147749974 27.9941565036667 5.84587310343717 0 0
-157.668983422107 -9.90029106022748 -26.1873828523751 0 0
123.815486857407 7.18922225521079 23.0169584334748 0 0
215.177928142993 16.851153368562 -3.1725615405057 0 0
76.9995584173263 -6.80922944686812 3.36802210895129 0 0
172.728172991522 25.0044673570879 11.2901646744362 0 0
15.6881322559112 -5.19370896247815 5.35116565690694 0 0
-213.436174569806 -48.6473073858881 4.98026449583125 0 0
-25.1087958261939 -1.03637261695529 -0.349977813155707 0 0
207.986498861869 -11.6282728476625 17.9126356674566 0 0
-210.821510869631 -49.8197382845527 9.77721068376685 0 0
54.5192771129181 17.688955354295 4.90865909173907 0 0
-166.322840383966 32.2593891258975 0.708693680915684 0 0
-177.972396825296 -9.76445589637147 12.4241906644557 0 0
152.059275119828 -20.2694533372001 -0.435998210756401 0 0
-188.094276954377 -25.5815086118111 -7.65149734473185 0 0
209.511901222349 9.72022592603766 -20.8748203936583 0 0
-194.679934726549 19.9253125190639 -25.4428778368117 0 0
-192.514250691938 -45.9734466618371 17.3925322862747 0 0
179.137358387499 18.8258407675407 -23.5387032901738 0 0
188.209459632774 -40.1081587761918 -21.4405139465932 0 0
-136.380717340907 -8.94541212305865 3.30512072931471 0 0
-93.6180431877793 7.74396607591033 -9.23693645982731 0 0
-21.9461646792303 13.9741345396266 0.122632766303276 0 0
184.602903155894 -43.2026452587996 -6.2936609454343 0 0
212.924605836259 -5.98101964761513 2.26936056244034 0 0
-24.6175812122673 20.5919217713543 11.3408038173788 0 0
-191.018025067015 -43.3825629425639 -10.4319181664797 0 0
99.1009687032906 -2.39914551699097 22.4508692484613 0 0
178.800536304968 21.6744155050024 22.7488903128264 0 0
-168.372363088047 31.1544866259733 -11.0295237498138 0 0
-33.9493777986042 2.54205604297886 -4.7350962109157 0 0
115.203208813198 11.7986515485991 21.3591522518861 0 0
44.8434610559982 12.4718073834594 22.1858139145166 0 0
-128.101925219911 17.3485809542355 -13.4151638608767 0 0
-188.372907739597 5.2447343549651 -25.5163147776758 0 0
15.4108416685333 2.62950068542891 24.1656002147642 0 0
-223.936228409123 -38.5476165888133 6.00679598762899 0 0
-180.991137749418 -27.405480960056 1.35632692937093 0 0
-198.508015404065 -28.1061612316228 -17.8624976598031 0 0
132.577602360763 2.92538131062018 -6.17897645276138 0 0
147.176533465973 14.2628870346203 20.8871408109448 0 0
-196.949785790979 -4.28923900401291 16.4904195166569 0 0
193.038265531695 31.8794952215438 -27.3022738503917 0 0
-205.114586338916 -3.15104065376322 2.68333765168093 0 0
-223.992296394761 -20.932191488169 7.59449367938185 0 0
-85.986547600866 23.0211353223654 -2.23592663888379 0 0
-148.448182951368 -3.2004827016601 -26.6118324936489 0 0
-132.404645404811 7.52441871694467 11.9054753792503 0 0
24.0608816874112 -5.27879576840912 21.1806823928793 0 0
-193.492114486839 10.4408280223832 -14.5509903842241 0 0
-111.87096482504 -4.89080761136295 9.3397557526356 0 0
61.0384514343039 -0.410576453130132 -3.78902903323625 0 0
-215.342985869122 -45.682194440457 14.9973847670857 0 0
-201.492061064206 -29.5357926252269 28.0720712307004 0 0
-156.328234093039 -15.6379365091561 -23.0825537559369 0 0
160.158948158995 14.045268814287 -10.6146301630743 0 0
96.1026579472742 -5.55480636065098 21.1266045328806 0 0
-195.482230310743 8.46166962555294 -27.7803141010394 0 0
-42.4019476575282 -4.17997768837593 4.67523683744779 0 0
180.112065670617 35.6226639172574 -12.1374639438444 0 0
-105.815096158374 -5.48655694073115 6.26211959955172 0 0
-198.029110233455 29.5787185691973 -14.918007431468 0 0
6.38277578147303 3.92602670251777 24.3622458219758 0 0
182.47890837751 4.37812746972773 21.3950152716988 0 0
98.2514515545091 -6.61409120864537 20.6215226730344 0 0
-199.871751965393 -0.781471971155938 13.4180798062987 0 0
209.998406196817 -33.7280956104159 -31.9327195948859 0 0
126.607248035688 0.226748723047588 -5.09009580280541 0 0
184.167474110438 29.3620299768953 9.75243090615275 0 0
-185.571268193195 23.581749465771 9.30482423747827 0 0
-150.769673328147 17.1375358786065 -20.7546813922639 0 0
-202.173859446132 21.5496960398467 9.70225155755189 0 0
99.6428182946651 -14.3560490505845 12.8558105719138 0 0
83.7735238670208 8.9788176259467 22.8817601594926 0 0
-76.5764291497313 15.3798689821376 17.413755235243 0 0
57.1233525072831 0.840299817730098 -4.69563744456057 0 0
186.480917889938 7.6002763505042 -25.8312897030235 0 0
175.280543210057 -9.62492759427542 -13.0306495678571 0 0
154.260207936575 -6.80867103657268 -6.16389167669303 0 0
-165.271421221512 29.3949102863028 -11.8313541446019 0 0
43.6839834117953 19.2288133721766 12.1688775176047 0 0
14.5398575657704 -2.71391037191697 0.864971202804268 0 0
177.911564512508 -37.297441600936 -12.2495405874234 0 0
144.845135328075 -0.857453085199512 22.1206976685896 0 0
-175.438049221586 -4.85513743386364 -16.1416671522147 0 0
169.781651608469 -25.2914345353475 -8.8515838154385 0 0
199.435285144217 -24.7343721511172 -36.2653347163622 0 0
-132.037644979625 -8.31045939868152 -0.153346808361645 0 0
-174.69958048212 9.45027296428487 10.9137293529783 0 0
157.798783921212 24.1409036651552 -2.38093792725301 0 0
60.83621352938 19.2877327151605 10.9687942585599 0 0
-149.854517347907 -11.815061677806 -3.71864133421279 0 0
213.680492347125 -38.3517868752154 -20.0178622279075 0 0
-162.788549851364 29.8086489491724 -7.41372761751525 0 0
166.813313751146 6.06818339576901 -10.3769940943624 0 0
190.016183495965 -6.60725035018271 18.8334510934448 0 0
-63.1885907540759 2.70902846825793 21.0077252560281 0 0
95.4473946764909 19.1489996495628 4.23722627364695 0 0
-47.6016973683091 15.0359439094197 -2.31948205426725 0 0
82.5366029172332 3.76913930991707 -4.88694163937083 0 0
-209.877681971186 -9.6954560882878 15.6157429974468 0 0
206.344007555578 -39.5794313500865 -24.7700774651594 0 0
-158.411968619668 17.4370464426497 8.35917535801471 0 0
183.406618260801 -41.1588477249894 -15.7362214752752 0 0
156.001248654248 0.708611553712722 -7.90755303266022 0 0
181.471776514656 -24.4425912698767 -19.7687717684783 0 0
12.9003689199531 8.26234629651926 -3.1866314510684 0 0
196.471683119765 -4.09780527258983 18.8142040968332 0 0
153.145869372132 21.7082807536263 8.15270998497349 0 0
-149.832844698294 5.91057129157311 -23.3463065916994 0 0
58.4946454300724 0.301919676207456 23.2403570506697 0 0
-149.368161265711 -17.1064211640726 -14.9129059414271 0 0
193.021242341687 -12.5044401864317 20.2412338385255 0 0
-218.799125694562 -12.4540657611062 3.04547602661979 0 0
133.961828029409 20.411653386966 1.68674770532247 0 0
-116.171129242894 3.5926333429307 -11.9525444483617 0 0
35.3075288977828 -6.91080975233688 20.1235564860049 0 0
-120.76028326642 -2.35059401188764 -8.74980708168717 0 0
106.635915509122 -0.281047931509222 22.914265952396 0 0
199.608488285768 -6.18700244475455 18.2451134611358 0 0
210.596810898096 -38.4978439464705 -22.7067768847227 0 0
-158.121166423429 -10.4524955695385 8.19847075176275 0 0
-193.297094686946 26.373975321433 6.48657668268041 0 0
-188.480125710946 -37.2720615553621 -7.61837355910367 0 0
-197.700821790337 9.60912741156056 13.7837087624754 0 0
182.314353285511 13.9261772042128 -26.5750188258099 0 0
-157.462238886753 27.952789087809 -8.35075296193257 0 0
165.334317092267 18.1611837942258 20.4841488332725 0 0
-195.803692962205 32.5244756389798 -11.7711446646622 0 0
-187.242631964822 37.803974312971 -0.144551085635963 0 0
-107.157095207986 5.83763821109597 16.0299344493385 0 0
108.667849707776 7.65432176101496 -6.60189737768707 0 0
-134.003081226453 15.7375833456552 -16.5332570789109 0 0
165.656211168091 -2.64776624237244 -9.10521120346356 0 0
163.661244625494 -12.0934757542992 18.1576141333835 0 0
38.3061756108531 -2.73051077639733 22.6353801655919 0 0
208.968056705648 35.5302091763479 -13.7556048868086 0 0
136.449338121411 9.44480907214936 -7.40848460208498 0 0
191.398535912564 -12.5844125744624 20.1350792254703 0 0
176.07902436188 32.7043409158455 -10.4108175610174 0 0
-205.00403207296 -9.8719986181397 -7.07887371860909 0 0
195.438581028323 32.1977105337612 5.20494563988439 0 0
-40.8548628811046 1.56190005994381 22.628280621109 0 0
-204.044539050821 29.8410121053914 -2.71231448041601 0 0
207.510973785736 28.7257052668739 8.24294966723498 0 0
-112.067906780923 24.5109706772839 1.71159938425058 0 0
213.600128359582 26.7680133066843 1.74801493851376 0 0
-148.208068726184 -17.096555668809 -16.9973351276115 0 0
-186.692163628344 23.4196623206758 -24.113170927975 0 0
-213.281255501439 -9.9214875696265 12.4413339148576 0 0
-219.605024844372 -27.2591408541953 -10.7726827749396 0 0
175.450124356226 -16.1463757105833 18.4190185449729 0 0
-192.346615658218 -26.8566232697561 -11.9374380524188 0 0
-135.934463533509 -3.92647881821189 -16.5715190189319 0 0
-188.511886527731 -27.9656070291369 19.0126883308966 0 0
210.786035318162 -7.52283748835177 11.733601237506 0 0
47.0346045728124 14.1504513532037 21.1707816828912 0 0
205.833944293792 3.83725006466945 -16.4721504589724 0 0
-135.638219882702 -9.12633688324724 5.06366330211362 0 0
-190.813794436542 36.8501387301474 -0.148552182674586 0 0
208.519632444663 17.7038237646688 -27.8261764397234 0 0
-85.158260555451 -4.65975209508939 11.3213996156135 0 0
-212.875703077125 -12.9055528833652 -2.0522150296541 0 0
-98.155028787981 -3.76457578805605 12.4555406731763 0 0
53.423594942404 -1.69666271762491 -2.23794598872966 0 0
-53.7262368193915 -5.7692750521323 11.7282477313572 0 0
89.3591214437795 -5.60393891173031 0.619195885032158 0 0
181.27086575551 18.6948610317859 -26.9906356416204 0 0
-116.714844188755 25.2152589254323 -0.977985960248745 0 0
218.837771928666 -14.2398203440836 1.156949633621 0 0
-36.9414757247548 2.69549944191613 23.2864419113016 0 0
-160.334083225318 26.1685823889689 -15.5730145431111 0 0
38.7287013605082 -5.09731923214629 3.80140800720516 0 0
204.707572630615 -39.1265449813126 -3.28769818700421 0 0
189.410672679278 -31.7967174093896 10.4167324468839 0 0
171.610834143437 27.8533456826261 -11.6440023632077 0 0
-201.592340288638 9.48559942179294 9.61223978975129 0 0
210.602400117977 31.1191739143454 -24.5352836852053 0 0
-175.119490960591 21.3497828229087 -25.424546101186 0 0
-23.7143707018385 10.745510736651 -2.29656996922802 0 0
119.912062031226 -15.8372994305151 12.3611882960529 0 0
177.592575113999 -1.50627396933217 -13.5549066190139 0 0
-64.1863242780688 -3.41209131316391 2.78820214349256 0 0
30.2709253223853 16.1424079928476 19.8195930186026 0 0
-194.960603420261 -15.8243118138456 22.4237822026408 0 0
12.2879552443091 -2.01502439989084 -0.271878708890434 0 0
-173.369742750218 -7.7380996532742 11.3212804361782 0 0
-141.290084839176 -1.19751000107671 -22.6495414243004 0 0
-203.779868293355 24.1275258704228 7.72245685991256 0 0
-128.006028082506 -0.462832223003581 12.2539128917495 0 0
-110.659241605971 -5.5779613551569 7.0263235780172 0 0
162.189592240733 -9.82200588882454 -7.87338953726114 0 0
-212.931813135285 -11.3386968629418 -0.0312674568919769 0 0
-14.1661624422769 -6.59874427805052 12.9723478704532 0 0
-99.3357734172514 11.8188541004141 -10.4957958742203 0 0
-163.954541213144 30.5407771124483 -6.44842265864837 0 0
183.86694804255 -32.5023277033633 -20.0916917110306 0 0
-119.642096632767 -0.917747132337862 -9.92021947071767 0 0
169.317958718958 24.5172806640636 -12.0226535816834 0 0
195.503185730229 -19.2850960512532 -35.06012535895 0 0
206.224174142424 -36.0597936892812 3.23177543145429 0 0
213.504495441306 -36.5702767773557 -28.2234396545262 0 0
-185.479525399934 34.405851713761 -12.3948475269624 0 0
-167.717508983625 -13.2253301364831 8.50236771906288 0 0
216.514001880439 -23.2922971876854 -25.5692184159283 0 0
-31.6587868393457 20.0216798300727 14.2707648844971 0 0
174.340825344348 -18.9446329596066 16.3828894021804 0 0
-191.598331702481 1.9076382866455 13.9410568452884 0 0
-126.746395488426 13.9563945267915 -14.9899998752053 0 0
-198.693388650307 0.669698751477235 -7.7072971134159 0 0
155.976336203211 4.08589666540057 -8.51901889917875 0 0
185.480507303481 -37.677396720092 3.42530785418202 0 0
-183.464970412331 -19.3012888247555 -8.14229301820359 0 0
-155.798915495754 -10.4418268139772 7.82910924177176 0 0
142.447649675431 10.4257529678593 22.3169968132837 0 0
-211.282687786208 -9.61554222027827 3.41672779671963 0 0
29.4184245426022 10.224460827424 -1.90932025236478 0 0
71.3766146736898 1.26260128371975 23.2738029766318 0 0
220.386587240863 -18.390318586868 -0.13721424800423 0 0
73.7329988982806 16.9567981498896 2.4229072825813 0 0
192.152193582195 -0.408621593543648 19.6797330468394 0 0
-42.607587538519 2.88342742403878 -4.15130132658576 0 0
163.662347747838 1.47405182429884 -9.11067202175944 0 0
-89.9557667822684 -1.24244438098931 -3.20607577269574 0 0
-188.365392874729 -30.2820000065192 19.5703238265635 0 0
85.9293380966575 18.0147668362347 2.91383617237038 0 0
-75.9088643246289 -2.55278332685041 16.1946294246303 0 0
-69.7145415923623 6.55347896715959 -7.07759828917824 0 0
198.455192045243 33.1042932030253 -31.6612512235473 0 0
44.9024228897289 -5.97240369650174 4.62892796361995 0 0
55.749527642968 4.11245890117845 -5.35809406255631 0 0
180.139042306188 -39.8757781663099 -3.56743478401986 0 0
-203.506224829699 10.9224302117218 -3.4509801075926 0 0
9.40354022032279 -5.46511500177604 6.12703799565952 0 0
173.073684350166 27.3472189027914 4.87852064988732 0 0
190.904535589336 8.43987230498266 -28.8075071090761 0 0
79.6479700898578 15.9594943694388 0.729999026348913 0 0
-174.170237932672 26.8067037623327 7.32884707720724 0 0
7.78352901098511 9.51509928569697 23.8953434600664 0 0
82.6271971275919 -7.31883516613376 20.4008956194231 0 0
-126.039821548507 25.2909180230376 -4.2576175687435 0 0
-18.97041776073 1.33883929566397 23.6549414123034 0 0
-1.22112443935736 18.6318118836054 16.7906451737936 0 0
-185.73228533384 36.959987907258 -7.4756269802114 0 0
170.08234218075 -26.7862308681552 4.85787968331899 0 0
-169.441469707377 26.3185648234912 6.60023224676128 0 0
-160.728573533378 -6.036357989534 10.404678539046 0 0
67.7185851807158 -11.3767913212789 14.2372823882727 0 0
171.045185629124 -20.9340163313493 -11.6011452948983 0 0
-27.0356923314836 -5.75555857809975 8.26259127473895 0 0
169.287787532442 -13.8049560402369 18.1781558373017 0 0
206.39314416019 -12.9053515579004 -28.4554280976674 0 0
-199.267604054671 31.4446653185703 -6.76135328018647 0 0
-188.000342482561 5.8027350816901 -20.1578804120861 0 0
183.906303364406 -22.8978856125272 17.0611837919862 0 0
-185.417612703794 -36.7999158680022 10.6366888077991 0 0
-42.1226999102249 21.3397274823954 7.71423079846294 0 0
-142.194197272613 16.1073861105988 -18.5172398228798 0 0
57.1930740576199 -9.56026186490226 18.1494819652282 0 0
-78.4299115714026 -4.24205611825551 3.37594235005993 0 0
211.360817301716 32.1646810735418 -22.409004604839 0 0
-218.888461984874 -43.1725301872572 13.9162007302697 0 0
-51.345651347967 2.94452613165848 22.3252147893045 0 0
-171.318371026362 -15.0252470816812 8.74526251258978 0 0
192.097088858084 5.76322942715419 -21.7246717694528 0 0
77.6677875214994 5.61666880758473 -5.39662353694227 0 0
-17.8032690352488 -0.516335456976244 -1.40297453118097 0 0
215.658664885341 -16.0137219487091 9.73615047119419 0 0
-1.58095249498389 15.5055522057543 2.41377740317197 0 0
18.5505673961732 -1.37216409134277 -1.74619342640244 0 0
-176.98846412345 -24.0275227147912 0.562392181720953 0 0
124.98650900092 3.46081158950598 23.3817467195784 0 0
-147.658314362561 20.206787402847 -19.0966525568221 0 0
108.862845629525 -15.3502537264296 11.4549830896577 0 0
-205.731055536857 20.5662436690223 -20.0903738291968 0 0
194.570293855351 -36.1143917939328 -33.863167436868 0 0
184.901422616018 -4.79579724073437 18.5516785101671 0 0
3.1781259388891 -3.49237513155784 2.43691339196151 0 0
29.6675794709024 -1.16470149308788 -3.88465491927624 0 0
-137.459882550943 18.7859525572202 8.11908182105072 0 0
85.8685101097881 7.88245120793109 -5.45310631616322 0 0
25.995326978788 -2.39224068830604 -1.03528573134814 0 0
171.342506184459 13.1584157056414 24.3267469628516 0 0
73.5216456622849 -5.08282976812735 1.91512009913748 0 0
-23.926036890711 -0.863100853968006 22.5088707266345 0 0
-41.8182999317255 4.21981413384827 23.3157278770426 0 0
198.234665652122 3.53005549536347 -16.3565508361003 0 0
51.4085108155902 -9.01444985178534 9.57758173880814 0 0
-46.0417413690725 15.2437547302259 20.0452365952292 0 0
-136.166553770174 8.86797374018729 -17.4393964120077 0 0
177.374581086954 25.9029226700721 13.26911016794 0 0
208.104434406486 -12.6203235821225 -26.8834858945575 0 0
-158.444912877585 4.15425246618716 9.80961785816341 0 0
-175.248614925902 -22.2557208738584 -2.44260977175192 0 0
-179.501219887344 1.68782144890133 -18.3547007433438 0 0
-72.4556155999073 20.1152105752533 12.784718119185 0 0
51.7073187167031 -8.61607537494302 19.0939475943721 0 0
167.287221825318 -9.98486376187781 -10.2003044615805 0 0
-208.794102394494 -15.0170408247913 22.4171226806056 0 0
-168.717605837489 -11.0120602256691 9.92192911921701 0 0
195.881622097133 -39.7427134371811 -25.4588641355176 0 0
113.566838878448 -5.49273233867696 21.1017217498609 0 0
124.985783538377 -2.49422210759586 22.208864469039 0 0
141.099596929347 -9.96770649163645 18.6473236959086 0 0
-185.761985126384 -43.2454004640533 11.6266104052747 0 0
-71.2576678972717 7.91695719525828 -7.57245992949743 0 0
54.9350936058909 -5.98659561248093 3.89474265633471 0 0
5.7975677324664 -7.1253083044555 16.3873711022727 0 0
189.031627563308 -15.7226901216744 -23.3335334518175 0 0
147.800320317915 18.8310837692929 15.4455054436769 0 0
-189.114696197907 6.64387340395201 -27.350551981015 0 0
98.2260284811055 18.7750377480922 2.63437236566396 0 0
-56.2511173845695 15.6563407784366 19.1804376622461 0 0
1.10010104391371 3.16531303416434 24.3197464903058 0 0
200.698363643243 -13.5708847138343 -31.0230998478551 0 0
20.8726450666063 -5.10056642944465 21.1835337503548 0 0
-206.388730966083 -6.94193393318003 9.32694499273793 0 0
144.71087639621 -7.03064563734873 -4.38980458726587 0 0
211.388309544287 26.5455951085434 10.0683249769795 0 0
-182.284425108084 36.2020951779206 -8.55951073455208 0 0
-185.399343683601 30.7629401870485 4.18195726876286 0 0
-181.024025686576 22.5284847306432 8.84869211388132 0 0
-147.55833491926 -5.48617613828801 11.4011411025971 0 0
145.936331026061 0.964279816327756 -6.74944836777814 0 0
81.063299762455 10.1603925898781 22.4618335199828 0 0
182.405547284636 -14.19759490507 -16.6501414556638 0 0
-169.670301714731 23.3267612634718 -23.2969439972662 0 0
190.6624984196 35.008490034465 -20.465717258428 0 0
164.011089391552 -15.1483233676581 -10.0104887661054 0 0
-209.903301543971 -34.611825597104 -16.399072627414 0 0
-189.226923443367 23.7858073722753 -23.6025618414416 0 0
-148.909940602907 12.9383502266271 -21.1007129418241 0 0
160.871447967195 4.38744600088841 -9.20115272223618 0 0
138.733189789995 -2.63500846499892 -5.12698767603935 0 0
-168.066434325002 18.7858697272412 -25.6490830194641 0 0
-116.339935748102 -1.51098567410328 -8.4881677638982 0 0
-218.774047018471 -24.705544930063 -11.0909971834446 0 0
157.763145709949 -7.63604048758675 -6.80972468675694 0 0
-76.4413399670918 6.87691301459128 -7.47525506976575 0 0
183.169006489274 -25.2565636982188 -24.2331671248453 0 0
196.31522526064 -23.1804273753072 -36.0544200989634 0 0
192.544820577872 34.1461153037405 1.42647940344894 0 0
120.450813226955 17.3747351533881 16.5471009340547 0 0
-200.585912445949 -51.1496095927108 -4.80346625733983 0 0
-88.1282109187017 -1.18859475716212 15.9738607777914 0 0
-117.597238332282 8.77254835421238 -12.8634167566295 0 0
-223.748540867142 -23.2922597925426 11.5771310430015 0 0
-158.670319725184 -16.2442285947683 -18.5777200673289 0 0
130.793618529786 18.5164366038189 14.9751195856905 0 0
-100.464704081785 -5.10319249119212 8.60241257903378 0 0
183.713927002557 18.973999504595 -29.6066684632586 0 0
211.118907101251 -8.49318830604023 -10.0446910535676 0 0
-45.1897544148182 -4.36224581740433 17.2057220738902 0 0
24.9378140316991 -7.956460162579 11.5960429067569 0 0
96.4496513723688 -4.66450222192491 -0.788182917770909 0 0
204.153547039506 35.041629057417 -15.0122129552657 0 0
170.607409560283 11.5668017539225 -12.7424402848809 0 0
141.595221954556 15.901964519831 19.0179413702943 0 0
-149.515161844434 1.80501600706755 -24.9716345503833 0 0
75.4882664312217 -8.87223139963113 19.6433380151927 0 0
162.763976568426 15.8962722431153 21.9717888034813 0 0
-221.919797972069 -36.032522058023 15.4175660283678 0 0
170.869234500615 -20.5149173878074 13.6507379649297 0 0
38.924342249367 17.6788480632053 5.35525371487402 0 0
-79.1429194694265 23.3720747634598 6.42772204969893 0 0
36.4952137466292 -3.26220663479201 -0.443222570860046 0 0
-87.9755139235997 -1.68930070942146 -2.33540980898523 0 0
65.9264152439952 16.3599900868843 18.5058051623096 0 0
65.2730608507699 -10.7089715294108 11.1110612881325 0 0
-136.557946779635 26.0914880635024 -1.95672880428251 0 0
-201.622688193025 -20.3736788985437 -15.2700235495419 0 0
125.467381729802 -15.9212024195328 12.620033522908 0 0
-84.6263758449654 19.5750505043882 -5.81985332272451 0 0
187.946053113205 -15.3919823526451 20.7155904408757 0 0
-148.059745585802 -16.1229271137399 -14.0564291901263 0 0
-119.763769689411 18.2647169752503 -11.3973034190354 0 0
175.877167302611 10.8956513336026 -14.8700129053708 0 0
198.491404980801 32.7653528970937 -23.066465726503 0 0
-45.8577546036683 21.5368254125576 8.81505101696396 0 0
-196.34072043402 6.49637383047849 -27.1097691153387 0 0
-146.471661078648 23.9997037117815 -11.6820994263171 0 0
-127.479133757213 9.13377606974992 -15.1619932365361 0 0
206.64150098525 -14.7887908043912 -30.8505937891903 0 0
206.421275472448 -3.42376296256763 -6.82817794108943 0 0
196.187389020499 -12.7326674588739 -18.9760975156293 0 0
213.949055462686 18.2980963092279 10.0082545183251 0 0
217.913987635463 -16.2169247229559 5.11428505891187 0 0
-151.313214205434 4.21732048268598 -24.3389361778288 0 0
181.435549657728 -11.3794730062487 -16.3912759409219 0 0
-73.497836691531 7.91210369071125 -7.60661437712314 0 0
-187.08700655648 11.2333223631121 -28.8691953395763 0 0
174.554376268534 20.4142802689538 -16.1539224916404 0 0
206.37025576207 13.1459319184053 19.3704372156202 0 0
-190.730423799934 -18.8009004272907 19.5889420094868 0 0
-74.728942640376 6.91551872663644 -7.2546791992178 0 0
-198.04831309675 -47.3279531126344 -9.89875052717107 0 0
-205.038159773696 -23.0954875664271 26.9520794188055 0 0
-225.121509969735 -29.7372605879202 -0.626509525490416 0 0
-39.8184929959689 4.5011042640048 23.4409665176715 0 0
203.202750306136 10.1567542185518 -28.2327436437768 0 0
98.8102710932376 -3.6917831407832 -1.66365570502328 0 0
-190.330027506546 -11.2305916110531 -11.6057727927416 0 0
104.415658342008 -14.0191085268666 14.7926450094424 0 0
4.26593542736015 15.1577066890844 21.2400969322946 0 0
74.1867277988534 12.4444635986518 21.6393018230606 0 0
-85.2050692593206 10.0840976811618 18.7152182405059 0 0
-108.627302050282 -5.47266357738892 1.14113909498028 0 0
37.9955278410999 3.1957737841956 -4.91912762825105 0 0
-206.963060929193 -49.4778745478444 3.96722817243418 0 0
190.294791436734 -42.6964938760369 -3.16429530555258 0 0
173.156391587898 15.1328866061717 24.7243964135478 0 0
-107.064417534406 -5.04732303316819 8.94331021718873 0 0
166.694455923985 8.82985168450278 22.8750797026048 0 0
4.34922523338963 14.3675616216513 1.56798720992757 0 0
219.742467937186 -21.1609203080878 -17.2618903263398 0 0
107.073787010614 10.72331722699 -5.49431979066079 0 0
-118.594164314869 1.8337536900872 -11.7774541003185 0 0
-212.384293866461 -28.3414685109196 -16.0571586890376 0 0
99.3345417422356 19.7045324704228 9.08439380225354 0 0
164.311098903194 -21.593010600896 -8.26643921630032 0 0
-73.6037214455234 22.4638238881989 -0.266174216592852 0 0
23.4795212502009 -5.15107034074673 4.98591813102835 0 0
-195.407150630457 -21.1691498912986 -12.7206018236121 0 0
154.924480319313 -6.58955030551572 19.9885610092429 0 0
13.9602042786713 0.736253886448683 -4.15930959318496 0 0
-78.9463549854393 7.91138261219344 20.03220065594 0 0
218.256409258211 -16.2652913013101 -17.4377112821275 0 0
-27.1714660408337 0.595783848960714 -3.39675000565789 0 0
182.177872403128 11.5416547309178 -25.2417444150448 0 0
-196.044375637467 27.6524880036806 -19.0628232091098 0 0
-188.295336121293 31.944160972282 -16.6533548780832 0 0
-51.4472715206098 -0.163260863829542 -1.32615158034905 0 0
168.540604354003 9.53029179900648 23.2247859083237 0 0
-158.703388954383 -15.155584049797 -21.5776529879503 0 0
56.4594813893846 17.1452150810948 17.7389033326404 0 0
179.360078825293 25.62265587831 15.4871077290851 0 0
184.264045405667 -31.2209751179889 -24.3753265696088 0 0
-28.292074380176 19.4371447333596 5.37974722601794 0 0
102.740478820018 3.59859126303555 23.4338434873548 0 0
-206.430011820597 9.65809829519391 -13.3303244226088 0 0
-187.305738799828 37.2309825076859 -5.95371970019852 0 0
84.0980554672171 -1.52809022840543 -2.33934550528623 0 0
-120.362512785941 -5.96949398210817 6.69169347569155 0 0
29.0631503447013 13.1180863784496 0.0633605913345679 0 0
-202.944981481664 19.7821141278546 10.2937822756138 0 0
179.638966081457 18.9528440179482 25.7115475612518 0 0
188.060348481563 16.783291553435 28.2186033136698 0 0
-189.632048136004 8.0803889668386 -14.6404818941241 0 0
-40.2117586415654 16.7197706400696 18.9511865274281 0 0
14.9135931177502 -6.80190312112713 18.6253091982356 0 0
135.296201918309 2.26062690797752 -6.20932123821022 0 0
-66.8140228043725 15.031844343996 -5.98337614142326 0 0
-222.893442703511 -39.4116248234246 10.3742639391223 0 0
-176.171686050485 18.9917953004323 9.17681276919023 0 0
199.60848268613 3.09598593567062 -15.9169966791146 0 0
148.551223047583 -16.024269113602 14.2299961091818 0 0
55.654155941533 -7.67886262064208 20.2001370157295 0 0
197.581985726957 -13.5030324804577 -20.2730018917355 0 0
130.38352358335 8.19890514316295 -7.1828485376619 0 0
128.416709622454 -9.65223452107034 19.0727262452328 0 0
194.563316692682 -42.3463314535361 -15.5796032801754 0 0
-136.575702278763 10.2620158142119 11.0104353616979 0 0
193.637169197148 5.00337536068034 -20.3500360563367 0 0
-225.754468922196 -29.7651484295573 3.97491462573596 0 0
-179.463374520929 -25.5862387676755 4.85830908658241 0 0
-104.872305956045 17.4308770200031 -9.68053938323484 0 0
-177.761095672109 1.60724860271791 -22.8752257951717 0 0
199.406890919393 33.3740939052998 -17.3296026667794 0 0
-70.6564193959946 12.7731454253163 -7.38473885029098 0 0
-187.909020187623 6.21581337357823 -17.417661249021 0 0
-16.8825511167144 6.74662539891279 -4.90113174609094 0 0
174.918383180577 10.4261735688053 24.3099937517274 0 0
-165.909740097671 15.788193917034 9.14820913757014 0 0
13.195521614906 -3.64800990757073 22.1480462837389 0 0
167.833254513622 -22.8458854941905 9.41332299067092 0 0
-182.761572263405 37.5924663691903 -0.841191098765234 0 0
-141.797173670921 -7.258801945729 -24.1186770439837 0 0
-177.68357048683 -16.1541514063969 11.0500334997599 0 0
192.005965577775 -42.8170460037432 -18.9116950762083 0 0
19.1454424355236 -0.12544728853139 -3.78654457119067 0 0
-78.9640574751268 0.139268396970381 17.9682260496979 0 0
-214.361411434257 -42.379366835742 19.7345446279043 0 0
174.185563220102 31.0131526602605 -3.82960487223692 0 0
42.3808976215393 -2.91904252332085 -3.89550570286503 0 0
204.832656252464 -1.25220088697561 13.1519573613244 0 0
197.666355364186 -21.5032555349169 -36.0483081139195 0 0
108.525034048502 19.8350719940024 9.20862482219123 0 0
-140.756117793198 17.4739854428566 -17.9470709438667 0 0
58.2125940842451 5.65340733650206 -5.50496727338936 0 0
50.1043486322745 16.4000277171657 3.02192655189297 0 0
162.513321033982 -6.4684122246525 -8.17392258412209 0 0
169.121851156482 -19.7753478725302 13.6560640638011 0 0
-100.754912411164 23.7356061312944 -3.60058685108954 0 0
-193.046170139767 22.5261976937199 10.7540970021192 0 0
-8.69112545952541 19.2157691196614 15.6078437647172 0 0
-199.030810954384 -51.580030753562 11.6780302400516 0 0
-48.924317338555 -5.43009632032475 14.3388708553719 0 0
-96.6353466385641 24.1025243770371 -1.55599153927953 0 0
-204.831371377907 10.686640906516 -12.3846706579374 0 0
107.753334728075 19.146433273236 1.99187850553299 0 0
-95.9420196355841 1.02295237559305 -6.71489106850605 0 0
188.649477844069 -14.4313300530934 -27.0766054296685 0 0
210.468924994319 -0.33814223186127 3.02210671377045 0 0
200.296706523667 -11.5656317387562 -15.5097313363727 0 0
-6.39728860782955 8.00766584361243 24.2941487489615 0 0
-73.9386985294427 16.6058506676484 16.9145137841582 0 0
212.250238036242 -7.31116807350462 8.87243516524065 0 0
179.087379036744 15.5208063837618 -20.1057905036835 0 0
120.652469641421 3.00122370693962 -5.77926036195086 0 0
-185.547948544401 -34.417538669682 1.34676834836422 0 0
-35.1934937493441 11.278060879855 22.9526306647392 0 0
-179.213720305524 -17.597864608279 -8.21110298922268 0 0
-209.228299515304 19.1353801667132 -16.8380160862998 0 0
53.6767192237437 10.6737406456533 22.8709181533282 0 0
-185.048982896268 29.5940842156399 6.40440949311538 0 0
-111.97993793773 12.5051561471491 -12.6173959078343 0 0
216.603181401422 -10.6235293785989 1.67286684302201 0 0
-190.368896671364 -21.8970153678366 -9.75611468338509 0 0
-58.8258493418301 -0.404705982547412 19.7772105398052 0 0
-201.507173050977 30.4779410766376 -8.96714215032508 0 0
-220.612137211614 -35.5419673351199 17.5755000204151 0 0
118.617985041897 -2.31598057149713 -3.56531046111338 0 0
-11.8747235833923 8.75361516629012 24.0686974000811 0 0
189.562819150653 -27.2383501370094 -33.209545770561 0 0
-67.0818920328113 -3.12580819847669 2.10731639694493 0 0
-216.209619506837 -33.6420142804113 22.6961707430736 0 0
-170.867828663386 -6.84176760110393 -16.2299977669969 0 0
-224.633928779648 -27.9421303104837 11.0338748836774 0 0
-136.799262007638 -0.838945920925961 11.13391433476 0 0
-180.07799747534 35.8691242942045 -9.70250280541819 0 0
-181.271038740809 -27.4625666556213 5.9202305778565 0 0
178.444053551791 2.56043276038422 20.4260515590341 0 0
55.3140371794276 -2.18596581039892 -0.555897579863141 0 0
130.124997490356 15.931640383714 -6.45951700619414 0 0
-8.77270658086174 -5.17801468210071 19.1690312372771 0 0
72.6456136667004 19.1624711407899 8.05742779620786 0 0
149.017703949423 20.2864495673171 12.0263306986565 0 0
192.175500163664 -5.53690690058079 18.6544432987788 0 0
210.87839866476 7.57516756514497 7.36518839848417 0 0
34.0300889214164 14.6797873159718 1.26080621324829 0 0
-104.274026305815 2.96857471328127 -8.91516096730104 0 0
-159.782476446489 -15.3177738288936 -17.4744522231211 0 0
-207.735704467772 -9.28022080587979 16.3512742310959 0 0
-56.0399675807651 4.75142713727571 22.2476063531891 0 0
167.386309504793 24.6028901936471 -11.054706343899 0 0
186.134721480943 -3.56835322668493 18.5602443158254 0 0
-206.4719637015 -8.8506026870258 -3.94224361333884 0 0
-13.1455263281462 -4.3326220685056 20.0226224031486 0 0
170.754655755848 23.6226299473316 12.6699078737167 0 0
-208.431330523577 14.1137943758729 -5.54592566887512 0 0
-6.55451302031876 2.46175152732585 -5.06472984824209 0 0
195.079227920829 -16.7181096103171 20.9867121443017 0 0
203.084983183218 -21.6204853882955 -35.6456262914473 0 0
209.268952428602 26.7566022827087 14.1945979124389 0 0
96.258466785978 -9.26371868568464 3.77193922482692 0 0
188.562631281212 6.6061711000723 23.1938686929375 0 0
197.713446785458 -3.22285248560786 -13.6211009047785 0 0
156.543253546614 19.6870724869359 14.9556001853879 0 0
175.659699109199 5.12287061954077 -13.2788630920911 0 0
-173.514672704953 -14.5473259715739 -10.3326084371043 0 0
-45.3631162208518 -4.82135572961384 6.07135880007924 0 0
-154.212817916918 24.300175502043 -15.7281344059196 0 0
177.754151644499 13.6303644500035 25.7528571872631 0 0
13.054976980357 18.6607816360654 15.9864419090721 0 0
72.5147837144726 -9.5197963029295 19.133227283444 0 0
149.693528775017 22.6205718238845 -2.49668327956673 0 0
202.741698564882 -28.3131621436937 13.246678472549 0 0
-189.719967256394 -18.5762413408705 18.1537233642149 0 0
-128.629160405403 4.98813894479488 -15.590034250553 0 0
191.671875419909 -19.8909778904483 20.3678256073237 0 0
188.868735921373 -1.0488867390765 -17.3276915320189 0 0
-54.2135337513871 -5.68950011561514 9.3374789472089 0 0
10.129242009663 0.587672606243394 -4.11091605050414 0 0
221.234646526683 -21.776360001945 -2.57844493642191 0 0
-136.077197988675 11.7403547809728 -17.6548455951281 0 0
148.91549060701 -20.0020463385029 6.03727183725936 0 0
-13.4166451932914 -0.668600697724389 23.1585615559222 0 0
-201.806404422595 -7.9403144719588 -8.62060775973369 0 0
180.548264031922 -28.1489458007934 -17.2578016098145 0 0
158.615715141164 -3.74104902975876 20.5206979534925 0 0
-196.833661347232 33.0220568397582 -2.41956606662659 0 0
191.833205145019 10.885701080352 25.5059068881741 0 0
170.475586819831 0.999561994280539 -10.9091871096125 0 0
-166.547425717712 -17.5739348938663 0.46175639288092 0 0
168.591202324339 -11.0116413907669 -10.9041464733627 0 0
-216.310404924875 -36.5750898199024 21.5826702998944 0 0
204.550523730784 14.8066735789306 -30.17036574634 0 0
187.769216593726 -32.2672579358855 -31.2324675143024 0 0
147.899082213504 11.962810195037 22.1138338938814 0 0
193.944219484048 7.30577901597261 -25.1454854586132 0 0
-54.8907066947029 -1.23821517270689 19.5584883792744 0 0
-193.781725058947 -51.3766097525841 2.87995170379961 0 0
-217.824022147507 -15.9847254390662 16.416349706779 0 0
-47.2776603242513 -5.89998197133585 11.4893817312806 0 0
-209.466233038217 -8.91526958551344 1.73014752588963 0 0
181.065195457602 7.6134736689759 -16.6877085117366 0 0
145.156733640808 18.1300685427633 16.5303827920022 0 0
-101.287742494467 15.3963160852343 -9.75270379666282 0 0
-224.629771741615 -33.2602269668445 -0.993232245826504 0 0
-19.4636345118943 1.35045596269128 -4.75879601133485 0 0
-128.581014716246 -6.63407703217283 -4.77799497302295 0 0
-223.5670798492 -25.3818132181393 -4.39169264558932 0 0
-185.673123896269 -34.0705552246895 14.4271635696201 0 0
-36.8972811167631 19.4134527713769 3.51598073317875 0 0
-122.627842230762 8.44282988622331 13.2843290773685 0 0
-141.40147498354 -9.40165058288443 -22.3005106879972 0 0
-83.5370564747473 -4.65313472027128 3.79986018804531 0 0
74.8904677837548 -0.472257928139427 22.9544690983 0 0
180.682629515552 -42.2648459708956 -9.0753567969177 0 0
-211.240603340384 18.0570864465818 -14.1618864981193 0 0
59.5772473996633 -1.21602660667335 -2.26978277189982 0 0
-201.664597470016 -7.17550875407834 18.0092721341993 0 0
-204.026507915031 -23.6791227741899 -17.711012284844 0 0
-192.467968801147 16.1988988243135 -26.9860134731455 0 0
-145.272501087543 4.40028711711027 10.5561076090256 0 0
182.981464648216 31.9140997908136 -23.909555887995 0 0
199.577127937286 -13.2390942538853 -20.026118473716 0 0
152.816675482188 -1.9310561726886 -6.93333171394382 0 0
-101.446286324154 24.4172366521113 -1.4313942333574 0 0
-162.109390100494 1.13210624753952 10.4470859834827 0 0
182.800625095682 -21.7077186818603 17.60234374415 0 0
170.066866959037 17.0462313690582 23.0941036495959 0 0
184.125354924835 27.6750537353953 13.6934063264794 0 0
189.766642364545 -40.5662003326657 -22.0742387118876 0 0
-151.821998150401 -18.0992891104933 -15.3236521727032 0 0
145.962318934744 -5.07943466819262 -5.16191608817973 0 0
-156.898901224949 -17.1050006425078 -18.7440648449788 0 0
-201.371830080455 -51.8167050189342 -3.33545237726106 0 0
-192.269326869036 -50.5469117765951 7.12228376347943 0 0
-87.8419239147134 16.4791546587094 -7.3054495871303 0 0
-166.012435264183 4.69045837882039 -27.0485310378691 0 0
8.91225386545618 7.38203816206602 -3.72934341249223 0 0
-136.830639563921 -3.07307872786616 10.3908734212956 0 0
211.434078787079 -37.7332851490113 -14.4275535026148 0 0
164.754103851716 15.5297639275165 -11.9396271389934 0 0
-202.274572787636 -24.5756044669856 -17.8979289635061 0 0
-131.408947599188 22.6655260786926 5.39237573133221 0 0
216.452618067276 -17.028580170625 7.88388183354305 0 0
96.6434722275508 -10.9984107060308 18.060476418463 0 0
163.393083681572 9.15160246717075 -10.3361233750264 0 0
-122.712445754131 13.6916356878424 -13.7366241231099 0 0
-154.728509431937 15.513219288518 -22.7356399168509 0 0
87.5844623181335 19.1230340624916 12.0141462138544 0 0
218.233073922662 -35.4025757088775 -7.2397046589119 0 0
-104.618514619733 6.78078878795701 -10.303036317289 0 0
0.22190647310262 16.636676361374 3.62676667144657 0 0
-203.094992589751 11.7212913140154 -5.32167703121912 0 0
-201.715414189204 -16.9823841590571 24.7417956432449 0 0
-201.294237993207 3.49036700465771 -23.5085257130863 0 0
-224.086092622072 -37.3037832246522 9.0179320612398 0 0
-79.7016339866394 13.096053996515 -8.77716108547605 0 0
