"x" "y" "z" "f" "a"
202.07516583169 -31.3845431421678 19.7459477812501 0 0
139.102325406541 -13.4177390390807 26.6170316045602 0 0
197.746813163522 -9.9525609816823 -27.8573870752581 0 0
-214.75597494402 49.781471123093 13.738254977962 0 0
-116.970264850743 -19.8447174874014 -8.48465227882636 0 0
185.224558495117 -14.5224563664941 -19.8415246353717 0 0
-40.6997947291992 6.49305469128734 1.08587765241874 0 0
184.389871511346 29.7899066167838 5.175494901009 0 0
171.733393921451 -10.9479250991235 24.2127174608792 0 0
-232.909921501127 28.2493355037519 -0.194965637396646 0 0
212.487736315436 -22.9817268723218 19.3739225209851 0 0
161.965523236162 9.10812962306269 23.6328858259573 0 0
59.6192572854936 -19.8015183652706 13.6521584204692 0 0
-201.14777848606 -12.0658647485229 -8.03378434792164 0 0
-132.683633656837 8.3025382613731 9.27212801666678 0 0
208.627135603175 35.7041132424458 2.12948857983083 0 0
106.785058572332 -6.15726646664542 -4.49309493106134 0 0
-160.470082004913 3.61372279939511 14.0099715339057 0 0
-173.175452272348 20.5029793271402 -8.71293341429011 0 0
-190.066627186026 -10.7365498064416 16.5104276988968 0 0
-125.983406505586 3.45937567916752 14.0553698277337 0 0
-207.179785459027 -14.9223051349172 -27.7430228587478 0 0
-219.755817740978 15.0949229345695 19.5326858105663 0 0
-225.335625198723 11.3250472110484 5.00609383169431 0 0
-175.583546757771 5.04887980173417 -15.3047505296379 0 0
196.274397719752 -15.1980579970164 23.2702689887649 0 0
-215.991135894661 29.5922540700068 -19.9007438758837 0 0
169.50029007249 -25.7597688085988 13.6534095581135 0 0
186.980754181042 -39.8702064891429 -15.6750348964456 0 0
-232.920546721732 30.7344185250472 0.00437213490731358 0 0
-162.984442395047 2.86423441662319 -22.6618359162298 0 0
-153.265364280724 10.1164380142352 -22.5847027115401 0 0
-52.8909263631691 4.50968777868781 -1.35287205375718 0 0
-155.8136746587 -23.5866445287679 -19.5457494700735 0 0
39.5789002347037 2.30661982152806 30.5801200851689 0 0
230.248906579642 17.2018634337624 -8.05951834892648 0 0
-68.9851331005699 -7.76207697975096 27.0972763650633 0 0
-224.467001894675 12.5113230931631 -5.16545248710349 0 0
-171.941138063168 -3.11201670117067 -25.6176466152284 0 0
108.387048948081 -20.9712891268792 8.73534255571177 0 0
186.06076199658 -27.873755137534 -24.8019819528547 0 0
6.6729450141043 -7.5209456190947 31.2222464046296 0 0
-218.333073132601 12.5209081377442 18.435957564517 0 0
-201.564978787602 20.1984024502076 -17.6802900835184 0 0
123.548520880856 18.8521151069225 11.337780393451 0 0
17.8262233590336 -12.5131237229539 5.6040985252417 0 0
-183.43985852086 -18.5316739028749 -28.4141677619406 0 0
207.508213674413 32.2826362193909 6.41920954882964 0 0
55.9104738501701 -17.8412286997615 23.7715888600796 0 0
-217.552770293861 19.5737565632968 23.2744889612026 0 0
214.321676964867 -9.40572512249253 -13.5141327397345 0 0
-165.764605413748 -28.6091362509283 -20.2788939095291 0 0
-91.6925825284521 5.67315892509526 16.5772736375374 0 0
-195.560413587456 -16.3068524865456 -28.8974435398843 0 0
184.695845835345 18.6730321075602 18.6661847492824 0 0
164.938777604748 23.7281449526543 2.47115772037961 0 0
-131.622092873807 -22.751390590104 6.08901054581917 0 0
-195.425564111625 45.4663689699249 13.4070106274903 0 0
206.779804852905 18.6748024834759 19.3932104710786 0 0
216.502073786067 -11.0386256112934 -16.8115814210028 0 0
212.255574359442 -29.5860478595518 -34.7707998082445 0 0
-199.956657190862 -9.58150133711321 -26.3677337852567 0 0
218.006715607909 19.2593662793611 -30.9912833737132 0 0
110.577761893214 15.2348824014959 8.11173501758225 0 0
182.926377163794 -13.0087459165956 22.9580789956198 0 0
182.582298866391 4.31447477070457 22.3539848311529 0 0
-175.588403840594 0.641466553530932 -20.0619760857835 0 0
96.819228463474 -20.8348720921601 13.0025507877145 0 0
204.678141960275 37.3276765110923 1.7844715541789 0 0
187.051271127315 -16.1001556921899 -26.7933276792616 0 0
163.592597052734 -10.4027248550724 25.8272469608582 0 0
201.649752502784 -7.74735901003634 -21.3310922795292 0 0
100.343783502253 -0.0556872481742453 29.1151220097108 0 0
176.862274455531 -27.3554058456202 -12.1174583094888 0 0
200.184082291411 -23.5990173459492 -36.8526852464497 0 0
-168.111305693781 -7.7240620587382 -26.4455957102894 0 0
-98.3330146964811 -6.80232704617797 -9.58613355352111 0 0
205.28263124527 -22.0333953239491 -36.4654311971096 0 0
-218.649474684162 25.7694197706484 -18.6404369973283 0 0
203.792389370631 12.0255143538608 22.1644216985934 0 0
-216.298711142278 30.877368538381 25.7570105988584 0 0
-141.427347250597 15.1416851625226 -8.27269140476267 0 0
-75.243510727762 5.72011489118061 18.5055305841068 0 0
-188.400523361937 -25.5103085388087 10.3508304167488 0 0
167.76352683725 2.93250817388886 24.3974822222147 0 0
180.570363146672 28.8671042169926 3.55714091719277 0 0
175.691984708381 -16.4149991239867 24.4078508572013 0 0
-165.061451019584 -14.5321338886218 9.39052289441641 0 0
-187.546765164188 -17.3296303135881 -28.5910647809338 0 0
175.119808763169 -16.0043931075594 -16.0272290763633 0 0
126.341997977939 3.81969213815363 -3.81935815426015 0 0
24.6398017735851 -10.382535460596 30.4186098570393 0 0
-175.390584931763 -32.6453369369143 3.28279562594194 0 0
-189.543317791018 -24.4458684482502 10.6597512624795 0 0
-176.088621208657 7.98943063521485 -15.1036779079575 0 0
-170.44246207581 -25.4038578585449 5.57321869736942 0 0
-88.9951095994139 -19.4940006808023 -1.79972366767176 0 0
-129.352956957539 8.43814122446505 -10.8494582489902 0 0
110.670163578988 16.8168707794676 20.1870054647387 0 0
-195.311429591189 24.2089107006122 21.3060480691581 0 0
-226.203904941885 13.3031300996168 -2.86029205646776 0 0
-68.1268187469711 -8.7211784032461 -3.88290272013936 0 0
-203.533492104586 -32.375700119427 -0.563297173186552 0 0
-218.039917251744 28.5971240498337 25.211610388132 0 0
211.918841001774 -8.48694730190603 -14.0353389036284 0 0
2.5007910400838 6.60696502591435 5.40546901632797 0 0
2.26982028340798 -20.2519858647115 22.4220084916216 0 0
-92.5884409726615 -20.4436164250548 -1.55228317136361 0 0
-223.556800562294 47.4557369773735 8.93224831577607 0 0
219.917358597726 -32.6194091284855 -0.0484697535997376 0 0
188.77813984558 11.6278940220982 -15.1497396674221 0 0
212.445554899768 -15.632454057176 -28.7838780217112 0 0
24.4339524352393 -0.607853788589097 -2.23457410530832 0 0
194.197638186185 29.6043688976562 10.330162682528 0 0
7.88459141285048 -16.3211118767456 9.31670965010142 0 0
52.1292311749477 -2.45195049259623 -1.89921170011473 0 0
15.3839960048969 -2.49628337134569 -0.402115676725062 0 0
45.3086051022391 5.3611321545645 0.998676472769449 0 0
-124.599446398808 -3.85155643001778 -15.1148919388363 0 0
-205.10846484005 -1.04783098586712 0.224472630980688 0 0
-198.767351111479 -30.5699670683056 -17.2051819521833 0 0
169.353817905297 -26.7425336603558 1.27131564162675 0 0
-213.642525303931 50.3846096392786 -5.75008233291566 0 0
-14.4545711602763 3.30785008789394 29.3022674615965 0 0
-220.028319584178 21.7690115696569 23.0202241254948 0 0
-75.2954442496124 -14.7083108605186 -2.59939831834613 0 0
205.050388986126 -12.848330227004 -28.5893740332511 0 0
213.189606245176 -17.6946831174606 17.0869081443646 0 0
129.360334946919 -1.68635976225874 27.9241923522195 0 0
33.3685847204989 -18.532875959502 12.4651630899927 0 0
-126.319294648524 -20.9552991074601 -9.28736566810384 0 0
142.065686801511 -21.8139473715987 16.841857292381 0 0
180.469749688323 16.1883100017208 -15.7969052300117 0 0
-172.34192560275 0.0529516877546854 -19.9870290593056 0 0
-185.565630398013 27.3434253474428 -3.73563656420287 0 0
-227.119380502269 39.2114659893669 15.3280848395202 0 0
-152.067815480745 18.2968698654465 -20.9635840175843 0 0
220.198540844171 25.2565231260607 8.24156350960726 0 0
6.93146473028881 -15.7510325353877 28.2700592271675 0 0
-230.154766890489 25.6847895206673 -7.63610391722313 0 0
-190.091414070916 -11.1646629423597 -17.9447158647363 0 0
175.269733327715 6.42069187554528 23.0583819937948 0 0
164.987954747039 -25.6138880809107 11.4024641878163 0 0
-147.670171044832 -25.3297860576976 -5.47759769248419 0 0
-200.920833625575 33.4147416150393 -18.8397780524822 0 0
-186.555022845729 -26.7967088050815 -24.6354487208106 0 0
132.98389616751 -18.8577752274521 22.1148775727584 0 0
-137.572140945626 13.2551510619926 -9.28865585915872 0 0
83.0297373997803 15.2344151665274 16.4792057650806 0 0
-190.373290285103 24.6896615833382 17.0970535270993 0 0
-206.321176670243 -14.0842366236429 -6.1562952639552 0 0
-219.221660205263 46.638117595875 -9.71873453590107 0 0
160.897027320075 6.49277183012705 -6.58151635746027 0 0
188.654747491021 -33.4188069526053 0.00976699185881548 0 0
0.315104485018249 -0.695547384720779 -1.63082644845627 0 0
-189.739713786108 -11.8430086132612 -15.3834859964903 0 0
-2.79452987182842 -11.3684271660962 4.46363774585284 0 0
-87.1543579130781 -0.000789666015010328 -6.01183501892432 0 0
-37.5160464008297 -19.9627192586308 23.3455481473544 0 0
151.472245377292 21.427769104291 6.66658188917439 0 0
-160.907960604491 -15.7336984128019 -26.2558103147518 0 0
58.548463738854 12.1898918775919 23.4444010801725 0 0
13.4262518215635 4.65538531614078 2.27939251862443 0 0
-94.1169725786881 -5.78407780594009 22.98189900286 0 0
229.298772410669 30.4793318869172 -20.0082835264971 0 0
223.39683768905 8.60713461084724 -9.29712463411007 0 0
-175.478220534298 -28.6424482640916 -23.309433943361 0 0
-147.773910943677 13.0766287924793 1.04025388924193 0 0
83.3505820842239 -20.0499011348155 11.1147902284864 0 0
191.40054852767 16.7220624904206 -20.4010363594706 0 0
180.675633380956 -19.8371311894717 -18.8067327912924 0 0
-229.019572630449 19.037002104713 -5.80255944856613 0 0
152.15234405032 21.987184427022 9.13539199348091 0 0
-109.018189140914 4.67666053660115 -6.02141138395151 0 0
47.6405133265601 -19.1310617213392 22.3547052835884 0 0
171.412221158774 -7.80638548914522 -11.07970179836 0 0
-67.0134625976549 -18.2430413878041 2.17229938568338 0 0
-92.8411427058287 -3.791988052897 22.9337040879022 0 0
31.2540174312146 2.37873896943501 30.7552176319224 0 0
-190.737488811928 5.78578135170978 -12.8016819065674 0 0
-190.449677095488 11.6698900205273 -13.2728436521225 0 0
-202.264500788442 -10.2674353793341 -9.67548451213126 0 0
194.723471898373 -12.2693127910896 22.5673667594243 0 0
-188.610178660555 7.30276379925695 14.9670071709741 0 0
-93.6566958680519 8.94183554264678 7.63357724025579 0 0
-205.236954363027 -24.9888585841461 6.1759499462335 0 0
-49.0631847915383 -3.57386098714673 29.4432554847446 0 0
197.438483853249 14.4412255814053 -23.9775128303244 0 0
50.95146370674 12.178734647326 20.9470284848741 0 0
133.868658571438 20.1383289446706 13.2365863158931 0 0
-204.960898396892 -24.6531979116782 -19.8680046279881 0 0
206.136613322543 -40.7362634861718 -12.6871624886374 0 0
82.5458640021138 -14.3398312446583 26.7321192803462 0 0
166.53799868442 -25.1650373864541 14.408800852182 0 0
-211.364326357937 26.1648337651296 26.4940127575735 0 0
-99.3636565576186 -22.0959744000447 0.0480624740289364 0 0
200.556961473024 -7.99667334780828 20.5447448868652 0 0
222.82512154999 5.70648241748576 8.64278903197222 0 0
-198.351064874752 12.1453183195103 -13.5797664863758 0 0
70.513974692903 -9.99906883385218 0.29475954616152 0 0
-91.0663676975898 -22.6730470331189 10.8764968727007 0 0
-82.436380082667 8.82128515104195 7.26673758557875 0 0
203.181696280497 -35.0728278981266 -28.7979882924493 0 0
-153.979797245331 13.8575407357319 -22.3335007808215 0 0
-152.847090397423 -24.3931911891634 3.30197372652579 0 0
33.5991078186556 -14.8522352655983 7.24195405291728 0 0
-204.933122265306 28.5905749457077 26.3197984942014 0 0
219.975560911321 -19.2516192750054 -19.2417432414899 0 0
-40.1787171837877 -1.54782224297685 29.9422932748365 0 0
-173.185476176043 -0.235667084716256 -22.2317766284401 0 0
212.060861188384 -31.7841940190051 16.6963075847736 0 0
-184.604958380259 -7.2147105088171 15.5705089836618 0 0
-49.0977105036753 -15.8488027468464 3.720198314807 0 0
-172.095441800451 -21.2554065158829 -26.749318066703 0 0
127.610186268012 -19.0474032024917 -0.995134368547157 0 0
29.6229467877565 -14.982866777925 28.180287673769 0 0
79.2680151130357 13.8845579561083 12.931303297624 0 0
-184.199930438506 -34.0554806904349 -0.635399680594518 0 0
-124.620647764968 -23.7752031573361 3.51086074451314 0 0
-181.822673209291 -0.637491092829837 13.053545608002 0 0
134.352523931857 -21.4217182608505 1.99895608604514 0 0
180.857182563748 -11.7585969465967 -15.9198143319214 0 0
206.651012394199 39.9472418159539 -6.5074843116595 0 0
219.891374899113 -31.6588802479569 -26.9909666559139 0 0
-94.7400955035874 -3.86916270454095 22.5893053967035 0 0
196.307085507017 -34.4642103654155 4.04529528893001 0 0
-128.442515187449 2.22286631005735 14.1292829133762 0 0
167.637255345631 -4.64511763445929 -9.48644724494345 0 0
-208.825385149545 -12.3539465921808 -22.4057557682804 0 0
178.869840454399 19.8898830320542 -15.466648450745 0 0
-177.843194587819 -9.72021755035739 12.3234616559662 0 0
-203.377863064596 51.4342900193509 2.00351958234889 0 0
3.38843269196054 2.97568305265286 -0.491025639127244 0 0
-200.657678716608 -9.80557325294308 -11.8563710169093 0 0
-95.6991333989711 2.92854288818043 19.3145697041516 0 0
167.937165888559 -26.1917032665083 -1.88997122922677 0 0
9.91212208414631 -1.65715794698345 31.5371934342197 0 0
-168.422675367521 -30.0567256954167 -20.6563125621704 0 0
221.931502911766 15.6048299120235 15.9175346394648 0 0
-140.815991829689 -3.62322687165479 13.5703925161748 0 0
206.595737386684 35.5888428733507 3.01072436592528 0 0
159.208532083508 -23.3464084966013 -6.84606650593741 0 0
-149.75021269202 23.9833654493055 -8.65156526928162 0 0
-204.287647880764 3.11988808015357 17.8603765557258 0 0
1.551192211043 -17.6632823571714 10.8107216691715 0 0
-170.890537286513 18.4350932491991 5.53752715926439 0 0
-180.151583090118 25.0806262663531 -0.849483026144913 0 0
-63.1410368422444 2.2780875986617 25.2004915471994 0 0
157.469998676332 -8.30743487814432 26.3787587762231 0 0
178.080063877061 22.1337651320103 -12.3155197528557 0 0
147.752426537847 -5.68897383922514 -7.60823884817499 0 0
146.655762154293 -4.269552465642 27.1201497379294 0 0
-211.28395124932 49.6410223491367 1.42430781884386 0 0
6.55652201751472 9.39403531032887 21.9648835733579 0 0
-186.519390623465 0.504574052680222 13.5491320838174 0 0
194.268016939362 -8.6025553015852 21.1934984380383 0 0
-51.7847472160232 -19.737055438322 7.01132919472533 0 0
220.912497827096 -33.8015480841304 -5.47475465074613 0 0
-202.519552363131 4.47348981321466 18.787688256126 0 0
-212.138904508832 25.880459960314 -20.4506094021019 0 0
-209.129506181112 -14.1746517702294 -20.4967837207178 0 0
-185.952293476987 -5.39295302094768 15.4435935601321 0 0
-159.47216072431 20.9771222481637 -17.2956928373927 0 0
74.5846603366223 -17.2942695302121 23.8793082095547 0 0
28.2978841281334 4.99110283750854 1.56212435025739 0 0
-157.980022219506 9.75648067862105 -21.3085658778943 0 0
-84.9428273287847 -21.6822919877274 2.24236628951776 0 0
219.824417581438 -35.9362985788533 -23.9464939557313 0 0
197.931252684401 35.1656976394548 -31.465624461314 0 0
219.678222533528 36.4672568510429 -12.188799527432 0 0
-168.333427690338 2.38143873667485 -21.0144130380358 0 0
-72.5917441511972 -3.97490968298431 26.5334037936485 0 0
205.885236506027 2.32279220196597 -14.4550893955246 0 0
200.247026242638 -4.32623530496066 -19.1805357768822 0 0
-198.044350626262 -7.67077836226369 -12.7142852052819 0 0
-172.356813963732 4.69799635679267 13.4440192772416 0 0
205.697012783646 -36.4026326702544 -1.47220114187152 0 0
167.526475233112 -9.29518715486778 -10.8973741578395 0 0
143.455601836984 -21.2998640046797 -1.33144850678339 0 0
-70.7246094642957 -5.22367654928602 -5.35092861424723 0 0
-134.232411192917 -18.1521352236037 -18.9764712573843 0 0
150.069866396446 -16.9516000392468 -9.20453360815761 0 0
213.443164476932 -33.3045820659887 5.66132320056489 0 0
2.41217197044378 0.782767898342833 31.1996284927092 0 0
-174.678675738673 18.5580628606974 7.69922790600438 0 0
230.163352219947 28.3882334204466 -3.42435567713544 0 0
122.836261303948 10.4044284981219 1.10967640773137 0 0
169.609286537456 -0.144310484988563 24.2194107976693 0 0
-195.877186183036 -32.6955609014592 -18.9741424433729 0 0
33.1431560564936 -0.214347456006647 31.1230308262129 0 0
172.936252277125 -2.87949779093897 -9.91171321875387 0 0
197.575669760244 15.2557128351244 21.9903739390255 0 0
-176.062442992827 -8.73475700743646 11.5405680880706 0 0
219.448535305916 34.1942220656269 -4.7290761014364 0 0
151.545241260428 -22.512903067816 -2.13599782427815 0 0
209.286050473192 -32.6425300653667 11.0849490381599 0 0
-107.741139053306 -5.68862196421627 -11.5163296673086 0 0
184.01951716134 -9.35273670654973 21.3773961665262 0 0
-113.502572920562 3.81423698831849 -7.86249564271708 0 0
-230.638069854275 38.9252125807542 -1.54671936911303 0 0
217.536376143707 11.6922010677645 -15.9924360867547 0 0
-20.7004722388551 -20.3330797617137 22.7788649054147 0 0
116.354085610887 -16.8385775930962 -1.2515967409576 0 0
-89.9930914380636 -12.6672522540117 23.0365146950624 0 0
131.808537123504 8.06619109430968 25.9131279615211 0 0
199.26114117487 41.5311322542976 -18.5798176989909 0 0
172.213754988938 -11.09746361618 -12.5452770609975 0 0
-125.853098698116 -13.728335282542 -19.1997135257846 0 0
-194.530152788101 -7.98093419330709 -12.5596478118496 0 0
11.2743652435267 7.99290165745142 25.9766808246262 0 0
-175.546535589025 -33.9105339447691 -20.2031082272957 0 0
-224.145842975896 21.072773637105 -13.7730133239037 0 0
-105.093336996507 -16.2541228364315 18.1289595345031 0 0
-139.618234092502 -23.7878348191193 3.57666362343701 0 0
-189.354647977895 -34.7569176941375 -1.63401363099845 0 0
-167.788333768268 -10.4689842410443 -27.1629268974826 0 0
-186.043529768297 26.9699849879715 8.68409521919085 0 0
178.036394402822 -21.7979871718693 -17.3449112972086 0 0
218.109436461866 -15.7033972156021 10.4399045616595 0 0
-232.279590581514 35.8278521217483 1.71324234852536 0 0
-191.101046496193 -12.5240666154273 -16.3269787286146 0 0
-110.156841402503 6.91860113111061 -3.62708294085749 0 0
211.560834374248 11.0050028124159 -15.4829096761628 0 0
206.252857692908 -10.763510658898 -24.0915255961458 0 0
-185.604072354314 18.311244171482 13.7335553354575 0 0
-208.872867692143 -11.456584591613 -13.2036744768525 0 0
-190.038294883486 -5.08582271890731 15.6921826630575 0 0
185.845666995873 9.57145143766679 22.3520481602488 0 0
-205.169978653162 -6.48614565204792 -20.3781145968303 0 0
55.642204537902 2.93627062062293 30.0743852495625 0 0
-217.177223915943 51.2585723417764 0.731586927772685 0 0
218.658817057331 -2.20515384877931 4.67054538842073 0 0
-110.751030552991 -17.4535774854988 -9.79385911202639 0 0
208.524105953877 -5.41126776400477 -14.5236163236049 0 0
-212.463430705027 43.2594610645299 -15.6969559815131 0 0
-222.174739604259 17.8379358002632 -13.5270869730579 0 0
226.164662713143 20.342307092349 -23.7772152199315 0 0
200.187539785551 -8.56243177854204 -23.4657206134391 0 0
20.631006544173 10.3983618428072 20.6403495149652 0 0
-52.9295522779416 5.58780221040362 3.09020919345791 0 0
209.607794594761 14.9684053520938 -28.6611133764533 0 0
208.521418142551 0.599566083879991 -11.8099735361382 0 0
-189.564374486573 37.6582801922111 3.81752069099139 0 0
-215.514771083075 16.8307720083576 22.5346268753478 0 0
-75.5078953198367 -22.4301503201802 14.3234659222454 0 0
-69.64738619219 -22.2223959945741 16.192080677015 0 0
137.390919065281 -3.28758047075795 -6.36998902769702 0 0
50.4366597003284 -1.20567752195069 -2.42139694939059 0 0
-213.359082896548 51.5190663918336 6.89622327113346 0 0
-35.8369588728729 -21.503609294762 12.9815534136231 0 0
-118.235685129016 -23.0851901428989 -2.58466286045485 0 0
186.782041158881 17.9505572488794 -16.4245960583077 0 0
159.102158348671 8.05562156816802 -5.99755334335024 0 0
-194.184472336607 -11.6253135732419 -15.1353457582028 0 0
68.1505048203821 13.700759088246 20.4157259483834 0 0
210.63758979556 39.1284424767924 -6.56685215378021 0 0
-230.138897055893 40.3958646568683 -0.736100727692526 0 0
-121.632129989818 -9.62952642183331 -16.3220108794409 0 0
166.87005425016 -26.3942344074644 7.33092622750181 0 0
-195.451962180597 -18.8473472255383 16.7666019759203 0 0
-135.00417149832 -22.6057100170713 -8.82186029274738 0 0
-208.40725704951 -18.5048742494973 4.25409746422959 0 0
-132.599693372189 1.67206949798761 13.6053822584729 0 0
-199.300398655969 9.8157821422296 -12.6068142736933 0 0
-217.075788291655 51.6694418795408 -2.06617476371429 0 0
-205.98942516544 12.6401802997836 -12.3686304882265 0 0
119.374885270216 -10.7678705740046 -5.06817289014905 0 0
-157.106574560227 -14.8898520765191 -25.9933252550085 0 0
214.93831786515 -38.0737759436208 -18.5515824859428 0 0
196.290841447515 12.1116737693951 -19.8942855353217 0 0
220.299201081886 35.8275928622936 -10.0863194522899 0 0
189.156646252269 30.5645615838225 7.23671283478934 0 0
125.19233598066 15.225970081428 5.32025740200832 0 0
28.1917062777915 3.12776733285281 30.5425586929493 0 0
113.836803737591 2.35700670273816 -3.1741018137197 0 0
-111.107635589281 -12.7423845074974 -12.8650347410882 0 0
-197.183415331918 -29.0185694825944 -20.9877325172687 0 0
-188.529081639522 -12.9550548027058 14.8394154284961 0 0
154.692972088954 5.78761928192268 -5.86310230897017 0 0
42.275673303544 -17.2116748971884 25.7015927558902 0 0
-55.2579413213496 -7.21467043712602 -2.37907829223967 0 0
205.155288955836 38.2446456450616 -23.6082714733156 0 0
-232.322252195585 34.3896640655158 6.8977031400811 0 0
153.773280093729 -22.6156192408016 -2.98212197243469 0 0
-75.9120973629148 -9.32573503018339 -5.62384815196575 0 0
86.4757773880521 -20.1357719918535 10.9477039895351 0 0
-187.803855603553 -29.5647263300419 6.45452424218749 0 0
200.516803277649 14.9121559024503 -24.599566907817 0 0
180.455358661266 -29.0205678357765 -15.1504542926927 0 0
196.092072606255 13.0998947587967 -21.3782848978397 0 0
-133.526230965797 -2.11636947344248 14.8683930293742 0 0
-219.671179391235 24.121932957167 -17.8213341726249 0 0
-32.4708461816748 5.63169599976076 24.6360429574033 0 0
193.169759444591 10.1393374233916 22.3412247940345 0 0
111.634998016548 1.91028923609741 28.3040798764295 0 0
-97.7654198725742 -16.4403514450382 19.4711987362305 0 0
208.402776695058 14.3038985281127 21.3872934203313 0 0
146.931314199965 -8.13982322728957 27.2260445511918 0 0
-186.655365516561 -34.6493988188699 -2.09359114788032 0 0
-153.515188301268 21.4994583339174 -18.600928092557 0 0
171.659122687074 17.4910697786543 -8.81596073642572 0 0
-198.104666415716 -1.75525510489604 -7.45423936441088 0 0
-100.191988564604 -10.1850013009206 -13.1124470918621 0 0
104.66062128983 8.46244960129952 1.89805632710206 0 0
-32.0204431402744 -14.5402782163253 28.6548464316023 0 0
209.487624745003 31.027550514033 6.85726577759422 0 0
207.703659449431 -13.6515232092446 -27.8437565425494 0 0
-230.878737518645 37.666149728632 9.33270802350954 0 0
-185.885563139491 -22.9615797740573 8.31765817233547 0 0
-203.622246518831 -28.7211972759536 4.57412100717093 0 0
-189.312307537944 40.6350943629529 4.57438467028175 0 0
-149.737771573938 -6.19496781111282 11.5676036566659 0 0
-190.969786808156 -22.5413058884211 10.2714063561699 0 0
18.5922072100851 -17.9060756648344 25.9091498259782 0 0
68.1303530697815 -15.4688788034447 26.2917249346456 0 0
-138.642470041185 -9.35702185523854 -22.7994720423055 0 0
212.896769486409 28.2541205023066 8.45882347646713 0 0
-205.100838584387 -22.7704931138224 6.89477359654096 0 0
8.38922991546366 8.87034293480544 24.0902072265988 0 0
208.419940048044 39.6371970311928 -17.605354283076 0 0
203.317004964976 -34.1665850060547 -35.3215473468288 0 0
-50.7256709550053 6.26415262159048 4.19808362685962 0 0
-160.014589012309 18.8712180894498 -5.48793292746689 0 0
161.104286927714 12.5960145499112 -5.64591736708193 0 0
196.6817853262 40.6491824024844 -2.74158201656642 0 0
178.84339179481 -1.39968099077995 -11.0387646709366 0 0
189.933259241696 -37.6007959099548 -8.98689343513516 0 0
-217.456083131493 34.8721469519141 24.7667042231368 0 0
-46.2601935094692 -16.3892850501278 4.55386959003889 0 0
205.207887183311 11.3684194470768 -17.9732839559024 0 0
-184.796724651706 -9.51341656617381 15.5482019003049 0 0
-190.415309419532 -10.1953822862377 -11.1472574691867 0 0
81.1729666840442 -6.94720450687394 29.7926864824289 0 0
196.919194454832 -29.9590936544242 20.4625623331604 0 0
163.129126886057 13.3664497343666 21.9770113866447 0 0
-50.7129983724948 -20.1352499332088 22.3425344177991 0 0
-33.7704109550935 5.89423028445718 3.97461476016242 0 0
-128.001587698378 -10.9363772544072 -20.2772045658293 0 0
177.472173339921 -27.3373926436766 12.7277863971264 0 0
196.296507377694 -23.9547195203307 25.585922006489 0 0
187.291577124406 24.6985096403497 -16.9192841930221 0 0
148.830929196508 -17.8013223280299 23.8666200256888 0 0
216.454166191756 19.8920828780556 14.8676875440442 0 0
139.425673222477 -20.9042483504667 18.7841138975753 0 0
182.373639786609 -24.9056352662824 -20.089461510682 0 0
-162.831178694524 -24.3103676389482 5.4996685097994 0 0
203.713202752227 0.623382053529271 -15.424681608167 0 0
190.529410338452 14.1319980178449 21.5308737502002 0 0
164.634813654789 12.0577622642096 -6.54311041158323 0 0
-144.894336432882 -7.28472647463215 -23.2209711544181 0 0
-23.2001802604923 3.62127042311056 -0.911320193215657 0 0
183.882157476403 20.2282552220905 17.3823554018769 0 0
204.789643750653 -4.18522456578994 -16.2948295739704 0 0
100.110431380627 -20.9711752220549 12.4109341861608 0 0
189.752694759864 2.28478801718396 -14.9229493909329 0 0
225.007398865129 21.5029793324635 9.81816335373819 0 0
85.1200237470785 -10.8793747618046 28.6328484640262 0 0
-15.9454308072217 3.46467335539244 -0.690995388039422 0 0
136.450478897504 3.25993469987652 26.7522549776825 0 0
178.235248059076 -28.51646451393 7.86705709774496 0 0
-158.507750617915 5.0200992789927 13.7453952948212 0 0
-59.2779304413455 -16.4412279977731 25.5578846159142 0 0
-84.1236223052612 -3.93009797080284 -6.05700428764514 0 0
-108.851323886574 -18.0173197475364 -8.81878796579561 0 0
-195.519386228221 18.9590314870568 -14.6253912731764 0 0
-69.551171003797 -21.0357733768991 19.1562314795567 0 0
-137.646100092732 11.3958302885225 -3.23944695660139 0 0
190.723893138202 34.6555599914639 0.362675854270641 0 0
-11.1065576274408 -0.684481277431326 -1.09271351620084 0 0
-139.18102032085 -12.6044224767109 -24.5876958686239 0 0
60.2038928247983 -20.1623714970494 16.098381220304 0 0
-214.808139107312 3.29247187949947 10.5323817622994 0 0
-152.875218661579 -25.7145901223065 -12.9795627738317 0 0
-202.798469120075 39.783948530469 -17.1836114988349 0 0
-188.104616542093 -5.60408817780398 -21.2943129715252 0 0
169.053233665512 -26.80746246227 4.94137033492291 0 0
-212.676287933138 -22.5616772532162 -12.0117936396644 0 0
-182.949094470263 21.3325900205953 10.5414543274399 0 0
137.855156379587 -7.53634578972853 27.8776530973423 0 0
-152.279793402225 -6.6352607568762 -23.9024250356741 0 0
169.450606650165 -15.3364079816372 25.0958909156753 0 0
-205.319144137495 49.953081709404 2.83608189764845 0 0
-173.077253145613 21.3811317607075 1.20516592294407 0 0
-196.415827945269 7.67490209481719 -12.2478778971662 0 0
-203.492842120438 35.2283823469891 -19.1731688802368 0 0
-214.255535905994 45.6029138855867 -13.2916626625077 0 0
215.330009816968 12.3224333370391 -17.1205859297019 0 0
-209.932753667901 -16.871644476084 -3.65753760095887 0 0
-100.658184170209 -14.0400294562369 -10.5338084958356 0 0
-206.013814905023 -15.2668481364617 -28.3571956027352 0 0
-203.664611268083 48.8728677235763 15.3576154593023 0 0
-51.9177761954556 2.40719091440193 -2.50806626088016 0 0
193.437766553684 19.5288683764004 -27.4350974102798 0 0
-85.0501522904279 -1.82889885833094 23.9031616275996 0 0
-210.211547547236 4.89462608984686 0.924205616503526 0 0
175.063139120163 26.7816700388773 3.29887151682461 0 0
179.464137384841 -11.4320017712198 -15.0311180295569 0 0
-36.298722059785 -0.037351949709721 29.8153102288557 0 0
203.283860134916 36.3423157499236 3.27478096802613 0 0
-157.011181204089 18.1669668366859 -5.90218616817832 0 0
-209.061986564169 1.8462131990434 11.4609162117239 0 0
-42.7763762514848 -20.2724665148553 22.516775709412 0 0
98.8053711159652 6.46012615869564 28.1677373724699 0 0
-210.317100786822 -19.037557182091 1.24669943460434 0 0
172.871827988845 -27.524940977805 0.0237442397449845 0 0
-168.36511651237 -1.76830630319561 -24.8056155209209 0 0
231.665897392426 23.5894235457415 -8.85873324494568 0 0
192.24071647097 -12.8578570590868 22.4977337805494 0 0
-146.290122529832 -0.940664355107294 -21.7685809307563 0 0
-178.424731426303 -16.6701493235992 -28.8707725282761 0 0
206.875385314315 15.3122324693373 -25.1688109532726 0 0
188.879268216501 -30.1361218792226 14.8161591026393 0 0
175.153247385144 -24.5136183323935 19.135084823069 0 0
-173.236712991066 -0.303721913768081 -19.3637081816223 0 0
187.46776255705 -18.0645372241668 -28.9936597808292 0 0
94.8137942222583 5.02219392099425 -0.265986333483095 0 0
-191.756005954387 36.4724790139735 -11.2450628139796 0 0
96.6318328365763 13.2259998900261 7.93455403961496 0 0
222.524346256194 34.5139138962395 -12.8482023893863 0 0
-184.520146333069 -13.9216845238136 -28.8504457219205 0 0
-148.292427917666 -12.8244719372267 11.8056986777425 0 0
214.091449120399 -33.5498375134141 2.94378048527407 0 0
-23.3138372812862 6.33811466697767 1.33782304014569 0 0
-202.508644783489 -17.7811593734402 14.9275968277252 0 0
-138.071539724009 -11.5399092180823 -23.6574183055103 0 0
-196.438141724404 29.5879314736543 -16.7197623576211 0 0
-86.6784651544656 -4.04271579033429 24.1364782586951 0 0
-218.924559403952 4.94733614099761 4.18742170505901 0 0
87.8147493647592 -12.6930138963689 27.6896110004531 0 0
-184.743439928157 -20.947950310646 8.67231998514388 0 0
132.0140251488 -5.97460167775247 -6.49097996662061 0 0
-179.484702091229 1.8673734864534 12.5727775588526 0 0
-97.2536489964816 -17.303686030131 -6.89841044826901 0 0
-170.614385728791 -35.2564819449974 -8.32958362340726 0 0
-204.234565735734 -13.0813032229049 -5.48993025615923 0 0
43.1435458103998 -19.5414597091266 14.1629285115192 0 0
186.018542907632 -30.4208565628079 10.729929650329 0 0
159.427195448616 -25.2276588266966 8.14633562519975 0 0
185.423577793378 -30.8646863297568 7.88109985650373 0 0
215.469864413667 -9.59255301938489 -15.9153778924394 0 0
170.17906077642 25.3280420261372 3.83847995069805 0 0
202.755774112592 6.05997593544923 23.6602345942267 0 0
-231.554982323109 28.3059196027002 -5.28618873088293 0 0
170.531087648493 -26.9611362204474 8.37361795559505 0 0
-5.92342383289083 4.0097340789163 1.84050056695617 0 0
-199.474408363077 -14.7000176160011 16.897332442721 0 0
149.872651997673 -22.8810738078539 -0.016402034162213 0 0
-127.020136015822 10.4578225500876 -0.246219334082647 0 0
173.953998047496 27.0189495817942 -3.55143433209719 0 0
-203.406427300686 -7.98457262663328 -25.3661247306585 0 0
-151.795764068715 20.5384396257941 -10.4611297510437 0 0
-163.665259723187 0.288576158354805 13.538097775265 0 0
-202.504917776013 26.8538097261317 -19.6102106754775 0 0
216.668877760804 -38.1737289157317 -27.3313987985616 0 0
-168.095779236041 3.78863700907161 -17.9269058965656 0 0
182.571862748599 29.9734001140178 -6.58612612073495 0 0
-232.774663800627 25.8931387510734 5.10171392932175 0 0
-111.426592944304 8.75699544244646 9.75162936959682 0 0
-132.036751431075 -23.9443308927315 2.82131547873004 0 0
206.472317691019 36.3440267285004 -32.9708503716802 0 0
-141.994873363242 16.9427066044006 -16.7197445546994 0 0
-195.540361932814 -8.92158740006405 -13.5947645337617 0 0
209.713295195252 -37.2990583884107 -18.9670835427768 0 0
181.651777557597 26.8977660232148 9.81286352620569 0 0
165.549654555915 -9.57245730192286 25.4144375552637 0 0
-156.482739958091 -26.9982742570529 -13.4106422105018 0 0
187.269305361957 11.4581339035116 21.96615021925 0 0
125.866116337989 0.801397063786019 -4.49938548553853 0 0
196.137926245759 29.5857376702351 -31.8408918059743 0 0
181.872239002035 10.977712482289 -14.0274134892002 0 0
127.498226841025 14.7717210515995 4.37345956952566 0 0
-186.115921949404 -11.819373348872 -28.292353441723 0 0
-66.1448182639618 -11.8107758362897 26.8325494410275 0 0
75.5897637572045 -2.09912800380992 -2.98043354254647 0 0
181.966204325715 -21.9340774617332 -19.529818177646 0 0
209.729266715964 7.67048680331154 22.0569097712185 0 0
195.51973682578 -31.6503159901248 -31.9963414935558 0 0
-210.464578420019 49.1663448493448 3.57925378404592 0 0
112.713725535148 15.3530873122084 22.655909783585 0 0
-168.343853747315 8.75688725973625 11.5259050301196 0 0
178.807296714746 -25.5793390569915 -16.0374388160389 0 0
-48.5186278054054 -0.0786386582222943 28.6569297039355 0 0
-102.909879433377 -4.64079249436637 21.3003749059704 0 0
144.682969572271 21.0655091858682 12.4657492210066 0 0
-161.322627032843 4.26588002061678 -22.1726244101494 0 0
-8.78089387565573 -1.18395581298304 -1.14438098013648 0 0
226.677795455482 33.1268900454673 -23.8923547269602 0 0
-74.791787012036 1.99175833570359 -2.342202334076 0 0
-151.866920371261 -23.1043798632242 -21.3075907261745 0 0
90.42007347863 -13.8279581496566 26.9155479028724 0 0
158.702745710279 6.453246850685 24.6801379495972 0 0
207.081015837877 -2.89128513638965 -13.8550315995397 0 0
-183.227338327134 -1.01059439615375 -16.9498353834457 0 0
-51.7098781368135 -14.5999350742397 2.42832631731162 0 0
68.1923496230073 -7.165236801446 -0.774241364609448 0 0
-194.817769750922 -34.1823314142354 -13.3381228534925 0 0
-95.5916437076029 -22.0070650622911 0.519722672513729 0 0
39.9124770276881 5.29877033928398 2.17719767619022 0 0
-153.480091305384 4.1802835845027 12.6249196846803 0 0
-171.360983613075 12.6638728704238 -14.8606343284933 0 0
207.83666809105 36.842040131614 -29.9422028725333 0 0
-44.8242542186645 -3.46446851078403 -2.98664089946195 0 0
167.471376109726 24.3028844082689 0.881065930470464 0 0
106.037276355951 7.7617376276955 27.4294720395159 0 0
148.395298251261 20.8732598420794 6.73028933936567 0 0
-16.8254854621075 0.841178749400975 -0.501366510716637 0 0
-100.475298428694 6.68706516388082 -1.25845890473597 0 0
187.655290506655 -5.21842084842513 20.2448309104681 0 0
194.726019588533 -27.5818885697707 23.0002994686292 0 0
-174.56944161864 -33.8165806118189 2.50534371963418 0 0
-169.544560648561 -27.8091279719615 -23.9838109956724 0 0
-209.220684417616 -8.29152300479488 -20.6510993264407 0 0
185.012802273778 -37.2508626210992 -11.7960483860543 0 0
-141.333850208006 7.36079098917231 -19.1808699167742 0 0
-55.9621494412501 -7.14908932945828 28.7707187924068 0 0
-137.957618793103 -13.9680605005815 13.2399297501748 0 0
218.883334695956 -21.0203244554076 12.1045472142638 0 0
-132.767437333326 -9.33526235569951 -20.5688526815693 0 0
221.007800688072 1.95737569052622 4.07704379148546 0 0
61.3628717027833 1.15193355369419 -1.28572159134888 0 0
-145.363643153528 -14.9911326880278 11.9245899602014 0 0
200.112635197695 16.0005707154927 -26.8798156841944 0 0
-204.421456001248 34.9722334234087 25.7201551370219 0 0
-22.3570231631952 6.76165833319599 0.0820518135072811 0 0
-166.072775311301 -33.2110451602047 -18.4751582679625 0 0
-153.711022687975 -22.9958646323244 5.93069305673128 0 0
-186.47113111937 2.94644955115844 -13.4397842239023 0 0
118.832574326055 18.7603191573236 13.9328951822204 0 0
-207.030173687341 -13.7649734717342 -27.3252781465773 0 0
-26.8067619372508 -7.86263917319929 30.7651284330455 0 0
204.084802038788 37.0584924813939 -30.5767000515512 0 0
-156.490118262234 20.0124418422162 -8.38773382379405 0 0
-138.053485967666 11.2793799552208 4.78568055892301 0 0
216.837793168104 32.3618582440781 1.31287181512777 0 0
188.638595540106 22.5733824264599 -18.4437170754371 0 0
-35.4474766353104 -21.1135334075851 20.9202159818324 0 0
194.16761684324 12.3021624453254 22.2326468382826 0 0
-204.495607019372 16.8383779651968 -16.9456670215417 0 0
105.592358761794 5.29619722183928 -1.01280558934548 0 0
229.650460318422 28.2375714371648 -19.5472911070632 0 0
-201.019136901916 -26.0956793524667 7.62782774361901 0 0
187.622794582291 -32.4166775002175 3.57445219447348 0 0
-195.750489110999 29.4069677426595 21.7522461612846 0 0
-119.083193060979 -9.698869936765 17.8246670874436 0 0
-182.836411225876 0.537776914761842 12.829127441526 0 0
179.991127944052 -16.8340931092927 23.9340161290264 0 0
191.645058242166 8.52052732188082 -16.3301423302491 0 0
-150.988357743044 21.2324793622538 -12.4641375989637 0 0
16.2397566675015 6.80529811903536 5.54283091438066 0 0
166.33110146375 -26.2385045099784 8.79674783032719 0 0
45.7664148465268 10.7862733886227 24.8321069425395 0 0
-217.365672682006 7.35035108135347 -4.54721240790225 0 0
-193.222368831652 -31.2151728712438 2.92267005932376 0 0
-159.122176304718 -1.81545895230257 11.1780232292733 0 0
-137.548126042482 5.0143282043324 -17.5790514369047 0 0
145.393914865766 6.8103978296137 -4.61571035060474 0 0
26.1401832451569 4.70797001281635 2.15075484654201 0 0
-163.141116199496 -25.6420706366959 -20.1421112443708 0 0
-230.895853499899 32.0153758842669 12.4631142117473 0 0
177.774861771725 -28.982424532002 -3.6267723436632 0 0
181.230074427039 25.9872718087633 -10.6167507828051 0 0
-214.476324023272 36.6370943380213 25.1480381473149 0 0
189.134847843846 -35.7288375767635 -21.8062824427712 0 0
-120.077693426758 -12.3925454707156 17.0042581640292 0 0
-8.93291352993541 4.66248781140873 -0.10183827041708 0 0
-127.414092612239 -23.5480697594261 4.4004077092093 0 0
-52.0402441920531 4.33525721670292 1.61880279786352 0 0
214.578226610243 0.908058185879357 14.4837702256369 0 0
196.765840415856 -19.2248140011819 -35.1803661847093 0 0
-205.368018877892 -6.46163663673372 4.00677613157478 0 0
200.143329762908 35.1107141768496 5.00285347312916 0 0
-14.1609017481189 8.98168456695588 18.842976532212 0 0
-212.483722187593 -26.0162485861637 -7.99360439734693 0 0
208.936983891579 39.578940819727 -12.1685429075317 0 0
-143.555144299819 18.7160499873584 -7.364497053321 0 0
-181.809814999651 -27.4919480576194 7.03823709615005 0 0
-180.993596254313 7.44342568207074 13.4998156923079 0 0
-198.995858263425 -35.3931598362874 -1.64765040782885 0 0
-215.186244101383 47.701976201924 16.9999864641883 0 0
225.516180507944 35.0910010747756 -17.5091469389376 0 0
-134.845676305918 10.5848462094143 5.98725985717474 0 0
181.174959198573 -22.8145342267833 22.9029258069138 0 0
209.865150977804 -35.7398347110652 -1.88611703609658 0 0
-193.181824363991 -10.1868331903213 -10.3536137386376 0 0
36.2253284227268 -18.2666482466406 24.425164442176 0 0
229.00196676783 31.9564079844009 -12.5501498329814 0 0
226.411743142673 27.9726351656494 -25.706757146087 0 0
138.149580233817 -4.57632803136147 27.7091822407832 0 0
154.407536299469 -21.1571004102572 -6.46612902928182 0 0
-202.882881156779 31.6463794091025 -19.7661135312276 0 0
-207.894542677887 -27.5705658212725 -13.5029175062917 0 0
-8.28161323933932 -14.5784384010697 6.67452783020852 0 0
-100.388926735029 -2.73926412213424 -8.38786488739754 0 0
-211.915430405069 31.6296706267529 -20.567952446385 0 0
131.08849197285 -21.9088536802185 13.3334139780513 0 0
-146.491707147005 -17.4644247152677 10.895565429618 0 0
-48.8764907000023 -7.98741021594097 -0.949027425247891 0 0
-190.045468338258 40.868660679546 -2.87995684869606 0 0
134.987478564259 9.71781142849579 -1.81902499211635 0 0
-231.083207128094 37.02367910511 -2.74285362499727 0 0
-110.769150975891 3.29895141747774 -7.43216757754195 0 0
-208.883484204205 51.7265873170401 5.29032660044221 0 0
210.35707641331 1.79535482509637 -11.0767365636325 0 0
219.697885003542 6.20780486879297 14.9713200399023 0 0
197.406719419965 -8.50870638085118 -25.2327523768041 0 0
99.2045085394994 -12.1886652216411 -1.90458975983617 0 0
-192.058712900626 -0.175562194101382 -11.979473075287 0 0
-24.6303368902564 -13.9657050810401 29.207893527493 0 0
30.3133484279948 -16.1000349259936 8.7064741538851 0 0
-206.378588173161 -14.7880360536861 -2.95182577280968 0 0
-121.982306098582 3.42325445387837 -11.1835825269225 0 0
130.241756077475 11.8671384905161 0.997621459038667 0 0
-170.711619651424 21.1979986675216 -7.20720362128821 0 0
-92.114877505959 -16.5110759154733 -6.19725724017623 0 0
104.865454685549 -18.0786106288731 22.2009879552902 0 0
211.620337595756 -37.4997800382018 -31.5588363089409 0 0
221.553369901496 -23.7295811075961 -19.974296940938 0 0
218.18148832226 30.5265014989945 2.97060263286899 0 0
-7.39925358389331 -18.7447293747322 25.4669673307623 0 0
109.692074386088 17.4723214828905 12.2007060189591 0 0
210.135334528051 3.75641284631694 19.5656310763419 0 0
-125.863337106579 1.00929063434807 -14.1576481397262 0 0
142.717270770337 -13.04430554963 26.7223510475109 0 0
152.100384357398 -23.2764718064898 14.9783257525699 0 0
54.2448404743797 -19.9436961045079 19.1228853958599 0 0
-170.115134933356 -38.4505851698169 -6.99126463821161 0 0
-229.904378208051 38.3208033596856 11.2430298665748 0 0
134.300371707755 -16.0753947548163 -5.18140698254501 0 0
192.10536119636 37.5971205008838 -15.7069904530211 0 0
206.879849311175 -12.1928094585438 -28.1832756451583 0 0
-123.969977365549 -23.9340878431067 0.904757163019345 0 0
-67.6497316006534 -15.0476715978767 25.4443694486773 0 0
104.686129963242 -0.398180214363312 -3.77567830837323 0 0
-181.859316190017 -22.3613975643483 8.03807301723986 0 0
221.242400279647 3.64811317503994 -5.7015100038442 0 0
-105.043488842472 -12.0387273247394 -13.0921456348445 0 0
-43.568567012992 8.86233579306442 13.2820661402541 0 0
38.0865405033184 -12.521271046139 4.76874397034321 0 0
-154.924433459743 14.4314730040499 1.32763112594546 0 0
184.734661205624 -19.5119709302193 23.7864359822407 0 0
-171.546955124432 3.05634853876129 13.8845592719936 0 0
218.716305583685 -12.9937335999537 -14.5120413513689 0 0
-146.073807123245 -4.07273619892247 12.3582464086215 0 0
55.876974904217 9.85879766003263 8.76436409890348 0 0
62.1698645495818 -18.8185340559871 10.6524441100785 0 0
67.110580022645 -10.4103532923815 0.856254550709006 0 0
57.0599546147532 -11.5721503868032 2.64695968204762 0 0
-9.39100106371709 -8.06414799814696 2.40912359902992 0 0
189.657126640048 -39.5286765821165 -11.8349737329971 0 0
221.600142748772 36.2511332691951 -18.8073296865843 0 0
20.5953363114808 9.49966699993353 11.2029679390399 0 0
-208.322053584362 4.90408240978632 17.9809656461305 0 0
29.3979977281584 -17.1999129625031 26.124436759839 0 0
-99.5983979546054 8.58382187106971 3.15778114470974 0 0
-197.029131352966 20.121340896987 -15.5039444972581 0 0
127.402914999839 6.59683028662536 -2.47731922186732 0 0
191.276654647893 -18.8930411084838 -32.83881657646 0 0
-166.973827657439 -31.2256806525446 -15.8232154766852 0 0
-172.056449449808 -36.035590516079 -1.61452376561273 0 0
136.236351119703 -15.0626046950873 25.7940161429264 0 0
-34.0285932642614 -21.7577541852451 18.4699247276299 0 0
217.37198637943 37.7287296580421 -15.3111021730272 0 0
46.7291062052676 -7.76192026881257 1.18291301718093 0 0
-193.98737317197 -31.121697885636 -21.3679274905499 0 0
98.5543132062571 16.940092178756 16.982856077988 0 0
-230.358512650759 23.7163213146639 -6.48577102428371 0 0
123.498118364999 2.0654073284482 -3.94543194955824 0 0
-198.692440044056 -28.4181675021448 -23.2636166700873 0 0
91.2087306968131 14.0737741784032 10.2000051145694 0 0
199.052936748199 -5.20377946114794 20.6219292871377 0 0
-113.199753290249 -11.4813300626343 -14.9187907156505 0 0
55.2348089230301 -18.4350038196671 10.5747792398138 0 0
10.6081636607263 4.00417691336455 30.0666786592833 0 0
53.1083238539718 -18.9335416804407 22.3005687152283 0 0
-193.902508760144 -10.0493497453643 -18.3009123652842 0 0
69.8965977824335 2.7177287308897 29.7491489507394 0 0
-146.54777644391 2.96028846316317 11.7934393367768 0 0
-136.499389612476 -11.7677297606391 13.8702914757151 0 0
152.533876228036 -23.2913247424516 -0.118679439692913 0 0
191.361128076321 21.0792254006469 -23.6458699557313 0 0
203.836305629167 11.879000586112 -19.126472478278 0 0
-231.608136936231 33.5207218269333 10.2825721688105 0 0
-110.522450491796 -9.42415602486479 -16.0662547320369 0 0
28.7605234832367 -11.7950922844659 4.68535095481901 0 0
230.398956910941 27.6822014609532 -17.355292331954 0 0
-210.379826888846 13.0037496796397 -11.9768231650786 0 0
-151.296750529751 19.2572967657974 -20.4955510791303 0 0
84.3343941211017 15.258632129345 19.6356648568547 0 0
197.427634505997 -11.0997476640172 -29.6853458279383 0 0
-182.413462681081 -4.8676919105761 -24.9530231766136 0 0
206.565795665584 -39.8272215546368 -16.8810594805447 0 0
-194.544435274461 13.784540658836 18.8776839624872 0 0
-82.4027697413143 -4.01800058594945 24.8943361962043 0 0
-204.339030050623 -20.4995212650859 11.5931425299062 0 0
194.37273309105 36.1302388705003 1.86068566261985 0 0
221.26181155519 -18.2580773118814 4.72254213529463 0 0
186.581581257271 -14.6555318960087 -21.7633174376752 0 0
219.154532513276 -2.08346059544413 1.49933175089568 0 0
216.196980456278 37.5204927261156 -21.1063234552974 0 0
-46.6571056548114 6.04576828498773 3.92365081511759 0 0
-210.793527762603 50.1975310228503 6.13575310925663 0 0
-194.293706038688 42.9147831208211 15.2130625847884 0 0
217.916194720922 -3.804268026513 -5.7675916334179 0 0
-95.6957567382113 -12.3904032112348 -12.2499964743014 0 0
189.790155220923 7.13441060378476 21.9213630444779 0 0
194.405635070143 30.4613998000183 -29.9726584178072 0 0
-184.54431492235 27.7010336419938 2.81542745755407 0 0
33.437908524547 -11.6911856979671 4.37014822113601 0 0
-177.298614755011 -4.69123201840728 -26.4504291509737 0 0
-114.413646684383 -13.9242743922726 17.6054980078456 0 0
-147.604098006311 18.0668850050453 -20.626816774289 0 0
44.9511078103477 -18.8107642083771 12.2266008578099 0 0
-11.2724658854967 -2.90113188481749 -0.609629061098217 0 0
-62.1223868728962 -9.57208961563869 -2.25176989245529 0 0
-120.056867236682 2.98015316448702 15.1666442232999 0 0
217.694224466697 30.7450048919491 -33.401751090442 0 0
-114.952381205925 -5.26392127490924 -13.2531749547856 0 0
-115.873083264986 -10.9264792920044 18.2730791478723 0 0
178.284817577915 27.345881027555 6.0888566609588 0 0
9.09701749058743 -9.06032836762954 30.8464832972529 0 0
201.839563248485 -4.99239717824658 -19.3086019640991 0 0
5.215221262569 -4.79683182783233 31.5130870191393 0 0
55.4577123891447 -20.1280946248542 17.1912943159738 0 0
-61.5974029423485 5.69867822106191 2.86607191968102 0 0
-3.7589186607019 3.52291026924906 -0.126343550556877 0 0
210.512948506017 -38.653650297277 -14.2844692815305 0 0
210.880499179762 -2.25155933289144 -10.859268689828 0 0
-228.735953545132 22.2732922396113 15.0985852470388 0 0
141.812692772567 3.37080551452032 26.4527715465487 0 0
126.604440247796 -5.91666616218032 -6.19166645641589 0 0
-212.214076354583 28.7112278155803 -20.6535926283192 0 0
197.05093981479 32.5245683902664 7.40797924639804 0 0
-221.760600396382 43.8247561173913 17.3022043889085 0 0
-31.2856479474576 -2.56642927706862 30.7551284677004 0 0
-213.808823853657 44.0509272805092 21.0697171739985 0 0
206.324083512429 38.0160429682609 -15.0988130303225 0 0
209.10195590263 5.98801359271192 -13.8840142294234 0 0
