"x" "y" "z" "f" "a"
234.597981853142 14.0196484840204 25.7431667828157 0 0
124.097521577862 -5.23468608380838 -20.3801793599216 0 0
0.388364178734022 -6.96030080505046 -18.6999516394 0 0
-153.464066539453 21.373150710524 11.9041038789681 0 0
112.476750110304 7.2543275035175 -21.8622802965588 0 0
216.382631219615 32.1077394529409 -4.27691584509494 0 0
236.931735921826 -36.0854825802195 22.1007566748615 0 0
209.557141630292 -31.6819066231786 -3.56852572083352 0 0
-201.724979181513 -0.847618974245684 15.6870748817646 0 0
36.8928420556513 -0.937844967910458 1.90971512089905 0 0
220.910607624616 -12.3262896202053 20.5159017300115 0 0
-91.6179106537569 17.3518895373061 -13.4029917345085 0 0
225.052713688688 13.9759665326653 -25.6807348803965 0 0
-203.08447527567 33.5596088694027 19.9085136352614 0 0
-153.034361163551 -12.6954850477999 15.7511855378172 0 0
218.534620325604 -38.4654040722374 27.8380665897279 0 0
-227.722130097437 -36.5739341789851 17.1205054688603 0 0
236.941445618426 10.764930246651 15.6732658910926 0 0
237.160048072011 27.5917894536171 25.9069210610922 0 0
83.6529124545484 -8.74289454055272 -19.2767133219962 0 0
-237.191982368385 -44.8617446081319 1.43850199153331 0 0
-217.331290917265 -49.5043131647591 -7.2389920711632 0 0
225.817613305177 16.4705582877262 -25.6503754463484 0 0
-118.787808136827 3.18949528371265 10.4597283606995 0 0
-97.6798480058656 7.47906718845799 8.81732412647679 0 0
89.7012279386683 6.06447468055061 -22.5648910936594 0 0
198.190641414864 22.5099347335796 -9.5062954772541 0 0
86.2149818894128 1.40994194995457 2.52843638376238 0 0
-214.09783023139 35.0333080530556 3.03519461195137 0 0
-206.222660061127 9.01802428303863 20.1564371480686 0 0
-214.150612643974 33.2008067257154 9.18828834811709 0 0
182.068638380728 4.57132290569239 7.37820919323798 0 0
225.051196428069 -34.9461804184204 -4.08861397678426 0 0
212.209044272917 33.7876577212359 1.44974264625447 0 0
205.65282198628 -26.9317077469793 -7.2916306830675 0 0
-113.5546207076 9.79376655054715 11.6729565287854 0 0
-203.766638650673 5.55473601968454 -14.6669308923324 0 0
-216.206335635307 -15.268068734377 14.621860351006 0 0
-218.144287167865 4.1280216893311 5.13677452916748 0 0
228.750779215612 2.04598805874444 -16.0739589851543 0 0
-29.6166187556847 -6.53960145544527 -7.75591746903453 0 0
-211.18575477726 -40.3333614683338 -17.6189152534907 0 0
-228.156838797477 -45.5667289817854 10.0799291103041 0 0
71.5200393389034 13.7621115208045 -18.658142496 0 0
151.894849268973 16.7993527345883 -1.34751295879779 0 0
-216.430138205217 28.245380111754 -3.19179676466117 0 0
-118.41805994563 1.59170252912493 9.43852808611498 0 0
-219.869760715068 -11.8678637853444 12.5074642715692 0 0
-223.531195941861 15.9607557091653 8.25580572681845 0 0
-148.857511888744 21.718362808151 4.94670108052713 0 0
-170.833840324775 -4.00432800282504 -9.36233000330562 0 0
-73.1802751566156 -5.02240219242163 -14.3261092861175 0 0
-214.723854431578 -7.3625916645837 11.9644670260111 0 0
-161.664446727974 -1.47922021832955 21.430628378565 0 0
-170.931826805737 -10.8357658159 25.2058869310669 0 0
-234.279285330999 -37.3254238002564 14.2959057913949 0 0
-37.7793600011507 17.9415251480408 -16.9900266161975 0 0
-1.22268748927559 -7.71049666566855 -12.9774962397079 0 0
-161.742643545551 13.8673319339328 19.9592403802026 0 0
-109.127985937416 -6.43142773169701 -4.11498162447753 0 0
187.018631147372 -22.7581470566787 4.68125786925946 0 0
-217.692617091083 -49.8644314079483 -2.63274328782177 0 0
-205.567401130036 21.7320660986629 -10.1219762784595 0 0
-203.233367122171 -26.7510225342797 -9.57842560566023 0 0
-210.716935673751 12.3268832379629 19.4491335456227 0 0
236.490726272681 11.2523517246428 17.9287123840612 0 0
-217.78969579698 9.08256586130748 -8.87821572921146 0 0
190.699029287483 -4.59107139290599 -19.8783987570936 0 0
-119.873388961214 18.9431845332649 7.3266107576066 0 0
201.629071134669 9.9903792344968 16.1313340892039 0 0
225.697206262202 -33.4185157170017 -5.18262691843182 0 0
-236.936055262399 -12.8805981660519 -16.3228303321793 0 0
-240.423003467309 -32.5007539587124 11.7169117962831 0 0
-199.115600932945 -0.751715061798552 16.9442254503524 0 0
93.5254908077512 -1.87859040792829 1.3231110267758 0 0
144.192506320187 14.9244146082173 -14.3855784681761 0 0
37.4943879284911 5.82537966490743 -23.4505232975837 0 0
82.1606175187017 -11.7460727211217 -14.965016815669 0 0
-208.231102524423 10.8418461246004 17.0512282705161 0 0
-165.837233812657 -12.7039447636642 24.8295547837294 0 0
136.802792918013 -8.07101167666612 0.438084183564484 0 0
-133.116396381864 13.6236171848774 -9.93910768228501 0 0
24.065050375928 16.0183488264447 -18.2299949193482 0 0
-32.3841567726438 4.3564939546547 3.13610880889731 0 0
240.550941742122 -6.80921737264721 3.43925849057035 0 0
222.660380265834 -20.8678301575972 -17.9104668816772 0 0
226.083626562745 29.3200440901824 -9.15183228787916 0 0
-207.974266714912 -37.5700350070659 4.82425867320424 0 0
-168.935602478584 -13.7086322402905 6.17606302405182 0 0
196.748712799985 -28.2582808111787 8.86734853144388 0 0
-231.503450908287 -43.1617959467408 -18.6633772768635 0 0
223.138388345347 -9.65040185848714 17.0619614160029 0 0
179.61129547696 18.7627258703627 3.3142287624218 0 0
94.558088166708 9.97638778769506 -0.140555172852039 0 0
211.636951424436 -25.3927813448356 -13.8063459676193 0 0
169.17329922366 -19.9625378414496 -6.91285317678547 0 0
-198.787554326546 17.3078285953823 29.6899163860666 0 0
-149.786891376663 16.6978628854668 18.3466606250791 0 0
-141.827190809251 20.4837001747538 8.96409279103108 0 0
-192.911286237995 -5.17878770605696 17.5868721027669 0 0
-217.055567546408 32.224149299951 5.93068343631909 0 0
-173.601949913425 -10.3443774749831 -0.52550777819814 0 0
218.946688725698 -13.2249626015826 22.3766326076167 0 0
227.901476836874 -41.1431064517084 14.3175619168643 0 0
141.277826629367 -1.87496690513238 -21.095904550294 0 0
225.13307424014 7.7233363636237 26.1526656836422 0 0
238.012474037234 10.5049979711346 -6.03437521815105 0 0
-91.3588253923963 9.64037579513338 8.9738533050323 0 0
-179.239097673243 -10.0988832907893 -5.21073644173362 0 0
235.940067739018 5.7235588685634 -7.29973294975459 0 0
-100.014934746487 -6.64079790895256 -5.72439236577795 0 0
-214.883013697764 -48.3001192002055 -0.404993073581981 0 0
169.744480995524 7.918925547005 -21.4058367096077 0 0
219.960316073779 -41.4409266192161 22.5637849579714 0 0
-111.009110674058 -0.596014766579935 7.88965220895941 0 0
181.697944114585 4.51694358502181 -22.2163492075591 0 0
126.049606135636 -15.9034216015368 -8.14196751032703 0 0
-109.164331974169 6.33095849043951 9.76404592726068 0 0
-13.0403337247674 11.6175535621107 -22.3352131677683 0 0
-144.820752674579 10.5805602956486 17.2541409901422 0 0
237.180855203022 -7.54666328104001 11.9675794858306 0 0
-144.238679754095 15.0422620553115 -7.61014033996667 0 0
-227.321644799294 17.5360635608326 13.1017065742388 0 0
-42.6517583459853 -6.86374694416545 -14.2806422995855 0 0
178.261193243628 0.632529264604759 -21.2082374531304 0 0
4.40868438431258 1.37300823311371 2.80930977403194 0 0
218.526654814314 39.0989510040503 10.268977728415 0 0
26.0742937897809 -7.85693254008177 -8.76589106753377 0 0
-208.661677220364 35.8129321729349 10.5935041406691 0 0
227.463547612128 19.174235356102 -24.2786228263426 0 0
-220.060560992746 -35.4655937915841 17.4851470588453 0 0
-202.898604895614 -23.9461781297118 6.86798368789612 0 0
103.597998742212 -7.39491560741125 -1.00829750488673 0 0
232.374235952946 19.4643132303961 -20.0211729993854 0 0
199.716223066145 9.48080159540126 14.2631505970149 0 0
218.69988172218 -26.2648646096043 38.264498329858 0 0
-191.25606152852 34.5214669749234 19.3840955081726 0 0
-37.8279471153551 7.80371078829803 2.40020410572216 0 0
-19.2800239820758 9.25324943369495 -22.9298560642473 0 0
-141.428161780017 -7.0116147903688 8.13816667683329 0 0
-191.063440859253 -0.826257348530099 -10.6312806942088 0 0
180.526050277679 18.9097772022194 -4.35980890248992 0 0
-223.25137305129 6.6494591477848 21.1966822941347 0 0
160.031919000964 -1.61973014939047 -20.6519328672353 0 0
45.4419851119073 14.9738445996301 -18.4802794063914 0 0
-90.0530102561742 10.7018307488376 -17.3146380212299 0 0
81.7094917038095 16.0031679692092 -5.66486198697205 0 0
227.4933884405 -37.6630503949972 26.0772570980265 0 0
102.234327649171 13.4601335606781 -17.8051333664822 0 0
-193.653996668373 39.242404620794 9.23387268606354 0 0
-214.007468732365 11.7494556118985 28.3286279777746 0 0
188.751436303224 -9.37005612495939 -18.2056307919129 0 0
-118.876757080899 2.07551489967076 -14.5602996575577 0 0
-168.730525456597 -24.1712774340444 16.3027153407801 0 0
208.003724447947 36.1386500932816 8.1271722448107 0 0
198.557186153965 2.96643186907793 11.5393908493214 0 0
-197.656266013624 -23.0078071146776 2.34511343495694 0 0
-146.533121135825 -6.71825523045173 -1.51639180228481 0 0
170.309684040672 17.9081765988281 -1.06857024610098 0 0
193.000701201701 7.62037648191775 -23.7855514021303 0 0
198.037467171298 -2.76959444047721 10.0441432758546 0 0
209.601741822928 -24.9286858357271 -12.9340047539876 0 0
174.472218859138 15.1567538146698 -15.5729350887931 0 0
-197.380200946479 -16.4277376018411 10.7734338190853 0 0
226.500590062196 -21.8136518431016 -16.4730132968727 0 0
121.34082614906 -4.47528721810029 1.0083443329578 0 0
239.540663363029 33.0913311428988 15.9631995496975 0 0
-217.92186437455 1.61787816902099 5.85521526254945 0 0
192.355462418961 -23.2924461289939 -5.4811914028778 0 0
-40.4770378612301 13.0507116734495 -0.372601349478899 0 0
131.211983491228 10.7440571679522 -19.103700805591 0 0
-215.260159267322 11.9882829884788 13.5656099714227 0 0
241.255538432298 -10.4144586218793 18.66486009044 0 0
-34.702892479954 7.7358283258544 -22.7972965129474 0 0
-180.051349159804 28.9571034551676 3.55974644520025 0 0
17.3739942002246 6.54395958627913 0.130127160408497 0 0
218.970841857716 37.3667424825825 16.4992931310425 0 0
237.416155508726 -23.1555030236106 36.3699001637401 0 0
-143.610841753486 14.0275755227542 17.7012687348034 0 0
-220.643120448689 -19.6641095355013 -24.8705010727535 0 0
-203.535235395509 19.0417739019549 29.4615378740246 0 0
-189.691034406469 37.177599864656 13.5955355234346 0 0
-236.838913616894 -9.13480290802914 -10.0460137090564 0 0
214.544789671177 22.6605972962377 -22.488361291813 0 0
-215.456212924042 -1.72772500585496 8.75832885427718 0 0
-180.675507435357 24.0685124629951 23.2133389158563 0 0
98.4943083410826 6.96851005147474 1.75706756113575 0 0
-212.277174300067 5.10086245520948 7.75184649767044 0 0
-211.142240641031 4.10002048721984 9.89294727260139 0 0
-220.688367683614 -19.836124345467 17.6892220421302 0 0
182.08311780119 -12.8258752467574 -15.7375185609852 0 0
60.0631659685733 2.11476000896729 -23.2943035900309 0 0
-230.628993324811 -36.7689034292276 -23.5340407288814 0 0
74.1544786741931 -6.36941318758336 -1.1741946894188 0 0
-106.619000644164 -3.94702006630446 4.34259169064383 0 0
-242.391938450068 -41.3831382765466 -3.56082565326822 0 0
185.227820723566 19.9131128099074 4.58575710145875 0 0
229.375533746041 30.8335414855245 32.821939562892 0 0
-242.942242014153 -14.588492851459 -0.0880413795027062 0 0
-103.601159324787 1.5769366457005 -15.6449284419929 0 0
214.124053822123 -9.89183130321405 18.7442734557651 0 0
107.960417779269 -7.2307655681623 -19.9238006834123 0 0
232.484900339171 0.000388599248761294 -11.2631555304958 0 0
-211.539088112928 -46.6453600993834 -5.2036566276511 0 0
-29.722548094802 6.29482102220966 -23.210031185028 0 0
-196.146861797882 -12.8911770143971 12.760131124568 0 0
-155.994506215622 -6.4644446711847 20.5306934381289 0 0
-187.176584713061 8.34808882625541 27.4648763716306 0 0
100.250428560698 15.5847295686999 -14.7050010578397 0 0
-2.29907843266231 -0.643934175530036 2.44873928308952 0 0
-149.549205467599 6.07466214581908 -10.4006284266895 0 0
148.504832728212 5.7926494356444 4.92944811201268 0 0
204.286966709471 -10.6880783079905 14.6293633267711 0 0
72.3825456208646 11.7053407877322 -20.6088041583277 0 0
229.100635230209 34.3046259182929 18.8649796281927 0 0
234.206886574374 -35.3414669191251 2.89053586099087 0 0
71.8536043163607 -6.3216853211835 -0.918362652952173 0 0
-95.1950949718137 14.4151659109573 -15.1573048853477 0 0
-211.50676147418 -13.6950725492735 -16.955826328952 0 0
-75.5627662686924 -6.24347117882053 -12.3141191066928 0 0
123.242864533711 6.37478174690063 -21.8376743320538 0 0
-4.18524784124287 -1.30085346683802 2.04202422322333 0 0
156.513750258844 -14.6868119712262 -14.3351420969119 0 0
200.992118774367 18.2605105626048 -22.1964048240294 0 0
-218.930636806882 -0.929971856109778 5.31239660196123 0 0
238.82596656201 10.5953065834644 0.302164813818042 0 0
105.415421128865 16.6636056019436 -11.5323569713497 0 0
215.690182017003 -35.8571431910467 30.0607739535853 0 0
198.772352185825 18.4252801017353 17.8282250579768 0 0
28.4896689237899 13.9890101764954 -4.71734033987828 0 0
227.207307484956 27.8834691801532 -11.7203922520915 0 0
-206.279324843396 -30.8026203012905 5.97895728953922 0 0
-184.454477597719 -0.112833666221586 -10.0683974187194 0 0
154.684922489626 4.82240992500849 5.16970405105908 0 0
196.267550667687 25.10605534686 8.28228675206618 0 0
-163.377645863531 23.7793444694903 4.12947157146654 0 0
-154.968357513672 22.6207020813561 5.67346165431502 0 0
226.485322783308 33.0973436029681 -0.346318251355449 0 0
91.8888055716886 -12.2019829934818 -8.8502197631502 0 0
208.816142563367 28.648051450425 -8.3473242943525 0 0
34.8614533707279 14.6669650205111 -5.60014846390831 0 0
230.282978000753 13.8794760459191 -21.7306441365736 0 0
-154.807347486215 -6.54230018623465 -2.41415972985757 0 0
4.04668043020606 3.8444280651337 2.70523145295891 0 0
227.753786481137 -6.92223088291433 14.5668263399265 0 0
-153.34934696061 -12.5123542264481 13.3380682820446 0 0
-207.841514728274 11.1223837295586 18.7069506637002 0 0
34.6172085946257 -2.33902681708187 -22.9782192765208 0 0
132.726564974743 15.382035728442 -14.0883944293835 0 0
-144.334817157288 6.38993148051258 16.1877665662562 0 0
230.22844902045 -11.4555119792387 33.3071706724436 0 0
200.477728225566 29.4109963974471 8.61802810281482 0 0
17.377878398725 12.0718792554554 -2.8897909302088 0 0
107.196941658943 -1.07070018879558 2.15229759241017 0 0
-242.383510716677 -13.4264944444515 -5.13837815835346 0 0
84.243830447408 2.42578739914042 2.70725303464767 0 0
-194.455535876346 23.5272224313589 -5.06143097281436 0 0
92.3430854688253 11.6417127138158 -20.0071620607699 0 0
-198.581302381646 -18.9652046839728 -8.35369534073696 0 0
-237.833210943986 -29.2215054172376 -22.0210860361325 0 0
-36.7498394901791 12.9471890218389 -21.1437505378828 0 0
-136.562081253594 -7.10248475674809 4.65747054478133 0 0
-48.4503523510445 3.21714073289024 -22.2453418506874 0 0
123.239967356321 -15.5658700693431 -7.88687014669079 0 0
-38.325627605796 11.4378272276745 0.394130747522326 0 0
63.431521757016 6.7506098029499 -22.8847885362174 0 0
159.764868640429 1.73943405535013 4.76911976398485 0 0
175.168665210632 1.90731383119212 6.04383376018334 0 0
228.196552397343 -10.9227405796323 20.1086182115951 0 0
-173.796133243093 9.06172707317599 -7.30863063806088 0 0
-63.2701785416184 10.9715790136114 5.94444026411209 0 0
-204.775996186326 -0.207309415357681 -12.6593368855078 0 0
42.3384395391941 3.18725844906704 -23.5925890528328 0 0
-199.012163759007 27.2451271028742 -5.95032565888117 0 0
-221.579790048905 16.0884661439285 -4.57203809884775 0 0
85.7763825645098 7.1244052508433 0.817698258189863 0 0
-216.497886796234 13.7462355645937 -10.4138774103859 0 0
-209.369111982287 12.1846436193305 18.0266636090712 0 0
83.8417259675605 15.2732968014396 -15.740269944086 0 0
6.69728022128013 15.2740418409699 -6.29214111788067 0 0
197.50547715866 12.5788496751561 15.1402941389581 0 0
-33.5658840292488 -2.42359998261257 -21.1198772984447 0 0
-210.59291081897 -44.6957207626151 3.36620323975141 0 0
-51.4251269566118 18.9592978572982 -8.10450857768083 0 0
246.422031803918 -31.9921556234611 22.1868795436324 0 0
118.380631798746 2.82272726427829 -22.3051782544474 0 0
-166.598086372382 -6.81716009885243 -7.56510864778345 0 0
230.730960242835 -6.36412702460038 -16.5364741353681 0 0
241.114783677829 -11.1873513153824 21.6473879178591 0 0
-242.468390737227 -13.4966683855904 -2.46481804512192 0 0
61.3670615805304 11.0205916121394 -1.91981702676989 0 0
-9.09776250918345 1.13764583358546 2.86761397355234 0 0
-204.995894176191 4.12201039288865 14.9390002346015 0 0
209.973504793134 -11.8261143485065 -20.5546617913577 0 0
206.364021136092 -30.7420216690866 21.1005474356567 0 0
-242.752118515941 -37.5252984505833 -12.4875118210866 0 0
186.726243616671 -19.8076628379304 -9.65728330389586 0 0
188.910226630078 9.26248090375349 10.2790079791689 0 0
-147.217337432703 4.90681074501727 -10.9981683334939 0 0
22.5756206230912 14.4091345185613 -5.21472000007618 0 0
-213.586756521725 -20.4774274096239 15.1088424544262 0 0
-143.949870328491 17.4365692852784 -5.28299299616985 0 0
47.0882040330608 -3.3575934669996 1.32171049357342 0 0
-240.547140889418 -11.5184661965914 -6.78909965060044 0 0
-178.687801304857 -2.45579996290531 24.7765751812943 0 0
-207.629342065246 -26.9364785045843 10.5622304147025 0 0
242.569416430791 -34.5069050557309 21.5371705763369 0 0
-202.589649879323 32.1247389538773 21.7403970310114 0 0
129.353148462939 -12.4965578756932 -16.3346926226423 0 0
238.278336799974 33.4812071689677 9.54005671041736 0 0
217.764581579745 -42.5703020320724 5.89979051721025 0 0
173.866959486409 -7.64796983808197 -18.4839442843276 0 0
191.56577928759 -24.4795379283065 -1.07308509377285 0 0
97.0163126406752 12.5736157256334 -1.23211068910167 0 0
205.357793113276 -30.0418698900513 -2.42342584420647 0 0
-17.9396414304688 11.257574967769 -22.3088778061805 0 0
18.2383155389127 15.1936836089058 -19.5947124062358 0 0
233.755567054186 -3.1575537898176 -11.4090922932381 0 0
91.792409689146 -9.12347757962393 -3.64009557671086 0 0
203.927481068862 0.309415528051665 14.1248094747738 0 0
211.403360721704 -35.1986162256751 26.8161330254821 0 0
-201.33758837574 11.3574429824229 -14.30786526452 0 0
-27.4200652233409 -2.96210883238833 -1.46017598912269 0 0
225.131810611492 -40.8058888148892 17.6831247957293 0 0
248.464806031148 -22.5924813472352 5.77759371920005 0 0
-237.113431792389 -37.5317370973334 -19.3804933544621 0 0
-209.827529472936 -3.40492911233008 12.9410086457709 0 0
20.9369820066592 -5.06154032170882 -21.5512190966291 0 0
-119.887563650242 19.7489001744933 -3.36228781159086 0 0
68.8461515688381 -1.42831037873002 -22.5308609492889 0 0
-17.6654544461926 -7.22152094496753 -10.6235897294367 0 0
207.701787719654 -30.3114465954821 -3.89083451763922 0 0
216.807188057621 -28.029641614908 37.1140071858766 0 0
-102.055788014526 -5.10644398902502 0.963085705444452 0 0
-232.772013160755 -48.0907317670045 -6.17998413610138 0 0
239.883955824205 -10.0189049437122 -8.51423800495762 0 0
58.1727450060811 13.9680873929787 -4.09227744423398 0 0
236.435368622081 4.68117057881272 6.7311951857216 0 0
108.795722924578 -3.47292817142116 -21.1634803952964 0 0
236.801103240506 6.08319099933152 8.53729687034431 0 0
-52.6603314286151 17.5286892427192 -3.84974183011385 0 0
-221.207565776682 -41.2063631623765 14.6576493777561 0 0
-224.816653240315 27.4007307852771 7.63284587029146 0 0
137.314940067686 16.832858367284 -4.15560782826484 0 0
-229.906205019518 -47.675045544833 -6.81039195872511 0 0
210.064302806901 31.0808724959829 -3.93844047170389 0 0
160.123981856019 7.32933087254217 -21.1785988515002 0 0
-224.532571183562 -2.53909337743678 -2.95719785717724 0 0
75.2595838276724 13.7535787677512 -18.3990532269739 0 0
37.1446016926273 1.2749871128882 2.32538978843864 0 0
133.916695170196 -3.05649994602448 2.13034549389241 0 0
-91.0964203490857 19.5597567472902 -0.556865977709813 0 0
-231.844397508074 -9.7909457523294 -16.5943599628609 0 0
-154.852952082802 -2.83829494462251 19.4387543345074 0 0
-30.8175454280074 -5.19649545503353 -4.93590800433474 0 0
-197.205625336592 21.5545417524283 -6.36805044270238 0 0
217.235040626074 -43.3935342836702 8.52644941210908 0 0
212.310216550915 17.8572096892779 -29.2171111043763 0 0
-153.382535006457 10.5476844041003 19.0063964725046 0 0
-159.957609252924 9.57849830558343 -8.37096240724375 0 0
-88.4753563616424 -5.25053606950801 -1.29567346868625 0 0
40.3415814960164 -4.58341790994516 -21.9671471224043 0 0
226.716601028546 24.0293071065079 -21.7048175621616 0 0
-42.6451094144884 -2.93257830343662 -1.14807365660921 0 0
-215.46752270132 6.46985815253941 7.37000956261372 0 0
-215.638223285764 -47.0144655061928 -12.8283912018033 0 0
-242.256609205241 -19.2316440239992 -15.0584892758434 0 0
230.718140955254 -38.2302315401008 22.3261927874776 0 0
-189.577649217725 -2.55771769526453 21.5514718960848 0 0
244.494241455163 -25.0616254474399 28.6752887218358 0 0
120.203521828486 -11.9061305624856 -16.7505252768853 0 0
-192.610169671793 -17.109055437768 -5.35172330305386 0 0
-11.2269476147345 18.246733098668 -15.9691744848292 0 0
-205.670006406645 27.228703591664 -6.18117891999449 0 0
119.57830457994 9.84581858672085 -20.5039986349656 0 0
173.902328401611 10.7074608083168 -20.5354737126726 0 0
149.649275443975 -10.3858688421973 0.643448019331939 0 0
-38.7455724109292 -4.87142485302999 -17.6283933616041 0 0
239.507166828928 22.538401763357 -7.60921575515962 0 0
226.584959376304 35.202943855891 15.8187423049185 0 0
-104.794097230944 13.9027368077329 9.39888149708874 0 0
-212.338242097974 20.4171668816845 29.2026339859288 0 0
92.3172007766778 9.55618812985654 -21.3599127965326 0 0
-159.421854464546 14.3002018890431 -6.51622692749786 0 0
-23.3272365266971 -6.46717268724622 -7.83689255152694 0 0
-57.0368923534709 0.895433957780503 2.79904197983932 0 0
205.59979629846 -25.48273049798 -9.28370846037922 0 0
177.617716838952 3.73702675350217 6.63812190095297 0 0
-83.19830932882 -2.83344833580321 1.20347004453872 0 0
-211.785677243579 -7.06779449109937 12.952640659718 0 0
186.220043485546 19.4461205678994 -7.31827137118439 0 0
159.620060665215 16.2578895581265 -11.5517824401291 0 0
-11.6978751125103 -1.63271802382442 -22.8331770017126 0 0
-239.104468109337 -9.95604757741942 -4.70073671383377 0 0
195.968496670293 19.3656702201605 -15.4852312514772 0 0
-232.349503304535 -22.5416716335401 17.2607514879269 0 0
17.3654715947254 13.0939147219467 -21.3114247526713 0 0
-50.8936654937834 7.98116588315751 -21.8708294541473 0 0
25.0851792106354 -3.35312244286825 1.29967003281173 0 0
206.016382545688 -7.43703916098896 -20.1940722965247 0 0
199.96478566266 27.3580038952503 2.33699104774445 0 0
185.239259589687 10.426748257525 -22.201856055965 0 0
-57.6794886139787 13.6175259072147 1.75358153720255 0 0
-205.883380361254 -28.8397434205475 -15.165918865452 0 0
-128.618619037556 -3.8558801700137 7.97582660884789 0 0
-128.646167215291 -0.354652740135449 10.7145723592455 0 0
123.59674461095 -11.9145391114444 -16.7380581290338 0 0
-220.314039459531 -10.8849687379965 -19.2633724943394 0 0
-62.4845861125065 17.0612085222649 -1.20114594632019 0 0
-100.378521804566 11.9276089417688 10.7432932682636 0 0
-203.178810111777 -29.0902395449436 -6.41539484597738 0 0
218.796399033377 -13.5819918885678 24.3123415462127 0 0
-185.464466860881 15.3776102547234 -6.59975237945476 0 0
215.28126219384 16.3892033546671 -29.0982767515206 0 0
-189.416155971773 15.5163796459989 -7.06926537158955 0 0
49.2452736750575 2.56468204327559 -23.4756188527395 0 0
235.643376790516 2.74185586211575 5.67070779057401 0 0
-223.44964769646 18.992600275598 -0.17093430142616 0 0
-236.334883142268 -44.5551346831579 3.82496174874403 0 0
-9.85826466954123 -7.25428798465129 -10.8525754992212 0 0
-208.02422757183 -40.6290265569991 -13.5647378899777 0 0
-43.7021159075877 17.2790125876293 -5.12776697363719 0 0
-97.5610112725723 2.61699469483184 7.33435513715457 0 0
216.469856984447 -42.6891704652696 18.7895064842374 0 0
94.9983551723963 -12.8300599175035 -10.161359486232 0 0
228.643695632044 7.40947377040561 25.0812562378322 0 0
48.5588526272539 9.58463036911853 -1.30957120457432 0 0
-202.006220251299 10.5599503499115 29.3541706299563 0 0
204.122287257954 -31.9733445470677 17.9716928461664 0 0
216.019584596501 -24.7101700774803 -15.5403491234761 0 0
-132.50248241269 12.6734338962731 15.222044686205 0 0
-187.81236526511 -4.09640791769441 20.407978276854 0 0
229.400394748638 -21.3869188418023 -16.469921510862 0 0
-157.973132011868 -4.94811999604383 20.9197514921237 0 0
240.853010079112 17.0225111824346 -2.99951593044757 0 0
-172.421467878561 -3.64488918898434 -9.6710573108126 0 0
200.869315156735 -12.7755886077354 -18.7024494974208 0 0
206.121949450269 9.53576167925924 -26.4442233139352 0 0
240.800323950145 19.2276236075467 -4.65686854228546 0 0
-226.776766345415 -4.11134841236011 -3.04767389261537 0 0
68.7150433289997 11.8151447494938 -20.6036153366551 0 0
216.084677829897 23.4649165592599 -21.7135022840301 0 0
174.302780617298 -17.7246688815948 -11.7101060582123 0 0
-154.571331072929 12.9011097535018 19.4396120881631 0 0
-236.930052693782 -10.2728817101077 -12.629987203365 0 0
155.34313048361 8.75647979014103 -20.4510778255154 0 0
61.2059060574841 9.67510109046292 -21.9419167775907 0 0
210.444597857686 19.0725464584632 32.8943486682557 0 0
215.731654379284 22.3759321518356 -23.5569700291094 0 0
-197.046145030585 25.9544716778321 -5.7285461332962 0 0
-201.302210801183 39.2971763582449 6.76837957454787 0 0
192.805426097991 2.1914702064905 9.10273442181974 0 0
-218.198709812541 -20.3945229497336 17.0211800763076 0 0
-205.047856342889 -28.2286888252598 -13.2541393573375 0 0
78.4554988932495 15.9480243394061 -5.83460169279124 0 0
-192.561144469545 -6.78018843858599 -9.95058936581594 0 0
238.817694358926 12.1245532400556 10.1629215395379 0 0
-53.2663913376646 5.35220112514803 4.36128929570388 0 0
206.744580862076 28.5091369877924 -6.21118088704607 0 0
-184.905353163692 -8.68287394077202 19.6046334991623 0 0
176.209047558486 -20.8314323952886 -1.32328586744775 0 0
-228.197524750329 -15.7385482898062 -22.9871021849223 0 0
-203.3400847854 -25.0315020366468 -10.9335915934731 0 0
-157.91578983001 -9.90828086886546 21.9703464266957 0 0
5.55727504236157 4.86600602940317 1.74294385804218 0 0
217.752488164246 -41.5028505722702 3.78403500383022 0 0
-200.297680533142 6.89899577655097 28.222711301345 0 0
53.940407058505 15.4539510726236 -6.32156853567381 0 0
166.181860067502 13.1866935482209 -17.8788185960314 0 0
3.16507771583382 -7.53988728589519 -10.1629938685112 0 0
-166.12185175507 -23.0287027000319 19.1626310028955 0 0
84.4095245263079 4.69774154500239 2.38312784931474 0 0
202.238617126289 -10.6268805832012 -19.3958754640329 0 0
-242.319060061743 -31.1819962739965 -17.0424388915952 0 0
143.787383150049 13.6590276970706 -16.186022282764 0 0
-215.521339073456 -4.04681130732389 9.89275662078935 0 0
91.7539407292299 -10.9762315351043 -17.0840321629655 0 0
-156.432715532251 15.4742726883257 -5.97903430965475 0 0
-235.108404936461 -11.2097843652328 8.16820882801512 0 0
-73.6854525839045 16.7715404769393 1.43777415640754 0 0
-44.3792583569669 15.1110081335239 -19.6887126907199 0 0
180.662046886707 -9.71874295306817 -17.6591759114834 0 0
-208.350428334033 -15.5483813563138 -16.4839370803718 0 0
56.2913712031148 -3.50746353668588 1.13405481176575 0 0
-221.066114600117 0.624005813842348 -7.6479034728053 0 0
12.0290939252647 14.8885019338849 -20.0877674961163 0 0
29.5035726912815 -5.92964267863931 -4.25229536810212 0 0
-104.368198157361 10.6459531891844 -15.6838984147241 0 0
55.3867489250517 -10.3268475346687 -13.7903019067235 0 0
219.618552937222 -7.61746424484389 16.2800399728406 0 0
212.45171996848 -19.9553314284612 33.2618957634828 0 0
-153.375734392397 -11.6766217414636 11.1349544682958 0 0
-100.076069559116 -6.45047529575709 -3.15098603262892 0 0
248.68102460831 -28.2765398740139 6.7762932851484 0 0
236.251457123931 -35.0935494773941 4.26928702688944 0 0
206.621022735012 -2.33326117673703 -21.3938088226954 0 0
-142.425530841259 5.81221960618276 -11.8307978842453 0 0
-140.829457319708 17.6512802588946 13.7328808951107 0 0
-68.4289882981544 9.36360095084704 -20.2632692687023 0 0
216.228769581903 -23.1445674775894 -17.4726670848134 0 0
-195.842341909769 38.7013004359286 5.40169211928607 0 0
-228.917651815771 18.0407583571769 17.311917854642 0 0
-219.935989723122 -26.3736918513962 18.8642758312461 0 0
-201.761057135221 5.58472462999825 -14.3350997560682 0 0
-16.6976692194658 9.12829752429059 0.0665865867967331 0 0
32.7542989230057 1.05792076970768 2.35929084812022 0 0
192.925716417352 21.6229762493113 13.6313494422305 0 0
-87.481048357385 -3.48609411460158 -13.4487568972671 0 0
-150.578208347155 21.4669292231317 2.42713807332453 0 0
248.424693158317 -26.4129869255009 19.4969210838329 0 0
65.5559034094127 15.0429288905753 -5.00037960097 0 0
-225.749460817609 -22.1613697027289 -25.8359355302869 0 0
31.5431367027639 -4.51367674117274 -0.18217720594063 0 0
72.3281415355661 -6.7727813569737 -20.7015630572061 0 0
241.528326188453 -11.3541484568707 -7.45079226897564 0 0
-66.9926317766597 5.49378560529327 5.16070899687595 0 0
160.180598703179 -19.4708944574942 -6.41184035839596 0 0
56.0922002639769 7.5740757517132 -0.147339956686147 0 0
-230.911154024312 -6.04693210085623 -1.56412680088012 0 0
-213.989909244364 15.9985377279297 -14.0702341074274 0 0
214.158237480293 -42.8867024906157 17.7572261358365 0 0
-195.506153146346 37.2639214142919 14.9610217848451 0 0
23.7094483991086 -4.79980115060425 -21.7992648769834 0 0
22.9747190686655 4.08533338156289 1.76163825602807 0 0
-224.240222664645 18.6738893685616 25.9689864006245 0 0
-159.494704682753 -2.74602520200843 -8.50794151932266 0 0
-226.327746020288 -44.7388915792405 11.6460484357738 0 0
224.715025378082 33.3279323062604 21.1295807496096 0 0
-173.447044772318 20.5747248831414 21.5645030495846 0 0
212.932947431913 -5.81594707770522 -22.2836881772589 0 0
-183.66861650838 -13.6026448194589 15.1601850285388 0 0
-207.671702495422 -41.3200079487175 5.06984356004455 0 0
145.751527772001 -12.8881825358426 -0.796369567411867 0 0
10.0998443822949 17.8240567803627 -12.4589789401935 0 0
-132.071339963654 -5.19996543131149 -6.89909768691467 0 0
233.161198757667 28.7732044617759 -6.5702065169955 0 0
228.299672888197 9.24661084360506 28.4091560927509 0 0
83.7220067515514 -10.0047613456707 -5.5447640198318 0 0
126.7523662758 -4.00501983280773 1.51914106762487 0 0
218.264383326564 -11.2661441388651 19.5325625187278 0 0
206.241478554763 30.7144701572848 -0.15353863139118 0 0
-228.621677481964 11.0999117039914 24.0138117863054 0 0
242.449069992308 -13.7870226760418 25.6763753447991 0 0
247.268984650975 -29.8186950282282 22.4261388427854 0 0
-108.123069206813 -3.47011732825324 5.59406212587716 0 0
-113.129327887131 -1.28708085044608 -12.4743509072969 0 0
-131.920630145374 20.5183930030995 1.48495639940719 0 0
237.75828309774 -14.2118223523104 -15.0750660013461 0 0
17.5533897739544 -3.54902814974683 0.641520588097427 0 0
-117.418186151494 16.4378364781811 9.91213126730308 0 0
-84.6333727377319 17.4074381918326 3.27694820498514 0 0
164.205212329046 -19.197404580551 -3.01986100309921 0 0
-211.702120563299 -18.2949162165961 14.0697640842161 0 0
-61.5020375179578 4.11225798369668 -21.2530834794662 0 0
-158.324175083255 22.509728168091 11.7445829609487 0 0
236.222372325004 30.5405194458853 1.08519718009208 0 0
-104.8099056975 17.6339676464418 6.75153804450798 0 0
-109.482096903239 6.43745190896017 -15.8718658817375 0 0
-164.093410176171 -21.3880873434522 22.2849743678285 0 0
-82.3264562470767 17.197509727322 3.00424821042615 0 0
-153.001430266986 8.29449616481888 18.5936936778261 0 0
-235.386716485806 -33.5966954702632 15.2936202846278 0 0
-211.679319540784 -32.0747813141915 -21.7648521877399 0 0
-86.0461565317349 19.2952531153549 -0.693871304691545 0 0
-30.2566152158418 -2.34734085184012 -21.3492946576439 0 0
242.833777605988 -12.4544521592611 -5.85296051994908 0 0
70.609252577707 -4.17500032534022 0.118857209512443 0 0
-96.6512159359957 20.0480773510075 -3.98501697337487 0 0
-221.024035433996 -1.90402684054058 -13.6035701584111 0 0
-204.320055741597 -18.4166157996989 -13.4564812191474 0 0
-118.561452199922 -5.86743966490215 4.080331469675 0 0
-100.177757451353 15.559016035852 7.97196696706435 0 0
240.896559614202 17.3104789530665 10.7334867669931 0 0
116.798543223616 -11.0661006982297 -17.4083783000017 0 0
97.2146987292018 -11.4823659458639 -5.78340840091648 0 0
-222.394714483093 -40.6114312293451 -22.3990405317909 0 0
-70.8669876881081 19.1563955005482 -11.9130972813088 0 0
44.9666715039017 11.9050352703926 -21.1245482300769 0 0
-198.851135369938 7.92355106652958 -14.2072578316644 0 0
-0.468940290370323 13.463692931867 -3.79691314239941 0 0
236.23525065714 6.03177151567561 10.4438191224752 0 0
58.5126870354098 -5.4903738050956 -0.205043801113021 0 0
-84.7444323046591 8.96252408706415 -18.4683796965521 0 0
6.55325401669541 13.8019882222846 -21.0910508774842 0 0
-210.713738365856 -32.4514525495669 -19.4645808295858 0 0
118.517662523327 15.9740509938383 -13.4919069764239 0 0
210.333080729896 38.1953333892431 12.2173054153675 0 0
-5.36566668742675 2.82295918959209 -23.9785612422904 0 0
133.571364252455 9.30311858396779 -19.9631219976259 0 0
-226.74404915631 -5.90782941620673 -13.8660060627292 0 0
225.37914177742 0.734415048575761 11.9277412781778 0 0
230.221024795913 -36.4860313023324 1.32237824042131 0 0
-48.9937430046047 -3.10210839116655 -18.8491735764567 0 0
103.240300679005 -13.5407286520235 -9.46701815243307 0 0
190.110349260265 0.176056772536144 -21.0443529442886 0 0
-157.892306428747 -20.1431228534441 16.7627089033925 0 0
-148.589330653621 3.8563668735969 17.1289327692748 0 0
-199.675583335921 16.0319393411402 -9.96627610843989 0 0
210.791965388081 -41.7453778820954 20.0411084404547 0 0
-184.936681903786 30.8394343970209 19.7589639815249 0 0
-190.15940662784 1.1326259186918 -11.6081195431768 0 0
216.130855142138 -16.559430579974 -19.9885319572877 0 0
154.292244371296 14.3201769048975 -15.5877666919738 0 0
-104.93930370716 4.10068340186456 8.63444811481848 0 0
234.048533942516 -30.749388811188 -4.04810374914714 0 0
-178.982386502587 -4.28947237647399 -10.0033102411804 0 0
243.276573904443 -10.7263925175494 14.687528302001 0 0
-184.851006088205 6.41699450129885 26.6519655824893 0 0
-202.915500954137 -26.737946298871 2.72435959147493 0 0
190.065708299935 -18.945166661319 9.92013758412269 0 0
-214.732030993735 -0.49488450377859 -14.8039781422705 0 0
186.345716797429 6.37516550610164 8.50789403201569 0 0
-139.806762096888 0.670353577150799 14.1527733089336 0 0
240.228184729482 32.7203548995837 11.7576195821426 0 0
-86.9136644330437 18.5260768170246 -12.5612389077058 0 0
-156.686927643858 -3.31821138215807 20.2137714385286 0 0
-40.151164940471 0.0739305726734927 -22.0747643596821 0 0
-102.630796988429 2.93604918640767 7.88921938334866 0 0
209.551208581366 0.57284367215304 -23.1063602604602 0 0
212.406024405461 -37.6268518734576 26.7572338275366 0 0
-226.599792312095 7.16522774001646 23.8137593563211 0 0
-166.291574542222 -2.36734245780831 -8.71850814000389 0 0
-178.903349395085 29.7044176150451 9.62559957634129 0 0
-240.996619782374 -19.1830782410936 9.79988242221022 0 0
50.9757989826338 -9.64058482930525 -10.6469550819537 0 0
-69.2111329733466 19.0160929170837 -4.30049636891735 0 0
236.476857731685 -5.10485906927977 -8.21463325353205 0 0
193.283582040893 -8.80712617401662 8.73817386546826 0 0
114.246904169409 -8.31148473583422 -19.2216468229243 0 0
-191.956010919664 30.4382469939079 -3.11731542466184 0 0
-235.714052176512 -28.7416806743117 -23.5707510759644 0 0
-216.238936416621 -10.237643423095 12.3032270243232 0 0
177.944399879056 11.2440809292063 7.9849483473701 0 0
-127.593915889222 -6.62181808966522 -2.38411964504058 0 0
-39.6896973669404 16.2531291837803 -19.1063511565555 0 0
-233.584559429675 -12.7920645345511 -18.8523814464725 0 0
-202.771270116552 18.8785702777326 -10.1390493173954 0 0
-165.294636209126 14.8785943354707 20.5574970587127 0 0
-240.175583762737 -23.7154386050596 -19.6722154750856 0 0
187.553976325558 20.5966563340032 5.80374350073268 0 0
-40.9917202986187 -0.236923455926438 1.44459646975091 0 0
242.646021995283 -13.1715318516539 23.9407066363797 0 0
216.090033018048 20.2771995031407 -27.300845070399 0 0
-9.24219928487033 -6.59327040063313 -7.89024798128071 0 0
96.8690403027057 -5.06268237110749 0.0635138883776066 0 0
-246.744733722671 -30.6779897371432 0.111213870651378 0 0
-218.56370138985 0.30287113499218 -12.0326269363134 0 0
222.968641465421 33.2711935885643 27.5291395417055 0 0
215.56286917191 -9.79234547888727 -22.1454893185968 0 0
-205.712032331067 10.7252198437483 28.6718564301658 0 0
-196.287414863531 1.25268762337095 -11.794682546952 0 0
-16.4907912332769 17.8794989077214 -10.0048648430184 0 0
205.392872286366 -34.2987118429873 18.7957969576626 0 0
202.653275968751 21.6201927996843 23.787325130994 0 0
-139.08358939 1.45606935769225 -11.9000270939982 0 0
-197.194659852318 0.738118278829616 23.7001331118241 0 0
-199.410249178967 -0.749862701677238 -11.567880022602 0 0
150.845408561614 16.763647421259 -9.06752550327254 0 0
-5.99524041437974 18.1561660210474 -12.5335493951132 0 0
28.8374288613707 3.21032544980816 -23.8528137093512 0 0
-104.392176131246 19.7783664709567 2.32132925974794 0 0
-220.690458384501 3.01694864003925 -5.28115766345017 0 0
235.416476487882 32.0972794487455 4.84936988506669 0 0
-114.56947567859 19.295410425865 -5.04035818348691 0 0
165.073962107683 -17.5664198295185 -11.7012731727472 0 0
153.283209798785 0.688474975274566 -21.3879390398855 0 0
14.6595477968326 3.69905329838432 2.5372376376218 0 0
178.298449011263 18.6802811003602 -0.29310389632089 0 0
235.385361888434 21.9775923470272 28.2753203563578 0 0
-32.2703100166333 -5.35424769436374 -17.8244720805747 0 0
-164.385118103839 -23.3577750775143 14.1642179015297 0 0
41.5982318952979 14.9521583841633 -5.84133883925649 0 0
-23.7269607249665 1.52599993977663 2.63123839285931 0 0
-1.56407374346063 -7.40738145667514 -10.4169576692472 0 0
210.356392765171 38.2320081813243 10.2690900338405 0 0
-198.779763439982 -21.0283603767811 -6.85203261023657 0 0
-133.237870277703 -6.54232505682485 5.12458807975287 0 0
247.519482296424 -18.1187148217483 2.7885124623394 0 0
237.085440338617 24.3779102724052 -11.4722871601849 0 0
39.0201419573426 -9.24447202415704 -12.6524178789298 0 0
237.309942249418 -34.7822024538728 6.05846792372378 0 0
62.5485849737941 13.5065543642736 -19.2684426098945 0 0
-132.189441761199 -2.29111509087961 -10.1495952983006 0 0
-187.850621971881 -2.24336813998632 21.5335116247157 0 0
31.7730446016697 -3.38908154919109 -22.5278537659248 0 0
-209.847595915888 -45.4686314673529 -4.25514202839227 0 0
-243.463845387372 -33.0669391738029 7.51978755088514 0 0
215.440739279627 -43.1944931741175 10.1864075385199 0 0
163.089162927256 11.2355768901281 5.55776338679935 0 0
210.861663847335 -13.3804723187547 -20.5103547354432 0 0
148.665673929448 -0.477992967657406 3.59429339347913 0 0
-209.302539484581 9.06186818790408 -15.5048244399713 0 0
164.346024352384 -13.9140936544174 1.52319510827386 0 0
-222.370043328174 -31.2643428955591 18.8800254875259 0 0
-52.5738759767002 14.9252042982933 -0.373827249994708 0 0
186.639839885231 -5.96204842372637 6.39967190125518 0 0
-5.51914591694777 -3.5940922137992 -1.77847459451489 0 0
244.642939044623 -31.0404776020052 27.9187652344115 0 0
247.192047215576 -19.3860558907147 0.51268266879747 0 0
58.3010840042865 -7.81491634020575 -4.94786317435773 0 0
-214.281342893935 28.9222647425002 23.8561159599497 0 0
-191.866416025327 -8.72162644736704 15.8794063889307 0 0
140.31450662937 -3.46070392162669 2.34157909248458 0 0
248.172036733322 -19.9122639813596 4.94861283491939 0 0
-78.5913771922037 19.7562061409062 -7.4121305294931 0 0
219.785489032576 -13.4964986171337 -22.4850266125813 0 0
108.51193267406 12.6503418453763 -0.484301586125735 0 0
-25.3568902702939 9.80709124596761 -22.7308811194278 0 0
188.892805299488 -3.60350214328373 6.97689802141348 0 0
209.209118829379 -40.8410689233771 12.8776721696396 0 0
171.930892410489 -20.2653242646277 -6.44469292891322 0 0
-60.4466019896789 18.9679536451859 -13.5261687524199 0 0
-208.91534624927 -24.792890764008 12.2333491541821 0 0
-171.072378256474 6.93235385786662 22.6600496856619 0 0
229.903091537959 35.1583445804267 21.1744307423105 0 0
198.758536330356 -15.4484388259944 12.8607237905539 0 0
98.755477917508 -5.75639727990337 -20.6796772697788 0 0
233.687336173244 -32.8001837084253 37.3206271874943 0 0
145.768538985948 16.9123020981535 -7.79409658426218 0 0
-200.487356122232 1.03652953711665 -12.3913673838154 0 0
192.032131755765 -17.0487108229483 -13.4473913857197 0 0
-242.114551975286 -25.1963930441215 10.5502429525076 0 0
-220.295167273002 7.15428796890191 -3.9786493136889 0 0
-127.208477634678 18.8090639952964 9.08006368614639 0 0
-198.413534351912 35.3974032921243 17.9191210878565 0 0
-111.099419479738 -6.42450730665351 -1.65773187179608 0 0
245.630118991953 -19.9366022787269 -4.2224667848815 0 0
127.274054160386 16.8743463790825 -5.30936731865103 0 0
221.057001906344 -6.95799213013207 15.3308566545693 0 0
230.292023724634 7.03554121921962 24.1382017164495 0 0
-77.1488588158518 19.2764972715426 -3.1116003274754 0 0
97.4604587333524 16.6975420575425 -11.4589668378931 0 0
108.63308434006 8.47002639724625 -21.4472989618453 0 0
-151.507042873547 11.7025200948861 -8.91089037807537 0 0
212.601274489275 35.6062743943499 17.7509399367957 0 0
213.222032094321 -32.6407432259495 31.1728099324119 0 0
-245.287020871612 -34.5085281291194 2.41101014955077 0 0
241.493205681486 -25.6025037301324 -8.23882305615339 0 0
-245.206107970766 -29.7287871102135 -12.1899963635226 0 0
-206.510703640101 37.1811728478767 9.7956292054279 0 0
230.881996045511 2.23102235857169 11.0137894380084 0 0
-148.209694251866 -7.79304088883013 14.731501340748 0 0
194.99465639694 -23.4888339939192 -6.254376620259 0 0
-140.603943867609 -7.36237705051428 5.86003279722286 0 0
46.4771851588321 16.8298973109954 -11.2447666623331 0 0
-226.812254599179 -49.0843374808385 -11.2709673682638 0 0
112.947168538768 -2.79130020426912 -21.3342425953686 0 0
223.863394114242 4.57059733684109 17.830914220863 0 0
-216.187710712697 14.7147503203652 -11.8894674485298 0 0
-217.909031022285 -9.02520477392037 -16.8634938571246 0 0
66.6662296190503 -9.3141209284515 -18.487024090842 0 0
-181.487269553101 17.5182472367771 -5.02497719430001 0 0
-209.955519504419 5.64639518874607 10.736605980961 0 0
222.940156215083 36.5852446280329 6.22254137946671 0 0
76.9159121524144 3.29119639835989 2.51435506801624 0 0
-110.257880030464 19.5639025803966 -4.92866658853333 0 0
227.158881568129 -11.935631686425 34.3142760458521 0 0
134.794950832506 10.1258855003408 3.57010446253905 0 0
-204.293876099831 26.3701963884087 26.2964231032518 0 0
237.142126538768 14.7186111853622 -12.8557291657884 0 0
-134.383771610918 9.6730336910463 14.8609934749118 0 0
-178.323912483884 -17.1864845237101 5.40924319337409 0 0
225.45536937945 -36.196005368304 -2.21787203058067 0 0
-45.7884281539429 1.81604269964806 -22.2503838489138 0 0
112.970037361456 -0.602274504073452 2.43796425336966 0 0
-71.4276464767364 -5.91559526450465 -13.3413661651488 0 0
-82.1911697435207 -3.19654210014417 -14.5251470793121 0 0
-31.874197380767 -7.40326462653448 -12.2145244573822 0 0
-222.389891235067 -27.8503079064299 19.241288576124 0 0
-215.486563155037 -15.8847361884827 -21.2215798269908 0 0
-202.363326256874 39.1619870488917 9.49732885519439 0 0
-185.768127625128 3.79062801192802 -9.09235798992693 0 0
-200.285891869487 39.4140330753835 8.94263111256106 0 0
205.909097803378 -38.8004750558761 15.6148323515129 0 0
86.3042029910618 4.65159831889548 -22.8062867940256 0 0
209.734515595355 -35.4442739807011 0.516216991152957 0 0
154.019652521847 15.9182884834898 0.926144713743921 0 0
-203.550743975388 4.92155444369376 20.2607485825221 0 0
171.32825898255 -19.2971723604605 -9.16487124075478 0 0
-34.6943158603499 16.4509289385365 -4.62645601401941 0 0
-181.91826980179 1.96670853349563 25.5607851334448 0 0
234.534505598902 16.1161461622236 -17.6928244681543 0 0
-67.8112255889742 9.60405632605763 6.50133705886917 0 0
248.830343397898 -27.3539647766011 17.3762797850518 0 0
229.657727161202 -14.7345711713215 37.0215947594369 0 0
94.0614065307943 -11.6864959440026 -6.7248134282392 0 0
216.293058456347 35.8188908612809 20.4656060610543 0 0
3.08960217979582 9.94482586298342 -1.1848452998844 0 0
-190.989163583836 24.9269915760323 -3.79275816141405 0 0
174.705031858256 0.974377882188438 -21.2345079256571 0 0
-92.0197690415819 1.83055437981737 6.54646573834647 0 0
205.847434486232 29.7004776584464 -2.02210971244343 0 0
131.478615521654 -5.17008364523305 -20.2651653938605 0 0
-234.091067353044 -14.1477433232743 -19.6901249929454 0 0
-197.342918316399 3.02521682926751 -12.6660402303032 0 0
-205.655558755362 -13.2666366340345 -13.9062153960125 0 0
-191.560267688767 16.4040209664303 -7.14712166782862 0 0
205.275893854145 24.8063806721534 -13.3678326478151 0 0
193.121349777292 -21.2542328749122 10.1234372657178 0 0
212.790774224878 -2.53642138126026 17.3112095329582 0 0
-51.7331766027937 15.894720931372 -1.69625329105787 0 0
-77.1143928365292 -6.8139782022605 -5.16769812000008 0 0
-190.195995507975 12.5837389175301 -8.10240944957835 0 0
206.192463997432 27.3579439525042 -8.26629036779181 0 0
-47.3280028123141 -5.16927883768282 -4.08669991627298 0 0
239.170047275966 -10.2273636355945 22.4656462182366 0 0
86.3030918290997 0.171961868259358 -22.4867611622619 0 0
-32.673113305919 17.7815293009584 -7.47431531598997 0 0
-120.345829040805 0.365946704111409 9.24635866768469 0 0
181.522083263037 13.5076840179381 9.10034503636705 0 0
99.2712302421424 -0.741484437818369 -22.2650232851196 0 0
-130.149192403617 15.8385131579108 12.6802314200988 0 0
-197.453048194239 27.5297022911326 -5.45847957351771 0 0
-229.716620730919 -14.7068266640405 14.7852555414335 0 0
-53.4296046555119 9.95388454145376 -21.2766347630869 0 0
147.475372634866 2.52669966642695 -21.7864791399404 0 0
15.2072661111364 0.678678243505841 -23.8471810042155 0 0
202.397134534113 -33.2646850215943 10.7082226457192 0 0
-99.0344127353849 -4.06048786429458 1.98833957431631 0 0
-199.427125279043 1.83380465483919 16.9505723004048 0 0
45.7429326326651 4.15452528195755 -23.5484164984492 0 0
-170.560873497893 12.9907601052171 21.9516311742008 0 0
32.2334627737061 16.9466875986309 -15.4181310862793 0 0
212.774281018675 -42.6092913954576 15.6872093196213 0 0
-154.245721200753 0.740131161353582 -9.72107492481805 0 0
231.001315419378 6.34379240372319 -16.6146702280667 0 0
-49.635378634957 -1.28156868682949 -20.4330520352055 0 0
230.534396876931 -8.25635930922549 15.6263574294901 0 0
-220.272389822328 8.87399407238194 -0.796904620230938 0 0
230.125644275607 25.5052300238139 -17.5468087878943 0 0
-163.106689607173 -9.03547019278317 3.29975482027981 0 0
-156.04520054473 -16.5657910727014 14.001367128062 0 0
-85.4939273343213 -4.994900400217 -1.24352394347203 0 0
-207.904493446538 -37.176660699275 8.50449457775697 0 0
-22.1362568505221 18.4924618841221 -14.7116339150088 0 0
193.624943210645 -3.43522359577846 8.45695554569496 0 0
-141.016741994254 20.8549973886582 7.0141657123231 0 0
