"x" "y" "z" "f" "a"
186.205617316119 -8.13634611304753 17.8353033582775 0 0
145.170962629268 16.4121777499467 14.6381322631486 0 0
-208.906695913011 -9.57138432525164 12.1455458138243 0 0
116.930469308441 8.81173171609449 -8.24836039465126 0 0
-96.099932930228 18.84911671155 11.3221469158566 0 0
-19.1572987738735 -3.31123517708522 -0.185532435243962 0 0
-208.125578809048 22.6088375837131 -23.3098825602884 0 0
23.8727642958879 -3.61834711771272 18.8024271559793 0 0
-168.268267188039 -13.4147797635884 -18.0852632844369 0 0
178.198658989157 -15.1156296606766 13.8675815066825 0 0
-218.36165104623 2.15378115068511 -4.39504884397756 0 0
-60.4674451306183 17.7953967225429 0.59628337918729 0 0
206.637281268577 32.8873490166032 -7.85947936034627 0 0
-188.064646720568 -4.72606874501764 9.68570580832685 0 0
-49.1863223837128 -4.00173026366162 10.2394887252881 0 0
199.691775895991 -19.2107881778511 -19.7931182335532 0 0
-129.860311576158 18.6512620203175 -12.4222874525004 0 0
-200.272068101881 23.0896793499668 7.85838104373716 0 0
166.476373265937 1.42564290947435 19.1398081594376 0 0
-208.149009906662 -3.01091028016893 11.9186320389001 0 0
-220.775912893816 18.6838089913355 0.88149859743999 0 0
-99.7671044439071 7.63804224801708 -12.3722697638036 0 0
191.697830537412 25.6560763634848 -17.2265512844799 0 0
203.674566806782 33.1917780481687 -19.9479373979939 0 0
-135.219546081528 20.8351471602541 -8.75240619758008 0 0
13.8017003104589 -5.16833585895392 6.35556441376502 0 0
182.166801996774 -20.9395168560799 9.87010836328406 0 0
-227.912728158477 -8.41467519323144 13.5543708315978 0 0
-41.5277277642888 19.5358709041186 12.5694326272113 0 0
-196.439705931176 17.0298299584283 8.99410704007228 0 0
132.366216179282 15.157975095573 -5.67524827405842 0 0
-244.209140673869 -26.0479975058114 2.40329519622694 0 0
-137.817929981536 4.53282399455491 11.6272763723677 0 0
-71.5954225286674 -2.01826825701972 12.6672059374966 0 0
-179.963004580698 -17.4111830633402 -1.01915027124024 0 0
24.8088386846692 3.3230943856324 22.1329312742521 0 0
79.3444830344974 0.698226910869917 -5.21019748198696 0 0
-202.069521094918 -26.9773177630402 -1.25946894692466 0 0
201.29133209987 32.9133034663411 -18.6167591757926 0 0
211.386633492478 33.2990331578413 -15.5776609467552 0 0
-7.77605187021754 -2.59746662660072 -4.25375874536197 0 0
222.561358010383 24.3975505130168 13.2956991289558 0 0
-203.707162871084 -0.323307339930416 11.0100457002429 0 0
-190.423402927484 -15.0464045737834 6.79421905135006 0 0
198.90134668218 -37.4588022724289 -14.3854878124447 0 0
-76.6146007337754 20.6272337784192 6.16670701612693 0 0
-126.592109792505 4.59281155377495 12.7957796033201 0 0
-72.0945209030198 19.7097389061718 10.8074609270883 0 0
216.964876397035 -18.529581404649 20.2566452587386 0 0
-172.794204927349 -17.211288265713 -4.908839766799 0 0
209.7998885579 -39.7657419588832 -1.80679880517663 0 0
-51.8274877312946 -0.407971632026401 16.7513889227191 0 0
171.089443952601 -14.6367393229263 -4.82916597834531 0 0
29.2621673723069 -2.83628820443662 19.5598451623886 0 0
200.127750270349 31.5820792131764 -7.54292272377473 0 0
-199.865896875498 20.7065863042299 8.78648535256997 0 0
-216.739630947144 -14.2339414372119 18.5926302398043 0 0
43.4394176960466 -5.19739804138513 17.9362969875496 0 0
-45.7914959601396 -4.00802288093414 10.3916576783193 0 0
-214.035728067845 4.66578400267516 -8.20827079217243 0 0
-208.054484827717 -37.8842990939748 13.3263749766986 0 0
235.411412242609 -27.2715884687348 -11.1433676619929 0 0
78.6072917779414 11.075069458474 -3.65718189337869 0 0
-173.304080649831 21.2277367192714 -19.281372333678 0 0
51.0124703068711 -8.06632301672457 12.6666169265567 0 0
-160.844808152618 -6.75901130223007 7.10296908112078 0 0
-205.17897396903 -30.8510109769095 5.35971928242795 0 0
201.423912149956 -37.8344024791591 -1.13007348259481 0 0
72.6211318135233 9.49440151367327 20.7335206830531 0 0
-207.034945709871 -35.368449034874 -3.32897286991262 0 0
214.021714329279 -38.0195384082635 -25.4851168996368 0 0
223.833418933026 0.385930972960701 -2.50608790439082 0 0
-194.314389507083 -22.4092233997817 0.0768138464564779 0 0
-186.387653295095 -16.6852801087742 -8.41232966649478 0 0
9.02129251888035 -4.41326603281404 16.9389049984529 0 0
-58.6410330310915 13.1969397615656 19.677594359335 0 0
-187.894019695205 32.3120307853644 3.29997775281654 0 0
-222.807850956835 -5.92191035999744 13.6674540794212 0 0
-53.6142750027958 19.9865974816763 10.5640453885003 0 0
78.8332828499 4.32653587743843 -6.80172481090283 0 0
-176.433249283078 -17.6237189710036 -9.90628513365024 0 0
-70.3093530607198 6.4935921644118 -10.9854994538372 0 0
197.783614583216 -38.2277895428706 -8.76925036599095 0 0
-186.33789408356 -2.81072769213187 9.92066189395529 0 0
-196.742891711752 8.16121155297428 12.1908073673012 0 0
137.835055786167 16.4067329324471 14.000935961556 0 0
194.677442490433 -30.9148825277128 -11.7782570709723 0 0
-212.405687535905 -1.99971364159815 12.4176603013647 0 0
3.71079589092515 -4.75312469935691 15.4233857311754 0 0
-210.929095684994 29.129565506345 -15.3047693625575 0 0
-142.824157168518 4.27017265066098 -14.5466843770066 0 0
113.924546847562 17.3152913400346 1.91399131097797 0 0
-182.412461744927 18.463105553698 -22.1712196043189 0 0
61.1935122815105 -5.12752804610566 1.95091285061382 0 0
86.1839668194998 -1.29064783680848 19.9556717700743 0 0
-96.1149060729553 -2.85960893327548 -3.89633375522073 0 0
-61.7781042433726 -2.88526716394776 12.6381212530825 0 0
211.744550138364 -24.1224528766318 15.5623277434397 0 0
-236.403216407299 -43.8226418771325 4.26027841147856 0 0
-228.338687022705 -5.43935814753532 4.48802190751933 0 0
199.903300234674 -2.67462797621348 -14.9680291260665 0 0
-184.483221118885 -13.0136798875665 5.83394260086088 0 0
-183.335581976168 13.7016301732854 -23.0487208677531 0 0
-110.7252719802 11.9434316966891 -13.4127296151689 0 0
203.978581069226 -12.1860551973766 22.3400532731538 0 0
-188.948829067741 23.9556842221973 -21.9559273646242 0 0
189.670151886223 25.2567357828246 -5.98470119149771 0 0
13.9831049441541 15.1215808261907 3.14262922211077 0 0
-192.998461953181 11.7900588093935 10.9274863638621 0 0
-201.402482540962 29.6861097331962 1.40776412032639 0 0
218.355160700507 -35.3094667824992 -30.2423368492065 0 0
11.5409835558475 14.3730429750306 2.14730867888596 0 0
32.3287595881686 2.39416196902163 -7.49783738204956 0 0
-195.261673375344 -7.06630931842769 10.3146465334738 0 0
215.09827765922 7.27193353921393 -28.0981740304242 0 0
-212.569228748233 -16.3221913903857 -12.2243433800694 0 0
-193.805549461462 32.6626197658973 -14.6232760558945 0 0
-148.919035437841 22.7624594977568 -3.68550573455092 0 0
-183.014174256564 -12.9385907779195 -10.7822654030122 0 0
-230.58936454227 -8.61507480177234 -2.80495334771785 0 0
228.388609284318 14.6530327994984 -3.4228717144393 0 0
-166.699746888712 2.15089990744987 8.82455305230029 0 0
195.124320365902 28.0573294834128 -21.6891430999403 0 0
-146.275448912886 -5.51074631775095 -12.7688939701031 0 0
163.920685983542 -13.4892689687399 -3.36694995061293 0 0
46.9346611480739 4.72667720110838 21.6992141401586 0 0
9.78794598970513 -5.0827910987934 5.91095581657879 0 0
-239.767120801842 -15.4577845206921 -3.69801510765359 0 0
-96.5218891843005 -3.68519465991246 -2.00665436307568 0 0
171.775043669811 -6.72265827279581 17.2826101245373 0 0
-50.0191095666613 -0.429062726876573 -6.54489798317234 0 0
-188.824550390192 1.81683494182016 -22.2262422528691 0 0
226.764250989647 16.1881902281978 7.46884147503906 0 0
-220.048647420394 15.7269238430115 -0.839601956673065 0 0
-192.259799091567 -11.5664234762879 -10.4899936437625 0 0
-224.170518636307 -6.98110319808249 13.7871574076591 0 0
228.596183302377 16.4961344553542 -10.2307010547244 0 0
-236.670792678597 -42.9739844233795 6.78791044249145 0 0
223.820731617181 1.60004954095489 3.54313640188121 0 0
40.8175524540814 -1.75787366312014 20.3026744753265 0 0
-85.7196697233203 8.06294754442266 -11.7575419941708 0 0
188.205696297973 -7.36028619003848 -8.90798030406188 0 0
229.150058421532 24.4125079382649 -16.507168475952 0 0
156.650494628394 -9.71900457728799 16.1375145457445 0 0
-64.3913631465734 2.22177248481808 18.207018651229 0 0
-208.633411250351 -11.9481729050328 13.8954981879785 0 0
215.860646385638 22.5949868134898 -35.3252865986046 0 0
-207.434160815475 13.4710453518927 -26.7431099834678 0 0
-192.626887156218 36.4286358227318 -6.69872065867927 0 0
152.895388057634 -3.97497457961706 -4.66405900683771 0 0
-217.607469887178 14.1487074698927 7.82551699817126 0 0
-121.380756363443 -1.3241950086148 -9.79750544971443 0 0
-136.638949040127 5.33937089420888 -14.3093402038925 0 0
218.047958649564 5.05841607628519 -20.2410659002905 0 0
30.9882202989828 15.2308880223903 17.5313513716162 0 0
197.780054558545 15.2950043377165 -30.6231612464833 0 0
-209.584605007408 14.8012945318938 -26.6274955014167 0 0
185.045502786037 -9.46127963529718 -8.24570792627733 0 0
170.573624929669 -16.8418028605254 -4.16646972705316 0 0
78.6027497225728 -3.13216932534872 19.4718548985551 0 0
177.909520782915 20.8836878903147 -7.28381893810303 0 0
175.321745735179 15.2249011203538 -12.9113567821918 0 0
213.12241990004 -15.0892286471985 -24.057758862369 0 0
-172.780208367197 0.903400077648857 9.75086318757834 0 0
-230.398217410067 -9.24199216100571 12.9332655729048 0 0
-189.276321743527 5.19464515010288 -23.8321625170111 0 0
223.374053591268 -11.69223403981 -11.4151604144206 0 0
-78.5674264994729 9.57528338755675 19.3676423416687 0 0
195.474822701903 26.0856070775995 -23.5404790125449 0 0
-173.975663805139 25.016171957488 -12.9273644641026 0 0
224.527404568862 -34.4890839755888 -27.9938069915593 0 0
-158.048749767102 -12.3609320039712 -5.16185760050425 0 0
92.4069278992304 1.44289268217022 20.5468889157025 0 0
-231.895801481553 -16.9726376135526 19.6774867031614 0 0
48.0850278431056 5.1701802729944 -4.72535664112503 0 0
200.352179380018 -39.4779347641486 -9.23321273062826 0 0
226.176597063316 30.737680733309 -19.9148176786704 0 0
-66.9459399849364 1.71005824803276 -8.45520665470744 0 0
-219.605297187072 6.33056850795143 1.72498415514775 0 0
-137.724463597893 21.4320412070738 -6.75484082600072 0 0
212.892787911893 -34.1121994489442 5.28393053562383 0 0
-125.189297178 19.0390993630367 8.11462636095308 0 0
218.879193572169 28.8351310412286 -17.6196409452675 0 0
190.127100641631 -20.7299043093772 -11.6414954533961 0 0
217.486577681946 20.7317219998127 -34.7373756039811 0 0
-108.48991412653 12.9267197777228 -13.0070695595263 0 0
209.993311964376 -25.8615266158385 -32.2957882396372 0 0
234.698813004239 -30.3148311192878 -12.89810748471 0 0
199.274025127307 0.630171942112372 -15.8847617820238 0 0
-218.09716291561 -40.7181892266433 -12.7389376196298 0 0
214.94555741991 7.28678034042355 19.0926097878081 0 0
191.876575112396 -29.1218286919087 -8.43170596916713 0 0
-219.659332066673 -41.5946911922135 -12.3808643299935 0 0
185.086113705186 3.55928099422476 17.3193854060127 0 0
227.416678426746 -11.19356354071 15.884616103563 0 0
-106.514478458661 -0.66760141392421 11.0162654064856 0 0
-239.856686334815 -38.256775126066 10.2265356819027 0 0
198.276464555285 -10.0893856889079 -12.7736313683218 0 0
-210.873985742069 -30.8150089680691 19.2992072956452 0 0
225.631358787933 -5.28416262781741 9.00142517858724 0 0
196.697186086704 25.864775910545 -25.3934542533965 0 0
-223.925365902468 -19.1282021656403 -16.1323971339992 0 0
-206.144007357388 -31.6861654164845 9.80055909702427 0 0
137.5165328504 6.05690564213551 20.3209461410454 0 0
-231.188618335709 -10.3965937019033 -4.92895483930631 0 0
-188.772937490103 0.421243368796696 -21.3406955977708 0 0
-141.879429572706 20.6134796623455 -10.864005879019 0 0
218.551653071924 27.5096731817061 6.84497351507915 0 0
195.778816209566 23.9024010213969 -25.7025045253644 0 0
-27.9673898504834 15.4901110852712 18.8629304081117 0 0
234.056979019543 -16.7385878182532 -5.8978225101442 0 0
87.4592134187196 11.9906436180807 18.9726510414991 0 0
227.513087197981 -6.01371210927686 1.40995051272646 0 0
216.392400697305 -10.1616197484454 -12.1139666093448 0 0
220.42998057689 -38.5553469492726 -10.9829238938108 0 0
-139.256496789999 6.80281404008426 11.7263813885956 0 0
228.938581007584 -27.4355635196078 6.54309892629617 0 0
87.7965448982425 -10.2493265101996 7.80754385206057 0 0
197.507542529219 25.890464076396 13.1707944731614 0 0
-216.16100243268 9.04693461887236 -27.4657501826434 0 0
-90.7569511913298 -2.12827027595286 -4.60828307612934 0 0
226.120417854043 19.4414121524357 10.0037080951246 0 0
-107.529139696516 3.97478486050259 14.8026190213062 0 0
231.421928433186 -13.8391764737067 -11.0318453288482 0 0
-93.9904779582763 -3.75682663562932 -1.15650187669715 0 0
-166.664109970501 13.3625962960746 -19.7862019355325 0 0
-121.252372670131 19.3303376646176 8.04197728750601 0 0
-209.266560955366 -42.9120756201075 -1.1564499020101 0 0
-212.976995728755 24.3957966320397 4.39404868763054 0 0
203.058198916961 12.5912296432865 -33.3490742843635 0 0
-233.268130711376 -42.1883820168027 14.2647093952924 0 0
-184.032868156116 6.0595647342101 9.17629671424614 0 0
35.065313094961 11.7530467259582 20.1760584281003 0 0
-207.231131604725 -24.8676453712695 -8.60104791155651 0 0
189.176893482578 23.9845002293376 8.30580818985097 0 0
16.1787837214041 11.7394061837256 20.8338454578793 0 0
3.87713460367202 -1.1042461287424 -7.65679748912345 0 0
217.413695548213 2.29144236702887 -13.245736964144 0 0
-163.712102884091 -7.10390767617423 -17.7924332449205 0 0
223.319443853813 -13.887192042088 -23.1339581091895 0 0
82.536530764802 -2.42063503899511 19.7002215053422 0 0
-107.620266457536 2.27581042750842 -10.5898919202028 0 0
198.240728528059 -28.3966429020144 -16.6585502946052 0 0
211.648145410069 0.291775399203264 -14.2628771503867 0 0
-204.016700894198 3.70097509054793 -19.1677251959025 0 0
14.2468851313761 17.7501929034879 12.9810795897417 0 0
-109.512041540947 3.87923535459223 -11.3383187449109 0 0
-171.006408543258 -9.74829645000555 4.47286323279119 0 0
133.452632658672 -3.64985565860491 18.2835760159183 0 0
-109.006943217781 20.0233944852803 -4.40534199206704 0 0
167.190433907872 18.6721247402404 12.0192400229037 0 0
234.355908826003 -17.519297513456 -3.26455390584139 0 0
-205.697007577392 -31.969546295159 6.97052736822924 0 0
-205.918120919824 21.1852538239637 -24.501884414049 0 0
210.958590952629 -30.9699800543074 8.82444468299694 0 0
-164.046561780335 0.918471182760092 8.85822123809122 0 0
212.736433048121 -26.0637409154944 13.5498284916657 0 0
159.022562513857 19.350292210909 3.66213710647318 0 0
-228.371882005931 -23.7577707012361 -17.2425153825722 0 0
-220.505404846437 -28.6411197833117 24.1235771962 0 0
-174.707497707092 5.41435588191306 -20.4473427953568 0 0
140.263218477458 17.4731893099512 -2.11995912008464 0 0
188.232983951554 3.330688262724 -11.8173626504545 0 0
80.9373358034168 -3.84085983995801 -2.25735974075938 0 0
-192.561087873289 0.0674925213886994 10.0606680229137 0 0
217.35905995948 -37.498015178231 -20.7356825437378 0 0
108.71463752323 10.2467671816587 -7.14329907836675 0 0
-217.914762708472 -6.64773064580804 -7.77981818637797 0 0
-183.552043120204 -18.7239119274845 -1.7164445885828 0 0
9.88976205927574 17.3701820315103 7.17319296638639 0 0
-168.136993802964 -0.238890314929701 -18.6504772327448 0 0
-148.265716428051 9.79482984753787 -16.905214920598 0 0
30.7209180801793 16.7615430663401 14.6759968778432 0 0
-75.4342614160405 14.6762426011202 -6.18587186635589 0 0
-134.154463593443 20.0299637393383 6.27465222959641 0 0
154.157292763343 18.4399738252924 10.2614346347762 0 0
-192.103273251203 -21.6906724561655 -3.00316232301474 0 0
-219.084175382931 14.2306898675357 -24.3543227829291 0 0
-234.125445976342 -36.9434513615606 -12.1067271027033 0 0
-193.281092731099 -11.3393723413024 9.44515081994876 0 0
214.863647109665 -21.2376143133546 -32.7182359076104 0 0
158.275370127066 -2.92861232508015 18.700086142928 0 0
9.86884024337676 18.0243271281088 11.040258673058 0 0
14.0172521995433 -4.45184303602077 17.3185280548189 0 0
-218.294475689912 9.21674948815224 -4.48271073389006 0 0
118.52152837746 -12.4988005726431 13.1414252120931 0 0
-187.921451424731 32.9674633346713 -10.2160237247231 0 0
-80.6486287149888 11.2571926344646 18.9064361499406 0 0
217.341473582931 -29.4817695219652 9.59487182687067 0 0
-47.5748888509415 -0.0997534085479152 -7.0826750301501 0 0
-197.817528006585 27.6471226328367 -19.7827087527076 0 0
222.152391315418 15.2257177255104 -30.0194921697978 0 0
-186.176042165249 25.4068595618057 7.31654772956566 0 0
-191.987024414465 4.64579969701898 10.9880534719895 0 0
-158.868889923744 6.18350495665777 -17.4813069502618 0 0
-198.053605200405 2.27206526350626 -20.8287107825742 0 0
-55.5941359460241 17.4420180885444 0.71619655087106 0 0
-111.032357727824 20.7095291697167 -0.596132022018478 0 0
-95.3906737817676 4.83682469528456 16.7721193085197 0 0
-228.916996681819 -14.827208917272 -11.3857306266228 0 0
-225.730088494932 12.5915994159161 -16.8193673482338 0 0
224.048896645937 -8.43278394338447 17.8885914359597 0 0
193.466321990724 -25.7702962720707 10.2112025357993 0 0
-174.364008724524 0.73368865889739 -19.8472142548381 0 0
169.371207129179 -19.6617829382165 0.950468510724667 0 0
35.5438494896371 -3.6182150917084 -4.50926785094454 0 0
-179.673134431162 -17.8999034078466 -5.44919712950935 0 0
228.392821991947 -12.8221628136654 15.0006702947483 0 0
74.4213392689283 -2.10755589858925 19.9203006554519 0 0
-82.383074826971 13.3540926292831 18.0551961460423 0 0
229.93757599102 -16.6801916262615 -20.2322530961786 0 0
22.6323709500098 17.5993928135755 12.1848101937023 0 0
132.094779967057 3.84099862912257 -5.88141100021805 0 0
211.847172907224 -4.04589517290411 20.3666056561178 0 0
233.396193175197 -29.1020979195809 -18.9354440848693 0 0
167.906714127002 -14.7585675629027 -3.93871824602703 0 0
-198.924411486482 28.7608542459379 4.56159150940314 0 0
-14.6055371974112 19.0572323825137 10.8355215918496 0 0
204.372588079584 -31.4901319631099 -27.938767438392 0 0
-192.184957529136 7.17210905397739 11.0565391538233 0 0
-140.924566460148 -6.35935955957933 -9.9155597840603 0 0
-119.088702991106 8.75638798990089 -15.2576395604451 0 0
200.349959839081 7.91820839137811 -29.1688502387512 0 0
-53.6605127627819 4.71542879100911 -9.11953185535317 0 0
-65.313829431935 10.6324774912671 20.2199076391851 0 0
-191.130933488829 -7.9800794803841 9.67805010274298 0 0
29.8449415576198 16.4553701603423 5.87752070283411 0 0
-74.4097637163951 -3.49946011838813 0.966477559672371 0 0
122.811550826784 0.265671537903662 -4.25207187641656 0 0
227.819023939235 14.8923627684212 -16.408897009095 0 0
74.6614238034045 9.65491481849395 -4.04230470120595 0 0
185.238939628275 -6.12375544116528 -8.58028948232729 0 0
-132.678373863798 5.8429079059889 -14.3825921986079 0 0
-71.1325952692796 18.658626766128 13.4398473799976 0 0
-48.6116338023046 -0.424855977850664 17.1336718778299 0 0
-50.8711672739272 10.2718729205806 -5.18818342842111 0 0
-72.6126193078088 -4.05003305774465 4.88836305049253 0 0
-150.300723704558 21.8045797444638 -9.75337283291467 0 0
-237.676312037326 -21.7576283968914 17.5260999237847 0 0
204.04330781203 28.6263912303842 4.55296650120715 0 0
123.53250142882 17.3982114565961 0.461276134330297 0 0
0.292703681788325 2.60352722250168 -6.9416279051235 0 0
189.638988508702 -11.2961266545487 -9.63927292593163 0 0
-211.565855230894 16.9829288354156 -25.9918652376659 0 0
-215.492506484035 20.1105624551316 7.10194911425683 0 0
-199.991606915113 -6.56790139226935 10.9462269337464 0 0
216.281661673469 -37.3352104727478 1.30832654603723 0 0
-217.26254574521 25.6671830512218 0.949788791645095 0 0
-187.688260282867 33.9040910332019 -5.80603836145639 0 0
232.852575441017 -19.6991312469907 -17.4854429514242 0 0
226.521686149591 -5.05938461428682 -0.857580085118051 0 0
-208.683491065191 -29.8103582170944 15.929144104337 0 0
-180.093740126951 26.1467376971264 -15.719919621493 0 0
-146.880161885185 21.25477753566 -10.455518053343 0 0
223.104310785445 26.7549568831267 2.60415035542336 0 0
74.248934107952 -3.37846035815204 -3.3295451610341 0 0
-238.121309462626 -14.0689194611836 -5.13561177673949 0 0
221.914190320247 12.4568142132204 14.847559463641 0 0
-93.2775931021931 8.77518597965218 -12.4735672416232 0 0
199.163366645996 0.201771829783932 20.4214854421333 0 0
-173.679032096734 22.498047805272 -17.3727213748585 0 0
-219.724132043447 -2.99808543183646 12.7931841660762 0 0
-217.399081357515 -21.2978441501476 -16.2048403392307 0 0
-216.712778887397 -12.2534707279694 17.3792496999546 0 0
30.2426826786794 -6.33956265752501 9.32708878890967 0 0
-185.770390575935 31.208005098778 -13.5866155848553 0 0
-211.97443689153 26.713482206516 2.07785141923131 0 0
218.559182230121 29.5211993409568 -3.45175633203225 0 0
219.86666302219 17.4522005131231 19.0359837086289 0 0
224.03658360829 -15.4190614848899 18.9125728715361 0 0
82.7378451304325 15.7156662166793 13.6088719738861 0 0
-128.554800928633 21.1953578923412 -3.9875080987763 0 0
-215.410427705139 -17.4482722988084 20.0732247488874 0 0
-213.339511195298 -44.5602995835362 10.7443033034576 0 0
194.085572547626 -8.04775451763839 -10.1997756611402 0 0
198.617138416888 -0.97098290964366 -14.3383945276479 0 0
126.686330225728 17.2852332966923 10.8137096936637 0 0
-89.5638217654019 0.471524015424488 -8.1791715298621 0 0
-228.291645433207 -21.0963622843362 -16.6250520047968 0 0
-114.080205363008 -2.20066303869435 -8.15077742812692 0 0
216.32235102219 -34.2561315519757 -31.3491241729302 0 0
159.037220933017 -12.8101466715628 14.3548695762048 0 0
-23.7481645754156 13.03901621745 20.5659733544684 0 0
222.564360513697 -23.6379401289147 13.3444627307931 0 0
181.944898036133 16.238497420435 20.0228675077671 0 0
-195.790024672386 36.1313752313564 -4.37352947943557 0 0
189.455949926702 15.6496372743944 22.9040045351206 0 0
-182.373862407967 27.7688705420502 5.68442721435942 0 0
-225.145856531353 -13.4697463341413 19.2431572165853 0 0
199.930969623401 -21.4542256099451 -20.9256829394799 0 0
-161.339291802149 -5.3828045288288 8.79712438008547 0 0
215.906580016015 16.6843371962872 -34.8881277191171 0 0
184.437411070457 22.7295369501961 -8.99056304931112 0 0
210.347533554024 32.3962500070185 -6.80948853087865 0 0
-212.989139159875 2.81476382855637 10.9354292068801 0 0
114.322419681515 17.353849564347 8.51904428597439 0 0
-71.2238760345622 2.21708133067142 -8.85589518308664 0 0
-84.5315931930763 -2.15414705784472 -3.89936577129225 0 0
211.819242409366 9.70727457120252 22.4393294988033 0 0
-17.4212140460817 -4.26750585822261 4.01647361769689 0 0
164.862807617943 18.3687040655248 12.5005015808529 0 0
211.628648215471 -37.7702303204718 -28.2410994671599 0 0
197.336608853582 24.7732101399018 16.9111234242782 0 0
-211.727058420717 5.45436059149464 -22.450119323902 0 0
-3.24808856919621 -0.254897739637845 20.8745123939562 0 0
-212.307292992434 -30.2457899551473 20.430483142007 0 0
-238.089131805515 -12.1434664651475 6.9234152780622 0 0
160.663914142172 13.7980324984896 -10.1640130862829 0 0
-238.97458869379 -31.2092777228493 -10.4780386050348 0 0
-187.166006751463 -6.42212570313764 -14.0035500325021 0 0
-70.6941333810923 -3.54928086512236 9.96354644517835 0 0
-219.144225803175 24.5303489108975 -15.9373788929664 0 0
11.5775543239333 -4.92737391814216 16.1574837843368 0 0
194.316098544298 22.8174842238128 19.9850070513218 0 0
17.9252965720076 13.2044625081048 1.0170919465422 0 0
-184.392242763242 4.37366807607728 -22.6498258240853 0 0
-190.272677519073 -17.5090630168011 5.16934085610129 0 0
-223.304763553411 -2.53194951472095 7.23790320972751 0 0
91.3003320337619 -8.45434736760989 4.09537947313128 0 0
200.580347805062 -0.795244844400278 -16.1293380685071 0 0
-97.7849772412095 20.1652653861584 -0.847861295831065 0 0
229.281606770421 25.8520682118904 -14.8280795907411 0 0
64.4329283259579 -8.23093017607938 8.49288911548237 0 0
33.3484685104028 5.35751677814778 21.9939433783178 0 0
186.177504466422 -26.3823877330382 2.69481287003448 0 0
-231.564276392986 -45.6008056283081 -3.41214471007865 0 0
-213.232403930282 2.11539609186132 -8.39574926993839 0 0
234.610690982382 -18.7799927319432 -5.8961057826285 0 0
-222.247802439353 -42.9185430970686 -11.4140625959431 0 0
-200.885002883299 -19.7279646537274 -7.8322018484327 0 0
31.5298922692472 -0.738584376971674 -7.38389081068537 0 0
-118.206787251131 5.80387513308281 14.2107629802134 0 0
-193.488723763642 35.361323044466 -1.70115726694718 0 0
-202.230981908344 33.9343583602836 -11.149978712577 0 0
225.865434732066 -14.3885405292864 -22.1960161928196 0 0
-230.151830448836 -11.8023038397085 16.5125186753767 0 0
-225.576127776528 22.0058231430894 -12.5117488664672 0 0
-65.6674323525567 2.84093837350944 -8.8392915911257 0 0
-15.4359167794188 13.7379436239559 20.2462092743665 0 0
195.395892534531 -18.2956472288593 -13.9207394341235 0 0
184.186940807568 -3.4324130572558 -8.47291883445531 0 0
-193.961052214391 13.5869028714629 10.3515330318699 0 0
-216.473387115198 13.5376773991816 9.02161411457543 0 0
-103.801562263612 4.43741494320388 15.4922740575454 0 0
-204.97284232193 0.464122050525516 -12.4175695669112 0 0
-168.911588537072 23.1983049375741 -13.6581530982836 0 0
-142.884801441419 -2.11525060806965 -13.2779744911888 0 0
-145.028933346882 11.8662593899666 -17.1836596012377 0 0
-166.822213925784 3.15989740206841 -18.5498122832257 0 0
-44.9755601386338 19.9026944351764 10.0162859605161 0 0
167.986566978005 -9.67964671878502 16.189896728086 0 0
-238.307970118559 -29.5089713394191 16.9345844626756 0 0
228.255687303011 -7.49262466865505 -2.89521224755338 0 0
232.96935883048 -33.0632551809501 -11.8357549879818 0 0
186.195816616504 -21.8906711591536 10.595573537623 0 0
53.4011848888704 11.0914525840867 -1.72282365618231 0 0
-134.245065123164 -6.44114204389631 3.07707760217087 0 0
-138.22710264521 -7.32852163537358 2.41124306099769 0 0
228.579135607498 27.9880730029187 -10.433475114707 0 0
-177.277530319486 -8.27607338512245 -17.4061880921942 0 0
-90.2567559271682 17.5483898209618 13.8993457830031 0 0
201.085541205183 -20.4345983083357 -23.9495595180587 0 0
-209.217886090647 19.5953538915535 8.53991111824782 0 0
194.890768568539 5.41361797721741 -15.7579886318129 0 0
119.295277703808 15.5342335686082 -3.90445495431378 0 0
213.257963000266 -22.9887084612301 -32.9392774698263 0 0
-41.1611425867769 4.64076959927858 -7.9114220425248 0 0
-25.5888796287203 6.35904499836657 22.3949014166241 0 0
-181.888067998384 -10.4131065013511 -13.3635472482509 0 0
-195.012019294268 -16.0276023970009 -8.31875695582551 0 0
226.602865404268 -22.7823689591559 -28.4886787350346 0 0
153.115463101181 -13.8508792057145 0.136475034250413 0 0
-70.4522219806617 3.45299255088115 18.6784284049977 0 0
-119.753855611324 21.0382946820619 0.705401939955015 0 0
216.480486017816 -25.0994777475877 14.0270491153759 0 0
-164.075134489579 16.9920056741978 -19.3619995084134 0 0
226.599200286516 -13.4376698094746 16.995785354833 0 0
207.152725275435 -13.6754629646386 23.125731994158 0 0
-196.99062054505 24.6702824745462 -21.6804877031538 0 0
202.047416718662 18.262324023026 27.0439645464711 0 0
58.2667728743004 10.2140265153157 -2.42052184693066 0 0
-231.760022052098 -46.6246480504012 2.06308264916804 0 0
212.776906163132 -29.1303885637916 -32.628188050776 0 0
116.403859187348 -7.94834672511636 0.868417972177541 0 0
215.614819342741 -30.4331172461613 8.81187600666201 0 0
218.290477438207 -35.8152177526814 1.77780242863926 0 0
208.254829740037 33.5645004276948 -16.3268473620182 0 0
-181.404722145407 -6.74961648132393 -15.7549727078336 0 0
-33.7368671952003 -3.62184976363222 13.5919514204642 0 0
218.488452339883 29.740260067316 -24.9762806904705 0 0
-222.029899597314 7.4554595029193 -17.8000846375681 0 0
-211.53829273116 9.368270268698 -25.7279708849491 0 0
68.6243259343426 6.71500192838434 -4.85731984649516 0 0
-68.5511290212379 3.44814633938254 -9.23601711351139 0 0
228.755089279509 -9.48290384220963 -5.83430813502347 0 0
14.6712797914401 12.5489321207588 0.449966710191766 0 0
33.317160582025 16.9235357793276 13.9312406216102 0 0
-177.85039943306 -12.1915258883496 4.06486472323258 0 0
228.709642909826 18.8631607916416 1.16138986871064 0 0
31.2386608560058 13.5548899430051 1.19889079347934 0 0
186.385919648733 14.2828180674212 21.8335942260085 0 0
-164.824244007863 25.1267127039962 -1.51856036330788 0 0
-48.6031972098745 13.6657951584298 19.6620845672229 0 0
212.121085176665 -4.64891401218938 -12.4944695420883 0 0
-205.301793755927 -14.656125482207 12.560317551931 0 0
43.5700282252343 -5.6275036760749 5.47330700670197 0 0
34.3834510414507 17.3291136709316 10.8433120459415 0 0
-200.450633924868 25.662951890984 6.77433017068246 0 0
-59.2141035081664 0.0819135076417823 -7.22117003070123 0 0
-177.724460403532 3.6663768574356 -20.9639851511212 0 0
150.297184961663 17.9150336656942 -2.87609690411808 0 0
137.884522289883 14.8387331722465 16.2811688342893 0 0
175.663851617619 -20.6230012233543 7.30004906475399 0 0
-234.590958611919 -36.1598732323872 18.1931514314459 0 0
135.109619323137 14.0282984732081 17.0695832786415 0 0
203.704396475227 -39.8402324451485 -17.1637552196633 0 0
-208.700144982434 -19.8423642285535 15.6631812717719 0 0
132.828344958063 17.6753683282176 9.80540045543228 0 0
227.462460315918 -32.0135381119863 -1.11583428389498 0 0
229.782987374266 -11.2159153249706 -7.49371203533785 0 0
157.801220169175 -14.4211515477395 12.7255593821776 0 0
89.8662455825104 -6.73967199636367 1.82012566709756 0 0
184.270321792677 -20.6047842802486 11.0533753543934 0 0
157.442457675601 -7.74325628391591 -3.78704421381489 0 0
222.972121931685 11.607324307789 12.6182574216213 0 0
51.6288182587992 13.1553943192036 -0.0772719471865053 0 0
-68.4785627477895 9.20128721868427 -9.71145525261696 0 0
218.75095041378 30.042803925838 -5.65083929045086 0 0
-144.220498974156 22.2729221815846 -2.75448894162195 0 0
-141.262171448463 -8.26776219244442 -0.723287101880688 0 0
-229.115204258689 -7.63765092010228 11.9932463774476 0 0
-217.929545388903 20.8566781235494 -21.0732587027361 0 0
126.236407917148 17.5540824514287 0.946884755464458 0 0
203.303651928804 -11.5019779780613 -16.9372296821867 0 0
170.316653026932 12.6387131054296 -11.635533974145 0 0
-24.7612924811908 17.400605515988 3.76807802992176 0 0
175.595950716028 11.8507164098272 -12.6791969450023 0 0
218.675132475262 -32.906028240135 4.0377124555327 0 0
-200.280293058962 -25.9633694553247 0.111279269227377 0 0
188.137190019591 24.5338847485409 1.7316573503243 0 0
-227.514261271375 -46.6295672052307 10.3023553774537 0 0
-99.4194105469101 5.04923383164574 -11.0570655416041 0 0
-101.685080109716 -3.91907951224559 -2.32061779684297 0 0
-193.896266529768 1.92832787409868 10.4495522576587 0 0
95.0243019698415 16.8084160067913 3.20771395200595 0 0
-111.705006609352 -0.939995122052033 10.3198851352835 0 0
206.487885909533 -10.3678509144634 23.5481224355892 0 0
126.253303504832 -0.983779928327916 19.04277564077 0 0
149.70435786892 -4.62437839687399 18.2521394971751 0 0
216.296733159603 27.2768220561081 11.7888492198253 0 0
183.271342053939 15.7871514883393 -15.7077904770284 0 0
-18.2129270965774 14.1562233177374 19.9752813363289 0 0
-166.518627592956 -16.2924336792857 -4.94991138831622 0 0
-48.4473467348928 17.418730692283 16.4266260896651 0 0
203.049757971581 -27.9193214912381 -27.5364400513095 0 0
-204.265827495987 -20.6031155288412 11.6600891186299 0 0
200.524109768214 -26.9302081694604 -19.058709274316 0 0
196.870422079594 -2.43273376370954 18.3851435509409 0 0
160.964986298836 19.4543156944807 4.58301439954178 0 0
200.717878231827 -39.7139144145802 -13.1136332462222 0 0
0.605821911841274 -5.12230024820299 13.4155558847926 0 0
-243.806024690159 -30.8954255871292 -0.810085874809257 0 0
67.73677298389 15.9767923679771 13.6035819918191 0 0
-1.34487258301058 15.6912763152434 3.24343621939772 0 0
-213.096174225886 -45.8495649918565 5.52719359635693 0 0
199.045103582611 28.2991445289899 -24.0384523947284 0 0
-191.635663960247 -13.0942788958029 -9.7974591836013 0 0
-101.664872149415 -4.61455784504314 0.805224386715868 0 0
-89.6317082725071 7.64180411920432 -11.9137870317601 0 0
-48.0370382668228 12.1856593505327 -3.41455315881767 0 0
130.161202465314 12.1308976124045 -8.2536188081778 0 0
-113.54566505473 3.1715871663926 -11.4205077640984 0 0
105.166188895728 2.8034868437475 -5.50613090270499 0 0
-236.330388518701 -12.5775953888328 -5.72647814504204 0 0
194.149170301617 27.9474207530172 -4.08330716929638 0 0
-211.993950456948 -39.2280066574263 16.6982896155183 0 0
-165.651875804165 17.473239056884 -19.4622608528792 0 0
230.410251893471 -13.8707407031004 11.2761437330875 0 0
-45.1993028208112 2.0850199666442 -8.16515763428254 0 0
-219.775339469492 15.3004536267013 -5.51075757896022 0 0
-167.669698727024 -9.83364074453254 3.19412876884539 0 0
-215.947582293574 4.9608660696814 -19.5827197047484 0 0
-155.868394729025 23.5280477992357 -5.00467294927276 0 0
189.992627128598 25.0646225044471 3.43049644757541 0 0
-166.869860485425 25.3385385195945 -0.29523315132135 0 0
216.570041960075 -38.553380982957 -16.9650931410591 0 0
-200.635110087884 1.37952991997649 10.7436409651574 0 0
193.313498770612 25.9900032016789 5.54025948134949 0 0
73.2888629977792 -9.91877710597131 12.001454922361 0 0
-118.856603574486 -1.82803263523319 -9.03085294307948 0 0
-215.199416354365 0.271493162267382 11.3403522989553 0 0
188.66188855542 17.0981194526116 22.4644684578991 0 0
135.08678148599 -7.18466738096901 16.9921264843028 0 0
188.43831585535 -21.5266137488274 11.9451126342743 0 0
-175.047301805405 11.3829793521555 -20.929982729449 0 0
-55.6734577586918 6.9056488263093 -8.56030433742032 0 0
69.6725179676064 1.34472079425299 21.0091276931632 0 0
155.197116856445 18.0068440651687 -4.69051290230434 0 0
176.672709180756 -22.0807305461462 4.69815200191195 0 0
-100.206323291918 -0.545834790860097 -8.35117366989275 0 0
-169.861825372613 -19.9644694925435 -12.8258479055731 0 0
44.4250304496982 8.0208546603533 21.3865445897714 0 0
157.534829071387 5.85655117802538 -8.39251019336771 0 0
50.1967605987539 -3.51978191870884 -2.31244888307986 0 0
-6.24673758396885 8.1533519841963 -3.02339535487882 0 0
181.502740725789 19.3118252242143 15.8837029127898 0 0
-62.5041097393653 12.094547320553 20.0017512249455 0 0
214.299429787254 25.4213001915966 19.8027235037102 0 0
216.416472516492 8.66725865784909 18.7465475081725 0 0
226.858909705408 -8.14281108835307 -7.380285647808 0 0
177.738612842972 14.5442031970938 -13.5643066763938 0 0
102.273966665621 4.36418765328422 -6.64971090805121 0 0
-221.626262171608 5.72586452263359 -23.142436055758 0 0
213.820485528798 1.95590260480457 -14.5814927404143 0 0
221.010410361091 9.07735435131985 14.2861183175665 0 0
-91.3772244914416 6.97844879867914 17.9654108512171 0 0
212.804322661285 33.3427004246677 -11.8459255719622 0 0
144.178984797819 16.1509849922106 -6.29764829682299 0 0
-97.2173702079724 0.488798334380782 -9.1626937861073 0 0
-191.564664241521 -18.9318913666458 4.41768211702318 0 0
181.959483767096 22.3779850614147 3.95391449803562 0 0
225.049933048097 6.87459051945142 -10.0141152301383 0 0
174.308015963454 20.839185308551 -1.03560558844345 0 0
-219.975558449553 25.6175022047528 -11.7719228974637 0 0
-215.14175076378 23.0316638522604 4.61879210354992 0 0
-171.452110023813 22.0178325295084 -17.6072802782389 0 0
5.56284634996608 -4.59193395578997 3.88503673719801 0 0
193.710446499499 -8.17092958131743 18.9376886215981 0 0
-236.40292945176 -35.0477776625773 -11.4331473943293 0 0
107.519163203519 16.8681740844658 0.838904766906715 0 0
53.7186909808602 11.9490231051853 19.6710749574033 0 0
0.391039440916672 16.9677722363821 5.31645336582546 0 0
-111.344661573651 19.8072048200355 8.13294736140912 0 0
-210.844520943856 29.9464660411375 -13.113113407998 0 0
-213.637784491497 20.7290676420525 7.65893287502234 0 0
227.435414526511 -20.9848593375597 14.1709468922551 0 0
71.0028346279342 8.45719554546879 -4.24527759598718 0 0
233.855207850737 -22.5316610014649 3.26014588629347 0 0
-120.0904898466 19.3273799986555 -9.76433522287581 0 0
227.957402070134 25.3593743761994 -3.54357725707069 0 0
-240.276183245925 -32.2656154114302 13.7244360035881 0 0
200.604164880726 -36.1390718881222 1.38882391180528 0 0
229.236862923568 22.1839107434064 -15.0640372289586 0 0
160.333502651217 -17.7032537290978 7.04535237726416 0 0
66.0983458212449 -0.164752412266987 20.7356720138665 0 0
-56.7074919821113 19.4355577348472 12.4517207423447 0 0
210.362845554584 -28.9408392021655 10.8028242374274 0 0
-208.842133863539 30.1415753317503 -14.6635745221743 0 0
110.265107074389 8.20655364164113 -7.87200249750306 0 0
128.092607484781 -3.08241176692322 -3.2844689956797 0 0
-73.8334420648595 18.8687157262675 12.8765668853813 0 0
-229.486483648111 -17.5073513278578 -14.3493692136385 0 0
208.957723336598 -14.8306074936442 -19.8742370171494 0 0
-93.4435614297072 -4.18748748075243 4.78452294962556 0 0
72.4906269050536 -4.15357123528716 19.1059979810499 0 0
226.83133878832 -11.7751859821519 -13.4722202566446 0 0
16.1057934982802 8.64770523534476 -2.22754557330852 0 0
215.40522811255 -15.0075704549183 -24.6952166708283 0 0
-134.138460529618 7.48203425856182 -14.8637817736192 0 0
-32.0281231932022 -2.9550932732485 -1.59598733455851 0 0
-57.9675808075993 19.13568184523 3.02636956825975 0 0
-167.311889236427 10.8439137808335 -19.3036154501004 0 0
-151.463921575517 -3.22184643822681 -14.7778667850841 0 0
223.688596205706 -22.9809990340191 -30.5307836870449 0 0
-174.414000856225 28.1809609351481 -5.12271678897843 0 0
-122.354119631891 17.7884127063007 9.80321307676709 0 0
-187.348361918074 -2.04209313951171 9.97854678995494 0 0
-104.639949326008 19.9674905345867 8.30190945707388 0 0
205.323252198959 -5.49091659160213 21.5652716971014 0 0
229.269894002059 -12.381470579653 -11.4743218726282 0 0
194.01089003814 -32.551399936016 -8.75143394008619 0 0
-207.167307701924 8.69056964925341 12.3470557454426 0 0
180.569949327953 16.9078729707107 -14.3697456374954 0 0
54.7783250383678 14.5578067261717 17.203234418373 0 0
202.992680448096 -32.2358243796928 -22.8515193072632 0 0
-38.7739306255565 9.26093074630839 21.7689339396501 0 0
-99.7440778902969 3.46403149885567 15.4219003639183 0 0
-203.504051645992 27.4284589817169 -20.0831003361674 0 0
-218.737802047564 27.0213239882684 -2.83076633232314 0 0
201.756893257406 4.23627245044262 -23.009708041826 0 0
222.883157822051 12.9013473123011 -27.8057777390902 0 0
108.394387631204 6.99138380250798 -7.77725063287111 0 0
9.09655910395639 3.73928723288236 -5.86967230900764 0 0
-231.545007521192 -20.1985728909214 -15.2483864511475 0 0
-205.863750627664 -19.4790641072164 -9.58084506843298 0 0
-200.697805987368 14.9576404135184 -25.9948382540483 0 0
206.396562390525 -17.0317845658637 21.0511287031589 0 0
6.89269714326755 8.55695187155315 22.2300307607205 0 0
45.2169934951546 0.962062593098309 -7.36456027016323 0 0
-116.026140718847 8.24484236494094 14.8905238038229 0 0
-33.286061858897 14.3289988839735 19.7529096595807 0 0
225.187544173376 -6.7815675448289 -6.24377446726914 0 0
188.866763747894 21.6116656477253 16.104124393936 0 0
-117.165192093321 0.120544941696267 -10.3447109580629 0 0
211.95844437544 -27.5868305864973 12.2276572871301 0 0
207.301359361343 -0.266980722984722 -16.3141513662758 0 0
-179.394200005279 -2.37412903035571 11.1622755419445 0 0
220.482298614068 -37.2388251275748 -18.2030517235434 0 0
-161.540920630242 17.0887867845194 7.8102161782878 0 0
-67.7579871653839 17.2304068046542 -1.53463167050612 0 0
-181.149402394066 21.3446950338173 6.85815794224649 0 0
194.675253277945 -32.6553667030517 -2.65812719403496 0 0
204.633646539777 -15.4460083634257 -23.5262755223563 0 0
36.3259359116292 4.80519430717468 -4.87050319765655 0 0
-224.6198332196 21.8850385483681 -15.0675543897391 0 0
-22.2867460989218 -1.50016531087909 18.4806245518504 0 0
183.492029999983 6.00440242147469 -11.7533977771802 0 0
-179.889716205066 5.31517357308156 8.51193864745639 0 0
122.040839574095 14.0575610175118 -5.81349173560394 0 0
174.893451315961 -8.62257198549298 16.7744118191699 0 0
192.242726246255 -28.6900839942667 6.06489956082498 0 0
-211.386662922598 10.5750010731258 11.2968432975103 0 0
72.3923628310063 -5.0729405763187 0.732217618366692 0 0
-146.050221099274 5.12007996634803 -15.1906860105322 0 0
-177.643860983402 -14.0624492334558 2.2586270923039 0 0
195.559764871466 25.2990311167607 12.7919055434535 0 0
-208.061011878995 -33.9526485831588 14.8338798718373 0 0
-158.164027868791 6.77515947768748 9.27251824008501 0 0
-225.566001831022 -11.5559836809484 17.8068522695921 0 0
223.276298622062 26.3943534368525 5.25437578264206 0 0
225.005980203211 12.4430063819496 -23.6848596129207 0 0
-219.184172031973 13.7897712685856 -4.37325593163695 0 0
-230.325279265186 -35.0150080713458 21.2653312827654 0 0
218.166708418029 5.82084642314736 -23.4886199146093 0 0
218.674751121397 -14.8471695284361 -27.6178496060429 0 0
90.7106545398139 -4.39125612325206 -1.03193786111392 0 0
-188.855581148814 11.3769476574541 -24.5343790827517 0 0
-155.854195071557 -7.41609445971616 -15.5621470334353 0 0
-220.887016045929 25.9119763825138 -7.72264057057812 0 0
-168.588031637301 7.6536844768225 -19.3084277663353 0 0
-189.97364308496 -2.9636711261451 -14.9836878870677 0 0
-206.017982457168 -37.4212755901471 3.2512398808554 0 0
210.759723137608 -25.8158332242657 14.0135729247775 0 0
226.166996454096 -8.87456517876098 15.631536108417 0 0
-88.6250597832495 -3.82390975379216 -0.193765229344775 0 0
-147.605107012204 -9.37638138725062 -5.34423080546514 0 0
-67.5914903839359 8.11122717371446 20.3672350713827 0 0
-190.384390671133 25.0703207459563 -21.2648523370995 0 0
-140.617096996214 8.76993011455627 -15.678229180428 0 0
-186.958433826483 26.4277161714369 -20.1144457843482 0 0
-222.862484465405 -4.34694324307569 0.597076272923044 0 0
138.981240894142 -13.8926565006426 4.26441462848914 0 0
102.762298200444 0.594811947233997 19.9800603693503 0 0
-218.205738471242 9.71063006055436 -8.80761464322156 0 0
228.654670754101 -34.0541823343809 -9.82879007335115 0 0
134.929808036524 15.1455680073567 -5.99828274615545 0 0
225.715580868547 -26.3699577390414 8.95789196435944 0 0
-238.93618893741 -12.4269236401335 3.01105217117916 0 0
212.619618001971 32.9108450346386 -9.71275170528755 0 0
178.621871055728 9.03965685559182 20.1286069770386 0 0
-218.401157371548 8.35656869501648 -26.5071203871819 0 0
-73.4290747916309 -2.68296230601345 -1.60577084258266 0 0
212.666281697651 20.8492594808138 -36.002705745382 0 0
-23.9069506749906 1.65503094926652 -7.82076358148908 0 0
200.901352472261 -7.66650261953217 -15.2941097210888 0 0
-0.342363556590827 -5.28338070468747 9.38826747458513 0 0
-134.704247547872 11.2625610251942 -15.6665134906644 0 0
-221.713176864657 -0.554741660123813 7.30751892452828 0 0
-134.68675728688 21.6339083202625 -0.693704342495706 0 0
-186.392140013639 33.9296168705615 -1.66201051645826 0 0
-10.0077394775482 15.7588046595862 2.71861715806672 0 0
-209.613592594757 31.2962201050922 -3.6118985321942 0 0
224.439548389338 30.7973028921784 -17.0918295129955 0 0
67.7577022219589 -5.06141007318408 1.13643320453639 0 0
-166.49167881936 20.9419448232683 -16.3289466565944 0 0
-214.151209507106 -44.0574353365038 -6.65338654129032 0 0
82.9025756428569 7.51117178224873 21.1484431459701 0 0
-41.9186738551024 14.6026404441082 -0.726429429749635 0 0
221.828391635332 26.5362303073361 8.47753371606557 0 0
-16.1699356385118 16.1698760081398 18.2982483766971 0 0
6.11024081129876 -0.592109534738873 20.8172107258295 0 0
-206.05473134675 -34.4754429117731 3.35203247577496 0 0
34.1326408740377 -3.61281546701353 -0.259253668485084 0 0
84.9184494443392 -5.86340025803089 0.552162769414295 0 0
-209.174202507187 26.6537666090066 0.655980491301485 0 0
219.20155517086 19.7833978510878 19.5778347639475 0 0
79.0274460512097 0.0734851027961508 20.4850735434522 0 0
-136.011984127938 -7.85408166197066 -2.65034396223997 0 0
-220.875711599054 11.9866021826242 -12.349890724062 0 0
85.1288017627121 14.6953591443988 -0.942465311706993 0 0
-209.960818796815 30.3643440000755 -7.38828385640447 0 0
180.213759375716 7.16406009235951 19.6759491723904 0 0
-215.091372913301 -10.8798039930749 -10.970081337521 0 0
-226.854120848899 -7.61822162801006 -2.53312899135132 0 0
194.21249959725 -2.28591423353422 -11.36130581985 0 0
-20.871900991151 10.27603730433 -2.43065308191585 0 0
-173.152433600711 -16.417601606558 -3.74132579401307 0 0
182.071116697556 -5.62116629670763 -7.1886310977573 0 0
-200.933570412379 2.05276921202181 -19.3142540874159 0 0
207.561232543142 -4.92289333780797 21.3711917399875 0 0
202.205911584099 16.5592786020653 -33.956556622487 0 0
-182.196959117995 29.6608765329048 -10.1945210145853 0 0
179.619574598972 -22.6399520854507 -5.64971856212159 0 0
212.547103746836 -18.1901868078633 21.1412201454441 0 0
211.871953309767 15.7235453243955 -35.6618325798903 0 0
190.08361151594 15.2838162739612 -18.1691909705718 0 0
178.307657669946 -10.5738040291641 -6.60355053398994 0 0
214.827988983069 14.3007200575877 22.3072006562941 0 0
-209.428158426001 -42.3787935258373 -3.30110189270058 0 0
27.6981805415045 9.0573904873664 21.5246224106482 0 0
-180.433764581493 29.7961884645579 -7.79131135117822 0 0
154.516953936423 15.4155404284801 16.6163870801982 0 0
181.341843280952 7.48176671059684 -12.0684867924965 0 0
-4.84577580736421 -5.18890423567197 10.8389883373837 0 0
-150.080773300744 8.55101051465902 -16.6329819822908 0 0
-149.512253925431 -3.93335567040303 -14.2107937092678 0 0
-204.345303935283 -12.9393629637037 12.1828394336535 0 0
-111.742255388525 1.47772358376807 12.68999422939 0 0
208.136339277183 -37.819156226371 -25.8924001857593 0 0
62.0550362079809 15.7845183364431 14.504502438835 0 0
196.80625232154 -28.8590177513142 8.54957707566654 0 0
212.576193252813 -39.718232983946 -3.72513949847312 0 0
218.34654215254 22.146171745051 19.8354880790408 0 0
-228.964818259632 -46.666547764152 -0.610184013884742 0 0
-87.5904214114883 11.6174149290602 -10.9239123479001 0 0
-193.846831296277 10.1227690012777 11.5056252696206 0 0
200.452855206654 -22.4024062779947 -22.7215087907785 0 0
-221.320869221527 -3.58170122538285 12.499311494179 0 0
199.04332407765 -26.5042433390979 -17.8033514434516 0 0
-198.081284879811 29.4821444171443 -17.9943188159385 0 0
-241.060021765965 -15.5230035233112 2.4034767151951 0 0
227.940522114019 -9.5989685420602 -7.84502872953059 0 0
-199.881548179631 -15.2640294604672 -9.0762473932902 0 0
-232.494056086501 -9.5501216686555 -4.17340847711534 0 0
-225.632322733486 -8.16391743634825 14.1389888279786 0 0
193.735332311119 -18.984401864519 -13.1440293596127 0 0
143.368982627493 17.303654126776 -3.27398368562075 0 0
-27.8490475587815 18.6909781390688 14.2522325785938 0 0
226.714218184391 18.3243510143873 8.36881848705362 0 0
-212.949073758854 29.6018633822707 -7.7269220508944 0 0
166.320414056008 -19.1861832879915 3.92523498653945 0 0
111.401935294591 -2.58748576265132 18.7884950240752 0 0
-193.948963622947 -5.63572947694719 -13.2559357996639 0 0
-244.266303753464 -29.0654778796739 1.48556632615113 0 0
168.713532519183 -19.7033316352807 5.44763980743406 0 0
210.300645099885 -23.3156344291641 -32.2640286357715 0 0
-218.64759765802 -48.1304532294457 -2.05066540471369 0 0
