"x" "y" "z" "f" "a"
-114.861843022385 10.1873528252065 9.99750027553794 0 0
-83.6552444500525 -5.91440224086088 -9.97613569897551 0 0
148.280976500642 -15.6558386881528 6.32545725092649 0 0
-102.473885332907 9.06549053599131 8.61550217582626 0 0
64.6280744942865 6.84154946074459 -23.9837414813214 0 0
62.8595605858162 10.9338582349987 1.16581415620541 0 0
87.2636023871992 16.360773323174 -7.74572945559316 0 0
-53.6704579111541 7.70064296082517 3.88079597598278 0 0
205.96375027403 0.792893055703309 -0.868199996565274 0 0
210.649442844543 13.8278602043901 0.500333606881665 0 0
-197.949260161615 36.8831810802068 0.772519474118371 0 0
165.972899671867 -21.156623403651 -16.2978139268886 0 0
-164.288729348108 4.67863069301984 -8.19376890846052 0 0
-199.751952568589 33.1444492347106 18.559216732285 0 0
-134.928778904332 8.54837586791397 -12.7528942670644 0 0
65.2183061698865 -12.888081720258 -4.72428218354327 0 0
-8.39744459043058 12.7271834681919 -5.42182391613902 0 0
-222.035050362676 -6.74327351330326 9.06179582848945 0 0
-163.978794472274 23.7058000192008 -6.72642296458774 0 0
-136.524469774175 7.38780035613052 -12.4295998756322 0 0
-221.806426922401 -48.1634393812771 5.69375659423745 0 0
201.049454516879 -37.9054047087411 10.2424611072746 0 0
-31.4605147716372 8.65619732748638 0.467145921710748 0 0
75.5625083373484 15.6528114673039 -6.29597771800883 0 0
-219.198664643341 -24.0803045740456 16.2611530811401 0 0
-214.253902906956 -12.7993485739432 12.3572878260739 0 0
165.419011862431 4.88625289961025 9.93935870163842 0 0
192.104058486174 21.2069648310689 -27.1676291950764 0 0
-78.9839206328846 -6.18963824879954 -10.8783995923822 0 0
-148.203423091076 22.2899754403687 11.150004910536 0 0
89.3018592036828 -10.1122825585662 -21.1359622412999 0 0
-231.12521405677 19.5233508245283 -2.41501456295161 0 0
183.721000664961 -30.2446744198474 35.0711862997245 0 0
11.1175235645486 12.2652303315889 -4.92707462652607 0 0
197.158871854571 24.0208267169219 32.0833153522119 0 0
-46.6944804480051 -8.47403563666121 -13.6044396428698 0 0
178.531876079645 -25.9914889781559 -15.9965070710855 0 0
145.233934118964 -23.4868402427586 -2.40735285637534 0 0
173.161893794837 24.6362542039348 -15.6592401453134 0 0
184.304789388525 -40.8600680836709 21.8823653265948 0 0
207.729367535904 -31.6762926069178 31.4919676090901 0 0
-202.455128154274 -17.7263436895831 9.48598232473455 0 0
112.634603314562 8.50451236040824 5.17131183108355 0 0
-206.251493554306 -41.5550302612618 -5.58157467720344 0 0
-199.414604222392 -23.0697613002189 -1.21605304016381 0 0
-87.8695631208881 -4.41315601003637 -3.61152690258668 0 0
139.401670022638 -22.3810238271122 -4.79445181665833 0 0
-188.290134123638 11.0053448158963 26.7551384807171 0 0
-17.6580454585396 -10.4692570737521 -12.0038975641454 0 0
-119.832619064362 0.274672373545333 5.93523095642658 0 0
-145.409494514466 17.9447398605784 14.6230518140802 0 0
-208.858184148555 24.6499479158307 26.0695676399433 0 0
-57.5030317557674 1.1384197665261 5.05713869467809 0 0
139.260899664538 -3.64395965524233 4.97898397257271 0 0
-233.483734192936 -14.0040139450967 3.66083187967834 0 0
190.773159742395 30.345570419286 -8.82280150800946 0 0
-229.066803472229 16.1146284397894 4.9879099362733 0 0
163.445748537845 -29.981091001387 7.41392736593368 0 0
172.07408733162 -11.2163201267337 13.27430056699 0 0
-140.378249893117 5.29228062458417 13.0320535810017 0 0
-81.635743078663 -0.912402389714149 1.72776111683445 0 0
-114.419142331073 -4.5425202492844 -3.21852739572788 0 0
-246.433500245897 -26.247273006039 -3.18395376656833 0 0
26.7878047660455 -3.34627088197523 2.26451594309267 0 0
191.813280619583 -16.6883198805999 -19.3469184578554 0 0
204.045681775655 -8.45637015949012 14.8749100850333 0 0
-75.907417431691 9.13654863769562 -20.9947371562683 0 0
-156.618475039795 13.7208352962507 -9.30658113173126 0 0
-20.3779607696412 13.7708884110009 -20.0230122606759 0 0
186.191001821495 -4.63998969968039 16.7049995225031 0 0
-159.213609090801 -5.67925856925368 14.3060168137276 0 0
153.429898398511 14.6244225408012 -22.9066664471824 0 0
176.361755030704 -40.2840504568769 10.9949239862649 0 0
89.4977855448205 1.79727510849426 -25.501195046063 0 0
165.225031553805 26.542877976251 3.19934440308692 0 0
-242.465660820516 -15.9583989140885 -8.5308817613893 0 0
-25.8227192576878 3.81251169642612 -23.7718172100085 0 0
190.534424742025 -37.7008912166324 24.7252247157821 0 0
199.132380315093 32.8412711703384 15.1696650372894 0 0
29.8075612663525 11.4150582740434 -2.74611601526583 0 0
-61.3915317490685 3.32475052156104 5.84692026244739 0 0
212.334640573788 -10.2811764833963 0.787091665316945 0 0
32.1628195420872 -9.77163757563503 -19.7105837569748 0 0
-151.902417630166 2.98025641233435 16.2500193715708 0 0
-110.514503265498 12.0022615877769 -16.69149791466 0 0
144.069110178466 20.3658913712629 -5.48622797325003 0 0
-83.6787599799854 7.05142106165493 -20.5658744899296 0 0
-232.734846149847 -37.3824575310815 14.0706019088642 0 0
170.257960146441 31.0595737175561 8.32472521507098 0 0
-144.807825581098 14.9156169296792 -10.9813758343618 0 0
109.733162236274 9.48395566564565 5.25187341711368 0 0
-188.363227889798 31.8299456791466 11.4661964108935 0 0
-17.429599176807 -8.75296333256628 -8.33585918365428 0 0
203.995508215702 -32.0326776764077 2.91361884451381 0 0
-245.889326742575 -32.1055966069359 -0.077959797513792 0 0
188.371104889891 -21.2523531013505 -18.3355635774393 0 0
-1.62618239731297 -11.1098091103802 -11.376046447723 0 0
-212.866380995714 -28.5786100325771 13.1979506543481 0 0
160.556529905935 0.667200302402003 -22.9185309800303 0 0
-85.0682760438084 -0.485906433642936 2.34111017315985 0 0
189.98060507336 -22.9550051188922 -17.3203586414176 0 0
-200.594381164557 -2.02723017402702 15.860142544921 0 0
-145.788579885721 23.433087729955 -6.95493104649006 0 0
149.68743296495 6.99178762530417 -25.20328688594 0 0
192.869071952979 -20.4313368056911 39.1674941306249 0 0
-126.086082210839 23.1625861782535 -6.85036665139034 0 0
196.395538539746 36.3966911804061 7.31298261557707 0 0
169.895877024085 -6.59531138829937 -20.171091240465 0 0
176.019130430261 -15.561374496844 21.1903502135601 0 0
-67.0292760680514 15.6136067828653 -18.8580779165671 0 0
35.9287076063793 -11.950981983229 -17.574499398163 0 0
156.255894905508 -10.589829001163 -19.7100939157753 0 0
-226.448522160377 -8.7168882931287 3.35458675486727 0 0
-231.564869937605 -35.1660046112108 15.3450664682585 0 0
-75.3414824881298 -6.09400945736086 -8.20775089841412 0 0
188.200829195052 -34.6603666859127 32.6065927420031 0 0
182.025265116966 -42.1204514886854 17.6207831620883 0 0
-238.556147062461 -16.5658534060652 7.80272900960393 0 0
-239.981944242477 -44.8572347099615 -2.37703504660395 0 0
80.7777970606632 -1.26133823020021 1.96597763065263 0 0
-230.592951648087 26.2478339874405 6.18716155197284 0 0
121.378627356238 10.2594027090258 6.01548153379249 0 0
-95.3367537014343 18.2006584375726 0.398430185511429 0 0
161.007806822758 20.3529859665575 12.6448173035682 0 0
-193.054736530877 30.7879442494931 -7.4820086874029 0 0
195.096712500139 -10.5332995792852 22.3088415227738 0 0
159.176321943706 -9.47473013175062 -19.910203300124 0 0
176.774746163614 30.5480026720539 27.8323743451185 0 0
-226.588113266047 -39.2279714746294 14.8799492899398 0 0
-180.150857197622 8.74118584952371 -6.57250664029605 0 0
164.63066177906 10.3718084600459 11.5467551225985 0 0
181.036064280742 0.446311099827323 -24.3831140297977 0 0
-149.183838216015 19.7135269380217 -9.50784439780624 0 0
202.748644112844 -36.727908529438 10.6708907200608 0 0
156.583638818255 3.1639048572632 -24.1517760399852 0 0
-227.425107065503 -48.2486755578341 -5.17663115745231 0 0
-26.0788653830494 -2.4591433735207 1.86725193728168 0 0
-82.8244686854588 -0.0967654347505847 2.85421786203286 0 0
-168.959499237783 -15.3139782017949 17.1900764739546 0 0
173.991953729309 -8.84567009928451 14.0329680701053 0 0
-200.242993165144 -22.8146739551433 4.25097887391888 0 0
208.538515761991 25.0323287178564 -10.7356231715106 0 0
160.853997154864 -26.9959827465369 -4.64336315968217 0 0
112.886777825282 -10.0622365609534 2.34777972763905 0 0
-190.150750202633 23.9132555482631 23.104417741542 0 0
182.269546927832 13.1025759298991 27.6704365312572 0 0
-190.356913389165 -3.78779159610489 18.9391940029078 0 0
23.395301130112 11.283349269042 -21.142240465298 0 0
136.418435573863 14.8873615191759 -20.7427683607633 0 0
87.3930588252781 -11.3495562703989 -0.4448676632025 0 0
139.055002284401 -10.6837250315054 4.60052713790498 0 0
107.01168048812 5.15283559386664 4.16916308541922 0 0
27.2416307079796 1.85677425743709 -24.3464125396596 0 0
-7.46311801258096 -1.14836153535075 3.74118224542016 0 0
10.8744304149312 1.85031950214309 4.033293380242 0 0
-229.323050448179 26.9696718822241 3.90860610582186 0 0
-208.121174420942 19.1768237390548 28.1617747079414 0 0
177.165595083534 36.9667585159793 6.09717263699298 0 0
200.785003644066 33.5423428706099 6.60560734193685 0 0
208.783034274207 -9.91967365787631 18.367050649019 0 0
124.715818863548 16.7671837646263 -15.4279558889703 0 0
-186.497863776617 -14.3257130348141 1.21243249514018 0 0
-138.400961148643 22.9809452775568 4.55385586459606 0 0
-208.476625187471 -7.00959019266503 12.9028224813233 0 0
200.783429099485 30.651158826093 -1.54903797599778 0 0
-246.225590860392 -29.7465601236062 -8.07490973356951 0 0
-151.730931713017 -3.9162373038494 -5.65177758533464 0 0
-179.359488747097 -10.9184992077626 24.7709451816612 0 0
106.76493184886 -13.4067447856249 -18.7723662198822 0 0
-160.566431735524 14.2476135324151 17.9753341287012 0 0
-103.874175740754 10.4285754734973 9.04562851257399 0 0
94.1126614832434 10.2597963982373 -22.7124951518324 0 0
180.046017368663 37.9329604788594 7.95612984131779 0 0
195.824468275192 -10.3130777847154 20.330396581025 0 0
-225.603676461074 16.6998520773864 27.4303554950444 0 0
94.753926437044 16.8256817898142 -6.77056124188894 0 0
13.6069041880701 1.17175602096967 3.9820592381317 0 0
-69.9432338164198 14.2189541281511 -19.5734842776323 0 0
185.560156684817 11.7274962401152 25.9889118185217 0 0
171.617521517745 -24.3046119903498 -15.9175735832626 0 0
139.349978605945 -17.0389968872304 4.2503369303592 0 0
-223.09051085514 -36.9883858118878 -25.2451766744907 0 0
172.308358950333 -13.7948243475024 14.2476182082991 0 0
-240.847361563745 -17.506025928475 -14.8435679871805 0 0
-185.717031166385 6.73280634095722 -7.57473094563345 0 0
184.4094004329 23.6234478096247 -23.2286649375541 0 0
-69.6879547231077 -0.884470459636838 2.0446031332382 0 0
122.914399902894 -19.5066731698433 -11.2587802765494 0 0
118.018098818708 7.96261773115655 5.24420382580342 0 0
51.4610513848208 -6.22525659060423 -0.0439884457522193 0 0
-2.77178647644328 -10.8494546401751 -15.5485353981501 0 0
-47.8290833307781 8.30373460212796 2.25428166280027 0 0
-233.045398770543 24.6371661100285 14.2937384576266 0 0
-217.154126741086 -4.79964456189308 11.8786961215434 0 0
-198.140661346853 -19.3268003030838 -4.86098748840716 0 0
-213.271091520609 13.8548520708491 16.6038109192186 0 0
-12.648062384233 14.3802215419964 -19.220544318175 0 0
105.471490222451 10.6705620691198 -22.8298562381449 0 0
62.4618145261933 6.78495922879331 3.71006183216844 0 0
57.9863968159271 4.79618620896801 3.62864471955507 0 0
-28.3688984405139 15.7007887754795 -18.1936579685331 0 0
-235.668026742565 18.7126999950069 16.3481115294854 0 0
81.5458772955568 15.8463422453883 -4.65923152477857 0 0
-167.158222366908 17.1430535730584 -8.22699539490449 0 0
74.5582703559953 -9.30998162652837 -0.544950386537731 0 0
-166.26192889448 -8.49019038041055 8.49569709463873 0 0
205.836921603963 10.4638857094735 15.8204660120484 0 0
182.892863172886 -26.7232557394542 35.1128305013158 0 0
203.47078616541 35.5700073706133 25.0090869041788 0 0
-110.157820066351 -2.75045312993482 0.799933306865972 0 0
-15.2299542021732 2.99436043716115 4.73983977331526 0 0
183.807215399338 -8.44425365985681 19.7710841066148 0 0
174.84040686619 0.663444582872932 -23.2949215251932 0 0
-211.456995780877 -30.4886600836411 12.0156393055553 0 0
-159.852815003429 -6.44081407789507 18.8483061481613 0 0
-42.1807554042813 12.5304335333026 -2.82977318135934 0 0
127.517751186827 7.33124724919919 5.64710382000695 0 0
188.081538434826 -13.3412886441347 -19.8239830318628 0 0
-199.226684749483 5.02070583560006 21.3183794322307 0 0
157.966150157416 19.4243131558977 -15.7998471267577 0 0
197.070455048519 33.3104068008625 1.39221634147462 0 0
101.77131512217 -17.8279102589852 -12.5530793024625 0 0
-195.990338300735 22.2510750391145 -8.30579995959808 0 0
-212.20031977202 -22.4079767907861 11.747475123612 0 0
-207.493889773074 0.214189218695527 14.5274449029388 0 0
-69.4225353726097 -6.15537864187724 -15.6665501216954 0 0
-188.992045833045 11.2400048823854 -7.91392922096743 0 0
-146.169542927072 23.9339408933714 2.00683635169196 0 0
191.083341645064 9.53924158087596 -26.3153428748687 0 0
210.479305686501 -13.2941564815053 24.0778062563652 0 0
174.228580272634 -3.74327429823962 -20.3418945144561 0 0
-27.5967258702857 -8.66618706866596 -9.54270881485131 0 0
-165.032440944503 6.1236362298853 20.4504065915514 0 0
194.900027942476 2.64244577738837 9.80031990265701 0 0
157.625064183534 -26.1079922297207 -3.54224752642501 0 0
174.851683569295 -37.0127816194094 17.6151886776235 0 0
-63.5732294665951 -5.98421637693024 -16.9247402691239 0 0
-192.467506938036 -3.85515807296569 -9.17707596019267 0 0
-233.743837932674 -14.2074570405966 5.8598518649475 0 0
120.357889159406 -16.5919507947209 0.517156789503747 0 0
-209.117263739806 25.945345622533 -9.84511976085451 0 0
-218.818935133349 -48.8817395630838 -13.254142165533 0 0
-209.835818851733 0.0194889716682668 13.7603847147367 0 0
39.6678867680839 7.84017643153797 -23.3639657611688 0 0
120.43261861763 -20.2401809292176 -5.19013922782006 0 0
158.262701503352 -3.71441027611267 7.40800127697622 0 0
9.69975362769909 -2.84882296559461 1.54683367520964 0 0
-240.694162122052 -44.2362507288122 -4.29397968947473 0 0
13.7127303127191 7.63818052748815 0.775579600351781 0 0
-15.1841481549517 15.768572648066 -10.6357263721375 0 0
202.215808874902 29.5440804635876 -0.737507715497819 0 0
191.928599675819 -8.62333519954814 32.728526455935 0 0
-216.05756873881 -37.7979131234951 14.1531127706877 0 0
49.2877062336199 -8.12780728807841 -21.5208956662051 0 0
3.75620743801157 6.8550769599801 1.6436554446097 0 0
-216.861557658097 -7.49230954691142 12.1222096246693 0 0
-165.875095016145 11.2043346534842 19.9146435730893 0 0
21.9461598554667 -7.71669776937611 -20.9967945335006 0 0
58.0565190569405 -4.0733281549975 1.33202650961858 0 0
98.350727896244 2.46660919669663 3.34913964289884 0 0
-143.570098703187 6.50649636954972 14.1779779378746 0 0
-164.793347904455 -12.2337223903512 16.9300320687054 0 0
-143.027290200843 21.3270908378384 11.0574339051492 0 0
-234.450658217704 -42.4946121579224 9.62036456024564 0 0
-213.551140617371 -43.2405784062955 -18.0887751955922 0 0
201.354808273905 27.9730515996922 28.9484550548726 0 0
196.257062928863 34.8293318124987 2.68350584071248 0 0
139.195046790672 18.6771098322166 -12.4536807230572 0 0
-176.175048632966 20.1148100583304 20.6332625340559 0 0
-125.30235194624 -0.525019064223272 5.89476872464231 0 0
129.759601127551 -5.56126905707704 4.04245409625248 0 0
208.800352320009 -5.85528398839741 -1.05865707397793 0 0
-133.989401770632 21.6625379705647 -9.78302812338119 0 0
151.400669121596 15.0349806209917 9.67855550239839 0 0
166.407102401339 -28.4240153091562 -8.51098525951222 0 0
193.611366619734 37.9412093069945 7.24484329996931 0 0
-217.578607779266 14.6952731182769 14.6976608367068 0 0
61.9908227678209 8.31381475429984 -23.1967636862594 0 0
-147.25681791085 19.2206185647525 14.2717671267797 0 0
-138.221985061347 23.5007106423503 0.600381795998831 0 0
206.989579800318 21.5422571673544 -17.1166475754389 0 0
163.899275070353 -23.2188978306039 12.3816365350347 0 0
-171.789003969431 27.261673951904 0.998943436897339 0 0
-154.367098421236 11.4336201526618 -9.50900504786661 0 0
-239.332025335479 -38.8242208833757 -17.2548647878236 0 0
200.769172050971 -12.9566026700246 35.3213458963516 0 0
-12.1106093693413 -6.2885413148877 -4.39735408313627 0 0
-104.792455065178 19.6716375861716 -14.0808679031617 0 0
-217.583186703591 24.2954358444252 -8.60252698882133 0 0
184.280414068247 -41.6492393517417 8.03595814167167 0 0
191.715376714355 -25.2966319117549 -15.2716261166827 0 0
23.0779376006087 11.1842146076471 -2.85127752234036 0 0
149.544653286993 -24.1243595923339 2.48309155592013 0 0
208.179578360632 -7.22722021873776 10.7955221297806 0 0
166.754100646815 -30.2401677515365 -3.6050579134801 0 0
183.317032958212 -34.370204403469 -6.74103254677218 0 0
-156.763366511844 23.8167538045723 11.218524030959 0 0
-184.35906155315 25.4324785804651 19.7861523833874 0 0
202.365517548675 19.0241057864535 -23.359824936851 0 0
11.4861768881705 4.49480281074397 3.77354442990608 0 0
-169.939234869376 -10.8134396759677 26.6496956473873 0 0
195.517808606598 -32.2124839349077 -5.11430201280762 0 0
-203.219521312056 31.4079134201038 -7.57757279485512 0 0
-60.9285648395167 -5.74754369081331 -17.6945323468472 0 0
107.890753138296 1.77318212809341 3.57395058021102 0 0
203.082662033187 -9.87063057385763 -16.7565791319868 0 0
164.551235367662 17.1065925680424 14.2437683563437 0 0
89.3937572248857 -13.8220291840638 -17.787261446873 0 0
34.2016670559317 -11.8245641393358 -7.76177067983575 0 0
-217.778345987532 -30.764982204724 -25.8574260177184 0 0
-47.6920038466568 9.86285825014425 -22.301875557085 0 0
-126.233583986666 23.0869013244232 -2.549804507895 0 0
133.325134202907 -12.3384280802011 4.021518834859 0 0
97.4518841376225 -7.52965559239267 1.65564219798228 0 0
171.799633008036 1.37236220615807 11.6038780121001 0 0
-245.065376016869 -32.0947195424956 -11.7051052513318 0 0
-166.196795507645 -13.6837320975447 22.1522709419599 0 0
174.203604213975 23.5528363058028 28.4988733994032 0 0
46.4228745651602 -3.77679089786787 -23.6519341892101 0 0
85.3948079273574 13.2479987640828 1.82017348091232 0 0
209.15928065285 22.4130140810432 14.1231843910256 0 0
214.424792942142 -30.8264113805069 19.2272088770719 0 0
-99.9758950529947 3.03032089469728 -18.2358821662273 0 0
14.7531119026107 5.53991127840806 3.36381190347369 0 0
192.271509121651 27.3485582259135 -15.9614214719922 0 0
52.2838798614618 14.940397954869 -12.5756341160591 0 0
-76.5488176270768 1.88165754545615 5.20804045496847 0 0
15.1564282598876 15.2235708258553 -13.360212799962 0 0
159.861174687232 9.88726820055954 10.1895739469479 0 0
57.3476720631909 0.878150916911938 -24.8076981823931 0 0
111.020263094313 0.604973498507161 3.54465066032624 0 0
-239.097338047822 -29.8719153104585 -20.823797775452 0 0
-178.152100336555 -7.85499694447442 -4.41310183440203 0 0
173.866627424522 -19.6454534075093 17.3296971478641 0 0
-103.339987858546 -3.4957652821958 -0.895438476889431 0 0
-199.07519839049 -7.25543077888466 14.0165206868714 0 0
-207.298707799171 -20.3882042665854 -13.3097711131174 0 0
-88.8298994916752 17.5457190248873 -16.7142953888469 0 0
5.50598702690027 1.27887072120941 4.1528084165914 0 0
99.9721056303568 4.61122875121515 3.80972294739324 0 0
162.863927134711 24.9141886221929 8.97092407449649 0 0
-140.728069517523 21.4701876456741 -9.4467047388474 0 0
156.513609107359 -22.8176148526961 -11.0934456597855 0 0
-218.003848633227 1.0681633900949 -13.2723199632351 0 0
201.611270773641 -36.2874545056831 26.3737772868539 0 0
198.334343364292 26.6153234889658 -15.7610932238644 0 0
-62.851422682791 1.41649230104453 5.18396624117575 0 0
-200.645139415093 -19.0655535554634 -7.42999906955784 0 0
30.7724755926384 7.85325998654086 0.925160264931421 0 0
-66.1022302224117 2.02691219402458 5.38710074939281 0 0
181.093439338405 -38.9591582712951 24.4616467276171 0 0
-216.943449859154 -1.75893831068762 11.6010828089142 0 0
-200.986772451719 21.9920972983129 27.732063009726 0 0
206.161671166068 35.0133373822487 18.4724252255425 0 0
145.406319755762 20.9233062251211 0.513728547168108 0 0
-213.204668210437 -38.0632075064526 12.5006091818383 0 0
116.4433365447 17.6747033328494 -10.6515043483159 0 0
172.45271176008 -6.17002157047965 -20.1423000138653 0 0
204.245708390397 -1.51896639979087 -9.30484297575009 0 0
187.283165098466 18.6072531875436 -29.7563846704325 0 0
212.550136519818 -21.7158520083144 -6.48064436733748 0 0
-209.461113152336 -8.81573732424548 12.7678881766244 0 0
110.743803695218 -3.9680821752396 2.89854529937704 0 0
-77.818994645818 7.55567523555843 6.85019969265968 0 0
52.7144115315724 2.36285775318528 -24.7476354327824 0 0
42.2250881189821 0.895794072654048 2.83393469511575 0 0
-173.055965080428 -16.8021114588225 15.8344666294102 0 0
144.322548412055 -3.31943738167469 5.46547205744085 0 0
-36.0034478200246 -9.25786613103915 -12.0897705451685 0 0
175.462264250524 26.7778585509856 -12.3776931469887 0 0
71.8207555579316 1.58087281746694 2.45958150797266 0 0
171.900281318547 14.0230079641547 19.9062721090845 0 0
77.6307975710287 -7.29606422130273 0.627290902157063 0 0
144.946435213184 3.08585189784623 6.38316601409468 0 0
-173.672434297348 27.2583971140656 10.7080155776227 0 0
144.070227986002 -14.0356705205689 -18.6173377071545 0 0
201.104166659068 -0.963518981306999 -13.5565353086796 0 0
152.132549510641 21.2678591135091 -6.25940526197253 0 0
207.991108606016 -26.3357808759627 32.5156620182664 0 0
131.561818758225 -21.4224811943238 -5.5344923744918 0 0
-59.1460495212731 2.48341565261836 -22.2256481477461 0 0
199.223453201758 34.0007094381871 5.31826081746961 0 0
177.417896172744 23.1379119449598 -20.6338406953833 0 0
-157.481967742901 -4.77662985587459 12.6621906236329 0 0
-100.813583123321 20.5555682137175 -2.13571497530528 0 0
179.908903138487 33.4529776960903 -0.301470112660526 0 0
-226.508521111765 -4.96056375168928 -0.950793044953939 0 0
162.821215378768 17.117588973631 13.4133218012277 0 0
-229.518995430948 12.078293711454 15.4767378838538 0 0
144.627481997698 20.0474390474825 5.13522759398295 0 0
145.474207897854 8.44082706909204 7.48849504413942 0 0
101.975380029101 -13.2441004771537 -18.7917836900352 0 0
-80.0694063807677 -1.99498685571126 0.453112910677048 0 0
193.497881607798 -10.3751722876194 19.9168462313587 0 0
52.6071045749592 6.52699459846153 3.33899791985409 0 0
166.72556514479 -29.5120971282532 13.074999490221 0 0
206.837272384402 12.4050254202638 15.1446077642902 0 0
193.105390017493 30.6162361401896 -7.85595575387014 0 0
-225.004395857338 0.0793078855874983 -7.07237963359752 0 0
-163.935406228888 8.28534316329724 -8.03582863977848 0 0
148.336851787246 -0.584477578884231 6.20832545909119 0 0
-229.308752431766 -7.09640343302936 -4.67867171567691 0 0
-239.314600663813 -43.9179199678935 2.38748303149356 0 0
-142.972834299015 -3.80925554907554 -6.02671467521275 0 0
-133.605034994654 22.7541828644077 3.42785232753853 0 0
207.952634722738 25.155621892401 17.6855619227719 0 0
104.463954221781 7.53162877477978 -24.6811312217297 0 0
-122.007125699682 21.0445717818105 -11.4599832310213 0 0
200.375784683472 35.174068378443 18.7266847171692 0 0
80.9006990452819 4.28313415579848 -25.1095068586799 0 0
107.720685959508 14.4817062002932 -18.3611793146639 0 0
209.394479382103 29.5761017456557 9.3528359752465 0 0
165.620063516287 -13.6103762166078 -18.7501309732622 0 0
187.552498343048 -9.04420012724423 -21.3920193117268 0 0
211.136636212426 -33.3925562047366 23.9394774422306 0 0
48.1727055047685 11.5996394492561 -1.28379710029625 0 0
212.342003606853 -32.7864181733581 20.4576442340682 0 0
24.0411856119176 -2.17263763430529 -23.7456778354457 0 0
-24.0430465127272 -9.11263867655131 -17.0685515524898 0 0
-189.953523719081 8.9314187678844 -8.23823560712946 0 0
139.973369365298 -20.3350348754427 2.09241294163505 0 0
-86.3756935603184 18.509884230312 -2.03967883383422 0 0
182.010922202221 34.0025971910006 -0.412461305601798 0 0
71.9933654861234 -12.6818663201777 -3.44143805693965 0 0
47.6828137168092 -14.2384399007823 -14.1861976048279 0 0
25.600710744144 -10.7716305202981 -18.5915100390681 0 0
-153.73589964904 11.3813378754015 16.4638936391856 0 0
207.266465808573 9.96939914913418 10.6182220542126 0 0
-205.35439964012 11.5595887257735 26.9666550450172 0 0
-75.7849374055003 -5.27290302510155 -5.83749217004589 0 0
-111.208887709402 -4.80341145782146 -4.90600969027476 0 0
185.632945592442 -2.19949671384592 16.5237925460161 0 0
201.635975132351 -37.7668091613461 12.6930349464021 0 0
-228.898523682219 -25.5777808011424 -26.1804536361553 0 0
-28.1712628725386 -7.34750920120258 -7.05069148075461 0 0
192.990776822505 -6.85329464936697 12.4812784887092 0 0
-53.7632989851776 -6.31195340046483 -7.3148960327589 0 0
15.247983680237 -1.15937263692776 -23.8350528071948 0 0
208.762353773791 -6.69364780752623 -5.17083346352874 0 0
-151.494262210672 12.282466839642 -9.9558267641922 0 0
-231.910219264334 25.9891782198746 15.1875722167423 0 0
-170.185800674571 -7.01550735080452 -3.40423371615977 0 0
-180.485142497635 19.7440346875536 -7.49648965992217 0 0
168.044676499052 18.448777622678 -22.8359262210477 0 0
133.089180071804 2.00131674676977 5.15976591595576 0 0
-194.697799843989 7.35175720755413 -10.1907992739558 0 0
68.098647150539 5.63257348207959 3.73944267772108 0 0
186.728775466419 -40.4664791414424 4.09018162240296 0 0
177.155550287892 -39.6157347701435 4.18667587861173 0 0
120.48050750142 -19.7642847975781 -3.38604930032829 0 0
-166.819393723502 25.9913843484599 -3.36930185056877 0 0
-216.69458135918 34.9331570256292 13.3286503258504 0 0
-133.316636709873 -3.97939516940422 1.48181926901371 0 0
184.601830696146 -21.4757773560603 36.0797868289192 0 0
204.556019463894 -18.8229765092808 -17.6655750362745 0 0
-216.488085941292 -27.2944894442555 15.9178675832683 0 0
184.830944629168 -30.9313938280122 -10.3925074162564 0 0
204.319565116986 35.7106275165708 22.6318434468305 0 0
-86.3928088750328 17.9027805096195 -16.5570968124756 0 0
-134.661201789229 23.5507319511269 -5.2756885499987 0 0
-245.380867590894 -32.7647476551613 1.70376088782654 0 0
177.974492087189 -17.1121940706404 29.3402928697493 0 0
-208.823540155148 35.0537581390889 14.6312932120353 0 0
199.638020873004 -9.1358471616681 31.5611676123644 0 0
162.339047219367 -29.3699057024434 4.44453791367684 0 0
214.040438934648 -16.5451346287004 0.525961719988835 0 0
-177.841745389215 -5.73819712309736 25.8105920931667 0 0
-190.655209199654 -16.7368097903958 1.52298808566127 0 0
-53.9383896708137 11.0292839059726 -0.125081585033411 0 0
-197.988823638266 1.26253560623383 17.7661121804718 0 0
190.380936806332 3.81407552280149 16.1506554931585 0 0
-3.34400158427308 -3.81799262267594 -0.0576208696514293 0 0
142.412311949003 -22.4999341333436 -6.5480843391686 0 0
44.607267376402 13.4209002503892 -17.9743849115829 0 0
175.775088108155 21.5626923522962 29.0121575173896 0 0
-155.944744260831 17.5394385733954 16.8607386954709 0 0
-82.739112996068 21.1828950558329 -10.6057506845352 0 0
-204.221139220138 -28.9418868772542 -9.51321575009847 0 0
119.960889022253 4.52273932437839 4.72113893874478 0 0
195.136163685581 29.3101123371686 -10.4803915431141 0 0
-62.2309766603657 19.4579920014495 -9.965829970139 0 0
211.961247875952 -22.8398773640984 -8.67009728207145 0 0
189.490390616063 -7.80031603647259 30.9776401325766 0 0
192.744675651344 -4.22939570752856 -20.9208761234579 0 0
123.919251198575 14.1462473389105 -20.3824418544214 0 0
46.1187090815336 9.69371435345652 -22.2682833717401 0 0
199.960591209967 -37.5683617982743 16.9444203536869 0 0
197.039087832989 32.6935892342989 -1.18530200435925 0 0
-152.883098298834 -6.18705126056778 4.55777929561009 0 0
207.74090009993 -4.46934694871305 -3.06071944626575 0 0
73.754975412241 -14.3068985747309 -5.01070267696232 0 0
-238.922563170304 -12.6980557194737 -7.26172584331844 0 0
-229.131736246561 -48.2131547221584 -2.56822728896554 0 0
-60.0675655515155 1.30025597455626 -21.9365881777225 0 0
158.842749234746 -17.8885182580611 -16.6731398121852 0 0
-215.770594933241 -11.1822240169029 -16.4379704948385 0 0
-212.313683010674 36.6805762628203 -0.29265062091582 0 0
92.84318948698 -9.7638987995085 0.74830100584678 0 0
183.221952506589 -9.77663586977166 21.9316571265993 0 0
-231.454729356957 -13.4268796970071 2.00251237067821 0 0
-148.406294274732 5.41753586744645 -10.2838431906156 0 0
156.829872342999 -26.3291062669278 6.02428040563285 0 0
-55.839039419736 4.10877474131934 5.88103089548329 0 0
183.170800182271 -36.2943017363333 27.9296710555815 0 0
195.043174861985 33.555949614985 -0.880584692747612 0 0
-202.903978810921 37.3717161883869 11.5258931101733 0 0
-136.266300673562 0.311681429883692 9.45891030541132 0 0
196.762701027737 36.6624033658559 22.8163859335885 0 0
-225.937168154143 28.6750731235728 20.1540431593163 0 0
192.991740120037 -36.183908410715 -0.825970894343522 0 0
-206.489518223572 -37.4467049856328 4.59228153820116 0 0
-44.1912219303016 -8.53816807378872 -14.4839753462157 0 0
-112.987732584995 1.02278454640375 5.90579719119324 0 0
-130.940185375672 23.4754158969157 -4.13645028507269 0 0
161.408182477156 -7.97705535038345 8.34326668607012 0 0
-150.476406688032 24.1694060082618 4.12556879563684 0 0
154.838106924347 -3.2320420004844 6.85999957316941 0 0
-196.378031501217 -17.8014488905821 7.76288457206389 0 0
-245.400878609361 -35.8169664434211 -6.88890314464761 0 0
157.94330671769 -27.1402024265762 3.47124381405294 0 0
208.534140441863 23.0068653407421 -13.4063096072054 0 0
-205.509540620384 -16.6338572294302 -11.6254156395968 0 0
-166.604506988033 -14.1161889610478 17.7045303150728 0 0
141.993785845997 -22.7840602446176 -4.33569460540202 0 0
143.256607324336 -3.97777804355318 -22.7528601063794 0 0
-231.841724063322 -16.0709459637497 11.532907709873 0 0
-223.613618741015 31.971513228564 14.5438273804112 0 0
158.845917476859 -14.3525286128284 -18.3910894614101 0 0
-236.918179758012 -47.1705766170115 -3.41396427864855 0 0
-218.679017540446 -28.5860489974529 16.7031309269341 0 0
-16.4547225043635 -10.7315648371633 -13.1895574215818 0 0
-184.660984245975 30.838404520155 5.83537340983946 0 0
192.884941187687 -1.81001229076664 8.67934055479639 0 0
115.295851767771 -3.4023420730025 3.24895409995709 0 0
27.6065988100085 -5.04622275511935 -0.371929545685852 0 0
-197.831232800998 -9.46848410074706 13.1927343719211 0 0
-220.233573306979 33.621886345222 4.73416891059015 0 0
130.32460777712 -3.81837659496603 -23.6749247360252 0 0
-183.994222551353 10.70370943219 -6.93058243713702 0 0
169.950720421075 6.59832371432251 -25.5181659265704 0 0
-66.1556987811851 2.31452992678713 -21.6786471293776 0 0
-82.9191223501643 -5.13934706499354 -5.56131751408468 0 0
-225.256496554375 30.4002554486516 5.94552441210227 0 0
-195.585636108035 -5.46502891150978 15.6778959501517 0 0
172.951282795838 34.3306108684681 7.13674758184752 0 0
-231.923130799332 -10.4492783737342 -0.438262689814002 0 0
154.906661729642 -20.515793649659 8.89691154384949 0 0
189.861023543383 15.6616618784899 31.5857130616877 0 0
-226.153571930156 -48.6443581650771 -0.222193130017371 0 0
-236.032936067997 17.7235557460363 14.2460655383392 0 0
-158.024355339349 15.5851685452047 -9.24433509883738 0 0
-0.86096059320117 2.8959597970932 4.10049364777692 0 0
171.366038248283 32.6258930378879 5.04696162073176 0 0
162.523019826072 -10.4990588530573 -19.3722843669507 0 0
-219.141752940837 -47.4145351407581 6.19665584627321 0 0
85.3426650264767 16.2044836426969 -9.2203943323818 0 0
198.856481693356 -37.2113231227546 6.54410745241835 0 0
180.723365261478 -26.196184975547 -16.0117660241793 0 0
-64.8489328248568 11.4625134881237 1.12154341535042 0 0
193.471796194314 -30.0879727232846 -9.61818098941894 0 0
193.420246970473 28.6125878813378 -12.5841261448537 0 0
-237.661693406853 -45.8694879502884 -8.66208819024196 0 0
208.867245812863 10.7667154629767 -5.91056828918951 0 0
-171.603977434456 -8.28752835432178 27.036727134744 0 0
-175.643550404665 14.4379523046879 -7.28341889262232 0 0
157.617134208463 -25.1740875554999 9.58276199330497 0 0
-200.681202024484 3.58200848524835 -11.9077741023539 0 0
63.2866814568976 -8.86437528431062 -1.34739685579261 0 0
-176.043783894273 20.1962730434572 -7.47069325550933 0 0
149.13941665635 9.94699704875117 -25.004132468374 0 0
-201.468228164012 -24.6146498201075 2.42138632305985 0 0
-56.0951048105388 -0.374177453703498 3.73247251173561 0 0
75.8771192676989 -14.6485646295843 -16.0569593009433 0 0
-123.886395710995 11.9829468258936 11.5198894957727 0 0
-101.870522682325 -2.12592610156232 -14.5838846212328 0 0
-190.069662664196 22.6890042076041 -7.5419884772057 0 0
140.536369578217 3.06920563737253 5.92942569539322 0 0
-229.433901414745 -7.90614121681929 -2.19255187577878 0 0
-202.973903120196 8.99558053325827 -12.5761544477358 0 0
-223.233785205548 -7.76936921406882 8.47989995875247 0 0
-199.763951761264 24.0226606267299 -8.72528509617645 0 0
116.212510584448 9.85607996506524 -23.8716138996767 0 0
64.5368144552472 -7.13372201403489 -0.155844288383532 0 0
69.6480614545224 8.24578768523809 3.47344017153814 0 0
204.144063166102 -27.2759913972884 35.530289937243 0 0
-143.625732243096 17.1285992919836 14.4856048505238 0 0
-14.4269780020635 -10.8207898190469 -13.0914996031923 0 0
-224.223159494744 -31.1730293157845 17.4217245636038 0 0
-245.630818540773 -35.4940820263436 -3.5045950165978 0 0
31.678181698889 -8.30341017368331 -20.8713326164126 0 0
-211.676039391182 11.4386199563419 20.489580357855 0 0
183.745260616725 -41.5854606398326 18.1205528306217 0 0
-194.068697515762 -2.79638064771679 17.7122651361267 0 0
-221.814672827504 13.2300400877631 -10.6895495185523 0 0
-35.5083281792381 -6.42557509900339 -19.636407688015 0 0
194.461393262479 5.82490153737333 15.2493173246287 0 0
-29.2942984461892 8.44889946494744 -23.2563628972426 0 0
173.231041915813 -1.22601602177496 11.927283448295 0 0
-79.4259742013666 2.44782022030015 -20.5387147346825 0 0
-86.0617666413868 -3.40462457727456 -16.621758229809 0 0
-119.435861572493 11.5173201102157 10.7870580676304 0 0
-219.751428151709 7.44649302746485 -11.8978118342443 0 0
138.617525638022 0.246146363688583 5.35820214552024 0 0
-214.709377370173 10.5123400886417 -15.9578177513548 0 0
-205.650976022564 38.7328722734405 3.48384572321978 0 0
-80.7393976215564 19.6310087536977 -5.09720377957698 0 0
151.259552073404 -19.799934295448 7.32613806469378 0 0
95.1281668806126 16.3269822652283 -1.91980533101874 0 0
-205.572985101049 -14.3956083178825 11.3109484223358 0 0
171.341423921876 6.80077005062664 13.3770666974968 0 0
-211.969732746666 -34.4386127684059 13.0373306983939 0 0
176.40284423225 -14.1601484577761 19.9418812819883 0 0
-95.2240351056333 21.3113641422866 -11.8377623889635 0 0
-78.4696800827266 8.47660700386605 -20.8894870520972 0 0
193.000335209657 -7.93963480884645 29.9902171817836 0 0
185.294201638335 32.5024309240928 -3.37987972847305 0 0
-156.740691430047 9.22295914021156 17.3065809101828 0 0
-146.5579210808 21.8502871664608 -8.78036101132676 0 0
-232.754531385875 -23.3117278207195 -24.57371461345 0 0
182.829658250894 -24.6656351554928 34.9291281846412 0 0
-83.8131338971172 20.938756038464 -12.0908998936794 0 0
171.067502101806 29.7258410864711 13.5201401544345 0 0
11.8249643249399 -12.0580366181206 -13.4919144359068 0 0
-150.517118252904 23.1129633069625 -7.50070716170869 0 0
-148.13372235197 23.7110572058985 -6.45525670900532 0 0
-220.63194926221 -33.4737519812666 16.827859455046 0 0
211.419536905444 15.6494161762463 -0.599387282511627 0 0
-186.803168487743 26.1525644149605 19.9882750127495 0 0
130.240549131221 -18.0525754582912 1.14543268909218 0 0
-18.5484273553866 0.116643979208388 -23.562678998402 0 0
-198.351502274539 -11.9870315084892 11.9551628543847 0 0
-206.918232536202 8.81392138800273 -14.9426415649433 0 0
194.979804771234 36.4599342772117 11.7475563961606 0 0
-55.9137349965785 -6.72098449688545 -8.48091105683589 0 0
36.9435952900235 -4.89985700885279 -23.0337800041389 0 0
-146.32352444484 12.8461208061355 -10.824991174598 0 0
205.667444424217 8.82548463125974 14.5597910854086 0 0
128.207505980989 -16.1146694812867 2.04757430954615 0 0
186.60389409805 12.9805117677132 28.1891930007261 0 0
-239.810980162522 -32.4495470990717 -19.5690936170315 0 0
158.940626869997 4.6681531126958 -24.5698575820744 0 0
-219.092061044794 -14.9830114090375 -20.3915384880751 0 0
-39.7280439501336 7.66150191842023 -23.1446406926399 0 0
170.72014015017 -5.33046592514422 10.7328458921381 0 0
-108.873065260809 -1.70776366719564 2.14666890240313 0 0
-193.292767632454 27.6752496734663 21.4546243294311 0 0
187.139212803195 3.25975178248324 -24.9079336103072 0 0
138.425728106814 4.08093739373591 5.90649244054243 0 0
188.276292366485 27.5332894467286 -15.842352600027 0 0
175.01420795447 -14.1546237224669 -18.9575983392162 0 0
-237.954388283372 -31.0823791246669 -21.623244428705 0 0
-153.74163125329 5.01780496308367 16.7711638135631 0 0
160.362617920916 23.4521811415787 -2.45768071212683 0 0
-95.1319616532857 -0.330142899925144 2.84220925165218 0 0
-74.7676126123657 17.3504063180232 -3.28028057230056 0 0
-230.872563478457 26.0528605236109 17.4255693824688 0 0
99.3259404573051 17.0763315318573 -4.58031797679081 0 0
146.725120623871 -6.18932145895504 5.59645969685154 0 0
-16.1077741897252 2.54572580449555 -23.8887185519853 0 0
-5.27447754482249 -6.74636595042552 -4.55834522500752 0 0
199.432047679899 5.39316101510239 -18.0099948328667 0 0
-57.9927665903476 9.32129909930079 -22.0825476390285 0 0
205.082567445585 -34.4055097422096 29.7414241362955 0 0
191.343017948288 -22.0494551741854 39.1158254708268 0 0
153.811462036341 -14.6034103239316 -18.2793650665773 0 0
160.443716919421 -27.8127273688585 9.32160181017274 0 0
-121.51481728297 19.2943655888472 -12.9127776444283 0 0
-131.932965813956 -4.69469809934619 -1.57832321303649 0 0
70.1629401625444 -16.0939309545667 -11.5242643951743 0 0
-201.408266186627 29.4315362134296 23.0037337616613 0 0
161.627890035198 -1.52719604667725 8.08058182935433 0 0
213.05490421712 -31.0515215981476 9.76947472814985 0 0
-58.929989364938 -6.84779817127551 -8.98272879064728 0 0
-49.814973632595 11.6856872235077 -1.15802920654242 0 0
-205.57503151875 -19.2581025591257 -11.3403215198931 0 0
170.493270068801 -32.9088514959479 -2.59541915131714 0 0
166.669555228114 -27.5642200740896 -10.2243965142017 0 0
138.141337651773 19.7402961832246 -6.44762532402197 0 0
-230.026415536955 -46.649566331684 7.4827857487727 0 0
-208.380198813988 29.6935340532572 22.2949028201763 0 0
175.548088742004 -22.0148446592342 23.4727573577516 0 0
90.044866280554 12.0487633074458 3.20824791576097 0 0
-142.537652605102 23.3947795929365 -6.89889211229805 0 0
110.060528918413 -19.3586037246692 -8.61146377934631 0 0
-189.708463147932 -0.114844126016693 21.5366704688142 0 0
-189.407963107236 32.5185404973705 -1.9788770471358 0 0
-81.6415497876253 11.9799266961325 4.6081273301169 0 0
-85.3670594041233 7.49278005369013 7.19027033525379 0 0
-204.624945561901 14.6646401311045 -12.9259848339475 0 0
140.328988900372 -22.0658848015179 -7.30469863960244 0 0
-159.28072874457 5.85813333366566 -8.71236618631093 0 0
185.001658509182 10.8972014727008 -27.9274983473709 0 0
-189.907712201726 18.6888946649939 26.3180430269916 0 0
117.531245942989 -17.5402878923368 -0.703308001626602 0 0
-197.883581354185 -21.6333989760675 2.08536997153772 0 0
-208.894107541574 -41.5353720669901 -14.6996970920889 0 0
195.559708867585 5.47974094046104 13.9071412012728 0 0
-199.151359897032 6.79242965111423 23.2016565544865 0 0
-32.5788206385497 -6.00476909972434 -20.24208855666 0 0
-216.698741486344 8.83585997317897 7.42141339479579 0 0
143.64663067609 17.9063877212199 -16.0501352628061 0 0
-193.352049209941 -5.5700611699353 16.3553149812048 0 0
-225.18117162427 -3.98748829300566 1.32917494386491 0 0
118.730354332812 0.111379529139987 3.92746763602071 0 0
-204.236815157553 29.2107847547928 22.8547754792627 0 0
-49.5500634051257 18.6314273084787 -12.2416721459305 0 0
-142.683691279315 4.08122907120605 13.2716033732742 0 0
4.20122226395573 5.44666158143622 3.38124570179378 0 0
107.015799044427 -9.93851156898024 1.8676673838394 0 0
-196.529931681287 36.1797808080213 -1.04795566937448 0 0
160.6122224252 12.6201522677514 11.4366550969934 0 0
-233.799782370989 -47.885831747745 1.36627664638446 0 0
-30.4578544463284 -6.14097510496204 -5.29708558792542 0 0
200.953442704018 11.6175783786417 -22.7048073610725 0 0
-188.894722658779 20.415206230125 25.0664208673222 0 0
193.676488485836 -17.5743515389469 -19.2360248262954 0 0
158.836597469191 4.45829221430429 8.70636034038304 0 0
170.063139460734 6.7427008263974 12.4447509533129 0 0
45.3703332968355 -9.35226394363283 -3.37557873906793 0 0
-178.648982860669 -0.510794690829345 24.8830295896122 0 0
-224.943720388158 -13.4518108099101 11.6994329701381 0 0
101.099510046518 0.117472185960207 -25.4776300748059 0 0
178.881047121202 0.999864446286385 -24.3103348196739 0 0
-77.3748738543225 19.0669140102481 -4.98700890344318 0 0
-88.0235644483758 19.224585810327 -15.3283158913407 0 0
-218.200263939531 -11.3511439354366 11.9518771500964 0 0
125.481026153559 -10.8269607674527 -20.6507267654693 0 0
-133.567122379047 23.1165767400202 0.2650136012035 0 0
-2.74001160939847 15.557371058736 -11.8475164438489 0 0
-212.340849595629 -26.3292341557814 12.1781207080473 0 0
-93.7108713944841 18.8628121690621 -15.3316597747167 0 0
204.956697116048 12.223879861395 -18.4246605275787 0 0
-153.944286201539 -3.48619542038031 11.8325281429445 0 0
167.806828266831 -2.80789954361402 -21.1244317565587 0 0
-228.983970172254 13.7580440010722 25.9773168319002 0 0
9.88662929736337 13.9778872507615 -8.23763959557132 0 0
-145.164655263247 21.5100653750446 11.4117011990076 0 0
-14.5331181040971 11.519721474606 -3.67217627185773 0 0
-164.187900079926 25.4352113574059 10.1208126024801 0 0
203.892694418528 -12.215517145858 -17.615970869715 0 0
-203.925975285499 -32.8974532208839 -12.0020444563341 0 0
-183.388317946366 1.39512095305405 24.409570984621 0 0
-31.0005016767502 -9.70152334875878 -13.0042673032068 0 0
-71.0310113595858 -6.60079047969555 -13.9113662685382 0 0
139.792116856052 19.2515193368828 -10.1095547829436 0 0
-50.7864858324292 8.62631806513061 2.19532677772015 0 0
-31.2968388653619 -1.00819575773056 4.38135366751788 0 0
95.9288183764871 -18.1809105627805 -8.17968175531435 0 0
-216.677865509943 20.2893645748416 -11.9527130784652 0 0
202.879624626673 -29.6596216638573 -3.36211736696509 0 0
211.145047607021 -31.3612726395128 8.18457310946112 0 0
189.586799548612 27.5475960799265 33.7827506991508 0 0
134.932513446901 -6.00603607122435 4.40912632952724 0 0
-156.842451211284 5.42231422360285 -9.03913447136661 0 0
-188.625643397838 24.5555150094575 -7.11211902205328 0 0
207.033015087764 -35.0211763185725 18.8559680438609 0 0
-67.3786388837772 -6.60084346696293 -9.76878616128874 0 0
-194.631324389863 1.7831465425652 20.5473249692543 0 0
-163.423596350518 25.8538877258904 0.348349452748706 0 0
-145.071054465458 22.3711456712187 9.94115093915394 0 0
102.240919607933 -16.5646718352893 -14.8614333312067 0 0
194.878315883568 25.5887838523818 32.9614063118296 0 0
-227.242193142822 -20.3207889809759 16.1236592782211 0 0
-219.98707821468 -1.97487683464855 -13.2347807447048 0 0
-157.249247952791 -2.08906145081798 18.0198827364742 0 0
-221.003098664808 6.10235050327404 3.81526633167125 0 0
85.9365673052095 8.96632957583346 -23.4239610770034 0 0
187.553889080193 29.2063306138545 -11.3955064730301 0 0
167.815125427113 -0.474001535660724 10.0259563555754 0 0
-101.560719852841 7.0112181285755 8.26646719139102 0 0
107.11614062015 10.4239502421518 5.13759615474156 0 0
162.405750450258 21.8014876239887 12.9258258848727 0 0
49.537899928133 -6.24611491254721 -22.6390654330185 0 0
186.688777098152 -6.54870160366019 -22.1254176647472 0 0
184.212229325485 -18.3818922793373 35.8765563960353 0 0
143.355721812034 20.3549055825768 3.07364680569533 0 0
160.193583628493 10.9052002945838 -25.2351503760034 0 0
-0.038474532079343 -10.7880462498144 -16.1240026070256 0 0
-197.179426003903 33.7068896874625 17.038436176122 0 0
149.997849734636 17.7605096539872 -17.7960423884441 0 0
174.583443711472 35.1247598461926 9.88064176166766 0 0
199.109643265394 12.1575908472415 -24.4169489058962 0 0
-195.536059181771 19.9805866530815 -8.43334352380807 0 0
140.341694775462 13.4373409776 7.86994087434138 0 0
92.4808167717398 -7.04880576866337 1.46543239844041 0 0
-157.994676894189 11.9675970711243 -9.03184834135806 0 0
69.136114868592 -7.49831104180809 -22.4832844454562 0 0
192.032712016316 36.0438567607739 15.8663924141172 0 0
209.52901258291 11.4596544220555 0.0657731736742415 0 0
-214.85632091705 22.388765636748 -10.403992409672 0 0
201.38970302821 9.39850702581095 23.6528674518563 0 0
181.768712168363 10.2314476349105 24.4640493773542 0 0
-109.623613740141 -4.10121538835243 -9.99531424779467 0 0
43.986244725638 -5.66768756838956 -22.7961551933483 0 0
-180.720919774073 28.6295866347265 13.1030311673719 0 0
-209.806211915141 34.1891324993795 -2.86607545107522 0 0
185.527649652508 28.8628467026246 -11.8761790463444 0 0
-201.274698138616 0.908399816184666 -11.065358816561 0 0
-163.142982295828 11.1185891601308 -8.27685285680417 0 0
147.475328557898 -20.799298793141 5.47271379498209 0 0
-23.9638413657328 -5.21249168456622 -21.3626215370906 0 0
-230.056706970637 -33.3627466787251 16.3178747360473 0 0
201.879108199597 36.8438198762517 24.4213835780987 0 0
-27.8918272207607 2.08200309284391 -23.652723389107 0 0
-207.261060359544 -41.4307580372547 1.11396083924705 0 0
-198.354391816956 25.2921505000773 25.3353669436662 0 0
-124.996384480701 3.55670560944205 9.60971306831228 0 0
165.71842792634 9.02231200261353 11.3344935710305 0 0
25.958803111758 2.84125941651958 3.84418915732154 0 0
-172.652242518201 17.9018838605545 -7.79435605320372 0 0
-99.4757168348311 3.99466108953427 7.29733758226197 0 0
164.00954510564 22.3153636856635 -12.0416476911628 0 0
-123.34280075786 -0.0484377603924679 6.09088801754949 0 0
202.311584647233 17.9872798644491 27.0976649641606 0 0
-161.204828920547 7.7269027520933 -8.38705693278249 0 0
-149.279281318375 15.9837840933993 15.7674196876629 0 0
-151.585986469122 21.8458194455314 -8.4440486981163 0 0
90.0787761994227 14.9498811885063 -15.6200044705499 0 0
14.2055823856491 10.7625763354362 -21.7915415171321 0 0
-161.18495410721 25.5595191050479 1.07514498484914 0 0
46.7902827890393 14.9819535871575 -11.880128866573 0 0
79.94187794838 -1.49653398632607 -25.0363750993295 0 0
210.794533315626 23.1948500622761 5.3266952443194 0 0
-51.8861073909514 -3.83333832239901 -2.54673673084751 0 0
138.965227381716 10.4777824832121 7.20787528725112 0 0
-162.829978169438 25.6644010937412 -1.51120578633725 0 0
-78.0345371166413 20.6532029172606 -12.2343835328976 0 0
-2.62893948152663 -5.27862303973613 -2.41614591362965 0 0
91.5543056963558 -7.89906260964244 -22.6311447635449 0 0
112.32769066235 -0.715059032044992 3.44334767783228 0 0
212.525903934401 -19.1646806128764 25.3842639551512 0 0
98.3493754497933 14.5798144515435 2.29396904731502 0 0
151.905423283264 9.51031845257231 -25.1131146155386 0 0
172.224900174208 26.2312291928963 21.436677739278 0 0
197.964993594161 -30.4512073525309 -6.24201440567232 0 0
-21.5700672597097 16.2150667825564 -16.3741675655254 0 0
-239.67806524069 -33.7692408123789 10.7145205701899 0 0
-44.6132725916565 2.21394417543435 5.55002084325106 0 0
