"x" "y" "z" "f" "a"
84.8863984477254 -2.64455932747564 24.2325617865037 0 0
-218.351879099208 8.64166094281216 -16.9354766136519 0 0
200.917891696275 17.1224042732402 -24.5995503915267 0 0
194.078200021024 -28.2231539561178 14.5738723335472 0 0
-233.466726936935 -42.7245241896085 -7.65128337389622 0 0
168.219589550502 15.1111346706199 28.779528522639 0 0
147.891383050298 0.598318264368031 -6.136424703905 0 0
-55.0464130293731 10.200083080232 20.2587889493841 0 0
-160.535720797952 19.1718494781713 -20.5608060477143 0 0
189.620202059376 35.0263247730654 1.99200445165805 0 0
-57.1777262594624 -4.5985924069103 16.0990325076472 0 0
187.25072159995 34.9306096638871 2.63828635816622 0 0
-85.7530292314489 10.6061677065046 17.0534906676671 0 0
212.326490853336 -34.0068665477358 -12.7673907484646 0 0
101.390032617465 -0.582988197872844 -3.56387347060743 0 0
-220.182504611523 -0.733456725690862 9.40252081484163 0 0
178.079528419906 28.5637554096075 13.0768040754888 0 0
91.9296931749934 -10.4503280565345 19.6133592142732 0 0
28.8904869729434 16.9274106589386 7.58062444187712 0 0
183.657076674571 -30.1817146643744 13.3443942434243 0 0
129.562607662744 12.2763763055208 23.2245917001035 0 0
-205.452686819275 31.056358573791 -17.4040735369834 0 0
-225.80288066559 -23.5255997604009 -16.9874663431674 0 0
197.500190680663 10.5171761179716 -24.5464603608592 0 0
64.0508106237767 -11.5917610608588 13.9368209031804 0 0
55.6132803630678 12.1831071799037 0.48419166101316 0 0
35.1143696264074 -7.15933307040801 20.1272610722364 0 0
153.105543188124 -23.9200947898344 -4.5385469927084 0 0
-178.4511482073 -11.4821608023186 8.2366829734721 0 0
-214.939523850365 6.94003992740759 -8.03504321709205 0 0
-223.57531852798 -4.50082295973995 0.0394886999153036 0 0
-149.688035722819 11.1285537167902 -18.9034128838324 0 0
-95.7262685613946 15.9093657741311 -12.1595237833058 0 0
183.947210394067 0.618399137904194 -14.780808421033 0 0
144.268808298936 5.61302306688369 24.9881911021868 0 0
66.081347820056 -11.1472468394973 16.5671645508821 0 0
173.646895132792 -12.0715225557211 -17.1194713973104 0 0
22.5153721314147 12.3327344030588 22.8411818698351 0 0
-222.97781392399 13.2349114600934 -11.1375020437991 0 0
166.794631903245 26.7130932147668 -12.5246899484613 0 0
-69.1580195066319 16.8949993082365 -6.23641510356893 0 0
178.33984965377 -19.065551173495 22.5417858360786 0 0
-33.5283133374102 12.551073748529 -4.44577891640755 0 0
198.198835184172 -18.4702976575556 21.0948279239815 0 0
186.563380734225 -32.7246614695581 9.70882654061068 0 0
99.5895529879549 -12.8941632288301 4.6797898658032 0 0
63.2040819856593 -9.18948818529054 5.4601809674747 0 0
-243.200693965505 -37.4348938752016 0.720507785537937 0 0
55.9861026757907 -10.1778642835513 8.40039091413428 0 0
-179.744124060997 -10.4511547844185 -14.7543725933207 0 0
-154.644391680006 4.7483042604381 9.10916231326696 0 0
-200.530437180286 20.7237006805298 -25.9088668345874 0 0
178.503187036218 -42.77048068147 -10.5661326916542 0 0
41.2927307610243 2.5615677256677 -5.02290626027429 0 0
164.371644197847 -30.7176566615198 -6.14443175196318 0 0
138.222463273981 -10.6147846345088 20.0127579702404 0 0
157.903324242608 -4.45709160577985 21.700207507398 0 0
-224.979027487461 17.3585942493266 -17.4249670058299 0 0
185.17163707156 29.9774198379911 -31.3729121591349 0 0
147.812496426089 -2.60561874041801 -5.80294753136822 0 0
-94.138549065464 8.0602850042343 -12.4355600714225 0 0
-218.280274082404 8.2779340170153 6.35862520574442 0 0
181.865455928009 4.70287064134006 28.2288352555202 0 0
163.422747318972 -12.8392461215226 -12.157000620422 0 0
-34.6880255296636 7.10489643185731 22.2655577539324 0 0
-222.984190026236 -20.7907954532977 28.5701851854005 0 0
-145.119605140615 17.8537021031896 -17.3600685450271 0 0
-153.883541919827 15.8368299687861 -20.8537570649529 0 0
196.441364695904 -26.0585656529025 19.2670072188972 0 0
176.290794906631 23.3467377229316 23.436713750845 0 0
143.412836056513 -3.63156940834715 -5.33226543710672 0 0
54.309168113017 -4.12624861903365 0.0605601678104296 0 0
200.226906480995 4.55905860326635 -7.5631997736686 0 0
-184.025675624453 31.8319605570231 -0.293083363562278 0 0
153.708609675685 -20.8328015295701 10.9575150832529 0 0
175.118579371783 32.2680179348925 -25.2287946538085 0 0
94.8382071666089 -3.85628198293706 -2.53502319442855 0 0
186.504352213148 -11.9258486654787 -19.9312851211255 0 0
-169.694784102732 3.0958038286126 8.53394570964572 0 0
11.8401486099773 -1.58400008330842 -0.60658914848673 0 0
5.54009354625524 1.85929212161195 -5.12665578592464 0 0
159.676124361982 -12.5460296347677 -10.173574200775 0 0
-115.415251905926 8.65025048736346 -14.8092497373411 0 0
201.478997219649 10.1005097578996 -19.7238657951724 0 0
175.53220685179 -10.9404694099471 -23.2941342159364 0 0
-58.0584049600667 0.447645743845932 -7.00340829478968 0 0
184.064809854482 5.99294692301831 28.2239805774267 0 0
-167.001468616419 20.2599931985236 -19.1770595899474 0 0
144.578435621721 4.07636571126759 -6.11443231462499 0 0
166.092690659683 -8.67551270770409 -11.214113153432 0 0
57.6822438707084 14.3658008671469 21.0787050811879 0 0
-213.731989655094 1.98929997787475 -9.52087625594842 0 0
161.010902526462 -0.0269221753021273 22.5547008965708 0 0
-246.435595097106 -28.603022136317 3.81433958905383 0 0
-41.7780552356591 -2.47734663929148 20.0836313987593 0 0
203.72575311991 4.81595178937888 8.61359931720299 0 0
-180.810363208728 27.421671171286 -14.0625605657503 0 0
-191.265104453328 12.8499037143586 10.2267680281026 0 0
-123.55078284934 -3.79026356149887 9.50172840625262 0 0
-98.3313580309059 10.3034214004495 -13.6380524695723 0 0
53.9288601386079 -5.4572486072675 1.43613474489846 0 0
184.14068387151 -26.9833186980338 17.360177666561 0 0
206.55157337306 -12.3453417119389 -10.3103087629337 0 0
-188.0964352222 12.3799172523684 9.35318253203999 0 0
-160.331418511752 -11.3523982432337 -23.383084258296 0 0
120.417348464911 2.3745642211091 -4.55508147454828 0 0
-232.971603121616 -44.7307841275759 -5.35586267401984 0 0
51.7203666060741 14.1599510375619 21.3821914901138 0 0
9.10238363172162 11.0796409563981 -1.39700887543694 0 0
198.548575319526 12.7288791603901 -24.9062159594402 0 0
-61.8971153671529 17.3141225492205 13.3941948216572 0 0
-203.103877202528 19.0425950300106 13.1729416725375 0 0
-216.546240519345 30.3235066652479 -12.2791015033412 0 0
42.1003407188501 17.7069517260227 10.3234856279845 0 0
198.873798481851 -34.8451973448146 -35.4361057735916 0 0
-204.537011206595 -22.2140295221761 -5.89834209102127 0 0
-176.402974496444 -4.04946191780496 11.1433911463905 0 0
23.4927609654966 7.52668916005137 -5.12462910716193 0 0
204.130248337492 30.861265137642 -7.82636373387087 0 0
200.964178658677 7.85331083051481 -18.4801123023632 0 0
150.167473632779 -22.6459261811036 -2.15926840877527 0 0
32.1657565319138 -3.71176271080054 0.741436316583468 0 0
-239.551722135515 -16.0832211757897 18.7005595169203 0 0
-172.276054487344 -7.22692519912618 10.8360037557195 0 0
171.667976343112 -18.6127247527706 -17.5541681853815 0 0
-233.722233184469 -5.37917308463013 6.19764250865518 0 0
205.322223661488 -5.58562709077876 3.00116688900319 0 0
199.065242161429 25.5938695929662 20.5769090789195 0 0
-122.205510446635 -6.21744613496886 5.51925386539307 0 0
-66.8272716436851 1.10753831553042 -8.68804448358547 0 0
91.4291882221141 3.01791972737023 -3.61557123124814 0 0
-216.57111469302 -3.8301467542005 18.8214183882139 0 0
193.88648040785 -37.890477635655 -31.6897703094121 0 0
128.751680511426 14.6638350477447 -4.44104494974499 0 0
-210.331065493173 9.74883780126392 -10.3959334846033 0 0
163.737567776055 20.0964410422199 -13.0282907280855 0 0
-86.7164783315846 15.6701885872914 -11.3831108149188 0 0
-208.946261508888 -26.090912354147 -6.66335394821687 0 0
-157.94959822651 2.36594969281255 -20.5846199929883 0 0
116.47112907605 18.5484624738216 3.69190749174312 0 0
-97.4755424315763 12.4057012119716 15.0485277367021 0 0
-22.1798764933698 4.24536319141454 22.8380896524301 0 0
-211.130095024462 -41.3764125529265 -7.86850197746889 0 0
189.348142848694 -11.7430785962417 -24.6178879421863 0 0
-63.2103926090045 7.78542114445416 -10.3828743064037 0 0
-215.6883358585 11.2485424153053 -14.2498204744985 0 0
169.899709054166 -4.78183891793748 19.7044861617492 0 0
-213.537102218475 18.9881852784683 13.9180975570872 0 0
-188.316049116116 17.0445429027038 7.91776035644736 0 0
-136.072854339018 -1.7170466084993 9.58847497354553 0 0
-226.414449618855 -15.1644417887057 26.0696762108521 0 0
92.0162605834525 18.4673395935608 7.9165513332874 0 0
37.9844926794418 -7.64721415903845 19.7472425970055 0 0
156.810433570936 -22.0765672836417 10.1332797278675 0 0
143.089501049828 -1.94507608328699 -5.51062352488296 0 0
188.713441020183 -15.6695195834906 23.4854446760131 0 0
-218.405658998322 6.7106730829217 -22.0158243456417 0 0
-77.1668069821323 2.03581548691049 -9.58457353817874 0 0
-195.471217120187 -13.7936823478348 12.9498447557427 0 0
207.2479527211 -18.2470054918073 -24.2621430064472 0 0
208.929691775887 -31.7687748489594 4.31372102631969 0 0
185.004314896662 -40.7841850713322 -21.650794354814 0 0
-205.651634573829 -29.7123735526285 -0.229883959203173 0 0
-160.967350688572 -16.6632374136386 -11.2019989343298 0 0
-239.876832031909 -10.5992444608743 5.15357973298908 0 0
-210.159790316262 18.0583761989863 -26.4603889487441 0 0
112.865416817148 18.8588099978593 6.60818058597921 0 0
-217.221091240973 6.42606636150906 9.95833715956941 0 0
-186.190498901238 4.92676290605581 -25.8041387307443 0 0
-117.255588942112 16.1792050866355 -14.0363603701686 0 0
191.393898844844 13.6434155406421 -28.6857377634461 0 0
-210.897385964695 -25.6400703979965 25.6034179035002 0 0
-195.772693255368 37.1183612495652 -3.15998212374917 0 0
172.487521320298 -15.6850846821445 -18.8305537500028 0 0
116.284977331444 17.0858274663846 -0.461948760862135 0 0
-163.244861654307 -16.3928339555073 -21.9900722919453 0 0
177.505340261541 -38.3211042107883 1.48297131318121 0 0
74.3526546292146 -6.6074056759233 22.034806108284 0 0
157.683179947984 22.9568315278189 -7.06716756279128 0 0
-138.209275647456 21.2981680388767 -0.42655210789855 0 0
-51.3719147155434 -0.884511521413524 20.1224157890048 0 0
-220.891650250724 -0.325259355164553 11.2718049498481 0 0
207.950136463396 -20.5138665322227 -26.0062702790532 0 0
-79.8745160853443 18.0984784493027 10.4084557089586 0 0
182.962527872071 -34.8297617008336 7.26373402859728 0 0
-180.313928237738 1.05918096095228 -24.2088702042726 0 0
176.830339859305 -6.79240083604618 22.3567534628464 0 0
166.900460959589 -32.5242851960006 -4.6615881821011 0 0
-144.765992449876 9.72095232303387 9.52868701218362 0 0
20.0474042882369 -8.96011142120034 10.8131683235733 0 0
3.05472591344826 -5.7605325565302 19.7698994133456 0 0
157.069211001997 -7.93968297364082 21.0447373198129 0 0
-197.850273045251 19.1865307493508 10.2046579812222 0 0
-159.92994061785 -9.09055741637075 7.67091391484018 0 0
-227.342796105013 -47.5371991315451 11.8142846344964 0 0
189.248464854081 34.0073420007926 3.7410267890775 0 0
-193.815811751498 2.26926705366105 -24.9876490220184 0 0
-204.503280502213 -27.941681669325 18.357665234895 0 0
13.1508245821198 -6.76321792892553 5.6761340042095 0 0
165.07231282813 18.5730810059725 23.3856087478257 0 0
126.662476113577 -17.5537012207852 5.99215922725657 0 0
-148.900843042439 15.140843391526 -20.5312419990447 0 0
158.914815663044 -7.5590448650897 -9.35157546517209 0 0
-140.865740253864 -3.19669274147763 -14.7846829586544 0 0
-0.0937422259441998 16.1519977459149 19.1323914072386 0 0
-12.9739222515838 7.34527588397041 23.1703461552373 0 0
207.154285978502 12.3537831507941 -3.5876631283378 0 0
174.381076683381 -27.1132176928734 14.4437339978427 0 0
-56.3682783856453 6.95595246573724 -9.70124705319377 0 0
-236.032087894704 -10.9788593356718 17.1847181871532 0 0
165.35496797419 -24.9681768057277 -13.5122267079833 0 0
-228.603955438233 -5.76010014775456 1.90819300140865 0 0
180.839313865964 1.2020396929066 26.5333535446099 0 0
187.173749114286 38.3816071800332 -6.97746379445105 0 0
-187.286303348205 28.5445774468951 4.98006042278982 0 0
194.388100263402 -11.6564698328415 -24.4273569871173 0 0
67.1980262943258 -3.19126650382972 23.6140131265076 0 0
-192.156126515718 -5.4473467503905 12.0148237985284 0 0
43.3919772644392 -3.01005171447864 -0.3947152602547 0 0
168.827267699137 -12.2443897508625 21.1896231076449 0 0
182.491335032303 -12.1787476816891 23.9955032581746 0 0
159.088627391003 4.44756347520695 23.5215758199868 0 0
-6.68790656327387 1.16484090751743 -3.87826086545976 0 0
172.95085561716 -0.00630707911293454 -12.9425880556088 0 0
-113.407368580401 11.3735244132068 13.3709054297835 0 0
188.255248726847 37.7214178979742 -4.80058821426128 0 0
-190.34736816539 -0.0640682097485251 -23.1834109297231 0 0
-99.6401793199784 19.4329028970484 5.72655381480278 0 0
-82.7640637083623 12.6551470206923 16.5473623788751 0 0
-169.929744428082 -14.0182386007309 -21.7476225383052 0 0
-86.0066666743753 15.4492589480615 14.3099484797817 0 0
190.368877861133 7.77379527280503 27.1380172360111 0 0
191.711640422404 7.29059595478368 -16.5789892387332 0 0
-102.823840982858 15.2576134820721 -13.0976165363405 0 0
67.9405073899914 17.909545759199 9.44955721242169 0 0
102.805395142029 -7.65707357759132 21.8887539313151 0 0
-108.976479109644 10.2098235991675 -14.8966292908696 0 0
207.986439915086 -10.4434116966535 4.33634157791484 0 0
107.643152445955 13.4195735339889 21.8148623262199 0 0
-162.870403359377 -7.02806665484784 -23.6811386898272 0 0
-191.380509016793 36.5701156000197 -4.10286754284247 0 0
171.878248648636 -23.7575879353998 16.9938605456255 0 0
208.465755338483 -19.3254523869951 -22.7528510520234 0 0
129.281713714164 -16.5344395491293 1.86610985878421 0 0
-213.22843390202 -41.8059611649444 -8.99524428319018 0 0
198.402751187478 -10.1213053156873 -24.3345046170038 0 0
-118.102201549662 9.41244530430557 -15.3433878341197 0 0
-222.338389535143 -20.5985754788657 -16.6524203657911 0 0
0.0798289247239707 13.8892256885069 1.0847663357748 0 0
202.592204227224 32.2367423806998 -7.73088703491933 0 0
190.763431352736 -22.0719410744287 24.5016266122317 0 0
195.509794916174 -35.961983064878 2.47074324140753 0 0
179.77880636471 -38.0553372724431 3.27912535012272 0 0
-119.009401702073 18.1357503289078 -13.1285130306299 0 0
203.149406760117 -9.23430151743494 13.0233373898716 0 0
180.870144471058 38.4405314988 -8.23701612465495 0 0
-27.4754564578024 -0.524086933834687 -3.18779537954315 0 0
65.7937984149684 11.5526035101651 -0.356475271749176 0 0
-138.603075728199 -1.43863492535732 -15.061513178531 0 0
-167.626949175285 17.9090110074163 -20.5178546724191 0 0
155.80919981339 -18.9602693100074 14.6145037993516 0 0
175.707710809259 -8.8304305539968 -16.5901572495768 0 0
-213.858365006782 -0.571481372985332 -9.95693584379186 0 0
151.422548057398 8.21085077217219 25.5709243989304 0 0
22.5099709698387 16.8153908099401 7.45676123499978 0 0
174.792386786054 -40.7746631262538 -15.0021305254264 0 0
-208.912341288322 -4.59249573724695 -11.5028471881592 0 0
82.9258198977338 18.3058013129042 10.2186035828437 0 0
-222.387167082212 14.2688084494129 -10.4065834832317 0 0
158.979175272954 -14.8741825670779 18.7295831314026 0 0
-39.0292061319756 -4.28790925723979 18.8625413159431 0 0
-201.688324291205 9.89827589849279 -27.8245831783223 0 0
-187.303161882278 -5.78145868988223 -16.5729389737629 0 0
-233.29653919353 -11.9021231932211 -9.00716688359201 0 0
-218.984836434703 -33.1574664107329 -16.2535798099472 0 0
-220.486161673168 14.3781579272436 -3.47207643025203 0 0
176.017884632965 38.1405157783208 -8.12368970985493 0 0
168.492388895578 -37.0412125366044 -9.76865909370582 0 0
181.056889105777 -22.2445792165046 21.2725999567253 0 0
136.428005654356 19.1067071218817 13.0752478029288 0 0
-217.882179736239 11.3088097096524 -11.6789490585332 0 0
-155.272421559849 -10.0591824920649 -20.9830155363551 0 0
166.799431455431 18.2291651196732 24.9951260887486 0 0
80.1086008826225 -2.02427315739674 -2.60953239520655 0 0
44.6715031577188 -2.04205986697466 -2.02395974806585 0 0
78.584848592493 16.8165084965535 16.7424511333821 0 0
149.950191975721 11.6452928576866 -7.67432406938123 0 0
57.1061289193427 4.22001319964859 25.1101269641829 0 0
125.853854492889 -1.59261571354135 24.1352334938261 0 0
152.802082182197 -17.1171738408335 -8.66957710714727 0 0
189.071806525586 37.6281141478991 -6.99317565439572 0 0
-239.977632940619 -11.2415881836436 10.082410443431 0 0
-95.3081575000927 -4.67921408699363 10.3444191616878 0 0
158.429522130124 12.0227985234042 26.2660152589317 0 0
179.200676616461 -30.8723117983585 11.1168490993881 0 0
67.4078649582441 13.6869601025086 1.21007439774589 0 0
-243.729208905755 -37.2581788529503 3.07538006127976 0 0
118.377715234535 -15.4635951839889 14.6196553685711 0 0
141.698837318608 17.6176786684814 -4.78297748174125 0 0
116.182381495772 -0.0262983096029901 24.7665520516927 0 0
-199.962489472372 -7.30145180887806 14.1865161306743 0 0
175.714466531049 32.5048424693485 3.06933098890551 0 0
98.0199235624288 -13.6860834631867 7.14160988509501 0 0
168.067700934923 -6.56036990243292 -11.9912311048285 0 0
204.876735369777 7.05980476643616 -3.83284626548572 0 0
200.100496803111 -22.1834042734296 -35.3799035874009 0 0
-170.321146719314 -17.6286813162677 -17.4149563621443 0 0
172.908197897948 -6.82986391547932 21.76190957911 0 0
183.623476105282 -7.4329016648261 -16.204143168823 0 0
-31.1471263598084 -5.0679525541122 18.4113608653128 0 0
175.945400974756 -3.16136813202783 -15.5287223222356 0 0
179.811119628545 -10.1229030804019 -26.4747406114538 0 0
-124.145990136026 -5.57130996130102 7.71861380003809 0 0
188.708655807828 -12.3514291439055 -17.8998780374491 0 0
-127.624222436889 6.43714283130401 -15.3535072801986 0 0
-244.170144907545 -29.4701564706208 -3.85177575476641 0 0
-207.624747100562 -43.5134050297757 0.764795283927119 0 0
-202.208423394096 22.9227179643301 -24.6284689069908 0 0
203.549226108444 2.80570590109969 -2.6381835624546 0 0
-215.554364402154 31.5608373766188 -10.3997075188625 0 0
144.560371742321 -14.8138529838844 17.2790025560125 0 0
171.78478341396 -7.65026832850593 -13.8773067604201 0 0
-232.891906196664 -10.8895490566755 20.1137190257524 0 0
-238.538518360356 -9.54314208065952 8.62782738585073 0 0
-207.605302681323 14.3344849441952 -27.4316265518922 0 0
-245.289545282845 -21.0216113742293 0.898350427588516 0 0
176.418788710935 34.6422245488955 -15.1915596101118 0 0
183.812587271816 -36.8463298217604 4.98423913365666 0 0
-187.669501661241 5.44361832551948 11.203206798538 0 0
135.852130920693 -8.12397011737256 21.2472384393489 0 0
-119.182817731453 12.1734745010163 12.4386415102668 0 0
142.917675834068 21.590212943223 -0.940507018091001 0 0
-8.70660275767576 9.55343683556221 -6.12298845801434 0 0
-198.229923733967 -22.3843593220925 10.6190269784947 0 0
-160.77909296915 -7.49786904727941 9.33293037402909 0 0
-226.935997700676 -46.1882849063346 1.02050094382377 0 0
-97.1484373208567 19.7969028539413 3.94689896889467 0 0
168.957542440758 9.29558113236038 -12.7961785875499 0 0
71.4446431492539 13.5514477516541 0.81926286361134 0 0
-139.666699609109 6.80294092609813 -17.0738002286168 0 0
207.197012292116 -32.4876356513888 4.78310949470054 0 0
194.08535204721 22.955348245591 -30.9031544756615 0 0
-213.485155588117 -19.5066530017197 -10.9226467583478 0 0
-45.9274228280206 -6.08697695791273 3.76844438644094 0 0
199.512933747145 -42.6127893791302 -10.7818323661508 0 0
-183.029874083657 -14.7462104834941 5.68700372116542 0 0
204.160023313532 4.70829904178962 5.83954861906814 0 0
-241.632060771468 -13.1104626322067 1.65248462992467 0 0
167.769927146237 2.13227524214125 -10.4698622897375 0 0
191.882448888924 9.81001472396709 -26.7498453144709 0 0
200.025164158954 16.7656050006869 23.6795960294106 0 0
-161.753014833102 -14.3066558387055 -10.119539381609 0 0
87.2024779860186 9.94462792889879 -3.29174254122181 0 0
167.739769047775 -3.97150515742535 -10.6527774398933 0 0
-229.136527997509 -26.1720224620492 -16.4749581939723 0 0
-153.203762178717 20.8650107090839 -15.1018316107247 0 0
162.68220383296 -14.2224755946437 19.8217132715626 0 0
172.031225441041 -31.4071543359974 -19.274773675542 0 0
181.182096315688 -6.2578246219514 -16.3891268536823 0 0
-216.146817275329 -46.8608988489614 15.2993881296749 0 0
-187.197192378269 7.03905920319196 -26.0484720974305 0 0
110.545954300901 17.4999659914651 15.45861568789 0 0
-218.63072028347 -5.02647629950261 19.2752482573091 0 0
-244.766119694398 -22.2762928235603 -1.77659218260188 0 0
-111.285152112888 10.872567588017 -15.4106867967876 0 0
-124.822563535166 13.0562966738698 11.4118879449651 0 0
205.260912906277 -14.0936909372095 -12.3533087804579 0 0
191.70044563419 -10.0973569154003 -12.9341472167681 0 0
146.251979037534 17.3428422512625 -6.18262919298759 0 0
15.1672802213399 7.293358915206 -5.79194837861899 0 0
177.803869128458 -24.2478828873855 19.8186454646321 0 0
-146.680740413527 -6.32382879501033 -15.4135021423171 0 0
93.699757559527 -11.1044346470536 3.05306149303993 0 0
204.414450981373 -13.3349003147922 -19.4352788095909 0 0
165.106023723941 -21.5886318900996 -13.1477182881146 0 0
204.48228096889 26.8788006329614 -22.7469167133028 0 0
190.860610344339 -43.7038015631585 -7.96249841118519 0 0
-185.459132239281 -5.33091001086692 -18.7785020524123 0 0
-41.2734020625245 7.71680237796814 21.8277589366756 0 0
-227.131653389634 -25.1229825169419 -16.912611261512 0 0
206.357935674125 -8.13345776918586 -2.34231697794929 0 0
182.966364260764 34.9194449348461 -25.6075477485125 0 0
-204.901225276541 -15.0130935883836 18.8189922624013 0 0
-153.093661742677 -8.81938028259332 -19.0664704063275 0 0
-225.089475171474 -8.74421618366461 -5.21350244874988 0 0
-221.814681607371 -3.32856965309071 -2.22906054580482 0 0
-176.406729651195 -5.27426656043616 -22.9459476108568 0 0
-130.711998687632 2.48300173531153 -14.8801007702573 0 0
206.065552974883 13.0769654679948 12.2293368970986 0 0
0.952550552909268 17.1341367855812 17.3939560555548 0 0
103.643960295714 17.1534987030425 1.9381382003778 0 0
-206.93298030628 31.8993457798592 -0.0520247383976045 0 0
111.73228643379 18.5376542098072 11.8041687913548 0 0
-77.4437680214495 -2.61181995052482 15.6719812363531 0 0
-212.526785062149 27.4146455466787 -20.809754003023 0 0
-148.933029019771 -7.3476835126147 6.36902723698323 0 0
43.1429091707949 -4.65070358940284 1.37346322994733 0 0
65.299217905948 5.78760614880548 -4.21338136573653 0 0
-171.299917078754 8.19878918004539 7.7265668525937 0 0
121.676882352323 -12.5506909371877 18.7621021606356 0 0
191.239529944801 -13.4695511717557 -17.8543728387003 0 0
-221.709855071845 18.6124835881047 1.64201226473511 0 0
198.376141645374 -28.3421655190983 13.7137060554228 0 0
-162.327961092527 23.5853093748107 -1.64690615799889 0 0
176.425226003402 19.4329789356921 28.4759674905949 0 0
-43.7307481295867 -4.11112968537944 18.6185862349043 0 0
46.7294913675435 -3.24395752108423 23.0148923671478 0 0
145.881680729905 -20.4305809374122 -3.69959302055454 0 0
-199.034479834572 -18.1340964847294 13.9553093704462 0 0
39.6371158946599 14.9926370598311 20.5561413087768 0 0
179.599648571372 -11.6054310078378 -23.6947038613986 0 0
133.768186802606 -18.3046798846488 10.9891205792593 0 0
172.555868945149 -41.5572707727067 -9.02892387037943 0 0
-193.877097852573 -19.9991046405816 -3.05154104532884 0 0
-187.081933392779 16.6375493640666 -23.9655699420268 0 0
-229.131088848299 -15.0023588312043 25.3537989475964 0 0
166.168982258336 16.0101724653463 27.0144465282613 0 0
-158.67626617438 -16.3546410215558 -12.2555362359921 0 0
-239.260346460079 -11.2060630283324 -0.810530576736464 0 0
6.86127818914189 2.51407168412185 23.7650527676874 0 0
209.499159837132 -37.4353584145034 -14.7348095852331 0 0
-59.6849050067055 -6.8031832497736 6.78720746383409 0 0
184.149439542144 30.4138673432667 10.3691406694342 0 0
113.31484521624 17.1121032128699 16.4253621462748 0 0
-218.319188130477 -35.4255498978517 -15.366276851405 0 0
-184.171615571458 31.0144815167634 -9.480685349531 0 0
-212.975109130465 -47.3509552110378 2.11814902504745 0 0
171.348538442707 -6.17639835005969 -13.1343496946512 0 0
-237.201078879538 -8.99120979718496 0.278655386487361 0 0
208.644072336408 26.501659507235 -13.0740741263008 0 0
6.71566608969677 10.0245565033383 -2.78246010527127 0 0
-10.6726736454175 15.7552160215099 3.53917924218501 0 0
192.969709825773 -20.4047183599133 23.7065682559006 0 0
-218.389237592148 11.3568214354596 6.45693217032792 0 0
-200.054131281446 27.5574078469372 7.95812006719787 0 0
175.113173437371 -34.5577018782927 5.21239995679476 0 0
-53.0363502736041 -6.78042516100696 11.0012172271269 0 0
-208.996932112764 -45.1468427649742 6.02378079097702 0 0
-219.746963414062 -43.8795714703475 20.8394710822184 0 0
202.673526170802 -37.5749737746878 -6.75209021097107 0 0
-196.926917898499 -23.4525996102642 5.03164091851713 0 0
199.439914313096 -37.0241557614207 -32.1073389984798 0 0
-154.188933308866 19.7124695399909 -17.7550890377394 0 0
185.234633424966 11.9112763534503 30.8801631926903 0 0
176.647531843074 29.1296316270112 11.435868353714 0 0
48.6471006706696 -5.82889829520139 2.45597132265322 0 0
-198.818649285262 -6.87348830985781 -12.5984261192813 0 0
-198.54421837357 34.8279460270911 -13.0179760489656 0 0
-148.775351103591 19.3798475232577 -16.4914708002569 0 0
-215.908237960193 15.2593383115399 11.7156467379895 0 0
194.343418773113 27.0608729712526 17.8744026751256 0 0
211.835381873099 -21.4241288271172 2.20388478969407 0 0
204.279996065377 30.0311391915532 -0.678492158131281 0 0
161.008026724246 -4.81807221580024 -9.1715721056296 0 0
-1.30379413895127 13.35396220744 21.7632724436442 0 0
-199.052431302603 -25.0096011217973 3.60058766219435 0 0
-225.198641863568 -13.2892325295461 24.9512549784544 0 0
-153.828104733752 -13.2105724740544 -16.1735926726662 0 0
174.177845581656 29.2358545051753 9.51331331898895 0 0
180.036607727593 -42.867827399204 -13.3336630082412 0 0
-13.7135985214914 4.462086859344 -7.20797587860808 0 0
-222.284399239238 12.3657829607734 -6.42767039770963 0 0
-217.325700231619 2.74735029465409 -4.80112889104813 0 0
151.800685303577 -10.0125625170987 -6.95630439484966 0 0
33.4283465722413 15.4073120946532 20.1467754190369 0 0
-55.8768788432187 18.2340760137956 1.67238344308629 0 0
-219.092032209857 2.17153064897752 -1.38171525782566 0 0
187.52258485611 19.8144699882495 -31.5414388978532 0 0
205.698562992583 -33.6066870367461 3.50855655819874 0 0
133.226415014787 2.73122880253079 24.797898662818 0 0
191.468728947193 27.580320639785 16.7323074958551 0 0
-143.273860157223 -6.13858822376773 6.91155593113524 0 0
104.224156406605 -4.22558018181119 -2.95983539600745 0 0
191.224819256276 32.7534560448938 4.74380662366776 0 0
-177.050095690766 28.9507736454973 -6.15751474385369 0 0
-93.0722478791345 1.25018213917364 16.1528591006266 0 0
-49.3655462176609 9.3892209551004 -10.0480635052403 0 0
-188.142005273347 -0.421187832780365 11.2443594103803 0 0
-146.091132265127 7.49653729761529 9.85178681138595 0 0
-214.659463029384 -32.2323826128784 -14.8372054985732 0 0
-203.082503990709 -29.638944920941 10.5098543286612 0 0
-210.595895885292 11.3439435889668 -11.8248765586214 0 0
-148.418706413639 20.0045157890549 4.88324520783002 0 0
-122.129969060687 -6.05346518316339 -1.13233660336231 0 0
-193.545226271471 36.688551075476 -7.89233987484987 0 0
151.118902227128 -15.2986008553382 -7.40801993879534 0 0
186.780333155266 36.1548539116482 -14.885366703378 0 0
200.426402183775 -38.1025370678787 -4.58898015632781 0 0
-94.1504721309567 3.13690613889124 16.5747155388419 0 0
-153.733345185318 21.135409392126 3.27535650546768 0 0
-38.8155875614308 -2.09117820595651 -1.80648198620258 0 0
-210.682338486571 14.8302604340081 -27.0716870901007 0 0
-160.52319870616 -17.2942027159948 -18.6903527774061 0 0
92.6082287610394 -2.60840487088743 -2.86854239802059 0 0
-203.234688858654 -23.6620094545554 16.1121911681961 0 0
-225.121770893281 12.6534549419333 -13.7871346333571 0 0
-206.405878568581 6.35081681912875 -19.7299252387736 0 0
-173.145993801002 -10.9187573936711 -21.1595584903802 0 0
-226.620321819932 -47.3276334072742 -1.00727252719139 0 0
-225.806841168651 -47.8296805296474 4.35229801681814 0 0
162.412462192272 -18.6128072299019 16.9762116120138 0 0
212.701617245264 -28.7295235379523 -12.6087980454936 0 0
-195.013622676269 -6.78742718174179 -13.3019505349156 0 0
-152.16761970614 -8.34581420532367 -5.30596496532947 0 0
157.97904177465 0.389383677577798 -7.79564315662124 0 0
-191.080336365106 27.7565774249198 -20.6292097863505 0 0
128.141132922304 -13.3504860487114 -1.37984807565332 0 0
171.937418061698 35.7922987574418 -9.20838549060863 0 0
140.533695763067 -2.46282849496755 -5.30744130623265 0 0
-217.584744936018 -27.6370122451075 -16.5235910165677 0 0
182.572021999068 23.2432822935474 25.0436710088108 0 0
96.1204453427836 16.3883350782959 1.46801963136043 0 0
171.640105454782 -20.0639030267335 -19.1515522712234 0 0
-67.6220514882385 -1.7480544497708 -4.60745371039082 0 0
123.502333552858 -10.6419071803627 20.1346367606547 0 0
140.149280798802 13.5834502512048 -6.17660341047138 0 0
179.221716889904 -16.8753684758676 -33.3914449038194 0 0
-120.11940171695 17.0709694408534 9.62836811257589 0 0
193.927470416179 12.4968986539145 27.2025046248953 0 0
131.190278684273 -4.32177643193009 -4.47296749402241 0 0
-222.189135221637 -3.16940957795101 0.149535072997679 0 0
55.1707923008285 -1.62851266950451 -2.78083706636545 0 0
202.252418991863 -13.7813156218942 -9.1307220566027 0 0
202.104077098904 -36.3794377714427 -2.27786361901556 0 0
-155.600416677891 13.7012648813441 -20.3234894499341 0 0
-68.0482384394712 4.30094854269219 -9.79427255574151 0 0
-80.024018730044 17.0160320190061 -9.19238682105574 0 0
172.336913285332 -31.0744999445292 7.29431027255461 0 0
141.586523560851 10.3519090758101 24.665932203528 0 0
9.51117213529694 -2.33009603331262 22.4542782973638 0 0
202.779217594451 19.3777456015199 -23.3633570198983 0 0
98.6234307542745 -5.74546998220592 22.9565528131336 0 0
-196.208900281034 15.8467828351325 11.1226367782655 0 0
-123.363421388561 2.20477027606029 12.4371973530559 0 0
-170.507797052885 11.0613755546658 7.2960033758954 0 0
-170.320581734317 -17.2883825402946 -12.2219999494529 0 0
206.432395232679 32.2179813646423 -18.4762297755065 0 0
200.016459148538 -39.5141912167672 -7.61760227119684 0 0
58.3038972413545 -9.13150021980074 19.2165122594347 0 0
-96.1440377049593 8.82505743881385 -12.9201840111189 0 0
32.9314941407878 0.938860537541749 -4.88316328717017 0 0
115.717615579525 -9.52553390212368 -1.65235509185721 0 0
201.514117825725 34.8817273547471 -13.0615613086034 0 0
-222.419398230762 -41.5009834517365 -12.1026260738637 0 0
-206.15396239512 7.73494959682532 -15.1074010353283 0 0
-211.506309805476 -21.9564125597076 -9.37008638076798 0 0
-218.626167475685 11.9147403181298 -7.76132318344107 0 0
-185.556940434372 -17.5313366180012 0.616206068173765 0 0
206.375835445395 33.3438617393108 -15.8240010690263 0 0
212.112314679169 -20.5845676160564 -5.01779977859901 0 0
201.866397036295 32.3932193203681 -4.14049069784529 0 0
-142.437008515173 11.4964189430652 9.47940533921693 0 0
165.332172079411 12.1594393938228 28.4262622690449 0 0
74.6870321397422 -10.6338232641703 18.3778614648858 0 0
175.317919019021 7.89878567613152 -16.8327730298701 0 0
-101.936236804352 2.910398202262 -12.0389454667989 0 0
-38.645053423125 -1.73292812095477 20.6568180085937 0 0
185.871179028497 -4.24621882058246 22.8027048502344 0 0
-10.9602779439597 -0.539801355612973 -2.17936803915974 0 0
184.202603148088 -12.1612637577212 -23.1211821764308 0 0
-168.426730862485 -10.9386334028723 1.9241058564274 0 0
123.152659490722 -11.7480502107721 -1.46228010869889 0 0
-199.542908143176 31.3778341613505 -16.8114566266745 0 0
183.423510252728 -0.878621687159271 -14.8926712866993 0 0
203.253080552596 31.0124239575534 -4.29680983794339 0 0
-164.362603930696 -1.48841868695431 -23.0150499052766 0 0
200.432029106974 33.072209948917 -5.20679095551511 0 0
-147.575682275276 -7.63958838831979 -6.47333066966589 0 0
-244.082776359126 -32.6662022134082 14.4718585829868 0 0
182.681476598303 -13.8088966675619 -33.272008256577 0 0
161.025335532751 -25.9719837771303 -11.2472256894497 0 0
-220.724605847471 -10.1760639702534 -8.91597702843171 0 0
157.767646094589 17.581490940148 -10.014873121881 0 0
151.905953136624 -7.46387394753783 21.2031876229615 0 0
34.1812519401849 -9.5360496297967 15.3563702118949 0 0
-120.146626040043 8.07142551927718 13.0656288573482 0 0
-87.8133759821072 -0.139147779043252 16.1088832367427 0 0
-121.63384158039 4.14735539392472 -14.0182504658763 0 0
-105.1951362935 19.9891325632946 -8.13967931471177 0 0
-215.485078299865 -46.8996553677548 -3.20640856899142 0 0
192.813010362907 24.20054618478 26.1283582557704 0 0
156.64504466273 3.07027295655338 24.1211209539696 0 0
180.498850763324 3.22346809633496 27.6556415154308 0 0
-41.13055592561 10.8693196979785 -8.13766844095261 0 0
179.806343456336 17.8670967507577 30.9073094439447 0 0
209.424902114195 24.7126290185177 -7.17547648705848 0 0
199.263356558143 -31.7818636416107 7.20605686105025 0 0
176.118638093927 -6.68104905163856 -16.6528515924957 0 0
167.953765613266 -32.18480311259 -0.19401728725864 0 0
-169.841785916085 -1.43326867611441 -23.494371636157 0 0
-151.140505815944 18.8745630709301 -18.6749482704414 0 0
-143.094803198919 15.1644189228109 -18.6780900885494 0 0
170.75627601901 23.0574084799133 -25.2195138680881 0 0
190.29891012931 6.53633092104643 -15.5113724748298 0 0
207.049189962917 -11.7703749565688 -8.4291248368961 0 0
-242.57722038821 -14.7069816880602 0.777493603583283 0 0
-208.081717224943 30.972908751087 1.89717250738728 0 0
-150.305116393537 1.1064051817431 9.53906134773604 0 0
180.267592016746 -41.9327368395884 -19.0705370856643 0 0
-211.950506646299 32.6061113709628 -8.18165361596069 0 0
196.791378297279 -35.2829769894588 -35.9574714237085 0 0
-159.278132463186 18.4567248474946 6.26991335486183 0 0
-24.310957852804 -7.93305042001464 9.78961295819477 0 0
-109.112262038347 11.921732685369 -15.7978804283069 0 0
172.901699375922 -20.357613817649 19.9069282787877 0 0
169.256685452656 19.293754738548 -19.5177490233063 0 0
-107.202634248625 11.0649290152223 -15.0876034215684 0 0
-246.227431872617 -23.9164179964535 8.68645885415196 0 0
171.808196752491 -16.0483007328335 -16.727666888482 0 0
195.92558977542 -1.89173829697662 16.476380111326 0 0
-221.448203721007 -49.9015487023234 4.03980123935694 0 0
-63.5705560600461 18.8500493912309 6.4486521774433 0 0
181.668846905859 24.0560676740761 -31.1782436365759 0 0
173.880057402318 7.02716417459463 -15.1792345378772 0 0
209.839622129819 -25.9501970717468 9.53177242840626 0 0
-241.382835348533 -19.8162156911527 -7.07786555198833 0 0
136.456110897781 -9.1548650968474 -4.2845419322441 0 0
-6.79018034654759 6.44611021399799 -7.59254584542799 0 0
176.476800189747 -17.7025513867872 22.0856015826314 0 0
-191.246349273921 33.9868494579062 2.96398476155199 0 0
178.035254382041 20.8331397718625 27.5013930551067 0 0
212.735935208146 -31.318536108148 -2.26301833653555 0 0
154.775073778962 -17.6377470016393 -9.66334097794251 0 0
-183.152353023189 -12.2701659021342 -10.5305443506251 0 0
-104.037583145323 -5.13660147523262 8.52781246579224 0 0
-88.6289747227205 2.83393069634668 -10.8130219659905 0 0
186.31301070888 -27.0539437386166 17.3301715699645 0 0
-222.915353496097 -14.9215178521251 -13.3944294619945 0 0
-134.375831799393 3.52460281073272 11.3300941395078 0 0
174.69918403112 0.558030374449748 -13.7991531983091 0 0
147.074542109239 10.4552836080586 24.9883229173338 0 0
58.2477424036175 16.2345335818797 4.70604962711865 0 0
92.9845892883027 -9.5159925830353 1.14016371263801 0 0
140.743174355348 -20.1899281708462 3.35122104892402 0 0
-221.547175202065 26.5621617328536 -13.4781306050496 0 0
-241.871215874688 -27.0944372163602 -7.90512599592808 0 0
-156.232123772824 19.4474723984005 -19.3508838516238 0 0
-81.1736972942648 3.7330443624237 18.2957955683834 0 0
77.7816827920447 -3.59517589765466 23.7077640739455 0 0
174.521388366664 21.3084296087778 25.8502058609502 0 0
-215.031550958857 5.33807978576935 -7.94784522110619 0 0
-62.0113116807931 10.2871316080587 19.6255949380653 0 0
187.7476360964 -41.3343099794556 -1.13629885192788 0 0
201.11705190056 -16.5174874021425 18.5140126400245 0 0
145.553163462333 21.7551955209167 -2.3828976116798 0 0
204.351889504561 35.374003557766 -18.1428807611176 0 0
-226.633396098499 -45.9660266422772 5.4164635320275 0 0
34.3045603331787 -0.454817385636613 -3.61707177722814 0 0
-228.461714178829 -47.2008482648422 -2.91136533010557 0 0
169.327124497768 -2.02743350027171 -10.1654585009691 0 0
199.777595959164 33.7104222917203 -10.1776191829279 0 0
29.3923486062387 -6.04958693822386 20.8499250372345 0 0
-238.926448662609 -31.0353907210468 22.4919129082976 0 0
-205.771360252136 -11.1979357095758 -10.7407709330002 0 0
-207.094094659694 30.1055212663431 -19.2313158769695 0 0
-158.297385278079 -9.5791239786908 2.35837938172757 0 0
-211.544848701139 7.18921005436612 -9.39051451547535 0 0
174.198591033851 37.0730244670236 -8.95780635006538 0 0
-222.510765784612 -48.3234947274722 -2.36026964672994 0 0
202.605286989169 8.52392688636306 16.0369203192539 0 0
-141.485258062957 14.209493091488 -18.4187111601827 0 0
-157.81695004703 17.5171325798918 6.65509086776428 0 0
-152.867629925436 0.323566327669973 9.32405936900607 0 0
208.091991866587 19.9684955267599 8.44820743438345 0 0
197.511312906667 5.1168020628597 -10.6104665891691 0 0
-82.968331627709 10.5009989681272 -12.1442979765129 0 0
3.47299956756014 -1.49283521362727 -0.667981859373602 0 0
156.081011005119 18.0887536604638 -9.46194869943712 0 0
133.683400970394 9.15494536929165 -5.54297878519499 0 0
203.647805091664 -24.0619251336641 17.2864322582304 0 0
-242.139037845178 -34.1468588806203 -5.44547123230469 0 0
-209.510746458242 1.62984149869035 14.9406428613807 0 0
-195.362592040925 -22.3386804527656 2.7431266672284 0 0
148.865775772394 22.5909838095732 -1.21693876185424 0 0
-222.245684868655 23.6513705771211 0.847184481596895 0 0
15.6163203950131 -0.142881371125258 -2.45773800689349 0 0
-188.557713648772 -10.9901431648214 11.1155203382031 0 0
-104.198155969872 2.59324572624195 15.0368126045167 0 0
-171.868560738269 -1.02762880035025 9.64299358608158 0 0
-87.7788968600286 2.19389578418631 17.1920181940776 0 0
191.945859681611 35.0749219323663 -8.32895394750527 0 0
53.3150183255207 -2.68521307808308 23.4126120712898 0 0
137.746705442836 9.75648259438921 -5.83106055908429 0 0
-168.262383660472 8.66526562993598 7.6209287572782 0 0
-219.007609100021 5.14496462047937 3.47236248358753 0 0
-181.882753170405 29.6870564942827 -10.5737630653639 0 0
94.3606888553428 -7.35956446922911 -0.860614830722416 0 0
-27.2765763823714 18.0520805994717 11.4333677704693 0 0
20.8600184190863 17.5491665815151 10.3015506209387 0 0
-42.8777900108897 -7.38449601467731 10.7707103911519 0 0
114.329982086566 5.03389696253491 25.2442590209461 0 0
165.864257955339 28.6390501930493 -9.18536623416616 0 0
-193.721813047939 36.9229312738621 -2.17695875782068 0 0
181.266186584586 -27.8031113568337 16.2962988571565 0 0
-235.671615919974 -15.3558812001118 -10.563580139598 0 0
110.826666765733 -5.67506457489687 -2.91691102432217 0 0
-13.829481303079 17.2165081997741 17.0308903796078 0 0
15.8588265562593 11.787354757887 22.967973017366 0 0
39.8833406006828 2.32437485990248 24.5829677466456 0 0
-178.465792881558 23.3348193821531 4.82938412335235 0 0
-112.077364146818 -5.96937183426625 1.37124225542414 0 0
-16.4031903786018 9.92780294467313 -6.71820847836281 0 0
-223.336394758333 9.09340496929032 -22.4977324401514 0 0
-233.203348376457 -37.4390170373665 -11.9858676910521 0 0
121.793267374117 7.37780423242941 24.9769637682244 0 0
210.455503070911 -17.9240223711142 -13.0218505234419 0 0
-131.691041197939 4.77110291420305 11.7423050441962 0 0
167.205327938082 -19.5594953711051 18.0963050600476 0 0
-224.306321211153 19.9516229828836 -15.7002562033968 0 0
-136.229480080791 13.6585652011233 9.8996472398064 0 0
173.155773530002 -38.2324722982294 -17.348638510394 0 0
-178.115315569405 -11.6296829903518 -14.2958930340768 0 0
191.735909951361 34.6595549806034 -14.8262408380234 0 0
-215.960056077424 -4.68819062254883 -9.48827966385048 0 0
206.184695820311 15.6046522381146 -13.6246432016478 0 0
-224.22951012371 -2.99286558451848 2.7938464452355 0 0
194.191485421236 -5.68360790378611 -8.37182570505449 0 0
-62.2205281302443 -4.52780742126086 15.348793476399 0 0
69.2203040988666 -11.759068244271 15.2636973253082 0 0
106.836459973449 18.3895010608423 12.1832237413511 0 0
-213.360781953679 11.3795352195255 -11.0770326955601 0 0
1.79468985210044 7.91294289155066 -6.49754568390608 0 0
178.438790768896 24.6788172319077 -30.0776447565836 0 0
208.954687392747 -24.2653201374173 12.2546384807682 0 0
-69.924744703104 13.3139643256489 -11.388875528281 0 0
185.355986401828 39.0365732148047 -6.90679617974929 0 0
196.616577464495 -9.43357269741071 -9.55394709838253 0 0
-213.034419972167 -12.3416240309696 -11.3519856873729 0 0
-244.310661315577 -18.6309382994733 0.0286413344084819 0 0
-225.224360114539 -19.8359714208094 -16.405592145376 0 0
-5.69061302558462 -2.73741027262668 0.30865211366615 0 0
178.734677983572 19.0853882028032 -29.4933326311063 0 0
-160.142970835648 -2.92785529556035 -22.3429426985332 0 0
170.820490332725 -6.34003315247145 21.5471078174841 0 0
-165.050237528081 -10.4437776469295 5.04655285031898 0 0
-35.4051090529167 15.932964658293 18.0199998921786 0 0
-75.5717813665027 -2.24718325083174 -4.07466063793263 0 0
-166.264823904678 16.1407749296113 -20.5113540415193 0 0
-16.769453673918 12.4355150202013 21.7072443013249 0 0
-98.3924863190024 16.1039737602592 -12.3761886599751 0 0
-140.787688480685 19.3551076962043 5.74969397749636 0 0
-12.285833512035 -4.89303751812194 19.9279294529643 0 0
-73.3404036369051 16.0817436308494 -9.09809369238025 0 0
-93.9607259390679 19.3552703969458 -7.38958945159328 0 0
-198.648861117828 28.8521738085906 6.73869149536252 0 0
-20.1149739985434 2.06233487973504 -5.67251141983194 0 0
-147.435534210573 13.9987520409384 8.46184089278013 0 0
168.797374031721 -29.5046382089455 -16.9445342814745 0 0
187.163974600688 -42.6012585058246 -2.42485354793739 0 0
177.581718881094 36.3195692760318 -1.52210512135091 0 0
-134.89929498896 -7.07992068082054 4.44687444086191 0 0
26.4707062153089 -3.87201717462705 1.34868534871188 0 0
198.899475832769 -16.4130044608284 19.9568140014529 0 0
169.086582506328 -1.92730305161418 22.3272325146455 0 0
133.752084593746 16.1971720217693 19.2392314796864 0 0
-215.17164534528 -25.6946146854549 -13.6886876984839 0 0
141.486460887242 -10.983741721505 19.8273581364045 0 0
15.0666940125798 -3.01507426905771 0.815636441076755 0 0
207.231058848483 31.9434289361026 -16.7127633214077 0 0
-193.051205916783 6.3093611475023 11.4317989862726 0 0
-158.451466110084 6.02137289507637 8.63663154162197 0 0
21.0449393846828 -8.98201059929796 14.8057989310846 0 0
58.8603832915707 -6.89489044757174 2.61041794675944 0 0
-161.643595767447 -12.4853237543317 -8.53654673440208 0 0
-223.274094379234 8.23680043621945 -20.6410725208154 0 0
-199.622211582469 1.53065749106788 -18.4594700635893 0 0
-243.431714850841 -15.4343146893736 2.50817033118176 0 0
-223.997563050508 -39.5135779047786 -13.5591134823143 0 0
175.174920938904 -42.3648276601599 -7.0435041884547 0 0
196.582207700948 6.44539908616054 -14.7540035423887 0 0
176.818255165847 33.9235516731637 -23.4405033894714 0 0
-195.090335161992 30.0490611199675 -19.3503752137957 0 0
-188.814370325149 22.3908609855054 -22.5703819254147 0 0
-58.3605647716951 13.6586180382465 18.2835712954756 0 0
192.894863023295 29.9672835130021 -30.8768813619261 0 0
-235.073683289149 -23.1684367799961 25.7722794496692 0 0
134.327887203409 -9.99879447383042 20.4020366174003 0 0
200.724226949663 33.3974415429753 -8.28177772885734 0 0
163.412791468728 -16.7036361983308 18.8074797932281 0 0
-38.0863291284909 -7.52203540812426 8.60914835409467 0 0
-219.708939153774 1.97755998361428 8.72345097207411 0 0
182.990073452072 35.5761853810574 1.5662813936878 0 0
-208.815573726494 -23.7570618515259 -7.34807230484785 0 0
201.25255507513 19.4160211042712 22.5754200830722 0 0
-181.129138426309 2.69941461009037 -24.6989460626279 0 0
180.652785288195 26.0737087113681 -30.8059780365876 0 0
-37.3043960404266 0.998611815337535 21.6814862101445 0 0
167.673661858429 32.1777398514742 -6.97491022420807 0 0
44.0007513132474 15.8986097259359 4.81305651062738 0 0
176.147715204757 5.74030937563013 -16.0542510360436 0 0
178.915847426352 -6.6272160664422 23.1817158466673 0 0
-78.0307821797252 10.8334817085862 -12.1748164911303 0 0
25.177665253172 -6.48870189199124 20.2261794951688 0 0
-212.765395349605 4.45808837554611 -9.65588166562759 0 0
-8.95710954480911 -7.73524582038366 7.9468585976082 0 0
-11.4975598886315 1.94778518654153 23.0353682990717 0 0
-110.370348518576 2.38583167725909 14.1530534423701 0 0
203.402604610152 13.6389509141556 -18.8039139452757 0 0
171.217204907248 -26.0317225147502 -19.1694770151675 0 0
206.246066313843 30.8965759939983 -19.4809776120869 0 0
202.315812144314 29.2529961293143 -24.9771536448512 0 0
51.3142899548081 12.4080312889892 22.7821183229718 0 0
44.9672437540644 17.820299739202 10.8324428449094 0 0
-86.4695162777589 -2.33267611254303 14.6467642104867 0 0
196.140927299038 -14.0058993212433 -16.7074417043449 0 0
10.4292430142345 -4.86614980675996 21.0260319077567 0 0
-222.531497189939 13.6162364296244 -5.54129594908744 0 0
107.375266772029 -0.437314237082369 24.7684515068652 0 0
117.308001742632 -9.48832219433397 -1.95792551124349 0 0
-116.810389670727 13.4945708347971 12.1901141168489 0 0
-243.567313406186 -16.3668715825355 0.853544997743936 0 0
-137.396408271583 -6.12804514743109 -8.72300471964215 0 0
196.288355528484 32.1832049150224 -29.0217459484744 0 0
150.361807947736 12.7607862395443 24.407212413646 0 0
-188.833156313793 0.145578356412911 -24.0147551177653 0 0
-206.986220090343 5.62237379425704 -22.5367423902929 0 0
-197.204423208713 9.3968085800389 12.2605342705347 0 0
162.440460683151 -28.4349523912159 -2.52651553491938 0 0
-213.553467251399 25.7953136892544 -22.1926801270845 0 0
4.68314468501531 -5.22814929950174 3.56575234824149 0 0
-190.170859481041 -15.9966470215637 -6.62524383136908 0 0
173.698643990719 -27.3059296497716 -22.521037871546 0 0
176.15387413115 27.9942922376522 14.0478373425855 0 0
-69.3771506903236 -4.95763334045497 13.265960583458 0 0
208.691511800869 20.0077340999898 -7.56636021707051 0 0
-185.539042500355 21.7517167481635 6.06429359737628 0 0
-225.485715413627 -48.9182104170605 7.54808604207015 0 0
170.311797738488 18.9395717476951 -24.4809983072288 0 0
182.722482576779 37.7039811459533 -10.6866983467845 0 0
-189.852381018238 23.2921316650386 6.48911126493604 0 0
-100.767791267722 17.9765373032789 9.63242511210792 0 0
78.2791282320054 -10.9427468647154 5.92100976752134 0 0
-14.9798104142283 -7.97591219876539 8.43846175849724 0 0
188.76556606432 35.8977047672181 0.674132438657673 0 0
92.7480053654525 8.40373855385881 -3.96160296286056 0 0
206.391480695472 20.6462364858228 -17.8582483242437 0 0
-124.833013191036 18.1819267187008 7.87051668905937 0 0
