"x" "y" "z" "f" "a"
29.901375239957 -9.73632165124671 -1.4819546479192 0 0
175.792166085026 13.2139221706262 36.5607471585868 0 0
200.295088625405 31.7623164222987 14.105653686179 0 0
4.57768966073732 -11.1601907994147 -21.5817805730103 0 0
198.65283776152 13.4511509181375 23.3086148636772 0 0
-209.079254102393 42.9262862822123 8.01424653658892 0 0
-70.0957872386499 6.41751385601292 -11.4170635000198 0 0
148.240011175362 -2.84824182733599 -23.1394529846618 0 0
115.886491879901 9.05928857365042 -20.0920709530877 0 0
148.08108158124 14.0836017175218 12.01998354378 0 0
168.633677134457 4.07567599399713 17.3867478327518 0 0
87.9428753831918 -15.3386082742834 -11.3593104580435 0 0
158.849282000882 -30.132273327624 20.8663215191888 0 0
184.520442535197 10.174532252761 25.9071036673547 0 0
-227.963740939088 -1.78069313933377 16.073951512474 0 0
12.7435269068277 0.235805889797073 3.30549732132336 0 0
-78.6378342658636 3.25889522385912 -13.4026809968074 0 0
-57.4357373768581 -1.07219651587625 -19.6281678384204 0 0
32.6007337367964 9.53142813204333 -7.11465770523724 0 0
-178.6443435455 -24.9470892278141 0.941405359692339 0 0
9.34209366567624 -15.0503697907433 -7.85596638035942 0 0
169.634866676846 -34.6575205835095 20.3008310894972 0 0
-210.15122041307 -28.9907253815553 11.026472728688 0 0
166.646006354497 -13.4699540372721 -28.106277111807 0 0
-217.272288022106 -5.91012838373761 0.416905164820716 0 0
169.160432966183 33.0645487662633 28.3259642773519 0 0
196.025648927829 -24.1975882623049 -10.2261559642323 0 0
203.338380385312 17.6645497383518 15.6820458362233 0 0
-188.132199428018 -11.9414709574552 27.5558586163828 0 0
172.204459939376 -2.30164887809984 16.1602165471726 0 0
199.816921936366 26.4648902181986 30.2342233365945 0 0
141.159887231674 -21.4420121703439 4.12958975621986 0 0
-207.476032260998 36.8264719338903 -27.9089895088142 0 0
172.890387888484 37.2521206338907 27.2046023421439 0 0
109.064799737556 -16.8181212157313 -8.37534516227168 0 0
1.40542420742232 -11.1580432878505 -21.5786270747525 0 0
-0.809884400349393 -16.3947117416858 -9.82316160900942 0 0
169.608339592355 -17.5044001849838 -25.3370965254099 0 0
-228.421907126705 27.1334897730881 -20.8706543212592 0 0
124.684306802197 -17.4116526883867 -10.2973989407309 0 0
-227.561930727889 -1.63383560621031 18.2865907684592 0 0
180.06300490474 -8.88965459131293 -25.6456941589809 0 0
-97.4477985898697 -5.84910498077273 10.3229514183168 0 0
77.7058484147644 14.9611522904858 -14.2439302789557 0 0
-189.679162313457 14.0614100181325 -11.1211502761983 0 0
-212.448195514804 -27.0606275543969 -4.25521530703785 0 0
105.399542417554 -15.445642227579 -12.9259948974714 0 0
-213.263222281208 -30.5595717273424 4.34518403713616 0 0
-221.456417461664 12.0049402886888 -12.5774232089471 0 0
-20.4361861796844 -0.748196926556552 -22.5309218193343 0 0
184.261602668717 8.77826929229041 27.4994579983443 0 0
-141.702545499072 -18.8836435074481 -2.6789016808541 0 0
45.8749813364965 6.88916942358501 -3.05593362345264 0 0
2.13305194886596 9.37269894563776 -14.5611699569862 0 0
149.498747813226 -11.9469693262795 -22.3538329809442 0 0
101.648334609376 -3.04254876883805 -24.6438114376925 0 0
161.848155451581 -4.11607585763005 13.2869862669656 0 0
-35.6126992980064 -18.2096957234575 -7.95735416270159 0 0
-216.314690466517 48.0379939481319 -16.9183277850281 0 0
87.3752029069831 -2.89425708324771 -24.8709229273167 0 0
-182.726940733786 -11.2166692531516 -6.56195564271287 0 0
34.6399843324038 -9.60389271271269 -22.6992421883915 0 0
50.8857175098191 11.0136083595283 -17.8456346458307 0 0
66.977501083853 -13.2599887834822 -3.15960731522594 0 0
71.6361620852551 -14.174078395899 -14.7906551906378 0 0
163.223909408695 -24.750402032138 -10.6424398861593 0 0
-81.7893086164732 -0.230285224065921 -16.0542106784444 0 0
-119.437732863952 -2.61549989582554 12.0017543718144 0 0
-127.830868490019 2.04619317881859 10.15569954925 0 0
100.337302622026 -8.79673844019057 -22.5018930554005 0 0
29.4335990709458 8.11372151758988 -5.48076974512431 0 0
-132.290332579998 -12.0256144005175 -9.75314860027753 0 0
110.443738771925 5.09625346736696 -22.4608129911151 0 0
87.3298673173395 8.93457999946056 -0.704950513466632 0 0
168.104330842141 -32.9724919827884 -1.16644929778854 0 0
-229.527797833766 28.2043211982271 -19.3511471265518 0 0
160.570599602958 28.1597566811528 -5.24313248077585 0 0
148.452113895218 9.23675635028081 10.069446730558 0 0
-171.217851737287 -23.6436515082702 7.78010448199721 0 0
60.1528448370152 12.642957226739 -16.4848744707765 0 0
195.206451686659 -31.9422559690981 2.62845131409491 0 0
190.14488277533 -36.8707422750927 16.5973961422106 0 0
176.738025221632 -13.6409622601268 25.613458805785 0 0
-219.644060451479 11.3692079916641 -14.7233625276978 0 0
-111.299196294817 -10.0144517495551 13.0378605133756 0 0
-196.173919742712 11.6730851166693 10.8757151349026 0 0
-185.758411904044 -28.091012961682 5.16568571500034 0 0
47.362148943974 -9.83007400131728 -1.26980760309114 0 0
191.541897581585 33.611360072437 26.0460295843341 0 0
-176.185096420258 -17.6488939370733 21.7047689427306 0 0
172.398693387781 1.53423024583497 -24.248431323443 0 0
-215.665091988921 -5.24507707509528 -6.45808723631361 0 0
-218.29181013662 -7.1631021516137 -1.86302514419397 0 0
144.716347811077 19.2025668305049 -12.1285098034466 0 0
-89.6314715688782 1.37440655754859 -13.6094753694818 0 0
-147.646412374996 7.57812662954247 -4.08215804990395 0 0
146.198336242879 1.28775725989858 -21.0596760445281 0 0
159.243241773334 -5.4652667088429 -29.6821285573085 0 0
130.862633537888 15.6583412671113 -15.6607277410148 0 0
-173.237318823979 13.7540181535345 0.258799829497817 0 0
188.90023564645 34.8331425655367 7.92276748584887 0 0
168.729081222986 -2.19725721007637 -26.9191659330249 0 0
138.70265188048 -9.94528010839836 -22.4731441924396 0 0
14.7220161032588 -11.2851417482302 -21.5627418610295 0 0
163.239854054753 31.512681179451 -1.18899521686086 0 0
-200.124755301465 -32.7656507500413 6.54466701591195 0 0
-56.1506755007329 7.91059943432803 -8.8217541263904 0 0
-188.258392961382 3.60184619048217 22.1708932591985 0 0
67.4974323206538 -12.5637527815097 -18.7782335474758 0 0
191.775132786746 -13.5536372753362 15.940838660379 0 0
-161.554500561519 5.30247327151667 23.6232189361867 0 0
176.076819102411 7.05671075893584 17.3134347693351 0 0
-108.410670971425 6.83355713576934 -1.32976004225668 0 0
114.147276458809 -4.65979755406568 -24.1147715737407 0 0
197.543561699914 19.9477483237512 -9.62770307204591 0 0
-38.1441891465341 0.388588187566948 2.29388788399511 0 0
-73.8110264794821 -8.24983431477038 8.80973829524286 0 0
-177.213182073883 15.0604379034561 12.9483337573275 0 0
165.670205107383 -16.3212477781904 -29.5582212868965 0 0
181.759214509414 37.6388673932674 20.3059472542488 0 0
-113.585315810153 -20.8986739061637 4.45545906330918 0 0
-218.466567106032 45.4460756446578 4.33749040667526 0 0
164.54694855568 28.9325009509212 24.123595130834 0 0
-169.217802821825 -6.45540285074817 23.8964966283992 0 0
-150.257884558526 7.76606448454504 7.30288980437617 0 0
-110.730587163352 -16.2799527294099 -9.62660304295341 0 0
-79.0190558848869 0.921477208905133 -15.5506127348025 0 0
-215.042409625149 48.9555476957922 -10.5639179277078 0 0
-151.69705051192 3.04851613625213 18.314231637875 0 0
201.003187342396 13.8958703492254 16.7901439268475 0 0
180.064471678166 38.651593698049 7.91711100739753 0 0
110.887980323292 -17.18405584066 -3.42116600866383 0 0
-215.628520869498 8.23751543919528 -10.3491678528164 0 0
-151.046055207647 -1.22896788187155 -8.24211057279343 0 0
-179.900784458249 14.6545177627209 15.5674786203334 0 0
200.49082966293 15.0246536328253 22.1119955166991 0 0
-164.686479484892 11.615258930904 5.07285381856116 0 0
-225.75503492785 41.3546359515512 2.03710139804473 0 0
160.376909649573 34.4890179040115 14.0200951012326 0 0
182.987414294876 6.66037105219024 29.6627494419908 0 0
189.968060941741 -30.8073271935081 23.36703667945 0 0
-227.687007753978 -4.8727800850159 10.8621513724919 0 0
-28.6065908898046 4.61659748395582 -18.3848759967198 0 0
168.667403952133 9.88335905082895 -23.8141928983655 0 0
-200.078640343794 44.0795557254418 -18.1881534049386 0 0
55.8333515899485 -9.02789414725981 -0.214649550227347 0 0
50.6344791476834 5.70354826958315 -1.32903247165172 0 0
94.162042698251 -6.69121289384286 -23.8035390765891 0 0
99.2429828140975 -16.1596765712149 -3.41693076152903 0 0
-150.200399051869 -20.8028811635408 12.937029927557 0 0
-166.660656786727 -5.59453165584156 23.446149166694 0 0
193.487778404997 2.64288737582388 6.815163600844 0 0
-163.9251609638 14.6004953968624 19.5759505436883 0 0
181.929709520197 12.7438593045426 -21.9166676046802 0 0
-211.063287418455 -19.4653909519334 -10.1502518172678 0 0
158.331187182365 -26.6119362308721 17.0316145428614 0 0
184.15289476625 -33.7496357389522 11.8368004613964 0 0
49.9071103217418 6.47747751586397 -21.8261048407304 0 0
168.194886643523 4.38280456497963 -20.5906614700825 0 0
151.914045597127 -26.8750817098494 7.41308477703399 0 0
-191.301799571594 -30.9291212765544 -0.689398063638412 0 0
6.98498247122939 2.70033849599572 0.0627461079088164 0 0
69.9455003152732 -7.48186449756145 1.96129119557496 0 0
-90.4391531949926 3.99817950127811 1.55769914262032 0 0
-183.826117487143 -17.8420742037046 -5.1667751874962 0 0
188.46949835175 -7.17486413356366 -17.096625390084 0 0
-208.275645458004 -30.5938995192286 9.46840972802736 0 0
52.1307571420493 -9.70888968769011 -0.986613374978049 0 0
203.182924239027 17.701909991552 3.68813012428683 0 0
-183.618607366574 18.8850815493185 -0.189099060413578 0 0
114.312435399265 -17.3571463383595 -7.54019060402354 0 0
-2.91971120852187 -6.87105269989678 1.95742948471509 0 0
-198.348964695849 -26.3797713910295 -5.16519550929865 0 0
169.312544662159 29.945863685858 30.497682115518 0 0
164.452493344273 33.8893541727099 2.06833307091739 0 0
-152.685391823332 -21.4166537138567 3.04333286958175 0 0
-60.1306228868938 -9.39085230767185 -19.4108935488974 0 0
-213.679658978525 41.1343975408328 9.23167599140828 0 0
177.461790565056 4.18490192517711 14.9656595607659 0 0
80.1682436074165 -11.8415817358167 -19.467999022493 0 0
-229.044742690351 40.5539068374011 -3.45866566275499 0 0
144.832726557564 -17.2417553746942 -14.1282874982142 0 0
-22.4845694600425 -8.9504868626929 1.24228333269991 0 0
-57.3233718537826 -5.56503953429931 -20.3695411893488 0 0
-218.494185748098 39.9774679727552 -25.4582311089784 0 0
131.751824064648 -18.7328736379556 3.52789957690199 0 0
158.84013917351 17.7955793550808 16.6797972147628 0 0
-222.917931856524 16.5040313703051 0.637316980059355 0 0
-28.7146276958181 1.58610874499493 0.475519906978199 0 0
169.336910998422 -13.4615470092234 27.009568984969 0 0
147.929304597935 15.4724110335134 12.4449815731195 0 0
-198.982761595679 -22.1854104348831 22.5867659620454 0 0
45.3208128918455 -11.6830931939344 -3.00623647793851 0 0
-79.8844869094753 -6.14112112888116 8.60530486065148 0 0
199.590227511677 12.2046757474229 15.6838109979792 0 0
-133.340503870594 5.87144515090653 -5.13671353928758 0 0
177.428017821591 24.2435892309471 -14.9089387760881 0 0
189.937917276878 -14.5211770944212 20.7455673270081 0 0
-86.8366371498613 -1.62526301005513 6.99188452186771 0 0
200.858479780522 28.6178645518488 -2.39677701812529 0 0
-223.444981940352 23.735168753038 7.74080229101078 0 0
-193.775174851685 27.0386886324668 -0.970255343757676 0 0
-205.040770253558 -28.1088518824246 -1.90546514115686 0 0
184.041325475141 27.3954625443868 40.5658670137966 0 0
46.4732184766626 -5.12259282622639 2.39946882393426 0 0
132.103734077088 18.529694159524 -12.3993280311703 0 0
-136.564952293438 -21.8395109600979 6.53635249545056 0 0
-2.24324858180593 0.140008087085981 -23.2576617849042 0 0
-191.899568182717 25.1584580019192 -1.248899277045 0 0
-210.00239226819 -19.6242982979908 -8.64609345016689 0 0
-139.780882395019 -20.3235454360344 12.1536588693642 0 0
-182.514477130683 15.4717205310778 9.37228874721055 0 0
171.474612345839 -36.0265899193681 2.15304222546258 0 0
190.03721435382 -11.8711636384999 -17.5962449535716 0 0
-106.252122391171 -18.0156233139584 -7.77632056862746 0 0
106.9531039427 17.3113096716566 -6.08780392171613 0 0
-191.922577720841 -14.2781224248684 -7.56062032372906 0 0
-192.246119593096 -7.57655339451825 -10.9155403111412 0 0
67.0912508174959 5.81060823451916 -0.91140651697837 0 0
-207.493865413251 33.5314945669561 -28.7850815621578 0 0
159.074890579262 -28.6241872892102 17.8987444245278 0 0
-129.917472184357 0.525008752248904 11.880846063059 0 0
187.153176140389 34.9956463790298 5.90963063319247 0 0
191.264856762406 -15.5468731193769 -16.9960049975418 0 0
-33.3180288003741 -11.070695240006 -20.5319945854222 0 0
56.3539468556822 12.1290946833912 -16.7963275547612 0 0
14.505702336215 2.59179521734125 0.870792176196133 0 0
142.902648925816 17.9053859429764 -13.7891972574023 0 0
189.764791421 -18.5245301534781 -19.4115656859667 0 0
98.1923251108275 -13.0520497238776 -17.6768997692076 0 0
188.008864136945 -9.00899043228597 18.0604460648551 0 0
-196.266253699258 21.6277268020742 -17.6482330741639 0 0
156.504251151643 -22.8390901159948 15.0754695496981 0 0
157.76012804459 -27.9704734534405 22.5704386745868 0 0
-185.079505084149 -2.52002461517244 -9.9948521245732 0 0
-197.370483627755 -3.62794477179062 27.0182783597 0 0
-114.798446549628 -15.7863372212246 -9.62030274453989 0 0
187.159282984513 -24.6716936238032 -18.7851048363787 0 0
196.534581148863 -23.5629183305101 -9.07742652239046 0 0
180.882173130598 1.92956166515783 -20.1677672768615 0 0
195.858860209431 8.85361544920699 17.1190148473012 0 0
180.469246090099 14.5064546583756 38.3115635450114 0 0
196.583467329727 -27.88817732582 6.46959715373422 0 0
-90.5494836178518 -2.10943839235225 7.74634120690597 0 0
-89.9469685668082 -12.5928176473547 10.6800389050549 0 0
-2.74044722682735 -12.5505885823515 -20.5271697885598 0 0
163.057982880247 -29.3855246937896 -3.58568026385189 0 0
179.495655520906 19.1113901199117 39.931644871507 0 0
14.9254186100258 -0.436469899240833 3.2204118305972 0 0
-204.973316277013 34.3064211794662 10.8168925061159 0 0
-47.4525510961128 -13.6047533011498 -18.3536572457177 0 0
163.254887703264 13.6746606652823 18.7744322083483 0 0
110.365318657742 6.33406695859859 3.01486545587055 0 0
-153.894866350694 10.9909160501624 -1.84647149807469 0 0
133.817003477408 -20.1699156180945 2.17537144408166 0 0
163.460756446325 7.41787257961176 15.4748227372888 0 0
-19.4364213791622 2.59280187918927 -0.482214350425305 0 0
194.987128493236 -33.8083861075744 8.12222448347388 0 0
-214.814067873637 -29.926994102138 5.3172778218583 0 0
-211.751286600326 49.3658276935108 -1.33034375762479 0 0
-205.144605712476 -0.56221296487145 -14.2706291155178 0 0
151.444026788441 -1.56752702722375 -22.4646234195649 0 0
-100.041167534938 -20.103214609714 -2.27119260543918 0 0
147.699977365473 23.2841779716229 8.857193613518 0 0
-194.046659998219 27.3654403978908 -16.0372630249004 0 0
-174.792492199463 -22.838659513501 13.5333848266494 0 0
-193.655287729461 30.2947215572183 -16.1520696883072 0 0
197.164957540518 15.9034788120891 -9.27510280904901 0 0
198.201740752584 25.7457434599347 32.8443434087178 0 0
-102.415105465912 -6.08486562257437 10.9025240693941 0 0
160.241863569378 -16.8455103604687 22.8259053174458 0 0
-197.136263863531 17.4959087516254 7.71176784031728 0 0
-119.506432430889 -14.1482726926852 -10.3021772492809 0 0
-218.819524470402 48.1227638251407 -15.6171913565906 0 0
-176.053616187475 15.0259756878392 1.24643114706306 0 0
187.120673946067 8.27013699257562 12.0955682310118 0 0
192.453998012174 -36.7790124452229 9.67137255570662 0 0
-159.748142127792 9.3427286928629 9.57364947265964 0 0
-197.454356648401 6.31685863547574 13.3647028758527 0 0
83.2362295102058 0.849068955437984 -24.5274008208555 0 0
163.918258859217 13.1270363893291 26.8685332854737 0 0
-64.7707338878716 5.05264783147469 -13.7798996527001 0 0
152.372876763019 -17.8548634813824 -15.7384866100001 0 0
129.287286421284 18.3128648175658 -12.5487188308483 0 0
-145.655167170003 1.93515605209682 -6.87574254247626 0 0
-149.970213608157 -10.3203152338167 -7.97244997882114 0 0
-221.595047745053 -17.7846070803096 -7.58693694892381 0 0
-231.13925786049 26.387987611547 -1.41309768132752 0 0
-182.642952181588 -3.27353717260223 26.2463263752394 0 0
172.407825552008 5.95697239985754 -22.9050456631541 0 0
-226.84581523331 -16.5732943010268 -0.365299189966814 0 0
-110.938048184419 -20.7447527764697 4.19354007149857 0 0
201.863790440947 23.379430728689 -1.63885954292084 0 0
184.869370449903 -24.6084681937971 28.7148537438508 0 0
107.979751778908 13.1906518145068 -17.7016305543852 0 0
137.65855814096 -15.1972222224111 7.25417948913123 0 0
164.599299273228 19.8729030386478 24.3662828854891 0 0
-142.188834276784 -12.6227128441358 -8.31517297601918 0 0
-147.616577402126 -20.3849263917307 0.576471607592064 0 0
180.86935120764 -16.082325977393 -26.9808619559097 0 0
174.914338876494 -17.9878091199595 -29.8938571178097 0 0
154.928876325436 28.8996393997987 6.68654398217174 0 0
-211.033983502185 -30.826505741766 6.38512565112661 0 0
179.463160003324 -7.74191007093164 -25.4471027395153 0 0
103.765009672789 -15.7773505501274 -11.7002132456821 0 0
184.471027364512 10.8726256712977 -20.1543887035663 0 0
185.674813495857 -11.721626721214 -22.3488924427709 0 0
28.9130242545148 -5.11074382375766 -24.4276447376365 0 0
-146.159061239841 -12.8496584368513 -7.77499339069676 0 0
195.617735104517 4.7156010808868 6.9384568852941 0 0
192.653611736311 -34.6165220641321 17.2177014384079 0 0
54.9423578360724 -14.7300499861843 -8.68972252120738 0 0
-184.688244868746 -22.6487122382859 -5.99352751240402 0 0
174.958884704767 17.5008254964686 -21.8979052458506 0 0
-218.193934298291 -5.27520812973529 23.407587344377 0 0
187.474435403785 -7.55991526261044 -18.2670065427508 0 0
179.034898162205 20.2858331026536 -20.7070538396785 0 0
-202.845740981207 -6.15898361935035 27.644871781797 0 0
-194.745430222483 34.6433103293544 -18.1634982132531 0 0
181.043439767261 8.03953497988945 15.1322336349424 0 0
171.46374541954 -35.2451818221067 22.9786448145153 0 0
-126.97478305286 -18.551966342982 -4.13592640362072 0 0
-151.885748136024 -19.8721340608836 -1.07846621270739 0 0
-182.696712502145 4.92784745455408 -9.72114935205336 0 0
100.674045482997 17.4062990502706 -10.3861639380437 0 0
157.349476623332 9.02884586157498 -18.5716552292977 0 0
135.062755017138 15.7968160373658 -15.622699092056 0 0
-135.078900335391 -11.8832397346547 -9.43741612523416 0 0
175.19389655017 37.0418236045212 4.29399784402809 0 0
109.549852538583 18.0163557250172 -7.82939399214038 0 0
-27.2326197792277 0.449102163809034 -21.6464609482371 0 0
-231.344122141139 34.5428013934604 -14.3315716136522 0 0
-55.2170180404945 -7.74481942582257 6.65722650455018 0 0
-201.862109669497 22.3116322289229 -25.0482454101291 0 0
-161.812676956732 1.25258422238356 22.665150671446 0 0
189.714722918198 32.3833073431967 36.0735324439674 0 0
168.753528517162 -23.1837672543658 -16.1040262190761 0 0
-220.164663435628 -19.5207844583466 -7.90602779629655 0 0
-9.79927837548349 5.36474181593534 -3.61695822561695 0 0
-202.714729930899 -27.4975522859767 -3.1880068380248 0 0
-129.785880462825 5.73324917997783 5.8906539666826 0 0
112.366866784479 16.2161160150744 -14.8864961871467 0 0
123.766371748414 -12.9462241505453 -18.953611457723 0 0
-34.1233292568783 7.23997662503973 -6.96325210345635 0 0
-171.14189542289 13.1856046177793 7.35948541233938 0 0
161.447635833098 -9.80021914268537 14.6321094779056 0 0
175.866330414263 -1.40379492059086 14.5466765131001 0 0
-197.884830552393 -10.738458270924 -11.6839717166867 0 0
-218.779498139847 42.21716995809 -23.6294979722495 0 0
128.961762578085 15.0432788046526 3.28227731195974 0 0
-197.253509025451 20.5772935957933 -19.9996801644255 0 0
-206.378036451295 -20.0129139733812 23.2382420795906 0 0
136.788125326751 -7.40209636215211 -23.378210832478 0 0
56.6298985966879 9.17291827595134 -19.9932020449062 0 0
-122.543385426454 -4.10248043627049 13.2421770438063 0 0
200.130886712397 32.7958279883208 23.1609290259562 0 0
140.232398836305 17.8416211418856 -13.7288582323359 0 0
-220.1471993306 -5.66914713394104 11.7826735723769 0 0
129.023387444418 -10.3446910977515 -21.722374121026 0 0
-222.560743926113 -23.26835171341 11.707173872224 0 0
-212.039978545239 -9.06848141162199 13.4552989623811 0 0
-186.243515448349 -15.3761814009733 25.5873321523191 0 0
101.630606431881 16.3373813488833 -5.60992468142245 0 0
132.667759280942 -15.4389917228672 -15.658972993196 0 0
-81.5092867869904 -5.5466898015192 8.55027121417663 0 0
-44.1628273606432 -2.94658728360049 -21.3183488659211 0 0
118.692836620027 18.2495873366204 -11.6229145391212 0 0
87.4242515373276 13.411953184318 -4.47923532218538 0 0
156.937901662904 -19.9373075636017 -14.6823729182773 0 0
-218.83701727663 17.4695044772001 4.73261024820637 0 0
-196.228771448525 -26.0775227103195 -5.45029074248098 0 0
64.9236519933943 3.67669250406654 0.390892301711815 0 0
102.603980232118 -12.9106119908791 -18.0243813645741 0 0
159.807978485642 -1.60037346968103 12.3902506056575 0 0
-96.3521543231507 -13.0742376186049 11.3925936002477 0 0
181.596829363754 -12.9461697759124 -26.1996080513396 0 0
85.2306890684468 15.0619760928376 -7.13229963709599 0 0
-50.9199380289423 -13.7108564730451 0.581215376281188 0 0
159.134656221984 32.0107305331083 6.13125892274728 0 0
145.946252864502 21.9885930069721 8.55796678872811 0 0
175.954342443662 -11.3479680675586 21.5889724466602 0 0
-25.5098054221203 -3.55647654736232 -22.5755063414235 0 0
47.7067735307259 -5.18921761100588 -24.6663326757134 0 0
-134.909307506531 -21.1938964080534 2.74082312200816 0 0
-213.160045317274 47.9132474874353 -5.81696125329816 0 0
147.605224371978 -2.79596969911265 8.62923877460877 0 0
-56.2874143133772 -19.0719900940896 -5.06773015624452 0 0
-216.205381435435 17.1822942483407 5.48696480920049 0 0
92.5652955623787 -2.16404353674647 -24.8279616080711 0 0
180.912766910852 0.758259451852493 12.2211236617767 0 0
-18.5803472227592 1.32697540589323 1.2088296902937 0 0
92.617998493248 6.5948687625103 0.848064264566819 0 0
-114.979871890791 1.06653435481845 8.39753403410526 0 0
-192.372120454622 -28.4180310175876 -3.60734853182799 0 0
-216.907197788808 49.061612311395 -14.6762734533568 0 0
-208.053449094656 -7.31963242519068 -14.0164221881603 0 0
-73.778040901767 -8.43945006811337 -18.4913314744574 0 0
-187.245386832173 4.87719681788924 -10.3854115543062 0 0
176.458093532389 29.4413511666167 -7.37476381597502 0 0
176.149934279636 -26.7566635088219 30.9593746975229 0 0
-154.794480510175 0.668652184159907 -7.2436666580189 0 0
163.083512221221 19.1726756343408 26.6305171288965 0 0
-204.332480168604 -2.92487242962169 18.2179996149053 0 0
152.666254567199 27.4229664017047 4.69260854228147 0 0
-124.74153841102 -20.7013664232636 1.02273152886555 0 0
-40.9524320972806 -18.4751516961913 -11.2520597097561 0 0
121.194381794917 -17.9835592929933 -7.00486680555549 0 0
-124.436050367506 1.18584389509672 -9.0024478166242 0 0
-99.3115028058495 0.0501837330622629 6.79556150740608 0 0
-68.8886760952461 -19.9281000031965 -5.75224241147311 0 0
129.957592728584 -18.4259195025987 -8.15949530993701 0 0
-195.382610720837 37.4953801940997 -1.44237490823643 0 0
173.146865154467 11.8112996521221 34.2848508624488 0 0
-197.60016534448 43.235874996909 -15.6827462115891 0 0
-158.207461688575 -21.3857271321833 1.83146300090235 0 0
161.523384424906 -19.4282724879843 -18.3928059464192 0 0
-53.589130563316 -12.1383012218229 2.40847420288255 0 0
-214.278418551486 -28.3929420406876 11.6981984108743 0 0
-194.655911370802 41.1621961880326 -7.92699517808517 0 0
-225.176592312546 -15.8288449983743 17.4198388986172 0 0
-42.6725967854505 7.88825621705216 -12.404577784259 0 0
-210.663708638937 -8.01857118382848 12.4067646780916 0 0
171.892911210063 -12.8654455358058 27.6342839913064 0 0
-182.494197340116 -23.481240930638 16.1628755149957 0 0
-105.730619342092 0.173066620657001 -12.0284084771141 0 0
-4.74392289015342 3.57091541405207 -1.3982503761553 0 0
-0.188223651552948 1.59503595208534 -22.9017443257356 0 0
26.0416674258691 -14.8580990434599 -9.06240138190879 0 0
-216.194968235211 -27.8137802936237 1.69660641137772 0 0
126.467619427586 -13.6837431242725 5.3031381900302 0 0
187.126291883373 7.00403937176065 30.5471937423568 0 0
122.710067384479 10.8328160863621 3.9602707734443 0 0
129.071455062959 12.0987704307121 -18.1229404206558 0 0
-178.007968065154 -24.883995870524 9.28269472608027 0 0
-120.463770673602 -12.3636893326027 15.2470452004553 0 0
189.71732489661 -32.5407509343725 5.16303487333524 0 0
-90.8085695826678 -4.76593294218496 -16.79113927219 0 0
-118.990934856432 6.94676683889667 -3.12907527965542 0 0
-196.522773312819 43.3796080079266 -11.9750643807107 0 0
162.163742893934 -19.1299821160624 25.2992653735505 0 0
146.838506684203 17.138319950408 11.6066720630264 0 0
151.104530720326 -21.0583415558582 -9.07871824047834 0 0
190.364335363399 19.0324957470274 38.2382024984035 0 0
-219.149491687695 48.967269540268 -3.08665143829191 0 0
-153.799230456723 -4.53528329226994 -8.12614173968497 0 0
-162.528271940476 11.5985680965221 -0.670859041550353 0 0
174.69285604012 -28.9823328412663 -7.95145647847476 0 0
-199.333711308055 -33.1353411460703 5.23083370174438 0 0
167.573384096155 6.51969234882222 -25.4875550196006 0 0
185.075645783989 17.5173640300436 -21.7697385779647 0 0
-210.269963105189 21.0588136065043 -27.5123157875653 0 0
162.429021814896 22.4654030935791 20.2746760902091 0 0
-232.523315988984 32.4850094417457 -8.02924067853479 0 0
-70.2037216206631 -6.63770474561662 7.84735386501044 0 0
165.902213155308 28.2946542469086 28.608403250376 0 0
174.373458269447 6.6205873268 17.9012925595454 0 0
-199.230177151491 -18.1381650300278 25.7027091930498 0 0
59.8904213888802 6.22065223454045 -22.2629241484858 0 0
167.518065916635 -27.3739746017585 -8.78032828183035 0 0
-212.575581056701 -29.8079399303848 9.49047500582073 0 0
-222.352835127859 33.184258651724 -25.9541661744988 0 0
180.722611055305 12.2157118266324 36.8908730842879 0 0
105.880820905806 -16.531334573375 -2.2726611005068 0 0
-117.207812501127 -8.97201048984519 -12.8068401633088 0 0
169.170372548663 16.3448054571776 33.587238629806 0 0
-76.9991251841887 -1.20642139895114 -17.3895735850437 0 0
-205.756370300918 -13.6915697511118 -14.017715974591 0 0
-66.7380628776582 0.885375581261041 3.38091166218694 0 0
-174.907431566559 -18.8412821752166 20.7810076784344 0 0
144.743468657926 4.32943242758012 -20.1917514980202 0 0
152.076483648241 -13.8803143696659 12.0154492080639 0 0
147.794307717233 -20.8563643183826 -7.58108077300661 0 0
-168.358812953636 12.4701314685041 6.83233144625788 0 0
-218.718892253292 -4.45466547609804 15.9098158641686 0 0
-64.0482451106858 5.0707834596951 -2.0891692795049 0 0
-215.863196341254 15.3825184665837 5.12801950643224 0 0
22.5616495538879 -14.93031388964 -9.06018919703021 0 0
-4.55659112574283 -4.15707049024468 -23.5962816262619 0 0
191.625351522001 -33.0277275951743 4.74185853636056 0 0
163.072758845517 -2.00593950555521 13.8167337186164 0 0
-155.04355838951 -2.48442841137154 -8.07806024640254 0 0
100.351937971871 -16.3516837991901 -8.44944250240841 0 0
187.040531629481 1.00959954130849 -15.2883581595141 0 0
131.776591662445 8.73744378127511 -19.7897122464937 0 0
-138.06571170374 -0.510079153831041 14.8133608887924 0 0
127.168870267699 18.7919133097398 -1.69768118702778 0 0
181.049030243647 -30.4397080531414 -4.3661587919757 0 0
159.314939651188 32.7053613573912 11.0661115477841 0 0
119.504526293596 1.4905985563744 -23.3517190929537 0 0
-30.6525158445763 -8.3538876972816 -21.6490200805024 0 0
154.244349506426 15.0724696208018 -16.9012953191973 0 0
187.083026037012 10.6281944736619 34.2531376323002 0 0
-212.545309114744 -2.73511337464027 8.63258896840668 0 0
-174.350773322068 14.3799547909577 2.295058861027 0 0
-172.686410389774 3.37456785405953 26.0568062952812 0 0
-191.005073243047 -9.83002662592803 -9.26131225517301 0 0
169.934365088829 18.9036453693338 -18.3268281321238 0 0
13.236458115279 -1.48846952342032 3.01732120843881 0 0
-196.77006086444 9.92467330525554 11.7141410972112 0 0
195.432641468958 22.2670748830754 35.8326384679952 0 0
-27.6021284178614 -18.3104857780491 -11.9427237858388 0 0
-224.327157571587 -17.9067239803319 16.2217491154346 0 0
-215.178995781783 6.55617620996605 -9.69620123915746 0 0
193.317017361923 33.9633878146056 17.9199388897103 0 0
-159.297569310795 9.14640057597069 -3.21599635422152 0 0
-216.958202186207 -6.9564619310479 -6.62868582313344 0 0
166.150121072487 -7.05821312441733 -31.165459328229 0 0
-214.409546414545 -2.40759212499303 4.66920769368548 0 0
183.773594961072 -34.6332961246846 9.08299019339939 0 0
148.264324227398 25.2499593667595 2.33900793573674 0 0
-182.986629592914 -26.9650786010207 -1.01154480254712 0 0
194.832646999747 9.47481020681506 12.3565691008483 0 0
-153.409294055526 -10.2152315328112 20.1993609348296 0 0
157.337161633621 0.35829025304593 -21.4766329584429 0 0
195.582313923364 -13.6083317919815 5.86656478723355 0 0
-31.5452447012462 6.40412588642048 -5.26943591135812 0 0
72.0146332937752 -11.377033917009 -20.4607013727958 0 0
171.383128392009 -36.0021430354012 14.9318028519381 0 0
-210.02266678065 -30.3524435394567 9.01622635456902 0 0
161.945431800583 21.4787105663802 -14.8555582467215 0 0
32.9287062182711 -11.1895503660548 -2.75445899640843 0 0
-4.5690478120007 -8.65422497656554 0.255379408605848 0 0
144.211900388571 -21.2039263383294 -4.88288758372699 0 0
187.16790841913 -15.3541356332921 24.8427240877253 0 0
-196.224496651719 26.9194031098031 -21.2503981512483 0 0
-145.01916678246 8.56433908708682 4.11186653413015 0 0
27.5446908408534 -7.11762439450934 -23.8937976989482 0 0
-198.371012822795 41.9657211540935 -18.8219420431792 0 0
-219.615964861911 -25.976257537241 0.758969923919047 0 0
158.764078937457 33.2336870819547 14.3050968813273 0 0
169.505785883697 -0.550705332599585 16.6092421673915 0 0
-224.968266532497 33.5878353421279 7.1564985550361 0 0
-196.255347857163 32.9378848864429 -21.1335116182401 0 0
-202.25792004634 20.5598646359615 -24.31151597124 0 0
105.612855246714 17.7340974982263 -8.5256671453108 0 0
-61.9905020993875 -19.282872839764 -9.73959514805698 0 0
-49.2478909547281 -7.55490974919183 5.80407814448236 0 0
176.788955737357 32.6230919531174 33.2537011079505 0 0
106.594296238748 -8.92043810893717 -22.4152469485597 0 0
161.958857125806 -7.53633496316769 -29.6734342693952 0 0
160.446292508556 5.24675881997221 -18.9623684948411 0 0
153.588597540874 16.8999317676101 -16.0824147499173 0 0
-145.989890790846 6.97492251381431 7.28000801300293 0 0
166.214396730084 -18.08426840386 -29.9595177712909 0 0
-192.807818586606 -6.69453915782163 28.9635469955073 0 0
-219.171787946934 -2.8330436822074 21.1216625339394 0 0
106.278042340464 -7.10951541217485 -23.4676538596496 0 0
-55.3548734032727 -6.52475506767588 -20.4372385698738 0 0
-78.1319415882636 -4.09387398573293 7.89949446550651 0 0
165.820817782976 -15.5101208775469 -26.1408218247607 0 0
-198.432584863943 -29.2087411233287 -2.11902303015638 0 0
145.340572231241 -3.63936396309837 -23.2756339084144 0 0
16.4642965490391 -6.78712069661457 1.38003024422 0 0
98.4844123205246 17.0427308297561 -12.0814552030535 0 0
50.0902873684192 -5.14967400426883 2.54009904493167 0 0
-197.815298186081 -8.93379468177544 29.3026255048629 0 0
-173.250873742143 -23.621779576153 10.208522228661 0 0
168.337711262332 16.7811653707114 -18.7897746647883 0 0
-121.20718682449 -14.5271471916208 -9.82654671994235 0 0
154.758705161302 -21.0249239876657 13.9549231642043 0 0
123.425627422283 19.483072103402 -6.86819116807132 0 0
163.285323788716 -33.8661192759009 20.2245877708423 0 0
-138.682537793244 -3.68355132110468 15.8878119543181 0 0
124.188867497786 16.789776143357 -0.113168090127494 0 0
183.755703568256 0.981387401476923 -18.934875363373 0 0
25.1749193119499 -3.6029208685751 -24.5218514712652 0 0
-161.544590629994 4.06029124860273 -6.99577714587466 0 0
186.575507659192 -26.0259058508006 -8.87696574170285 0 0
-195.219768905939 -16.9084066502851 -7.7368642868313 0 0
-216.732197899777 -14.1798216830408 -11.9788343214777 0 0
177.419219616946 12.4297673055616 -22.7090881329182 0 0
-122.792499462818 -9.34647282554699 14.2581680814456 0 0
157.420383740175 30.8731151708381 9.53317146332839 0 0
-99.9734266827715 -2.29146505607705 9.32419586534399 0 0
-13.1258186254247 -13.8451824369286 -3.87811530781021 0 0
202.192224518676 15.9586558364254 17.9074573519459 0 0
-222.626813502119 -1.98619199300869 16.020446529902 0 0
-75.9762624713829 -4.29758826358695 7.67395652834598 0 0
-101.12462994121 0.331980111971899 -12.5734089535907 0 0
-224.381299070021 -10.3988148121573 21.6720946751212 0 0
-150.392772459656 -12.3823512490739 19.9406425570558 0 0
-213.724393805673 -5.33405180199388 8.82934661454599 0 0
57.6703225930914 -5.58626699633897 2.55259520880704 0 0
182.325081369857 24.6818572022775 -13.6858209544354 0 0
80.3195246783651 -1.1915481398154 2.07496801098065 0 0
-103.797490007334 -9.98795239668723 12.4969403474895 0 0
-215.01030015665 11.2657346311339 4.26047615271829 0 0
54.6790813234391 4.15810988769587 -23.406018630021 0 0
-209.801299983679 -18.2071683955465 -9.84861315808062 0 0
74.5549597667095 -2.18195979726687 -25.0380871150125 0 0
-194.791070834416 20.1510616379235 5.58832917449553 0 0
171.747575912843 26.340356564167 -11.5450471357137 0 0
139.375459932825 10.9646578056806 -18.482157388176 0 0
-154.947266769805 -13.0908413400322 20.176377207028 0 0
-209.536706110185 45.6250361473904 -21.0649917959631 0 0
-202.118468672865 1.26576026669075 13.4034483105435 0 0
156.674427794237 -3.39266313785011 -23.6609456541796 0 0
195.978321616361 8.67145361675037 -5.91638718494833 0 0
167.130370570389 -34.8432926058434 12.752223178047 0 0
167.363801243784 -18.029787786744 -28.7358733258666 0 0
-209.948807750018 -31.641375971405 4.90660740345903 0 0
162.430374151562 16.6422330228139 19.23812881366 0 0
-158.594700765465 -19.9385752393546 -1.98685015889462 0 0
48.3112505836002 -5.575188934912 2.21698638963543 0 0
-198.601764348485 -31.4396493457187 0.65833626569051 0 0
173.258717890333 -30.2651126073302 -6.23671341755738 0 0
157.354829630574 31.1985283230419 12.2961800329766 0 0
159.284188424912 -11.4355031985774 -25.8538610080105 0 0
-136.364996061989 5.9251957682004 -5.06389706209781 0 0
-212.624144434642 -30.1180285349139 8.16307990549677 0 0
165.557483938927 -19.3202706788785 -21.0982215280805 0 0
6.18362053169864 8.05392598989901 -17.88904987657 0 0
-196.707950883458 -22.8976203389239 22.097797867035 0 0
-99.1650179491607 -4.62443108185988 -15.6260817712147 0 0
-211.63805687098 -23.7303915371191 19.0996503856799 0 0
-185.284608120615 13.924438410665 11.4406517975485 0 0
-209.366397636531 -26.3467895915871 -5.22899306953029 0 0
16.9169051894037 -13.1509985331475 -19.6690887408095 0 0
108.867752064196 8.96752647850687 2.13887748393885 0 0
204.302907781143 20.1343855349766 7.9175697383427 0 0
166.440255874808 38.266281460193 17.5176764603504 0 0
191.998659377136 5.82707326546118 -10.202045935235 0 0
77.3204036277802 0.225315793743956 -24.7439795730208 0 0
-20.2393868053362 -13.6497296494557 -3.03709113096104 0 0
-212.879727964404 -27.8741790244131 12.2242888576477 0 0
-196.144701751803 0.141428711436892 -12.9454375591882 0 0
-18.7887333970609 5.4321635023289 -18.5024868685246 0 0
-213.982957256188 8.86192331303588 -15.6403510800883 0 0
181.81487736872 -20.8161606907602 29.8618503000495 0 0
26.5329750530501 -13.8630275451424 -6.2614650782608 0 0
-28.3465256404751 -0.202451911233873 4.31487946643878 0 0
-151.605747313717 2.93809132190552 -6.26641068897506 0 0
-188.215799428111 -18.0530329286272 -5.78135562549222 0 0
32.2970374257788 -3.55590254182884 2.73105671101191 0 0
-193.733316075043 31.7052863558212 -4.75398829111449 0 0
-195.771560756899 -25.935697201217 18.5051858620028 0 0
-17.0012865645343 -13.7653841808128 -3.46362420312901 0 0
162.833783714761 25.0768360538764 22.6320139075627 0 0
108.494437695052 1.11041871341275 3.58341026056795 0 0
-214.241028205333 46.3957697875005 4.83328389178624 0 0
-192.176256876552 18.7677802883154 6.22041784954557 0 0
-60.7219043884246 -9.51040329746024 6.06907138481626 0 0
-140.777396421378 -21.3905938768258 9.88983147811001 0 0
-215.770750678703 -7.59129334209815 10.6134598670804 0 0
109.125742920437 11.2754202197481 -18.9505508415105 0 0
164.605348400668 25.5724098065975 31.068212115709 0 0
159.559208510014 1.36215421826465 12.2728022446312 0 0
149.437675264655 -19.4641563465218 11.601355268127 0 0
174.045812181695 -24.9892150591542 -14.498716932712 0 0
181.360314470951 -1.26244972276678 12.2793829284121 0 0
-200.857692404703 46.8777207093248 -3.82010853240688 0 0
-207.712019195803 -10.7887856273016 26.7274929682551 0 0
-174.711224738512 5.30112130334259 -8.70974135322077 0 0
-202.836275115176 -32.2941576770459 1.91944226913959 0 0
202.680302294452 24.970157990251 0.536734439137623 0 0
-174.682631268065 -17.7497852912891 -4.62051106517675 0 0
-197.556546678525 27.4382426884041 2.67235298686236 0 0
-52.5870534634779 -18.5069626558259 -4.62718706366656 0 0
160.00317315034 14.2426263434125 16.2495045206023 0 0
-31.0932413099624 7.4370984169802 -7.23444718967567 0 0
161.060438267489 -15.386069783638 18.9747117987698 0 0
164.029815086295 37.3684639813976 13.9815212610895 0 0
-193.069137291964 -0.392494601580736 -12.346733935939 0 0
-220.599449110561 -13.4784415741437 -9.63697291748335 0 0
-40.198903382525 -7.83470721373247 4.45148378170683 0 0
12.8000576960923 -12.1613970064199 -3.61413224822255 0 0
-201.494254958352 -26.0620989904532 -4.8390069497724 0 0
54.7087221751508 1.5501903178949 -24.3960499858728 0 0
158.726657069504 20.9569525532726 -13.9611148761681 0 0
-88.1969004903659 -13.8653636774205 -14.5623439801027 0 0
-26.8042359319543 7.90340602191446 -14.1450234397051 0 0
-214.635711984674 1.28624914693502 -5.74486426756003 0 0
160.029429298178 27.0515162767594 -6.54222085147992 0 0
-7.06709982058554 8.27297778642972 -15.7797497628375 0 0
56.4167453922054 -3.48041207404627 2.01675121175151 0 0
165.559178611194 5.68779033299111 16.5861012459648 0 0
-168.654543024843 16.6797819039073 17.2587457542677 0 0
129.075511618005 14.0321988147406 -16.8459823558367 0 0
-134.242035492428 -12.0977012930003 16.6864699921356 0 0
183.038609162364 11.7558201114928 21.4569380093165 0 0
188.802579120297 -10.529631047498 -18.0533378663098 0 0
188.090201178703 3.50976141432042 7.18789825623833 0 0
-225.081381354935 15.7868990089049 -3.59278806268943 0 0
85.0508236253656 7.72466433920199 -21.3482812093886 0 0
-3.99887779240828 -16.5011937684865 -13.8318996983087 0 0
129.035844937904 2.1603805845349 -22.5240476925831 0 0
59.6581253210321 -12.4054469323352 -19.2883626079577 0 0
38.4762362162579 -14.2820821656718 -16.4934808998416 0 0
154.877228649342 -25.9639008303299 12.4778752101681 0 0
61.9180966599843 -10.3350779155291 -21.8765771810029 0 0
171.672187184314 -0.696313489059199 16.3351372299643 0 0
-137.543989776721 -10.1350683295482 -9.60942951203889 0 0
-215.117953628921 8.9413510407559 -14.0116236184871 0 0
55.8321778470008 -0.839505288022571 -24.9504081357272 0 0
-177.143857537201 8.15259535296729 26.8278098717401 0 0
-21.7306539118108 -6.86077819689906 -22.450696601195 0 0
-49.5730182646214 -6.79244051809815 -20.8272340098287 0 0
-208.689430812139 -4.32135057583473 -13.3107280296896 0 0
121.32616101807 19.1495899687305 -5.75799600320661 0 0
-195.57384161195 24.1996117167813 -18.104719516421 0 0
159.042593683672 31.0623892184955 19.54810408609 0 0
171.336729351394 -26.1115372263297 -11.9316288911033 0 0
-65.3404765300391 -15.6376583749881 1.22159055129372 0 0
-193.047930351671 -30.3878291524759 8.86204243856956 0 0
21.0422243243492 3.24464454484256 0.840410935122634 0 0
120.885943599718 15.0972585334721 0.572335988237904 0 0
91.7793015757231 -15.3862627383079 -2.9957501875959 0 0
-224.774160140163 36.5247911077712 6.3794445660744 0 0
-125.717984418897 -13.2008066641555 -10.0679934418597 0 0
167.781198086533 -2.82822573947459 16.9061703644587 0 0
102.362406586055 -11.2827536740813 -20.2643582315364 0 0
-215.703796811009 -26.0871662501919 -3.39887427060914 0 0
59.967901700001 10.7082078164305 -18.68392218655 0 0
180.773021621844 34.2251124968816 29.7202949532187 0 0
186.403343215532 -1.81011006027543 7.20766630518279 0 0
-26.9023750659657 0.622733052256767 3.06635542474975 0 0
-42.4825909369626 8.038544332296 -9.61205170741612 0 0
-188.689144092093 22.3403940200869 -5.94509450365629 0 0
-26.9701296609233 2.96991317931438 -20.1084251006806 0 0
140.812615309786 -1.85677496253471 7.23982871502954 0 0
117.892480091787 10.2428077100113 -19.4036598715209 0 0
-85.7126400144328 6.44346052165351 -9.26531620243184 0 0
138.668220833616 20.067115278951 3.46740443863257 0 0
189.697425475222 25.4438340777538 -9.97105841997725 0 0
156.760761346394 30.2684581622074 6.2114168777083 0 0
-175.163707793105 -16.3474305902795 22.5474799741975 0 0
-223.735810631908 16.1844589780757 -1.62378902378483 0 0
143.495869311666 18.2038260532591 9.47541659876927 0 0
-114.470564866079 -13.8570554504916 -11.1425343850716 0 0
156.791505508318 -25.7017372061707 14.8158902689612 0 0
-163.607469306055 13.8188121266796 23.9832871146458 0 0
178.722452474628 -37.2513495957318 7.62446754487274 0 0
173.994855917085 -8.56186001240308 17.6730554012437 0 0
85.383830790761 2.2335950279292 -24.070406985504 0 0
-142.577342738478 5.89431686647528 8.4196383388641 0 0
142.383222732322 -13.7796604671935 -19.2658523030834 0 0
-206.759794778144 22.31508451751 9.23599502336699 0 0
124.26389184351 -13.6959228690699 5.15002603797497 0 0
-205.584190591351 31.629319460095 11.0157617467286 0 0
183.091714233762 -18.5915262472279 -25.6266548641572 0 0
18.3431826239793 3.59596630412029 -0.31415572623094 0 0
120.181801870158 -10.291875701803 -21.5691330829413 0 0
-221.321381629463 42.4322251576044 5.36387773525835 0 0
-76.6837244263795 4.99160083499525 -11.8894090411957 0 0
-66.0716224254106 -18.9120619710604 -3.23411858176039 0 0
137.138257577566 -11.1878486182354 7.35965702287543 0 0
131.088855560579 -8.52269997757479 -22.8706946154971 0 0
193.71233751885 6.86316927974151 9.44239555445236 0 0
63.4361472006861 -13.7547283727195 -16.325644353549 0 0
109.515851783013 -1.76673583805631 3.74341731100632 0 0
147.766775504352 19.33384437562 11.38647226821 0 0
198.792124099845 32.6525906799953 19.6177662694069 0 0
159.653111848081 2.27717262974051 -20.2599136977966 0 0
185.814557067877 13.8549050324131 -20.59431026105 0 0
79.8461516003355 -13.6190526274527 -16.4229509817899 0 0
-204.723082762072 19.0783913153029 8.51809231815806 0 0
102.102889343615 -12.3232987941738 2.17359794169539 0 0
117.855162630778 18.6611733215722 -5.77023184576501 0 0
-203.758701280599 18.7709082058544 -24.1499889550561 0 0
72.3919682449359 -7.62944173556591 2.02131097796233 0 0
-46.8271542040817 1.78732985609717 -19.0332238107758 0 0
204.077775446647 27.5498921681841 7.07757921623611 0 0
-192.537543369803 28.1742806414847 -9.43191947409384 0 0
99.33713865125 -10.3217568661895 -21.2765978828409 0 0
181.309934474576 -32.7202925697491 28.9966025256328 0 0
175.503098012962 -36.7396087029254 2.31829668010931 0 0
150.643020786811 -16.2606403404505 -17.6300486570689 0 0
178.691584589135 -37.8246361104447 24.8072065830869 0 0
66.0833754322753 -7.27438463309548 1.78026805197365 0 0
-212.520656545054 -6.22622181797479 9.56594508272143 0 0
161.067082492103 26.4285380839277 -7.84247954320056 0 0
161.990680514474 -33.8183996167609 12.4129593400471 0 0
-171.861307976744 -3.68825456142968 -7.0744279299851 0 0
-169.950966648287 -23.4309135593077 5.92436528839582 0 0
-7.26132188118108 0.230138919205173 3.2815293555985 0 0
-168.858610227451 16.2566693616164 25.2369900028256 0 0
162.46880532069 -18.176886063196 -20.8540666047658 0 0
-168.093680850811 -4.20126659617552 23.6774006292646 0 0
122.950290601301 12.7240980951074 -17.8184172639396 0 0
142.084458394503 -4.18897508160222 7.60348565839305 0 0
7.92603114181724 9.7997586532057 -14.0472750671274 0 0
-199.276466638197 -15.5933271523878 27.1309865475429 0 0
-153.745424019979 -6.88171914415741 -7.80444297391763 0 0
170.794652427497 -3.65334660653262 15.7811534268483 0 0
90.5418660546432 14.1905873259056 -16.4155077894866 0 0
128.988933415607 6.97889360941551 -20.669998847241 0 0
166.920694986394 30.3917587701682 27.8726705754541 0 0
168.274665257406 -11.8876093158903 -32.1373851936885 0 0
-167.982017698887 -0.386643979206673 -7.59003112056079 0 0
-227.320910009178 25.1103920523922 -21.7522998605013 0 0
160.401530912608 -16.8923494614153 -21.2138093716147 0 0
-102.511598623802 -16.2220684247648 -10.7568793704988 0 0
-142.972555616789 -17.6582805027582 -4.74587730165171 0 0
23.1363640787351 -12.423835373139 -20.3223173132465 0 0
164.739269665677 -3.77271628337306 14.4367759570995 0 0
163.457159065405 18.1190740188609 20.7771746506984 0 0
-131.553106381544 -18.4691291692079 -3.85892604219389 0 0
167.682549018061 10.007758107014 29.9299466637063 0 0
-84.8903919734281 -12.116688632966 -15.9272880320895 0 0
-165.586430929527 12.0580621532737 -3.46159772283263 0 0
202.26577853212 18.8287579823493 -0.43202084047976 0 0
-215.271331913935 10.9603330053278 -18.1253322549197 0 0
-96.2689166560124 -11.0241242985928 12.6178787484123 0 0
-232.217162890592 25.8855141655969 -5.33229125416239 0 0
-184.277646515592 -13.4235376230614 25.9131106850955 0 0
-177.640864112279 -1.41229288781897 -8.86055085813288 0 0
194.459752683855 -8.30865395776712 2.4030273740981 0 0
159.501615737812 34.615142057827 15.5137877701161 0 0
-8.95057160304087 8.40819030779429 -8.23311266788095 0 0
111.791719465964 1.52711411685576 -23.7702661738322 0 0
154.191842911023 11.6421879666156 -17.9772612163187 0 0
-55.9049692112111 1.66847914888791 1.7216086923087 0 0
129.282039100192 -14.6915331611057 5.43624740412852 0 0
45.709555678572 -14.6090668960545 -14.3258834959379 0 0
-212.006368112684 -9.22149071931276 15.9141271759813 0 0
116.449386280672 1.11950915974365 4.21629089965136 0 0
-189.891080365483 -20.0093242921869 -6.60179494104843 0 0
193.061336318803 1.15055143381648 -0.464632051339193 0 0
-156.858281424799 2.55711772287049 -6.39625117035089 0 0
-192.826732845756 -4.06868381032973 -12.3159157888481 0 0
196.748953230965 -24.3260810012985 -7.9179836589916 0 0
-148.672033877193 6.62444676943601 9.04390134455366 0 0
191.160310701088 -8.25548646380707 -14.2952537920191 0 0
-164.479140599278 11.9728047350056 0.98973083840895 0 0
-183.265381503965 -21.8682094864938 19.303993184513 0 0
104.824807789914 -12.476641979256 2.43387162318911 0 0
-205.967898749862 -31.871436745885 0.770008808435086 0 0
-189.474012150766 1.97855917596316 -11.3037244704405 0 0
177.883173962316 -33.1289130752563 29.4538124832117 0 0
128.684851638141 3.75033928104104 5.43475244128705 0 0
16.9358054448814 -2.03459988218743 -24.2899392275937 0 0
-226.659711198217 -0.443700831241533 17.3273742793793 0 0
158.668050766931 -29.7715382745243 15.6331467102966 0 0
138.694273908404 21.9763329659902 -3.11144999141217 0 0
-182.348303894802 4.15269214537713 25.328123575252 0 0
153.016137022479 21.0058671446868 14.1097848409893 0 0
83.5548770719357 -6.48337477771605 2.9252415197546 0 0
69.8462624117288 -11.8358827885576 -1.40395856385424 0 0
