"x" "y" "z" "f" "a"
-200.24810214144 32.3887666814796 -5.8827603735618 0 0
-49.6758005727299 16.9333320044315 13.7914875930148 0 0
78.9668429960689 -10.0518961551952 3.85525811446754 0 0
34.8204139162375 -3.77697825288623 -3.22210840765967 0 0
204.920643890152 28.4468352759231 -0.134865547529887 0 0
-60.3531460327582 -2.91094906825628 -1.16158339222291 0 0
-152.427341728163 -15.8070249712734 -8.2604541807949 0 0
97.9432636190644 13.2749081307194 9.78571085753672 0 0
-198.531228669623 6.274087508918 -4.60528185931876 0 0
-184.928113232765 -19.1810946231173 6.6448013142397 0 0
-54.2471515878736 -2.78631244426449 18.2249611602366 0 0
-179.896067001213 23.0973178678933 7.64555588529304 0 0
-60.835033137483 16.1775718458655 5.92310846192885 0 0
-188.173578615426 35.8517451866996 -6.56245187126309 0 0
-131.572446503254 3.74554561293483 -13.7250385491303 0 0
187.737820639574 -20.1061600352542 -23.1811404175271 0 0
-84.6776732026666 -5.46716705601073 9.99183791454079 0 0
-143.684243691729 10.2445614737132 7.71203066510023 0 0
128.068780133993 0.997455772043609 19.3234046987069 0 0
-52.4532456707148 15.2296950233676 5.68119321811652 0 0
44.6600590669436 0.076804377641774 -4.66247809531781 0 0
-14.5695395166657 13.3842886909096 7.87636244620299 0 0
201.339344281335 -23.8342561826448 -32.3244857022371 0 0
-128.596711835521 -5.72434313012857 -4.72625878963979 0 0
-141.966243735107 20.0277785455709 -7.23719293217274 0 0
-14.4004990490987 -5.41043574690404 2.16640668062614 0 0
-192.859140602139 -20.5197499354814 16.1501298086812 0 0
-16.3903217958962 -0.72267114966621 -3.9753384786989 0 0
-201.581540949661 2.0786263510914 -2.03288834833796 0 0
-38.5886801086287 -3.40237094835923 19.8203790373196 0 0
-225.321186726176 -30.4590295785746 7.69245800754194 0 0
17.7049828572897 -5.86035579038659 2.08005767247841 0 0
-53.2898655714614 -4.69096810678886 15.9251447374705 0 0
187.536767095523 -17.353386610537 -22.1441311709946 0 0
58.1862181397335 -2.53843389882133 -3.0139957639807 0 0
-64.9572707417834 -6.67111302796665 9.85849264726609 0 0
196.233445633933 25.62548426182 -35.6277445738335 0 0
196.424611257901 -35.6838427092091 -28.2328682373904 0 0
-224.205364034761 -13.8593831138342 -8.13958944689035 0 0
207.334674641734 -12.7508146316874 -24.0717179284344 0 0
-173.191600952473 -14.9102221347585 1.07376473434889 0 0
-200.736166157063 -43.6825999467631 3.92884112623115 0 0
-180.035078334566 25.4695779759897 6.87792734645714 0 0
-184.397738067813 -8.93496669187463 -10.2983992654338 0 0
-194.849771542703 -15.117270573982 16.47485325004 0 0
8.71192586060898 1.27071481651928 22.1688013500075 0 0
-106.734714377294 2.55581897989992 12.9811608626385 0 0
170.128723456747 17.2190642490557 -15.6533161553483 0 0
-189.300092824664 12.0748704309883 -12.1298266795614 0 0
27.8101753795248 7.97154015028464 2.74240567183572 0 0
23.3394701059559 -3.90161532989892 21.4229316161765 0 0
186.451724752863 -21.8511825510016 -19.5446553849113 0 0
41.9059355192149 0.628989250453734 -4.88984938480557 0 0
-112.550242645561 1.5692579507811 12.0031344407413 0 0
-165.564422957916 -12.9645043039621 -9.73250177442878 0 0
-190.939299089096 10.3667683947556 -8.80455924431168 0 0
80.7002823521787 9.32924294669567 17.976526625982 0 0
-65.0640505092979 -3.04255841141402 -1.0730194947127 0 0
71.7883225398376 -12.8362151882176 14.4353552471088 0 0
114.884269376095 11.0653868954368 -5.58142221231607 0 0
44.3960683405456 -4.5226108017207 -2.20256459338362 0 0
106.749853384614 -11.6143461834613 2.74160821729646 0 0
190.08040872592 1.49223516143028 18.6887019786977 0 0
-124.510464807315 12.565488079267 -13.6928864075031 0 0
-154.818830813918 8.0984560730127 -18.5748525548911 0 0
-110.916602751254 4.03671260290477 -9.92487735011457 0 0
-219.249606924375 -6.78786313746531 -5.7565930909489 0 0
206.141195368091 31.6514062382864 -21.6568838673254 0 0
200.356886285312 -12.3097922684203 20.7999295489099 0 0
-69.6413363593406 -1.83180361009055 -2.73575154986423 0 0
-171.051679623728 -8.3426565947247 7.13656411715685 0 0
188.188392187385 -29.4823429237777 -17.4100117003401 0 0
-209.856007931273 -4.78159582005192 -1.46315811512064 0 0
-113.018134999364 18.9857631384497 4.73370544973568 0 0
174.910759379246 -14.2339841307754 15.678482065785 0 0
159.477310421166 -20.5194239941626 8.67107947909411 0 0
-103.657112907036 -5.99099835114098 2.24327641544293 0 0
97.1768301827465 8.82015917313122 -4.60784617128192 0 0
-204.693213728764 -6.89552643355716 -8.37607303296702 0 0
180.594907188642 -31.6561532607351 -0.995071969659446 0 0
-215.021013066011 -42.1389881336358 1.49191259979106 0 0
135.794618450364 -7.03326542028352 17.1254039916302 0 0
200.966745169939 29.6153645966266 -26.3821105388198 0 0
-149.157349482788 -16.9307416398932 -15.9968996226159 0 0
194.287278151255 6.6448888794217 -28.6059165720999 0 0
-210.818266070037 -16.3068219711803 20.9254585097768 0 0
-64.8470664807434 -0.49136232527687 18.2965703486682 0 0
-60.3845288783411 -1.76942989048973 -2.56045118711156 0 0
190.246256314095 24.4876308595576 19.6073892475284 0 0
211.070492730822 13.1818233347297 -14.4725753184953 0 0
-182.931847395343 3.66977817110968 -15.0107866018564 0 0
-185.417997936517 -23.1329137787828 1.93195176982363 0 0
25.9987510674472 2.9551173873743 -3.1892114413356 0 0
-90.0877584757229 -5.67731144382252 2.53610446961304 0 0
193.310605703834 -17.1018526865547 18.6754692740626 0 0
-183.897547297424 23.7299519638514 8.52543728953455 0 0
192.8329751674 -5.55874832207943 18.946049140762 0 0
144.488747184171 -4.82291179167592 -4.43414411827026 0 0
-184.010712872773 -20.2630450081438 -5.19587031429508 0 0
175.012129810555 -25.1315734782448 7.68662007399384 0 0
-207.678935813358 -40.6998935745658 11.6397695569165 0 0
-38.2956905000422 -3.48370362898754 -0.989131751486621 0 0
213.17966759322 23.8935536882845 -11.680579439926 0 0
-66.9119746326433 16.0885499591238 14.3755972778866 0 0
-193.485229604834 30.2751780823191 -13.671739960721 0 0
37.1784903694972 -10.7610159794254 15.4070462105611 0 0
-97.8640533603554 -0.355874409198787 13.5121485755687 0 0
-157.958280484502 -1.35384406266509 -19.5188391454936 0 0
-184.993129783771 30.3903164713154 -13.1174454492874 0 0
199.943504668689 -25.5509428704008 -32.2104852101699 0 0
6.5240823247911 -5.28721574535573 0.940726988902271 0 0
-157.086230606254 12.333673863852 -19.0460715349351 0 0
212.603089685405 -6.36972116901931 -10.211275335534 0 0
-168.813943500316 -13.1959613490423 -7.65712648428014 0 0
-127.383756537995 -2.03359063804484 -9.89270145567336 0 0
-81.6701364122327 13.2171472140375 15.4053079872659 0 0
204.48883758887 -3.16900066694864 16.2406785375313 0 0
-160.402634943808 12.4731146342644 -19.8208808913156 0 0
-220.453725329267 -20.079255748253 -15.5911781310095 0 0
-128.651195432003 2.82548512856458 -13.0028456484926 0 0
208.749057973089 -33.8345625114583 -4.31903142337483 0 0
-17.8767939200515 15.8181100285846 12.1657164782926 0 0
33.1308967139897 -2.35229863791115 21.5370634982242 0 0
197.268047286631 -38.1382449275731 -4.26870638237212 0 0
157.380089636179 10.7353472363497 -11.1067578713451 0 0
177.995388776391 16.6746652289735 -23.0259800683626 0 0
-134.351035674249 4.05589988403276 -14.2900946868105 0 0
-204.094806055886 25.3821366898327 -12.5480335358101 0 0
-154.316891883316 -9.24897168547729 -19.7674226913431 0 0
214.668231114206 -9.03803600625511 -11.4758414064738 0 0
-207.537589557126 -42.166243901414 -8.67071024776008 0 0
96.6874015483124 -15.1227713493389 10.5246475798925 0 0
-3.79313584103436 5.10197149537321 -0.148069966122231 0 0
-81.7973973645044 -2.43381646120331 -2.58274438614893 0 0
151.411055274958 15.9612283812759 14.2667619665749 0 0
82.2849896764368 -11.7919544434348 6.02890209427126 0 0
-170.717618200397 -12.6229760616387 -8.09460134968742 0 0
-188.957839499609 35.2848590110548 -8.10568395133517 0 0
82.0706045842565 1.16615774416045 -4.56212188229157 0 0
-180.277067548172 24.6646819932729 -19.6661853351891 0 0
-195.341554734007 -18.6045868176451 18.4013097685116 0 0
139.322894351558 9.93356239700338 18.5041013864498 0 0
194.645697865997 25.5584004454027 17.4809510801966 0 0
44.9983464757921 -5.51218447782391 -0.931104292575246 0 0
120.676474323324 -15.8525824577458 6.02526651022071 0 0
143.860066532955 -12.9005631487693 -0.989648847517955 0 0
-145.111248389327 -6.48044929191353 4.85585524001225 0 0
83.6551048504679 2.16495930804248 -5.02193100300764 0 0
-106.825095568611 11.1329379796781 13.0060505134943 0 0
-180.047319473547 20.6636510191643 -22.1657031853624 0 0
171.946603824617 -25.3679944758847 -2.18760497555244 0 0
-212.061437762085 -42.3490177642442 2.09778271484872 0 0
18.0393831651909 2.92428993211863 -2.74372608390964 0 0
-217.695593912501 -20.6249107305048 19.0869342586278 0 0
147.769772033525 -16.8310911906207 12.4824850093961 0 0
148.931955844023 17.3731096216705 -1.24305808184504 0 0
191.667692597257 1.17482552307033 -18.0904169151668 0 0
185.482080827258 7.79031788205843 18.9473264824448 0 0
90.7255778815375 6.3363010917143 -5.47877796116557 0 0
207.842343574658 -1.95109681591337 12.2675885985566 0 0
192.717466239396 24.8431303550184 19.2660200282507 0 0
168.255190756405 -7.29455832887795 -6.73895121279261 0 0
157.63836576525 -20.5811749540849 2.00628608647538 0 0
122.153511240665 10.2805940733137 17.7971868871208 0 0
125.045623837155 8.50435202051435 18.8841926359599 0 0
-77.5324168356756 10.3313062291834 -5.36649214174514 0 0
-147.423342837426 17.5822302971068 5.85320192688808 0 0
-223.901666031427 -33.8690330208481 -6.73099381572749 0 0
183.284111393034 -20.4040077898286 -12.130203871664 0 0
183.222975844175 -9.16310435133782 17.7073846373152 0 0
171.230812602784 4.413323420035 17.0487755727055 0 0
55.2992349844689 -6.80634584797527 1.71012138697589 0 0
-181.78602594696 11.3689619532706 10.2610336251635 0 0
200.08924450017 3.48768638641797 -16.2417379807976 0 0
197.82662085003 -38.4851687972984 -10.9883232050454 0 0
91.6084670332805 -1.68620990413497 -3.27371785033568 0 0
-158.879779459352 -15.6753743415047 -8.26722116690979 0 0
-225.787586406003 -32.2455239043993 3.02885480204323 0 0
-122.402788527168 15.6092153893754 8.5678803885359 0 0
-31.0269749362183 -1.45229522597372 -3.67343120007986 0 0
111.825155510491 6.40086399801802 19.7125040809277 0 0
155.083146314693 0.208496430622265 -6.57749167848766 0 0
-123.551955769764 -2.9565715648349 -7.98236709628211 0 0
-184.425908196945 -7.04734876062309 -10.6508419337141 0 0
-159.603236132449 -0.358306109392187 -19.7000357688394 0 0
-18.8996700624563 -7.30301137311311 16.1669349847647 0 0
-147.23620957504 -8.61131582240769 -2.64753529263749 0 0
-210.724336559138 -41.8347788520959 -4.60940661424574 0 0
-43.4483603796549 -5.82997839169452 14.9008018077091 0 0
-175.660927701486 2.08263075650256 -18.0261704528349 0 0
12.3837258391541 -4.8687218172738 -1.21013620334277 0 0
96.3707448784975 7.28476847292948 -6.01170861062427 0 0
62.198361159392 0.86398846834237 -4.64998907089866 0 0
133.92412491812 0.322284487415314 18.8676051538821 0 0
213.911966703975 -6.22157669159802 8.00608363898683 0 0
73.7501626634922 -13.0021575323937 14.229191625075 0 0
-158.675800054523 24.0629990933318 -7.869583142549 0 0
-201.542358122557 15.4066546950883 -6.22771818257979 0 0
158.685829241879 16.4470167008843 -9.10973229286128 0 0
-184.936001373163 -22.1127851542804 -4.0534182042137 0 0
-114.101254813229 3.54785251207695 -10.3509820641276 0 0
2.12071066865092 -4.34759548999845 -1.7787149602537 0 0
-92.292983702934 -4.13082160606408 -0.919187368126 0 0
199.699494583679 -19.7076303221418 -31.2662805638296 0 0
-140.054842776131 3.41188281513819 -15.4943446525438 0 0
-174.786275920549 5.43214424123109 10.01930064687 0 0
144.919057593763 16.4556455577086 -2.55328253267312 0 0
9.72133269793563 2.52778775497621 -3.16509606455917 0 0
-212.77147287944 -42.2585453823003 0.448224036658695 0 0
-46.6368538364312 9.43822251709948 19.8113227282598 0 0
-25.0625251576987 6.50170081595286 -0.153582812831905 0 0
-177.496286843758 35.1262866273766 -8.05549157450672 0 2
160.381647671807 19.3507667198707 6.33202843340604 0 0
-175.366700526715 0.766477568727308 -16.0823789283714 0 0
124.274595566271 -15.2632877502551 4.57491714762328 0 0
154.965336648825 -20.7651553950339 5.28542390978016 0 0
61.8407610205917 -6.33926003473487 0.0461208885397268 0 0
-11.3062052493297 -7.76066995820171 10.7554853748033 0 0
-199.94190939516 29.6584132943249 4.39585194509208 0 0
-194.860260743812 -40.3988639135385 -4.16528174276062 0 0
157.097174990532 1.1060627123723 17.5859617258279 0 0
168.214966040587 -4.34430615094417 16.2602247859529 0 0
-120.285350376416 5.06573348481062 -11.677874574144 0 0
186.433750438404 4.43306799136697 18.3144569823415 0 0
188.813913344217 -39.5065317465745 -7.47792941940256 0 0
175.526998245985 -28.1913318793191 -3.0614080201235 0 0
-145.987891053309 4.39217177827645 7.68505080992912 0 0
-225.756540155039 -20.0241766013513 -9.1735851065086 0 0
-141.430576444267 5.74886742198921 -16.2225435353564 0 0
-217.805836599345 -39.0607984320163 -3.9929501367111 0 0
208.788421096142 3.5429132072072 -9.14754866958362 0 0
192.025172796067 -19.7156561572069 16.7548308465868 0 0
62.0816925664432 5.718563483468 -1.95052785297115 0 0
90.9008859813407 4.95833831584596 20.2772811413053 0 0
214.352433772138 -30.6654183626544 -3.2782440024702 0 0
201.037585096701 -17.9113498710558 -30.5038286175785 0 0
176.514377947806 -15.4010204676164 -8.82299825362034 0 0
143.25163467275 16.3607664402335 9.64447653262954 0 0
140.293906227706 -11.2488858168429 16.0806223065315 0 0
-225.18889703857 -27.0955216026245 9.98439614352869 0 0
-194.273675678307 8.84187295830915 -6.65319884055077 0 0
26.4510128485946 5.66683370089481 21.386916879645 0 0
-136.666401029267 -0.510704782671039 -13.9785495715136 0 0
186.025776705535 -3.56714910491147 -15.0193295272168 0 0
49.484166728279 6.325417437103 20.6141378371427 0 0
-199.905128477108 -42.8999648665415 5.50902885879589 0 0
181.226737904154 15.8439503440279 20.2793528144034 0 0
-114.616143581989 1.92144535321434 -10.0148020601742 0 0
-164.691708476544 1.42064241852647 7.84099986793624 0 0
127.69118682496 14.4906011977835 11.447411479534 0 0
-23.5759876978385 11.3835486463769 19.7128704099386 0 0
-196.090092725351 -5.31809614627107 12.2523309821556 0 0
199.702485576454 31.1932261820676 -7.05531557953543 0 0
-65.2513067240315 8.7453339475032 -4.52310841965427 0 0
193.446243161357 -32.5314706463867 -27.77597624185 0 0
127.010030090167 -16.3963387981536 12.8676676218968 0 0
195.232376773658 31.0545501205204 -2.94521525291695 0 0
-192.771626642231 -37.3613697397265 -7.35041267704702 0 0
31.2111475635494 3.42836569510749 -2.47690973945542 0 0
120.016050396604 -0.920609617468726 19.4632785781259 0 0
203.204832841572 15.1446474387653 -32.1565162417024 0 0
-194.688139973695 13.5073943446665 -15.0199317698517 0 0
-26.0091325544741 14.3212110330676 8.2661618316908 0 0
-188.81786285168 33.44422812616 -1.66787649047352 0 0
-181.873976381534 23.9844118365302 7.89563685853776 0 0
154.387431591627 10.8577899278853 -10.5267226140188 0 0
-134.178878106166 -2.53430480265002 8.15969769754204 0 0
188.814053693106 -31.8138594410051 6.31048491666991 0 0
-163.405962914235 12.9031167951805 6.69373695722017 0 0
192.441625183503 -4.83797265465473 -14.5587614640538 0 0
48.1508437888698 -9.0339384676447 6.03435742877836 0 0
136.358636695294 2.07163860358554 -5.92958063015157 0 0
-178.933950848801 4.67895905329618 -21.123879014847 0 0
170.486551999599 -9.23824373416144 -7.05350685742779 0 0
-113.07222152085 12.7426014553082 11.4883076533434 0 0
88.5370045933444 3.78568155264891 20.4942694970332 0 0
49.9072925061992 12.5152396708293 10.4291660355366 0 0
165.167104320931 -15.1140454480963 -5.67511665028511 0 0
-191.824124796443 35.0356402335949 -6.34794667385871 0 0
204.692308490445 1.02129517644747 13.0172341507796 0 0
-177.896425846034 -2.49124847279421 8.96309511802613 0 0
191.404700102076 -40.0173930421124 -9.07994130049022 0 0
141.79182668325 16.4205212998568 2.65252462934129 0 0
-149.739170108944 -14.5277607253695 -18.0083986901459 0 0
72.5149779492356 -8.02822470557561 1.54932661604144 0 0
127.371146185319 -12.5813885274666 0.900396042708118 0 0
209.751286500218 -3.71144176586092 -8.73106400566574 0 0
55.3366641678876 8.21849499953682 1.38953262949867 0 0
-152.505783923666 -17.0400694617618 -11.4874725300706 0 0
-121.46549424288 2.91810613972038 -11.3862293604566 0 0
70.3236885719247 12.3254534000665 12.3854873082807 0 0
-6.7163609246679 0.57247054770177 22.0745503753424 0 0
-178.838193264868 34.3528410590732 -9.2177246485799 0 0
191.704832036711 -35.6078167109878 -22.5804087195546 0 0
-64.5617034220247 15.2946960528804 4.103897881894 0 0
-131.946026361011 0.355263767308299 -12.7632780888438 0 0
-106.52360368553 5.36364637749274 -10.3864221795029 0 0
-186.224703086369 35.4823109437547 -5.46528353642795 0 0
110.260671932806 -13.9606503176211 5.08209085366233 0 0
-89.5027112057412 -3.82519557650159 -1.15541675614536 0 0
-203.264262071242 14.9187068428777 -11.0431867112826 0 0
-139.794456147747 18.6991346718643 -10.3079600127072 0 0
198.816137866402 -30.0584874374291 8.54570306923809 0 0
62.6705878328546 -8.22946886119778 3.40968118667842 0 0
-148.451527347838 -17.17291560593 -14.1618262245315 0 0
-80.4037882734785 4.83842203301932 17.4554907672554 0 0
-163.378949483551 -14.2564673874594 -9.18096506579741 0 0
18.0245856921826 -2.14865051202421 -4.10332749933113 0 0
209.110639457488 -34.9181110270258 -8.47598508070342 0 0
191.733530902619 5.43448012254777 -24.3553908010395 0 0
-130.688303093787 -5.81566262682861 -5.34382066053885 0 0
-152.905257453048 -10.9066699128235 -4.72146607407409 0 0
-63.7889387971534 17.0589667084813 13.2719476059506 0 0
171.596501080968 13.9612168605659 18.6325083449245 0 0
-121.268657416303 5.33206222962821 11.1205963290711 0 0
201.871016695528 4.89588210814199 -18.4944121009408 0 0
49.3078696768725 -8.14165336786098 4.48305716768627 0 0
27.089148808637 -7.94253132215813 19.2575402597357 0 0
-78.470753418548 -3.30911455119516 14.2709042721579 0 0
-191.730850855751 -7.46937513967565 11.819583786815 0 0
-146.395272654513 -8.92346318532045 -4.71863558435075 0 0
104.408366660512 10.5496503569659 -4.13386066107548 0 0
-186.87548328151 10.7036283254118 -23.3094309948885 0 0
-224.435855319228 -31.5976745476188 8.4640996206278 0 0
-192.916077354848 -11.5556443128075 12.7785425770795 0 0
215.380201734131 -10.3778026023113 -12.924309742014 0 0
201.087142427628 1.87520711188284 -13.594140097949 0 0
-59.5851418979316 11.2249303103854 -0.545752720496716 0 0
191.184461897831 -37.3072041109626 0.294344271373849 0 0
-2.38860441679632 -0.883074017135511 22.044732714259 0 0
-80.8745851970386 9.29520663265853 16.9839661240923 0 0
68.2609551414324 12.4655709403799 10.4071606371708 0 0
-72.4576448256557 7.65945264272158 -6.25313880285174 0 0
-91.8741521966568 16.8547948029282 0.227839804191892 0 0
158.067932112123 -2.57973110890536 16.7083168311155 0 0
41.2987962339013 -7.00297091564407 3.12083856178819 0 0
118.511735810831 -2.26922101498156 -3.82660865291096 0 0
-145.311768639431 11.6315083049449 7.54990765234849 0 0
-208.867843230452 -42.3336133212486 9.12922788752667 0 0
-194.558963878186 31.7349483535184 2.45261801708122 0 0
105.661948739419 -13.0063816382171 4.5735112364442 0 0
-176.038300996661 30.235118849425 2.71426960253212 0 0
-204.204520092944 -19.9862776718443 22.0508521997716 0 0
-89.7480641729262 16.057731144859 -0.652187346269379 0 0
209.427867523212 27.1253004590289 -28.0239248006415 0 0
-179.732155254809 31.7684014398782 1.66646912940842 0 0
-199.821997562386 18.5787339558113 -23.2594634557709 0 0
-148.879647052867 20.4341393245433 1.11118827184097 0 0
-225.56760957253 -15.2928775554431 -6.59981786679792 0 0
-226.700340411753 -15.0635790007885 -2.37231235557068 0 0
182.125044962027 -18.9533668727145 -11.2903259436344 0 0
-90.0119547251784 1.96027489310352 15.4386657621579 0 0
94.0928666067395 -12.4284479726771 5.22527441185746 0 0
-95.3901406062021 17.7911796487389 1.78300042904521 0 0
10.6942572848768 0.621826933507499 -4.48086877348531 0 0
206.897586487341 -16.9159393702502 16.2055075003883 0 0
-29.4513643742204 8.41569507488918 1.38854620399132 0 0
210.721125331195 4.00239971234447 0.0497819814448273 0 0
193.959687832601 -33.5239290389108 5.42961405928957 0 0
-186.512194800417 26.5766143086897 -18.5569146167541 0 0
86.4034310139514 1.64397028343912 20.7070333875288 0 0
173.810933131765 -6.41180291643544 16.5773293593442 0 0
-192.624753771997 -34.2744104295783 12.0713703567875 0 0
-149.876083128531 7.27897388016258 7.06812715479279 0 0
-194.724105634193 24.6105162624172 10.433374862813 0 0
177.260625155016 9.85977673223802 18.5962375422499 0 0
-52.3621377841885 1.70898558412194 -4.80364420243005 0 0
87.4868587383985 3.69289337381606 -5.5428014767044 0 0
-188.251919244676 31.7775844195386 0.385442949637067 0 0
170.253160784044 21.663556768035 9.10534787785372 0 0
131.777358975145 -0.0782108853132119 18.9455178315306 0 0
172.719667438721 22.6809713189193 8.75441300133878 0 0
104.817654284612 12.8845563439927 12.6350630540644 0 0
-208.794594529846 -42.1531794619028 0.0371570819080459 0 0
-185.936861021631 16.6674588983874 10.7312392767225 0 0
25.6047449606482 -3.86783502782804 -2.93717958035015 0 0
-183.627290504207 8.74137979273671 -23.677073940155 0 0
204.776859556004 31.1977204279083 -22.9819938113656 0 0
96.1867259092941 -14.8715419785107 13.021429075801 0 0
163.772293581496 -1.42661077847976 16.7623442278744 0 0
193.718518445141 -5.90009519701995 -14.1717196741568 0 0
198.434614786192 16.2051403090316 -34.967730588701 0 0
203.527957530087 -23.6557089393365 12.7556812857904 0 0
-194.015164797469 9.39389668756322 -18.5600255814675 0 0
205.802135671745 -10.875942811609 -12.9782965005904 0 0
-1.91621557144415 6.14192294647123 1.05389700781414 0 0
17.2826480557274 -0.232247629577116 -4.63452331247891 0 0
-149.449111629287 -6.14107651177619 -17.6851731741298 0 0
51.0438175434079 -1.43926603837081 -3.87815535312938 0 0
-182.569026799329 -16.3051517636096 -7.27553467550132 0 0
50.7629531212821 12.3902543981746 14.6640838776529 0 0
-225.919153972967 -25.1655944719283 -8.90610987469376 0 0
212.321925823447 -9.48483169290175 -14.9681744496191 0 0
-71.9837274320606 13.804767053968 16.0059534607975 0 0
149.694254800041 9.49436746344951 -9.57539613823587 0 0
-21.662256992469 -1.76672999830368 -3.47685381162162 0 0
-85.2468012183763 -2.35975644512504 -3.02751790287927 0 0
-108.928568915457 -1.14051946084096 -7.35457282716123 0 0
-129.053333363474 16.9381116621801 -9.64558421796024 0 0
-46.363439137248 -4.89960667507951 2.42271755895389 0 0
4.50232675055404 7.23766371590026 2.24115049672898 0 0
-166.620887846559 -14.0599081919279 -3.60532234392701 0 0
-226.580049671117 -23.5534821948126 8.12505948373971 0 0
205.02729967291 -13.6907257935979 -17.5522336673888 0 0
33.2655656704854 7.61790602991093 20.5129772612725 0 0
170.33904595948 12.6940395357596 -16.0146811436034 0 0
50.2744540645561 12.6359121326542 12.5794791667706 0 0
-156.496008907378 -16.2139272721679 -18.2772461521622 0 0
-178.765308313289 2.82271501067623 10.1703962871337 0 0
39.8087587392764 6.75880197733405 20.837277667907 0 0
-187.398531261412 -28.5360169767493 0.167081662413157 0 0
171.189849431631 -24.7671533817615 6.23083334538205 0 0
-189.378558324767 -34.132555997486 6.43256090439523 0 0
-226.380593520534 -15.8535072107715 6.45941745018685 0 0
205.749828792131 -31.703508739002 3.25889954642492 0 0
13.1585911017944 4.10528177229305 -0.779708431057241 0 0
69.6093394139289 8.7880183644824 0.22145522601569 0 0
130.665993887254 11.6177759267378 -7.32983796838316 0 0
-175.60419072025 -8.24076574584708 8.14478088850985 0 0
69.7994225422184 -1.99769104540741 20.8075982933836 0 0
-102.427797869916 15.1542575849508 11.4394600332001 0 0
-201.660023598302 23.098733456563 9.2534284797934 0 0
174.717419788238 20.0138948085531 -18.2753351112988 0 0
177.022758844725 -29.3509022698653 -1.10555549024094 0 0
177.070171868226 -28.9106667322606 2.59393368151349 0 0
148.801348064981 12.9700509712182 -9.10374082921664 0 0
189.558421215055 -7.59995391815418 18.5184495870282 0 0
157.682233638077 17.027758194295 13.8451308572529 0 0
32.692132936611 -8.71797859899793 7.24355717634941 0 0
211.591585652456 -5.91608620296192 12.1325245442459 0 0
-193.973397318378 -18.9292700766384 17.1926471513015 0 0
169.904505607477 22.1329215290528 2.70646849345805 0 0
168.03908655653 -8.86910403650251 -6.41712417947255 0 0
76.5373356611517 -9.90639144334998 3.80888975450783 0 0
-23.3079903087721 -5.91023236989535 4.58224372148837 0 0
-50.0287140358283 -4.82124741814894 2.24540690652088 0 0
-153.048816397839 -17.4789203104085 -13.6763503206653 0 0
0.320586228103649 -4.75514279182721 -0.537116194692846 0 0
-164.584217367943 -3.33372313741901 -19.2790159582246 0 0
-211.030479252957 -39.9078138045239 11.3758651511022 0 0
21.1727175329502 13.6853522212816 14.2992991602932 0 0
-203.357331421352 24.8094422615865 -14.2501255953894 0 0
74.0418314129219 12.5559387716602 9.41247586597519 0 0
-146.730016339771 20.0161359605412 1.64949033856315 0 0
-200.948532147783 28.6263921749843 -10.6056584757956 0 0
-199.697759382431 -11.262339728201 -15.3739806558016 0 0
-59.0987101886358 7.14652240442532 19.5322738702479 0 0
174.4208621367 4.63936867900952 17.4740241517426 0 0
99.9789185804969 11.6992389822146 -1.09348502732099 0 0
195.070961131538 31.7361182053351 -4.61605606622859 0 0
-114.038407330884 7.61053329878023 12.3876184263765 0 0
-117.945547315223 -2.71390168407395 -7.27129206129509 0 0
-218.102718704174 -37.2527314301445 10.642433807211 0 0
93.3867789635738 3.17365264857587 -5.4633795350309 0 0
54.9891133627203 -11.9329700548594 12.337030314771 0 0
196.840300914003 6.02445703280318 -23.21352438987 0 0
20.3919190471379 12.8181526383895 16.9469520163154 0 0
-58.2805335396208 -1.80176940590324 -2.59757159916396 0 0
36.6157213431255 -4.39504194231047 -2.47732294754435 0 0
-11.0170616136597 -5.83564150718062 3.33023733671739 0 0
-127.941765941838 12.8252695479858 9.48483201381322 0 0
202.506448700619 -34.6677965199897 0.380628405196026 0 0
177.388277632006 7.52452830911506 -15.5890519555967 0 0
-98.6156850772675 14.6470514959478 12.480938441424 0 0
194.568001801655 -15.4916222067782 -25.3456122343434 0 0
-40.8314161988347 -4.24048195984779 0.408375587149332 0 0
-203.08479616727 16.1310503109256 2.83212981255057 0 0
-209.01237386613 -42.1327692851597 -1.58523018007971 0 0
-136.687802917711 -2.47416916045437 -13.031661727407 0 0
-221.15898134125 -36.2259882739826 8.24328718782265 0 0
-216.797614094379 -36.4881859854521 -12.5971673861527 0 0
61.0758082518325 -7.37086178164475 2.09338149877736 0 0
-106.796090951259 14.4511356882335 -7.1628387327275 0 0
-48.8295875346548 3.14781987200569 -5.36367909176335 0 0
171.435302735592 -2.63423593735559 -8.63438836577142 0 0
-86.4727932306801 16.3791929647399 11.8212697097049 0 0
-138.070287813066 -7.3633644790388 -1.40758604909006 0 0
-202.714990094889 27.4120722428769 -11.1439414901669 0 0
136.542502136429 -9.05600071844357 16.7423949112651 0 0
-180.017333679131 16.089619257495 -24.0101254523089 0 0
-101.30662530571 -5.98755035333734 2.45924553996416 0 0
-38.6881161074979 2.85661224431687 21.2417384227271 0 0
2.86197810400149 9.37964953557291 3.98188461090731 0 0
161.231679462684 -15.5348910924001 -3.39974563217579 0 0
193.81168580684 32.3026780181183 -6.0067986164224 0 0
-206.442040792763 -43.3581658542495 -5.59714073928948 0 0
-77.2445813027202 -5.55758846436693 3.28326319998773 0 0
202.156222675172 15.6600335525673 18.1681333578544 0 0
141.724999952592 15.3046208012729 -4.11817370247207 0 0
-135.380333567984 0.472442803912946 -13.9520452381717 0 0
-33.5831568253806 14.03341891391 6.76087134660854 0 0
165.752857496 21.4640968479087 -3.46722764762344 0 0
-5.1923532630441 -5.23890972460193 1.07012362296098 0 0
154.780694873859 0.323069516949542 17.4842353016654 0 0
-218.585304261205 -38.3369002484091 7.5201526155809 0 0
1.36052916536478 2.11032235077828 -3.73596312603395 0 0
164.500522433865 -11.2838264309627 15.4392408553689 0 0
-196.401610228083 0.0567662445468847 -8.68734910721104 0 0
-3.47896444979531 5.96829411451077 21.545569601872 0 0
-179.353701604599 6.26169148375291 -23.0356385881183 0 0
45.0276703515387 -6.27287729418978 0.896945475186276 0 0
-222.524028972727 -30.5895659966042 -11.9692717846598 0 0
141.420888898782 6.4141098508294 19.2476900852742 0 0
-173.026788490117 -15.481562591113 -1.80675328502081 0 0
201.390693141642 -17.3520509425531 17.7371765544444 0 0
211.180785062794 13.1695112911609 -10.2006461632474 0 0
192.947472562441 15.0577988634776 -35.3660847897122 0 0
78.5671082551093 4.48099314712067 20.5332789666331 0 0
-151.874393607792 -18.19903978912 -14.8268197382944 0 0
168.493104789394 -19.589648146156 -4.6598183939083 0 0
114.149933914538 13.8781532741407 10.1540916586452 0 0
-211.220270409877 -42.4270442467737 0.947944974895936 0 0
-192.177427210783 -38.3612767054436 4.78706848072256 0 0
67.8715705410956 11.5853142106945 14.752572205852 0 0
-202.348155135049 26.4042635969815 -12.9654716218493 0 0
210.109983600685 -33.0524037528417 -3.74266081447422 0 0
70.001016617567 -12.9691838169697 13.6055181914436 0 0
95.1171732910425 -14.5055807286957 8.72892808462188 0 0
-194.557409547857 -26.9677736442387 16.7559065284572 0 0
206.428407953505 -16.201573647201 -28.8569120791154 0 0
-27.4904887224297 8.13185423276935 1.2385774937677 0 0
191.880138091176 5.84888184785714 -25.9999139962625 0 0
-225.00322078543 -18.2924748931192 -9.84849472428892 0 0
-54.3534928335955 6.33215035690473 19.9835948328887 0 0
176.211607216822 4.63844680641325 17.4808215106142 0 0
-20.3721554653172 1.57873913772511 21.8237819876145 0 0
78.0039717125364 -5.32584417978537 19.9182865932679 0 0
184.921870145116 5.50633124302973 -25.0294272530606 0 0
-84.3675449530805 18.5455367505115 6.00859523266792 0 0
-106.181331968247 18.7319977061107 6.39192553427604 0 0
61.9483400625681 4.67998049517749 -2.97911930078379 0 0
-188.434675709988 -33.5640143831126 4.39868627718077 0 0
82.4058629327814 -13.6337743738127 14.0003259261342 0 0
29.6502539895384 12.8500552433317 15.4950450403111 0 0
-121.396178721614 11.8703522862677 10.5812850798068 0 0
200.131191078969 -2.27126824067971 -8.98320857356599 0 0
190.880810471682 -22.3080725331281 14.6549619169921 0 0
-189.289091628749 -32.887461426236 -7.52762897370829 0 0
-211.847114524735 -2.90965838970099 5.6687491332552 0 0
160.840871835166 -3.58585033181043 -6.18371148540948 0 0
180.307515314852 14.1181993555784 19.7374063748834 0 0
-114.297538377215 6.92548217338457 -11.8881850222155 0 0
-104.432680714585 12.9855720481155 -8.15634814168845 0 0
-170.43820664541 29.5844248966945 -4.92709868770297 0 0
210.576888653199 -20.384317832324 12.0261611578839 0 0
-155.906647433424 19.6820474452694 -16.0010124390974 0 0
-205.586773929784 -12.8303468825209 -18.2519773388495 0 0
-212.879582484529 -18.0399005492361 20.7951007471131 0 0
-100.472733764747 -5.37488293712064 0.57814071571783 0 0
29.6085732201646 2.68725503465071 -3.97679701738825 0 0
-154.885711544884 -6.86292505863927 -19.5464608627334 0 0
4.00360911340964 13.6938140620645 9.73026611357864 0 0
-218.369628170085 -12.6560747311454 -14.0329061227963 0 0
-227.398685537856 -26.0199413756615 5.00141156752883 0 0
97.5055980927642 -1.09289726757551 -3.70273084561268 0 0
160.580771443595 13.3538830622132 -12.160956989159 0 0
-206.730191700335 16.9806525580758 -16.2667999078744 0 0
168.310336343901 -24.9721910512219 1.5163702847518 0 0
23.3248079769762 10.8863871318623 5.98665835991905 0 0
-184.755618220409 27.5419341507314 -17.3905326061549 0 0
-193.041595240742 -18.2115483602321 15.6574625227851 0 0
-103.145958702006 18.8370072577202 6.01147670926662 0 0
89.7455488437965 -2.33076143170193 20.1701633990323 0 0
191.32725712911 -38.3673050023225 -1.63779355914272 0 0
-163.886832829031 11.5577885627121 6.54385846523951 0 0
-162.981532200443 -5.71308675241938 -19.0881413732106 0 0
211.085287390709 7.6624053435244 -1.96961853990167 0 0
90.5220467566974 -13.6616497267403 7.91875337770867 0 0
203.054985297199 25.3205980098232 15.7114321302263 0 0
184.297895349873 -33.9948910597079 -10.7676261710534 0 0
-3.12736429970696 14.452672884264 10.0920069693035 0 0
-186.780105638351 21.392507140453 -21.8144085177712 0 0
-142.356298580376 -7.33507621090779 -13.4268368100972 0 0
-195.355809772884 -41.3691509499705 2.02628892820332 0 0
-115.568649822852 -6.14905095193977 2.60767267330164 0 0
-201.327162427174 20.0390661200374 10.2498626530655 0 0
-204.947010441506 16.5400318749678 -18.9017569250396 0 0
179.322125043097 19.3880834672699 -25.9808285689857 0 0
12.0882464340588 9.27963815969952 4.07860820415829 0 0
104.390717029625 12.7265592010065 0.310612921171431 0 0
-16.1085439942683 -6.34728408697771 5.75017509109527 0 0
70.1899061424527 11.2403254465943 4.1127270471093 0 0
-104.3107860754 4.00570627976515 13.5768990233718 0 0
167.531079485752 8.9517805820225 18.5141900044276 0 0
44.2104446176137 12.7140251510297 13.5962662022007 0 0
-116.458953261245 1.04013028296543 -9.88237092387055 0 0
-160.970186567167 24.9401770641385 -8.5309386589996 0 0
-195.20843676039 -11.1846903941297 14.5149878031962 0 0
-3.89808286798513 3.02557317553582 21.9028071853601 0 0
-145.090332589332 -9.08193844003324 -6.47645545932251 0 0
-147.201566314671 0.138840306943854 7.97782200870889 0 0
-179.461914581391 -16.720789716759 4.09033546602293 0 0
-168.76092577106 11.3803947575119 6.76564431905742 0 0
-211.802043573948 -30.1344249537098 -18.7866540654228 0 0
205.454983174998 26.4157667536127 11.3159395189924 0 0
154.266172710364 -19.1428445636077 10.0076564061341 0 0
-202.208690515509 2.06494322930789 4.08084358382499 0 0
174.359940448338 23.1892020918734 10.0069021474235 0 0
-77.8579307313269 -2.86870851109055 -1.84247988029874 0 0
43.0505066181292 -6.58027252693935 2.17419329904707 0 0
-198.418003046594 -26.3981394906472 -18.673194767606 0 0
-179.044567934494 -5.99543277229608 9.18281328806292 0 0
105.377401339623 -12.2128197882175 16.4386805019158 0 0
185.128351878193 -13.5541149375374 -12.2948175803498 0 0
204.083602594967 5.79406380740292 -22.2975744560642 0 0
47.5673060952033 -10.9804874525242 10.218328091386 0 0
-32.8400411578104 -1.63728081447221 -3.56710909235888 0 0
-23.5617218661724 -7.1764156926258 15.4258816442713 0 0
186.442002974885 -23.831626702463 -15.9389474094847 0 0
-39.6971536765686 5.38068542833471 20.9011192444739 0 0
183.110268699345 1.97770221368238 -15.8519607667574 0 0
-132.281700849174 9.5473421561646 9.41210684485393 0 0
-120.16322258945 -6.25533124297446 -0.508832309073564 0 0
-44.6528293113695 0.240325730124693 20.6781725266098 0 0
-173.188844890921 -1.37417094775183 8.87125738787436 0 0
185.861764860761 25.1166531582774 16.3099195772312 0 0
134.523441308245 -12.1552051179802 15.9181316949334 0 0
171.852460960964 -23.8104441748097 -3.10032866371093 0 0
-162.556335968114 -14.4229766243111 -14.2312814559209 0 0
-135.28149082438 9.34681768049002 -15.9361517850504 0 0
-159.289688695447 -13.2159555195922 -5.22886432679745 0 0
-91.0491367770543 6.88423273613509 -9.08402328690806 0 0
198.667475768735 22.4343712924323 20.8441555901629 0 0
79.8366864349048 12.477892958936 6.3813919923852 0 0
57.2365711445618 -11.2478317392128 16.2811145722358 0 0
138.440783670946 -18.086260293102 5.7100764730393 0 0
174.670399694814 -28.1400019499605 -0.667975769181798 0 0
-28.3316477530822 -4.41514062476271 0.392556506440063 0 0
168.145829633022 -10.3567532564901 15.7915709593007 0 0
-181.941154542922 -14.3017731324896 -8.22873939057899 0 0
-197.37624542147 14.0642583459522 -7.61260965065855 0 0
97.4045582745989 11.8392685199883 -0.136361623909229 0 0
-48.3540707212173 -5.18191246885255 3.05917294034338 0 0
64.9575365692147 2.8825677168477 21.0578746220293 0 0
-39.8769587752868 -3.09890582765526 -1.52810226483638 0 0
110.769314619877 11.6079733174654 15.8414356482149 0 0
-150.105934005185 -9.09249083160438 -1.12422803367818 0 0
207.658386975171 20.3700489913663 -29.8003225238527 0 0
149.165657300145 0.65919540445317 17.9945273995925 0 0
204.000806088759 -11.5855361986754 -13.4764983933926 0 0
198.62423831634 7.04270853765746 -27.6713071222768 0 0
185.900710270682 -1.80109838097473 17.0061768316166 0 0
-195.468476430534 8.06859110718735 -5.49491209008569 0 0
170.905690891604 22.299913864752 4.90228717218594 0 0
110.727413953606 13.4228299510921 0.832075601483545 0 0
-88.9968024262993 16.5310667398496 11.4802673862139 0 0
-145.13532539645 2.64929804741096 -15.9882966878319 0 0
147.617366107945 -1.65989435565876 -5.46410633744249 0 0
-225.566431178892 -22.2673386017763 10.5057099923253 0 0
1.52220248831431 3.18877664646812 -2.43022917525746 0 0
-136.145100055689 19.6836514212233 -4.97273715143811 0 0
14.5620896354045 -1.93245389915501 21.9214717271701 0 0
130.269858475423 14.5850378401343 -1.85080188286559 0 0
19.1533793909796 -0.741891908602345 -4.51954831713229 0 0
-151.583456226826 -15.2003548114072 -18.8108021870565 0 0
167.439021409778 -11.939653676037 -6.06129504539216 0 0
-158.132669960055 -12.3367718521321 -19.6820363246016 0 0
-223.696740975954 -9.31308550168884 -1.04315332241369 0 0
171.836063385319 22.7537985568024 2.78646695414995 0 0
-156.78193961718 23.1031277522836 -3.5869343380749 0 0
-30.3516707171545 -6.32589833736776 5.82355870174972 0 0
-119.246691115973 18.2994319662924 5.78007909136814 0 0
188.385620507295 -37.3391799607224 -13.3701432958232 0 0
204.235839455844 30.0579096926488 -21.7042043691183 0 0
-9.52031566031761 -8.00382191499999 11.9952302258493 0 0
134.56558746688 3.40240708562653 19.4184406517741 0 0
116.428468466042 -12.6724020715289 2.82036280981401 0 0
166.514767299244 -23.9539443114286 4.46747109433613 0 0
35.4257452906493 6.82234869833256 20.8164870963614 0 0
-197.024962165259 32.4355029032117 1.62769160688891 0 0
-206.176939076201 16.7676636542762 -11.0222352749231 0 0
12.7809731351443 0.598978700496401 -4.53681955318056 0 0
-157.302890531446 20.2108398017269 4.1776613542777 0 0
173.244610561536 23.6932370153837 0.0371411111687039 0 0
-13.1250979144798 -4.44782825855054 -0.428581233810448 0 0
173.216451447636 -2.17871012343453 -9.19738454617919 0 0
116.04223274298 8.95856249885578 18.5399935615832 0 0
-202.045529895038 -3.95687792917595 -6.82217960355179 0 0
97.7523757354966 10.8883925840276 16.3012372400853 0 0
24.3530918600665 -2.80255556761981 -3.81224323516076 0 0
-47.860880183143 7.27606486732945 20.2587851405153 0 0
-189.897160651151 -18.6558541951549 -10.8750181867226 0 0
-133.631615670882 13.0239105378456 8.77580232128158 0 0
-218.906488152429 -5.71717308702456 -3.5771215053649 0 0
-130.662920862577 -1.17928176318397 9.02661616884487 0 0
87.4577485967231 12.2614473791193 13.3733272742015 0 0
-203.701412148741 -3.9252938639596 -5.48888747776322 0 0
-44.983283261579 -6.14174839290972 13.4582307699002 0 0
34.1921014523697 1.28443901800323 -5.12557700221761 0 0
176.508426421695 24.4983070989794 -16.520549783629 0 0
131.727520153759 11.9314070071537 16.8120597378059 0 0
165.922417478866 -2.88550073304731 -7.15650416897626 0 0
-157.994657354695 -7.95392234480068 4.80288497821448 0 0
199.242152237154 26.1614002582053 -35.2801221318292 0 0
-192.329354250879 23.4620930218277 -21.3537754466299 0 0
-5.34436307297856 13.3107986498076 7.9627646683916 0 0
-146.067356139174 -7.52480197070627 2.32705662751996 0 0
-39.6607974900611 17.1425332510195 10.5477725040424 0 0
-188.820789234061 -21.9851284488145 9.95279262317041 0 0
-149.100990981771 -7.36011476293223 3.02121957988198 0 0
159.698708259002 -12.6528704510972 -4.14805823583402 0 0
175.167905742693 16.3446701291776 -19.3181543426768 0 0
71.3962728267622 3.34483720304307 20.8733283894142 0 0
27.2178677713724 1.48323890111891 -4.87662731708535 0 0
176.629907269937 11.3174099715183 -18.5127590087087 0 0
-11.9301707278736 10.8820067601659 19.833549535999 0 0
-90.8956955088785 8.58673884403736 -8.34990811247997 0 0
-87.5680591724394 -5.07542021948001 10.133410326704 0 0
100.6602097412 6.35872566407848 19.7670163340645 0 0
177.009733930156 20.5664447040445 -21.141713389692 0 0
-141.679386222329 14.4101469876133 7.67990752504457 0 0
-204.880131312557 29.8373772117836 -0.503327688295 0 0
-128.856762406997 -3.98550730058433 7.06101544277996 0 0
-140.800871125351 -6.84434670204873 -12.3613053059997 0 0
-187.864560477691 4.95753203934712 -11.0731307487521 0 0
-146.589203992527 -4.98420352534117 -16.5948467349756 0 0
-206.050352603991 -8.3255364823838 -9.60599363608963 0 0
-171.018895611243 26.1040224197215 2.83788096200493 0 0
-128.888471819222 7.79552834146238 -14.389460879113 0 0
196.0428891475 30.5092291807691 -1.422530102155 0 0
-119.359695692681 19.043376620841 0.670840846330464 0 0
54.9289646743095 -5.0315092978002 20.5731553485006 0 0
93.3739978516792 -14.550423807341 13.3508421021129 0 0
202.241118241663 7.11725313508592 -26.6031130260688 0 0
159.726293013439 15.8129648316927 16.1332717155134 0 0
-43.829956322484 17.4436615847597 10.6358151638627 0 0
-227.575932501613 -17.0561897501253 0.620322989084601 0 0
-211.141855115444 -4.24633542509329 10.9293379579666 0 0
-201.295778274476 4.18136397038307 -0.273374766672223 0 0
-210.47196976616 -42.6237462411431 -0.702181505433419 0 0
-51.9157448378927 -2.24904827614396 18.9074014813225 0 0
29.7206518930543 12.9005182109139 12.2412810997907 0 0
-119.261331334459 3.45771240257508 11.402000339919 0 0
-210.150912627159 -19.0909501814841 21.6919509293754 0 0
188.859779168543 -14.4852712253469 18.8353347749842 0 0
32.8941487701081 11.6532340995645 7.30691237795808 0 0
-4.51364756165186 2.16578976195737 -3.73556494030014 0 0
188.569071193184 4.37711675893136 -21.4937664704009 0 0
-199.231806043739 -5.7576858262168 13.6964456418036 0 0
-71.6755207998907 -4.83856421253595 1.60953743011932 0 0
151.775029512018 6.5226692840338 -8.58695874654703 0 0
198.265932837199 -11.3808437802249 -14.1571651381666 0 0
144.911570895911 4.54453591417959 -7.3353114572615 0 0
143.639949900282 16.5632648588241 0.86471826640353 0 0
57.5129543634547 7.71682937434162 0.628356288924171 0 0
-174.848966339934 28.4623755042559 -16.3620509470826 0 0
-144.843856311008 -0.896977544284658 -16.064498761036 0 0
-204.668462415715 -43.7345244935506 -0.760172523621725 0 0
66.1126637109773 -9.90843207627878 5.21693773420224 0 0
-190.595232919943 30.3343535966585 -14.2565314156364 0 0
-208.359469235647 -41.6815149017797 -3.08512496076913 0 0
182.929709682981 -29.0953480282512 6.9096599739876 0 0
-71.7501503564382 14.5971004159153 1.09854456369095 0 0
-198.658896971547 -15.5592743732184 19.500575743659 0 0
-166.603833391976 1.64472938968311 7.52901837630422 0 0
29.7306863630633 11.0627880398806 6.25799427328194 0 0
186.624158336392 24.0762075155931 -31.8475768524093 0 0
129.444347747211 13.8687273605013 13.6625630222639 0 0
218.437567307737 -21.3861888411408 6.96595305515478 0 0
131.433149379215 5.70886542744891 19.5494058209044 0 0
208.781818766997 10.1790534723573 -19.3350131095721 0 0
178.350923851261 26.7108588344419 -2.65138491147404 0 0
-168.910839056571 17.5370402055821 7.05389503540925 0 0
-194.344209079577 -37.4458523954029 -9.59596114799777 0 0
-151.62650565173 8.3432282576323 6.88800502511586 0 0
77.7832528729303 12.3018007353006 12.1370515162259 0 0
40.8626813497118 -4.59039252324915 20.9512990996329 0 0
202.619720532363 -14.6698751670271 -28.2252343275824 0 0
-58.5652081209207 9.58321960848361 18.9794560209089 0 0
-125.067521060746 -6.52932064260781 -2.15764238226567 0 0
-156.187848875483 14.3722948955253 -18.532458296281 0 0
-142.668787359181 -5.76632114915401 5.78274995765011 0 0
-202.691925545768 -7.49420012327942 -11.2298212925213 0 0
194.211535883776 2.86481541199685 -19.4435327969094 0 0
-112.959941848166 5.92926567840783 -11.3786891474188 0 0
-4.13039137711762 9.73563753604062 4.23404925211685 0 0
198.735270604748 -6.89953193106401 20.3083430151159 0 0
-181.69389497003 30.5848621239063 3.32574980415812 0 0
32.374201281007 3.30994614309069 21.6389699247016 0 0
32.1829925530272 -7.88374005994295 19.4416895755245 0 0
15.9531944375736 -3.55285830200693 -3.27507505820525 0 0
-1.52129686383432 14.8615548762358 12.0660760347602 0 0
181.643362861089 25.2963991244564 -26.9531167421674 0 0
-121.522360615369 18.7872027765873 3.87966454998687 0 0
188.096285825082 33.5652283118164 -15.2610267349157 0 0
-0.3581419226927 -6.81874103623972 6.22494362035075 0 0
139.535536364013 4.68627818033517 -7.03667883466967 0 0
-225.749870199805 -28.9674165408494 -7.45248714208869 0 0
-166.817938782017 -5.46371501851296 -16.2892619180736 0 0
193.479577658792 -0.13942423765993 18.6622444650588 0 0
-108.135230052126 -2.45850725412134 10.8039843983641 0 0
82.6649659216091 -5.10533488979287 -1.48819875267971 0 0
73.2434307156344 -4.9883546983625 20.1561648262187 0 0
-179.097269712392 33.3042084686091 -0.942258663873777 0 0
-78.9403311259836 -6.22478763486787 4.80153228182476 0 0
-43.4458487893445 15.8306141831933 15.488196663094 0 0
157.393580845385 -11.3644210309109 -4.04555693542417 0 0
4.20103632428089 -0.248974564156566 -4.34877359271288 0 0
70.6697565839375 -5.92164171304617 -0.675035498038186 0 0
174.914468093089 -12.6194033125836 -8.35499366344551 0 0
-53.0894017768779 16.2449103294448 6.97591559211199 0 0
-126.070985705384 8.15191373762316 -14.2080274297242 0 0
-170.930986021386 22.0966519595376 5.86972861223179 0 0
-161.435187946552 -15.5740306266348 -15.2187320280718 0 0
207.308340268445 11.4047946212422 -25.1365693612118 0 0
191.573145875906 -3.9359700194962 18.5191048224255 0 0
-191.605612131701 -17.807455422402 -12.457985302451 0 0
118.953871941262 7.83557159316875 19.1510536720479 0 0
168.474147213896 -2.47669317154618 -7.80263203320493 0 0
221.078502857024 -22.6946436948166 -15.5123335856542 0 0
-2.86942564876762 -7.40611958005997 18.5448775760726 0 0
11.5422380453073 6.74087464043142 1.81865482151863 0 0
-200.580150839719 -35.7639174609658 16.8448923103355 0 0
193.293226425556 -11.8198997045367 19.5556066951067 0 0
-81.0433994665276 17.2125939481044 3.79134702090392 0 0
179.308919129205 12.0382370100147 19.2524617228401 0 0
-66.7969473687815 18.0400563096048 10.373686666513 0 0
172.150060547086 15.486127619548 -17.1418084070099 0 0
-194.810125581358 33.9348610167708 0.60574474008051 0 0
-206.590321050515 -43.3569850333802 6.34174457102191 0 0
-30.9322884766456 -4.81573482296181 19.3290048587428 0 0
-172.763139020375 4.95048185652838 9.02112643482264 0 0
180.980485336114 29.2710775517085 -7.93541471140115 0 0
204.752610448153 17.781597311011 -31.8754017217856 0 0
15.9316163930606 8.86267387821952 20.4717430480036 0 0
-197.135091174959 -41.5614675588458 6.02747401284106 0 0
140.219997650337 16.2050593822304 2.06193167680326 0 0
-197.549319453414 12.9583759667631 7.86448139918755 0 0
-210.814767232171 -42.1172966027904 5.29167076687013 0 0
-205.368547860018 21.72367819561 4.30881460052476 0 0
208.982434611556 -15.3616465295992 16.3368016854616 0 0
219.87373634809 -19.2094283602448 -16.7966883968606 0 0
-0.193587360638134 5.81675671395542 21.5502996975895 0 0
193.007479868767 -8.3087225656299 19.4916344359298 0 0
203.489856327112 20.4304227557401 17.8781656378745 0 0
80.8725294939537 -0.129084290027733 -3.84741957660711 0 0
38.8897963381681 -3.43824493633533 -3.263273864798 0 0
