"x" "y" "z" "f" "a"
163.401498085089 -19.993514808915 18.7639326595302 0 0
-168.538894440286 33.3619825043415 -1.04346043560451 0 0
14.5232678675326 16.9378621567255 20.4616996926656 0 0
-6.20584410334467 14.4627628266422 21.9501046112573 0 0
92.3229475858491 -0.864033180297946 -2.17850605068604 0 0
-149.608177339857 -2.15157526514431 -22.7425647918495 0 0
-96.4855933935903 0.244465663637207 12.0557444348816 0 0
162.820874589807 -37.5414443973276 -2.03292748607817 0 0
-200.565628388643 -46.1174022343805 10.8598547762057 0 0
137.757151431405 -0.340316984974982 21.4588968352416 0 0
160.389765364933 -13.1629575917006 -9.97867932101664 0 0
59.3867198251407 9.62678086072068 -1.70473386111973 0 0
146.172491048338 -4.54225708768423 21.083105919408 0 0
201.438736972261 -17.7449120525715 6.17925425724299 0 0
159.3669383024 -9.89038118126972 -9.54970412193772 0 0
24.2738089638224 -2.1885015361608 3.22672184654698 0 0
186.06429489532 8.10413752205568 -30.7168949614705 0 0
179.251859268 19.3779359271788 -37.5207712870256 0 0
-108.908973651573 -1.12745672674078 -2.10103409910763 0 0
189.341012679687 -16.5267177227507 -24.0792418036671 0 0
162.162376418199 -21.2641820901345 17.1421153304845 0 0
-102.551235300995 11.9837686918725 15.639184440101 0 0
-59.6889082960459 23.4599188330982 11.7095307200177 0 0
143.412639545158 20.2581485074573 4.58247154622819 0 0
-179.998796086532 21.0690936088245 8.00959660797863 0 0
-62.3009368836685 19.8958350134397 -2.82894418564485 0 0
63.9380648755482 -1.94651860171541 -0.548181930914932 0 0
-173.384734036974 -41.7165509664505 -8.04393466532588 0 0
-146.605510333155 -5.45639744083876 9.22050455450813 0 0
-119.797127577402 20.0985500760033 9.98335787962291 0 0
-51.9423188600585 20.7670363180385 -0.514845832741263 0 0
188.613948337543 4.08942171342257 14.2538985938837 0 0
-154.460118015227 -4.24981590249586 -18.4954587296585 0 0
51.1768580258355 -2.35364018975243 21.0566772790865 0 0
-26.2557363919111 0.296929892037907 1.98017929049668 0 0
-135.15131966719 9.54398730507736 11.598347563355 0 0
-141.471768503785 21.8837178749196 5.97827253474178 0 0
147.400167735048 19.6637739254705 12.0436643681086 0 0
-162.230147823776 24.3713609362881 -20.6735290570864 0 0
188.798523776391 29.5504126494728 -32.4359371508555 0 0
-30.4334838725415 22.4919652103274 5.23525208823562 0 0
-199.858025731942 -26.0817526823125 17.7149275422625 0 0
184.883552652717 -8.91646325458923 -11.1968572805745 0 0
10.2804330895969 15.4096386225429 0.922462279804252 0 0
146.141657108741 -19.3503033413203 11.8823893841059 0 0
-179.479890795368 18.1337281667988 10.3173082642851 0 0
148.539703677967 -21.2312105584267 10.0565499538439 0 0
-186.206064428592 -10.5371108779275 11.7864923028307 0 0
175.925875072064 0.0432956337891485 20.8035381304627 0 0
77.4595194134448 -10.4513765907537 14.1126083564412 0 0
19.9841108473872 -4.42869536384119 16.7171303158356 0 0
-206.132431279575 -28.0514814226171 11.7662332554436 0 0
-160.668363378839 13.4796189269562 -26.261568664568 0 0
10.1228444837763 -1.38936563592427 19.3142007017895 0 0
113.038978320687 -3.67440165721573 21.8228892813398 0 0
-71.0106273019008 8.11146163735962 19.1032145857031 0 0
-33.9457358691815 18.357214286696 19.4223346926809 0 0
-190.25907247441 18.3138892041079 5.05159314855762 0 0
-116.938778176721 25.4028200913304 -3.95440829748227 0 0
166.449141507667 -27.0855029119966 -18.0466270480295 0 0
34.2562672033279 0.845845955390477 22.0204292143339 0 0
112.532167545932 16.7129598208152 0.260350142513417 0 0
195.720199390213 12.2922352383664 4.44347554564267 0 0
184.547847024865 29.7953911458755 -8.51740251369887 0 0
179.230888740628 -15.6597101652135 -17.9259897133448 0 0
-35.7075290476476 9.06708216299868 22.080921347811 0 0
51.4812691994063 -7.11149805967001 16.789331645783 0 0
85.4609731516362 -8.38593728903359 4.72012233023149 0 0
-37.0223169940041 10.4639845924284 -3.2455995820546 0 0
-164.765823065975 27.7311280730603 -17.6578707718537 0 0
-154.465041908713 -12.6191713842659 -7.30811922838617 0 0
-93.7208996954224 19.2058634504365 -7.97913584085631 0 0
-172.865740241205 5.08214269400832 15.4985968954088 0 0
-178.080855442352 23.2051152650511 -20.749996045441 0 0
169.393163226111 29.4646156996551 -19.1336045034053 0 0
-180.064356099479 -25.680556202555 -14.7530609755002 0 0
74.2532199398311 -1.8944505583377 -1.01043430976238 0 0
149.513202667775 -12.6313612915603 -5.65526116987731 0 0
-180.158554038008 -50.2238470252201 -2.03115527182874 0 0
195.169622406053 -16.2323777680935 -13.1589556034788 0 0
-105.640999175717 21.9857631311123 -8.28206301722877 0 0
203.768205692655 -28.539050451737 2.57445503585557 0 0
-142.908253524576 -10.9542490157527 -21.2784688825608 0 0
-153.075254459301 -10.9333812010935 -4.12392465480937 0 0
187.311006117561 -35.0228615050312 6.89607321678217 0 0
-195.595307726972 -31.1365892904031 -17.0605121562943 0 0
162.078111371525 -20.3110452750827 -11.1784276509154 0 0
159.632494382943 -30.2932448318042 5.13212034818616 0 0
191.357845862509 29.6062085892943 -22.0976139571501 0 0
-56.3563240915781 2.80025923829478 18.2649571270004 0 0
-146.136049403643 1.61396370412825 -23.6198199078058 0 0
174.330263858733 -10.6323792309858 -16.8470975299965 0 0
-153.410925928642 -11.5749890172371 -9.77097338132266 0 0
-149.429449242103 -9.18774011067596 3.38329799732763 0 0
55.0499513012768 16.9766224092047 18.4034694606171 0 0
-152.179141445359 0.545809637349186 -22.3746589665913 0 0
-125.934402336258 20.4115350371521 9.03652513947418 0 0
-170.343325907436 15.5071795059865 10.0208666924118 0 0
131.046375274809 14.4155915405688 18.9342375698548 0 0
-172.9178024257 13.8553790414168 10.3815857435621 0 0
150.496080807156 21.6557941612375 3.81069942167176 0 0
68.6723334191552 7.40208570407421 -2.62370405646139 0 0
-163.622636039239 6.3938315796137 -26.7378142351035 0 0
75.9765003861406 -9.73492763742448 15.8605820305164 0 0
149.815224093008 1.14027770011169 -9.63348902218427 0 0
-175.79784565832 -45.3299053662123 10.5900544685196 0 0
-91.044807034221 -2.02600660468366 6.32213619735529 0 0
195.556561660939 -11.3014867811807 -9.23228997427308 0 0
186.388983495949 -26.9401418466756 14.4258652314275 0 0
155.700147586268 -28.4707904530635 -1.33332467375003 0 0
12.184505720704 19.6821964244269 5.04127845890209 0 0
136.616784735029 1.4668787920154 21.3981691125243 0 0
143.53954000822 -7.96246942509185 -5.14400996724642 0 0
193.941856022082 -37.5107103354291 -27.7431364344374 0 0
-80.6292058749399 25.5753613767429 3.25571456264352 0 0
162.51797244195 -0.321595976339095 -12.711020047732 0 0
118.153203169541 7.19216668216364 -6.45428987013236 0 0
74.5765216318522 17.8887604644011 4.4700211960123 0 0
102.248701056798 16.616508973215 17.4820619708868 0 0
-199.529987613101 -39.5334232749518 17.2965492288466 0 0
157.577493653566 -16.1903548668104 -8.55935085138214 0 0
137.527438564745 11.0085609809657 20.3380571844952 0 0
-184.217739756675 -9.5526707712469 11.8841581933956 0 0
137.036913013934 5.30556007295749 20.940197064842 0 0
-178.493410550821 7.44952204063997 -12.9803414958383 0 0
167.589155989331 30.4643974855854 -18.1653178065049 0 0
150.540744739799 -23.3807558219285 7.73198346495854 0 0
-117.304051377315 -2.70871125658316 0.453621851144734 0 0
-140.626585556114 23.0624980053055 -13.0508088280471 0 0
-97.8160117828715 0.56152072618062 -3.03687663330161 0 0
166.153955345491 0.454356413811731 20.0387050024074 0 0
-187.747849279109 21.0011991779987 4.32536919569657 0 0
199.32014066879 -34.3737185297804 -22.8596417916929 0 0
-189.348453318306 26.0626846020506 -7.65642264252184 0 0
15.2842474057572 6.30424779151735 -2.19002262029542 0 0
-198.006619098735 -23.0982647905116 17.4704781791315 0 0
-95.7060238464286 10.8448645667009 16.559586371123 0 0
143.382320316577 -18.5394167218847 12.0758565197643 0 0
-46.7277276162758 23.2581813496727 4.02224600275298 0 0
-162.688037720507 -0.519098503849225 -17.4368357815204 0 0
182.349802803255 -28.4199290712182 -32.6952640967152 0 0
-18.14305321965 2.62420271737466 20.9121237122425 0 0
-66.0500483613972 15.6338289814764 19.1233127112842 0 0
194.062146506725 -40.1640229312327 -11.5771502858541 0 0
-4.34324331691579 21.4666326204802 15.5222650302539 0 0
-76.0087250445889 1.2829689674906 15.0420052103922 0 0
-181.646451815939 -15.1329189029761 14.6050620040929 0 0
15.2083832544117 17.0386240786994 2.15772735014175 0 0
157.885448906072 24.7493190616832 -12.3913261336503 0 0
191.133596058055 6.22678254444173 -24.6049913282112 0 0
-143.925629085594 -12.8807164534597 -15.8815612976587 0 0
199.410243837348 -22.6907390458508 13.2519618972328 0 0
120.941796528685 -13.5336388881691 5.60182792666542 0 0
98.3984030865546 5.48240439101861 -4.4548985720313 0 0
99.4973465266479 -1.67859911132177 -2.46473985296416 0 0
137.569286116344 -8.16275658368146 -3.81578727030756 0 0
-63.7373271848943 -1.47071531056333 12.1073465088063 0 0
167.34802163429 9.03849151000991 20.4602527352064 0 0
75.4366186970145 2.679474721019 23.3965957008505 0 0
19.6405860546751 -0.600504417175647 1.73187493063491 0 0
-191.986207998524 6.99574036728679 5.02361047882455 0 0
-73.8245052790724 22.4248447730938 12.1727685307129 0 0
-193.475981408243 15.3199882981412 4.09973545493851 0 0
-50.9410226698152 5.231981914989 -2.67737745926188 0 0
73.1343819587798 -3.29716793051224 -0.556577240276158 0 0
150.744752981915 15.539989743935 -15.4809523937067 0 0
-60.2847206783138 -1.50472267547557 3.80051264685015 0 0
192.448464189497 -25.3456303712499 14.060391618348 0 0
-185.612365270851 7.27057679152049 -12.8087610594022 0 0
193.351820275186 5.87333829495034 8.05745705470467 0 0
48.5548771230843 5.71415380254141 -2.15290449403287 0 0
-124.292355218256 22.9135133189557 5.32396343012708 0 0
-166.388350047316 -4.03998909032655 9.4681913170786 0 0
-47.9932355676097 8.12138020645195 -4.16990907458772 0 0
-171.287831267959 17.6746807048558 10.0422360685907 0 0
132.854000546833 18.9004349401431 4.09001423110402 0 0
178.113921904783 -7.38724683523521 21.756611641948 0 0
128.800215838948 -9.88945366011576 -1.46537000866274 0 0
32.8773135203605 14.432388048254 21.5584622105073 0 0
179.254963683209 0.446700522248166 -15.9181241570519 0 0
-174.208056619595 -43.6456289191999 10.7755163007746 0 0
-206.197525578195 -21.5703214238336 -0.107585415411413 0 0
124.184957673698 12.5854426532342 20.240408845548 0 0
-127.897702497064 24.3975691145329 1.63863015257806 0 0
-160.449664074066 -7.94840203605869 7.76772685496395 0 0
134.206972332396 -10.2091111617321 19.3988257011145 0 0
169.154231598629 5.78620508963443 -27.8563075888272 0 0
20.8209265528252 -0.281847126626131 20.7326031514745 0 0
187.084967311396 28.5824109714794 -20.685120371625 0 0
-184.851705625959 -20.3000328580472 -13.8946375005482 0 0
165.553822156252 -39.409090942223 0.39808708107326 0 0
-189.900809684185 -29.5657707228517 -18.3166009791172 0 0
-202.539688074392 -21.1340195009389 11.9621527389347 0 0
-147.416471307605 -10.7433403552467 -12.0066463391542 0 0
-167.657402806483 28.3268469470027 -17.2777255608408 0 0
26.5244545085106 4.81486917661321 23.1396118612697 0 0
20.6299100326729 7.24533933045456 23.2561158790533 0 0
158.972996822815 23.2996201091435 -17.8772567826954 0 0
-159.01991097457 30.6956428918329 -7.356949879889 0 0
-103.86284116543 21.7217649367563 9.59288230257098 0 0
-153.024687534256 -5.98274767431406 -17.9178810945523 0 0
-192.446544039993 -31.7114649411275 -17.9764691348158 0 0
158.492459255958 -31.0090284326228 -1.71366212165253 0 0
-82.0924297580945 25.0265555453068 -0.508107440155374 0 0
-184.56474634891 19.2273470623986 7.42873479195764 0 0
-55.489181623072 10.9060304010917 20.8191085666256 0 0
164.999379571953 29.8119044042632 -18.6893097187852 0 0
-77.9265903535011 -0.542828619653592 1.1175749122028 0 0
-168.158895573753 29.7220454085804 -15.6272642684168 0 0
175.654961557295 24.2714116789108 17.9467382369628 0 0
-166.985969394784 0.125221669988481 -16.1094062613314 0 0
55.3644912850144 13.632373616815 -0.255543457348389 0 0
69.346166643922 -7.50442973155692 18.1430578973493 0 0
176.385903861624 -24.6432206599148 18.0380827586109 0 0
-153.835722136516 10.0378456701696 9.84781538955242 0 0
-154.3187554718 26.4335095715585 -0.930745720794562 0 0
-118.77430581303 25.3494334737013 0.326027427904728 0 0
85.1000904014627 1.10562364173788 23.1689475293974 0 0
155.431127696007 -16.1017154386711 -7.57016614325227 0 0
-160.206199909662 -7.10239059803509 -14.6084806407232 0 0
203.580891138682 -22.84968856082 -10.856940164879 0 0
6.67139247967638 2.59287302060872 21.9055007996063 0 0
-118.613351615327 17.5730380660818 12.0518939627294 0 0
193.954390755874 -22.0395074403726 16.1471493382035 0 0
190.223219075641 28.9138267850995 -22.8258169280628 0 0
88.2553262309927 -7.92159352163382 19.1223190208965 0 0
173.888689860519 -32.5929726798211 12.0309398210246 0 0
-180.095342221144 22.7237001862551 -20.9037350725605 0 0
193.165665405942 8.73633660547019 9.32036516046318 0 0
98.053099494607 17.4220604898981 3.13671453753814 0 0
145.989772699596 20.4209242951011 -0.526831307316937 0 0
-190.335097938228 24.1424159176132 -14.407787650654 0 0
120.303907697798 12.0679096822015 20.6505436097516 0 0
197.060111942684 -18.8137035658985 -21.3031949185558 0 0
171.99833360867 11.3064459010607 21.3646610141827 0 0
-135.16662796326 13.7123391168048 -16.9855107263446 0 0
152.019525823391 -15.2770903265257 17.6607007775426 0 0
49.5970843757952 -4.24679909746258 19.7724413162498 0 0
175.456130156353 -19.9353062046597 -28.2563871453169 0 0
101.654873504824 -0.633304848228164 -3.0523360248825 0 0
169.518736273483 9.33631526836771 20.7652556534367 0 0
112.51464410231 1.87644549690479 22.6469269719286 0 0
-206.755320012929 -40.8035303458749 5.81017909025615 0 0
191.476404080039 15.6617194871229 13.3576590284527 0 0
-7.29244482309391 6.75002411779342 -2.5954295556042 0 0
174.907993262593 2.19682717898876 -19.3871351457734 0 0
-128.106428342282 -3.35736149024543 -3.24358074779934 0 0
189.754084204623 -12.4526217508542 -10.5844279201559 0 0
9.55641460054203 4.04483465597064 -2.70026967702692 0 0
141.494097300215 9.5925514189607 20.4564147819688 0 0
95.840047818509 -7.38398838878552 1.88220727995989 0 0
181.721815033762 4.90808671982335 -22.2780018982171 0 0
146.100948101949 6.69781776655485 20.2922744696363 0 0
197.455994089708 27.7356378524336 -22.828621764183 0 0
-186.020534134617 14.4989393298289 9.48848735665544 0 0
69.7551377201818 2.95827760893064 23.398734613151 0 0
153.364493657049 -25.6681121940498 5.90876593164762 0 0
-34.4935797020309 18.1198490416808 -0.211587254628689 0 0
-96.8136413481745 -0.783802632276156 -0.201755820666985 0 0
-189.428827677927 5.48547236458815 -17.4318233063445 0 0
-150.240247798866 1.58133062246802 -23.0772989327425 0 0
21.0348995831806 19.2674677469001 5.32008006454306 0 0
116.641735971907 15.7393004527971 -2.24137683400243 0 0
168.444658997122 -40.6726490038043 2.28098245691865 0 0
-173.959813600148 28.1484191451232 -16.5197547504741 0 0
-1.19157963092534 22.3438058727896 11.4271322933763 0 0
55.8200779090797 19.2895187926819 11.2768388420191 0 0
-190.727832020009 5.05719526754799 -23.1706013867469 0 0
96.3052343625784 13.6494626711767 -2.88988129802945 0 0
69.4332338075795 0.195440959619522 22.7950064070177 0 0
-139.112295871701 5.71357139672076 -20.9555355625422 0 0
-182.463551534627 19.7175393257381 -23.5437369820644 0 0
-171.627255596271 -25.7384595930512 -4.27571274023208 0 0
-194.936045460908 7.93201949985175 -13.1170824740366 0 0
189.993074729505 4.5814641247429 -23.140777220145 0 0
38.5196838610634 10.2845902438309 23.1020009299659 0 0
-101.544987534032 20.7557977012525 11.1824034290173 0 0
-133.300420124094 12.9386327619873 -16.57509948241 0 0
189.442252791884 0.143248233021491 14.3997362965299 0 0
130.637905020926 11.5520891236439 20.4235637550859 0 0
79.8056209571334 -10.4588188740799 14.8304244056666 0 0
143.475798435625 8.09508451188842 20.4788829739996 0 0
-170.324975735243 -35.5862476667237 -1.35593121913393 0 0
153.38417783255 22.4486993337906 2.71805126466207 0 0
120.036116783015 -11.0352634394775 18.1430467332399 0 0
-71.4509643084707 -0.348108507041644 13.3608041870781 0 0
195.391089104956 -26.0977625576071 -27.4181618192801 0 0
-166.068166385519 33.6308095420897 -6.74757061134777 0 0
95.4280628592847 13.4334278231144 20.9058222673938 0 0
-174.594201499845 7.43171530897822 -26.4793988919851 0 0
203.992971200764 -33.743155145815 -4.69140629895444 0 0
81.6184160573709 18.7196157421857 9.22188976856397 0 0
153.64907250728 3.1710749341789 -11.2658039539817 0 0
-168.720050199201 3.74001081548086 -21.0435149189684 0 0
-83.087590053251 24.0532602667953 -2.85300303255616 0 0
173.674516995086 -24.3341758588543 18.3053889376567 0 0
191.148097251034 27.9486289122629 -7.26292730821843 0 0
116.368281580242 11.3572238664387 21.131539371183 0 0
156.283288472038 -8.47093020051875 21.1523679143996 0 0
201.785448515096 -15.248812741677 0.300008053149419 0 0
-139.742297157329 1.42843730696729 -23.1073271598395 0 0
18.973921338348 -3.4599997997856 17.9072908550629 0 0
-61.7946216228537 -1.10476958454845 13.1587847402474 0 0
36.0887753025048 19.3425871202641 15.4251641135104 0 0
201.941942910244 -17.802701025066 -10.8503322010538 0 0
-160.737801965097 22.7903779243246 -21.3645964621711 0 0
127.839780010368 11.0610435193648 -8.0676289966078 0 0
118.521754525446 17.8584851386714 3.68736957168503 0 0
94.7485294344736 11.6254261603387 -3.75700843783838 0 0
-164.456136213599 -5.83178035082879 9.02522406834053 0 0
198.372336542665 22.535109727332 -7.09124758110679 0 0
-26.9370913643823 2.42633299600624 -0.0766762299318805 0 0
-73.1440751305398 0.372899554493258 0.155867707163732 0 0
-99.119851480655 -1.27458478197861 0.745022674537706 0 0
187.766229385261 -1.58105722968308 16.5856931838313 0 0
18.6898543614496 17.8070062075772 19.5486711861544 0 0
193.341154442668 -40.291188481685 -8.01323342367757 0 0
132.66993535022 3.52677291879698 -7.51713542111805 0 0
-127.926588848133 -4.21227325199617 -13.5798116543767 0 0
109.004662344728 18.3622379516064 8.06278477052267 0 0
46.1979947775548 18.1972278224991 17.0180618490807 0 0
-207.665491825802 -39.8940969157102 0.547252420016501 0 0
168.489678543923 19.4656701388375 -34.3839579257325 0 0
190.9324594673 -9.95019059214228 19.7102173615533 0 0
-204.32238484183 -22.2537761069056 10.3894348988318 0 0
14.669842192303 1.18811182986665 21.4993996343566 0 0
-151.330051299309 17.9813458421685 9.37356252285762 0 0
-174.4893381883 18.68827551814 10.5724165221335 0 0
-196.42431925041 -24.344185628547 18.8920849025449 0 0
-1.23643199646071 22.1699701595541 8.69682717446106 0 0
201.500303658895 -31.6373448746431 -19.8122921094352 0 0
188.521773737614 -31.2931960379389 10.3624970275379 0 0
-182.311105869412 29.748582031421 -5.85266032670127 0 0
180.306112319267 6.35586077174761 -26.7711082811989 0 0
-149.269750161101 -8.65316831471366 -3.70874130529451 0 0
-185.029603041117 20.6446389367551 6.22105121841029 0 0
-59.0925965626226 1.4233757793066 -0.00800455708511813 0 0
200.848077302228 -13.1579133134742 -3.00584160587885 0 0
-150.889285615882 13.773618623322 10.1902404640582 0 0
125.117705112567 -3.48889776914143 -4.16627886757734 0 0
152.412625287117 18.8069771278285 -14.4605120403169 0 0
-172.574117726327 33.9971410871282 -4.79386942982176 0 0
201.198918696778 -38.3819498748548 -13.8836331638754 0 0
-126.018008457125 22.6628815860056 5.62594312985609 0 0
86.4991706484147 14.6435528809989 -1.51833212160385 0 0
190.482092325129 -25.6829800679647 14.0779674174469 0 0
168.494276336927 -12.9909985610069 23.023771820713 0 0
193.758893443206 21.0181398591747 -30.9056357960568 0 0
-182.169285084491 -51.4832807773682 -1.90207986253165 0 0
193.460415752434 14.257787983816 10.1397069665766 0 0
193.496710903807 28.0068173893447 -9.99860778570451 0 0
-128.939806903431 20.6729262961711 -12.6503873732864 0 0
-160.367799798313 -4.84215685749372 9.06822145614795 0 0
-172.640861562035 5.29132899438104 -23.9189666210439 0 0
146.399179607057 -10.7360638650121 -4.95242462456542 0 0
2.50793705772978 1.57327116653756 -0.516811016774622 0 0
-146.170853310735 17.9660345487193 9.52942459690302 0 0
-117.678933750424 16.5247358566521 -12.2231642687513 0 0
-80.0654611484973 5.30321867308265 17.2410969881498 0 0
173.35281461869 -21.8582563084487 -28.2079439151447 0 0
-191.249838475239 -26.4046023727257 21.2358813912666 0 0
151.712902024056 -19.080867587602 14.3672454993593 0 0
73.2123689372826 -3.79038609117273 21.2171571847212 0 0
-99.2705051360712 1.9889434624797 13.2206384051216 0 0
147.65582037545 -6.05735556722334 20.9908789192438 0 0
165.25138865982 -10.8073771780461 -14.0327567544964 0 0
154.09521270554 -27.9126817174425 0.26435693858046 0 0
-187.591017935053 7.28708090830156 -7.20337489166133 0 0
-204.6539753688 -37.9535247013057 -8.95024714681223 0 0
198.044189083523 -11.3748933694035 -7.72988777827296 0 0
105.508376894874 16.07725035647 -0.733617844968935 0 0
149.743331505865 -19.3892345871544 13.3925629612702 0 0
-159.568896159707 -9.97158256735615 6.5765295637326 0 0
115.740584975372 16.2324629398985 17.5824904197731 0 0
-75.544777893877 13.9256268700405 -7.60717713063616 0 0
-176.349611954952 1.96634089241444 -12.6607966609676 0 0
196.100491091106 7.80643282650092 -1.70057799019775 0 0
114.383893385635 12.9103048963136 20.5760230012414 0 0
188.045719466177 -6.79246555092648 -9.36511490076068 0 0
167.118740665869 -22.5745423099551 -19.8978397362623 0 0
-84.1939464319365 -2.03683779295879 5.20562790890412 0 0
154.310045885046 4.35693750047833 -12.0191371833057 0 0
-191.24119577415 13.2488840524787 6.7836605179325 0 0
-150.693951128324 26.3186682820653 -2.98040657517371 0 0
-181.245578964099 -48.860539595297 10.4942775009937 0 0
159.765682792657 16.0196537062778 -21.2997380061476 0 0
-191.122698087209 24.800806807104 -11.5274767072631 0 0
-182.705855406458 8.15990333566864 -14.4278551907383 0 0
-125.16192662507 -3.47477198860353 2.34088083899058 0 0
-184.926414219349 27.3460122358798 -13.4594785917615 0 0
-190.693687138953 -16.8851680471349 -11.0140376322188 0 0
-48.9914464182177 24.1123245233273 5.99904947167876 0 0
-191.739468068303 14.5958585295851 5.49247451890737 0 0
93.1196690125062 2.27425293919851 -3.44544901894381 0 0
77.8186108603941 15.0137696951905 -0.728241299817707 0 0
-171.97854334228 31.1844024108697 2.52794787215547 0 0
-190.009407757209 -18.9973258830855 -12.8001344651591 0 0
-165.975459128488 -17.03248954303 5.86603149186104 0 0
-185.322017282405 -4.2304135884019 -7.43510169722465 0 0
204.845540744372 -28.5482183697075 -7.3450863443332 0 0
-185.489183173212 16.3693515410333 8.82169767426031 0 0
-196.275565128939 -15.3861200808437 0.848942729717159 0 0
61.3122129969073 18.2771119506584 5.63216343300166 0 0
169.231054539606 5.63004293954373 -24.4452302565741 0 0
-191.508902947859 -45.4703967618912 15.4392041164404 0 0
160.141009168905 0.0272826368770723 -12.593529374763 0 0
11.3628063241216 12.0279337042975 -0.194398370102563 0 0
182.909963464674 4.76382052193868 -21.4645826782618 0 0
192.460055625789 6.42868261345532 9.94726995818376 0 0
172.376084947992 -13.8460090203522 -17.9206808509292 0 0
167.267653489855 29.027374195778 -19.6580132458888 0 0
168.132794783089 1.24710529445912 20.0282907164613 0 0
171.054962542593 -33.2038443250432 -26.2960027490412 0 0
191.444816646796 19.8912325018307 13.4217029002578 0 0
-179.69179812406 23.1695110246671 6.50749577923621 0 0
148.525698944104 -4.56462547771384 21.0962496802582 0 0
143.600006709707 9.60665117676472 20.3956852654587 0 0
197.306155062431 -17.9169125983535 17.0645795576302 0 0
120.723404258607 -12.4151790162471 3.63047715895958 0 0
56.4382273055081 2.7225266773384 -1.97931021392373 0 0
6.6537024312472 21.619300811277 8.81047776260298 0 0
194.516065902867 2.85788386511682 5.1221349655904 0 0
-9.55013406223964 7.35720052121318 -2.44875383800241 0 0
141.362384985073 3.17018815928074 20.8212204314285 0 0
-174.359494928005 -27.3005795179072 -7.87998716599866 0 0
183.218167327228 -0.0167427883149593 18.489014383364 0 0
27.42520558335 20.0542320731769 7.5143651463332 0 0
16.5033475844267 6.37989098785101 23.2202421008136 0 0
151.840915516024 -5.07224368054563 -7.90230355679454 0 0
155.570171626465 -11.9161712524952 20.6585553215665 0 0
-192.541703486802 19.6834481361323 0.986649762323585 0 0
-33.9214276234314 4.24720256039562 -1.48526055197474 0 0
181.631241792913 -32.4234992178918 10.8544507946751 0 0
201.802307087361 -20.8458198153471 6.76831045559774 0 0
-161.363470486026 -14.6310406307499 3.2770315873081 0 0
-167.484323447292 30.6721973234488 2.8032101216877 0 0
74.1131201891731 15.9164725015461 0.412614118943005 0 0
149.827399843379 10.5957770737378 19.805908069914 0 0
-152.091057744291 16.6088958372731 -21.936017303595 0 0
184.710245711367 18.1826680706658 19.7500500587459 0 0
-179.658220335393 16.8378653488933 -25.6838065672453 0 0
101.340387515433 15.3077965636636 19.1281235870027 0 0
-98.0849240135318 -1.81358556839893 7.97404958951412 0 0
181.814627716733 -16.9949811164044 -23.6201371018029 0 0
-123.637170657478 17.5378787490748 -12.8165153718192 0 0
-134.806628542529 6.94374332577532 -18.5017075128057 0 0
149.518889067364 -8.63870261271218 20.649571017881 0 0
188.01491463226 24.4857683367896 16.0935230967667 0 0
75.9178946214739 10.8027530425017 -2.53269910623444 0 0
-58.9365399722624 23.8251446171396 2.54088822819087 0 0
-187.946059882884 3.94485373581847 -3.39377532493258 0 0
169.791271597971 -0.590854256481197 20.1219132790464 0 0
-171.75423384984 32.9968996663259 0.693623892654966 0 0
-88.6657030517047 0.492615887402631 -1.39005458518968 0 0
176.065744784128 -32.2299148372289 12.3712315636562 0 0
-24.0004433499723 -2.81953664077062 7.16690302937969 0 0
172.066320587458 -10.2176955833316 -16.8945142229044 0 0
-150.989474747075 23.241058850537 -18.4545024647611 0 0
170.476118502711 -37.9137417709405 -20.1122615991578 0 0
176.076862199492 10.944886501493 -34.0675638182146 0 0
187.675665351712 -6.75501479065209 19.4203837126152 0 0
-186.90241009667 6.01316954507861 9.19803818396752 0 0
192.015835759067 30.1544482109672 -28.9641607018436 0 0
-110.128720012905 25.7938565560096 -2.44451106255391 0 0
-114.569792386609 20.2512866176303 10.2227311809908 0 0
128.99834136742 18.0758474423371 0.960849806394796 0 0
-100.991430985202 1.62528768671661 -5.57665545255192 0 0
-183.094097926789 8.96874515272211 14.1138786246815 0 0
4.85121371410016 -2.17649676203904 4.11623078255714 0 0
-90.9949967185758 25.9352819434645 1.55824618525222 0 0
-167.805210818747 -9.32343665727071 -12.3483276786898 0 0
-186.644586806713 26.6220539239662 -2.40731234850851 0 0
129.593842114294 -3.78416001840767 21.4744482338397 0 0
166.921102414928 20.00622711515 21.1184998462511 0 0
-132.9160713225 -7.87881175275462 -20.4233576375795 0 0
-99.8638956287556 11.6786371607669 -10.6980914958472 0 0
120.650758921174 -12.5324563984424 16.5698544012902 0 0
134.799978276815 19.2176637440326 5.78298462732104 0 0
-196.052126722231 -13.33585524783 7.27010191204237 0 0
-27.4155814587682 20.0633592928444 2.20793893583368 0 0
189.104132716291 24.9509960049281 14.5691238321683 0 0
-61.0567017878641 14.616292287771 -5.31596405649814 0 0
145.305969078456 16.3788513345506 17.5255096787915 0 0
-117.711553968566 -2.24384000707702 -2.78734074177894 0 0
-143.269814576612 21.9027882951385 5.97210167289031 0 0
82.0584734104533 -10.9927594814409 12.6114567448834 0 0
-33.843803509357 -2.28834775533274 14.0079920673774 0 0
28.8983680015064 0.120373404263289 21.3956166161977 0 0
134.714095881597 2.97877569533406 21.41636949417 0 0
20.8431194330259 0.891799364004694 -0.370593299667161 0 0
-161.616876306022 3.23215122397246 12.4054397908896 0 0
-189.58017895918 -5.2690329767686 3.59639994774027 0 0
161.156588405378 27.4767754556861 -12.4009198551951 0 0
-56.8547786703957 24.5689880409017 8.3472267248053 0 0
-69.6267190164261 20.3733359850015 -3.93208826972824 0 0
-167.472260429512 4.53761448883703 13.5135144249558 0 0
201.743504403346 -37.6280585821716 -15.5711398392409 0 0
-181.327947352961 30.2303727217994 -2.0667389066593 0 0
-183.225747383473 3.67161644129161 12.0269898765573 0 0
199.667799021525 -37.1883119382305 -21.2756735250313 0 0
-133.776487225466 4.59292454595054 -18.812731504377 0 0
-149.295317894503 21.4840664343785 -19.0650540154917 0 0
181.20446759868 28.5661008945152 0.244638759058244 0 0
172.093974621044 5.1007175750414 -24.5513898797704 0 0
164.39156112876 -30.3822863106646 -13.5897205715402 0 0
-185.612058440631 6.67285096499371 -11.0973831444882 0 0
194.74240275582 8.91409194688758 -18.960550497613 0 0
181.410315741603 -43.1234957541047 -7.08541963248086 0 0
-178.40937076393 6.33377737669012 -12.3805742635824 0 0
33.4253839051372 -4.18789780494046 18.5244509990241 0 0
52.7989306620896 15.437908472074 0.888493472770264 0 0
-178.270378734075 -21.6866294386711 -11.8527702592294 0 0
173.994539875066 -2.69717363113965 -16.9399237634925 0 0
54.3497728311508 -4.91593672123836 4.49963183122309 0 0
-193.400523706278 -13.0985731404863 7.22966743324689 0 0
36.0265733024651 0.870123985331819 -1.28919416547941 0 0
-189.197520261021 -40.7203389981003 20.053047981755 0 0
174.67403962064 -30.3930927684643 13.8482812358804 0 0
-39.314547742432 -1.76940843501049 4.84585846660068 0 0
-167.926613697156 0.917268726026318 -16.5878499530495 0 0
-163.673436014795 17.8156826871612 -24.7762371290032 0 0
202.482085237732 -17.6238083449637 -8.18360303723174 0 0
-74.6729851537504 8.68025465701212 18.7916351129571 0 0
181.106024630047 28.4084168407816 -23.1247396210746 0 0
-177.534449204256 29.1521458490138 -14.2973684878893 0 0
198.818548916994 -11.5300807654472 7.19972761772237 0 0
145.69739340548 14.9535794804972 18.7588817286456 0 0
-187.787217068882 5.54647518532645 -18.67120204387 0 0
174.12711596339 -17.9205771303561 -20.5551257686685 0 0
194.471075996442 -15.6175214346872 19.7461500025994 0 0
6.24790478355786 -3.27214024806893 6.15839604546866 0 0
151.028654679049 -22.5048611290531 9.82703030412684 0 0
-161.729500724967 2.22118406245161 -21.7107302932814 0 0
-196.857641240494 -39.0981613114238 -15.0775896874244 0 0
-103.349215629687 3.46557430547173 -7.54582997822944 0 0
-41.9066089440255 -2.26459073232004 5.83803913397056 0 0
146.261838584274 8.6430138248998 -11.7096591578939 0 0
-152.137464566178 27.7063847556625 -7.2249256446324 0 0
195.698073653515 5.81549163295155 -6.52634333050003 0 0
-197.008612247839 -45.2933091031415 14.3993173266735 0 0
66.8291894619252 -7.82282186800173 17.5073148513145 0 0
-170.376956878644 22.3901824884972 9.31488176975489 0 0
-15.8047993526378 4.04299141784742 -1.57325209669569 0 0
172.633668345947 -29.9870478194846 13.8879114251201 0 0
-178.162715551201 -17.3381992351479 14.4036975084578 0 0
146.393793066377 -19.3477333168237 -2.54014100878439 0 0
39.3194731853835 11.8160703901448 -0.328835386171008 0 0
-156.42261035024 5.49880571302231 -25.6530054473917 0 0
168.830714621834 4.23273740992691 20.0072904568005 0 0
-202.48807129796 -36.6635116213355 -11.9491888019102 0 0
139.744689914405 17.194779513316 -7.20025429801043 0 0
-50.1543431940297 23.1423996892228 12.8246371744562 0 0
194.558951227172 -23.9465969398188 -27.9044211166144 0 0
-190.062422388289 -44.3451458787203 -14.0775104391697 0 0
-86.9950211979193 3.65396769028887 -4.5131025105961 0 0
75.7849034520825 4.80018488758185 -3.33186552598161 0 0
-161.398454203243 0.809746948533528 -18.4272784966003 0 0
-180.687889355899 -36.3579748822698 20.2421173128043 0 0
-138.004014202333 -10.8875711739351 -21.237318956764 0 0
86.7176899248853 10.4998399385795 22.584763725059 0 0
-88.3750897202617 24.9026720106778 -2.33648202010653 0 0
167.067685985663 -1.75044036430685 -16.0513165160572 0 0
-190.111131492449 -52.5121133009428 -1.79290719666396 0 0
123.21773930529 12.0185009480662 -7.31575026243856 0 0
-32.8740393161811 16.6081105012577 -0.781054488730928 0 0
-197.626757779276 -47.8947271038807 10.2069472740206 0 0
-97.4025757162635 23.0110710743086 -6.44442210644339 0 0
155.386078716196 -26.1219752142356 7.93570356868608 0 0
-187.220007575433 -12.4727094230695 12.9585741345466 0 0
-196.410890960534 -28.8607736664385 -16.640488871904 0 0
155.568707433539 9.51015923411445 19.7503443276323 0 0
170.290706347186 32.5231121844974 -14.1566018983903 0 0
-113.377223374207 23.7283278132602 -7.53626705265358 0 0
57.3341254625978 18.6026115181149 15.135763544942 0 0
-75.0108141509111 20.2617204192144 14.6457695958493 0 0
198.701142120396 19.5155962526734 -16.7907581679596 0 0
183.577353425483 2.05055261675657 -15.4599006119421 0 0
-136.693827832008 -9.44853076138216 -9.9048971711495 0 0
-67.8009159058794 16.6413109075072 18.467582048667 0 0
80.0865331951706 17.2978553559309 16.9276695031713 0 0
-139.835042763154 -10.0144361086437 -10.7323824287381 0 0
-185.45949376885 -27.1455534059404 21.6610935897651 0 0
184.450468724555 28.8664123671658 -20.9822316495236 0 0
171.811504313898 9.34056697979987 21.0406798052218 0 0
-89.4174997338819 7.50439984049268 16.9757319162074 0 0
69.6986954575683 -2.00967357147862 21.9751084269883 0 0
24.7745851688569 -5.63275352051544 11.6429929828718 0 0
-164.015114091775 -14.0930800360957 6.23522109224462 0 0
119.045590638411 -9.47447641246148 0.275922942724205 0 0
117.002707138866 -8.34166598256098 -0.270162099376621 0 0
-194.016318338046 -47.6430606831601 11.5339208890924 0 0
-134.282380032423 -10.416586757274 -18.6838507011847 0 0
-159.908728307564 -10.7942184569595 -11.7684593529497 0 0
75.4176544598559 14.5283543180954 -1.00700536369205 0 0
-79.9096044148392 1.60893878570973 14.9305891710749 0 0
201.27814745427 -38.1857474983357 -11.8224787115175 0 0
-164.867214167003 33.5660186425298 -8.91582536552652 0 0
25.3178559905536 11.9726847340831 -0.0527592919001716 0 0
-61.4667545911118 24.7706193727013 7.57787945776926 0 0
-99.8500593496196 0.438143515475424 -3.27406230323414 0 0
-142.956682862111 -6.96061770561071 -6.12753904806788 0 0
184.429210074252 -0.986305467629201 -10.0155182409181 0 0
165.048031325208 7.90855100824039 -26.0198572061861 0 0
49.5962468066921 9.69631015812541 23.2940488939098 0 0
-117.963653154331 20.5463112269727 -10.6014290960458 0 0
159.680269865529 -31.6978406244711 0.979153084134534 0 0
204.78669717034 -25.5953693941997 -4.41696091802966 0 0
-139.509224111302 24.0069702557841 1.6687082779013 0 0
-12.3835023088175 13.9156833175722 22.0672251994194 0 0
25.8153640036403 8.71116919635769 23.2740727860153 0 0
190.510006805501 -41.7799915998987 -9.03506715676477 0 0
143.530771906802 -16.0942953556062 15.3451314882429 0 0
183.481089540228 31.0698044631512 -13.9991657753789 0 0
170.553067101647 -30.6440085584519 12.8501690235366 0 0
-192.465549746893 -33.1276149158966 21.7147537659667 0 0
176.235870440905 9.06095435602536 -32.6294187675522 0 0
106.546033908339 -1.38453172366451 -3.2132811127118 0 0
-170.701510953516 0.508071616785305 12.6926386897524 0 0
62.4519245582752 4.9261242640992 -2.76903039247925 0 0
178.902908221539 28.6386777059797 -23.8022757163467 0 0
-196.263165864377 -37.0833115204757 -15.996468740976 0 0
47.4595527007638 -2.83766671812278 20.5547861678585 0 0
-81.410595385481 4.87185732223929 -4.72125286850679 0 0
88.5146623795313 17.9738915069604 14.9572493488328 0 0
-18.0084089321801 -3.32753411870306 13.960383619614 0 0
-24.0747881539274 14.4009339436987 21.6194106814127 0 0
-179.688309274498 12.1625095730256 -27.5669076774594 0 0
-75.9688880841069 -2.10071073565359 5.02801668759624 0 0
-27.0458805475464 2.19574589776073 19.9661568204147 0 0
-187.581308472653 23.2510428723233 -18.815544484518 0 0
-132.727330060405 24.8628283862781 -0.972319384061606 0 0
155.481459256396 -0.325641369517214 -10.3485933534656 0 0
-189.439606566404 25.7833784545508 -9.8437923238866 0 0
-137.186328019252 -6.10654401014671 -7.37722757178488 0 0
118.882857622263 -8.61014411922942 19.8270613099278 0 0
-136.656363316565 -7.7025257389698 -9.1914118945045 0 0
-202.642949185252 -31.5616642739355 -12.7168655379589 0 0
-179.821578601676 3.13759184614495 -10.4033709990297 0 0
-135.525519532127 -10.266361167231 -20.693910490891 0 0
191.448390686626 -17.2433375197778 19.946813967343 0 0
196.439991120757 18.1645740250457 3.5067168441333 0 0
66.2066720674616 -0.384124752085596 -0.965648903026943 0 0
115.232854783892 18.4532581666999 8.59793832834124 0 0
-20.8730134845793 10.7729094536752 -1.75076759697214 0 0
-145.062365581901 -7.89546381988776 5.6846252241917 0 0
-193.321540246737 10.3631217053294 -1.82150517272615 0 0
-172.689614620791 -34.5888504841818 -11.1476299666093 0 0
-5.98457174090121 18.106623619952 2.2005291050465 0 0
-135.291184738261 -11.3529913133801 -16.9402801341392 0 0
164.512317507024 -18.0262128726748 20.3652868719518 0 0
-101.480128705239 -1.97360671202833 7.14164529710338 0 0
194.789226039823 -1.41957375724377 7.06854226646209 0 0
-9.45937230476641 18.4334892253769 19.6629278671441 0 0
158.808931340171 25.130241760549 -3.25940938645342 0 0
-139.648762534175 -12.7480685145655 -15.435183545345 0 0
179.613671854162 -12.8193137591113 -15.4108700834452 0 0
18.1988949181372 -0.512884305674876 20.424788543561 0 0
-107.068243421181 15.4236094907691 -10.9150746818429 0 0
162.701788354859 24.7405946983198 -21.6350843107303 0 0
-73.4326336805931 18.0685987781288 -5.74672690490048 0 0
-188.069813752178 -31.2231905037383 22.4391810966491 0 0
170.552869975435 10.1951040129873 -31.6954505027093 0 0
189.598860332324 20.3944699141092 -34.4136001000486 0 0
188.556517968807 -42.6844598052525 -9.54031762759566 0 0
159.07277153855 2.81006011068736 -13.2164970624325 0 0
84.7647229473958 -11.1805332469536 11.9942073568289 0 0
-142.250013452676 7.2219742855428 10.5498400802861 0 0
199.283481826336 -9.30533155339859 2.20654441798898 0 0
148.580829549816 -22.1125913909064 8.35092485383859 0 0
-127.315619373715 22.9187235987893 -10.2274690612502 0 0
110.847633605484 -13.7943755864654 11.7046465439755 0 0
-181.987741188668 -52.3669153040754 2.18157383425876 0 0
78.7808537409922 18.7499949600551 9.41115286434184 0 0
13.4479201909812 0.302686249451624 1.01900819847716 0 0
36.42741886003 -4.69006901196778 5.98274978288372 0 0
175.175180296365 29.2530780544745 -0.170161754249795 0 0
177.497449497212 -28.699834859828 -31.4840653726417 0 0
183.986251106716 -41.6445400009824 -29.509146267697 0 0
-161.066741158558 32.7601730420499 -9.06090296742573 0 0
-99.9574282288945 20.5548949745435 -8.32581884075101 0 0
-137.338455257416 3.29661592204044 10.5331148862618 0 0
-70.5579236309917 3.07927801948803 -2.23329651242486 0 0
135.40913684137 -3.58436913213514 21.339635955561 0 0
-195.771935221729 -17.6898901054295 -8.01678246117593 0 0
167.100177260958 -31.8339849107447 -17.1415784040198 0 0
178.427887996931 23.2211400197719 21.1932679939263 0 0
-0.38535748955134 2.7992679377217 21.7444326557645 0 0
-169.713217908244 -7.53378754478722 -12.7220871429749 0 0
-184.27722011582 24.6698668667863 2.76400361702762 0 0
-197.427466892853 17.1298521601614 -5.83135466990547 0 0
-190.078216963582 -15.7412340686914 15.1463511369519 0 0
143.91682306395 8.55221130868591 -11.0427505197371 0 0
-205.210416261716 -44.1874936725127 4.57813099487508 0 0
169.297548102078 30.7926969855216 -7.10134299252481 0 0
180.99311184225 13.4991422410013 -35.8346272311361 0 0
41.0196267353623 10.5476100344631 -0.710971849130306 0 0
194.681023118048 6.26571297265093 -12.315364552707 0 0
155.054196599004 -22.4044286471625 -5.72720487384264 0 0
-175.14415019314 31.3972514468025 -11.5830842359859 0 0
152.814054000737 11.4898183272797 19.6813816681282 0 0
-28.5171830168209 -2.5551489140619 14.2556907061124 0 0
-171.053900740077 -36.9797886077049 -8.16071910524544 0 0
-193.980671532027 -13.759904487371 -2.07500607528385 0 0
-118.753896326526 22.8833119790297 6.30872658562649 0 0
22.9907108304319 20.013727196914 6.98835690035932 0 0
26.605691661733 -5.53712884592647 9.96824555076419 0 0
184.138527715438 5.87028581043489 -24.1323170564553 0 0
-189.243715450999 -34.1572464615538 -18.137380703394 0 0
-159.256415422077 17.0370365969236 -24.1521309738504 0 0
-182.633451753988 27.4823462884456 1.73179721196617 0 0
-178.096381671456 1.5537868848775 -12.2375163995619 0 0
-177.837752644012 8.65788068403986 -16.2826309379715 0 0
203.024331093233 -19.3067925885787 -8.97229134237052 0 0
-88.0815132863622 23.0051214580524 9.76261933035373 0 0
-177.569761225196 -41.6962903789426 -12.2882366447216 0 0
46.0112792023088 -4.9554293678309 5.37438118054349 0 0
33.375359443359 -5.8116701323606 16.1007247946142 0 0
180.249920307075 28.9018048472373 -2.84683856212556 0 0
-12.3181263879819 20.2570681092564 17.7679905077313 0 0
-111.347241899411 25.8256136383296 -0.358477889617974 0 0
-148.690101242019 -4.3309469766802 9.67639605777419 0 0
196.374074133663 13.5897797784861 -20.1756391992919 0 0
-142.727317184062 14.0444577751289 10.7023732760329 0 0
-128.771030862865 9.88412142615818 12.4496176617103 0 0
27.5993062435721 1.45168668300284 -1.68530663033603 0 0
-207.498557024056 -36.0378174018817 -4.76025793676439 0 0
-123.865156759072 -2.56682577789358 -7.86686118046754 0 0
-178.161613645821 31.7981157775188 0.124770000924044 0 0
138.327691061398 -4.72492189053872 -5.29158376304011 0 0
-176.322909439765 -24.9916691332219 -10.7420914686892 0 0
-8.18036371819228 5.02505372373182 -2.87963100163062 0 0
194.552048038322 -4.32953449677539 10.6624167231163 0 0
95.3930805091366 7.84509562096142 22.9310124025996 0 0
-182.91870414814 20.7688794327318 7.15278538910225 0 0
181.356166425347 2.05132876041702 -16.644758277588 0 0
-195.528025009012 13.0784100122207 -18.3282058300456 0 0
-205.688733793084 -37.6502517790648 -7.54701687812408 0 0
-74.1067128540392 24.0537253347939 9.43789136866785 0 0
-109.595833228138 12.8532914130956 -11.8633809943686 0 0
-131.253141127868 23.541298155931 3.25609540746293 0 0
104.218584918848 -0.207281486968832 -3.42478114736741 0 0
30.3910557890557 6.61261783679381 -1.62169076370308 0 0
-190.10278939791 -9.67435314836436 -4.41362685858399 0 0
132.88778876896 -15.0165506054194 1.72249258168164 0 0
123.564161503572 6.0470601304031 -6.86378164430275 0 0
103.743279951817 -5.69854170026729 -0.647129947854551 0 0
88.9356300297066 18.5567036895998 9.03758139048119 0 0
-133.172244201015 13.4467717758479 11.8324345193049 0 0
195.322113368037 13.2998682851641 -23.610592264332 0 0
72.3683620635211 12.36125819363 -1.7827402805945 0 0
-190.639950560302 -50.8302803346703 9.87932863992687 0 0
158.992483566172 18.3730077040833 18.7730834976263 0 0
163.261033062515 -34.2965286557696 3.5977542368368 0 0
-192.256604036988 -28.5060785667366 21.5403126397404 0 0
191.739452160886 -41.0850987160005 -7.34192298305855 0 0
-155.628233327666 17.6919168918444 9.27111788999236 0 0
155.84179012208 -20.1465059272605 15.174815989771 0 0
178.44448125245 -24.8003490724069 17.7199850668313 0 0
168.949295343714 -18.5311360649932 21.2420492180073 0 0
29.6138386224184 1.72632673193282 -1.76420644414068 0 0
-180.545641854516 -29.9563895973969 -16.9047152690882 0 0
-184.140803982625 -53.3381237458349 1.84925628168083 0 0
31.5948438559552 -2.53812922207539 3.39570654612715 0 0
103.588576976576 -11.8520908160496 7.41865376925981 0 0
-140.115868178915 -6.2351595278157 1.14124340331671 0 0
-137.465388254717 -12.2816424372686 -16.5250574714523 0 0
166.894521747566 4.54826743812219 -18.3438328609148 0 0
-169.539355834228 -36.3723978262632 -4.38330495585792 0 0
-77.5509320548382 -1.54271002147969 3.23195776493521 0 0
163.860793393986 5.78576049710464 -17.0583319428696 0 0
-191.157045910695 -47.3096303398927 13.1245012367313 0 0
-169.687247479002 -33.854799809368 9.28512242043324 0 0
-56.898939674043 10.6733703485274 -5.90628366915711 0 0
174.781956274297 29.978529492465 -22.1294640927603 0 0
-159.432194299833 29.9879339128562 -5.49124979868176 0 0
-180.464856296464 -38.7781014049369 -15.4547601286154 0 0
-188.477649424947 -45.8031643450853 -12.991990051447 0 0
188.653517383902 -14.7961318610871 21.9357644162414 0 0
163.297114243233 -6.10449643319991 21.648618730155 0 0
-179.594921007115 6.01170454696642 -12.0690683489269 0 0
180.868408378832 -5.54595073442264 21.6664979349734 0 0
8.5255646219925 2.53635395154897 -1.83139507996496 0 0
134.428557821609 5.31369363513102 -8.29731128468395 0 0
134.321553652914 12.6312381412544 -8.84225400094389 0 0
125.441364410903 -12.2026530639663 17.4226847472792 0 0
101.80349618882 -9.18042866764301 18.8579975248701 0 0
28.168101091546 12.1975992780447 0.0130472346640284 0 0
-179.822194850437 25.5477745169854 -17.7645227041782 0 0
-178.479828725333 31.5706140397784 -5.43434813623017 0 0
-3.76638049368388 0.212325983505526 1.44102452216543 0 0
128.76408989728 -15.9386832172169 6.57230251482409 0 0
-74.3433881332877 20.9611188714662 -4.39681490955215 0 0
136.331802446947 17.4364030213665 15.3580321434148 0 0
120.087400948723 -10.9089986464528 1.48265880133313 0 0
-192.036922436036 -13.9706990758528 -6.49728965652697 0 0
-157.42722111754 -0.87955968614136 -20.3121428083921 0 0
175.502092582795 17.4745462404004 21.5383286374921 0 0
-113.552848144915 16.217256228776 -11.6866590007169 0 0
175.784353037956 -43.1862611561417 -19.3768731466059 0 0
-180.470981399737 -14.491084596983 -12.6261565916708 0 0
191.208310801908 28.3528023399734 -9.96310315937184 0 0
-85.5029588506256 -2.07154326408516 7.05928703803277 0 0
-95.1805458409385 4.69749736032886 -7.23674915456624 0 0
-150.216663611047 4.05337848418123 10.2012166223476 0 0
127.636505606797 -13.1368279285582 16.5652726845294 0 0
-62.3947727318411 9.34907099964688 -5.71643510307924 0 0
-167.24484812939 -0.550330234151155 11.7197034595661 0 0
101.746104457049 -12.4854170121016 9.50794580106011 0 0
-202.742775430905 -46.4948304381968 -2.26551888355489 0 0
170.640390355302 4.19117400310869 19.7699705910471 0 0
170.603282986817 24.9356706642237 -30.8795639702429 0 0
-151.476713624085 8.07063016525355 -24.1880277248814 0 0
7.49033215769079 -0.882024453731333 19.5595551818094 0 0
162.938933165631 22.8624488467342 15.736175461084 0 0
140.651597503905 7.98660206599586 20.6399251528199 0 0
160.746900562315 21.79778182615 15.5474175024422 0 0
186.908747958636 -11.0881243572396 21.8634378066767 0 0
25.671988989337 -0.854444871355072 20.5482347032897 0 0
177.842292556852 -23.5319162823522 -31.3295327888389 0 0
-135.007484966061 -4.00287413856155 -22.7399237267265 0 0
157.695583852307 24.3749828113257 -1.31160426791271 0 0
143.553411255203 18.2532448228059 14.5132244277335 0 0
171.587898882856 5.76320015285182 -27.8934585525774 0 0
-187.508927693681 -12.0576431677114 -9.41918267958753 0 0
-198.762345098436 -18.2329345136605 13.1760494788452 0 0
-159.354601996946 9.24024728887891 -26.8407151301278 0 0
-138.355941366071 -9.87283842050714 -10.3483367132857 0 0
-143.719368088755 2.99928810474464 10.1624094702495 0 0
70.4467123409261 -4.12465155563782 20.9295164009125 0 0
-113.256238250687 -2.13075844252268 7.56363778674563 0 0
143.737230386221 -4.54186270328198 21.0602492120006 0 0
-121.361967929143 13.9851269828371 13.1359611323925 0 0
-68.8016369225269 10.5935623649451 -7.06962371105841 0 0
133.512524568224 -6.31331001665496 -3.90723283062746 0 0
-131.232449985117 9.080826480573 -16.5412600585454 0 0
-91.0011338500833 25.4706575403101 -1.37184646118117 0 0
-148.390631600731 22.5976457436097 -17.3108728480941 0 0
81.9585881464079 -9.83464834697837 16.4852038077016 0 0
53.4699717732658 10.3137829937072 23.1434326301929 0 0
