"x" "y" "z" "f" "a"
195.282681763656 13.4940138070183 -18.7982998480535 0 0
-147.739944447852 -8.1186887068328 5.18830630845657 0 0
-212.113374925421 -7.19740854959764 -1.48151425957914 0 0
44.4250590847551 -5.25233488203491 -21.0865530681261 0 0
-90.7392683947835 7.78656040492793 -16.235486522964 0 0
-178.891177843331 33.7148865721986 -3.1026542289707 0 0
92.8883238904031 4.196143004393 -21.7181544705687 0 0
176.818025835183 -26.9144051823134 25.8173249987412 0 0
29.2902906390382 -2.4707894437515 -21.337032620866 0 0
-75.9180823016616 16.5537865941662 -4.58226939932801 0 0
-127.539232368387 2.09433527228926 12.9458831742502 0 0
-39.5943948861973 -5.93359885313404 -18.914800593965 0 0
-161.603614685755 26.5135795530586 4.96938509860466 0 0
18.4012127426783 -4.44943854124919 4.35317723267413 0 0
174.319895081729 13.7378331045112 29.2429525722676 0 0
-199.646749822098 30.2374587782045 14.4067131616123 0 0
154.537595018692 1.92432363548518 -19.8591630362562 0 0
-69.2974052232551 10.3970524611803 -16.8583933555894 0 0
-130.550586544041 10.5826600022744 -11.2882461731032 0 0
112.19831959556 16.369578321309 -10.0736541419213 0 0
140.029649408677 20.4887456727084 8.10131855457555 0 0
31.4872472042471 13.2079684047178 -9.82133175771257 0 0
192.303876155272 17.2729006427329 -23.2416157162117 0 0
-107.3428217041 -1.01773302614438 8.44753207960397 0 0
190.161380924229 -20.4127072333941 35.091373277851 0 0
167.618117019515 35.7045779740198 9.41077234099978 0 0
104.122548313511 15.0519389955159 -12.378479260982 0 0
-39.1815076676089 -3.01005392798595 5.11014393782133 0 0
143.089770300986 -20.2047570765827 -11.7383426218521 0 0
-224.60099004796 -25.7966594069956 14.7475941938494 0 0
-197.627117658284 22.4085355140484 -13.3712852405636 0 0
-187.507421367241 28.2142315414202 17.704431640982 0 0
-177.831903171267 21.8770183733955 -9.53004228786022 0 0
188.337397659026 -37.1447202787297 22.4419687043141 0 0
185.825543977394 23.0912408441277 -26.6142895202015 0 0
-179.545209413178 0.295464877440087 15.8674130008418 0 0
-184.481249959576 35.9597045173027 6.61043135208169 0 0
-146.249246714303 -6.30912827084421 16.2229374993724 0 0
-203.379883571078 -0.206482472002957 6.97786606746256 0 0
-219.325699219558 -15.3471372177601 12.4263298970148 0 0
187.019198516987 -13.4545644167689 24.5301247616124 0 0
-119.93229353955 6.12010441359238 12.8705703544445 0 0
-56.116268551166 9.96289425050574 -17.7731517360291 0 0
199.491308862349 20.0602952147155 23.9266221844369 0 0
-90.3815367406161 -5.31272923669081 2.6905608701669 0 0
127.890908495713 -4.55295039859187 -21.0373884631572 0 0
-205.867421801676 0.920195748428352 2.15445450684727 0 0
143.717740020611 -21.5291772455015 -9.74345470462572 0 0
170.221971775369 -4.61318480545453 14.7600528389767 0 0
175.794304462562 -25.5362256182173 20.9473664674741 0 0
-217.370550372033 -40.808329140391 -16.1791871971098 0 0
-215.635641409751 11.3523762644871 11.6090113208088 0 0
191.539481997018 9.70213094241502 -19.5423502612628 0 0
191.801104253479 12.4521129756319 -21.0501266347813 0 0
-163.537117300417 19.3303225614892 18.3802098551611 0 0
-197.366996214499 14.0527453528444 22.6213012594959 0 0
12.5797892417547 12.3256782872168 -5.7938283575488 0 0
7.80082290016143 7.8352916184552 0.391233621070813 0 0
-177.157308121301 -2.95512981242934 -9.33590607065057 0 0
102.860556377825 7.44769903695645 6.87393987668259 0 0
8.51670681690891 2.78707753138905 -21.1246147617949 0 0
132.11803765173 17.1296822861972 8.37466712856278 0 0
164.363980896405 -27.2824057335528 -6.36011047001053 0 0
97.8984528030292 14.0238608252408 -13.464170214021 0 0
-163.964442419616 -3.56612888521812 21.529694853917 0 0
-206.51275201475 -15.6324108027232 16.3675308369049 0 0
-215.578437554905 16.7862343536463 2.36748674107555 0 0
-130.201072864769 3.85606427320695 -11.7975806344022 0 0
-208.079827566513 -46.7899834358312 1.1944989477701 0 0
-158.547398486847 -10.8678500690238 2.97877817455774 0 0
-222.715294347981 -43.372763917384 -8.85913063482777 0 0
73.4371652278692 -10.3804571590848 -0.321278418798978 0 0
185.370587024607 -35.1397236114827 26.8757099716264 0 0
112.809211595081 15.0523949550211 -13.7788918343982 0 0
122.332635563442 18.4172945472938 -1.28474005526576 0 0
30.6861380932451 -13.9863663415797 -13.7133294459556 0 0
-197.254466007342 10.8206518471109 10.6570939837845 0 0
-26.2685925413927 1.1859868900788 6.49615191083979 0 0
-172.231941457979 6.56111871002216 -9.48254462340285 0 0
-192.293751513748 -35.2156877276909 9.86324736178157 0 0
-157.81475290108 13.4072436291582 18.9602267115483 0 0
146.881071895861 -17.7495523619978 -14.4048243193029 0 0
-35.3016528266346 -10.6256306652009 -14.1966439064719 0 0
-199.790500781585 -41.4719892410487 13.4403804150476 0 0
-201.034763184381 -46.8622543343733 6.60069205774336 0 0
-197.515409121053 14.5041192980479 -15.9893277036896 0 0
-146.040826531719 -3.61429426929388 -8.30357079302913 0 0
213.077119658066 -21.6726440888764 -1.00655386356405 0 0
-84.2808191185263 -2.01325683014471 -16.3963637661438 0 0
181.955464407927 33.5430620381992 -1.60347631256924 0 0
-196.433000744361 -45.3159715363439 3.9710934197045 0 0
-117.728935458636 16.3648237048041 10.6762565576647 0 0
205.404375249921 -16.2399836087721 28.4520661370288 0 0
173.036618259651 -23.005132134277 17.4505422908769 0 0
-155.287499369589 -3.40457104918702 -8.54347791671444 0 0
162.064235643243 -19.4843680530477 -14.3695427409512 0 0
-20.3708785895563 13.3735781697714 -14.362402571264 0 0
203.125013182876 -1.19405547619378 -2.10798042271629 0 0
-158.945752342012 -9.42077654212683 -4.04670081390622 0 0
-191.242682068955 3.05658430036232 -11.8054731546733 0 0
199.314118735746 -35.012465860396 6.78525247713431 0 0
-136.584040613906 -5.41955232309044 8.11776820533112 0 0
158.866240930523 -15.5642584406454 12.953303813074 0 0
19.7485030242352 9.60909881146414 -1.16733204162194 0 0
-99.686645040208 16.8188140971458 6.75272914181602 0 0
199.51163273135 0.768600414346954 -8.54067133505631 0 0
-207.990659460748 -22.9937390898763 20.3289918736761 0 0
-179.563801123522 -1.77121714270836 14.7078288208948 0 0
209.005703934384 -17.0540393903071 24.0419094248038 0 0
-130.331542859717 19.0881997095311 10.578742497092 0 0
-207.672983745098 22.4299609451638 19.2020606602239 0 0
-190.71649570607 -9.44452998733874 -10.7406733957041 0 0
-17.1894131937176 -9.49782276699356 -17.5186359023269 0 0
156.674467754786 -19.0411915487456 12.372529670529 0 0
-45.1231751645919 5.71571091305674 6.68897025360724 0 0
-5.6312868837117 1.8614791436908 7.08931946900688 0 0
202.563293828543 -17.178018942328 -13.6661636101333 0 0
95.6020898374181 13.4779723847898 -14.3490115401615 0 0
-26.453229009974 -11.1324712295637 -10.0402507739623 0 0
-217.822792944845 -45.4070227724748 -10.6816417021777 0 0
171.339039765079 -10.9933838567251 -18.3118567993 0 0
-190.775626513913 36.0805845086751 -2.02828192289607 0 0
-206.727261433 -40.3652867315677 -18.1758358198183 0 0
195.437053047642 -35.9090305721888 17.404346618631 0 0
107.696182508312 -14.9815135955878 -0.197274949392462 0 0
156.070277048467 22.7664785414383 14.0240461554164 0 0
194.376650548002 -9.42545382685637 14.9810186861046 0 0
-195.328622873478 11.0235460265853 20.3168562555391 0 0
65.7342109728781 13.6582490889997 -9.26765440758794 0 0
97.5302653652129 -7.86941979885135 2.74356925831173 0 0
209.910326267587 -16.2740884734541 21.6256510560641 0 0
-218.750021504923 -47.5507900597618 -3.88149534911466 0 0
151.057220833712 17.1152900128071 -18.5874535420791 0 0
183.847241510055 30.7948356979256 34.2563333324922 0 0
-0.875406220576188 -2.97073609100327 -20.927261854467 0 0
161.416253616555 -28.1372552409616 5.87181893902089 0 0
149.337323989468 18.4779798037983 -16.267053778357 0 0
-152.231568244716 -9.2952283594191 7.83315439310722 0 0
183.725738370209 9.33540353596649 24.5762627675929 0 0
23.2217991776212 7.38496547100835 1.01910259877458 0 0
177.512025012642 -12.9293760334033 -18.8598655695573 0 0
-171.108818690084 15.5907513691676 22.1708033342179 0 0
179.426003270329 3.35806401267117 17.9041040960942 0 0
176.504036484297 29.5011585062451 31.2110670133933 0 0
149.794001474341 16.0777628880776 -19.346020624815 0 0
146.486145662713 23.2419294456178 6.2691215771614 0 0
81.780021467443 12.984984320591 -14.1344681501402 0 0
150.174537155057 14.6666409515438 -20.4649864484161 0 0
204.129033356455 25.1511755826561 -1.60476840942154 0 0
-209.366414795496 -3.93289793701482 -4.83878071655794 0 0
-155.390996638904 22.2677268660413 14.0074757295627 0 0
182.61059696016 18.1301831283497 33.6362258422649 0 0
-11.8939011070407 9.73217916594478 -1.14890896571741 0 0
174.598059963044 -34.7193945312011 15.0550289289112 0 0
-107.984755322119 -2.72882772559445 7.47757246601351 0 0
202.606945522656 11.1577789115845 1.53886780759368 0 0
-103.841213179262 10.2810580096501 13.6147046362097 0 0
-171.935150610082 26.9993478378587 14.2080189723018 0 0
-53.2007783747433 -10.0175043876787 -10.0359145227323 0 0
15.224567579623 -9.00886207636773 -19.239030833508 0 0
-211.048236546089 11.504755425107 12.2196834030596 0 0
163.513268881035 32.2313187580355 11.5885646321896 0 0
-73.8192981430479 3.04458437713738 -18.2351502766368 0 0
-26.2085508064581 -7.33683606990918 -1.69876236721322 0 0
212.181935822683 -14.9320650335503 11.9664535291548 0 0
182.141781839719 32.9526773252688 25.8298969513233 0 0
163.96092099426 -13.2058881949235 13.2725737005619 0 0
-127.289026565947 -0.168460559106308 11.8375210060539 0 0
203.407080579843 -24.9106323551281 32.6265899681998 0 0
-31.6098431631849 14.4978376993775 -11.9894422677227 0 0
-160.205831231181 -11.7495445312161 10.7458086902789 0 0
-81.5297958603373 11.5951222131198 -15.3286842689753 0 0
132.018693746749 -18.8078892765641 -12.904046004653 0 0
175.402279932135 25.6490191476674 -18.9406801800886 0 0
-213.375798130891 16.7040770139532 -1.42983270469868 0 0
-177.091228405221 30.060399599993 12.8195295969455 0 0
186.371029648925 -29.9544676910928 33.4384279827469 0 0
-151.6830132963 13.7486098859168 17.5976714964565 0 0
172.626675844973 -28.4499679229062 16.3739810282893 0 0
-226.08951032388 -41.6953535098568 5.14233429176083 0 0
-126.469521756351 7.52919180861681 14.1973166630999 0 0
-172.504880310493 19.0331974876731 21.3518586312796 0 0
-0.917398896195458 4.38465120684382 5.25515112161184 0 0
159.142094556174 28.6953842482787 9.22370795356324 0 0
-89.0190277147775 -8.45325284810388 -3.1609005950063 0 0
191.675993644944 30.2876744122409 -5.99621145890673 0 0
-93.7790162831498 17.7759262878522 0.736438947266047 0 0
149.300815692997 5.73840544067018 -21.6340452083407 0 0
203.14808341077 27.5850621982311 -1.26581233341162 0 0
199.740407076816 -23.3060167925524 -9.56062317523094 0 0
195.921685348726 -33.724328667805 0.138699702879517 0 0
127.449044913518 8.46916912172044 -21.9133729702698 0 0
57.0709821072419 -1.99959226293374 4.56071863451708 0 0
-30.412490585297 2.30106430208497 7.06473112169907 0 0
170.262391438795 -19.6338480768396 15.5467240049118 0 0
46.0548489340887 -1.22182921528934 5.22084784257243 0 0
72.585692604955 8.36244093569274 -19.1639686183557 0 0
146.092500669703 21.0247024215899 10.0642277842547 0 0
-80.5803623166219 14.9567854697372 -12.0537440925847 0 0
-138.902469553144 21.9648771638698 2.33522819802699 0 0
-218.735514107978 -43.0250504192583 12.5340989972729 0 0
72.5391805087438 -16.2719672138083 -12.0531340598418 0 0
104.457353514393 -11.7663155383925 -18.4985933881489 0 0
-29.8333928305847 5.89173850446841 4.35087530342241 0 0
165.475398365727 12.0000203119936 -21.7968478402626 0 0
-195.786701986531 -11.0529275429272 -12.3476343680974 0 0
148.115140449991 -4.98980115258975 -19.8662662525489 0 0
99.9080290297614 -17.484810915875 -12.7319577645687 0 0
-31.8216931513725 -0.583731656722034 5.82720975311747 0 0
-62.1631017311881 11.8144606114895 2.55731188084068 0 0
185.162602096167 26.44687795676 -18.5703137246347 0 0
-226.365092201694 -14.6876383089384 3.16589939075051 0 0
-224.434762578976 -23.5937719228275 14.3654833460046 0 0
13.876182221459 11.0633126171894 -16.4495939348142 0 0
71.3861626191717 0.805011997268025 5.3156975094449 0 0
133.726438659616 -8.78980958938292 -19.6373381070602 0 0
63.7693975566557 -5.90188157633588 3.05243717761276 0 0
-228.707233658558 -28.7436956838182 -10.4564526732224 0 0
-156.472768342563 -0.661416821576665 22.794108300178 0 0
192.83953585019 -11.9546630605517 24.5570648448904 0 0
129.027567571336 19.3819079744721 -2.76120188647183 0 0
-169.637321563466 12.2486972291887 -8.89029992882804 0 0
-210.428819891255 -8.76950622929967 6.36147334675666 0 0
104.20686859165 14.0934626669323 -14.3716972225145 0 0
-203.360303325662 1.40107024903602 5.51865996477072 0 0
-202.697816627881 32.4657414547313 1.68625991339154 0 0
-29.062871960757 -8.84888824752002 -17.3408975057918 0 0
-88.089077312761 -2.18691904401249 6.17490068055533 0 0
112.976946691429 -15.9553049569647 -0.438498400586733 0 0
-120.671992578396 11.9580848052381 15.2471864372184 0 0
200.025222061122 16.912278128625 -14.3064645109362 0 0
-128.159835322185 16.800879353277 -8.30108637374286 0 0
22.7473011757598 11.0175861127695 -16.2419482222011 0 0
141.699282175391 -0.92561582059859 -20.9270253940225 0 0
-178.788492677465 -17.9907107349394 2.9124151409898 0 0
196.779093464382 33.951494016942 7.14853409987121 0 0
-104.787751505213 3.89881424740741 -15.0657335749997 0 0
-11.6060691578802 -2.4362276993452 5.21080225089419 0 0
-115.786456942973 19.4163152445004 -0.0715498450045144 0 0
-216.611983277897 20.6187873607987 2.60428329841892 0 0
38.8081563941232 12.3443569529281 -4.96974124848148 0 0
206.38717770917 -19.4648397136159 28.8673848403676 0 0
160.927945795346 1.26862384857153 -18.8622404371112 0 0
147.518890547388 1.85716767004065 8.59994455046283 0 0
125.856696162944 0.00517575559721284 -21.9389639752975 0 0
211.021993232001 -25.5162188313036 -3.35252715816317 0 0
196.415531240729 35.6656554005119 16.8000451447512 0 0
154.760480388553 -2.3905034384802 9.59157362343569 0 0
4.09935811415373 -8.98159845612174 -3.74262208247913 0 0
-184.579365903982 11.0569693192901 24.6981345375764 0 0
-188.701009673779 36.5072832647311 3.79174536355919 0 0
-203.624286455966 31.9523033546224 5.59371260111454 0 0
-211.342972782629 22.0125794217363 17.7160082951293 0 0
190.105880117853 16.6350242039168 -24.4309282038084 0 0
-122.804849959795 -6.78305760255595 3.5302249681308 0 0
42.1354550222513 -9.02851748359142 -19.8040741221563 0 0
153.38231991014 11.8738976270753 -21.737901710347 0 0
75.7231151801466 13.9713578712484 -3.81489737901977 0 0
-138.295823564813 18.7242914889968 -6.37633082602045 0 0
-213.290732626289 -9.76339336909174 3.3861633524096 0 0
189.455154275566 -6.78132373996639 14.1321896998573 0 0
-38.9443544013925 -1.21472405064326 -20.3300187909485 0 0
48.3870536990148 7.74278007533288 2.32478691498151 0 0
-103.200595162219 17.4867781925445 -6.30015976055508 0 0
-192.887872452179 -27.2666892229328 8.36246828909885 0 0
206.416564447104 -9.68951502501704 15.0894016420015 0 0
-207.378223445547 -37.5939850184418 18.4939454193394 0 0
176.551092547051 -14.647275036185 -18.8383809301254 0 0
-164.505586763843 -8.00125368070987 20.0940059459832 0 0
200.028805535489 14.6119139452599 15.8499317227698 0 0
-33.6086902976219 10.3471091695056 -0.231608911337628 0 0
-202.49537303299 -2.17224909131879 -10.5765895148015 0 0
190.364255923873 12.4886738741143 28.9265918393459 0 0
-112.434266422588 0.929715181983409 -13.7352478177122 0 0
203.433516982471 14.1196849635889 3.10964537143651 0 0
151.078495486663 19.3819927987831 -15.3888263373679 0 0
-228.743502833397 -17.8213338148551 -2.90199497671319 0 0
180.049901885344 22.7291064922219 -23.9449428159045 0 0
82.4361016360163 1.30728698415473 5.57722739168675 0 0
203.939691091944 -8.49950121537405 -13.017288062842 0 0
-201.103962495227 17.5079354929702 22.5928039434318 0 0
180.103294690451 -9.39925234578533 18.8200520618359 0 0
190.70062357775 0.146455554340594 9.95291508753526 0 0
194.666294635839 17.2411034997523 -21.2918361373023 0 0
189.051223687431 34.7764575757627 2.84481837383326 0 0
-222.556953778973 -44.6145185721479 6.0735811986153 0 0
21.0448777753308 0.503597215910158 6.42822011904108 0 0
102.289013350661 -15.5695561900796 -1.57740283267593 0 0
196.364502323458 5.98728660475136 9.91673975305975 0 0
-68.8944467911802 -4.85598366012342 -16.7231653978219 0 0
-216.327504916012 11.3835491444087 15.2644845264783 0 0
-209.835544306817 13.7525801329726 -7.41328585230124 0 0
-6.86463195509129 0.544849783114616 6.56740727013235 0 0
187.592942815759 33.8071896772601 18.4273404390577 0 0
188.498774983037 -11.6999470339188 19.3692533118287 0 0
-133.882260631344 10.7865623273811 -10.9239861850163 0 0
-179.414905267748 4.47918053707074 -11.1974574788272 0 0
43.3741046722683 3.45296737283339 6.21174696577692 0 0
-102.12229513079 16.1156407882817 8.41702293970919 0 0
-225.707130393125 -27.9248367202031 13.774909717508 0 0
-32.9999173831731 -4.50840297121004 -19.8914380729319 0 0
-6.90769828666859 -5.25639171592899 2.16399766616005 0 0
-192.589823947411 12.9205751495704 23.4839198423523 0 0
159.627921334698 -27.1746580607141 4.74753589218342 0 0
-212.258154159098 -15.7117166364674 16.0233254083176 0 0
-202.951970983592 5.43241272443026 -9.21962608376143 0 0
187.016869464773 22.4884702626835 -26.543322746335 0 0
-220.854935715711 -30.1133775507553 -18.6735000445047 0 0
211.002576879168 -20.2790287849529 21.5463096234798 0 0
120.673289110868 7.15123689499994 7.24283097855092 0 0
-88.2744135414593 15.9268031144486 -10.1000140239108 0 0
63.2923015282826 13.5806165482281 -8.77804700425935 0 0
-227.083630477628 -33.2909464930974 -11.9323577674074 0 0
170.602838524154 10.6546632854348 21.5517265843448 0 0
87.9889793618864 -5.41911968365411 3.47714924180378 0 0
-114.844574094495 2.26181153739504 -13.6821404386877 0 0
55.2855129865673 -5.47525501173732 3.29208068966036 0 0
192.083830922575 28.7940076517514 -10.5854196818493 0 0
-203.790670280951 14.8492474903442 -14.8698223518004 0 0
196.791216383674 -35.8093997013511 24.3324780120185 0 0
164.935808691169 30.1989204242758 -0.541900656815778 0 0
-95.1216401429272 13.4065888753943 8.94008746646995 0 0
194.534504123248 7.15294236991429 14.1047070948218 0 0
58.8370820071908 -13.3686119090471 -5.30118814284153 0 0
193.788935428867 19.1645553469871 30.974377647974 0 0
-93.6434793822011 -5.57290274459529 -11.8247931305586 0 0
-209.681631602363 14.2000756791515 -9.46665959726165 0 0
177.125182733923 30.0388989595915 -10.1716647603641 0 0
9.14879626094177 -12.9815602888794 -11.6733934586141 0 0
-80.8375185867451 11.4255699191906 7.91348969244391 0 0
162.971433502846 -14.4900137511724 -17.3053360559594 0 0
163.971794487671 -6.15312290673711 11.1279664497982 0 0
179.7467287463 -38.1966793098108 17.2992376190536 0 0
-6.44588646411388 -12.4743622196026 -12.7672143909007 0 0
-171.645998682002 29.72418805369 -0.365219786930597 0 0
109.924482520291 -11.8817584604897 -18.4207982405581 0 0
155.477839502095 23.9062636739445 -7.26611057859483 0 0
-79.5293640232137 6.53539600765771 9.32037085835946 0 0
-146.131065828844 -7.93722547832714 9.15919481965041 0 0
206.416061860186 -6.80359126379303 7.57049064437019 0 0
-190.790585125944 18.708153083031 24.1783845671512 0 0
165.311734647788 16.3352920401453 19.2211340940147 0 0
167.687045016747 22.9584343758369 27.5836464437202 0 0
31.5300380379104 -1.44485105728852 5.57800523796609 0 0
-175.101027828287 27.8497314270031 -7.6727781806525 0 0
-53.9525571560772 11.3729074191175 -16.9231652574002 0 0
73.5247378598186 -8.39349384585433 -20.2464193638375 0 0
151.362863853377 24.240562392724 10.0360816584224 0 0
193.945479293501 33.619274589068 4.8108630193356 0 0
-85.9352026100103 -3.75148346903243 -15.1626734019866 0 0
196.770495739662 0.677259947620777 8.0325229084354 0 0
105.817792571537 6.38314815840609 -21.5303419537418 0 0
-180.945418118135 -0.324269850926449 14.986868739163 0 0
-112.800523306525 3.41819801136417 -14.0386511397407 0 0
-143.211327649619 12.9893550816046 -9.85427127983746 0 0
157.081380946899 20.1445072026019 14.987027450051 0 0
101.413256150364 15.695225857307 0.0631243106340332 0 0
-4.58130446076124 4.59924808456218 5.280504698381 0 0
172.594245023983 8.94442779252386 21.0812101373929 0 0
176.637726927464 5.5256091210699 19.5942272882224 0 0
-133.151845702205 20.5574960921635 -1.32392602530109 0 0
81.6768083815438 -14.9148277007526 -3.80760535007351 0 0
159.809648451248 11.4374198839451 -21.7283119315016 0 0
-210.94728398519 -17.1664690073609 17.7352035294839 0 0
158.904474245702 -27.0614368106631 -3.29829990473111 0 0
118.901487311614 11.8788811441933 -19.1658003184731 0 0
-147.723970985952 10.1460969380255 -9.67871651365995 0 0
201.366572756686 25.1797199455647 -11.215502634541 0 0
-78.264408281409 0.124301222871895 7.46978387031672 0 0
-206.243631176747 -31.295370119772 -21.5934129801652 0 0
41.2034277412655 13.2140440565396 -7.62658529096413 0 0
-56.7182709626454 -4.8748967460749 2.04493081207384 0 0
-185.490146622569 9.84091268477536 -13.5968140470491 0 0
166.529553336454 31.6527206957545 1.86631605769611 0 0
-82.5036813672799 16.9242183925581 -3.48839307747493 0 0
-194.385582075587 -10.0413462502587 11.7308817046995 0 0
10.7259460234733 2.65286612328037 -21.1668172789687 0 0
112.422731183609 13.0149227002224 -17.2127379733122 0 0
150.056755653145 -3.0538427578893 -19.929720348371 0 0
51.6735939590429 4.39035871090556 6.13550216424313 0 0
-122.899311322092 -7.93822406167081 1.24044812868457 0 0
186.07121847931 -29.8051083412029 -8.5049142878914 0 0
199.894258762612 -13.6977368387282 -18.4020528410495 0 0
205.17347528624 -7.51645769996273 11.2817033211473 0 0
181.367209001744 -14.0594720807315 -19.1287192519052 0 0
-191.929585504699 -32.5572378795393 5.42318862238963 0 0
195.4131391652 3.75071252023176 -12.758285871122 0 0
165.456221066823 -23.2562985488791 -11.9961354479216 0 0
88.330770603052 -14.5813743976484 -2.52293120106578 0 0
79.9219011791887 -11.1024458372948 -18.9587393550181 0 0
-120.898398797176 9.13429256891829 13.6914469097224 0 0
7.80086666987034 6.19750965469953 -20.2987210152105 0 0
-200.409355665487 15.7409924065737 15.0891441884332 0 0
213.819353462164 -20.5866791201493 12.4201418169008 0 0
-181.162828900079 -12.6499177041532 -7.91207325117503 0 0
-195.627794985383 14.7030021608722 23.3061781449155 0 0
41.2116981405896 -0.450023757914638 5.60870855125151 0 0
130.143559352208 17.8883037205346 -11.2649069882191 0 0
-108.160831235274 -7.93846255045353 -1.09023194889809 0 0
188.176810344071 34.6438125443728 22.8044298857531 0 0
-34.524244537022 2.05140605234069 -20.5521329747761 0 0
201.33328540676 9.52776216943249 -4.54897177434308 0 0
193.293937247661 3.0647369684676 -14.4174455904706 0 0
-145.497054127139 -4.35653120049671 17.3102122934085 0 0
-184.50219469333 36.6544430602964 3.01689661865075 0 0
185.761888316162 -32.3872600657301 32.2142349553548 0 0
160.297540185993 -13.2829437199183 12.3145668672273 0 0
-118.30983143827 -3.24767411731107 -11.1783257415094 0 0
163.587107798557 -12.5374267818997 -17.7182856990021 0 0
53.0587563508626 -14.9028557577001 -10.5339473434795 0 0
-20.8837320868047 14.0916411746055 -12.4133247525088 0 0
-216.054681442264 12.5327348659365 6.62435138549062 0 0
127.935200388092 12.9012760150967 -19.3027721239526 0 0
141.975545325896 5.58894978426441 8.46751988331653 0 0
197.138969266276 21.2815223197277 28.1986278718481 0 0
188.817339427315 19.9072663646731 -25.9574077420024 0 0
-172.095945500284 24.2046680022218 -7.47682251314002 0 0
-159.648760498685 18.8154752548265 17.561834468252 0 0
95.5410479572456 15.2367662103626 -0.783065402914481 0 0
98.0377220168057 0.683547882809939 5.40660355338298 0 0
78.1105522025906 9.77331326573193 3.69290504857122 0 0
201.787121620792 21.5320153708385 -12.2189276591579 0 0
149.054340916616 -22.5903326749264 5.0313287590208 0 0
104.192436427324 16.4494383480296 -3.31456531748498 0 0
-71.2787095029052 -7.37630322496758 -13.2443245236956 0 0
52.7306191609991 10.7305411567481 -0.507550173703635 0 0
-25.4519922965284 8.98870296353141 0.471158775139237 0 0
159.040259152914 -23.089542300827 -10.620321349194 0 0
-63.2313079661158 -5.07962731040236 -17.1729375926745 0 0
54.6188727792108 4.02612240517252 -21.0573674620592 0 0
203.361530661262 22.5647099883749 10.5577292535696 0 0
-207.776113288133 12.1407944713593 -0.702698076330616 0 0
-231.157534314179 -28.390915556896 -2.88349700932244 0 0
117.505403445454 7.77636262743316 -21.5663475996045 0 0
-183.468344623899 -10.4534792013861 10.0632798319135 0 0
181.702990919858 32.0023677596866 30.2600063103157 0 0
-134.081431500568 2.54436125937316 14.4809823630866 0 0
-135.668690260954 -6.60067585952501 -6.20727814736367 0 0
-55.8903361936519 5.15124278072658 7.68972875608238 0 0
28.7889347616744 6.57915060032281 2.20262811678958 0 0
-190.40318062645 -3.36013991408442 11.4433965152711 0 0
184.498848513321 -13.1153659322194 27.8441621067498 0 0
204.195551222201 18.0178917564624 0.0559562994258537 0 0
167.0618881021 -15.0198691865937 -17.4014173956298 0 0
171.048708210193 -12.5715408760209 15.6276664838741 0 0
-206.736724685394 13.7186789130989 21.2478679825219 0 0
-156.726506953257 -9.75136240961782 6.82197590984229 0 0
184.478185168621 -9.65701265596251 -18.8140325419149 0 0
127.935463273082 18.60051821127 -7.44901769613346 0 0
-83.2380164918861 9.62652160985635 -16.3079671708937 0 0
203.422313660937 24.1756578743271 12.8680845855992 0 0
154.946832328622 -13.9508093227001 -16.9816400632575 0 0
-193.631770413394 -17.1109204808107 -12.3362981150552 0 0
-177.026058957846 -16.8067802831227 -1.41490107927717 0 0
137.882466589105 20.8032112609139 -4.24641311124673 0 0
-216.317727471576 11.8255361700601 9.62727098340103 0 0
194.448144488511 10.4720398125797 -17.6713456145429 0 0
-228.073532750092 -35.4830656521695 8.14302113187016 0 0
187.183798426874 10.4545660071936 26.7889188076036 0 0
-53.8312109484405 -6.46522887364004 -0.51352908229887 0 0
202.823249342579 -19.9233827378952 -11.3123026296936 0 0
-193.63864861597 -36.4432438694199 -12.9129355396383 0 0
1.22819415166568 2.44925957110942 -21.0761139477034 0 0
190.377505930251 4.80130224748055 -17.2855557090081 0 0
-189.663166648706 -27.2392529824779 -5.76590287581871 0 0
-187.668845178788 9.28266682926337 21.9535444586032 0 0
-227.602493223212 -14.9616480066379 1.44486531240861 0 0
195.285613811317 8.95842855776925 20.7692419810715 0 0
-122.649097613284 -7.94096696831722 -1.16789876417166 0 0
-165.337090618621 13.1193850915573 21.205997961243 0 0
-202.915914794626 -21.212896423397 -20.2313101207378 0 0
-16.1287411473123 13.8406281383398 -12.9806971653917 0 0
-22.8976936357435 -2.36205717794899 5.43274504062921 0 0
-164.774245244905 5.883234170995 -8.1358095568505 0 0
145.773365354748 -19.1253111985287 6.02934148809615 0 0
154.288071704403 25.9979707705538 9.10558204931408 0 0
-183.424750687046 33.5069450944698 9.96303933016116 0 0
204.090976573038 -10.2832064645596 14.8040904367591 0 0
170.599463448685 -30.6444028935795 12.5401335234748 0 0
185.911068312864 -38.7427489176182 4.65824160356132 0 0
-114.314106289413 -5.39725650776575 -9.16924116666979 0 0
19.1104888278193 12.7266310017874 -13.4767607181205 0 0
-128.966716898319 5.90571240091576 13.9189009177081 0 0
-100.491151761175 13.8466913009849 10.037807193998 0 0
-196.303247980815 -38.215147128397 13.1112222522707 0 0
-188.539542962241 37.0273894592235 -0.946923713550537 0 0
191.546212111983 -23.6451026073179 35.5386844950877 0 0
-184.091716160603 7.00125190943196 20.807420992709 0 0
214.041391446048 -28.0035574743501 6.38257429732818 0 0
-225.661476541167 -14.8363253135512 -8.26165848717006 0 0
-152.116803533515 -3.37801393836977 -8.47460197043789 0 0
-184.749192580243 35.7486287126416 -3.69678432285217 0 0
-95.0722922405617 17.4038144109561 -5.62185073815142 0 0
127.465721251574 5.35228529326224 -22.4128598334428 0 0
176.838983668406 -23.2985919360811 26.5875509475603 0 0
-227.889869640392 -33.4788226327718 9.81385917757341 0 0
-179.698372744332 5.89938110960282 -11.8762787964631 0 0
176.343161033405 37.2963705789717 8.18871513830782 0 0
-75.3843627776618 12.0050193011711 -15.4401112396816 0 0
-204.269214262479 -42.132461866159 15.1137470521283 0 0
-166.255965390931 -0.885642493797923 21.347850685881 0 0
-66.4431336989819 -6.40857924566634 -15.6443529049561 0 0
177.00414328954 13.7111125678577 30.148357117457 0 0
101.493245998117 -9.59780816206025 -19.5492195314961 0 0
-173.977550881022 9.76573184592031 23.4649151266431 0 0
-209.032681322753 27.4336736797742 -2.10765221626547 0 0
-19.652218039447 4.0961234920291 -20.6742137398429 0 0
-206.60790121357 9.91541301021465 -0.668021294397803 0 0
191.11692828239 35.4482679092692 23.5037657861802 0 0
69.9419377196071 13.8938389370604 -8.06195671659057 0 0
-19.8533759932772 1.45263159120201 6.40691045788174 0 0
204.915691393957 -33.2999563215279 15.775264976292 0 0
-92.9815911063249 0.643954980258452 8.50565829016563 0 0
191.360256313175 29.6372152158492 -8.42308617448428 0 0
-65.9214347261067 15.7742435745451 -3.601255485665 0 0
42.7585085205032 -6.85414452168442 -20.6517914695718 0 0
36.6990070925158 -2.62236129049328 4.93354206955376 0 0
181.336187362333 -32.845088850175 -5.5181566336054 0 0
154.046037034923 17.8948407161921 -18.6146897544054 0 0
10.1195427210344 4.99212264745512 3.90597971005589 0 0
-148.357361691836 -8.1596273214892 -2.29766360736153 0 0
-42.5398185062177 -8.5120737517946 -16.6517826685905 0 0
-204.092479685643 31.8241336120389 2.14555936272466 0 0
76.2045056476681 8.58331180773253 4.42610244967835 0 0
62.6510628966536 1.04309785571657 -21.6756358266215 0 0
-205.29714190783 12.3855615372502 -11.0792504476615 0 0
-215.788125048498 -13.7356889188905 10.9552468338516 0 0
-68.697187820408 12.3127989066206 3.61894109971812 0 0
-180.268932781774 35.6668818069836 1.76258713935533 0 0
201.029977064587 6.35982806775071 3.43142463707027 0 0
155.378516526081 18.8465734317887 14.5633892753394 0 0
-149.539694916702 -10.1255285265636 17.8694806173881 0 0
210.128325313218 -14.4360647008537 -4.75442275575613 0 0
-172.596229901434 -7.78422487671929 11.8228261141037 0 0
-190.970375827299 -38.9009015536318 2.42408294773546 0 0
166.939224887889 29.8791154205897 -4.11290182001993 0 0
-109.486807614299 -3.9583880898001 6.56567816208182 0 0
-231.176753165431 -28.4777258902363 2.16815334746661 0 0
188.287116224009 36.8142983023972 9.72759786926106 0 0
112.194759726591 8.00790116337289 -21.1676695865361 0 0
194.866254853589 4.14592630183069 9.10510574823004 0 0
-207.301791527398 -10.9564992122396 -13.9430226778912 0 0
-34.1627678874106 2.65466641862146 6.80438926840144 0 0
152.216556696587 -5.32814307474355 8.96211533378851 0 0
186.47009202287 36.8533587374316 8.11600880460967 0 0
185.345548037174 36.1226790206405 15.2622836483614 0 0
166.013325706792 19.4776265616832 21.8622795528188 0 0
176.027370779801 36.6693734436602 6.67396939221904 0 0
181.410398291749 27.7224607026074 -15.9647453459641 0 0
-153.362203255866 -9.16369229287208 5.2294177391795 0 0
-80.7415354225543 -3.77820769297792 -15.8931744761908 0 0
119.782225130609 -13.3183880833123 -17.6924330758535 0 0
103.423853953097 15.2862888140042 1.7751141365032 0 0
191.919180218052 34.8279028890467 15.749016215757 0 0
-184.528101190584 22.3331873283618 22.0488607984014 0 0
-127.378469075399 -0.2301127971541 -11.5886736551631 0 0
-133.846394955867 -5.8753421676688 -7.25936888175236 0 0
-191.782231116235 -19.3121544742621 9.70341882495628 0 0
198.16620214544 0.492476991357266 -10.3991310333602 0 0
-78.2588424281476 11.3123978138 -15.7221489403474 0 0
188.510899234291 -18.4097768662313 -17.3534703936217 0 0
139.850358459651 -22.4965928930286 -5.41632983548154 0 0
112.036667575783 -8.1160846277653 -20.1445061016923 0 0
-174.073278757915 31.0965440016775 6.69870059063654 0 0
-131.99884561055 15.8135830098644 14.1898153273611 0 0
-151.342149729272 -5.8864059529128 -6.60407407028888 0 0
188.229314986035 -38.5243382341542 17.0926460972538 0 0
-117.986821616606 14.6823279238942 12.7286190935072 0 0
102.605035807594 -2.0320839685303 -21.9214603095245 0 0
-210.210137940593 -11.7981642935457 -15.2872989701632 0 0
-79.4007422002521 14.0038040766948 4.49647757579529 0 0
159.980963867291 6.49253829450396 11.9432014139517 0 0
187.978893858719 17.2269744179731 -25.6359223423472 0 0
163.716735272473 -29.3394586633185 -1.44968685554646 0 0
-32.436854375609 3.41058952439263 6.98694408193239 0 0
188.903212314366 -38.3422273521307 13.8843507255595 0 0
-154.51606009712 -9.09721657877648 -1.37044963651074 0 0
-144.593277040053 -1.55728310402531 -9.1372163297196 0 0
-214.975115758114 14.0426564573825 19.512526513287 0 0
-173.641212461836 15.0058521840285 -9.5927167177435 0 0
-191.600779671042 28.36721635632 17.2739117524253 0 0
175.476663038801 -19.3854230851513 24.0969668052185 0 0
-217.859452800819 -28.1063688235739 -20.4392747958342 0 0
-186.410149540503 0.361562823519878 14.1655643803148 0 0
102.891950298124 -17.7033659947504 -4.85030549751365 0 0
-159.939029365404 25.2025228808585 -0.00152451682610708 0 0
183.300174591117 -36.1722241796492 23.2743532347627 0 0
181.719173576602 21.7577597566147 -27.537555046962 0 0
209.459693862512 -28.9274788866118 26.5534808254417 0 0
-215.728847911888 11.4527783726405 8.06262226550129 0 0
-60.0018953863424 4.85608663493153 7.88293089162736 0 0
196.589931146884 -15.1000468523177 -18.5128536138508 0 0
-190.134100445645 16.9819453790025 -13.0566798048086 0 0
132.246462255064 -1.02856291551136 6.5656639941307 0 0
36.0265078728533 10.2552686359882 -17.0080227732623 0 0
181.820700653915 37.9727759537368 9.0707979103356 0 0
-198.259962221998 -1.45873650562077 11.2645277438131 0 0
-0.290295263202056 -6.14044638880158 0.614723148203963 0 0
173.814721960709 -0.711015008039523 16.8285190198883 0 0
-224.889082512341 -14.3488079698741 4.65875353233446 0 0
-219.534042993339 -33.0640258147996 -18.8817415346261 0 0
161.124404890677 -8.01220625447852 11.139021525944 0 0
213.404875222563 -29.1038764125383 14.0123002774519 0 0
182.294513498397 -36.6162477876102 -1.05439100972087 0 0
-207.5725843631 -20.1090913491634 19.5172529483765 0 0
145.271234250746 -5.56238458849405 -19.9965002453264 0 0
-64.034794798685 9.40504523004688 -17.6341676246931 0 0
-140.470217007121 12.9670791098107 16.1716604730222 0 0
106.686210138334 0.844638468234993 -22.2864970608766 0 0
-180.895730505357 1.61600547540015 16.1937765269853 0 0
-91.4217059398096 1.66583212685378 8.75592320239847 0 0
14.938650344521 12.8844773306861 -13.4571963836778 0 0
-191.936611431251 22.8239806916765 -13.3097115499836 0 0
91.4849644866397 -6.48473000955532 -20.8143620796957 0 0
132.697653822451 -5.99555420529832 -20.6150364828027 0 0
69.5639646554231 -2.35833913126563 -21.7448969099017 0 0
191.579129022353 35.7266729868186 8.00998374220447 0 0
13.879840073816 -11.2685275458088 -6.80303369964443 0 0
-179.667683136101 10.7282349229904 -11.1781010825501 0 0
178.85376190782 -33.8862002945814 -4.05794642069945 0 0
177.071710434792 0.820847883618775 17.3361876343617 0 0
-213.002450354408 25.7378165157766 -2.70889648852587 0 0
-188.213637939727 11.8448093220156 24.406316921636 0 0
188.565849149426 -1.41035612552143 12.6923598201757 0 0
-92.3704705266582 -1.97025107270146 7.25444922530428 0 0
200.591314375768 -7.66024864053812 10.3586127646021 0 0
165.746488858176 -30.1325273011892 6.48317340451873 0 0
32.5416257382783 11.8925136317485 -4.3746014887775 0 0
-201.358709441497 -47.4261793371101 -6.79216427251663 0 0
60.8859480339112 9.96506308327947 1.31093959318884 0 0
-42.8194405395113 -9.8151610412364 -7.77921414227771 0 0
45.7741117977029 -6.32636656126779 2.47463732080477 0 0
200.608986309325 10.5343267671446 11.1563327065457 0 0
-203.81804755845 -10.2274506079034 -13.965063412687 0 0
79.9364059003819 10.0067092581845 -18.0727618199286 0 0
-205.358233753757 25.2771600373078 -9.45357534568912 0 0
113.677354446933 11.8148382274132 -18.6920794153964 0 0
39.4659001674906 10.5363530720046 -16.6377860701151 0 0
-168.613483177887 -5.37052346027247 -8.42429119736611 0 0
-104.672199251671 4.98576718852683 10.7441027643243 0 0
212.835992620632 -29.4916348661858 16.2965872918527 0 0
-190.037954377047 31.5885512372508 -6.53635680084043 0 0
-29.9745435966585 -4.45311747677244 -20.0011344094095 0 0
129.777588656336 18.8193171190677 5.17710294056008 0 0
177.983664755015 9.63709534387803 26.6555863743208 0 0
-178.366490828744 19.6086009068702 22.7360868370577 0 0
-193.234630203722 33.1189336024347 10.387688553403 0 0
140.870456865003 -19.7905764837277 3.31026000601569 0 0
191.924593742411 35.060779791405 13.0430299954394 0 0
197.108407423419 -30.4606937624593 -3.41854271646877 0 0
-203.900809652062 -9.34152273446464 12.2414691693977 0 0
-46.5936206463367 14.9241268426228 -11.4652466848244 0 0
-206.063438630899 18.8536814804004 -14.3145127047196 0 0
141.111641699369 -21.3407941046976 -9.59965911433769 0 0
151.85136515581 20.6043230607843 -13.2776481104403 0 0
-162.224500018659 3.63635325583294 -8.11618570759766 0 0
-24.1875100255944 -11.5862603665963 -13.2361987746767 0 0
-167.010231230734 -4.59234423919414 19.1820056755665 0 0
6.07564315344136 10.9947685252676 -16.7383213078692 0 0
-108.257900096975 6.03645226947354 -14.5474108222521 0 0
-205.230174465339 10.7714549104424 1.97733379653031 0 0
-107.168996940994 17.4063336156994 8.44004939671636 0 0
194.902865480775 11.2657069383785 24.6575579613759 0 0
-198.677833927388 -30.7528256131284 -18.9573796702523 0 0
87.0963019019425 1.85604997286827 5.84435653423209 0 0
179.136685138851 -28.4614341097315 28.0604947035039 0 0
202.508583160386 -8.43473172463848 11.5020255034882 0 0
120.025027001113 9.77435170403673 7.92030478619696 0 0
-11.8447361816672 -9.44495804278901 -17.8156714985854 0 0
-160.927292931445 9.11130033054204 -8.35879558735938 0 0
-230.386665464848 -33.6396069702666 -3.78830306503996 0 0
-166.098037261778 -9.7817807287104 12.3320046465829 0 0
203.21663894998 28.8609546395718 14.7672129488931 0 0
209.980214387683 -9.87302638667177 0.36232674752764 0 0
-201.634455757674 12.3637240751132 19.6071276729748 0 0
186.682619919205 10.4776902867516 -22.652412674758 0 0
-149.517749246334 -8.77891568078288 1.52718178288273 0 0
165.985489937457 35.1765337527858 10.1932546158547 0 0
89.1323116328338 14.2313255713974 -11.9019649800222 0 0
-80.7815519455846 -5.92867701633592 -13.7045915805712 0 0
171.397739412721 -27.8434427139243 15.1212252724897 0 0
208.83020854699 -32.8027727081456 18.7915346660501 0 0
14.6829633076426 -11.7579456523123 -16.9502201230237 0 0
-43.9852074404528 -7.66072739995559 -2.28129618986506 0 0
-213.711876431046 -8.30064673808116 -8.29022795487641 0 0
-98.7984810903556 7.09945335018945 10.9377952526041 0 0
174.026286709235 22.779004364224 32.9133303865258 0 0
122.466128207683 17.7728073960388 2.97363151284247 0 0
-176.040544540221 -12.6191994157288 8.69735316165373 0 0
-92.0045206512176 12.3421326259937 -14.1191577683854 0 0
197.862627252051 8.76873357100105 15.7458477226164 0 0
194.762769437878 34.8801163887669 12.2165021302269 0 0
-57.5951834359313 -6.07283486822689 0.1383412817388 0 0
-192.514168224613 6.80560345688243 13.3872704045551 0 0
161.090336922421 29.552719729706 4.4497327664447 0 0
-135.502300978301 -3.59493299122932 11.2078085003807 0 0
-55.4972120712656 15.9703250059921 -8.51740970586175 0 0
53.8671735505682 -12.7115320120332 -5.0499319944541 0 0
-153.547098564347 12.6541334062888 18.2089124520598 0 0
163.867016142367 -7.52743850585382 11.9263277477982 0 0
-148.851396379337 -9.34026274689129 8.47784985681335 0 0
155.823638046562 -13.7090446083358 11.8070407408765 0 0
-85.8646772750439 13.6107157611815 -13.5057888573209 0 0
151.801270679572 -1.97710025979467 9.08129827691208 0 0
-136.938263214655 -6.32675550308462 6.08763229487498 0 0
-213.466585957414 -15.5716795029662 -18.3642183802182 0 0
-155.35361726662 9.63932144697247 -8.92402163503396 0 0
-168.006015225911 1.159555616142 21.4958177154008 0 0
183.860886173073 10.7049086070106 -23.3963524691963 0 0
113.307758600052 14.1433540797259 -15.6267039795528 0 0
196.905975400243 -13.4191973547734 31.5061507518529 0 0
-75.1545528003855 16.4166237556281 -9.40596674980344 0 0
54.0586651914975 -11.0278649119328 -2.81502500964096 0 0
117.553216100043 -1.53938321814152 -21.9542069112402 0 0
176.063809163207 -15.1940098598793 21.1651795909498 0 0
181.729899240676 -33.0963937680101 24.5792543302827 0 0
-164.335481761111 22.9151429667553 15.9879951844091 0 0
48.2599370154854 -6.59989092333871 2.13197103215638 0 0
-198.572857486125 11.8815959536979 -14.8155600049664 0 0
-203.152961795606 17.2819065007688 22.0519601916414 0 0
-154.807918175469 -9.33913119048375 6.54340856977232 0 0
198.898676873194 -27.1769727477698 34.8850248104862 0 0
-204.27200496084 15.0514422610119 8.5972776124571 0 0
-177.070156288205 36.2526049737536 3.0150976761612 0 0
133.811640580791 -15.5906891189102 3.99910611660633 0 0
-116.872524586912 18.2757478593095 8.79255946225303 0 0
38.0957004083798 -7.24848814934491 1.10364805659933 0 0
196.342104483921 -19.1574487387264 -14.4939915711006 0 0
202.472657814685 -30.5135555645415 32.9451673173856 0 0
-200.688554810872 31.4551378128532 -4.91692709245969 0 0
196.362356236368 17.7856981088645 27.6040972462566 0 0
113.775907779844 15.6638304451978 4.57717023501099 0 0
-199.803206714313 -47.8031801670211 0.481276398215467 0 0
-0.919624528458353 1.53324895287382 -21.0939568046061 0 0
-220.571525656023 -11.7280013789205 -4.88256967095167 0 0
10.8993033813759 11.8512914191479 -15.5092884764096 0 0
181.644788822005 29.6880014210037 -11.3704658509737 0 0
80.2825442499139 6.00986842972043 6.6665526710756 0 0
199.761692351507 7.00773607863139 -7.72072455086265 0 0
97.5340034834698 -4.92523438089571 3.9902407710804 0 0
65.8416708840367 2.21856662035363 5.93184703352068 0 0
-152.476438118178 5.67228089157222 19.3118754723198 0 0
-173.622787797073 30.1358319343129 -2.19928010061142 0 0
2.20622335144841 2.728737488576 6.93462461617307 0 0
-92.955161001777 -7.98611722050806 -6.19432960329228 0 0
-71.2994447634106 11.292464418472 -16.1814030500637 0 0
-107.731945782636 -1.38882984512152 -13.6609171702899 0 0
-185.393376133186 5.03244792757861 -12.4831133557169 0 0
-36.8904572079197 -9.88519137180834 -7.44573248486544 0 0
167.922304028205 -17.8467034927253 -16.4522916194157 0 0
-10.5863310749602 14.0069347344737 -10.732303765112 0 0
142.780551867254 15.3320990990489 -19.0683833435586 0 0
-194.7014320136 9.56581490297995 16.6317613313391 0 0
201.180709162007 29.7213591722986 -1.67772940611501 0 0
167.846338189745 25.9804819429029 26.1682971345965 0 0
-200.211952378875 9.91039303732336 6.88387525607221 0 0
171.048207144855 3.8189350087683 16.3605117064216 0 0
-223.826656014197 -44.8674804861245 2.86737441633207 0 0
-178.591925675134 7.62507107868266 22.4344865290496 0 0
-145.511517817803 22.8928076618902 6.20078925085554 0 0
-86.6996262371049 0.766539560174399 8.32966469240596 0 0
-103.441983658683 -0.215104146375314 8.6904011349208 0 0
170.184541197267 13.7175379075971 26.9078575908528 0 0
-191.126244987407 32.1012810691932 11.7685234904069 0 0
173.681528923967 -19.6376814303997 18.8801475668666 0 0
-217.52981939711 -46.7269719538897 -8.42207858414881 0 0
156.99214658202 24.5665000765815 13.5457495712479 0 0
-171.242878543028 20.2141848448979 20.2099069287608 0 0
67.1962988603618 11.9858227826693 -14.8098235405506 0 0
198.307554850604 -32.8055501349939 33.2094055774277 0 0
-194.553618336566 -28.1542370756124 -16.0380371509789 0 0
42.1291701756577 1.52048201032234 6.20441620152107 0 0
-112.901778795221 2.70982880455787 10.9718416429701 0 0
-170.458343901769 -10.7648859040706 -5.70355283125649 0 0
159.961519138747 -8.05694869539557 11.5430952098682 0 0
179.594161300564 30.11309723123 -10.1588120008975 0 0
-195.965907430483 30.5314057096967 -6.37903434247945 0 0
161.892011390855 3.48464630928053 12.1002357444106 0 0
-19.628196910851 -6.7895399508557 -0.810118570536727 0 0
171.525141998807 9.92815773938514 -21.1348662933204 0 0
-200.560019601147 12.7406173825826 -14.8152367886557 0 0
29.6836740032687 -7.81405591591967 -20.1712701724017 0 0
-193.361163327279 -38.1929839918905 9.42496823811654 0 0
77.1782073181997 1.43908843713815 5.54391297522536 0 0
-53.0966616738031 7.26134433607046 5.98235624941763 0 0
-199.310222005606 23.8919104792491 -12.8847202525027 0 0
180.542905185932 -21.0511754804143 -16.9302830758932 0 0
-133.009054714475 13.7143898781102 15.7359956029481 0 0
206.081602363034 -32.2196359177834 13.5744407175398 0 0
-8.86423225817525 4.8555664698034 4.85269067859477 0 0
-224.765948645309 -16.721280012384 10.6865108232492 0 0
181.536882814813 34.7233829676115 0.824289884283778 0 0
109.417961425307 3.27071874628068 -22.2985622762181 0 0
-102.033632465777 18.0515674245306 -3.46016159353917 0 0
-91.310708900527 -2.6191351926584 6.15896509217178 0 0
-149.064743542355 20.9498856928648 14.4508390856873 0 0
32.7454799175095 10.0037728856191 -17.3255604318458 0 0
118.776753671102 -16.1318245809706 0.291219416193427 0 0
44.7142493806782 12.9339375741194 -11.1716953127367 0 0
211.768827776778 -12.3207001691627 4.94962004956783 0 0
145.649066311233 19.4150475562538 -13.1669010436948 0 0
-25.8578691657702 7.96872168146444 -19.561160795586 0 0
118.734493931329 -19.7056045166289 -5.89969640315455 0 0
59.5949461312077 -13.5329620826567 -17.0906748710082 0 0
-66.5019277051613 16.2536682134517 -10.5841723309622 0 0
172.46313877159 -31.7449601896314 14.9927996132722 0 0
194.693262703317 36.6425569874563 26.3582303409258 0 0
-191.041420411554 12.7372153930283 -14.157150623231 0 0
-20.6881006146061 12.3478814591702 -16.0818174413609 0 0
-213.673194573662 9.81218586950155 16.9782477030592 0 0
-187.82139277484 4.86131102979694 16.6886808863311 0 0
-163.62787068458 2.2602097361818 22.3801104248696 0 0
197.394765316431 -8.80596349145097 13.0768231325174 0 0
-222.034702840462 -15.0481335636378 8.79211272428025 0 0
-196.041263344748 34.8382313839864 -1.72297409317372 0 0
199.105690913885 5.45419039115216 6.64575107702729 0 0
155.105758569307 21.0071794322647 14.3149826192765 0 0
-131.338137366183 5.59029449170985 14.3876009999149 0 0
111.316308615076 4.88768711558168 -22.1390954037618 0 0
-63.392789961886 1.30558469149672 -19.080084014511 0 0
-27.8242060981311 2.72352892354604 7.2272271482291 0 0
-219.570247322148 -34.1678009110027 17.4196188000014 0 0
172.318182455252 7.01230518358749 -19.9507691008616 0 0
164.102202561165 -16.1157529938459 -16.7731168800133 0 0
-10.1111527278332 11.6401415124511 -16.3902102565811 0 0
186.811257699765 -11.8351483142371 -19.645593418549 0 0
175.560825703255 -38.3081736138236 11.4357187380479 0 0
-136.836138035149 19.4617386652113 11.6599652181283 0 0
-115.46488308045 10.7536250207601 14.4481143415629 0 0
178.755485388695 7.1620998641591 21.7640183629583 0 0
148.282053321484 3.80050781072372 -21.271335995915 0 0
155.668086741271 20.8905086095276 -14.9051412850327 0 0
209.541452626893 -21.973623896733 25.4740885721868 0 0
150.283303290202 -12.757125980737 -17.587037388041 0 0
-197.204410976481 -19.9736341885949 -15.4006221226705 0 0
157.468514503686 1.87363439186398 10.6326259969568 0 0
138.7403006803 5.04676511765263 7.94708245204673 0 0
-188.701205905064 30.5292501432542 -8.03936595401138 0 0
28.574625932927 -10.5406242121557 -4.63335937600367 0 0
