"x" "y" "z" "f" "a"
195.098073960254 -7.52247392612653 -7.92562604791125 0 0
20.4506517820824 -4.16061505787215 0.87302850200873 0 0
-210.206638668413 8.61717032579074 -21.6405599872898 0 0
45.5164752212487 -10.4485855940602 15.8248016129181 0 0
-20.1642418160805 0.867256851333124 -4.70062395282129 0 0
100.442157752086 -3.24583298577689 -3.28175101259881 0 0
0.611993898317133 2.28956446612241 -5.60126900080926 0 0
-13.5111710591123 -1.93672506446271 -2.01456130431445 0 0
-126.799665444258 16.2502855920492 6.59626417999172 0 0
-205.676295811355 22.5755681043549 -14.1040754817699 0 0
-46.3193255340738 16.8412536494227 9.73536903511343 0 0
146.662898742713 20.6446456290793 5.07880098059325 0 0
-197.629153432306 -19.790037484866 -9.69942131039035 0 0
-197.300390676631 7.55917910531043 10.0847630994286 0 0
-170.077209680177 -4.40185894140842 -22.2490161868299 0 0
-208.462926416706 3.2803379870884 -17.2295916945289 0 0
170.240262225688 25.8972869036927 12.7867258554522 0 0
188.745405415878 -8.28010774908631 -22.65532541602 0 0
179.259111039465 -31.1430126379465 3.69649740786677 0 0
166.514749967137 5.84430762973847 20.3834661896944 0 0
174.775497574179 -9.19439835602084 -24.2887323523193 0 0
3.75200850226556 5.87071253166112 23.281165112645 0 0
-195.768160582536 -30.0197481998276 -8.71025704588931 0 0
43.3910904318983 2.65909466440517 23.4546898710903 0 0
174.233751864203 -20.8050253259213 16.191779902292 0 0
181.057340624425 31.6991096173396 -26.9331044634785 0 0
-100.141739393322 17.5395246118134 -1.74408583156425 0 0
-178.753101833403 -14.0997493530817 -9.11985821258229 0 0
-169.137167395293 14.5455485628035 4.39605591078862 0 0
-228.894623040127 -25.9079667569902 0.596190388632923 0 0
-146.631624524754 -7.77594648673093 -8.77079169800626 0 0
96.377135338268 12.0798408970617 18.3708992527679 0 0
-103.543810121634 6.96169232789272 14.6559698712921 0 0
106.221901346033 -13.5488301600862 1.79849730218155 0 0
-176.356397454672 -3.24351519052453 -18.054099415166 0 0
-141.150430966279 -6.03725978101399 7.63320949400064 0 0
-102.818002560051 -1.77605065412063 12.2355461096541 0 0
-119.826281145548 18.4621697662749 1.96761505559898 0 0
-66.3000956221203 -5.86377318159786 11.208451615888 0 0
155.721464054408 19.9743669707816 15.1634751494664 0 0
-187.424120519602 29.7665373194906 -9.95232078402988 0 0
194.371022585486 -30.102783769782 -9.23467908558047 0 0
194.387379293005 -15.1618730283476 11.5895215584931 0 0
-85.6669929331123 1.89799700255768 16.9443079066444 0 0
153.726170391881 -24.0741503478709 -10.0783546699416 0 0
-183.934692945259 10.1684253792467 8.10267185908365 0 0
-208.31197053746 -18.6361439322137 -15.2423329414216 0 0
-127.099775071316 -6.31518761248691 -4.3733019554147 0 0
-128.201832097956 -7.2595382061264 5.5519205520317 0 0
188.369098112125 29.1226958860449 -6.43413139531714 0 0
-217.238017616057 -6.07732724364824 10.2819241913506 0 0
-151.067911014578 7.97696100484864 -17.5288300119056 0 0
-202.543085615511 -4.9799147967174 14.3417755540989 0 0
70.2518527643103 4.02492419527824 22.9517366683899 0 0
-224.809981931482 -12.3711910940763 9.11524164789266 0 0
121.369601274033 -19.751783302457 5.94816630297913 0 0
144.300366841728 -20.7088137641534 -5.53752421645499 0 0
184.782921613379 -25.8800515267101 8.78857939277685 0 0
193.950139687272 -29.8003235170869 -5.60738474033395 0 0
106.661113068002 12.3299986146954 -4.87310432339316 0 0
121.442358484921 -17.129159314481 13.9485435834649 0 0
-111.990082856303 9.97145113996479 12.750029217963 0 0
-57.2741122123211 0.0622508966784582 -4.92325093899785 0 0
182.766669065044 -8.18783597061389 -29.0072587017757 0 0
-63.9426219607356 -6.42626356084068 5.95187514127945 0 0
-221.055316955847 -9.09198935791734 10.6363412598285 0 0
-4.32313708046591 7.18870628140116 -0.082999771211904 0 0
197.565534510077 -21.7171787308771 3.33393232252939 0 0
192.066765580162 9.62452927177715 -3.37112876315137 0 0
-200.325490436218 -17.5198417032142 -11.4470981729364 0 0
-183.368199639933 -3.73827252658752 -15.46960365525 0 0
130.144699725161 -13.8329581600373 16.7144635989987 0 0
170.158508981894 -14.5512417508468 -29.726960309022 0 0
-158.835138333338 10.5662029764312 5.5751699019977 0 0
165.711700602071 27.407260269777 -23.0827044092993 0 0
-216.422914478493 -8.34822558948837 0.543536363508825 0 0
-222.890966959212 -33.1867745890814 -7.17020388228755 0 0
-150.745695079161 9.95998472952872 -17.5214456169015 0 0
-222.854957184139 -12.3760102516394 12.9978352043429 0 0
-68.8984782126958 -5.27908230859882 1.26728674114302 0 0
-149.606675300189 1.47466505171772 -17.5259894804716 0 0
189.122009529329 0.940748733043619 5.53599223396047 0 0
166.75524831237 -22.0487333531317 14.7224220472845 0 0
-42.5219331661938 16.0197204807773 7.87664029893308 0 0
137.942798497711 5.28660498924488 20.0925893318736 0 0
199.389716878299 -16.4694792198773 -17.5371156626112 0 0
124.848234711313 14.0067156743794 17.7556378453973 0 0
-205.675339712701 19.6848449391404 -20.5372064228117 0 0
149.968634650588 -18.3341473933702 -10.1455466502825 0 0
-172.822379209169 -15.3499020972356 -7.94818475565474 0 0
129.429892863472 -20.4212598646171 2.03476716629946 0 0
-201.876728749311 23.9183396800517 -18.16192689875 0 0
-216.306009132868 -40.3509435030223 5.26016182055624 0 0
-211.304391263449 -2.7184396908743 4.9095268285024 0 0
-179.678924599298 9.53193326380154 7.47900888525339 0 0
159.331817124706 27.552657650533 -16.0116199284176 0 0
26.8249647553472 14.6223250369283 11.2925749885459 0 0
154.356972435477 -17.1554264091996 -13.4518769268042 0 0
194.164983086508 -5.98369896082876 -3.50462003472737 0 0
-195.999770524974 3.88452428199542 -22.2525229223653 0 0
-58.4799511010256 10.0089789835813 20.1662113204597 0 0
141.700215552977 20.5581418226772 -1.2255270260965 0 0
151.13765424607 -10.1198648524426 -12.4819440295451 0 0
-207.59751918286 17.848331095281 -17.8717254532897 0 0
193.536463450674 19.6422565074403 -0.707590887448185 0 0
145.287523013975 20.6175724861463 2.73432167964697 0 0
176.384303471482 9.72525453410714 -24.5279311897116 0 0
-73.5796087346209 -5.51557143778383 11.3850087328309 0 0
198.651153020815 -25.1752908446387 0.274654600356739 0 0
-196.819321253423 25.9309740478228 -5.28700120498699 0 0
73.5062443768218 -11.6350728625635 16.7372307232294 0 0
148.519004481771 20.312342218774 -11.3960800168835 0 0
69.7979013046219 -8.55834138586741 3.73453836006035 0 0
181.580073092571 0.553940995368632 -11.3190533206883 0 0
-123.497703350952 12.3565491987757 10.1250301456105 0 0
190.455256824779 11.1116631230971 -15.5298506105664 0 0
-139.736541102375 10.4620660066044 -16.0142421719992 0 0
-135.806487573468 6.95658093936946 9.23865646813838 0 0
-165.880174784381 -12.5127836171353 0.257578204230872 0 0
119.383079945707 -2.51405551194956 -5.25012544081655 0 0
-174.961248178973 -14.6887145949905 -8.9306348409936 0 0
97.5147254839674 -5.84995132120617 -1.72302444990041 0 0
-2.53148545000871 9.49877878400881 22.2442400921356 0 0
33.3024126930436 6.80359924076182 22.8549471615799 0 0
-108.15757987665 18.0013639027954 -1.98162383202827 0 0
165.846851168487 22.3334807428194 18.2473930804564 0 0
85.8734183312136 -1.921738047763 -2.79792808669372 0 0
193.831822563394 -9.7066346313548 8.17746872839462 0 0
67.9379482387467 -5.71280136382803 20.7441884831996 0 0
-79.4442626784919 9.96327167867968 18.009939018437 0 0
-197.882244234205 15.1177497755512 9.49127632830597 0 0
-124.34217862328 -6.61904546342972 6.42048054880866 0 0
179.42643577104 5.18297923168925 -15.6548211245329 0 0
187.889790399755 -29.6619039040097 -33.9955338237117 0 0
-222.412088408766 -38.4494150011506 7.30255980885422 0 0
-175.163424603999 27.0231704563783 -0.739428930623169 0 0
176.623954156643 -33.8652145130083 -22.5535113287469 0 0
125.724080310928 -15.705421379611 -2.16193479019973 0 0
-66.9566199038141 15.2238682927726 1.28586230030817 0 0
151.495088474708 -0.583543651153287 17.1689940721607 0 0
191.075644137034 -8.14525532227988 -15.0109679850388 0 0
-39.0828350007888 8.08832201328682 21.9581369349714 0 0
-135.645759386915 16.6868923002708 -11.0221708535327 0 0
176.961332745575 12.6086577728853 -28.9557445007199 0 0
126.97521332326 -0.92271668427365 -6.16844675978839 0 0
198.85524038885 -29.4394237897895 -20.7982759016375 0 0
146.423473785176 -20.4653384882022 -6.67892962985192 0 0
-171.14640586015 24.5718643221588 -5.28497522297231 0 0
-47.0835730077587 -6.56703135004644 6.59382404625949 0 0
-62.6246964391136 1.00192030406983 -5.27926221147863 0 0
-99.4920379371642 16.069280491973 11.3170412547809 0 0
-180.758194670276 -17.5674403454413 -4.81680524513906 0 0
130.4961387908 0.0637866858867659 -6.62145404843448 0 0
-192.890133589627 15.9613405501306 8.1820075333108 0 0
159.940246023563 7.74414621747118 -13.7455553340984 0 0
-171.623471711004 2.15476247830955 -22.9680033475372 0 0
144.69351510956 16.4460977742652 16.6633594903199 0 0
-131.179529057561 1.91312578457548 -12.9693616907505 0 0
-48.502389802168 -5.7584213405754 13.7886019869935 0 0
-133.77048061051 -1.62540632950306 9.31396873712752 0 0
191.452585491344 24.0947706843519 -21.1965156030821 0 0
-207.778978459216 16.7559929752826 -22.5857206782723 0 0
195.322329469685 -9.21257400863796 -15.772511388932 0 0
198.588565611663 -21.6669434874129 1.52433126645611 0 0
190.463834897137 21.0905089583555 -22.9862259458709 0 0
-199.467096860444 0.988973641836566 -7.01429852716011 0 0
-47.8419308868484 1.58293154350715 21.443469012296 0 0
140.684980239297 -22.7585374955352 6.41686621203341 0 0
-184.110029629109 -1.02114259684004 -19.5445958213416 0 0
-56.801008159196 -5.27612003705741 2.4354274022792 0 0
178.899183539856 30.4501244738137 -0.0497396909056381 0 0
44.5712222846874 -6.64189571450441 3.66244241355399 0 0
189.30899872815 -16.6721144291199 15.2559244916156 0 0
140.296540591559 -8.23092750607423 -8.26453889720629 0 0
-181.635443342268 -6.71060290132809 9.93548061098435 0 0
84.5331421511662 9.75199412552264 -3.62430107144459 0 0
170.790181256706 -3.90592427163409 -17.971254331897 0 0
148.146004862045 -1.35396565458714 -9.29141531194452 0 0
-154.50801126114 -2.58282443359232 -19.8049205996724 0 0
-209.715021612961 16.1282558603837 -6.41074722889924 0 0
-163.800833349952 -6.65143953976451 8.89629933344027 0 0
-50.8233633849834 12.8137682058916 19.3113468574778 0 0
-136.49342791587 -5.55448223220523 8.11026264536534 0 0
10.4945564109115 0.88670200439711 23.2259078795189 0 0
49.8420633751325 -3.84976509319664 -0.183759696813932 0 0
-201.632908165429 -14.1679626440125 -11.6442598846683 0 0
-14.5777153112722 -7.89689459482243 10.8678632162909 0 0
-205.214739839144 2.20299259122621 7.27227186710553 0 0
-129.357104376379 7.98022499382855 9.99404429352309 0 0
-185.212157002921 -16.3037799073627 -7.79607328561995 0 0
179.646676363093 -1.03920481621076 15.0582109681951 0 0
10.7956464878547 15.1975868608019 15.7148836369008 0 0
109.334559510765 -0.644114526607499 20.9889642335843 0 0
175.442739501585 30.4903741289996 -25.2263500513881 0 0
168.532013071556 -14.8497881049694 -27.9465998065994 0 0
200.62521221253 -27.2255702530361 -17.7641488028985 0 0
-220.402159415873 -39.3738176657944 8.9884126910994 0 0
-48.4079047955464 16.6570702080993 8.45370357795522 0 0
179.93050270958 33.8474763786193 -11.0669729630376 0 0
-29.5416308516674 -2.39040655562464 21.0017798280547 0 0
163.82238182568 25.0377766006755 11.3868125087566 0 0
-159.510119666533 -5.07839357356388 8.25708788016869 0 0
-108.798833693594 0.696776734188586 12.7974872906182 0 0
183.847130295861 -15.7424539660485 17.9930727618186 0 0
-216.696444861742 -15.5333922293855 -12.8409722012101 0 0
-162.410578655672 9.23499715537881 -19.9859900646731 0 0
13.6771489294169 -9.21871182757895 12.2830154109033 0 0
-0.379324400620966 0.164981583323286 -4.61660616194197 0 0
163.816722851707 15.1372284868134 22.476253122768 0 0
120.327273448082 8.3511962439915 -6.40592227918511 0 0
93.6888652226876 1.54039093948526 21.9576704346715 0 0
189.047253952612 31.7360060269216 -18.3251679014459 0 0
-107.108499753504 11.1553072706088 13.2975923431069 0 0
188.75787564433 28.0620442536983 -2.8386774319262 0 0
-204.620530459811 15.6586139160474 4.45916660408465 0 0
-206.796720888392 0.581465976821041 0.247450456748385 0 0
175.495116591991 3.26432737328312 18.1021044398511 0 0
-201.791588107258 9.73828933357607 -8.57207946063144 0 0
167.603960640699 -5.92435858927957 15.3134802329573 0 0
139.214952912523 18.28223174833 11.4567361157242 0 0
131.518301921601 -17.9975354344613 -2.64456722607239 0 0
175.834799033955 -13.1851066201717 18.3158774682643 0 0
174.564983128702 -16.3061068912974 17.2914786299243 0 0
123.850823895991 -6.15708215450098 19.1256346871288 0 0
98.373144952584 -12.3910505043625 17.0838218858739 0 0
162.305704817911 24.0647377594547 12.3578225627027 0 0
191.182403431192 11.5983065834131 -12.7555545252825 0 0
200.316980650228 -23.0363736181872 -18.7796652893987 0 0
-10.6035941806446 10.7384066890036 3.67046060004104 0 0
114.203945289011 11.6605250015104 19.4766562208918 0 0
-130.680917841417 14.5488495359457 -13.2630153327452 0 0
168.257061503395 3.0482321570434 19.4972933668368 0 0
-201.982964276233 12.181509825803 -24.3289127838995 0 0
-206.870635613983 22.276480895341 -12.5126044269399 0 0
174.136423467364 -7.70230201691108 17.4467967857007 0 0
-130.971254680467 9.37797049461967 -14.890675458177 0 0
-170.332983085982 -8.34384938203027 -20.0197108275883 0 0
-189.345562545051 -14.5180963988938 10.428862820871 0 0
125.813205071093 17.6669744096323 8.57430216777648 0 0
133.65875192037 -2.4583239551496 -6.96213595179938 0 0
-142.542334704811 11.6393911346939 7.33524531603363 0 0
17.9918295093891 -6.95635609036703 5.73592373224532 0 0
181.998228040289 -25.9339169540314 -35.6374321700866 0 0
86.6469543761301 9.19868877487292 -4.82541348409611 0 0
91.8396209805716 14.8933048433188 3.38263086488497 0 0
-29.26910892054 15.2326830394001 8.19885584277503 0 0
113.775940729581 2.85667665248749 21.2254265186728 0 0
-146.036378898992 12.7681091822652 -17.2712746597726 0 0
-211.040936724773 -41.0552507558559 4.53273385826825 0 0
161.955746817646 16.2710837821588 -22.6114107807254 0 0
-154.477336994331 19.8874151938684 -9.28658899000392 0 0
189.358824095043 -8.34013608033171 -15.2460487654814 0 0
-140.886602586165 6.06939243222095 -15.4262575149479 0 0
-43.5950996019106 -4.04334255571643 0.409831573637113 0 0
-69.1081556081564 10.5822723267822 18.9882128714302 0 0
-146.717139861754 19.5854089530031 -3.49716615844411 0 0
137.057749732334 -19.8394309819361 11.6046101519679 0 0
151.500909204111 -7.63586651117572 -10.3296580150068 0 0
44.8710757619332 11.9643692141521 5.08839007434096 0 0
-11.8243128542243 -1.62438849557827 22.2512979448149 0 0
55.0379226224966 12.0375257244056 19.0259472962021 0 0
-30.0252285734001 0.67819422622221 -4.675229973121 0 0
-129.555956259856 18.2296987922895 2.0769475335648 0 0
190.731819851434 0.572692471937043 -2.25438381950541 0 0
-23.0885638350367 14.8228892295781 18.610813565578 0 0
21.6755907024339 14.9350869549695 12.1947230296661 0 0
-137.945907082862 9.9711625079283 8.42253394218386 0 0
180.924326348373 16.5679560068749 21.4572348021333 0 0
-179.834700990127 25.5777168613926 -17.0363386153904 0 0
-116.999035687357 12.0754650747395 11.3746555999137 0 0
-129.57037369731 -6.27419896565771 7.15831365290193 0 0
-183.043007649621 -3.72810934702049 9.4430818508997 0 0
11.6990301832433 13.6443136731037 18.958678699645 0 0
-114.987099221674 18.4622802053177 1.78746116353096 0 0
149.440368255366 -6.5370391004492 -10.0224449111585 0 0
180.261665164536 23.8330546660207 14.7063470081119 0 0
-210.316467985469 -33.6616238739449 20.5405215347247 0 0
159.283196760644 -2.58572495193218 16.0081882214741 0 0
165.385160491187 5.06676592168558 19.5927260860581 0 0
138.28405107337 -22.1778359816889 7.24287548969307 0 0
152.628232640362 7.29344154641423 -10.8125508530507 0 0
-110.157712827754 -2.67926614517569 10.8792799658273 0 0
-55.1059284736034 -2.23888800447842 -2.64140604097821 0 0
155.263880152743 -2.61505916018875 16.3238182000514 0 0
57.6827380768063 9.67209688038355 0.765047480503997 0 0
160.03856741436 -16.5199677378365 15.7801581247517 0 0
20.49017506904 10.6914585077641 4.36943750470774 0 0
0.0940399229201158 14.2000284453281 8.76937409978378 0 0
-189.584485688388 7.95238595947699 -25.5712911649231 0 0
-148.007173764255 13.0209362799505 -17.6536938571476 0 0
-222.57052111751 -36.5027426999968 11.4801846599734 0 0
124.126531244917 -19.9591018843675 4.49980076548221 0 0
110.511041643247 -5.83516063239884 19.8511280470091 0 0
-160.525124373903 -8.20593596302836 -22.8541633536401 0 0
189.548438224488 -27.7911185110681 2.91042844442999 0 0
69.8244628620161 -4.0232799471373 21.3738647801505 0 0
69.0565983692467 -12.7575589658453 14.2857119232757 0 0
-35.8850412375334 -7.11791008319542 11.3771230094067 0 0
-70.0132062770238 0.631315651351688 -5.1298555079878 0 0
41.6148563239278 -7.77304962283225 5.54610538257681 0 0
187.643779962205 27.0248732595154 -26.4287225727091 0 0
115.250226270917 -7.40721262617032 -3.29090847288279 0 0
8.71117476191742 0.878125781319108 -4.92900396395765 0 0
-86.3119427476834 -6.30610034781336 7.69173258228522 0 0
-166.511936554169 13.2473282688079 4.75874208661583 0 0
163.77254183052 29.0470698450108 -2.56085332119319 0 0
-141.345132722115 3.60935572167556 8.59841725501125 0 0
-189.262706173006 26.0946522327617 -1.68533222141989 0 0
-197.021912070086 -17.6187998346636 -10.1823255174373 0 0
78.9532056147298 -12.5976894051008 7.31151011009817 0 0
76.8046073714059 11.7057900854251 0.28692546359563 0 0
-195.198980102569 -36.9912144362564 5.5852661643421 0 0
-172.999159252396 4.07362281040042 7.17557764370159 0 0
-208.106395689423 -43.0483064414978 1.72967569148205 0 0
148.521614658584 -10.453222666611 -11.5108537949893 0 0
-99.5853796457563 15.2720799946182 -6.54292525066272 0 0
-210.974770803397 -41.3358256542891 10.0710106090013 0 0
-123.075228080418 2.46011100943285 11.2309675706753 0 0
176.73604626542 -34.657309820755 -3.1845430835887 0 0
-215.675765667125 -26.9337552890162 -14.3722900033086 0 0
-2.30347794862947 13.4617723216133 19.6094474719246 0 0
-25.2611682841605 3.04351463553654 22.9305866710728 0 0
108.779952915099 -10.1643818822949 18.4567876667255 0 0
184.738771563947 -7.46100601299477 -15.3197000977293 0 0
191.715138880542 28.5684771822544 -18.3946325549187 0 0
175.913744494478 33.1785576852867 -6.34674705851048 0 0
150.962631027334 -25.5955577656395 3.79411714909958 0 0
197.352979394276 -18.350702080257 2.81695129592268 0 0
161.745514919399 9.88591105302096 -15.7989698753235 0 0
-187.675200777784 23.5505814549903 1.73220308315898 0 0
-49.7682075419106 7.15667141194012 21.5467433972215 0 0
-198.08641980152 -36.6807396243249 11.84514670974 0 0
-14.0652701897756 -4.78463593785455 3.04414851075393 0 0
160.589660148483 -10.0316251462811 16.0208304908155 0 0
108.650819784427 13.2416814988771 -4.72264105869861 0 0
166.60771033559 -7.43183441589646 -16.2819288534202 0 0
-122.912377634668 0.663512624834352 -10.4714214234819 0 0
132.629363227005 -4.02031763801417 -6.8565215033135 0 0
-138.871648143098 -4.19727034283332 -11.5995013580414 0 0
-170.304114742143 13.2033968335891 -20.9185021656295 0 0
181.123946489832 -9.51343489519451 -20.1474370990539 0 0
86.7111678590379 14.6119445388426 13.8975244015168 0 0
151.898544647739 -4.32332928538845 -11.1498725175362 0 0
24.5109344170084 14.9120220416525 12.7496546488507 0 0
-209.203051765102 3.00200381010932 -18.6969049002545 0 0
152.739323002694 12.6410308109365 19.8984289582138 0 0
134.212531183487 19.642084999156 0.245134031013525 0 0
-85.6322955190467 11.8557300439618 -7.0411070015317 0 0
-168.719005227875 4.73645011550726 6.26642661806963 0 0
-176.482440159013 -0.58075474106415 9.22900406167165 0 0
48.6947110201803 2.71817809892755 -5.25840019449434 0 0
-173.416329115507 10.7674306385365 -22.5252608735117 0 0
145.335476530031 -17.0107942315231 -7.812070378001 0 0
-218.118830926092 -8.90019753594088 -5.74856355427062 0 0
157.147141635786 24.1279086590857 1.90418164267987 0 0
59.3934044945831 -3.35572639030167 -0.785052872208831 0 0
192.706313764544 13.058135298457 -3.19926728838632 0 0
156.970589519169 -18.8418903799588 -14.1188325407798 0 0
-110.602915697263 -0.582348575903441 12.0038729076135 0 0
161.670582494366 2.81359002417581 -13.5295300184502 0 0
44.0951090387756 10.2052662393674 2.84603664805576 0 0
200.653501224169 -21.8258579354564 -16.8706327775051 0 0
-77.6131353389029 -2.63695969588746 14.9286606929883 0 0
-41.2179222234141 9.86683976552608 21.2939592630746 0 0
42.8881610261864 6.21125209091375 -2.59409007878178 0 0
-199.868425891533 -39.0044735666199 10.1627197120515 0 0
-211.177677599335 -39.7501416705257 14.3493919647206 0 0
139.784304646309 2.05668483297526 19.0763519640947 0 0
28.2804446751426 -2.47643383704087 -2.46804532919831 0 0
-51.8656053970243 10.5563955306569 20.4040131932779 0 0
12.7522600461596 -8.44662489399811 16.7813959254075 0 0
83.8977609752669 -13.1045168987639 15.7901973239086 0 0
191.29859045548 -1.20482502540898 -0.930286929826251 0 0
91.6462624374277 -13.2896996401829 4.98095508197923 0 0
170.659425721337 -32.9455640850044 -24.5207026330497 0 0
155.26853274758 -20.6150029840509 12.5845399130853 0 0
-225.645601970952 -23.90820790728 -7.32768211439106 0 0
11.3882173979754 6.4292921537293 23.1310875285629 0 0
182.377970922741 8.57548221264233 -24.1091940887692 0 0
-211.233372992431 -4.84029697505316 13.2394399887722 0 0
182.73742922351 -32.3632873313374 -0.782138416505795 0 0
144.008602322322 -4.73675378798926 -8.98901704753789 0 0
26.0345960080084 12.3287833239043 6.34445291391557 0 0
-135.494421216573 -4.627777485443 8.49787195221221 0 0
173.305554256544 1.97571447496784 -17.0261292466298 0 0
96.1144034674668 2.6168849130591 21.8814282106629 0 0
189.01290446021 26.89242358803 1.29739963025371 0 0
-197.859112224539 4.21071935806393 -22.3054418309067 0 0
97.8059091686515 7.06369161573015 -5.17896139658414 0 0
-197.910571138696 10.9895852514491 9.77863180547969 0 0
172.615722894448 10.2854664610143 -26.5066991534462 0 0
187.535104207944 -25.0078530777337 8.24950577220893 0 0
152.210907648743 -13.2711785311052 16.3038190197054 0 0
163.977626227975 25.1238242930868 -25.2162482089874 0 0
-53.6307450962315 -5.33692442697219 13.9339035947762 0 0
-49.825117011074 12.2980696456071 0.861220210561005 0 0
-150.47324391319 -9.17497098914935 -12.2750787955831 0 0
117.027422416456 13.3424809072305 -6.36078498535867 0 0
-162.371472760046 -7.88743565411551 -22.9667470881202 0 0
-22.4579696108803 -6.01287471210056 5.32978552968655 0 0
-105.157347308246 5.77491805747016 14.356787395256 0 0
179.961409825805 -10.2710135804472 -23.1921590692977 0 0
82.2065039358872 9.01738248167551 -4.1938664710318 0 0
-102.094392846634 18.425685310525 3.50622303805236 0 0
-191.709227340337 19.5330636198889 -22.1580439404509 0 0
161.234180218914 -30.890285476287 -9.15374792044788 0 0
-158.71285890097 5.35204175633607 -19.746711807884 0 0
114.130800665409 -13.6746514229146 -0.0128643506090343 0 0
-154.190241710119 4.7585050122434 -18.5384398193961 0 0
-105.617984400251 9.15855956294534 -12.0424315668703 0 0
-135.56532945076 17.6487767710924 -9.17684017853636 0 0
177.310777288007 -29.0067612950649 7.75179073830332 0 0
-180.770868717836 -13.5387730430647 -9.48665800980764 0 0
125.458579054768 -15.264729015708 15.8119726041305 0 0
-208.126890752977 -12.2846875976547 -10.7189722217432 0 0
-156.03703767074 3.2930468234179 6.94107896914884 0 0
-17.4464767580378 16.4117353800701 15.0002657818646 0 0
147.873547730246 -15.3841432766884 -10.0963902854409 0 0
-228.807972462666 -22.324297234166 0.0106102554442839 0 0
53.8429320171171 14.5147341596644 12.8738771596248 0 0
-197.591268779411 -34.9047906371865 -6.56713109937158 0 0
-204.63077259982 4.36860328123311 -17.0910228972273 0 0
195.958145176224 -12.1380111550067 -22.2389616150875 0 0
-195.355109416236 10.1549974615384 -15.2231998108149 0 0
173.387704767696 -23.5031809398358 14.8493180230837 0 0
-88.1767679831493 10.0664035067378 -8.43629867143005 0 0
-193.113006683883 -7.74579896185821 11.9242211454507 0 0
176.51618665701 26.4779783410579 10.7035095374342 0 0
-86.523455676434 17.9191093815363 4.68658401217523 0 0
-48.4492644935106 -3.54503728952917 -0.948426915753392 0 0
-172.108574912649 -7.98831113018457 -18.5995389798328 0 0
123.661325563816 -20.120409777745 7.57155900498347 0 0
129.626801906927 11.0071699541528 20.1131105365187 0 0
186.887558114803 1.53040441090572 -7.96002725905061 0 0
-162.293914797431 -9.72747918138666 -23.1203863146659 0 0
71.7646167588924 11.9691081887712 18.6603613204334 0 0
177.285606973 30.2977067733991 -28.4032219117052 0 0
-157.427857027984 18.6859375948884 1.85581124115608 0 0
-51.8589273810811 17.1950098551627 10.4126630255941 0 0
-202.227346571223 -17.6697986154081 -12.071104481577 0 0
-192.975991060938 2.90874645416535 10.7362867956743 0 0
150.363518244181 -4.39093657713787 -10.7083156144002 0 0
113.581055999907 -16.5693063559028 2.61564751270298 0 0
-97.7293664960551 17.7579766686547 0.116119614479776 0 0
7.14368800679897 6.47901401004148 -0.564034852412471 0 0
179.618874379226 10.2573352189774 19.9435243277555 0 0
-15.1650782448173 6.03362322212981 23.1339280660689 0 0
-169.014952397644 -8.62100283435346 -21.1199817096175 0 0
181.955896496895 -4.8648328115177 -13.8310124285277 0 0
-211.286373179402 -39.7018658063535 -7.59974170593501 0 0
-63.9430284005688 17.2054213556237 12.7322850085908 0 0
56.7204893787192 -11.4100824436249 15.3720890129396 0 0
-125.869378817659 15.2155037151652 7.87835429960382 0 0
-57.9672518539966 -4.41174059202397 15.0434142357778 0 0
2.05701634419721 3.99756318700016 23.4828165224753 0 0
-70.9138693068672 -6.07723355214733 3.44458847255575 0 0
-130.2182230653 -6.38182053583919 -4.49657370309242 0 0
-116.967630024744 17.8832208477123 5.21467832173579 0 0
-97.6988491876648 5.75817205112367 15.6608317352375 0 0
154.845845983061 -23.6687089360897 9.19731687388539 0 0
-221.764571733525 -38.2181506580343 9.72024200877625 0 0
-84.2024005631424 7.22036688690747 17.8585362881058 0 0
-228.60329770864 -27.9089288797514 0.290770030125247 0 0
147.591498753322 -19.724564183994 12.5615143450814 0 0
12.5263671392857 8.4955987449477 2.03659517950495 0 0
-5.64158721362697 -8.16426795978939 10.5163581533209 0 0
9.93816670188416 9.18832831742313 22.1536119497242 0 0
-206.383571777212 -4.31892322143729 -3.20490685735535 0 0
108.171009371835 -6.70791413253305 -2.57177042620469 0 0
-109.875181290744 -0.330251419555272 -8.12258632572852 0 0
89.6668836477852 -15.0563814944016 13.2443234175289 0 0
-37.5443799628008 6.24392187641072 22.3944490966902 0 0
164.498522587334 -17.5379917602464 -19.1975150344089 0 0
148.824607353553 16.523491565138 17.3739812530843 0 0
-32.7021154095603 7.93020594273582 -1.48136681806243 0 0
196.380024968087 -29.8804318288294 -12.5870189534428 0 0
-225.712114578985 -18.1176482138363 -5.88678139906053 0 0
19.5914395558346 -0.679516658505365 -3.86380905266603 0 0
59.2757528405249 -2.59161936618321 22.0572486680435 0 0
-194.208964759326 19.7605005118972 -21.8682135112838 0 0
176.426794221012 -9.37848236905098 -29.9018311816266 0 0
-133.272636776825 -1.74250515622262 -11.7248631506806 0 0
36.4133833749477 14.4846423815742 11.2097861902404 0 0
-156.276672487381 -14.276611070272 -12.7020538024477 0 0
84.2721267900215 2.23822891112846 22.4288262657528 0 0
109.106047370693 11.1180879599408 -5.72226948704455 0 0
146.825091711023 3.5901055551809 18.9169362863735 0 0
-4.12744562131215 4.21733790374077 -4.89731016122996 0 0
-108.512536787525 1.13472557121289 -8.68789458056598 0 0
119.685708172804 -12.6243443031755 -2.07112025990042 0 0
151.938725655035 10.6106164052752 -12.3676932817789 0 0
-174.367997536859 16.0417684877532 -21.3879768655381 0 0
91.3815681940398 15.5965192786507 8.55774056257822 0 0
-203.911647524886 1.28377334408772 -3.77479774609244 0 0
159.638022716086 -29.338387377827 0.323810915706868 0 0
-53.2882358395325 -6.5774410437754 10.5239048901058 0 0
-196.680008800356 -27.1938273544341 -6.09055496669991 0 0
105.008198343299 11.964681660536 18.8061185955876 0 0
-117.995129146038 17.2931043745435 -6.7788763456144 0 0
-204.857086155578 -30.4687277169932 -13.8808366795082 0 0
192.158954940076 29.1527500002823 -6.52197238771513 0 0
158.115866583628 0.380560703126312 -12.1558225738082 0 0
191.704357728809 -25.64919294878 -32.1336292064898 0 0
-6.18220054405799 -3.4444241620243 0.551407949603659 0 0
-177.119652142026 3.90518717401833 -24.2429970158357 0 0
153.572239817333 -19.0631599726408 -12.2396294665532 0 0
164.13396391436 -33.3793813886469 -10.4685321158614 0 0
117.931866670242 17.0353187523486 9.39674357311055 0 0
-182.139409065469 23.7955182074356 2.58447607990888 0 0
18.847362583166 -8.58291355167 8.97772192182118 0 0
185.819947311615 25.5284157356016 8.260892808205 0 0
169.272066334479 34.0275663120022 -10.8339716119564 0 0
-40.6893860947599 -4.92349661761173 2.77444443729939 0 0
109.420239793416 -5.13282066466929 20.0526446195963 0 0
-201.53853483834 -41.2397283835088 4.7873189018426 0 0
156.592843871389 -2.73718333409812 -11.7024209735486 0 0
144.413146015946 19.0320087876769 -10.0626718783488 0 0
156.170216948425 -25.0166933210312 7.84225356274106 0 0
107.772338120493 16.4916969763022 8.34118925628749 0 0
191.305961547044 7.81575849759145 -5.85752137928862 0 0
-179.574813378926 13.1611599080216 5.87786075585409 0 0
-179.96462113482 24.103588870329 2.52359165619094 0 0
106.431235044153 13.2903246736938 17.571479398359 0 0
-196.665598172177 18.2968906169045 5.43550102706113 0 0
-182.835497076765 -18.8361068967656 3.62384574711887 0 0
-68.5678694251933 17.7444292121042 10.1434258016903 0 0
-204.369247703485 -13.402553932577 -11.6396878027708 0 0
189.759328867615 -6.60550019369601 -11.7789055955056 0 0
25.5326277484011 -2.00768904284076 22.5100144541442 0 0
-4.45932354888783 -7.62848587297061 8.18755285812564 0 0
174.663730752062 -36.7174195577792 -11.3243592432063 0 0
-153.938367344723 -9.77849907765278 -3.728509839059 0 0
-210.430137223385 -28.3025102263176 -15.0174382584127 0 0
-14.8194907700701 -3.60806721326469 1.05564583163771 0 0
-195.196818207567 15.6577358532158 -23.8749461935303 0 0
152.452868366608 4.8663653993545 -10.5742546053771 0 0
170.522542867111 -21.479727953743 15.8811842769645 0 0
-182.160936730273 27.0329381115708 -15.5942089580672 0 0
-195.403260440703 -2.2578643141848 -11.7498513128884 0 0
-6.44846796186834 12.5553206898298 6.18653516511163 0 0
-193.809387123722 -5.61023400360262 -11.6795378343389 0 0
180.960392364708 -28.9525541090502 -35.3694281280014 0 0
14.1201205228947 10.5331000779543 21.3071168856134 0 0
-180.370965508977 -2.43054572669091 -18.6527857580926 0 0
160.346372919753 -30.5630423490461 -5.86103289082973 0 0
-58.9597401183601 -5.23045353695362 13.3528144362688 0 0
143.334862109221 19.5363065355185 8.23246722350259 0 0
-206.470055197744 -18.5913280243407 -14.5891603249498 0 0
-127.917901822206 9.19437079097028 10.0991212678996 0 0
180.664994723538 -32.0453934181692 1.29171042418431 0 0
-15.8065951561047 4.41683348796283 23.268497399655 0 0
-194.176263176206 11.6311126467101 -24.8932777710749 0 0
-177.336821195235 -16.9536758382649 -0.842665579463784 0 0
-91.3027742009122 -6.70063840127929 3.37208069470116 0 0
54.144508482437 6.36963880851604 -4.02636535317811 0 0
161.359810436782 -23.9980399650261 10.9600711897477 0 0
161.010465950928 -12.027406104681 -15.0725671481949 0 0
193.273431205143 20.8124257153756 -15.3446467560869 0 0
-72.927947530153 1.90976553125198 18.8310475899065 0 0
152.4415503009 -9.18659124587473 -12.5467227311094 0 0
162.501114127139 -33.1205232237136 -17.0742943155457 0 0
-154.586480834207 17.5073611256707 3.08778720904392 0 0
-205.902748242873 12.2890218341183 -6.5226406641753 0 0
-126.864926148592 10.6273096297184 10.0641081425769 0 0
-14.3883489154996 2.56922127284329 -5.43352480861554 0 0
151.144825551571 -5.70855366274701 -10.6481155821495 0 0
-10.0193302820745 -0.191241151106765 22.7663855625814 0 0
-186.530043796394 -8.10058151036871 -12.0778388082279 0 0
-226.936648911035 -32.7338224952247 -0.00759094389133295 0 0
-4.91872842338473 -5.14923416306993 3.37430132401786 0 0
37.8970084104489 4.02794591461988 23.4728762921368 0 0
-168.171074934838 -14.5574029577638 -6.75912422877136 0 0
155.294637440045 -13.6509338561515 -14.606294629378 0 0
55.9522588705867 -1.03408359078116 -2.94092693695875 0 0
111.508771990184 16.9176553316212 5.36450599857041 0 0
-211.547712353704 -5.10870315636741 1.70517481522758 0 0
104.31896751337 14.0421005554326 -2.67583267201378 0 0
187.538230111845 24.6542642047865 10.3291714904802 0 0
-99.7857307442004 8.12419733106514 15.2496006489694 0 0
-82.4143705274717 9.22524308009138 -8.11270173248703 0 0
-56.8044570625687 -5.62886133904647 12.9243741421561 0 0
-162.267604225209 -5.33953145993752 8.74054435390545 0 0
-76.9220956644039 -0.425733555352781 -4.78924688825389 0 0
193.168216176383 28.5090773951914 -12.3028522430459 0 0
147.004608118062 -12.9888399859773 16.4598218287126 0 0
192.609743601552 7.97524591710081 1.64078250472429 0 0
-194.186431324749 7.09246119218351 -10.5350824037149 0 0
110.129103739468 15.7626604828339 -1.37813224797022 0 0
-179.950516420269 -4.16955341529999 9.56756536368822 0 0
110.720581540773 15.0685690759899 14.9580600188095 0 0
-184.63672594602 -20.4615332451136 1.74230635780208 0 0
-190.264229003515 -2.49985291878787 10.3059726085197 0 0
131.690560741039 -10.6452671945976 -5.18659625722459 0 0
-128.445811563278 1.6982159889795 10.4013299115947 0 0
-195.422259917178 11.2160132139771 -24.8124342704391 0 0
-73.0253189380804 -4.40547800799674 -0.553179635394427 0 0
157.951754452446 7.23419673843659 -12.953187070913 0 0
-111.018985431758 13.9760109483822 -10.077203463871 0 0
-2.69138105829855 7.08666110419394 23.0771900389266 0 0
190.512270944854 -12.3613017743782 13.6065549645764 0 0
199.333204364055 -26.0979799165725 -0.777105952922669 0 0
122.750919792539 2.68255097080808 -5.89828526250517 0 0
-83.5054390537311 -6.47308397321778 7.62133602908844 0 0
-199.137154490837 14.0612300210013 -24.0377679428381 0 0
144.450801400483 7.22249898369831 -9.23664954219159 0 0
139.427850690229 -15.6102963746313 15.6445254869075 0 0
151.457533130732 9.30883241195123 19.7550071401667 0 0
147.010203251441 7.10290003239636 -9.74524481924863 0 0
-64.7040420330206 1.45484102715437 19.71302178043 0 0
77.9657795392075 -13.6510494938616 9.88245588643988 0 0
46.748769607571 4.35940790902936 -5.46231325979686 0 0
-192.968290458353 -31.2222869276481 -4.13107298563175 0 0
-68.954300133767 6.67746074106556 19.9081400481728 0 0
-208.722059706494 -24.9109934371648 -15.5616326933281 0 0
153.24969802853 -6.66608426232145 16.3731080266754 0 0
-104.073411830089 16.24805866216 10.4145416071559 0 0
-69.3564895600796 4.97534055439532 -6.53125571463764 0 0
-202.863690753148 -9.7483794303647 -10.5448203549344 0 0
-171.22660259466 -15.1276151983853 -10.121687075522 0 0
-208.621411064339 -41.0652861863236 -5.29534739387559 0 0
-196.127973279609 18.430054173053 -22.4981620551873 0 0
142.848812137464 10.2985320407527 20.0750567174678 0 0
195.681080803043 -16.1570065027587 -25.8868945801029 0 0
174.117581251573 -36.2740077698611 -14.2634085679465 0 0
146.913624555632 -2.02855356146076 -9.06233018770627 0 0
188.203952698754 -31.891959517605 -22.1556916179116 0 0
184.033881813903 -18.9679507848706 15.7534163202734 0 0
153.536741753075 2.15662551243281 17.896413251369 0 0
-204.701074786856 -4.6387346712974 14.1836696264079 0 0
187.529358072882 19.9044678790152 15.492615916624 0 0
4.83949270188139 13.2461310145319 7.53085613188705 0 0
32.2174615605733 6.66086601595072 -0.78758430492269 0 0
164.052588556851 18.0314474908305 21.7882529212758 0 0
-167.067599466626 -8.46618882484617 8.59463080133297 0 0
-14.624442057162 0.582552701052738 22.8416480854221 0 0
172.258412146007 -19.861035829096 16.6250551037001 0 0
193.339725739345 -31.8971496236926 -25.659036708146 0 0
191.728298109271 -27.8125939027817 1.32910325434156 0 0
-77.1283611365104 6.6832973559759 18.9262801381406 0 0
18.0206221992795 -2.18725335747982 -2.86155443741111 0 0
-169.439311286984 0.0536718314496181 -22.5695684349605 0 0
173.376284679158 29.9413579643212 -21.0698587567796 0 0
110.061194994557 -17.0338522404676 4.53192391184582 0 0
-181.041186697827 30.3888723209366 -6.34186920040835 0 0
-63.8138898466592 9.83893177484688 19.7844285509471 0 0
-133.190228886813 18.0282924360131 -7.866620785579 0 0
51.8440064458359 6.08342380430189 -4.26539605501054 0 0
-38.3551163714375 -1.33704879173378 -3.33513964202152 0 0
42.1651918919209 12.674518527515 18.5057996004581 0 0
190.625932438574 26.998271799689 -0.582506046311758 0 0
157.569374093557 25.8097026327155 -3.2400629022301 0 0
197.503139294363 -23.1596754524201 2.87774661790219 0 0
120.304810217255 6.64413829663399 -6.16451030552502 0 0
-9.06472614989329 -2.3412067887564 -1.31097010165589 0 0
-108.195059065253 6.81234393368195 -10.9175591644352 0 0
-106.000939494594 13.663959578247 -9.56284659690946 0 0
190.263957115441 -0.29441247727007 -4.02195525236667 0 0
150.161836680894 -23.3271659205064 -7.32506272122317 0 0
-194.896938270384 -21.1846440645329 16.2707236154399 0 0
-59.9223765043317 4.65462599974895 -6.55855055455446 0 0
183.221485326059 -33.4834785956147 -31.2688733648776 0 0
193.367813561625 27.1434752399272 -5.72195088631671 0 0
125.456124256506 -3.6903110397576 19.4201453037108 0 0
-102.761184414074 -5.49846004869498 -1.53288273481612 0 0
9.52590158025611 7.51393886724106 0.881925092472585 0 0
72.4290123025286 -5.2661346302388 20.8333058207161 0 0
-82.9233011989389 4.08917909756842 -7.65597920352633 0 0
162.214332536327 -31.2828116783029 -17.9952237356243 0 0
35.7766490167031 7.37822436914071 22.6491194413161 0 0
-204.866318010135 -2.46786185242405 -3.30388872678655 0 0
-138.857231636127 -6.73573838849204 7.00018995012612 0 0
145.837425121263 -6.05488563155636 -9.60764259568415 0 0
32.13708522243 -9.30364081902499 8.94700794609161 0 0
25.0613146986004 -8.6888759698587 8.44069371649233 0 0
-219.566785109116 -16.8089471075483 -11.6636718478315 0 0
166.681253375603 11.2438978456434 22.3939935717575 0 0
165.240854151474 0.824592032755 17.3595233805881 0 0
159.627023203533 5.7101443046927 19.0091259791576 0 0
-212.628526679551 20.1813054653712 -7.60384206522402 0 0
-148.723335775591 -7.78393819420179 -14.4442142649578 0 0
193.093242250032 15.7389072515739 -4.94935560761606 0 0
4.41580011238572 -2.67742073593452 -1.39681294358095 0 0
-202.249150388115 -32.8166041409095 18.9515255868882 0 0
-157.059825526587 7.69772718286957 6.03757262390037 0 0
-162.804794026346 -12.9292112344651 -6.67071860218782 0 0
187.214908957973 -23.2939390603614 10.5500655557354 0 0
114.352736655166 -3.65382225975635 -4.49337661653639 0 0
-34.9464941624441 8.69971328392851 -0.870302974720674 0 0
-189.061202476159 15.814085141862 7.18604922970479 0 0
65.39958149521 11.2129685176566 1.72062036139538 0 0
142.76191435052 -0.649934005078115 18.160754168191 0 0
51.3974643296995 7.17669606313074 -1.89202807359534 0 0
189.088822062224 5.9379832024187 -14.7164989856245 0 0
188.539231507029 6.31409810571755 -16.3194539627666 0 0
-77.309964521377 8.87935716918007 -7.96084703876409 0 0
143.527290228197 11.7167116662464 -10.4555864898782 0 0
-208.099860997493 -38.1999747566487 -9.32247225757495 0 0
4.94886916315556 8.07399407963887 22.779949964707 0 0
-17.2061012552755 11.0054374741926 21.5390712354 0 0
-207.269165525994 -7.2478438961947 15.968078719955 0 0
187.320086194497 -0.9769444076064 8.87184628177146 0 0
168.482982727448 17.1299206643754 23.4589593153639 0 0
152.870860671401 8.19476946149462 19.5587169246693 0 0
-187.993678123996 14.7327601944049 -24.6053739100162 0 0
67.2938810575049 -3.7241502291715 -0.6265872691818 0 0
-223.651170408065 -37.7653080944404 2.53359580008568 0 0
-166.442666128152 21.5876448592346 -11.660628868325 0 0
184.981955009542 -7.74784963765062 14.4544262850183 0 0
188.328788214398 -18.9423059122794 -33.3354977138168 0 0
-143.053293662924 16.6636961254069 -12.9561804529583 0 0
-171.004140879482 22.8509343362363 -12.7233905628504 0 0
155.93913038489 25.8341978503666 -9.84178453330008 0 0
-166.097813999377 17.743596511209 -17.2395953534636 0 0
-150.673896285347 16.6591178757329 -14.4340922580604 0 0
96.4990735236159 -2.70850927630808 21.1507033917296 0 0
184.731368362979 -34.462776563496 -10.2454655450227 0 0
-30.4441509871327 16.1348069921588 10.0570742754049 0 0
-107.971043652055 10.2618377960189 -12.2754611650216 0 0
179.676240359293 -31.7110705805934 2.43329765937974 0 0
40.075595259439 5.19742091008395 23.325486775907 0 0
-153.041492450536 -7.36739857256781 -19.6619582511903 0 0
-195.904995859044 -0.894579946118036 11.1152688347919 0 0
108.002508118285 16.6421017351802 4.98571478318826 0 0
-209.59063716136 -13.0677422547742 -11.0725552901658 0 0
15.3343904727062 -3.23708763301086 -1.00545398172268 0 0
141.54133633742 20.0614986934422 2.33915285828407 0 0
-92.4377612444536 17.7152219551278 1.60853046871264 0 0
185.714498265747 -13.7262880064847 -33.2049789679638 0 0
193.643196208654 25.4039635850808 -5.81303208040553 0 0
28.7839259257473 6.83540931207016 -0.41419021425439 0 0
185.181528891622 -4.58447302086055 -12.4221168584155 0 0
15.7556691852895 -5.83334663217854 3.78197436790611 0 0
-15.6636512695063 6.01046486911038 -2.55728124635151 0 0
12.9947950358235 -2.94992497347684 -1.51620620634019 0 0
182.874173060212 -33.2928548170236 -17.5200080973359 0 0
68.8162584857725 0.115282143283348 22.6232517384561 0 0
35.9381801980843 -6.58428568312045 20.0358862284484 0 0
201.335918899671 -25.6749263274326 -13.9432099456414 0 0
122.17634138636 -19.0201606874854 11.0961604983181 0 0
168.38951401056 -19.803855199984 -28.5790038152339 0 0
57.2842623262257 6.65222796739433 -3.95440591411325 0 0
-202.329408323451 -3.36777794949199 -7.3260989051445 0 0
182.17618209633 -20.4940663825235 -35.4049464076362 0 0
-57.4745797282672 -0.39872181572987 19.7774422524225 0 0
157.047550509496 -10.3511154903156 -14.1681172055554 0 0
-201.680138867587 4.04148668093886 -4.42483159114654 0 0
156.177371378633 -19.0920242735408 14.0021233740615 0 0
-121.992284031769 -7.15243322752282 5.24405723846271 0 0
-35.9210754668159 1.30318559209506 22.1658585100385 0 0
165.588979432588 30.7643059894907 -4.79533984490812 0 0
179.537307401118 -14.4641925068245 18.7217579150278 0 0
-204.287728511975 12.5302742258381 2.00342753876721 0 0
148.040801106584 -24.9316965751235 3.42472398383763 0 0
-176.878247815988 -16.5575497526554 1.01456044063186 0 0
188.127631551357 32.276676299037 -16.7924523541084 0 0
-208.39443259601 -43.1166924596352 5.55733175166373 0 0
-93.8239796188343 0.722410568747316 -7.15834357264001 0 0
10.0646718910706 -4.0225464447666 0.914741107583112 0 0
178.861427823477 28.0127435930959 6.59496785508491 0 0
181.770470718695 19.6022832917284 -30.6813211441371 0 0
191.068335270806 -31.3442167039429 -19.6975423610012 0 0
-22.2603181179309 13.3823761037854 5.95205750825015 0 0
185.637908305983 32.0861869898483 -23.6488429350389 0 0
-97.0826387791112 14.9328050611976 -6.49343965009423 0 0
-37.3446800713266 4.02593192582347 -5.58537532062696 0 0
167.646230681393 -23.6696204661419 13.8305630460215 0 0
166.203583406379 9.72609790481179 21.8540644665021 0 0
63.980434627233 10.1518354553911 0.513049990327502 0 0
195.831368001939 -16.5499692175003 5.76290767241073 0 0
83.1208196377205 -1.83184310918482 21.771084743958 0 0
155.731230383049 -15.4024164135229 -14.5688494546562 0 0
155.976445957778 -16.2987739558092 15.5508976451552 0 0
-186.296442280412 -18.147457457791 8.83941433894533 0 0
-185.496996393382 22.656953353194 3.44918259187071 0 0
-44.3813755971265 11.3165382335412 0.521316088297491 0 0
-24.4547239190878 -3.35912015057659 0.282823175305191 0 0
145.068735824048 20.0480474268686 7.28647442700335 0 0
-180.259175072836 -9.75863586618411 -12.3040222821358 0 0
-181.37736847668 22.5571648387221 3.66354048176735 0 0
-150.472760086853 -9.22657526405547 -14.1190742021696 0 0
43.8441795909228 14.3469528869507 14.6627708155139 0 0
-86.5427639870817 6.74699309928388 -8.7024339617181 0 0
-40.878619420411 -6.89992044937246 11.3398076148937 0 0
158.571568142202 -10.1150017731033 16.1396319286039 0 0
183.111343014751 10.369587282489 17.9388346170797 0 0
-170.700206703186 20.713966324559 -16.2481503344742 0 0
-9.23777462022978 5.12402483757869 23.3471419281779 0 0
154.065925652775 -7.49697254689157 -12.525532145754 0 0
-204.646631965313 11.3403923108024 -7.85849848183805 0 0
68.2445364415466 -2.4515186274549 21.9369949116098 0 0
-214.974787602944 -16.4106353790961 -13.869575556983 0 0
-196.59606625541 25.3905308786809 0.810738779831778 0 0
-152.531627264628 18.0753454006575 -12.481495934498 0 0
-49.7461778472217 -2.07272907697599 19.4923201807553 0 0
90.0452152042323 15.2611991655917 5.55576216596005 0 0
173.182739503455 -4.12923109587022 -17.9974512170656 0 0
-172.976279063286 -15.6399593323751 0.257060176679853 0 0
-106.733451059832 18.3057465140885 0.0644937102042103 0 0
166.259898897739 -20.1215269116768 15.4935865532487 0 0
158.954069895854 18.4361722389615 19.2079664118979 0 0
-104.535389554929 5.01563173914129 -9.68103705118828 0 0
-17.5100558652367 -7.76069101430571 10.4672885270174 0 0
48.3960624338213 13.8879912438935 16.047193294892 0 0
-39.8875006569188 1.77899763764372 22.0697022485918 0 0
43.579320501136 -9.70192798847413 8.6073026490434 0 0
26.0518792251879 5.959794968571 -1.57586721228106 0 0
-179.026902627637 -2.36142274891059 -21.4179153008057 0 0
125.599993981601 8.38694626678482 20.859323735817 0 0
176.206300893529 15.9325772083123 23.8054572166556 0 0
-207.196820897815 18.4133998543572 0.448584814093404 0 0
90.8794158628163 -9.84620699311753 18.6468077788298 0 0
163.960965845057 32.3295179654482 -14.5602338082257 0 0
182.302962844754 1.63761041177431 -9.60042205393597 0 0
-92.2652185893192 7.36745328547914 16.5789672930771 0 0
181.397733397815 -9.53778875299294 -30.8986446376186 0 0
189.427227820536 -31.6434611717689 -20.4318703582989 0 0
-207.935532566549 18.7723140918175 -16.3182595766146 0 0
-137.18364895983 16.4003111809679 4.9728316367733 0 0
-149.662330934748 8.57287043334042 -17.1590937873713 0 0
157.93047075471 -12.6659666504644 16.3687114266611 0 0
-194.331685798679 8.44519841941691 -11.472168567342 0 0
161.153723236375 -17.4004159194551 -16.4424063237986 0 0
-7.18138818707642 -7.99098993651788 16.27083343788 0 0
163.960441785738 -19.6059594618195 -18.6493459123382 0 0
-181.941180134859 -18.7202721775812 -0.625603317422571 0 0
-150.291427108347 5.12810337387153 7.24864551819348 0 0
169.873124238336 22.1888037306349 18.8673107285998 0 0
84.7237293485895 -4.19915224469448 21.0031523718232 0 0
-199.904868486075 23.0517442533318 -18.9460886140473 0 0
169.318279160373 -9.27920784237909 -24.1604590604179 0 0
131.213082112887 -20.3030557057447 0.387581414908709 0 0
83.914213140096 12.2213760789471 17.9808076433486 0 0
-160.141761616569 -6.95268428701215 8.20508638334287 0 0
-124.838761071256 16.4235843440887 -9.53720451689702 0 0
184.679309678101 5.4897315760436 -14.835079298686 0 0
35.5810341397336 -5.35167293909319 2.54707557562036 0 0
-74.8639807981402 8.48443925175084 -7.61865318255866 0 0
-37.3584148176614 11.5314197255011 1.86456318165788 0 0
