"x" "y" "z" "f" "a"
197.910479525944 17.5821303583224 -35.2485259376645 0 0
186.359629178262 -14.4614457246566 20.3845604402305 0 0
226.187454189129 -21.5432621445081 9.72193468888989 0 0
151.813294206085 -2.13390991274707 20.4157516757802 0 0
-175.154808049675 -12.5096002386893 -1.28478701513826 0 0
210.675970616354 5.46738376683179 -17.1638602783249 0 0
47.3632546233823 -5.46079927060327 2.61748792580954 0 0
195.027953134872 8.80156891143194 25.2675348681801 0 0
116.854952630596 -15.3195859664751 3.37729930938837 0 0
223.396524673297 -6.33138605049614 1.40429437461237 0 0
120.352246075244 17.0473735001034 10.1900401293452 0 0
-202.0170802597 5.59876754595385 -24.1491132469948 0 0
206.635902718647 32.6513357355001 1.19148351429606 0 0
-147.799019148896 -8.96335068508702 1.98942112868512 0 0
-64.5599302442763 0.885940156073959 -3.58223282607576 0 0
-227.862445310518 9.77595510655394 -3.36538029757 0 0
-256.237195257019 -18.5211425472027 -8.4868791838663 0 0
138.096149867907 9.23135039562788 20.4248675170483 0 0
137.418028469333 9.76725135652953 -8.78968438332979 0 0
149.645225373351 9.5242703206484 20.1088443803778 0 0
35.7707027089288 15.562387457578 3.34729066818315 0 0
-119.389548493574 -5.33399495030338 8.44683905009619 0 0
37.6230783032568 -5.12341073154844 20.5888032168002 0 0
184.922009698856 -30.0224172597271 -13.8246463101312 0 0
-212.553007552296 9.63731838965763 16.4279569180042 0 0
221.311577882853 -14.4076407737424 16.4875858934448 0 0
-115.054355442366 22.2321614198084 2.54066635006926 0 0
81.7116849220721 -8.27057003659623 19.3823319507422 0 0
-124.264390131543 8.18716416012948 -10.3097890722751 0 0
51.4722837632392 -7.36602599070486 4.26396981106838 0 0
-225.074631370229 -27.8985349252773 19.2927911726449 0 0
-254.737852220022 -28.6269465054349 -15.4362119255311 0 0
-216.914156239291 25.1514613257029 10.3953718536756 0 0
-166.87585426567 22.3650013290883 -10.8141952030583 0 0
206.144981464852 37.751301003769 -14.9650542200917 0 0
-254.396106497658 -16.4852061003656 10.7367704491216 0 0
36.8939162515898 0.254499055173444 -2.91662040761698 0 0
58.7592617657413 8.89825286761054 21.7448209278927 0 0
-112.109110829477 8.75548869155143 -9.77495910295956 0 0
-127.847194396224 15.0077934011515 12.5414824863513 0 0
93.2474098535423 17.7249201664289 4.46546637615028 0 0
-179.20280511061 14.4620865657828 9.34709999988119 0 0
-183.276373903524 -15.7359156405644 -12.50189682277 0 0
134.593449168409 -17.912628114073 3.79677730598007 0 0
-222.695700601952 -43.1943149328695 10.7583829372493 0 0
-248.022028358408 -29.036801230568 -19.9005401153618 0 0
-94.2735321450101 13.8448525062364 -7.83311271874862 0 0
31.2146786895901 -2.11314354428628 21.7932159032152 0 0
-177.608619518419 21.3658672683492 4.39431159531499 0 0
149.065101047068 -17.1871629016295 -2.5450307550506 0 0
-209.884660120702 28.2560601462786 -20.0407696034002 0 0
-245.3239485837 -11.2309785397675 -3.46261511440815 0 0
-239.211533249425 -50.6445893819235 0.413190132263054 0 0
48.4006255581102 -9.59207673141244 17.7154904115914 0 0
-207.700831246637 27.4647865441639 -20.4992017573507 0 0
199.309175839826 17.0790266956714 27.939876899462 0 0
175.714347379809 15.6642411109974 20.7382482481115 0 0
167.630514987048 -24.1946796665233 7.60977721462615 0 0
213.896039725936 36.8640641564386 -20.613304536472 0 0
-242.708389588816 -9.76390980997298 -0.978327927455617 0 0
-257.588160823224 -34.7142181285506 -10.9635359228883 0 0
219.525699294575 27.4012606637252 10.5406444725709 0 0
216.180445006438 10.8617012645559 -23.7600651847126 0 0
45.528088679543 6.28118453083534 22.623355811276 0 0
195.287417954449 33.6370972346351 1.90136867738224 0 0
-240.264710986352 -8.40512568340755 2.18424271582573 0 0
182.661335958421 0.544168576565622 -13.8692015446003 0 0
-154.825702805551 0.458052904321911 -12.9887459854372 0 0
129.276565951927 -18.3550805966284 8.21939159592065 0 0
-179.690721613655 3.6286928060532 -20.6843138609323 0 0
-175.95131081026 -12.0392906511456 -3.92006127741168 0 0
171.291738012485 0.34598933708847 -10.5026775986893 0 0
219.524260118323 -20.2680949368447 15.3955722237751 0 0
-188.852706091319 10.1355335534492 -22.5019238854803 0 0
-136.573899092163 -4.25417615218645 8.29583228300132 0 0
-18.6930068647772 14.7479472290626 20.9751605015091 0 0
80.0138584967078 -11.91691157311 16.7630268613524 0 0
-67.1607924223 21.834954716345 6.06943673623475 0 0
156.802878266039 -10.5224989782035 -6.82323912134792 0 0
149.250927901377 -13.2589493725029 16.7433044359689 0 0
107.748364098968 1.10674601388268 22.0434811485672 0 0
-214.287421872166 -3.78482392415995 12.2548884509092 0 0
-122.698024114103 0.831949445101786 14.8761181718796 0 0
-229.572730250103 9.5493289997752 7.93332508471854 0 0
196.020101073684 -13.8992111912896 -29.7891602795025 0 0
157.137297941249 -21.1110823590466 -1.0567985167126 0 0
-127.028917327914 -4.91475816351655 8.26550816116303 0 0
-27.0984360611393 0.116644756065891 -2.40885618446982 0 0
92.266445410033 17.2322050875773 1.5049400617237 0 0
-137.186008253161 -6.35898763255539 -3.80491101188037 0 0
209.470892804038 -41.9996798399827 -6.62982419795964 0 0
-218.462265109762 -37.9588563236206 0.593681344152067 0 0
229.107523037721 -27.6646353590101 -16.8455234551611 0 0
-205.271366714301 37.5967183144358 -5.20506534735865 0 0
-24.3788317230054 11.8140234460978 -1.98538309767538 0 0
194.75214367962 0.185066882166459 -18.5763531353511 0 0
-228.804254897785 17.6299801034407 -24.4242352705432 0 0
139.299686590617 18.3602064362703 6.19435064005611 0 0
130.406333537406 6.42772597195204 -7.88608052445306 0 0
-142.593395080725 4.35004037345072 -11.6902686322556 0 0
-205.654140757202 -0.277390445501718 -17.9715863556818 0 0
-221.93942438262 8.1678179120095 -8.4913991318796 0 0
-237.561711540083 -52.5953306867733 1.85732459286187 0 0
192.54432354846 -22.7506128335738 -32.5994432992995 0 0
-111.195630950515 16.1483465446144 13.4419355649685 0 0
-223.875138962356 -15.3172046975762 15.8671275652255 0 0
148.415391431992 -9.63379010215415 -5.7825498670242 0 0
-218.678003322012 9.39356805743158 -17.7518664839822 0 0
-235.504745868789 -52.9631354682939 1.07564416600351 0 0
-201.369363460886 32.8114623816064 1.85901938085763 0 0
-78.0522651733012 13.0993859249705 19.0155581177484 0 0
-230.185353866752 -25.4740739109899 -20.0453625912213 0 0
-89.8786499504236 3.98485025053829 -8.04698775887444 0 0
-139.355940503615 -5.37795436878796 -5.58365557467405 0 0
194.698826636335 11.329726721744 25.9090270077779 0 0
206.59793554645 22.5899333416174 26.9135438295235 0 0
-219.172418400871 27.1839570852993 -20.15260776883 0 0
-98.5130033503261 -5.10590554781508 2.16130339758817 0 0
220.577185386587 -32.4731301434163 -32.8174398528732 0 0
-220.675227309966 -20.3450843871282 14.4889271730474 0 0
-117.021136883468 -2.85903987876783 -4.76331557341282 0 0
-232.178898537668 -40.7122790051816 20.2837376811116 0 0
-18.8123094629045 5.34879844221465 23.5718944671868 0 0
-225.388265138218 32.3857558600398 -2.4478573929851 0 0
33.0635830558924 2.85900286904297 22.7803420047161 0 0
129.882102224437 -1.82936150717634 21.2937079895744 0 0
-254.542665857816 -35.2347275490629 -14.5689155224376 0 0
54.7779730338964 10.540091313846 -4.2672654667873 0 0
168.021041879205 16.0612717923127 17.3726736554782 0 0
-200.755591945657 2.36225263641117 12.1048360968617 0 0
-194.62309420862 30.5372967567169 -9.97880578375435 0 0
160.373505059883 -6.21195789414694 -7.92953553220708 0 0
122.06287157858 15.1488995715396 -7.18051139824721 0 0
50.6557072542244 4.11950689062668 -6.40030624099678 0 0
-196.752785160441 3.11791901733396 -23.6181671309809 0 0
222.457432427705 28.7229259466391 -4.09769960735993 0 0
216.355774062104 -39.4387089059206 -31.8404764837654 0 0
181.856439242579 13.913580934961 24.4850081396148 0 0
-177.686560549669 -1.46986417701801 9.48576355210723 0 0
-33.9388361155186 2.05962951321881 -5.88609319355984 0 0
-255.585926387987 -30.4721736476423 16.1563354827999 0 0
-234.717932117828 -52.3062787956841 -4.3575018197311 0 0
143.304312038067 2.22673083924803 21.1863916864405 0 0
143.512793527544 19.3977185170279 0.198507209658779 0 0
-240.558513638169 17.2009555899989 -5.63500049055487 0 0
58.4103953538129 7.11763870384897 -6.75646594163895 0 0
88.6589851967598 -13.4450114043634 5.98107857156957 0 0
204.680653141277 21.3891861105591 -36.4224340481033 0 0
199.346538811838 -25.5093256335711 16.4815510619381 0 0
150.10133810687 -0.188721715739582 20.7557385498132 0 0
203.413733921605 33.896590114401 0.759463910683357 0 0
185.664724854318 -40.9754134802569 -9.06841426201266 0 0
-231.790329321043 27.6726533871316 7.12274275747709 0 0
-222.664643787206 -4.88514067168555 12.9036025019328 0 0
65.1452696771868 1.65801474550112 22.343378464322 0 0
-230.266159990303 -51.5407368137532 2.65624032885908 0 0
-52.816534995719 -5.47738051788194 9.13318215018801 0 0
-191.639909772251 2.68508373030354 -23.2197052920204 0 0
-225.391473990283 2.77933255183913 -7.52973388720587 0 0
-234.130362293301 12.4576298994967 -6.10496364751195 0 0
-222.439944898749 32.2793015102755 5.26601929701533 0 0
158.542946975899 14.4935140324873 -11.5211585989356 0 0
215.769563872145 -0.698246659861077 14.6258625774495 0 0
-161.277073624587 20.6346115427608 3.79909737317875 0 0
167.505073975373 -14.1418759330161 -9.6585710675378 0 0
-96.8185670595123 6.53475855785068 19.6284018383804 0 0
170.242448088716 21.9380576297573 -13.780099647227 0 0
-236.424649878986 -45.2273560840516 -15.7825304198946 0 0
215.00981840294 -37.7800169215006 -4.6956800509519 0 0
180.626517308195 15.5155179829809 23.29230099131 0 0
-75.8943357247495 16.5696598155714 -2.54012699055975 0 0
-92.0716881698161 14.0833276516576 -7.37132550128055 0 0
194.86210657589 -18.3974592571359 21.9719123855536 0 0
220.066361092561 13.1675834017305 10.7447485255712 0 0
-189.308149298866 2.99177953790992 -22.7779833719041 0 0
200.996483027651 30.3110795404465 11.3472756949069 0 0
216.172061577736 28.7443588136523 9.44727592844489 0 0
-216.696664638814 9.32179238675756 -22.8760447295654 0 0
-237.10207326774 -42.7033183579127 -18.0428611179964 0 0
162.117955428648 -20.5799214056609 10.8785965557122 0 0
162.766676845587 16.493804315682 15.4188430755936 0 0
-43.8877640243444 6.31053869550034 -7.67276390173769 0 0
218.396431127895 -24.399279643382 -33.9521690429957 0 0
-184.504350562485 -12.1099942937591 -25.223590829067 0 0
-240.647104423474 17.1378271796594 -9.40895379045507 0 0
-202.799190188259 12.8701960790579 -25.6512645601222 0 0
-20.654104153893 8.88876222009724 -5.22323914963505 0 0
-128.153521656678 8.13188274694959 -10.7719520401321 0 0
-208.576299887557 -3.72938444661497 -15.4143422081302 0 0
-248.408427285806 -12.031159671472 -4.84561339507972 0 0
215.762423076465 -29.2246924439029 8.14318296796578 0 0
219.713617193412 1.12236970470562 5.63946223689191 0 0
210.937914642358 -29.400330108756 10.0042030052843 0 0
-232.927829775375 30.5974294802916 -4.01112707686379 0 0
205.159033717984 -15.5763290541702 -27.5786538619062 0 0
-64.3330504519593 -2.51673863356335 18.3273401255495 0 0
111.551685815573 13.070980856594 -8.25574615000049 0 0
-141.015785378106 -2.10206439772849 -8.10993127305487 0 0
-42.6183039859282 17.9869441460311 17.7839495840836 0 0
-129.885540550153 -7.28273381027897 -0.0173624730358846 0 0
-23.8353300777864 20.2330978319954 11.1380350328725 0 0
35.5433739929601 1.49974892209165 -5.44788067617943 0 0
162.140325152172 22.1820177919364 -2.05532673164829 0 0
9.07202746126482 14.5430291270544 2.13226375429572 0 0
-175.437721886809 -12.0918927993703 4.44210684573771 0 0
202.908374640786 -44.5086050037987 -15.9356375956874 0 0
173.179064646169 24.5147490848751 0.854148469850554 0 0
73.3582476199574 -7.88057022587189 2.10884727159094 0 0
159.620475667102 6.32425237956091 20.9710532738958 0 0
207.083856476562 -41.979747110686 -26.3050519232129 0 0
107.029242231056 -3.15164563344392 -3.66765359042718 0 0
152.241195768472 0.348835183961469 -8.32941440104903 0 0
196.396561687369 32.9736019748778 -28.2323429879757 0 0
50.6650234902737 16.0312242657458 14.8089139611814 0 0
-236.971341355264 22.2405191643013 5.47130843021087 0 0
222.3337230952 14.2760821822133 -8.77147690638147 0 0
-21.5092276820854 6.47396526605958 23.60396053873 0 0
210.412226253303 -40.3492550080729 -34.2450613332367 0 0
191.175463712324 -40.1683258219646 -0.410034875140808 0 0
-96.0183041256912 16.6663582716828 14.3905711974069 0 0
52.1922447587238 1.47467158141745 22.3355289115197 0 0
47.9159995590056 8.29343129993447 22.1601532846995 0 0
-192.269659052578 -15.8284600499071 2.68456557165849 0 0
-193.910066941122 -8.95206712152337 -17.487983663253 0 0
191.35040205648 35.9996970089943 -6.57422390401162 0 0
183.997817656241 -37.5463928059199 -10.801853486222 0 0
-164.900535533831 13.393851646767 10.2127458946326 0 0
-198.840130274495 12.5734955831407 11.095341208073 0 0
-207.955857236804 -6.04338811823361 -14.9474366459563 0 0
-216.110450321413 -26.5834497326112 -6.86280184663022 0 0
199.91700094626 24.1739405918311 25.096763671623 0 0
189.705851030017 34.7135571137901 -5.29347936077968 0 0
176.517074432858 5.82492299575579 -13.3007858676955 0 0
135.948412993672 -12.6658642591708 17.3895238218566 0 0
181.010451835412 -28.4755621881267 -9.91163339112423 0 0
-251.912441866752 -13.3827907499878 9.81473600183287 0 0
-123.985491368419 -3.02594389584549 10.7938042964709 0 0
-58.4869420807069 4.71021300091284 -7.3699951467633 0 0
12.9466727095991 -4.99158879475281 20.7989594562563 0 0
177.736281961652 15.5584893981893 21.784703534294 0 0
-26.8310936391916 -5.82587824098334 9.76637269243648 0 0
202.491901091219 23.4761253414637 28.0788171070695 0 0
-131.091992510632 0.56346150291047 -8.6136618530356 0 0
-239.093992876444 -13.6049218254967 17.3804460913297 0 0
-133.787562702301 -7.65060589738859 3.86848569059492 0 0
217.198320076357 29.2380241852576 3.71096764325956 0 0
-171.21129521409 23.7024046907977 -5.77636949085609 0 0
-30.4546283811303 -5.49007355494701 17.3297025121445 0 0
-87.9794266576725 9.7559543557395 -8.95156122297528 0 0
-181.825448941787 -1.66722856829496 -23.0015240197199 0 0
4.78809586373057 15.3549630002504 20.3327960194552 0 0
-261.274175243833 -28.0820454837272 4.29434183452816 0 0
183.767367640408 16.1016104770475 -22.0284124647975 0 0
-235.216740093783 -26.3141076559713 23.5954622890622 0 0
206.398844709618 8.26868323776038 -23.8456609796532 0 0
-62.7817262491118 19.8731722411309 2.43328197754159 0 0
206.068392030282 -43.5388807151514 -12.895926916978 0 0
207.151798225906 37.3294800273283 -16.2875829730825 0 0
-211.929648543445 29.2762007732198 8.62135300290248 0 0
-130.942131467423 -7.76964784665796 2.81690487849339 0 0
224.116675585849 -9.24606286640977 4.51561252713739 0 0
218.79665017237 -40.8630470481927 -22.9669396282348 0 0
-32.5939446546693 -4.49425778581598 19.147116350647 0 0
-252.997789406888 -20.8421934395992 16.4146327803747 0 0
177.76207733805 -15.4816353331577 18.0259088610393 0 0
165.005161934138 -22.12774864662 -4.20322404239748 0 0
214.981160342438 36.0259195558975 -15.042419173772 0 0
160.049711137766 21.4244030337405 -0.365413610764582 0 0
65.7674945757823 -8.0807143625292 19.291990255434 0 0
204.803644394413 -17.6471353649013 -36.5511614749832 0 0
-218.027725965462 -0.389664400983038 12.9031794878053 0 0
-4.71900953145221 12.0217456256114 22.4918238015121 0 0
-158.877246532958 -7.4565553279807 -5.59190506729894 0 0
-128.450380133513 5.5144060229321 15.6666178238036 0 0
-70.6913807244096 -4.10046306771296 3.80266135279252 0 0
-213.578539193302 21.271649842217 -24.5536479018817 0 0
171.986028389183 -19.6036258717329 13.9405207549664 0 0
-193.693206045009 1.74791375197739 -23.645640786843 0 0
203.030809044271 -9.16310928631609 -15.292229888995 0 0
154.28185717071 20.2206512560656 2.143103208765 0 0
218.09952690858 -38.7278781261553 -10.792662479679 0 0
63.630192904436 -9.25777392091326 4.92055479678723 0 0
13.949973208643 11.6562310860381 22.1928783987862 0 0
199.830155186403 22.868946274422 28.0162900839716 0 0
-228.975309171902 14.5119522810768 10.6415213010879 0 0
217.44161572882 -0.989004650968403 12.3990889797951 0 0
190.673987023584 8.30731999388661 25.3303665027271 0 0
-245.350752523207 -18.1914106304875 -16.22424499351 0 0
94.0001695185405 -15.4243761810803 8.43596172346285 0 0
183.090221835986 -34.4334108393322 2.39990347876229 0 0
-81.0560786620636 5.14145816699412 -7.85437039817263 0 0
219.874575999783 -13.0128034689995 -20.3231970797881 0 0
-258.411267577129 -22.9835839515799 10.3977191398718 0 0
201.052382141324 -14.8739459092528 -33.0150160963753 0 0
-202.049377163606 36.9367418010328 -0.87714134091874 0 0
-204.309005828047 -21.4932640650667 1.81799409470126 0 0
-151.321150604767 1.9668310470358 -12.5974014407955 0 0
190.88335198944 -11.078837547121 -18.162600190444 0 0
216.181224059461 -40.3303848839002 -20.9356701114069 0 0
-234.44076714142 12.5617332954995 -8.07698895478105 0 0
229.067094643457 -31.9820066398586 -16.776766528468 0 0
-98.4460365954534 14.1988591298528 -8.18448100809611 0 0
149.736563739123 -18.5213626539685 11.9860122673872 0 0
-84.4761335130023 2.05424486586244 -6.07419661746748 0 0
211.840501999958 35.7293824686991 -31.6424694857868 0 0
189.16121130622 -13.7604762897157 -16.9072503406839 0 0
174.298375720293 -28.9589577922648 1.30161739405007 0 0
209.284356770625 25.90590586188 23.9187521715524 0 0
-201.661187473574 24.8373142826907 7.65901654267661 0 0
118.9729631442 -14.7382189134687 2.29926004074127 0 0
-92.8578347165788 10.3846531604749 -9.16759133153727 0 0
94.8823129230285 14.6967594796056 15.3605800165366 0 0
127.550324425699 13.5794844187383 17.0625217638717 0 0
162.44422027446 13.6136933997124 18.5546538093449 0 0
168.908434946491 -12.4001175975738 17.6761656587197 0 0
122.430478623766 10.9309647635542 -8.18448182759924 0 0
183.257843373099 29.0392902571082 1.85188868575472 0 0
-74.5692036603968 -4.16880021979317 3.39564114517717 0 0
-238.609933025845 22.2086340529206 3.61533239314061 0 0
162.507278092809 -0.751223493407555 -9.11730438294483 0 0
185.164607624775 30.4875277896283 -0.379712568222889 0 0
218.211028802475 18.4935251792146 -27.4225579686879 0 0
12.0160662873912 18.3395253252029 15.0441217903518 0 0
-231.298376893425 5.50738274732766 5.8527187528718 0 0
-231.427939559494 12.9548697467018 6.63076034400847 0 0
-67.9776919960969 21.9299354050423 9.42169609426156 0 0
-189.68140401935 7.35170958763279 -22.7032264650141 0 0
187.624916729738 -24.3019814683171 -16.7701725527064 0 0
-183.557940456332 21.1034668549051 5.68630405879863 0 0
200.039925692717 -43.633252843375 -3.75570243292784 0 0
69.8513082321331 12.1236770423239 19.4638023322758 0 0
-218.364906939557 9.20888553746321 -15.3813807098862 0 0
193.789102828279 -39.4073472260986 -31.1556625541454 0 0
-120.851326535576 19.0316488805802 -7.37860793118048 0 0
49.6485936918809 1.84596515011844 22.411281925292 0 0
210.983823624417 10.1596119040754 -29.0466603036245 0 0
196.422572770845 -16.8559876889496 -33.2152165002609 0 0
-54.6470289682165 2.28460417601218 22.5496598686077 0 0
28.5356719896823 1.86324214685487 -5.53885127206384 0 0
-92.9097681310767 5.53615930916502 20.0396553251417 0 0
224.798135418882 -38.159272267959 -16.7180444787932 0 0
190.878281619572 -34.7798230296586 -29.4125464186774 0 0
-176.996313552925 10.1463039151327 -19.9582887733495 0 0
-177.125655198503 -9.97539170240196 7.43108130452509 0 0
127.809681341729 15.1576563771375 14.7723985668689 0 0
130.248250976293 16.9959641975691 10.910826435231 0 0
-117.311327999648 11.8903116660058 -11.4355994867607 0 0
-177.321781476571 21.3028046287548 -21.2682354087791 0 0
212.393766023774 -41.2778114006069 -24.7467619413395 0 0
187.80466394581 -29.1005631652907 -24.2570378674485 0 0
-205.86302591144 -5.02241490871164 10.8649465147843 0 0
137.417055788282 -15.8948908572614 14.659111429337 0 0
-197.940809175467 -17.4019912366084 3.65348226686024 0 0
205.882002670667 -41.9610951469522 -29.8306142886655 0 0
-190.330935117657 28.263536708574 -12.0691124607756 0 0
97.6493184461186 -10.7142127955237 18.3120010397043 0 0
154.575753073516 12.2980364760682 18.6293695606139 0 0
-228.553136836805 -2.94218013353684 -8.72272081392721 0 0
-225.382643963581 -48.829199652281 3.00343209340246 0 0
137.592740073952 19.24024438728 -2.83977192859952 0 0
223.572131575975 -38.3801501706086 -24.2267148311234 0 0
222.159766992292 -28.7611544834043 6.55802961166733 0 0
-196.723709745446 1.40034273264648 11.9222741681443 0 0
-238.254030414599 -8.27196075737365 9.90157418844147 0 0
-199.683442946656 20.9068087897648 -23.2823796683464 0 0
212.405152855712 -31.9579600677702 -37.5370694675982 0 0
192.400652984094 -15.9348395576948 -24.7556448951816 0 0
-222.805276861172 1.44395098090172 -11.3825138731193 0 0
25.4078227065838 4.02300920011565 23.069911443254 0 0
207.289380097254 -41.9216757321948 -31.7741154955833 0 0
-66.6964346412846 -2.89331994844252 17.5120508898961 0 0
147.433550769494 17.9088794838531 9.62408244293091 0 0
228.983460051844 -24.9522080545407 -18.1989325070078 0 0
-164.957564379435 -7.0097864501935 -10.063810657601 0 0
-227.297807143028 -25.3834188980495 20.5016178416506 0 0
-200.442913572846 27.3962510556377 6.30157051231762 0 0
-65.9091955510264 -5.26591583806038 11.4216154994113 0 0
-190.529273138212 20.9251645506063 6.91499506033337 0 0
198.927789085538 -41.468235444073 -31.6408407842978 0 0
-51.8193383541883 19.9690683312403 14.7812795531762 0 0
67.8557397623968 16.2107896148593 11.9370128040196 0 0
168.94994319286 -13.3496579268683 -10.1715679795518 0 0
-61.864263828267 -5.34482903005736 11.4032516694974 0 0
55.4630281474783 -11.6981011378174 12.4096783287872 0 0
-226.982404959384 18.617369166877 11.0661441736128 0 0
204.630271858677 20.0012092649547 27.3653135933393 0 0
207.03375219383 -15.0264798610166 -21.8433456804898 0 0
220.662392422783 30.4266243896611 -26.1055629735789 0 0
-198.578555530089 7.93383721928145 12.2485416908656 0 0
-127.449226509491 4.11842961270978 -9.30108650351769 0 0
-202.841110215828 22.5976734068716 8.77123242701244 0 0
-255.128686112499 -38.9041360674189 13.3588294033815 0 0
194.060414105253 -20.456809111141 21.1342801290038 0 0
127.242468292751 15.2101319553332 -7.80039105042317 0 0
-164.523531432479 -10.4391710175852 1.44471391965633 0 0
-243.223690507426 -51.6403683890331 3.04645391150199 0 0
222.208760311475 -38.466508477455 -26.9155269310381 0 0
-230.305619567164 -30.1659605155581 22.5572713208623 0 0
189.074302062412 -4.01943695760146 -16.8436728996873 0 0
-241.861379048744 -51.4963752809683 7.087276463736 0 0
-242.863024338585 -41.8639456709558 -18.0826538152103 0 0
-29.2444461833659 1.44330024544363 -5.05465416253254 0 0
117.277329778502 -17.0392659439485 6.25106762232441 0 0
-237.661614902233 -11.4035407686786 -10.5926445858797 0 0
-179.3638874125 -17.630227332277 -15.5113658570459 0 0
-238.559859490302 -25.1050271023955 23.5941054021971 0 0
169.448678907265 -4.71286466116142 -10.0525489898803 0 0
-122.270687048541 9.47351903593498 -10.6665207053429 0 0
-260.445534144892 -34.309771199324 6.16212192283982 0 0
112.753548709975 -16.9735671010422 11.2969814071001 0 0
184.161210415427 31.7015131156467 -6.73438054391079 0 0
-235.960954881763 -15.896989949736 -16.456268133323 0 0
-159.28918516805 22.6186524704217 -1.95565154868608 0 0
-233.217877583517 15.5641422577425 7.2671699328405 0 0
193.013851636597 -44.9390265744265 -15.1381259220788 0 0
-166.705067779633 20.433981568784 4.46249260674816 0 0
-3.58133773573755 4.27229942300736 -7.55625367592929 0 0
-189.887768201985 -2.68691063876504 10.0131654718283 0 0
-189.405558676047 -15.861260069484 -0.241463570984305 0 0
173.237336994597 -4.05845232116171 19.2863124483684 0 0
-50.1060310446146 5.60518809066699 23.1911076267744 0 0
-217.918074036329 3.00739675402984 -13.2875851188741 0 0
-236.352962491547 -25.8921110902379 -21.464637319698 0 0
189.374788387263 12.7702488622981 -28.2671470575564 0 0
202.479469328359 -14.6860768276444 -29.6583875369616 0 0
27.3900557623523 10.6137376949394 -3.07862559209831 0 0
216.126650312906 -13.6972600096233 22.8956754285841 0 0
-190.528634619938 0.382243656172916 -23.2850182852065 0 0
-189.568203605914 -15.2239107418772 1.87503162073002 0 0
129.662282095328 17.9438379230182 -4.59723176911 0 0
-191.211019588305 28.5339246546571 -4.49016976252603 0 0
214.239118742841 10.6802632282566 18.1110467283125 0 0
219.602441916197 30.8599413419648 -5.06444675290149 0 0
-180.165418854651 6.26960538673522 -20.6669592030322 0 0
70.1215388297872 11.0385103702796 -4.97007815702558 0 0
209.22923745134 18.0256853945934 24.7193873919455 0 0
-194.850470494972 -1.16655559899809 -23.0580015025462 0 0
-183.038322397458 -12.9357213660596 4.34291132954467 0 0
197.889868383139 -13.72022498665 23.3218770432065 0 0
-103.777283392061 -4.84429660687422 0.332365135672364 0 0
219.703246253035 -29.5604186238191 5.94175671950262 0 0
30.0825832504724 13.5468845551374 0.299441717522775 0 0
223.488362518694 -16.4624932743095 -23.6782301347471 0 0
-166.320842990498 15.8783517416916 -17.5402960765391 0 0
13.7716801301782 9.12000009223159 -4.70323230026438 0 0
36.553478838753 10.2561639195324 21.9106147328139 0 0
-256.350070069374 -17.3476991266017 8.11651276834712 0 0
-188.353094638598 -2.26719543689842 10.4945968387816 0 0
-203.940442462603 2.68122036160659 -21.4996801188327 0 0
-161.170266998282 -0.821408431743364 -14.2581427098239 0 0
54.7208417762001 -5.86488393182152 2.37494469642307 0 0
-194.778040352514 30.6491923357859 -5.86851109742186 0 0
-209.940650343185 -21.4586954865116 -7.99400166185652 0 0
112.275482370702 -3.53104842062935 -3.8308786704453 0 0
78.6889966881887 -13.595719613498 13.6848915844103 0 0
-205.120895671921 21.4291986813831 -24.2522929742108 0 0
65.5637682982324 -0.287017245924947 -4.24474571952552 0 0
-165.334677985916 -0.204745655729853 -16.0059791005595 0 0
26.6855721027857 -4.13938500975686 2.71221219343671 0 0
-91.7265144468796 -5.56221752861644 8.41108904207732 0 0
-103.16372987076 9.17283028946169 -9.25911220936407 0 0
201.722957547086 32.9898455064064 3.48126605962697 0 0
-233.868105573866 -0.199200431272841 2.12422316228007 0 0
168.101551437836 -15.221023979393 16.3179023678784 0 0
197.451140586951 -43.4132557291928 -4.75546945436731 0 0
-224.902236375525 6.67308635232242 -4.63326477637643 0 0
-187.823311718483 12.1104332092448 9.62047895772199 0 0
-217.185696507824 -30.9794997665794 -3.96003919533845 0 0
198.309817294632 -42.3079203546877 -22.0357010193376 0 0
-21.2165210894816 10.6336358172468 -3.06916883810771 0 0
19.9647609621524 1.41481368899118 -5.09911672343059 0 0
181.541243454371 -34.6213866738545 0.56011668336968 0 0
92.6899173051457 -7.56739664113016 -0.325440538303443 0 0
-73.729866672046 3.13318079821768 21.3290447498319 0 0
51.7084330731403 -9.07417993358936 18.3703714514151 0 0
-217.479336918908 36.786253553394 -1.37284042877819 0 0
225.654216104181 -32.5926361079495 -2.11711326744895 0 0
205.823239704905 -14.7508492474434 -20.2989400839556 0 0
-203.382369189491 37.53242048669 -4.54565947935096 0 0
-127.266919647332 22.3118782023791 -0.0755584665291582 0 0
-221.616409695699 -30.7751832110207 16.0928308255173 0 0
-261.299025545729 -29.8944934695515 -2.65722924891925 0 0
143.241133007969 19.0539405042535 2.85480369437593 0 0
-179.569748668429 0.299912776822299 -21.5000773309986 0 0
181.425397321561 -18.2499645598648 17.75317942773 0 0
35.2430048267832 14.5845414469252 1.52506703774357 0 0
178.890562208179 14.7203925700176 22.9677908793864 0 0
157.69013000941 4.58631129489289 20.8851530962679 0 0
38.8026300655715 16.73622581961 7.92464308310971 0 0
188.911104967312 -9.53337713094759 -16.6890898896198 0 0
-226.923641964809 22.5095240181768 9.78692322611596 0 0
-185.789394191821 17.7022313855481 8.21277759106888 0 0
-230.758364602437 25.7498842657142 -19.6032605357437 0 0
-200.586129217203 35.7436913628074 -6.29421897537993 0 0
191.495581355174 -33.3206308382955 8.4713273721522 0 0
209.627837006308 30.0803114599949 8.08166536797715 0 0
198.472021013695 30.4731987234562 11.3547142806691 0 0
132.102178492354 7.77057921061263 21.0147091381545 0 0
-159.04819742367 3.03212397698059 11.8029293220726 0 0
155.83544085912 18.77477217248 -9.79094964984734 0 0
10.8171022283557 1.24090655351456 -4.68954534405908 0 0
51.8333222961613 -5.1336059955293 1.89605709857418 0 0
62.0310183248847 16.8289783355707 8.36086917603665 0 0
150.361171426829 17.8735568184355 10.1661674178353 0 0
106.513090255904 0.788413136865008 -5.40818785621235 0 0
-104.199080681817 22.1807193359605 1.08935358644219 0 0
205.723419326998 31.995395386371 3.40880211898522 0 0
201.616919307044 10.1238944875609 -27.6774905656339 0 0
-100.057457074688 6.62454236554297 -8.32409302949642 0 0
-127.898640776064 11.5215173724429 -12.3684444854321 0 0
65.6447874480256 -12.4235129965683 10.1834884933984 0 0
168.048274011743 3.46418848389361 -10.7431525914085 0 0
-201.135899883882 0.465599422403418 -21.3160950703163 0 0
205.631714350151 -13.6217553043612 25.7164937669463 0 0
56.8250879040217 -7.38152304287528 19.5791898301759 0 0
167.292939076937 11.1661059971805 20.885797600334 0 0
147.410921215423 19.761388037026 -6.16294933674278 0 0
-1.44658248631516 12.0599099076916 22.4464403734623 0 0
175.442496989535 1.64994752151674 20.5449876818681 0 0
203.071771667375 -29.138396597206 -38.3449423927622 0 0
-129.464138373175 -6.97859944488971 5.203691234525 0 0
202.114889258758 28.1964064195173 16.3727140079371 0 0
213.860105698863 -41.9798641991645 -16.438744801271 0 0
-223.879351191109 -23.4247214789768 17.5611200163105 0 0
188.19196014248 -21.3372657169296 -16.1651013507268 0 0
-233.679195439839 18.5625998230483 -24.6687221484524 0 0
195.043818045708 -38.9136907515013 2.42863090917617 0 0
-9.79414300925416 11.9406528465009 -1.40362226550935 0 0
-165.683403093099 17.9521316231093 -17.5258437159678 0 0
-80.561475511774 12.8667607486978 -6.59521029984626 0 0
-183.828531120999 19.4170339491103 7.04015930851135 0 0
-191.486631334894 22.8120064506142 -19.7216031152265 0 0
-49.4113556270407 14.3668074593332 20.4778789906328 0 0
142.081998699536 19.0704505347836 -7.08484589446948 0 0
178.785702414773 -28.5260730586071 8.06674163687485 0 0
219.817464917556 19.5225474983192 -25.3035350803046 0 0
186.69768699659 -29.6736333206066 10.923212766736 0 0
-204.46767417679 5.28159429870769 -23.7285467732446 0 0
-127.294081280108 -0.435953075114193 13.3458333888474 0 0
138.763625737913 13.0026938912166 17.8693313516549 0 0
-249.168847722691 -29.9915554200557 21.3317795539186 0 0
-142.522870916991 20.8024124292434 -8.72585253287234 0 0
-244.272416658553 -11.5648325174037 -5.62104848165627 0 0
-246.138427915953 -50.892490127542 1.48082506637601 0 0
74.9552615211658 4.59836500984415 22.3341624215147 0 0
-104.215817001715 9.07143771394576 18.3748526728756 0 0
153.15561187168 -15.0705859919474 -5.09863108731378 0 0
212.668413581129 36.2788479700924 -21.5410877435354 0 0
212.606978688061 -41.3426807054841 -8.91301854618136 0 0
207.602394203938 31.3346038219499 5.50516296315616 0 0
190.976662039234 33.1920985550937 -27.6178217140645 0 0
-260.971357508765 -24.821721677172 -1.96530919170085 0 0
192.359073840979 -38.7260983212307 -28.8098740889725 0 0
-149.887568493061 1.62785557524879 12.2384576984086 0 0
184.873160527278 30.6849380001854 -1.98656688021565 0 0
-4.95138292316804 -7.40191830899511 15.9358270415189 0 0
154.308408025624 -9.55893032186165 18.4134872960153 0 0
137.537902439036 12.4557860365513 -8.86316152566433 0 0
196.465542291599 7.20703195016926 -23.3592430200245 0 0
71.9591320152677 8.85003110840111 -6.78400638301952 0 0
-223.692398774617 -47.2368332549902 -2.246532839184 0 0
177.823243457066 -4.27161668447564 19.7337189006626 0 0
25.9398064411688 -0.88439415079221 -0.955739508108425 0 0
-154.113337354479 -1.36501796471438 -11.8767760855808 0 0
158.437478141603 -15.8299850411157 15.0974772498219 0 0
133.623050580831 -7.27211074558443 -4.5378075893298 0 0
-173.756781434899 20.2036235440241 -19.3026634680259 0 0
140.831958767002 5.62692394179383 -8.40248354228093 0 0
222.328027407992 13.4058218550644 3.08893362664079 0 0
-222.162097077624 26.3867027147496 -20.6621794420199 0 0
121.878732973399 17.8402204963606 7.58713927716008 0 0
142.909257254685 -3.13858505432692 -6.68054035161048 0 0
-188.697021214617 -14.2997839585569 -21.8338900984506 0 0
-245.31455325962 -31.7798953535196 22.9072221318816 0 0
102.628276937931 -7.78849696639021 19.7745693471529 0 0
-220.019576924881 28.1328268332024 6.77919272172265 0 0
-232.34035521852 -6.53665491467186 12.4560734444926 0 0
-199.763424549797 -8.54614839368777 9.27139360666259 0 0
208.252483926405 -41.9942301619629 -28.2710004277488 0 0
-213.651432026178 32.7923949066604 -14.3659273070269 0 0
186.80588034238 -15.0404479437368 -15.0343681520131 0 0
-90.9469144458215 12.2431126794525 -8.32721179988965 0 0
92.1066731635381 -12.8726268004688 4.61982260128414 0 0
91.0818877884716 14.1703879598584 -3.83431050739964 0 0
-161.643744675236 4.05083860422368 -15.3550322579387 0 0
197.328680942323 12.1084096618702 26.6196454966567 0 0
220.759720928685 32.6523216467597 -25.2051929289729 0 0
189.244872496996 3.05872640892387 22.8639016230224 0 0
162.291949147399 -0.642100690765979 20.1200023782564 0 0
-43.329431039209 1.58999442129673 -4.83260636923105 0 0
-194.486688232396 29.2481736436162 -15.1959004314729 0 0
180.10782013008 27.7209426341263 -0.350435991962915 0 0
-137.674252113499 12.0738789361096 13.1227454478654 0 0
171.765450505304 -7.331223803678 19.3514813649114 0 0
-245.503267833487 -49.4116193155898 -4.97718589892454 0 0
161.983159013213 -7.95183524473122 -8.0633015828817 0 0
-237.998213602109 -36.2439333758499 23.1190615779302 0 0
-171.365758873543 -2.75916786995795 -19.0558806061684 0 0
-160.108678249667 -1.7888479205084 10.0600829831097 0 0
187.130884613474 23.0232615187315 -31.9399434184095 0 0
48.9908573827188 -10.0572877496948 8.70040389879656 0 0
-213.903242485292 16.9630890637589 13.1165705543402 0 0
-183.189102091027 -18.5207001804321 -16.1937740548089 0 0
219.437849706214 -12.9523422781459 -22.1883932755324 0 0
175.988627780244 23.6611066290252 -16.1514317492177 0 0
72.8128677760822 12.1584242673294 19.3312287343498 0 0
-150.534164776041 22.4089005960353 -6.02956527078069 0 0
101.678558522396 -11.6978862680945 1.91844815265593 0 0
189.95751989827 -15.8024365887727 21.5940082429431 0 0
205.153410115586 -41.1035624607838 -1.74794434969254 0 0
-70.7612943129105 -4.92074665044762 12.5067892835298 0 0
165.117158540156 16.2840161698087 -13.751167375213 0 0
154.605739628143 14.229594962573 -10.8038009217029 0 0
-188.804410883979 -12.7258528111259 -23.516655325651 0 0
146.912995696125 11.2747309860799 19.1924695538116 0 0
-192.92448837568 -3.00601706069942 10.4800202639551 0 0
-208.738320872207 4.81315176640533 -20.6133865738813 0 0
-65.7494815341134 4.08464955031463 -7.20706467289588 0 0
26.7739490666637 -9.43012914054379 15.7777432616936 0 0
195.600820916497 -31.3812687720787 -34.8514523628572 0 0
-53.7535607091172 -1.03542570644924 -0.13234954641606 0 0
-83.7711697975296 14.2378015134851 17.4840325404657 0 0
137.658091280474 11.6409479506101 19.0149257118829 0 0
-247.653677333266 -39.661707659745 19.1618960240745 0 0
191.858650677353 -34.5665875722816 7.01379174515891 0 0
-198.953884000343 33.6782304878494 -6.5780243358457 0 0
-156.873577569957 6.91889095245417 12.2837252260596 0 0
-219.595477087398 32.4787657283591 -14.1469870066278 0 0
-172.289632932002 11.0604703337459 -18.837009040455 0 0
-206.793237392922 27.8516295281557 8.89393286510511 0 0
59.6223587134672 -8.02012136944855 19.2567407416368 0 0
188.748917876139 8.38947526157531 25.2859873256838 0 0
-157.264437292086 7.03996418538281 -14.7395218289109 0 0
195.73334950896 20.4388948565949 -35.3843435023235 0 0
-188.296220521381 26.0299351450351 -18.6460591504494 0 0
-179.522980212635 21.889442304194 3.86408991445952 0 0
145.487639900751 -15.8444734864561 -2.85073833589781 0 0
76.7485421164047 14.7285719806398 15.5900402549012 0 0
-234.114401808676 28.4450528676533 -14.9741911545706 0 0
212.5209792462 -30.5426640618675 7.87798764510085 0 0
-13.553356752761 11.4757683803076 -2.00577657398711 0 0
208.980286943235 36.9931928515679 -16.188836505442 0 0
-151.894944481841 21.5592687642876 -8.21156542037064 0 0
116.434428166665 -7.0678849210062 -2.70714868585937 0 0
-235.374112666718 -5.42528263617372 8.97171659176357 0 0
168.334361967488 21.4284530219921 7.87503507535594 0 0
90.0492192771849 0.332898340180064 22.1127685146339 0 0
-105.122631232642 -3.30172905795192 -2.56583038454026 0 0
-20.3086630689929 1.35975573671639 -4.69837557776504 0 0
-219.114939297494 -39.7119819245376 -2.51498347698683 0 0
202.68970608566 -26.5001158622492 15.7219507212756 0 0
172.359923846416 -21.7814007924032 -9.95688079674237 0 0
-208.513534544201 -2.54671607791378 11.6312179336241 0 0
-229.418015718951 23.1371660802012 9.68804898851424 0 0
-218.945213593684 0.0881792475973307 -12.9622690875056 0 0
-131.039060162689 -3.13238820207663 -7.3116236364448 0 0
-200.320470469604 2.11841664133684 -22.7035033448013 0 0
-232.230933766562 -3.18749600906121 -4.2689865363268 0 0
215.438526680944 20.3791281851772 19.9282316834048 0 0
-110.320906879333 10.4927245809687 -10.4594405737204 0 0
-218.276115250821 35.9147251011314 -5.71657693407473 0 0
-256.385740626316 -44.542207465982 0.993904680501352 0 0
215.356677453633 37.3129782235083 -19.2852679437514 0 0
-137.118991184776 3.22685184397785 14.2718160075613 0 0
205.351113207875 9.94352019261668 -30.4004837623005 0 0
182.289443818465 10.2875913694447 -17.3639192587171 0 0
210.161835770696 32.5758906834042 -0.246992285803547 0 0
-155.868886270466 -1.79324053847153 -12.155309612057 0 0
-193.464398488532 18.9251373621973 8.66545814487867 0 0
84.4289557429688 4.69705251046151 -6.56659052947404 0 0
199.883707236747 14.0595784409175 27.2839437644148 0 0
80.5432798369989 14.1033681951774 -2.84250603618365 0 0
-230.160178563522 -51.4786365399246 -0.159229355369793 0 0
-227.366420339996 13.2772850036122 -16.6471181467915 0 0
-146.787796447496 -7.1127052202594 -4.2942993791038 0 0
115.102246283872 14.8694124349133 -6.36862766419201 0 0
194.135960934888 15.8093418913615 -32.9127568246102 0 0
200.624315511634 5.67450906889891 -20.5268083387661 0 0
96.5049807861826 0.620570102607227 22.0967461088063 0 0
-180.823070233924 0.601422749612626 9.94366980442987 0 0
-195.625949031512 -5.14354536455102 -21.1914648016896 0 0
167.782466886623 4.4087210315353 20.9742163026925 0 0
-95.7313835883166 20.4460622390124 10.8064301018958 0 0
188.714592214213 -19.8987395248244 -19.9979927186695 0 0
-230.481228953268 -8.09465483278402 13.6497525541149 0 0
-190.796833228788 -2.60570685595645 -23.7440622670465 0 0
-80.057440042176 -4.7647462868043 3.98920619244696 0 0
164.334553818026 1.15657057014559 -9.73235909503299 0 0
-118.577068996007 21.7512973753037 -2.63202866656428 0 0
158.045787468718 0.352854007551496 -8.86553055717786 0 0
118.882804877896 18.455305332441 1.17960998617513 0 0
-167.067866333503 2.18554520456249 -16.6925270408241 0 0
180.447302239956 -28.1241936252919 9.49328334911418 0 0
-257.758833319991 -17.357584753669 1.92939660390762 0 0
91.3576985872175 17.3584558555705 8.00254193058837 0 0
193.731218590595 35.028549200239 -2.64997042565974 0 0
-159.57799206932 18.5012938792758 -14.8855155827439 0 0
-255.397825592201 -32.8947169924643 -14.317522277429 0 0
-215.147849866916 3.1921231332526 -15.0166492040223 0 0
223.380170242342 26.2991237958934 -5.74357196765098 0 0
203.771127695636 31.7377303751121 6.53914291482623 0 0
209.91705347649 11.8418327762084 -30.682530990102 0 0
-15.5285080591964 -5.72265798553348 8.80510157771669 0 0
-166.181959354533 11.7126632698225 -17.3414385576075 0 0
107.711257972745 18.2714036996052 2.76757718297627 0 0
165.922744067649 -0.820761627099405 19.8226038237136 0 0
225.330627994369 -11.0167178649732 -7.29704033047775 0 0
-108.785578318175 -5.79936620142861 7.85852706271077 0 0
205.002098735252 -2.51708428447904 -9.97896074884966 0 0
-202.391518698631 32.3587816194727 4.31281112131506 0 0
94.556295408419 -0.13171807775923 -4.77564649064564 0 0
228.877078577857 -29.781765829312 -17.579606444281 0 0
176.412100068544 5.96146930031885 22.0613320585302 0 0
149.370740584247 -3.16149935571866 20.2737229133798 0 0
80.001205035089 -5.12753711947839 20.6302485259983 0 0
94.2690144845177 -1.54617093518362 21.7293062369075 0 0
186.530334000066 35.0035399975311 -10.0143872539178 0 0
-204.164429764276 -12.6060737028001 9.15047710435394 0 0
2.09575839392303 12.7914946646068 22.0883861523569 0 0
218.470811222508 -32.1104768783875 2.31368779264835 0 0
64.8128785599691 -11.831245194606 15.4326700098747 0 0
178.583195726649 27.3205275132398 -2.00417933376432 0 0
-14.9836169343899 9.68109963776974 -4.19957194890826 0 0
-238.416684288247 -49.5605332026006 -1.69080020262318 0 0
189.334490146426 -42.8046227462012 -16.5125255225665 0 0
192.624066753519 19.087879746854 -33.8664317485288 0 0
177.032377067189 25.7904185330799 2.49990842954593 0 0
179.784723757401 26.5565491041896 5.66265900794368 0 0
-220.745329385766 -26.791125635663 15.1584698841123 0 0
-95.8780627220018 -3.01831086688625 -1.6821650971082 0 0
161.061423937712 3.44839867838737 -9.76737270165784 0 0
-233.245047874213 25.4951481557837 -19.8997662174802 0 0
203.077876492774 35.2595839165554 -1.98813410146846 0 0
-148.319789502681 14.9258055998484 -14.2010985563442 0 0
-173.156191148154 16.7806784121062 -19.6678099492233 0 0
185.761787983453 32.4463264623087 -5.02600139454039 0 0
208.33075725547 -5.67717988765641 23.6665485288121 0 0
125.130318711808 6.9144998760693 21.3864288480601 0 0
-95.7392742430849 17.7615077684709 -4.50750817796336 0 0
-223.849755602574 -19.9114520307318 -14.7963090909891 0 0
192.706701189349 -37.069954836484 -30.6976311392746 0 0
-86.7645209550746 -3.76000496112154 13.5249438685023 0 0
-182.44421155476 -10.641990057379 7.8107816180958 0 0
-210.707078880945 37.704792493252 0.162484709291932 0 0
-149.875857382123 3.62633128102965 -12.8180749425754 0 0
223.830791643548 -37.4518892142449 -25.9632511677568 0 0
58.2386941833896 14.5600892662546 0.05271770823217 0 0
130.453224599201 9.6822390841346 20.3025363019025 0 0
153.792157217761 -7.28093256345311 19.1699789818988 0 0
-114.274707333382 21.706842028339 5.16934447462186 0 0
-64.7934933486484 -2.78209717889612 1.81000796253566 0 0
-140.884825032578 7.66903865088671 -12.3260521692708 0 0
-124.973926078775 -6.28124688690624 6.58008700495062 0 0
210.425259984584 27.8350347618206 16.8080519829183 0 0
-205.623604247589 23.0807102594132 -23.2672985232634 0 0
118.520314603719 12.9659716763725 17.7311370497298 0 0
52.2602859813613 16.145436154832 3.94552476485458 0 0
-211.732818713136 -6.37734296734475 -14.1762450559121 0 0
-243.523589392474 -22.5825004920207 -20.0051234138628 0 0
117.191561785632 6.42124279294666 -7.32187298744386 0 0
-193.98500737059 20.3099159911255 7.88212926115442 0 0
-232.706094912545 -30.7998511024612 23.3148248900777 0 0
184.161683653138 8.62832084509815 24.7095356529593 0 0
164.392199261961 22.7819010678677 -2.41928903859119 0 0
-107.239651326107 16.0841038289515 13.8150349280995 0 0
-17.5632079213253 -4.14427333376196 5.84752828874749 0 0
-163.539808916974 21.8829386206386 -11.0331696483028 0 0
-196.805071181633 -7.43617386795845 9.35136638359962 0 0
183.740267632686 4.19525627093577 22.8838392381153 0 0
133.457978847242 6.98956522755745 -8.14168908417614 0 0
-63.4179926869989 4.59727943610197 -7.35871077861699 0 0
98.0978988285096 15.4768577298247 13.8372418110307 0 0
15.3128831591857 -6.4238849448119 19.8125316054894 0 0
219.760096944928 -40.0402826319961 -27.1051219408743 0 0
-201.509789762163 37.3371099117528 -3.10064657618465 0 0
205.245429869322 12.3916790525321 -32.4955716332849 0 0
67.2829115833518 9.5018612778043 -5.95732871685736 0 0
204.125781452679 22.1458865896288 27.9233529803626 0 0
-236.120631417793 -20.4499025087899 -19.8866609703355 0 0
-167.226303139901 0.900007875591487 10.7274438678759 0 0
184.797106581765 14.5706218199743 -22.717206219164 0 0
204.440439658312 8.88890949863169 -24.720128774045 0 0
-30.8716036628746 20.4774054161051 9.73784542484989 0 0
223.665235873417 23.1790086931699 2.3411357392537 0 0
201.111744035156 -41.745813701489 -31.4030866014104 0 0
201.152284086847 -14.4300737684817 -20.6249080375953 0 0
212.943627426917 5.09499958473319 -16.3483032073026 0 0
218.575091007015 -10.9559934913485 19.421702169988 0 0
-77.2353313900124 7.52239653586647 -7.8693184573604 0 0
217.211510244692 22.1573922750806 17.866536632091 0 0
10.0905610641745 -5.40670864234034 20.4794607233553 0 0
-197.381006802223 4.17364229750108 11.9181720093182 0 0
213.4004975191 15.4922713392344 21.1177029343393 0 0
166.895388905688 13.1974759174286 19.7397412583004 0 0
-233.938826193975 11.9015379294824 -21.695254525286 0 0
-119.987114982771 5.53556473728494 16.843234538908 0 0
-212.883295777247 -2.05757226505805 -15.0375840745089 0 0
-184.628640221436 -2.29532408132053 10.4839740926806 0 0
171.616765262489 -27.0640794696066 4.65875261859347 0 0
-254.005545146321 -41.6645052785726 -11.3993811104844 0 0
185.917717579209 -31.156835616026 9.21511418822322 0 0
-219.102924239846 9.44372326301171 -13.5313363960193 0 0
59.9670503737285 8.37277420992402 -6.48163230092316 0 0
-218.481409427569 5.27191716312383 -12.9173376924975 0 0
127.699106213995 17.9099046684614 7.41673349908994 0 0
10.2331702995436 15.2773953144014 20.2669035551477 0 0
-72.6759751992701 7.55421500033816 21.8429594656616 0 0
207.408779269546 27.3552243631602 -36.1894653485854 0 0
58.2434197409563 -1.17060590905221 21.7259599773975 0 0
144.82315459198 18.5226247683372 -8.0588991393105 0 0
-230.595175196972 -50.3348439576379 -5.60597072200186 0 0
-51.5127308789371 1.3349891009795 -4.07000137195319 0 0
-221.008892620783 -8.3831224720024 -13.2786560888322 0 0
-184.19908930143 -10.4396531717088 8.34999696238559 0 0
-196.847222014754 -17.8176791268276 -6.28946032396328 0 0
90.4016523653243 -4.91312810267996 20.7611538985539 0 0
10.3351027722946 10.6303533900293 22.7288892145059 0 0
47.2380243347013 16.7381111216545 12.8036392625187 0 0
-64.6561096810355 20.8694602225946 12.5522792931445 0 0
220.370116971133 25.6688687403414 12.1433582671001 0 0
187.87897010011 30.8071057571241 5.19482345453064 0 0
-127.251339303277 1.99514689728552 -8.58852833554588 0 0
199.250448659166 27.1908200630036 18.4714924492517 0 0
-120.369468199949 11.9938945046322 -11.9586816447504 0 0
216.010936637573 36.6958637161979 -17.6227669928633 0 0
-101.252657694231 8.70879178009591 -9.01760686994126 0 0
-200.382012354299 11.3030050097133 -25.1029096493323 0 0
213.21270435517 -14.5238100663099 -20.6741151369331 0 0
136.025566141326 4.57466284237815 -7.92962730658656 0 0
-135.488100006919 -6.58117418615731 5.49101840747007 0 0
187.676535471444 -26.3656218413612 -17.1696180958133 0 0
-41.5433335668017 6.99706158203058 -7.1683034805427 0 0
-198.308417987047 -18.8852410177962 1.08884202753526 0 0
42.4438910509074 -1.03166926409054 21.9023228124635 0 0
-202.336447415599 -18.3131635210352 5.15584619844485 0 0
-233.033366266211 -36.5171136262456 22.3437633522067 0 0
179.596432269555 -16.7467045967027 -12.9703408523081 0 0
206.741258155463 -28.9076232118412 11.9122649576318 0 0
123.829815301813 0.522839891737272 -6.23071397982387 0 0
