"x" "y" "z" "f" "a"
151.922371977547 -1.82337886985127 19.3837359714581 0 0
-45.0594777724703 -2.84153965696463 -2.53487615628757 0 0
-192.333109949234 -15.1599276035203 12.3609485255579 0 0
-28.3288567651605 -3.24786481669559 -2.39101044057827 0 0
31.8892421301494 10.399818733266 3.64086338953238 0 0
170.191605929042 -12.7024103746566 20.2349727306979 0 0
163.621129190241 -17.2837063303712 -24.3341906677244 0 0
-113.882490319249 14.6289937417161 14.340765794102 0 0
-198.44821054617 13.579484929852 -8.53994617580352 0 0
162.376834038628 29.0559781757444 -22.4446200511211 0 0
-29.0550115036788 0.523033797261168 -4.15036474091465 0 0
-177.959462588543 25.5041576707733 -20.6922649466568 0 0
-89.1326618750975 -4.57590163386235 19.9849474833927 0 0
-12.4457136989411 0.0661336313649169 -3.95988655901984 0 0
140.197330700587 10.4920359016124 20.7185258042724 0 0
-92.2439171035222 -6.48070321462134 0.346431291160761 0 0
-80.8243631076846 6.19684176515684 -5.40907869129429 0 0
125.642976805866 9.43879507643793 -9.08700428027106 0 0
185.288891597815 -12.9714439706247 -30.6201161225591 0 0
174.339598120146 30.0246366551635 -33.7627571186197 0 0
147.9037288208 -2.41916285474618 19.7096159482829 0 0
42.3668643510722 -13.0171761801691 17.7889776807025 0 0
-112.424360200249 19.9263416890959 0.63772841073195 0 0
193.162695039032 15.532227336425 -19.0126299364117 0 0
-164.744373158322 12.6876634702882 -21.0153460306386 0 0
-193.92896539075 -14.3075513506643 -17.045125533137 0 0
-137.8820716352 1.05205484252502 -13.5086136786954 0 0
6.35319021042126 9.97971897905906 4.71529282627756 0 0
-13.0666270228307 -11.1798185723568 13.5348804321756 0 0
-141.555320036847 9.88825842553372 -14.8411407622759 0 0
154.440324805112 26.5524013668944 -1.55259462645793 0 0
-117.035888987494 16.3596250978193 -10.6392099350961 0 0
153.333133542232 -17.7881301056635 -12.9424723446047 0 0
171.969972428585 18.8617664538638 -36.8341085166308 0 0
-166.083172751156 1.9793541097588 9.1302897269537 0 0
-110.70108874169 -2.48145373718633 -5.82092194676017 0 0
-188.692897771311 27.6971362633934 -19.271493748234 0 0
200.655161088281 -30.6599891510181 -5.78114297120942 0 0
-115.320369255372 -5.34897391278103 -4.58504068813754 0 0
199.592020394652 -30.6939571730223 -3.72938756600984 0 0
-199.489234604649 -37.4763956578767 -16.6225131279668 0 0
-16.7415565420149 -2.20395214830874 26.9651177567468 0 0
-172.30156725602 27.5459591936709 9.46749730429861 0 0
8.46259135658272 8.3407581330222 25.4204610383191 0 0
183.380160603567 22.8003165915228 -35.0135120082223 0 0
-98.1731533034082 14.9338245856971 -6.18094143388761 0 0
-218.832752823139 -40.1703948617453 -7.57938627502533 0 0
187.767486012943 0.284095783418845 -5.69843378369102 0 0
-15.3957475741194 -4.12992470186079 -2.01651921741339 0 0
165.272255012808 -9.64469280147775 19.7112114744079 0 0
-133.19205919493 20.3794594306543 -11.1860698132967 0 0
-195.0766639963 29.2401811517321 -3.52230352611779 0 0
61.4735998309829 12.3979778748813 2.24064437984652 0 0
168.373281793984 0.881450130885493 -17.5146636046597 0 0
-134.690110601444 20.4616113810978 -4.00238578281792 0 0
156.715122337 -8.74880853095922 -11.8226836417263 0 0
-222.798161248057 -19.9295517029183 -16.0246152746569 0 0
-192.060429376945 -12.6999188105968 11.6056288442552 0 0
-198.989677947173 -40.1442851251736 6.33004472512946 0 0
-104.72226941403 18.8363726336361 -0.902083914533215 0 0
190.880658435477 9.49446554321605 -10.6855563587098 0 0
-172.285020780158 33.1053010716292 2.41102743562719 0 0
131.216655111085 13.769955834573 20.2897283864413 0 0
137.214014843292 -20.4229830738781 -3.22695876027557 0 0
151.346103702692 -24.1065576903942 -11.4431447551622 0 0
152.590244581044 -10.1627188678061 -11.6737363109118 0 0
-188.055214480292 -0.152785230990821 10.4564351188418 0 0
-145.687630395358 12.4610394091807 -15.6703615748845 0 0
-223.146583849747 -35.8973831077991 2.28121189912623 0 0
-175.333289908553 34.6031366110592 0.6595557230839 0 0
167.070575968699 -30.2185960503625 -19.2537457467336 0 0
-93.163038381409 8.70277445950281 19.709752399946 0 0
-185.510013329865 -7.34645235482083 -13.8031764802892 0 0
185.699779641807 -11.3940744231011 -25.1918411862807 0 0
-150.766347737203 -1.1061516856751 -17.7742825897243 0 0
198.140939939575 -33.6746747185111 -10.6717329027145 0 0
146.325996058718 -10.9772131609707 -9.63570673670044 0 0
-191.782376954596 -37.683845474641 -7.99415275052594 0 0
179.029540233775 -30.0770542961407 8.41827914957609 0 0
146.608263547183 -1.08838380331253 -8.43006644257398 0 0
-78.8289325110707 -6.78951460890199 19.5715968991581 0 0
-101.098335783147 15.7100958756078 14.8367385600011 0 0
112.641924189322 -6.83488153809155 -2.83863480744883 0 0
-35.0070463606354 -7.60363277831542 5.07131858052583 0 0
-24.8487347817925 -7.4378696784001 4.82993717057757 0 0
177.967034671765 -12.756141028445 -27.273854433245 0 0
-124.199054943608 1.17684122505271 -9.99067990635142 0 0
194.820064771538 21.6208306714854 -11.6189102937688 0 0
51.3744994950489 -13.9072050669453 13.8018118043807 0 0
-60.4800497498518 12.9787041286135 3.0710574940748 0 0
160.847090780281 5.61504970601103 -16.1882598233738 0 0
132.343962187031 -19.3306718926552 8.07556515734979 0 0
167.628551346152 -34.9446238691974 2.35527819504301 0 0
140.186245790869 -15.3753837855761 14.4628877020555 0 0
194.687243936993 24.4100302774943 -14.3358397467114 0 0
-106.175206048998 -5.38913068794833 16.0132597030241 0 0
-197.730345866231 -7.11945064201604 -15.1032973342373 0 0
-221.540249754288 -29.7791140956691 10.2552524380263 0 0
-129.374526551286 18.9513364278679 8.55963745301787 0 0
-20.1155767217316 -8.22164707360115 6.57557273868516 0 0
-105.387938977 9.71677285195909 -7.98825799029838 0 0
-86.8132203324708 -3.47651739428706 20.9713399996266 0 0
-197.561496392008 9.82063196137814 7.18779577031597 0 0
8.24568301160999 0.228027594963892 27.5201149103755 0 0
22.9645337318248 -2.01626275452422 -2.63747290678075 0 0
-79.3929712516941 -9.35917309288325 11.421398279288 0 0
-183.090791605978 30.7526165077591 -13.3267637153058 0 0
-139.503895356144 -11.2671691344629 -4.28138340262275 0 0
-81.1536163053641 -9.23807514962009 11.8199918469734 0 0
133.882383485758 20.4209021369431 12.1752066903892 0 0
44.3253285695037 -6.25908041852989 1.59770428211339 0 0
-73.3818411847427 -8.38833373241917 5.35898941688681 0 0
183.43110891308 -1.7465719574574 18.3941584173054 0 0
-122.269405206625 -0.736800177664696 -9.24247868411888 0 0
184.618396492959 -36.9713719112917 -23.731589876888 0 0
-97.6647490526343 18.635285664043 9.90890954646482 0 0
-152.044942229465 -11.8657638179417 -19.3106480058687 0 0
155.26507063624 -21.9030690696702 -13.4726102826353 0 0
33.6999197610239 1.26245336640771 -3.59330688799865 0 0
160.32302139385 24.0972942238311 -30.4186016528059 0 0
128.470189549472 20.6482327923848 7.36890509304946 0 0
42.809676251618 1.4198672445217 26.9829593772908 0 0
-154.132938663291 -14.5463843309235 -16.7332749234219 0 0
84.6150261311209 5.2644346010242 25.3202811912971 0 0
83.8370982470603 13.2672878611732 -0.881988761403286 0 0
163.801257148195 -36.9253515487157 -5.88916820782431 0 0
30.4698510745285 -2.36837360226771 -2.29787997801545 0 0
188.962510042257 -35.2405932991317 -12.5495529130993 0 0
-169.985769602139 2.13635816448526 -15.5345413800856 0 0
-154.813274204829 17.7470331072979 -17.5916276026082 0 0
200.923857723882 -30.3912124912812 -11.9902064356519 0 0
68.2829281802634 -14.3287944581029 11.3505861942795 0 0
-27.7754759387921 -10.9395509629285 15.3583616165965 0 0
157.34013297682 -21.7240823307577 -13.8127839877975 0 0
-82.1115016687875 -0.231512661479421 22.6738190109221 0 0
56.2770060507489 12.8493308372763 20.4466199153394 0 0
188.535468957198 -37.0657374398068 -22.8992345341284 0 0
100.520571136163 -11.4735912265352 0.486747763102119 0 0
-221.395119481024 -8.52974134429384 -5.9784041059331 0 0
186.477736518085 -5.89889795520334 -8.59774947353071 0 0
165.396881706095 -34.607956815223 1.56359671524796 0 0
163.918835376578 -30.0019670055222 -17.3511448515001 0 0
-163.493626203297 -15.4684350702099 -8.40066727205193 0 0
171.999010653336 -36.3133624509427 0.822671494946753 0 0
-192.024188792511 -5.93140256927757 -14.8086073177493 0 0
195.694822488013 -29.3789053529337 -27.1779443524105 0 0
162.934869331342 35.2849657573603 -13.9996578172953 0 0
-168.29210871864 0.681169399581746 -15.3857024315648 0 0
-15.9805294133681 0.717543219107345 27.4171202696408 0 0
38.057997074078 -5.29448778258964 0.812975934610212 0 0
115.324191721571 18.0625613741037 -3.2681416797316 0 0
-203.193396650686 -35.3445517956292 -20.0548100934367 0 0
-191.574342299354 3.67296885019529 10.958259356351 0 0
113.778113502501 -14.0675535029982 15.2157173483749 0 0
182.374297284689 -36.8510887820131 -2.70524354827776 0 0
93.1643260835108 6.77289133966206 24.4453576704732 0 0
-131.669061091672 20.991326741262 2.39557235716867 0 0
-59.659327224814 13.9501591108864 4.81480164736963 0 0
-18.7156627321129 -8.38115673979221 23.538011666307 0 0
67.6876795594486 9.44823100719674 24.2060729088344 0 0
184.893686797426 4.40380247253151 -13.1180560451504 0 0
-63.7864923310438 -8.91968529508694 7.18614576177543 0 0
194.925973561997 -34.191985082855 -23.7644852522754 0 0
123.283908033548 19.2729572018353 12.1379371911533 0 0
-198.018680390407 23.0735925458089 5.82907321231806 0 0
28.7081413716528 7.60388944118476 1.19274655395702 0 0
-215.5041324053 -29.4386595926341 -21.0546058791376 0 0
-21.4783204867292 8.94350363191046 25.310409155514 0 0
128.454439070742 -7.6761575905486 -4.80792711208709 0 0
184.071338380443 4.32230699577759 -10.931354064718 0 0
99.8358626022036 -15.4662856922413 11.9805483832487 0 0
153.502405883207 7.92281071907445 -14.5615080470532 0 0
-106.407131298205 2.66878481760085 -7.15697450050872 0 0
-141.069020301828 20.9959677071202 -7.07782680643462 0 0
158.735578516164 7.67405679953499 -16.7081029544423 0 0
164.796924898422 33.9398959282981 -17.6823958118478 0 0
-216.538856018937 -31.7519575015249 -19.6690664942573 0 0
196.943873359774 -26.8975870771338 -26.3457524094192 0 0
165.762865576114 3.41402828201836 18.1550969085469 0 0
-143.768097559971 16.5523053081133 -16.3513384685926 0 0
193.391883133349 15.3851382805309 -9.47943828585391 0 0
-134.497187768824 9.48836109772388 -13.306473106427 0 0
29.7435182364351 -3.96322009595503 -0.775685178780909 0 0
-192.537635872313 -6.59731168332989 11.0355980372146 0 0
179.659689955748 35.4681825160632 -5.1811304665178 0 0
175.081824823669 4.96549080705961 -23.0687203296834 0 0
-109.468609622242 19.7540987270503 4.35588070684057 0 0
147.552387122557 -15.6501839741781 -10.4825556251862 0 0
170.921692492188 -33.9465023405634 -26.449923582376 0 0
-187.455240914894 -27.6694487687843 3.65911527978139 0 0
81.1858776177361 -4.88111445067666 23.7472342341462 0 0
186.108972512724 30.3110995315342 10.1987885090559 0 0
84.3306998986873 -7.58872705865442 0.461275124478181 0 0
158.926381871445 3.63506890860219 18.4483878020331 0 0
147.187032316803 21.6782345945862 14.2050905193115 0 0
167.237506674459 -27.3550759910594 10.4949131500739 0 0
-186.680461090647 8.44917052252552 -13.444099018852 0 0
-126.851651031035 -9.69210445683797 -0.477059983521122 0 0
-207.755068834517 -40.7893799758094 -12.9918146568725 0 0
106.170627419786 4.33540271663015 23.9643157922656 0 0
-197.451583637601 -36.0581185005034 -17.0352336070495 0 0
201.411913866342 -22.7529613775258 3.29995679718908 0 0
143.245817177731 23.5355516875672 0.678474932785043 0 0
112.968749899955 -13.0578130979829 -0.86566534875906 0 0
-56.184812882146 -10.0531962951023 12.735956224827 0 0
-158.770740662956 -10.7037125529249 7.85017225636234 0 0
78.3014849821194 -8.39336484465984 22.0547684872132 0 0
184.439056767227 29.2088471139034 14.6384604517253 0 0
67.1660414782626 12.4034068859218 21.377955840136 0 0
190.785121792805 10.1801257888384 -17.7025231041949 0 0
-180.463914523826 -5.22255263163223 -13.5560584969502 0 0
-112.305112801486 9.04093468611826 16.9870062965497 0 0
197.249256753139 -22.6510129319065 10.1319986422865 0 0
188.938352293089 -9.82887631180628 -13.5361240923457 0 0
-75.5778499877919 -0.109166126949705 -4.16784698462527 0 0
50.7302123470166 12.6904902982985 20.4372324118069 0 0
160.969904854499 28.0878837159843 -22.7222779449125 0 0
-196.115159259253 -37.3805156159208 7.91938994318354 0 0
168.844199029918 30.1233804708195 13.3195599545162 0 0
-134.711007536329 -8.6992480015431 -9.05827085099682 0 0
139.510799084708 8.31469346249748 20.9073271287245 0 0
186.64250575683 34.5165947094995 -24.5240521568192 0 0
154.990682186536 26.0610064368896 4.7802558781244 0 0
175.604831809397 1.36374229371117 18.5960017277613 0 0
149.875815663959 11.5108870840669 -15.7084787075059 0 0
85.7309878488955 13.7559125831611 19.6457997205342 0 0
-190.436104338502 31.8856996801596 -10.9711820030566 0 0
110.62562026407 10.7361694867237 -7.4451063706033 0 0
-54.8741676695226 -1.90928671197822 -3.41092704022734 0 0
189.129002648125 -4.92627564811374 17.2826879570039 0 0
187.558991568045 33.3704341660753 -27.0114858103198 0 0
-186.632077788988 9.61779084292481 12.2150683743673 0 0
197.413906402925 -34.7479127132977 -15.0339093548427 0 0
-153.964187076777 -12.4229720305378 -18.1730300585368 0 0
-125.977174078397 18.9604294034944 -11.1418293576421 0 0
135.698574352537 -21.0235659574667 -2.18192232928514 0 0
166.226737778276 -27.4630873398656 -25.7828350104185 0 0
-71.0872217585924 -0.639623197137534 -3.82942065523409 0 0
-171.219754059723 19.4107927688492 -22.0110310960756 0 0
170.949107039228 1.50084313804677 18.4345176787223 0 0
-6.28253401768027 3.73616286038202 -2.48474979196579 0 0
201.608449155768 -27.8222459791725 -3.52776088477682 0 0
33.2698905253372 6.16499811147742 26.3533811205627 0 0
200.303216297302 -22.4808098480068 5.91423039773361 0 0
-36.5516588723507 -6.85444913559862 3.35383922056424 0 0
-152.469126216903 -8.31916677093485 8.5771212425331 0 0
94.4205224703285 -2.20868322380475 23.9215433411679 0 0
182.739501935289 4.97716183872412 -19.3521316889898 0 0
73.0788564118034 7.43503963572868 -2.59212565943775 0 0
-43.7871826480753 13.5660187239851 20.2015639702645 0 0
-75.3437239395898 15.0669299572843 2.28302194865392 0 0
182.379853168289 -36.9016587293927 -24.9567515488998 0 0
-200.709524644999 26.4951397879541 2.22348984658402 0 0
-141.975659704211 -5.83853494226363 10.3503808161323 0 0
-64.9176087496072 1.94866474011487 -4.50235278996004 0 0
134.536635665811 -21.2609627653905 4.80714691454231 0 0
193.203719048699 -10.3582711333193 -15.2988258320268 0 0
-183.229393991485 33.5618741601301 1.2530727981158 0 0
23.3876534798085 5.36735465921786 26.8675582160129 0 0
-159.1134302396 0.802452551331396 -18.3155850272547 0 0
145.812548783285 22.8007514221337 10.2825346278058 0 0
-168.912909391884 28.8028655027163 -9.22582597498618 0 0
-182.525185632836 -14.3417446670926 -11.7927621985547 0 0
138.019974204178 -15.2658101732768 -5.66878052210387 0 0
-10.1628992651154 11.2375061159414 6.54407816964947 0 0
157.14537640086 23.3221964118014 16.1840477689084 0 0
-102.021660644066 0.496612731226927 -6.12646527582387 0 0
187.550592595791 -5.46479267711303 19.0269848204579 0 0
-163.90806924109 16.6678532400152 9.68411340745951 0 0
180.626025823434 -12.3186882975555 -26.961558099433 0 0
-185.596090189904 3.12247866443415 12.4748608503769 0 0
116.70400429076 11.9870354381762 -8.21692755148589 0 0
23.0853855791395 10.6555309181427 23.3702987765638 0 0
43.8574085717083 -7.28550636584317 2.95709064740079 0 0
133.951224370149 7.98725477375062 -9.49648999693614 0 0
18.7663996716215 2.41238392886793 -2.9573480157787 0 0
-180.043205141663 -22.4955366911082 -4.06320201982508 0 0
-47.5183172833886 -9.00234969020291 8.20988075385553 0 0
-53.8921827313517 14.7722840125483 18.6641444944914 0 0
57.835284371549 10.6805175194386 23.2642806879761 0 0
-187.917292459721 -26.6194881507869 5.57549982017331 0 0
-28.6651859777982 12.6292474714912 7.81049988535438 0 0
-153.8945480177 -6.11298242270963 -17.9264334050595 0 0
76.1270289858275 -7.70734180094861 22.5563734170775 0 0
-22.671346952527 11.2915502733029 23.4022030157146 0 0
-129.754251462938 20.8330876857145 0.950434334933882 0 0
152.404706252659 25.6512962973993 -0.191587913245709 0 0
-188.860571301884 14.9853345028373 -13.5257844039787 0 0
-34.3589835785685 12.2009155445589 6.43040368582226 0 0
148.208271364564 -11.1774965435702 17.4591129108903 0 0
-40.6702008813172 6.16759148519082 -2.07541662283655 0 0
-147.783268279808 -12.7714487809531 -2.51720587657466 0 0
-134.650899471772 -6.96856748174026 10.3452363709564 0 0
-140.196370789182 21.0393110114286 -9.07900381073355 0 0
28.8836859872262 6.33723003791718 26.4140328855081 0 0
159.665205847725 -20.6946693185774 -15.0782766335459 0 0
-199.739702525411 13.3427024672236 -25.2499694499072 0 0
166.935243928266 -15.088113234999 -27.9495208712806 0 0
82.1782794134615 4.19453010284874 -3.71573956583854 0 0
163.831127316914 -16.0129530164956 -23.1381120191456 0 0
-175.718577066817 12.8362094005053 -24.343040151786 0 0
-128.489121317989 -8.8541007455652 7.95432266101936 0 0
83.720638525902 9.90209701109151 -3.05401794538434 0 0
175.99087287792 -37.1208731257797 -27.5941582980403 0 0
175.013970785118 7.12841462006484 18.1005603927428 0 0
-208.741278832608 -31.5048453648185 -22.2290984988177 0 0
-173.250820871989 33.2732249721846 4.85180991247805 0 0
166.266710858683 7.68054130701809 -29.7362073425026 0 0
165.231047869089 -37.6177836991008 -7.29099844231327 0 0
-164.905191208588 -15.9839285392175 -0.77329041760775 0 0
-222.117368031851 -36.8987066636562 -9.84521540536793 0 0
-47.4942667029523 6.55327618314812 25.0479703048383 0 0
163.700708756614 -28.1688312659979 7.63028678842448 0 0
-207.37795822528 -6.615403123541 10.7468243176938 0 0
196.131250396626 -35.147247024044 -19.9892891972942 0 0
159.127793908681 26.1622871665538 -22.6401618843642 0 0
92.5801094354634 -1.25250188585 -2.92765090142615 0 0
-163.078530390095 25.5144682648985 -10.6208041822277 0 0
166.172323738541 -12.5336632249669 -17.9609361126329 0 0
167.815139828243 -38.573983207519 -8.16622404418101 0 0
-167.011145706357 -8.53306540948905 9.0702721438454 0 0
146.773349115503 -19.6806239523921 10.2957083069646 0 0
-78.7161738664652 0.471286669543764 -4.56325009530203 0 0
187.864153403094 16.3475496875221 -30.5797405888873 0 0
-13.8591912076103 -5.9450153120245 1.0653794761895 0 0
-118.375129302405 -4.62663231563235 14.5143475512263 0 0
-63.9213464275749 -9.856204333624 13.1849160758529 0 0
-204.181691335063 13.7479527109181 -15.3899561877779 0 0
-189.590045840634 8.39603283097648 -11.6903514327319 0 0
-189.134881275111 -29.7162220078116 5.11127621181813 0 0
-207.728841953432 -37.5950592352335 -18.4189165436549 0 0
137.560076977128 -22.6212946651086 3.29295028167833 0 0
138.804775755556 22.4040334065885 3.31638359386245 0 0
144.820779136283 6.9309384547569 -10.9134143782359 0 0
104.245757664561 6.06229808944185 -5.91355479502419 0 0
48.9372325109251 -2.39688327281485 25.8971418925755 0 0
-182.176041535565 12.2700739080564 -23.7116433387039 0 0
163.064490758207 6.34815987768297 -18.8318664717376 0 0
181.844145299617 -37.2194051586743 -11.6948889243887 0 0
200.931592853588 -30.2655048971716 -8.88122469451702 0 0
-69.3871842972743 15.1851462373045 4.2069567623806 0 0
153.941075281628 23.9354237756572 -17.4784767042139 0 0
141.350326955275 -7.52388201627454 -7.48569231204458 0 0
111.965409122338 5.29503271331099 -6.30531029785834 0 0
160.646579913383 -35.3454717102766 -10.3681338186857 0 0
-201.504257080847 14.3308204903744 -13.315701865394 0 0
83.180754604497 15.5904522502141 3.21000287288096 0 0
88.1744932988316 -13.6492976565259 16.4656798016701 0 0
-62.4519676351541 -2.57798691054224 24.3105792782346 0 0
38.1178412041141 -11.3254331775365 20.5664722263971 0 0
178.989827584931 -12.897513964469 -25.3728384964195 0 0
-131.169184682145 3.56333388957355 14.3499968018608 0 0
-81.1096453702324 18.0304727006758 11.2885293518401 0 0
-56.8251017909865 9.06314505756319 23.2523926515746 0 0
-178.692421995253 16.8059234403615 -24.8071993619094 0 0
187.870099621453 -11.1837049466416 -22.2254653685054 0 0
157.178081433664 -6.85029499200499 -11.4452190804732 0 0
88.5145451085828 12.4276369312421 21.2943145441197 0 0
-206.587514343741 -3.88332284665951 -1.19788113143117 0 0
166.015957628447 -27.3055597081625 10.0356936505386 0 0
-7.40446321875322 8.69461653846266 3.41007885790342 0 0
128.288629097706 1.82251518241056 -6.65013780071948 0 0
-177.760694428153 34.3207520809425 2.6429183289152 0 0
110.751293579872 3.60068773955792 23.6534681907892 0 0
-105.371802763433 4.77297983775616 -7.51332455247333 0 0
194.246842348078 -12.9068340191757 -25.5887870280575 0 0
181.834278366638 5.32807249749804 -21.1761832716049 0 0
115.5745833381 -2.21023957062751 -4.2456907481298 0 0
-138.767377654738 20.4491307743393 -13.4046567403147 0 0
-87.0569611483673 12.9921403386799 18.1768658468292 0 0
203.464389469132 -22.2319340960207 -5.07756614588054 0 0
-101.208029249846 -8.93379578296922 8.18136360006672 0 0
-207.678782422884 -38.4000255899587 11.041613371557 0 0
28.8758971463916 -12.0680799010787 11.536954298958 0 0
186.079998589127 -35.9044933089923 -19.1782973988383 0 0
82.2695605114167 -0.897115955385123 -2.79077857038039 0 0
-154.557087279606 10.3257205989025 10.4722137026875 0 0
157.865232013094 2.48063267163994 18.2759728299089 0 0
146.593383256202 25.9305468708332 -6.49165035706876 0 0
184.475006079408 8.89510285015447 -28.427922871129 0 0
27.0137141450405 8.26072714338549 1.85575249589301 0 0
-47.6219039247609 -7.49945937611434 4.47417585300493 0 0
-218.894909489081 -38.7219615765365 5.22886926668465 0 0
173.332290751932 -29.613928687741 9.64066018244304 0 0
-178.1299486255 30.65246796305 -14.5188467890555 0 0
-140.116659463905 20.9822108278507 -11.3869528967446 0 0
-123.107443254368 -7.28997993625254 -3.91743197042653 0 0
-217.351653690823 -23.7994270834849 14.9737918164586 0 0
166.737809887359 7.91012638327716 19.2362355305031 0 0
-52.6010167421214 5.43696733806236 -4.36865680412329 0 0
175.005984641603 28.0306646661742 20.3190201949847 0 0
-154.369862698938 -16.8408103254802 -13.9779867582269 0 0
-164.39843926417 22.438488228523 -18.5129586034702 0 0
-181.016121796141 29.4229630129373 7.71898719180653 0 0
90.7893034768781 16.867215652659 11.1207220597068 0 0
-140.345738281884 6.38014910642092 12.4906479100189 0 0
35.6174389243399 -10.6788956088991 21.3145210505296 0 0
107.502701602598 -15.4478613727394 12.4120572041657 0 0
-63.8088555103793 15.8386783661799 7.08924371622448 0 0
169.439793705056 2.9552747059246 -19.9934435062171 0 0
102.251367309871 15.4606470932768 -2.69167397288255 0 0
198.487538522654 -28.2463537585576 -23.9905768738774 0 0
137.147547442589 22.5423104672789 1.07079208873808 0 0
19.7626032854981 -3.69204457776516 -1.50274224547803 0 0
185.272657307375 -10.4028980883804 20.6368383540055 0 0
-53.806073625994 12.5499447061741 3.86471739576821 0 0
172.471955234308 29.572517780582 -32.4239648174924 0 0
56.9111581074146 2.02584961753031 -3.57709824608151 0 0
-227.520390673211 -23.8649750494275 -6.23308623887327 0 0
-199.381758855584 -9.89629854755016 14.0459073156114 0 0
184.534548064427 -36.5021581484251 -4.46004208331648 0 0
84.8816391849563 3.20085514592423 25.5012423798185 0 0
18.3339389698868 0.0728591423092754 -3.67778730311317 0 0
92.5783778032442 10.2402007666342 -4.37110053393281 0 0
-172.562829044924 21.3056463027112 -21.8474565657365 0 0
-199.297592457318 28.0145291023127 0.586622832663601 0 0
-167.983134577205 21.0146912296332 9.02916841826852 0 0
117.038005952798 5.38860359555209 -6.93135714778132 0 0
194.317023404515 19.1628322953722 -16.91757337866 0 0
-79.1060439905005 -6.68786288507689 1.80050656828998 0 0
123.182164551169 -13.2757973618688 16.2596022163712 0 0
185.049915948956 -19.1969579780341 16.1576129816645 0 0
186.771318324921 35.4833162919942 -22.605578072464 0 0
-129.820021665484 20.4986985738828 -1.45909040071251 0 0
-8.94791853187355 -11.7430123432088 18.0547296279004 0 0
150.984145402163 7.40452683139371 -13.081111536827 0 0
-121.294448448276 14.6013854899545 -12.5151211806778 0 0
-210.246016876002 -15.2469391438996 16.2207318933666 0 0
-192.691892785485 30.3911690431735 -5.93189740170235 0 0
-201.287871546947 2.89767431072235 2.72284901473588 0 0
-50.6802758743186 1.10879999932049 -3.6237390863453 0 0
179.597689278747 30.2060126774362 12.1718493650496 0 0
-210.566261454122 -26.9106115463091 17.2047748538929 0 0
-160.077395005644 -7.58399869276628 -15.6437202364282 0 0
-67.542521783136 17.21844833425 11.2821861686289 0 0
152.644200984748 -27.9083656485147 0.129278803363009 0 0
-29.9392944385008 -7.45912684290943 4.80525972772439 0 0
93.5939831470522 16.7080050618675 3.04791321096038 0 0
137.126391207306 2.88282717313474 -7.82466183420952 0 0
137.798381289522 5.65604420289884 -9.18839878914946 0 0
25.5424716237022 -3.67250900124468 26.1169938397222 0 0
130.591695447006 21.2730232180031 3.29977018693322 0 0
-183.643381567374 14.6520670144251 -23.7163509622254 0 0
187.726362687467 -35.5046662484484 -15.0505520588258 0 0
158.677946627142 -29.5824317617557 2.87997709743424 0 0
28.193480539249 -2.9861718086197 26.2860726415151 0 0
165.533095069116 36.3599746623901 -16.1610887444245 0 0
95.5036962259612 1.6082910302521 -3.85711518592371 0 0
130.040784259517 21.2673850615292 1.46794278744602 0 0
177.257075206065 4.98596805769444 -21.8696244998925 0 0
-188.716473966691 -25.8528802061872 7.20057612869702 0 0
140.156775733097 -23.0924853255986 3.88766498792545 0 0
-194.176127795845 26.7586417444179 4.67181819175375 0 0
105.5170918404 16.9947266973229 15.2513122542649 0 0
-193.762941761901 14.0931102051829 -23.6819183805443 0 0
-196.666378027117 -30.2137858991368 -20.1690173771836 0 0
-78.9908844127839 15.1686936456435 17.0716363503283 0 0
-58.0786814001458 15.789923549523 8.49555586848037 0 0
-202.445873013479 13.3073276827722 1.03961399308363 0 0
-91.7639304715806 13.9553970069513 -5.43967189037148 0 0
163.734248914672 35.8273645637793 -15.0366466978995 0 0
-9.179243323556 -10.1319711050326 21.8887447662444 0 0
-185.12887421997 -26.257584926689 -0.495931426085307 0 0
-75.4583372441243 -7.94364177053105 4.07989615861531 0 0
-200.443311208668 -24.291565371701 17.0907855625441 0 0
34.3097521083661 -13.0922447826665 16.975011213457 0 0
168.053884776939 34.5726404560311 -5.27545182975332 0 0
120.02812318424 15.4857425592179 -8.76606230930934 0 0
-74.9172858846371 -8.69250486543539 6.02320655056679 0 0
-116.866166593077 -8.72333831841055 0.997832091257212 0 0
-9.41063608674977 2.26148168440765 27.6346191370586 0 0
170.304247346394 -38.9636848325583 -8.07542815672384 0 0
158.613963356942 -20.9648765508538 -14.4932157853614 0 0
-226.379833698589 -24.4250685658776 -10.5805684542289 0 0
-75.3158177744311 -5.44792732198825 0.353332491327768 0 0
140.547285732322 5.32268201328315 -9.33993295136025 0 0
160.158454415998 32.183001276145 -11.6326315294916 0 0
-216.283130698393 -42.0616872914581 0.539521955838472 0 0
-187.220632067138 -4.74405700202411 -13.9631750617834 0 0
-159.319167049778 19.8636426381051 -18.1581554996818 0 0
107.485965193367 17.3659962844819 14.1730165137886 0 0
136.176897595239 -2.39867771375017 -6.48880082107522 0 0
119.743255531016 9.36345694219255 -8.27034022604523 0 0
-10.7663661242652 2.80911350705316 -3.45438955539657 0 0
60.5557277552878 -14.141295832504 14.0552872023668 0 0
185.740204010932 -15.4635250707583 17.2961956293345 0 0
193.427174580668 -14.3811964951721 16.6743262106353 0 0
164.033202124834 -12.0580630961167 -15.5317650535589 0 0
124.998152304424 19.6674037279006 11.2005233116714 0 0
160.05976858803 29.4787393189681 -2.59487156081499 0 0
-225.456516706171 -28.4093149547961 4.83675073760324 0 0
-94.7867351968044 6.27678279528958 20.4518295615454 0 0
-26.3991027311263 -10.2750903476733 12.057011561201 0 0
-203.268368071615 -43.4549741520336 0.587587530539862 0 0
-191.630239527138 -22.2042649208841 12.0448576097991 0 0
144.288089212064 22.8819999240263 7.98444228657959 0 0
-162.642791291196 -4.39420207249162 -16.0324835865461 0 0
200.810921806912 -29.4263104994893 -19.4190676743821 0 0
-44.1159126531155 6.13455355070156 -2.65809518294218 0 0
50.253731191756 -7.36574095665486 23.5692264019776 0 0
-198.176695984214 -23.2345946550855 16.7263396924034 0 0
-149.367505380529 4.57690870917403 -16.5924602416003 0 0
-213.034432867377 -43.1652062963468 -2.0277109759139 0 0
-143.254529581066 -3.95976601047908 10.9228482668747 0 0
-164.297983747385 26.9316354966308 5.0164985095603 0 0
98.2810775705364 17.5566468062043 4.35933727955756 0 0
-136.05415595897 -10.7009448868317 0.416451086249222 0 0
-169.168251756622 0.920450249713867 -16.5695894237045 0 0
133.762070351566 -20.278873377336 6.62840107221608 0 0
-119.958089686741 12.4252247361822 14.8998939222537 0 0
-96.4475489478166 -6.10255350067561 -0.701061193035722 0 0
158.751917769557 24.2554056098232 -24.0326719531949 0 0
-164.180165286257 27.6627762344208 3.11982940329495 0 0
176.784984753296 5.1599015833339 -22.9567824502469 0 0
88.0555288976851 14.310775219053 18.8866867562604 0 0
43.588123213946 -13.3236586604782 12.3979522971234 0 0
-104.876548905767 -4.29246102849899 -3.8016299872559 0 0
-166.541957896048 -1.46822278399153 -15.2004915794358 0 0
-125.726017981501 18.6720679910561 9.11501706612099 0 0
-51.1466536931744 6.39716363583719 -3.55903251243384 0 0
-3.82112524694127 -0.947205811257336 -3.57423088016289 0 0
-72.5995377001528 -7.58567696433498 19.4460055565511 0 0
176.56049435097 -37.4095282752987 -18.2260955612497 0 0
-43.8674777335945 11.6530919791859 22.2731265753129 0 0
-114.636593040926 16.9167861089015 -9.45158759692949 0 0
-207.174120242435 15.938818614889 -19.8791312962065 0 0
-18.2226150301056 -7.54289031809876 4.87996069754159 0 0
-188.419165006821 30.5158343698707 -14.8544041663439 0 0
167.750015211566 12.2067443052539 21.3909958775389 0 0
-186.682933359529 -14.5754152476237 -13.2928525240861 0 0
-42.3965833447543 -6.37516723123273 2.30408094198333 0 0
-130.0362629197 3.17528722776052 -11.6308435138988 0 0
-195.641749541712 30.6099847965342 -10.0736012610226 0 0
-60.0300154824049 -7.20414179124535 3.62170949778767 0 0
36.0414876631562 4.85966242571899 26.8455169551165 0 0
198.707280698925 -29.049005036581 -1.96531487475671 0 0
158.624365066398 30.5954537679318 -10.8396357740104 0 0
-134.828604970239 -10.1851454536803 3.47038310138687 0 0
-113.449004334454 -0.351311432682103 17.5963576517199 0 0
-195.776424973309 29.434539226417 -14.33529668182 0 0
157.417042947833 -3.74592879707437 -11.0007503619551 0 0
173.154486430521 5.79687755781363 -24.7783732548619 0 0
167.911196179958 -13.8761686183816 19.7003137469067 0 0
173.936275922512 32.6189085437519 6.12482294651951 0 0
-136.277861569959 20.9293710682544 -10.0008649932258 0 0
46.7799253486874 -11.1031248121759 7.66414972268374 0 0
147.891636387734 -15.9385872582551 14.0503699465745 0 0
-185.369642286861 -21.2482239545072 6.97262411397912 0 0
-74.6580337501407 -8.85961720679978 15.9952295101077 0 0
106.836360233344 18.466107309579 6.77904215600116 0 0
72.5829197659138 12.6007459459688 0.527064745074013 0 0
135.291463264377 21.4213790986015 7.9184806728442 0 0
15.714501803475 -5.8719570717625 25.3767867687929 0 0
87.906756993997 16.6338820753959 5.72412379263634 0 0
-177.032436783079 1.38778952094525 10.3752191645849 0 0
189.228680964895 5.57540373899039 -12.6818835098368 0 0
-201.260829618921 -37.8028590551282 -17.0328225882254 0 0
-145.616522761018 -10.3271301930889 5.46147203060029 0 0
190.826427821205 33.359139757959 -17.9997317764219 0 0
187.744374684668 -35.3980016455933 -29.407371906281 0 0
-120.534334085028 -6.81005009503101 -3.95142104147862 0 0
-76.9385146706106 -8.99840327534637 14.9203417691919 0 0
172.957795611561 16.9913298763214 21.6059020827509 0 0
177.550828646393 31.8756600547421 7.88104667296991 0 0
77.2339411172252 15.4048795001525 15.5900127841013 0 0
-63.8372558891813 -9.67679665310018 10.2251574435105 0 0
-30.250826500635 -4.60089554605657 25.7486550628505 0 0
191.907625449889 32.3358091562093 -13.116981771875 0 0
-203.357971272855 -36.2841137507293 12.8196872189147 0 0
161.550605103751 -3.70104775342067 18.5772027812288 0 0
146.947188015979 23.3225167987848 -12.3494861785629 0 0
161.600301860509 34.0432315817624 -12.356047522629 0 0
-212.895535217904 -30.1756904445889 -21.7639343681742 0 0
-130.107033133029 7.38021915758754 14.3672023553033 0 0
-149.188422246506 5.98451813221078 10.7632250831372 0 0
187.135517689159 10.0621395219017 8.73193144896139 0 0
-195.356902099219 -40.3978032372295 -7.01830423140149 0 0
39.3642882256831 -6.34488810129735 1.69033810103721 0 0
134.1063068393 5.87314994854545 -8.64189946839733 0 0
-215.778605386566 -41.4720452843718 -5.05278329509656 0 0
-163.835045221549 -0.353126208571078 10.1356216428319 0 0
-35.0214415018686 -2.37312496805203 -2.65413220117326 0 0
137.639557864016 3.6596560443857 21.0821891639669 0 0
-52.439970834525 3.65728038915724 -4.47650699019537 0 0
180.62573010523 -12.5291100209339 -23.3021243653989 0 0
174.702855957212 -14.7454084207462 19.6395302180716 0 0
-193.239226970807 15.2483439140146 -11.727578147294 0 0
-194.578529692888 -38.7461555145164 3.60644225286858 0 0
149.210472084655 2.50240784422665 -9.94557705343808 0 0
197.157416788089 -24.1332953476967 8.78819928265358 0 0
18.2708132226554 -12.618613805329 14.0484957521017 0 0
175.729179131238 4.63141268396127 -21.8645381200582 0 0
122.258729213924 18.3180348616147 14.6025053107913 0 0
-47.6876975584974 -9.86451695555025 10.8900141422119 0 0
196.828285675447 -31.4544337262704 -25.1161909015478 0 0
148.306983289451 -19.9944580009455 -10.7713597263198 0 0
122.481571099008 -18.7501910948615 2.13232240437911 0 0
-202.4373842157 -15.616618626192 -22.3146972590587 0 0
108.42146011233 -13.7388856381338 0.26098109889404 0 0
15.0364970631775 -2.45231913482093 -2.44429131561299 0 0
186.871640723157 -1.91871484904657 16.1153990672855 0 0
-208.179464350828 19.0248538916187 -17.0785552919148 0 0
176.577943394899 33.874360382199 -20.2666008109718 0 0
-171.648788145231 15.0354750860113 9.50246509321713 0 0
174.034777264356 13.5648005978595 20.6671257954273 0 0
115.4204946498 -15.1109413085597 -0.383943178554968 0 0
-128.693086108246 20.1758432450247 6.30753241503782 0 0
121.181046340922 19.5497018385782 -3.92110794347333 0 0
-46.8557383344965 -10.2558354887396 13.8318559258769 0 0
112.732503133993 10.5616038959907 -7.57870597381184 0 0
-173.20016835448 31.4434258659374 -12.2269174603235 0 0
-205.212311087098 12.0333106761825 -19.0324792048929 0 0
-65.4632948307553 -6.83998962722555 21.5034299200016 0 0
65.0145057548464 15.3531537259965 13.4821814018153 0 0
137.743864369244 -8.5114523078509 -6.52342793395379 0 0
-208.517357167463 -40.1260908056766 -11.1456702372855 0 0
88.0618246709787 1.35052434700432 -3.62738423082702 0 0
187.442516533343 4.64784679810345 -9.37951253106895 0 0
-29.0034872302533 -1.92748770834077 26.6993848401874 0 0
141.046578792774 16.8536866990695 -12.6956395600749 0 0
191.03391718195 -23.8038780385445 10.0159005031653 0 0
-141.484404336334 -12.4131543103624 -15.0972235164983 0 0
27.6961355324733 -3.08571536434596 -2.02784721919018 0 0
-90.9145013280765 -6.65992398272728 0.776522832520244 0 0
14.8833733010144 -6.07686248845952 1.90710143330775 0 0
-178.770845746047 -18.3637986233206 -8.6833535029506 0 0
-75.9679626941448 -5.61357258825449 21.2107895635082 0 0
-170.213992943124 3.55211163286785 -19.9099086292224 0 0
-65.7246151891097 13.3111097468775 19.8308322267544 0 0
177.966654759626 -14.4150875624913 -31.8540384801502 0 0
175.94995049547 -25.5455585555853 14.0441575728994 0 0
-207.332071422329 -5.36747912787933 -3.16451820197827 0 0
-116.284733731612 11.1221236744546 15.7888058397145 0 0
36.8138769393992 12.6461008693718 20.2541612170855 0 0
-202.392781440164 -8.86731843794237 -16.2808392339625 0 0
182.370422267532 -33.2946437076325 1.34567708343108 0 0
-190.12874073877 30.2254408880922 3.03744429203166 0 0
111.295365627209 18.0554396804441 -0.737833924233218 0 0
109.293385083145 -16.3760072519021 8.34245064062039 0 0
-162.391857234105 -9.39847709731245 9.16030005883126 0 0
-157.234268780708 24.4462563324684 3.76915283489801 0 0
165.988689260926 -37.4555150174826 -12.3725035109868 0 0
190.125909621855 -31.4571761770106 -30.8036689631744 0 0
161.413416484141 -16.9233807637716 16.4146579612848 0 0
-81.0200099266996 -8.57050973220607 5.58435677623892 0 0
-161.360566034759 17.9987036939661 9.58199719462499 0 0
-197.308943544228 7.9635437706136 -5.3746769046151 0 0
9.85368126845279 13.7349215978468 13.2795276547685 0 0
-154.128897332421 -0.50517622359841 -18.1073424744122 0 0
161.227361975006 4.31638843718763 -15.9482341127799 0 0
-128.551230576663 -1.27083214459918 -10.7923489576698 0 0
178.72691721916 -36.24719554232 -24.3474182844006 0 0
202.325537553824 -24.5274394862702 -16.453182150566 0 0
-125.771765548942 -1.42974743745499 -10.0163562074979 0 0
-51.7762590107913 1.92163576354788 25.6567149901334 0 0
-102.465211365875 7.55303957594813 -7.41844439730146 0 0
-113.426789768576 -2.51557588071605 16.8661052825937 0 0
35.7738793289047 -8.79765147148559 22.9444615299313 0 0
118.201846498149 -16.8982421782557 0.291294325952047 0 0
-57.8495084114882 -0.976523527518953 25.057281386828 0 0
102.918066137706 -15.933440844834 7.81294777250282 0 0
40.7092552168517 14.535010497098 13.9565306421163 0 0
100.939832608178 0.979835850269933 -4.00242392549597 0 0
-141.561648328192 -9.90214771883704 -16.513788369069 0 0
121.651909681803 3.93641273265061 -6.78541534068642 0 0
-48.9463984552624 0.372118853544469 -3.57618380821638 0 0
134.823286634982 22.1050404459482 1.31148213759527 0 0
93.8619234778534 2.80166861161493 -4.14795774102927 0 0
-113.891688752191 12.6879839637797 15.4345614226863 0 0
137.386889069006 6.65583280428775 21.1833545724596 0 0
-207.20822298586 -8.90377143490461 -16.7906136682908 0 0
-175.39453265342 -19.8468413714646 -4.82647648867556 0 0
-120.611025759339 17.6280422853454 -10.4054750082678 0 0
160.799411079963 -14.5938283213233 -15.3618959819054 0 0
-133.585280611317 14.5482173878887 -14.9250052148284 0 0
-79.2030199550462 -9.31399885494182 9.36562585158487 0 0
130.135408956563 1.917801058226 -6.91164597137972 0 0
-174.038314760236 -12.9771967792631 -10.8837170194515 0 0
153.899905738353 27.0108957103807 -5.35570406461961 0 0
-83.3212447218999 -4.21510344324081 -1.59853624259311 0 0
-213.253482923807 -39.9143160274395 7.99718104789449 0 0
-202.165262258306 -1.45271675611025 -5.400892682637 0 0
-192.590688503816 10.9295089307573 -19.7821968056579 0 0
187.806682229814 30.4521497174501 8.35978157677501 0 0
-42.389167168519 1.02249008526428 -4.0309078061201 0 0
172.777290842923 -34.3768136949946 -22.8735539006627 0 0
-118.646109467424 10.4640655298863 15.7306090333217 0 0
-156.351388711326 -15.24299080614 -5.15773263246539 0 0
-30.3858679934348 -9.1699211020878 21.9970188896997 0 0
-67.6267191062624 10.8449776204281 21.4318161163324 0 0
175.039405580989 -16.7301167686068 19.1585655218834 0 0
3.41327096103799 5.97033159846823 26.7905215176149 0 0
-222.379754604562 -37.0659861098902 -7.99482773571784 0 0
184.462209595631 -36.1750590728891 -9.86796678843985 0 0
-161.564847840035 -1.63965838874347 -16.648863275257 0 0
-77.5069976938902 8.69095321710631 -4.9988984193925 0 0
150.69690262713 -1.88014059298967 -9.5549253898747 0 0
-60.5944711348361 11.8906932309376 1.49238743808073 0 0
52.895852773967 -4.83147236061379 -0.976081376235169 0 0
-128.601454055798 4.17358715760821 14.8660049262548 0 0
-148.303767838474 -14.8215576971312 -5.67968244790231 0 0
-130.555676883193 16.9226153141135 -15.0281557145477 0 0
150.827827282647 -27.9223315333148 -2.71221753337113 0 0
176.818692077767 32.6898452861612 5.48909925751341 0 0
182.438291767184 -19.9802209550231 16.4478730475511 0 0
-8.56050975989433 1.14691335938224 -4.04407833464382 0 0
203.43140523868 -22.692255793302 -10.3895822716502 0 0
181.088451639989 33.2266606590218 -32.0965002538215 0 0
-17.0116472206461 13.1429066939605 21.1020603119876 0 0
-153.519565060322 -12.5244911618004 2.26075795276896 0 0
165.136473907906 -0.463758191383776 18.3948277366449 0 0
161.824881342673 -27.7613376097983 6.88296711732361 0 0
165.796328636327 25.812825218191 19.3058979815614 0 0
-151.787810097495 13.1436364752644 -17.1546353584089 0 0
154.834652029808 -9.73688393165145 18.4365272644356 0 0
189.279188792191 30.6630448295191 -27.5006035610458 0 0
87.6203801678047 -2.05471072989682 -2.79833662739864 0 0
203.223669068699 -25.2850293831514 -12.0952756214447 0 0
-173.85304692086 32.439400800405 -5.2159109080039 0 0
199.827147238358 -31.63298697335 -19.5527024620425 0 0
-4.54518454829111 -11.9458885547099 18.3907377911504 0 0
50.7952872191791 -3.41786911586388 -1.89898890807676 0 0
-16.1693459732868 -1.01004566223071 -3.67319605931907 0 0
163.171076266164 9.66997722673122 -30.5380640379649 0 0
173.077225494448 34.8483177924028 -1.74629073695847 0 0
189.493811893025 0.646809674570189 8.19839449614097 0 0
190.957358364991 -21.7864680106033 12.26405512441 0 0
-226.21103861619 -26.5662312247573 3.8207958023107 0 0
-173.323441820419 -1.38680486395646 -14.7258319180402 0 0
133.641907200255 15.6213016274538 -10.7150619611256 0 0
132.134896431002 0.417550985844669 -6.56827833203323 0 0
-192.278808523754 -37.6998620155151 2.95864320913019 0 0
-57.8407619425809 -4.5919359304113 -0.500120060157233 0 0
130.185555119588 -1.34386240568834 -5.96933822227377 0 0
-65.5831246826843 -0.244877597202715 24.4844679862724 0 0
-207.626877998967 -12.9999675749439 -21.5809661404824 0 0
104.041633131526 2.10646237602206 24.1485934768719 0 0
-15.0892281053639 4.76293726392491 -2.0563991679303 0 0
-167.363763392225 8.7953734586681 -21.6590427137325 0 0
173.037329269004 4.42504492005726 18.669826735187 0 0
-63.7335500029566 -6.76746747259049 2.70196550545935 0 0
-184.175400539398 8.48033727636505 11.4147272002575 0 0
-222.931235016726 -35.5003750086536 -10.5072568287945 0 0
198.10181377985 -13.7870338447118 -20.9502109355188 0 0
-129.4763339289 12.2859621745905 -13.2313263534024 0 0
-76.6160333777555 -8.27117637201586 16.9933296489967 0 0
50.4358400563437 -1.431281194107 -2.61056534277714 0 0
-197.258080955491 30.1353070992166 -6.87158415569004 0 0
-178.048501020005 16.1055737116731 9.3751568928424 0 0
-151.044583266394 -15.9329305974877 -6.48746134486816 0 0
-40.8666818840266 -7.29499491853879 4.18942624133146 0 0
-178.977084432956 34.0292147077336 -9.13086059039035 0 0
6.47772489061201 4.10000344513848 27.3961144312681 0 0
180.370448907519 -37.3862865039255 -4.77889070286224 0 0
-187.165539384296 34.4365892917624 -1.64514928407891 0 0
100.548735659389 -14.217457276756 2.01460826977987 0 0
-178.890710126827 35.302338612789 -3.99371086540432 0 0
-125.70008641286 15.2148761766064 -14.1786994791177 0 0
-141.426918265029 -14.0295707274565 -9.02987625595633 0 0
-54.2190108625579 11.4096758440658 21.9509736079652 0 0
41.5216598751859 11.0051093958022 22.8423704481678 0 0
-56.3457279719487 14.667589832009 18.7534945424287 0 0
135.335990404738 15.4464295487662 19.496908326486 0 0
78.7059115323141 12.4302234786775 -0.677519621706671 0 0
-133.183650722346 20.5641234573491 5.45926631005579 0 0
-182.336038634937 -10.658004627918 -12.8919383825515 0 0
167.232684518081 -37.8357330399419 -3.35583987643989 0 0
93.234621915326 -6.2105713463751 -0.920140389826432 0 0
179.057262144318 -0.834176898011818 19.1370893353346 0 0
176.063772209921 -34.3852379236645 2.94628985846821 0 0
-210.831183061061 -7.80893681919154 -13.1109465695987 0 0
-124.976729203024 -6.55504246269577 -5.67606892481685 0 0
-24.6926522911701 12.2794310446295 7.53934259195028 0 0
-196.050583061848 13.5787580190232 -24.2554307746156 0 0
52.0896835044172 -3.4059647013046 25.4700633464163 0 0
192.986026444528 -23.1020695788609 10.480066952293 0 0
-72.4230364968961 1.13316540377982 -4.36699428133378 0 0
-87.279606936803 -8.48820126493758 13.1136623981661 0 0
-169.026835545922 -14.6750910507546 -9.59765747176069 0 0
-46.9890863806955 -0.881470389641503 25.8216157874356 0 0
-194.045977429128 -33.8864974503286 10.2836986778596 0 0
1.54338868141973 -2.31142985717393 -2.28837465970104 0 0
-123.314263463037 20.1830272083114 5.7022280790171 0 0
125.04533029521 -11.8628258380906 -3.07848932035678 0 0
187.897114942517 -35.6963284641916 -17.7839214360921 0 0
195.359426843241 -8.44266122782358 9.59026373828317 0 0
158.976169031135 22.8846714516322 -25.6771584035035 0 0
98.9267033425311 2.06530690546129 24.4670989393591 0 0
-191.379096969477 -12.8757074356663 -15.6493944855049 0 0
-188.764148819727 32.8324982609086 -6.12064469299082 0 0
200.192314836741 -29.2688866347625 -3.34604463324319 0 0
-18.194672178577 4.97850051422994 -2.02412689069079 0 0
184.01127708845 25.2798207919358 -34.5979221297806 0 0
-187.90351676575 2.94808673622924 -13.3635431745678 0 0
-173.747174377428 -4.07881327026505 -14.0297569516239 0 0
202.536333204476 -22.5591582985328 -15.3575440360368 0 0
-204.529274865547 -41.1539986519276 -14.8669376904826 0 0
80.8677012607149 13.7335983550211 19.592570720172 0 0
108.436420291769 12.0999575822984 21.2410013923423 0 0
160.009469258465 -16.6310815155012 -15.3220278773983 0 0
-25.3428940031905 -8.38425968291878 23.404509188708 0 0
-151.822014111952 -12.1659176693487 3.24880099217147 0 0
-103.91670826891 2.4810735850589 -6.82682620557562 0 0
-205.175274568331 23.314367839915 -16.7703431933008 0 0
-187.340041871791 29.3092371474076 -16.3035577885177 0 0
180.157909651266 -7.70982980115286 21.7195743975319 0 0
-54.912195725488 13.1003747909599 20.5360390502491 0 0
-207.498134693345 -5.60551676167859 7.77860605945496 0 0
188.142822877777 4.95971882447205 -18.6749605139781 0 0
201.998058579306 -22.3215750108447 1.58640941217695 0 0
-173.604764487687 31.915565394332 -7.81720611849809 0 0
95.326125855203 15.0980563448467 -1.18639933091714 0 0
-209.244738787076 -5.74685760210356 -3.96668715541482 0 0
133.950180548328 -21.8326862475619 1.64875656730005 0 0
192.72808461158 -20.8665628873949 -30.2372263647942 0 0
-223.771548879459 -16.1045033408954 6.8990091440944 0 0
-179.883571822918 5.04591714318867 -17.2186214718525 0 0
-72.9364258671166 10.0994679958013 21.3448432562432 0 0
187.912476712319 -32.9686475109065 -31.190528876279 0 0
-164.707754997815 -2.50674256516048 10.4528884240561 0 0
182.210262178166 5.64028015337602 -24.8090989453026 0 0
155.166481544349 -28.221814891432 -10.8509160792063 0 0
167.925325540924 -28.8705323955472 9.21305414807694 0 0
-214.876157078481 -38.6729344090936 -12.7546103302391 0 0
12.8654201119132 -6.26494461326788 25.2465664770198 0 0
198.565268211543 -18.4318593486158 9.26865363375697 0 0
-217.071988332532 -6.51506614831635 -4.67489249739416 0 0
-113.731186632479 17.5232460952687 11.3743135881485 0 0
-36.4757135349602 12.706260554299 6.81261276941077 0 0
12.1609339084809 7.43932541201036 25.933474871533 0 0
-122.665374924527 -8.89235390764382 7.61284763220014 0 0
154.155530121914 -28.2744625304627 -9.45595105104348 0 0
144.815138967497 -5.29278918647709 -7.84563592644325 0 0
158.112563839876 -11.9626211645959 17.9468668800118 0 0
144.670646629461 1.23106403490332 20.269371240393 0 0
-188.400977987942 11.3038061744067 -12.6821182943881 0 0
148.1770803967 -14.0072775609135 -10.5999773408664 0 0
