"x" "y" "z" "f" "a"
-18.3820314211406 5.39228306847572 -17.2170623290281 0 0
-47.7957287942122 2.44954896587424 -17.7209974424567 0 0
161.215348202657 36.2200722203688 15.0900075909666 0 0
-135.66343679778 17.4189483764771 11.9255858150895 0 0
-117.018617999742 -18.7871588062737 3.48710656333386 0 0
170.221609196545 -24.3986921214716 -21.6207474082643 0 0
-144.889977161465 -30.7953683094043 6.94537858395363 0 0
144.11477602655 -2.19506212373456 -21.3553340380069 0 0
162.920234803564 16.0938918349734 -20.1174114424274 0 0
-105.321194973527 -3.37172851374859 12.6685145610082 0 0
-183.885527691176 7.02240498671677 8.2135168853898 0 0
-169.899718039539 30.0430596223104 -17.591811475585 0 0
-156.62551250066 -6.86988297977852 -13.4539937530769 0 0
50.9165494849229 -3.43114990084 5.99714577504144 0 0
-138.481932374382 10.7504653583795 -9.31323111600202 0 0
-11.2130229877842 -15.4506794076615 -12.9951446520793 0 0
137.435837113478 10.1707718296777 6.89428857813435 0 0
184.247134013152 1.67912997542213 -0.454628185767563 0 0
174.304297797099 34.8514044981898 27.0076062636096 0 0
-77.9913511490247 -2.25742762010804 8.64075969564628 0 0
-51.6690934469554 -8.04254899203117 -17.8145710081351 0 0
-130.986557444856 19.5530283681607 13.016312057972 0 0
-147.521286166836 11.4012015169943 10.7377210367312 0 0
1.57705892262632 -0.542092317022463 5.48470479545645 0 0
-143.6584467848 -26.8387553439211 0.525369563966488 0 0
-42.2719117842643 -8.96272763307262 6.79589124169132 0 0
-150.545962265707 -9.05161002078789 -12.330521500942 0 0
-173.582973043193 39.664436084379 -2.31821919377215 0 0
134.513601682141 -4.59930683088555 8.59796172669308 0 0
-168.924443328707 20.4140145819278 15.4073380186048 0 0
9.77039665718501 7.35138980180552 -16.644297552231 0 0
-31.6058594481719 7.11252109198916 -6.27951454178463 0 0
-43.7150185210859 4.98060025240826 -2.32968831486896 0 0
190.971582424911 30.2236866319213 17.7150590892691 0 0
175.009330893763 -3.61362784894478 -15.2121599854773 0 0
-160.583951648961 16.2018383309002 9.71929598900902 0 0
-173.071225097798 2.70301904820752 -10.8948142404154 0 0
93.3503281006444 11.2322584433537 -0.254038493596587 0 0
139.063099780211 14.7238761926448 -16.9601119280649 0 0
168.14754038062 -7.47506579691211 -20.2738543343167 0 0
49.7596015371686 2.53567576316844 4.46963324824142 0 0
-189.782481641629 7.5219320433051 1.0425336274071 0 0
157.725342599013 -23.6790056741996 -18.0113822661905 0 0
-167.219427405202 32.3309631106075 9.7936486335656 0 0
-157.149995725964 6.40056416901387 -11.1617304866178 0 0
-175.116262492625 -10.3422136227683 7.59784099345473 0 0
-187.664226232938 8.14402847664273 6.24280310948479 0 0
-145.702735427527 -31.4000464374967 4.38636884668144 0 0
-127.459287182005 -18.8124751360226 12.7605002518068 0 0
183.470812026883 -9.05158697598849 -3.57335251606878 0 0
120.400576239544 -18.9771841014115 -9.39087270228571 0 0
-178.431614699045 32.3592854533302 12.4394483669359 0 0
-146.271731453943 -13.6030743491192 23.1552574672157 0 0
-24.8962410133219 -13.94297285508 -2.39462578326897 0 0
-55.4802241869842 -16.1825721576188 -6.29154861166271 0 0
160.805520274029 36.2692191672198 5.36582915808628 0 0
129.564998551719 -7.48925081719787 8.9589219108331 0 0
-141.658947560474 -11.5210694451264 -8.29319476121641 0 0
-168.873168981674 -8.69135512425275 25.4819149374233 0 0
172.92602871451 -12.2057729694315 28.8070242601969 0 0
70.2224790033139 13.2001784754743 -8.52056562565279 0 0
-130.612947030538 9.13527125149043 21.0428648026184 0 0
-184.011377708009 37.1755456018808 5.07539271095606 0 0
72.5108179458515 13.6279776975799 -10.5520887686751 0 0
145.326952353985 19.0614797374155 -14.3677128711421 0 0
108.528688800463 -9.69714942634945 7.74011356755603 0 0
160.341570874832 25.8281483743284 24.3913413771942 0 0
158.399203913936 -33.6191255812959 12.3221018035231 0 0
155.189175412982 -23.7755166950012 23.0288428118198 0 0
-169.418188353185 7.83066226525614 -16.1648788842768 0 0
-57.7904464449628 6.25299689753728 -11.0057497199211 0 0
141.957393080955 3.15705923311659 -20.9619653218013 0 0
-77.0244456813178 6.49283099298052 -6.53623829894718 0 0
-175.003965172744 -15.6623445153974 18.5214715576414 0 0
-70.9334427327072 -9.41321505730336 -15.3042772962861 0 0
106.688423770528 -17.0562347497346 -0.656041136560063 0 0
-72.4812477060461 5.72081019674915 -10.0218900058021 0 0
186.299930763549 -22.4590319825451 0.0984234577353993 0 0
141.807454810694 -17.3209998706412 11.2212686003209 0 0
-183.3930165646 36.0242923012976 -1.04582913574395 0 0
-136.875986385596 15.8989471777601 12.2482404313392 0 0
-173.62748663199 -20.6149090460745 15.6204365174716 0 0
141.055353535918 -21.8755972726554 -5.98344604413865 0 0
174.88810153932 -7.68306328241178 -16.2925452634665 0 0
174.766492924229 -31.7026383390235 10.6637665018055 0 0
18.2136300056119 4.57855358037736 -0.234147978306616 0 0
38.753563112866 2.83364842130869 -20.6150084752871 0 0
-170.487044331877 39.098333444964 -4.24923429998047 0 0
181.862650169444 7.66781139188749 -16.33612565582 0 0
114.538640779459 0.557847473697069 -22.4913371292821 0 0
-12.0180547266079 -0.755562207722302 -20.2549870529158 0 0
-173.973671903368 33.3155867192743 11.6747206696738 0 0
-173.815337167047 8.46227415144675 -16.6342907328808 0 0
-99.2203097446025 1.7841897226405 9.81357714393962 0 0
130.666629781782 -13.3395000175015 -20.7317213896239 0 0
-32.1466766122038 7.60416559722839 -11.2443370423406 0 0
144.140451005669 -23.0271371797199 -0.403302804156142 0 0
-48.1072492987039 -11.4109684110613 -16.1299182154295 0 0
-170.764961033046 34.8945014482131 -13.9319262708291 0 0
-194.210772446468 19.32905835903 -7.49609890737931 0 0
-194.534899129509 25.4085888623222 -1.56603491120453 0 0
139.584051930949 -21.6059642201613 -7.41085153424954 0 0
-161.906215893334 32.1149851167942 2.90256766450237 0 0
181.555121315869 -5.66005239498563 10.6038305940609 0 0
-70.0584564165518 6.90584649812444 -5.4836095189813 0 0
174.456131272827 -26.272745575455 30.3503282734866 0 0
-144.006021024195 -8.05387800681013 -9.40787033091386 0 0
-47.1991173638669 2.58124731241529 2.09586125208015 0 0
156.212129405779 32.1936054801285 3.10289515670559 0 0
-106.60350062034 -17.9852421298546 3.35674156622569 0 0
7.1542843545636 6.74851945534323 -17.2922121679081 0 0
158.915916038115 24.4666910226404 -13.570108184501 0 0
139.545553032363 4.43848009537513 7.26311626303083 0 0
172.074173502753 -2.34578290716132 -17.5914388655705 0 0
-38.5389752090001 -15.8079662763101 -4.04883391695263 0 0
-189.829301006204 27.884854139148 8.46081092726554 0 0
75.2915607212581 -4.46291372931324 6.4693755576836 0 0
-149.138866096909 -28.1958243405569 -2.52381881811243 0 0
148.917600508965 -22.857878851362 -11.2013944222249 0 0
-125.435649706864 -7.46553502316187 -9.17541733006113 0 0
-176.654073114993 -3.25479222715847 18.2611072802943 0 0
96.6855131496861 -14.2696614884368 -16.052435286239 0 0
-169.413675664689 -14.6085637054866 -9.64327096009144 0 0
-34.4480324492867 0.585125448946918 -19.3919681431568 0 0
173.821601374112 -0.889392273664593 10.4191140670721 0 0
-141.144762338193 0.899666617782567 21.882844730007 0 0
-167.644181923162 -19.6733478369488 21.9609506612174 0 0
-167.992777470841 -9.80934937150619 -8.99546733667666 0 0
-127.227756924501 3.02435837549507 -9.06429489112208 0 0
-77.9527532988225 -13.3540658653419 9.2536540642398 0 0
50.2871983036667 -13.0276490901689 -3.10447762983122 0 0
-167.813756527915 -6.92365855544968 10.7226553902903 0 0
97.2515828716555 -1.42499113460742 5.83710746882652 0 0
185.775636696213 12.3672507690474 16.8902639119346 0 0
-19.3462896279113 -15.5206403444427 -5.6602688003327 0 0
131.563884725787 11.6108049591415 -18.4680932547396 0 0
-170.928401470854 39.3262351160303 -2.00768774777756 0 0
-154.49892072017 -3.72412358909187 -12.8995878985738 0 0
-123.441491838241 -19.793662644391 5.29659595280471 0 0
178.337671488945 20.7877629041821 30.7561402596993 0 0
135.090696537387 1.61246089671649 7.07532563646318 0 0
-91.2094958795867 -14.749348924044 10.3297963785173 0 0
-174.128760378813 -21.1039511583955 13.8071994585182 0 0
-73.174152111965 -9.08117659173519 10.4210917905991 0 0
-171.723359480663 -13.1637816663628 -6.11831401843052 0 0
-14.787158354714 -6.24095272483331 5.18460279774084 0 0
-175.661586152279 4.52187464666976 2.12891009375755 0 0
158.186804843576 8.95066560831278 -20.3963559815871 0 0
-91.1816719223195 -16.3965375883878 7.43762657154407 0 0
-70.3544815632257 5.57032518444413 -10.8087267838977 0 0
-166.148621941021 -6.25663636782777 15.4366889105325 0 0
175.814166051439 -4.52818090494354 14.0191951016084 0 0
161.556014190397 -32.5936782578254 17.6659355579629 0 0
-140.877684247047 -20.8097209055083 17.6340112565481 0 0
-169.815882244591 -3.49020095226023 15.8055239796848 0 0
-161.678091734693 -2.7503294772901 18.0442125259985 0 0
118.388327087117 -7.50500249925037 7.90991601587501 0 0
-161.083962786092 -4.04608153808536 12.3043469708949 0 0
-43.6240184337734 -16.3145011537301 -8.82938220580135 0 0
154.290283855128 -20.3026006749113 -21.4199546920101 0 0
-154.721872247374 3.25859969386048 -11.5099664771511 0 0
-184.785044385901 5.94412932516814 5.11624320603803 0 0
169.316020579209 -4.41132776194129 -19.0263629261811 0 0
-51.8248789032854 -1.85678211330696 6.79112021013698 0 0
-40.2473143224432 7.77253357591558 -9.25017061885523 0 0
-43.071188120215 7.75617353658676 -8.36298828133043 0 0
-142.955911328369 -26.3002773307256 -3.7633530978516 0 0
-182.553873434832 6.15507556028291 1.15116682956351 0 0
-173.921693609718 -21.6797679216251 -1.84915375808873 0 0
176.540340943345 -28.8099310000859 19.791404186465 0 0
-161.011941052304 -6.63380228374113 12.8329018566237 0 0
-62.8723161142397 -3.212955679116 -17.915629811517 0 0
-147.128316113016 9.13263333872923 12.5498513373275 0 0
-103.811635612602 -14.3135954241979 13.2011416244482 0 0
-86.7492409588758 -17.1851708254217 2.66552011331728 0 0
-176.459476608748 -12.4925554542705 0.614398314037514 0 0
90.1680068768104 -12.5213041734906 -17.8484799449196 0 0
-28.341618111878 3.26497118251189 -18.5019177469862 0 0
-171.826930349937 17.9936926195471 -20.192629425548 0 0
164.448957744877 -8.33946369802501 26.6826909192484 0 0
-164.901269180087 21.5059214829917 11.8165672237428 0 0
-15.3437395862148 -12.3775251770158 -16.8095961007097 0 0
122.450829927333 17.966883840853 -11.5038304282085 0 0
-166.526552797252 36.342635312982 -8.04450227574449 0 0
185.402492938616 17.316888345998 25.0191092457998 0 0
48.4569424962305 6.68098966228351 -19.2571638998436 0 0
68.5164765353891 10.3804116606176 -3.2822848144281 0 0
-100.124840540745 7.29057121607441 3.87517696160078 0 0
166.307215355046 37.8554709520771 7.63982849627656 0 0
138.086620112672 5.98614922811723 -20.5448831873032 0 0
141.969139597723 10.1195936366038 8.45343215313494 0 0
26.6374947063379 -7.5346518940353 1.75461830184658 0 0
50.7461444455361 9.65911666589053 -16.6207313877513 0 0
149.475100980388 0.394950479203517 10.4267592142155 0 0
-72.9763547802698 1.24914352225264 5.94762275139667 0 0
-177.675714648293 39.5326052169805 -3.69856091674337 0 0
151.320854118572 -22.4327354368307 -15.4878166912534 0 0
-140.787957545148 -6.40364244950681 22.5836814979206 0 0
-83.3348687804226 -3.65406352151231 9.81585452017232 0 0
138.946411436758 -21.3100357615133 -8.95381167247704 0 0
151.386849592202 -25.218301973119 16.8265595047392 0 0
-95.1384483942646 -17.4334874875913 2.19314840746825 0 0
159.700711540876 -27.272857272135 23.5234339193531 0 0
166.282516730954 -32.4089066011116 4.87931047703951 0 0
170.934955846535 34.4845566618031 -1.01467696825668 0 0
-134.35844799074 11.4162031425778 -5.12306370933438 0 0
178.943383761152 11.0853092103318 23.8188155424313 0 0
-161.503805999016 -28.0812792061133 8.50565851402376 0 0
-40.9044584124437 -7.7473476353996 7.37417077407458 0 0
-115.47736566781 -16.2041872380567 14.3692722352364 0 0
184.150500677909 31.3232686457497 2.59042301644635 0 0
-164.292080387161 -3.15618708079374 5.93909933201836 0 0
38.1440237196626 -4.98735226516737 4.57463797490586 0 0
82.0489058150027 0.500937145817206 -22.0478157915825 0 0
-24.1615745928743 -9.83800513711435 -18.2521662678691 0 0
-13.4245066794436 -5.35761386295747 -20.1540620269057 0 0
188.574803143265 9.85623332492218 2.18082163425403 0 0
86.8462019650846 8.84257969351979 0.803300780315463 0 0
-142.121521849333 -4.83096482209462 -9.69904066286716 0 0
9.08510083447661 3.6012861390697 -19.606579390561 0 0
112.310268105079 -12.3204598220253 7.51660587201839 0 0
160.368660088448 36.6182694813001 12.5671675727329 0 0
75.371535362913 4.88787916962398 3.11641080038069 0 0
93.7052587355671 11.7936073201028 -16.9195272565709 0 0
-4.07194799483985 5.55765914860323 -17.8705452504243 0 0
10.9984929623759 -5.18671761830437 4.33537391682798 0 0
-133.724976704633 14.4605860311372 2.80242140609791 0 0
177.1737751175 0.616450063016059 8.20513149687986 0 0
154.542246170452 -4.49359892168194 13.9654778791486 0 0
176.285924648117 2.47132879359978 8.80733285709064 0 0
-137.962261507782 -6.5583335454992 -8.82772676112083 0 0
-85.7358735703619 -11.4378011982399 -12.2247947267049 0 0
131.138528891792 -18.6272214724464 5.93047737004957 0 0
192.77274147735 20.1598938719294 9.12793412785978 0 0
184.984631181517 -28.5731526463889 9.88638423452618 0 0
-113.63400888073 6.46373285818279 -5.97920501113266 0 0
11.6405240093519 -12.2670248223006 -16.8323295456617 0 0
155.339413210366 -8.91221038912258 20.2187224854736 0 0
40.3331897118408 -4.37188894650187 5.71971734598506 0 0
190.943753586597 15.2070206586602 7.68388014830984 0 0
137.077248400586 1.88338197356867 7.19910175474868 0 0
43.0696372935555 6.60376446690236 -1.78559503849926 0 0
-103.473044892766 2.7855674421744 -10.7425045243682 0 0
-110.244757622024 -10.8958155974853 -9.68577407372392 0 0
-164.152419816334 -16.4219660439975 -10.5734719089958 0 0
-99.0541142234146 -5.86048495758962 12.1719680539784 0 0
-170.555078032274 24.192860294099 -19.9606803763371 0 0
-136.526017481963 -16.0975083171579 -6.50473650337133 0 0
192.692983778102 26.8671192710326 2.25604786076846 0 0
162.357137183855 37.5125434009126 11.6573219864216 0 0
144.135790508127 -22.8803445061176 -1.98562006766285 0 0
182.337414838125 -11.0213847638575 -8.88760437451866 0 0
-177.41322763067 31.1220384227987 13.4994786180923 0 0
-171.933030589177 -18.5864832638569 19.6514017448805 0 0
183.385959076662 33.4275986448148 15.0536920996294 0 0
-30.5718424585382 -0.433794277311519 5.34134485553499 0 0
-45.6186912323006 -7.28700259052922 7.62830076015921 0 0
27.4600230341739 -14.4817832278514 -12.9988246296142 0 0
-23.434495671318 -1.42137866679707 5.68790789245543 0 0
155.478990469862 31.5899141997504 6.32174150023583 0 0
-159.677334587759 17.20778569014 -13.0235190085874 0 0
143.746252876428 -23.023001129083 2.17039982784567 0 0
-179.979806658147 32.7010196416208 11.8284805665814 0 0
-150.178255611161 19.0776262133944 2.58072267558504 0 0
-95.9825205456867 -11.7363615343147 13.7766755826535 0 0
133.492654829757 -0.378418922919307 -21.9170287077342 0 0
-155.50189117087 -27.6368717291506 0.0304304711666071 0 0
150.184680366739 -2.53136462919805 -20.1213071328421 0 0
152.961075272452 -28.7666723842419 12.5866177015216 0 0
143.758981646013 5.64607401284426 -20.526167116762 0 0
-8.24518708163381 -5.32572440235352 -20.2502239330804 0 0
147.998277419238 14.0361993246903 -18.0222540039884 0 0
163.785381217112 -9.89936995143134 -21.6970604614312 0 0
156.609198516638 -2.01321771825934 13.9807578977289 0 0
-175.654215503953 -11.8716599982646 -1.45937981622617 0 0
102.419983228265 -9.07025569990211 7.20734520637811 0 0
37.2134309492021 2.09972750051184 4.68255583908151 0 0
161.676885341885 25.0564125947348 26.2719205164745 0 0
137.603295642396 -21.5092795253787 -3.93473518044335 0 0
-175.135713919111 -12.5132147074865 -2.93951660162269 0 0
-190.393164575075 25.6398469873642 9.11457307477369 0 0
74.0346852169514 1.05988030767527 4.61979500752851 0 0
-141.103951789387 3.73072537882213 21.2422289419701 0 0
-117.189375003731 -18.3438954397523 0.496823791676115 0 0
164.34858736256 32.5315918989458 24.0374572859677 0 0
110.772447405195 5.04003670981425 4.84379012456262 0 0
-106.338252973684 5.60996094998387 -7.52295804150005 0 0
-152.817576756413 -3.85809642165067 -12.1479343910146 0 0
42.3975059641387 -6.10933015813388 3.30492012933402 0 0
-139.803393384581 -23.5267013697265 12.6642961893321 0 0
-15.8585272359253 -14.3932661962669 -3.8542973678579 0 0
-155.325195662366 -25.3228143501968 -4.7303095183091 0 0
-129.11421596167 15.3926790237054 6.56006425333357 0 0
179.361521400767 -28.733647453119 25.3166303117259 0 0
0.190583330073716 -12.1379082961154 -16.9774737485755 0 0
-170.861124940059 10.0055814525271 -16.7902249472217 0 0
-111.233069543714 -2.1603368008167 13.8231289594111 0 0
-192.001292906191 27.2150707396517 -10.1206587265796 0 0
149.067044661802 5.87512821097591 10.5625557422187 0 0
120.443404280523 -16.0540752093748 6.1875749425428 0 0
-127.722148344344 18.2171195014823 15.4423712413508 0 0
-94.0373734895757 6.42063671324848 -5.36566982263322 0 0
114.759978258478 -6.64040678473641 7.56766741690129 0 0
158.096626896779 -24.8568208978428 -15.7443304087442 0 0
-184.005357047902 24.7612445484654 -18.7827666265329 0 0
-15.4472746613463 0.822996407330428 -19.9134412733054 0 0
-180.871565033505 9.10546369109724 -16.6206085850192 0 0
-129.287963055152 12.5551327646165 2.12243722544891 0 0
-182.230799492884 33.9697665794099 9.67797661491406 0 0
-140.710183674477 12.8414763674265 11.7873973157931 0 0
-162.765705964307 -6.5976940942466 15.0691761602145 0 0
183.825646769247 -19.1878732116434 -9.80415945121817 0 0
-11.3783751252191 -3.00047834238203 6.12839905067692 0 0
94.2450214002496 -15.0823867245809 -14.4580724445843 0 0
133.851850477024 -11.8181217958296 10.0251971381855 0 0
83.4653358360481 11.0589068488803 -17.1507985561374 0 0
2.9829838976237 8.19350525470155 -12.9421177056755 0 0
86.6250763413027 -16.2024186062644 -6.37257937037648 0 0
-144.816044120697 -20.5638864425266 20.5784283561435 0 0
154.87632571037 30.216922206989 -0.32986295922339 0 0
-7.14632110565434 -15.9329704775642 -9.12744164462259 0 0
83.6587236171583 -14.6995155079104 -14.1289968383327 0 0
-152.776065004752 12.9263451165854 9.85404152363884 0 0
-144.508549182155 17.2969589439139 3.60548984700832 0 0
164.572115641999 -33.7811470173927 9.06031304716679 0 0
178.846460746817 0.250396741620635 7.69348562479507 0 0
-170.115942875158 -25.6967243325228 0.659340419340034 0 0
-168.163669053974 14.4431718113955 13.6539149585272 0 0
193.558685737222 23.9949810126268 6.64321388512188 0 5
-3.78493599845245 -6.06641963305971 4.43458498456958 0 0
-89.4013584826996 6.70873055694257 -2.89330193352964 0 0
-156.055791745393 8.51418085010551 -11.1254665631814 0 0
161.856544522136 29.328928189359 20.98959302022 0 0
-3.3020672777354 7.01910443808109 -16.1434016876319 0 0
-110.753569337306 -6.70182655143527 13.924447436109 0 0
150.164919428188 -7.30216446269363 13.5862026170492 0 0
172.119584777053 6.21263357595393 12.2928203718704 0 0
-176.169960067679 -19.8073630674438 7.55182172635435 0 0
171.076086550061 9.19528051929249 -22.3242866582658 0 0
71.5965873460093 -10.6101673427966 -18.5279786226303 0 0
-161.002481463885 -0.632872128947908 11.6613713260303 0 0
92.5798100876546 -15.8639027138909 -1.88825173377184 0 0
-146.573048823839 2.29564109073717 21.7030885321624 0 0
165.380905788891 5.62177691529692 15.3654782870176 0 0
33.121785196659 -11.3135854136112 -1.31353178562364 0 0
-73.0732738587464 -2.95668366834854 -16.7389360437586 0 0
-76.2995437276783 -7.29622562858004 10.0500612267576 0 0
-113.571277076139 -13.3732679519864 -7.97514778654411 0 0
-158.984414248079 -2.22572169513404 14.653033164189 0 0
-150.094497659988 -16.2974994496472 -8.13892074475163 0 0
149.964894583633 -15.712162272095 17.4677056170962 0 0
30.6563493436661 9.50940538386571 -14.4185740126065 0 0
-26.6653889246829 -1.15086258220848 -19.9358458356471 0 0
-109.482878656259 -16.0730238384303 12.6168466063308 0 0
-172.114250511287 -24.1488266996085 7.88156804111758 0 0
-139.793313751323 -3.78533919838475 -9.37064522964895 0 0
-151.201239792041 -4.75695668618578 -11.4750447483554 0 0
134.420072909772 -11.9237274076916 -21.6636778369255 0 0
-143.924525401435 -1.47902963539099 -10.7125879168372 0 0
-102.3162705538 -4.44304422571673 12.4036670794286 0 0
-147.208904424213 -30.0086967603094 8.49500251786675 0 0
123.150497584021 -13.6989523684048 8.02523049127979 0 0
-180.397079233249 5.52917934298095 1.46690142621372 0 0
-136.006500963685 -23.2611243847083 4.87932756502125 0 0
-164.908018970256 -0.404805330760226 9.52127534377936 0 0
-79.5513084230972 -1.1571749124325 8.47636740977569 0 0
104.234468204107 11.974748290697 -17.1277313561881 0 0
-82.3578928198146 -4.87277890046675 -15.3345423500818 0 0
183.340071130485 -10.2389999742938 -5.33450247425957 0 0
-194.869910828903 19.9977149156133 0.940437843881406 0 0
-11.3521645038671 -15.3529096916933 -6.41780333054778 0 0
123.887089620015 -7.22449903434846 8.30282215683439 0 0
-182.877061261695 24.2116686552218 15.0044225047197 0 0
-162.119207892474 -3.42248257733446 11.2437948148271 0 0
-163.17657707826 -5.21353788902707 -12.2932203768002 0 0
15.0990364134614 -8.87008607566259 0.643469676540794 0 0
179.85256425429 -26.6623677798514 -8.05434299566524 0 0
-20.4097579985934 -14.6714386379765 -14.0423548470436 0 0
-174.299605952516 -16.4786837958098 -10.7426824369195 0 0
60.0862480106066 -12.4842461699251 -16.3706617557364 0 0
121.805536654214 -12.5620836004871 -20.2264809820701 0 0
178.148490471947 -13.4467484285236 -16.0942203932479 0 0
-160.254994429107 -0.885466233777998 18.8527071747099 0 0
-28.2854832213677 -16.2728843070157 -7.0755249400054 0 0
-4.26819231189982 -2.66186750664973 -20.4733774289619 0 0
-78.8329909642617 -16.7664398024174 -3.23447029750464 0 0
-185.489368636912 9.46744977434425 9.67958533064983 0 0
128.466893682224 12.4007111058346 4.45031081643286 0 0
-105.428792479219 0.70922517989715 -11.544446094491 0 0
181.291158075568 -26.9484001886817 -2.89965129499486 0 0
122.002134055579 13.4867465285014 -16.9172388535081 0 0
-157.430993662474 -29.3200351090003 11.2734342824101 0 0
-72.6353565141955 -16.5759310567518 -4.09439420849289 0 0
-14.5236704114066 5.70912325700673 -3.8410422229299 0 0
-182.467760048854 35.2482569703791 -0.207717364017461 0 0
-104.022415846975 -17.840609244036 3.24894893301587 0 0
16.0636291488496 5.60313507284365 -2.31470121318391 0 0
-159.800594552078 -14.5282289267994 24.2650630744825 0 0
-163.012454280141 -25.8197114217806 -1.16419637195826 0 0
-73.0997707591516 -16.4119910035068 2.62012700069099 0 0
-119.235623907505 -14.4264578834713 -7.01252389447164 0 0
-27.3228124440919 1.31955070631595 -19.4167296349626 0 0
130.933510228453 -11.7667310125846 -21.4757101675409 0 0
191.385855187128 15.9302698792649 6.16866078554382 0 0
161.41134272005 -23.6056209508557 -19.5526792450186 0 0
-150.529921335511 -27.6512161177236 -2.82861812574062 0 0
-29.6268182458656 0.404467378229078 -19.6022970774534 0 0
-171.231332906222 -5.83889971606176 -6.33107213126156 0 0
80.3036176917365 -0.511725617965699 5.14248302673276 0 0
155.705450165399 -26.4442951435733 -7.50955298803239 0 0
-89.4869734579079 4.54743110124965 -10.3847198995955 0 0
109.057835152577 4.23372602110695 4.9511649566829 0 0
-176.047996057512 -8.88631400793728 20.5308848229505 0 0
-181.435870225802 37.2643529105369 -9.94080161982759 0 0
172.285996025586 35.9414234009389 10.7013046498692 0 0
-188.053629536509 7.43969533437863 4.29860416703755 0 0
21.4066729692088 -5.35050229281757 -20.4479934352842 0 0
141.130450004171 20.9474802912464 6.00120952248175 0 0
-138.109324969465 -18.8289183055302 17.5729478186154 0 0
182.089056288836 -20.3268756234832 -13.084872297045 0 0
165.019329096085 34.154289387846 22.2180700216133 0 0
4.85928949224546 3.95932593774593 -19.2786577148393 0 0
-123.945092802643 -6.96731073877238 -9.38692597505665 0 0
106.623628383288 3.95444535134003 4.88954773042114 0 0
-134.335186057729 -22.6249925563 7.23381295312999 0 0
27.0788803964843 9.67407345784379 -11.5440777085242 0 0
-158.387396822346 3.70074871093619 12.4154012928526 0 0
-114.778307349606 1.38370918238097 -10.298419378216 0 0
-3.42603757943647 -11.8044224575511 -17.1060147854071 0 0
-136.030611099414 -3.2120618630669 -9.02152946226581 0 0
-30.260057847177 -4.1917730458888 -19.9011066781211 0 0
152.517233949343 28.6086109876552 5.71818548252496 0 0
72.5777753443705 4.13349263138604 3.81960544816618 0 0
-156.39130639128 7.22446045510242 -11.1813556019777 0 0
-161.996836665374 23.3576632264667 -13.3139697501856 0 0
-149.035461970041 -16.9927002745048 22.8268323130114 0 0
-105.02836981772 -17.7954029754829 1.72098082543131 0 0
100.213353467202 11.333936550651 -17.4997864153483 0 0
175.655370907218 34.8939390935541 19.9057088649261 0 0
-117.13949387736 10.0269949625866 3.84042329296503 0 0
191.881573431388 24.2051715346147 -2.48548604741422 0 0
-91.8998442081022 -13.5825534485645 -9.83148560900323 0 0
-151.596795862141 20.0158489090434 1.15020001120075 0 0
-103.266956849873 6.16089604476937 -6.23894317351068 0 0
-150.328029719688 -29.1602849255462 13.0236796082043 0 0
-172.70644984099 -3.09739020062594 -0.05201122479577 0 0
-157.397804469922 -26.782682226864 -1.96265279910602 0 0
159.39264527649 -6.97056638188438 23.9330641009738 0 0
149.157948228157 26.0857560147758 6.41636289839742 0 0
-166.116040682726 -10.8086795196126 -11.925598172365 0 0
-159.426844395228 11.8032238146524 -11.861241707582 0 0
180.33731539788 -9.61449557520284 -11.6132098329501 0 0
-151.141184032232 -30.9406875513381 6.45408412575332 0 0
68.6116722020328 0.554356199491888 4.82656119867528 0 0
158.262493619761 -24.2847782418874 27.5991831335635 0 0
127.417845861722 5.50907505211576 5.98748882050834 0 0
182.403707945239 15.4468303073196 26.5541152136813 0 0
-58.8923215157255 -0.320184242111554 6.80976573339388 0 0
-184.262971960809 34.6697413859968 -12.1081417693858 0 0
170.541330943224 -30.7871627039804 1.04900614009847 0 0
133.590196895434 18.4095141575413 -12.9911796653752 0 0
-116.003620667128 -1.50057532657844 14.7892347142772 0 0
55.3409481705035 -0.425460043035016 5.16436677617759 0 0
177.856200156366 -30.259364017174 9.82374395285209 0 0
184.952614271787 4.25077976429646 3.18201030023921 0 0
172.935263284469 28.5280314126286 -7.86232226775771 0 0
134.186370089915 20.4471344212189 -8.3215937181327 0 0
-187.764772961933 34.6728567247217 -2.19021554432076 0 0
152.989725232497 -22.8209679645667 -16.1320794948265 0 0
99.1670124910305 13.4339939525349 -15.5253470638077 0 0
101.597408572004 -3.53477578386054 6.51805203297501 0 0
-146.432982695722 15.416537365017 7.67756995852374 0 0
-130.392538154435 6.72973676610657 -9.05248790172698 0 0
185.04979520395 -16.9882294709658 -5.62847260711106 0 0
-12.9131049943304 3.18442752486458 0.316413510173053 0 0
32.9311510277548 1.37758365495492 5.05461862600937 0 0
-173.679892588593 -15.9610242537826 20.0768464172277 0 0
-156.675863535223 13.5435593706571 -11.5694384711862 0 0
46.3065333923074 -14.6157839022036 -8.86454064207927 0 0
184.39853313653 5.37615188171291 6.02207571227238 0 0
116.152092765244 12.8469552488114 2.23478967139877 0 0
125.850896904369 -13.1717941995601 8.32933280766468 0 0
155.008922021084 6.12425334243717 11.465479362683 0 0
169.774717974539 12.4423286598638 19.5031974883137 0 0
-138.037918216847 12.4782764620243 16.5952821192001 0 0
-128.29180902623 -12.888473672241 17.2184754162338 0 0
-136.113630746674 1.09896923064903 -9.41477572857838 0 0
156.734045828782 13.8637742123842 15.1193855602738 0 0
169.862524579203 31.7700312392669 -5.6258919630644 0 0
3.68083681506162 -12.1726924889494 -2.28231286185613 0 0
-145.229717044452 -28.7137436298298 -1.5281008338033 0 0
144.114965878368 23.0440585629137 6.57674707733741 0 0
181.092616265385 34.5087507234853 23.397573248339 0 0
155.602777946151 2.69972953186033 11.8722105920925 0 0
-179.493954134569 28.1035380908004 -19.3213025782741 0 0
164.248871953755 -31.3514726178756 1.52840466134504 0 0
107.216174062523 -15.6846968489786 2.79410786533126 0 0
-189.637847057744 17.7443258879903 10.4967390324806 0 0
24.5619553717961 9.4956201545325 -12.1944811605489 0 0
-31.5970599777211 -13.5575392921417 -0.959306741903178 0 0
-94.2808178458585 1.05660892285912 9.31719372019789 0 0
-14.7256384794241 2.47142111184368 -19.4140990703235 0 0
161.236671202458 -18.3263693785378 -23.3605381169275 0 0
75.3450796176841 -11.4845448963895 1.89899381586778 0 0
-85.440365520172 -7.64853164319286 11.3556412290815 0 0
26.153845117556 -4.84137685409222 4.8703316084945 0 0
-153.089295772481 -30.0647444839427 12.6942965183516 0 0
137.181945784843 -20.4115331468874 5.05445355111557 0 0
-173.794419923669 23.468889509292 -20.9096148243184 0 0
140.234871035005 -18.0568411136165 -18.3209482507125 0 0
-153.449235683547 20.7040916011634 2.48070169328708 0 0
147.838884466152 -19.8922874167039 -18.6137973217604 0 0
-59.505651900596 1.38635583979328 4.54804175247974 0 0
-120.514134163104 -16.8998576298318 -4.08320796994567 0 0
-150.774189889478 -18.2107197680393 22.4264898413558 0 0
173.062832928654 12.4711006996192 19.2106212935593 0 0
-171.243426852869 -19.7617099628603 18.7641971240947 0 0
-148.15919744905 5.76489198466025 -10.7379198129907 0 0
-151.980384687896 -19.5506551923324 -10.7993059255874 0 0
149.943757394199 7.3788047952105 11.4163321090231 0 0
-66.9043208307079 -11.4522322179518 9.66401488322721 0 0
-135.953233358252 11.7641987241633 -4.84066347882598 0 0
138.825283838133 -9.5497655365489 -22.2183164880348 0 0
110.670224740914 -14.6850797363761 -17.0793718660614 0 0
-162.480831273193 -14.4483326173538 24.3748952170824 0 0
-114.606750958868 -14.4835644170628 -6.97323965928136 0 0
-127.051130773896 -19.4493239311369 -0.251687104553656 0 0
42.4377610491658 -13.266022314655 -3.99638894582517 0 0
-159.888338818855 -4.37657750395284 23.5859408923632 0 0
-6.98655626830876 2.25390481262609 2.05136554159223 0 0
-5.89165908823408 7.5402798027026 -14.5179704804823 0 0
-100.664259328117 -6.1848967607321 12.5878680898176 0 0
-121.378950471003 -13.7278526282932 -7.46315792733242 0 0
173.441491284733 10.5280282954986 -22.0372623590222 0 0
-94.9845948834763 -16.8280852284243 -3.01514144577892 0 0
117.478342801241 -5.84886784981851 -22.4983270319841 0 0
185.428562702968 -27.7979680998072 14.3543691887323 0 0
41.2974943558161 9.01023406993355 -16.9073575011442 0 0
159.783748066183 -34.2687045743059 15.3967146345886 0 0
183.505534073947 -1.04745846087495 -0.667375424732888 0 0
-95.7245041418935 6.55011876076036 -4.94067734589878 0 0
131.903671379235 20.1237797113167 -3.45845387502957 0 0
138.574525074395 -18.7020639004363 -17.1115803243985 0 0
-179.566972323477 10.1969185776691 -17.8062409955629 0 0
-167.903901892691 -7.42549567953909 5.83087964882593 0 0
140.815271579599 18.7871544908064 -13.90033774013 0 0
80.9367377628625 -14.0616020978989 -15.1056887437023 0 0
-73.913937798173 6.16293029062816 -1.89528638992542 0 0
153.004528742204 2.38574395440163 10.2449015862694 0 0
-134.733821920632 18.7120384731523 10.7247743062524 0 0
-43.7941685761452 7.27473094851344 -11.1537489974785 0 0
-156.927619043622 -18.3973367033071 -10.5484582491492 0 0
46.6727451235007 -4.38778610402276 5.50108784110811 0 0
94.5434027745826 2.95136886562561 -21.7687372078381 0 0
165.815842997813 -23.7299184985066 -22.1274225555434 0 0
173.848935705238 -16.8907219466821 -20.8357014116144 0 0
-161.811925206608 28.1452394599311 -10.7573307441255 0 0
145.085505688576 19.6560653136388 9.34152781190518 0 0
-4.10175479432374 -13.2834968750916 -16.0329928919589 0 0
-176.896133856724 5.34280122434162 1.49382772300724 0 0
31.4499844685498 5.03587266543279 -19.5778399594748 0 0
-109.557462327421 7.68923065076204 6.58463554662722 0 0
170.764654192221 2.50743576218488 12.6196099957432 0 0
-176.038278758469 36.4074223393977 -12.7946301002394 0 0
-165.116491382442 33.614922922546 6.06867319771566 0 0
91.1105833879378 14.9223089408095 -6.04372593328275 0 0
-165.912899652458 13.6221074216918 -16.9668347022579 0 0
170.269533503998 15.4253248249711 29.3004583649856 0 0
166.784954334388 24.5673703352122 29.7704386655296 0 0
83.4045978336541 14.1066756128112 -12.9533190516058 0 0
-157.397164685865 19.3998826836597 -10.3745742626944 0 0
-135.240497979086 15.0381390553974 18.386412822246 0 0
174.051222584017 -25.4679923002274 -18.0532916929316 0 0
-172.881169531936 -19.3990411173891 17.7609242328043 0 0
-65.2516606924759 -16.0225600141718 -6.96321049556717 0 0
-161.542700797931 30.1302253867407 2.15553414086981 0 0
-127.514386157081 -20.1582689456084 9.52563443641082 0 0
-88.2129200146819 -17.1500914197225 3.79643522800249 0 0
-108.243600431052 8.48130701506316 4.44290293289769 0 0
118.484957592291 18.2935060829612 -8.70802354438007 0 0
8.11532854492594 3.89455907735951 0.396856970736252 0 0
108.465549319735 15.8481576390107 -2.7111064070628 0 0
164.624021519614 18.4083925525344 -18.9411572545592 0 0
157.520361368249 -29.2775012411996 1.72225883541294 0 0
-100.870016933093 -7.03486924818873 -12.2812605988838 0 0
-176.807986812634 -19.1699937025801 2.48009645453445 0 0
182.993490587312 -7.40319518816959 10.554079871536 0 0
-163.046859534715 33.904620853822 -6.5842915962309 0 0
192.271821728239 18.3073185821505 0.653596386122591 0 0
117.61569367107 8.94010570096876 4.09453175794544 0 0
-155.189859319201 -6.15607370253034 -13.1397493374408 0 0
163.649165836989 -34.1242155561965 10.8916247175391 0 0
179.424776924539 10.2786552269287 15.0626064101173 0 0
184.13451216571 -8.12487788040961 1.83818005756878 0 0
-163.295826773675 -26.4454135169145 14.0275159184989 0 0
154.60251559972 14.0493447120187 14.7998114512268 0 0
162.667698157695 -3.114737620609 -19.6603213540109 0 0
-140.93002762929 12.6244332573597 -6.89629887023786 0 0
133.784746384729 -20.4424948483182 -10.1251050634813 0 0
-182.951032682923 37.2616605027058 -2.84924522686884 0 0
169.885977980959 34.9984694129477 23.4009249476131 0 0
-173.255397529461 4.87117551778392 4.15475646052108 0 0
187.474519973081 8.4786173023269 4.03109894576182 0 0
-188.705255076165 21.4330005434337 -16.0232642358421 0 0
-163.651831105824 35.1346791042769 -2.52151306442576 0 0
139.251321021627 -21.0806855311727 4.64067225966747 0 0
-165.328098218288 -26.4720241187143 10.3639775886599 0 0
175.020954638798 -28.2708561346763 28.862461119994 0 0
180.719285134405 32.9876633264874 27.7521154494394 0 0
-182.799069255833 4.18169004381447 -8.99007057745261 0 0
-157.819683747666 -4.15637009557137 23.7757975003339 0 0
-27.2310242948566 -6.93259801525167 6.20842610508733 0 0
133.426831371596 1.22956475414593 6.98852983665802 0 0
182.712130387735 33.1045560574729 6.42673483493301 0 0
141.385436882985 -22.199775863005 -2.14832621352156 0 0
143.776155627461 17.5989083394933 9.67717125061879 0 0
-164.234805655884 -24.2342682233974 -3.94155372522331 0 0
132.149176641538 -6.68364296957019 -22.4204217080668 0 0
84.0599942938889 3.65905698192774 -21.160126442712 0 0
-152.858866308891 -21.216725814036 20.853535488621 0 0
-153.405591436197 -14.3326186800278 -9.31774980682188 0 0
-11.5411528081503 -14.2451465832489 -4.21935566944861 0 0
-172.930405602595 -24.7740368730859 4.63249507830164 0 0
172.458769191248 26.8256082851426 -10.5386934537814 0 0
127.398950622789 -19.8505363495878 -8.39088765057477 0 0
-154.448690239693 9.52464174392278 11.6167924351621 0 0
67.6825466192705 7.25601756762394 0.919088194475399 0 0
134.587802312831 -2.61312665702305 7.92773886504405 0 0
-77.449057090632 -15.5525606233709 6.53812249619093 0 0
59.2100582798963 -6.39684142133283 3.8965704390575 0 0
174.812382509763 2.72456448869056 9.30436995929322 0 0
-142.845381809237 -24.5392046940132 -2.78292783351617 0 0
-33.6664204239201 -13.8536944345398 -14.6980326791075 0 0
184.998600771067 -16.5450904593428 16.0378137390562 0 0
137.070970316546 21.4434204450496 -4.62435790948515 0 0
176.988790824794 -12.6327791070557 26.5646928221021 0 0
59.5845810946053 5.14716118276948 2.36004263305787 0 0
170.9471737108 -11.2119590330255 28.6051846540592 0 0
-187.756747834377 11.7675658706088 -14.1538526095965 0 0
-75.8099545815514 -16.8620025959152 -2.1601384277203 0 0
-8.58736055534032 7.75860254591273 -10.4272078283808 0 0
-173.240423929601 39.2037954384576 -7.27373250348074 0 0
-155.285157183322 -13.0080798474444 24.52544203585 0 0
-184.428949610899 29.2037928564117 -16.5679364324079 0 0
173.666128052538 -31.7215552002265 7.33841095090717 0 0
172.618920049902 14.2369847392468 28.8342991657016 0 0
154.215634179704 -2.4443683830683 12.0910685701136 0 0
147.798205344438 24.8529121457385 7.16031668267138 0 0
-65.5879483265213 1.20565763182484 5.25950187419685 0 0
-158.593447642854 6.76137171232025 -11.4822491492874 0 0
60.382111308921 -4.37143782078898 5.39759424775211 0 0
-143.234300449999 -23.6789797496747 -6.7666922480716 0 0
-80.043952413193 -13.1047978255671 -11.6244184031769 0 0
159.906089994662 -26.1157586933769 26.3555027526508 0 0
175.784311529292 -8.512896273663 23.8997337061133 0 0
-53.5390523067765 6.03148307213861 -12.5443422480148 0 0
97.7327343710785 -11.8365869319078 5.16146128352677 0 0
182.866467944744 32.7913934471502 3.5527943445677 0 0
-173.070121018999 -8.91840164017074 23.8396702191418 0 0
-35.9931452216889 -4.53690284005372 7.15252049691822 0 0
168.781288593154 -27.5102808343965 -10.3490703946841 0 0
101.981213816508 -8.27587801009398 -21.2974904014282 0 0
-162.031845377372 29.7039715608052 -10.2706627976401 0 0
50.3745243392481 11.3259573058456 -9.92833029580403 0 0
171.792493717884 -28.0561962468912 -6.91832705901663 0 0
18.3085065080225 8.22582100740397 -7.46387866372966 0 0
-84.0945843287021 -16.7417197740463 4.84748096569742 0 0
-35.3606181468692 -9.72113208281091 4.6726759648845 0 0
-42.9335389293066 3.41034961224713 0.348040115218576 0 0
-52.8826901664439 -16.2147594638198 -6.5178031615358 0 0
-170.345002304307 -18.8690253522655 -12.6470327135019 0 0
107.873815785904 1.29961513724119 5.58299433958919 0 0
-104.875987284748 -15.0270222657803 12.6694071244994 0 0
168.065505467352 0.676307083027409 14.2215478225455 0 0
-85.9172038376651 -0.814458259090492 -14.8338754044526 0 0
155.668039128599 34.1202301549985 9.9052340972717 0 0
31.914977155205 -0.00760490387431841 5.54963044227258 0 0
-116.075830207955 -6.99107264223613 15.029312604018 0 0
114.183492055726 -4.3525669193092 7.0722421013693 0 0
51.4697661711696 -4.30610859227192 -20.9901522489511 0 0
38.2274897298469 -5.95990562854021 3.40329804870989 0 0
-167.482096289798 10.3998070724068 -16.6289923558492 0 0
185.901592774903 7.23939624510495 5.54719030963636 0 0
-122.726921755061 15.6487265783581 15.4484200312835 0 0
-151.052086832806 -27.4300996897015 14.5222039144751 0 0
162.455903261986 -24.6104117951767 -18.3231357861478 0 0
179.282094554782 29.9024745112118 30.5770315420174 0 0
190.14435558666 20.3939892636251 19.1961591128923 0 0
-174.281027092211 31.6877099281494 13.0409606397201 0 0
177.04247712115 18.7762564401617 30.7206050484483 0 0
185.923582293916 -26.0332646689761 7.24782932389266 0 0
34.4744157391541 4.96335240545073 0.297740333619544 0 0
68.844815153091 2.66008031884896 -21.103344293776 0 0
-158.68553694345 -0.993441684857368 17.4594847952805 0 0
-161.456111830954 19.8245917054784 8.65463502028646 0 0
-22.5415287834766 0.574611617807576 -19.7821219994084 0 0
-169.648107241034 13.5132211497627 13.2107482343759 0 0
-137.996284759817 0.44202393495046 -9.72852477746025 0 0
-172.779987960166 -6.85678158177284 24.484914296289 0 0
-142.168381705973 -2.93709688951212 -10.1202568106975 0 0
71.5121603516388 0.0130722244483321 4.96294384156887 0 0
119.320345859407 10.5530838263261 3.79501788133267 0 0
166.325952937408 11.7294136257372 24.5144411348363 0 0
179.119600230734 22.5369730612793 -11.2236061553007 0 0
-176.582782948514 -18.684545613692 13.3506157666661 0 0
-21.0564658643612 5.87261334543943 -16.4748126114749 0 0
-129.718868715614 17.1988290593391 18.1796347064109 0 0
163.913568534676 -33.3208362114287 7.47643823192241 0 0
158.822523876872 -31.6357357352859 17.424332456592 0 0
-12.6097710535234 7.77298449636399 -12.2170726944086 0 0
-157.963289723855 0.603188782434399 14.1742221065871 0 0
-178.539551496033 21.0912937084203 -20.8241722486247 0 0
-71.2587163312759 6.76405965633048 -7.11478024570523 0 0
-150.490014744749 -30.875906486187 3.99412813211459 0 0
-169.005371487046 34.4861190248646 -13.510628103396 0 0
-153.627910241781 19.4266708990634 4.69708538106192 0 0
-95.2691062220197 5.7003509222541 5.05645942449773 0 0
-156.846903100608 -24.9897131954363 -7.56162213543315 0 0
35.5466854556068 -12.9983113952273 -15.1563199478223 0 0
-77.9057451679116 6.69569830076445 -4.819696512511 0 0
180.142758762259 -2.99553824139346 -10.3195689753652 0 0
99.4584861075812 2.33919591235756 5.01019151537521 0 0
-162.063815660045 14.2301614071493 -14.6317091977483 0 0
85.943927477012 5.1629173024178 3.45459531906628 0 0
-17.8471828037567 -4.7583186674089 -20.1811940664924 0 0
147.036778830062 12.1490412291694 11.0778198443935 0 0
-168.77809491676 -7.91742736227287 7.12350244553207 0 0
-59.87766770288 -12.3836108669987 -14.2873444361629 0 0
72.4105533731442 -6.09821259443909 5.38872143492789 0 0
-152.915381476325 0.372101063119542 21.849961035282 0 0
164.722755103757 -33.4731135202075 16.1233207221646 0 0
-105.35439855723 6.57213898628995 6.96042586542687 0 0
117.7256298083 1.46518681617454 6.05433050019177 0 0
-133.529959794187 -5.24842653274426 20.4798201133568 0 0
164.353473619414 -27.6873259066799 -9.08400484997981 0 0
-106.693869137576 5.55678035033051 8.80817420587218 0 0
166.527898148984 9.96259417308447 17.1349138341526 0 0
-12.0733317148494 -8.29852865145352 -19.2314830398491 0 0
-25.0254262618316 -15.3119513914106 -4.50481414368842 0 0
145.630512892155 5.39576282851798 -20.3697282329338 0 0
-187.455488532078 29.6670183842414 9.85615987362408 0 0
134.60443974261 19.8173401854484 2.10445142050933 0 0
173.552128878386 -18.9126977958921 30.9733667322195 0 0
-130.632756835547 13.2649780427735 3.46653470570756 0 0
39.3093272493102 -9.01917067191957 0.857295107244437 0 0
111.087829998318 16.4981699446438 -12.7004829110798 0 0
47.4607509971442 -9.57402739015494 0.860173434854617 0 0
110.403699258728 -13.6811983940007 5.89093491580503 0 0
151.050509473603 8.46183172318712 11.9125130503582 0 0
153.108937558911 -9.43559927600772 -21.0552762694366 0 0
77.0465087985984 -3.01882847603878 5.89589532507118 0 0
-194.983336514339 17.9700235705238 -3.09920753247244 0 1
170.127861194081 21.638308209218 30.971840049015 0 0
169.322384362973 -22.9878095805042 -23.1084133080807 0 0
70.4988829345478 -1.02818486661598 5.42109060527156 0 0
-148.988578284635 16.3774041437573 -5.57437924725788 0 0
-105.189306895654 -10.856591585723 14.08938300495 0 0
4.07836868092849 -14.3566225688321 -14.6327060854457 0 0
-145.79431721417 3.64468598970589 15.3093866307598 0 0
24.5016448139472 -7.39783093398301 1.80817702161597 0 0
34.5885401551203 0.920924631631508 5.29393018165364 0 0
-159.902726459121 -28.0889318685136 6.67559352768615 0 0
126.957418781268 -19.1715584160022 -12.1470632674411 0 0
-188.507542209235 32.3635329114696 5.73462701436201 0 0
-121.496553194521 -17.8457967889148 12.5301154246694 0 0
-69.6915585417728 -4.1997728908215 8.67988389401883 0 0
181.451385651705 34.0432046784267 15.7445696914783 0 0
-152.58360840366 -22.7733504178309 -6.83544076910458 0 0
46.776131109009 9.51010482605646 -6.04689595325769 0 0
183.450845366638 -6.1413888630826 5.66360130523159 0 0
-159.392745830366 -22.1296638914929 -11.0349718561326 0 0
-107.940118415709 -18.055959591207 4.79434361042047 0 0
-170.393246934929 -17.8577034888187 22.8724323211946 0 0
-164.885563686822 -5.78322059046002 -11.6573266062484 0 0
-172.59648096277 -0.833897280936864 1.19576850490553 0 0
-97.0999513551681 -7.18920229940051 12.3066204812958 0 0
-182.682670663404 36.037813335508 -11.3957812964177 0 0
67.024411128703 0.350113329093931 4.90326073362609 0 0
192.219780503834 25.9172487050446 -0.141190080768948 0 0
-44.1223037346447 6.79060815275293 -4.9033931362733 0 0
128.164631549101 -1.982276022565 7.31473315713495 0 0
183.910359399831 33.465217250877 17.483577825579 0 0
-163.274854844106 7.15169538054873 -13.9125074749545 0 0
-159.998885274936 -8.50278756135 24.7590875000764 0 0
-173.292266841628 -10.5708670143647 -3.40059774076183 0 0
-177.487543478234 5.91531027608792 4.66225822055517 0 0
-162.576044960709 -3.90829360792448 -12.4136583319532 0 0
-168.934984436296 -25.0483889536289 8.04798401885503 0 0
-182.093171374418 26.8772649936263 -19.006386430244 0 0
179.431776127082 29.6484601192108 -4.10185017586627 0 0
49.5134020906832 -14.5703808045227 -10.5696421704631 0 0
-179.063443750267 12.3952583334312 -19.0538418297998 0 0
-165.705046280373 35.2781714126737 -8.48078879383637 0 0
-140.825336999687 8.75549151934088 -10.6253201558206 0 0
159.091062418598 -31.7825642067815 6.95132543842476 0 0
22.5087768128634 -10.5412537943835 -18.0754531583588 0 0
-160.803324861444 -13.7894610078418 -12.7749772367132 0 0
154.876255523961 18.9080182101371 -16.6825742693013 0 0
-62.5549018747301 -5.52038144016317 7.48653295519615 0 0
175.531049150971 -5.96096363485722 -15.2292675382904 0 0
21.8758204409751 5.47871770451971 -1.70857605864788 0 0
173.02779349254 18.0398814360923 -17.5095930155384 0 0
-167.274410626535 5.56792058809783 10.1486381388384 0 0
-110.633517614824 6.81010453039613 -4.89913267245478 0 0
-172.889562426484 -7.39570195838933 -2.32834367743524 0 0
-171.116752135185 18.2481664092764 15.9026427821243 0 0
-133.417476913923 16.2684193567432 7.14867760857012 0 0
142.287082436791 -20.3769577761537 -14.608152647225 0 0
-149.712157116558 -29.0767968453027 -1.14064931310873 0 0
-182.85468513632 8.05650926354052 -14.9330406386072 0 0
80.4871851854065 -8.85068768212708 -20.1697821225649 0 0
-93.6726873946113 -7.53374578973819 12.0591890376907 0 0
-84.9724336201173 4.94801664364438 -10.218253533747 0 0
151.576774539474 -5.79928878995633 13.3489400681966 0 0
-157.32021048117 10.2031917535766 11.2672034121868 0 0
173.016170457149 -10.6456685385756 27.2453239651183 0 0
160.574945453841 -3.83749946046249 19.2533440271928 0 0
-174.049693509142 -13.5029546914593 -4.38749662604417 0 0
-176.491991234927 32.3245491567808 -17.0909166349621 0 0
53.4627080365467 -5.38456069440414 -20.813562443437 0 0
-12.2928605646472 -16.0494510514396 -10.5727573507701 0 0
-1.59961347454438 1.68719903411982 -20.0042466591423 0 0
-171.920183118783 -8.34235723065943 -3.99601944606102 0 0
93.865992006131 14.4419150479376 -4.21750256772893 0 0
137.062118451555 -21.1894604259307 -7.37833484439087 0 0
-173.503689093619 3.51029048165417 2.59925966812179 0 0
156.309393043888 32.5069621127762 5.30963293827891 0 0
172.517667396024 27.3858381676869 31.4210657607924 0 0
189.217900450325 26.9931588645021 22.8037707824407 0 0
-38.7484966443993 -7.65087127358969 7.27009030138867 0 0
116.963542529153 5.24490369239562 5.18697858721133 0 0
-78.9692697329556 -15.1474539570519 -8.87074131529247 0 0
167.420387916768 1.90518449710835 -20.4346985306641 0 0
-109.359348633389 -0.793979390523652 13.2235932561946 0 0
167.686107758876 -2.81223640195329 15.6356749748967 0 0
120.710648318769 3.87478979540391 -21.404139112247 0 0
180.768605653502 -29.9373559134302 13.3244979603752 0 0
