"x" "y" "z" "f" "a"
-87.8637246249988 -17.9879417937997 6.0327384724368 0 0
129.03695591872 12.4512659465781 -1.71460616360379 0 0
-252.008829084493 -13.375665465182 -1.40110486666353 0 0
105.216291141051 12.3548314751101 1.38722931619178 0 0
83.3643006083794 -10.2197070120206 22.6832396270435 0 0
-236.53731857452 -5.13006650984989 -15.3818765840836 0 0
207.250921200582 -19.3240830317072 37.1697721292237 0 0
143.962783094758 -3.04308225437685 26.0111763795304 0 0
80.4532557759673 -11.6132734894964 -0.0610061617660382 0 0
88.8054786381851 -3.39913311694763 27.4539973395307 0 0
240.160792943441 12.7848620683047 -23.1862913907744 0 0
-254.843267886969 -19.227783977011 -4.63055309432031 0 0
-241.362235631568 38.0821288838966 -4.5774453842109 0 0
-245.749981336305 24.4407343114227 -13.9299041000002 0 0
-85.4306162737873 -12.5034806243845 -4.93390124174785 0 0
187.714290857813 10.7277060730006 19.6253350816323 0 0
-172.501872638606 -20.6690791783284 3.39089860500833 0 0
78.7419915816814 8.30399668722191 -0.390906654804479 0 0
-54.1221555607267 7.90593108659424 16.8014974547376 0 0
-195.630502297356 3.44426322864815 9.65369340066292 0 0
147.158605442304 -0.516949879697586 -6.92542514349833 0 0
-2.14391291236997 8.47716850005516 25.3085745892764 0 0
169.065307821276 -20.3004086714533 9.41777813320249 0 0
141.744057134474 16.7238060078377 0.937871838652851 0 0
228.632253793515 12.0368819051811 17.1424217400091 0 0
223.842145018587 37.1202211828116 -37.9701893062847 0 0
-243.986472578442 45.6682037611706 10.0093261778026 0 0
-230.732855865467 -36.2355255847592 -16.4149849689648 0 0
215.931844618433 -37.186755597112 -26.0497473036082 0 0
233.739084597282 -9.83566144586103 -6.26685316239184 0 0
236.862428536297 -19.5575027826328 -9.10894967961077 0 0
221.947113730727 -3.64289691448499 -11.6954690351665 0 0
-250.341309166448 29.0431135798038 -16.9107261022673 0 0
-240.457313951958 29.0568478400569 -6.1436781565523 0 0
-188.85933766202 14.1221536849197 -24.3312096686574 0 0
-96.3936108757972 5.58027586509479 17.6959472812382 0 0
208.038729120416 -39.0120110419291 -0.616337671678697 0 0
125.100617026712 -5.59452253589928 -6.23764695008433 0 0
231.217307652624 -6.5487535179513 13.7758013370752 0 0
-244.450969427353 9.54440127502453 18.6445021910494 0 0
-5.78974235463673 -3.90864912253953 29.7077615842514 0 0
194.711491297914 7.64667617861634 20.4472562462204 0 0
235.035554451109 -21.1222876468669 17.4441183399589 0 0
-72.2956863947035 -9.40178337033717 -5.65862926558213 0 0
182.593172893537 -20.0365447719404 17.0041650394252 0 0
237.058410812085 -21.1012533320418 9.3359857720806 0 0
-175.607121666246 4.30177271851189 -17.6965943294438 0 0
237.827501232686 -28.5513418271042 -16.019931408774 0 0
-47.8094224511329 6.37510803062733 24.7848178089881 0 0
-261.623772447699 49.5839693770834 14.5090898593749 0 0
207.341542349898 26.5670748583877 15.817747199122 0 0
-208.307797569482 -2.64359349296224 10.9052516285952 0 0
229.757479512219 -10.5205162419762 -18.9466202386479 0 0
-200.628028638644 17.5798367513627 -19.7249905081038 0 0
-168.140647296796 5.92515203036533 5.70935572023202 0 0
-72.0024690965635 -0.790899993644993 -7.83048289169928 0 0
216.55119787332 33.0283491237229 10.317439369998 0 0
224.583774033416 -40.1924455134819 -21.3626147287819 0 0
10.8708125755327 -4.86312741268518 29.4239132079834 0 0
-273.555745286833 27.7202205069984 -13.8658821600698 0 0
125.032326189258 17.2368751066344 13.5612826610137 0 0
-240.441674840503 33.0747090652035 14.6126832212625 0 0
206.75225266388 -28.2030834242567 22.1136443218783 0 0
-256.086808331759 46.8706122223072 19.570672393246 0 0
-203.133418203014 -28.4870865510944 -15.3984944603202 0 0
70.8817782581711 -10.5854433643647 -0.241459750324062 0 0
-184.245772434999 -10.6040647700636 9.7626775466357 0 0
-212.092999885149 6.21255722555733 10.2376259038602 0 0
-12.4407009609265 -6.96875186272087 -2.7036412765864 0 0
121.768132773293 -15.6587013193298 0.0851905323578398 0 0
-261.591800357918 14.0170981016874 -12.9938624900784 0 0
218.259168486451 38.1709710438336 -27.5444058960656 0 0
-160.00810011603 -12.1938262325194 12.9991236436757 0 0
-81.7013923650238 -9.31021416306298 -7.57196879400582 0 0
69.6433180172856 14.4010370136295 11.1238225179939 0 0
183.806664699429 17.1337871509801 15.667982948016 0 0
68.5796326434152 -12.6452321289035 19.8448697256469 0 0
-109.134342596846 6.14622730461574 8.54598429823399 0 0
-233.580354575015 19.3329397171588 -7.99504137164486 0 0
-194.365881837692 12.4654422375231 -8.36319097902079 0 0
-136.264756809497 -11.2544678341068 -14.4462463814918 0 0
59.9684902947716 14.0982197875572 15.0847005998117 0 0
30.498823296605 -2.52306183116627 29.269362919065 0 0
245.016622550544 21.9815021517347 1.45758665600041 0 0
-275.56886545605 41.7985884941468 -6.0408192477163 0 0
-260.094996738779 6.44998787413761 18.8827010910538 0 0
57.5080059620118 -8.81904995790345 -0.899744851286642 0 0
-82.5860637464338 5.57549072423925 6.43250584858015 0 0
240.939430094454 12.8387029675854 2.89543181313924 0 0
-28.6108702993097 -15.8167072103111 11.2845989443164 0 0
-240.059152659067 17.1483764172611 16.1323408226009 0 0
-247.25346334684 -4.79170362411273 12.6270179778402 0 0
223.871853169405 -7.82111937395694 -10.2244580608391 0 0
246.336084491429 28.433359202445 -24.6369596430671 0 0
118.219179456158 -9.63664167603593 23.5522642880913 0 0
218.16410355593 -6.56327842724449 -16.8393806514209 0 0
232.860476177404 -32.7752674618504 5.64617690355944 0 0
127.350801041222 18.0892029675506 8.22924864478045 0 0
-240.913854550446 29.4080369805718 18.8112268700437 0 0
200.40058354577 31.4013261150152 2.66537572697848 0 0
-234.665669477072 -0.929256963246382 -15.0967692398592 0 0
-209.089497644294 4.98818483278752 -22.4464860788718 0 0
191.983311872731 -23.7049776332934 18.2582542057731 0 0
128.947322751942 5.84809473339956 -4.93921419545415 0 0
-213.301111987992 13.7427795362056 3.48539526569396 0 0
-220.654830190431 -8.30977746820245 11.5759241845919 0 0
245.866720647786 21.2422471797129 -16.6693923935972 0 0
-221.734816545693 18.8573769796615 -0.335816175760057 0 0
-250.161828584275 -25.1812366089156 -24.5275948028907 0 0
-251.637014045578 -8.57759352759198 0.205584632532972 0 0
-240.887213169645 -4.46674067553227 -13.4882804406173 0 0
225.079517585538 10.4605020149115 -34.5386214170131 0 0
229.578904052102 26.0368234009283 -42.4435066336824 0 0
30.6208736007799 11.054096134789 10.5025466317384 0 0
191.246150557559 17.954610293877 -14.6520438286732 0 0
-252.721101187495 -0.263619227330153 -2.19899170255179 0 0
-210.172792003579 13.2358989690595 -14.0034414471895 0 0
-126.420553791853 -11.6986932994928 -12.5548169173187 0 0
167.537152866608 -6.02883199075438 -7.96022320567138 0 0
-212.687000540045 -29.0669796959262 -24.2606717185821 0 0
-49.1781201586977 -17.1177397628042 12.1458426444229 0 0
182.931703970263 10.551307995613 -11.1437002328857 0 0
230.548291547216 35.3233121773424 3.24636354869224 0 0
43.2457116116654 9.06850283678153 4.96714287020891 0 0
-33.9947594331212 8.4859458373409 14.705938552644 0 0
-241.391841157482 13.1394032259736 16.3935273022866 0 0
211.134483494273 22.8532328566408 19.561952286609 0 0
208.265606380983 -16.4610744487037 -28.8407292296556 0 0
68.3916520765711 7.10114394325778 -0.567286702243625 0 0
-181.166313519816 6.64015171965367 5.67241351536493 0 0
-177.426660598419 -21.6417074750755 -17.6528162072084 0 0
-115.526284947576 5.67118778453483 3.42864294752006 0 0
-145.484134053696 -20.2420703505384 2.59424423054705 0 0
-241.425804747331 -28.1157251138502 8.89605603471407 0 0
213.948416250211 12.4918681393986 -27.2841414589748 0 0
217.506357475701 36.9767889732041 -35.6224999209622 0 0
-119.05875138434 -11.9738024413062 19.5389482058343 0 0
-242.081350853859 18.9946310633598 17.5673203420673 0 0
-14.5994004557101 0.706829899066202 -6.34111558080797 0 0
49.4137862445086 11.6284076275141 22.0665874397214 0 0
-208.102027644735 8.37234077002051 8.35127150159463 0 0
5.70058452894977 3.98131151632999 0.632572712939456 0 0
144.219787778442 1.16883032644635 25.7291312057456 0 0
208.412585315743 -8.28710902432015 -20.5508701920778 0 0
58.1719016885903 3.41765411228327 -3.18789746359025 0 0
63.4039569029566 2.42164526326822 -3.68335396895791 0 0
218.078240528579 -35.556617499682 7.61413138442663 0 0
-219.798515970656 -12.2603452276151 -31.4265039349102 0 0
-53.7109584653987 0.454999959625294 -5.99195432808285 0 0
214.685482270797 -7.91453741352063 31.6951265103746 0 0
-202.173827019968 -10.1388255581961 8.45570766246813 0 0
236.517873735965 -14.3226017530571 2.21446807047749 0 0
96.0545732096276 -9.95079734701968 22.9421928857691 0 0
-17.7891745808326 2.59045345621138 -1.31502935793383 0 0
-40.8239241103394 -12.6467662042933 4.15390626414448 0 0
83.7486199618365 15.347229600897 14.9093661360154 0 0
-270.0711543401 49.0228304131432 12.3763573998332 0 0
228.204203020629 18.5296930835671 -41.3632473239885 0 0
-129.489596030282 -1.02397897548322 -10.7897560126935 0 0
-166.576681812351 4.95033144413136 -10.947126567081 0 0
236.282084442807 16.9418304402391 13.7702696597097 0 0
39.0236138071528 -14.2934514024246 9.39402857383898 0 0
-228.492275759822 -6.16471816185173 13.2218226125463 0 0
-243.185185268935 34.9957334360082 21.78728020779 0 0
-227.096575823173 -7.59459594645776 12.3787119418393 0 0
-262.963013535515 4.23490093508967 13.4477643298037 0 0
-185.722446911693 -9.96964761950854 -22.2290123980527 0 0
231.093258947567 38.8783259021185 -16.7191793732468 0 0
190.460284068035 27.158265952523 -13.098333192765 0 0
-240.00073947634 -26.7643920101012 8.76150324583242 0 0
24.0958520173554 -14.5310136522488 19.7723078622919 0 0
-214.694353246094 -33.4298107051942 -17.7948642361538 0 0
201.828377001931 34.3798972096545 -0.941872612479332 0 0
37.5387396155917 12.3542846505231 20.3075376469776 0 0
-38.0553080170957 -15.971640181653 21.4579508787031 0 0
176.308773715137 -5.80373280502691 25.394032982821 0 0
-240.34753069787 -23.8523934547002 10.0878994735121 0 0
41.199296895377 13.1330094122833 16.6160168574211 0 0
-77.8435479546833 -8.77654274774152 -7.42697766131594 0 0
210.290149807006 -38.0288197486841 3.01192649644717 0 0
127.905960229097 -11.0581266126758 -6.60419355286905 0 0
211.890113852767 14.5078377050445 -34.9997114050123 0 0
-265.280950894468 47.8084488833569 -7.43188928974486 0 0
150.309445623396 4.41275036122676 -6.53601376715968 0 0
-84.80890238916 -11.6112827152269 24.1874249641778 0 0
220.289657446 -35.7144112024739 -15.9102848602229 0 0
-222.003232626345 -20.0702718452209 6.87835963059507 0 0
233.250304217476 -38.4265699131295 -9.32063181167482 0 0
204.490838568554 38.8909100546945 -5.97864859855024 0 0
218.223981560848 -2.65078704126146 25.6752774868976 0 0
-220.879960899408 -24.0268421196784 5.33040556049859 0 0
-252.860209586846 -13.0376789788104 -17.7122123704688 0 0
195.853266079319 29.747676997027 1.15974132649779 0 0
169.568474551751 21.0949691177849 -5.08039886970214 0 0
88.065401783357 2.33845358620853 -3.87311283885784 0 0
-282.677266633459 30.9962761877088 11.2610792262355 0 0
220.339885540449 -20.4491978100954 33.6801428456102 0 0
227.684567194131 -31.4960448545185 11.4612405192218 0 0
-230.60140867195 -8.06490451936799 13.4112120452357 0 0
-19.9731499064732 -3.08151479868509 29.6676575795302 0 0
-91.1329254974143 3.17363774517828 22.5884434664233 0 0
-41.4384401005369 -8.35940887971161 -2.1708163139544 0 0
-208.826326690159 -20.3392335559524 5.59793478956144 0 0
-280.799563373908 29.53774995421 16.1853392121612 0 0
203.136276104926 1.31841771133571 -16.685025515472 0 0
-141.181384844396 5.89173901948078 0.109491320091297 0 0
-244.762077358919 31.8752761717129 23.8335365892705 0 0
-282.729696695638 28.0397586975731 11.8066657373649 0 0
-33.4753806388145 4.50828808695911 27.4594564827694 0 0
209.054104701228 41.0068333598868 -22.645383031365 0 0
-36.7509373556946 0.788982592577555 28.9046083517963 0 0
-241.909728396479 10.6490604271909 17.4862661592727 0 0
233.085276579962 -36.4487246825189 -2.82618697085746 0 0
181.411711825851 5.31320385462864 -9.70346060169822 0 0
195.495572031117 -17.1871062630545 -14.8729870324695 0 0
208.341620532457 -22.2328153719213 35.3191875883145 0 0
179.950670126746 -20.0082921148024 15.1922980594501 0 0
190.047205697275 7.18849669323009 -12.0058984973139 0 0
-135.849376685118 -13.797548421523 -13.3605571005331 0 0
191.443020708021 19.8156762234929 14.7165385088269 0 0
177.080297763153 -8.61709150260431 25.5456747403425 0 0
-267.19918210427 40.0479947548879 24.3831320412679 0 0
9.39128318969696 -13.712181700903 22.7356906879535 0 0
229.072655362735 -14.2949568273046 24.176975584054 0 0
-244.186960273675 9.81354826878721 -13.0558153717889 0 0
43.5670660027366 6.36952289423729 1.79676081550224 0 0
203.867331628858 -25.8676938590611 27.8885085063649 0 0
229.032140795452 5.91519646942194 13.983828267658 0 0
-204.141663346934 5.57392597893631 -24.8217368868842 0 0
177.887850338396 23.3744852339308 -9.36211644207767 0 0
-254.425782981974 2.28492693796426 12.6223929928382 0 0
-168.220475547627 -12.2811864965017 -19.2144365426082 0 0
220.749187564787 -26.8681551049212 26.711395003816 0 0
103.470694161295 10.287314017949 22.8059788742994 0 0
-15.726458587815 -2.57688678090996 -7.41407164655227 0 0
109.713472346094 -12.1989829502918 -3.27560285483945 0 0
206.196381194051 17.5931882496642 -29.6786444157383 0 0
-191.655357793912 0.740158239785216 9.98483066887864 0 0
228.80780111 23.2879699087569 20.9728132370149 0 0
-134.708971340211 4.56642168191417 -3.59883026238799 0 0
-226.717382560521 -38.9644536552902 -9.32257174069639 0 0
203.055401144536 -12.7847778370076 35.8912447222957 0 0
-273.602191102012 25.19038004235 -13.7232938984336 0 0
65.4152456796298 4.72100451310055 -2.21317519460208 0 0
213.793156741444 -36.4096351896793 -25.9960867000957 0 0
237.748624397588 -34.4480646329201 -12.5238065718858 0 0
192.891081392757 3.66669842796552 -11.8650180904985 0 0
227.290982376181 -18.8438391128325 28.9813661025119 0 0
-72.2560302324733 6.99138160293445 15.8039769684633 0 0
227.463570062509 -39.3565482996032 -26.0751395098185 0 0
178.660580721179 24.6534729600915 -0.814709885744172 0 0
32.364647533698 -9.65259553364512 1.32688982434844 0 0
-227.2304604465 -36.0476359721908 -16.7265032283226 0 0
211.991958532726 -40.7936212178584 -4.54091100452292 0 0
223.453376058497 11.7282792982869 -22.8088160659826 0 0
142.917054418008 -18.0832802621366 2.26119634978957 0 0
-210.412344946496 5.11904430188467 -21.5161577846674 0 0
201.499695836454 2.24931692315433 -15.755621406589 0 0
-268.55777151825 37.3103961848769 25.2544671284509 0 0
133.268443661172 -7.23255369313929 -6.78121738674177 0 0
237.713276792578 24.076530042871 14.9895152836313 0 0
176.386691609624 21.5322920815496 -9.39874319590289 0 0
239.931693915802 23.5236012646546 -34.0413676661046 0 0
240.55133887118 12.3201713461266 -13.4850394033224 0 0
-192.765526865168 -26.19090098874 -10.1181075908639 0 0
235.913495228246 -37.5899077465027 -18.1107305008691 0 0
69.2323674795726 12.5156762859738 5.99969025490909 0 0
87.4323542930028 -10.8874787787749 21.8723918716863 0 0
-16.9202776321233 -11.3935410742238 3.87431506466254 0 0
188.141821728496 9.81509603181137 -11.8591682776576 0 0
-91.4402664715645 -11.0216435203501 -7.72873695976631 0 0
189.664807695941 -22.506095952777 18.3339194338586 0 0
-255.095027826583 -19.2374749583408 2.25547605532688 0 0
-225.184459384438 5.15925914980231 -15.3910923376833 0 0
159.549774051736 4.99103107521468 23.3386574420411 0 0
-248.208296219839 10.6084596789125 -12.1728195617613 0 0
-237.480619824522 -33.4306477669312 -20.0266313691418 0 0
-230.809576125683 -14.1564451695021 11.606124541289 0 0
204.368044724762 -11.2182548666807 -20.0353557491114 0 0
232.510671403183 10.357564406651 -24.7456618836043 0 0
89.3863056543196 -12.7251718581181 0.419263443381766 0 0
-234.239482260056 -38.5791812780865 -6.24690661657329 0 0
232.644505860103 5.55734901853618 -5.02133256508526 0 0
-94.5038049929477 -11.9209739667241 -7.56185621906331 0 0
-166.426254676727 -2.52958328270692 -16.9200434043502 0 0
-275.71002380695 43.4216129584729 13.0858810446711 0 0
230.234925037647 -0.872336814988743 11.6125393159151 0 0
-239.165546193814 32.5288913710413 7.84951910164217 0 0
-159.987440576064 0.631533616082251 12.2515832815187 0 0
204.286328535854 -36.2139258050108 1.99896067496351 0 0
-197.966382312898 -10.9656854391265 8.4049715023814 0 0
-56.202145897167 -15.2431507826899 22.9754533133202 0 0
224.845456316254 -9.28294413597546 -13.2023006495577 0 0
37.5802974513768 -8.57184184716563 -0.175579957132069 0 0
213.932073483436 -1.26576738097717 26.5784294083686 0 0
195.282037950176 33.4290610749264 -10.7968464118878 0 0
-169.818886298286 -20.8313538413088 2.57570937751982 0 0
-251.977785364063 -6.36852009088638 4.35131767689143 0 0
211.287627186412 -13.5423291620139 36.9048910150707 0 0
-254.106790657445 3.65291377468484 -4.82666383513657 0 0
-243.819026312365 -33.6297444514163 1.97845152421119 0 0
216.200241145834 36.8460000123239 -37.6519714655076 0 0
-226.55610438841 14.0298139429294 -10.3602728109171 0 0
-206.97162124677 -2.07222522160223 -26.1201068449225 0 0
-32.3017678974789 -16.2512063327354 12.0002767241971 0 0
225.741262783264 22.6065386049685 21.7883224259413 0 0
-221.99394792398 11.916090019855 -11.9975929391019 0 0
-24.1054521120953 4.6441521541423 4.18226910414589 0 0
204.35880616189 16.6581503347675 -26.1214889100204 0 0
110.956196862271 16.8096396086698 13.1706339687925 0 0
149.497887952483 19.0045289059396 2.63432599305193 0 0
149.08680145276 -18.3113167150624 8.20997854735411 0 0
143.637503959084 -18.0639275927101 6.6305597748947 0 0
201.259562976831 37.6884412743286 -10.2430621883196 0 0
232.093830365494 -14.2996048514595 19.242681394372 0 0
187.518431497089 20.5848634769858 -12.1697773731519 0 0
-262.528905207846 6.82650959506941 18.7128248112253 0 0
-226.190971916661 -3.98024961505014 13.2393490634361 0 0
-205.812962841324 -25.6425918265694 -24.6213685995605 0 0
-168.833386464093 -18.6137662791591 7.2373028306538 0 0
217.587618086153 21.2754834392495 21.2676906912829 0 0
238.063201654827 -31.3385428442987 -14.0270969463945 0 0
-45.2802053003531 -8.36298145183788 -2.52890188351021 0 0
179.722583496109 -12.9773888563148 24.7353939154691 0 0
116.125251701341 9.84475800555014 22.8224286353092 0 0
212.267323442877 24.5315895627741 19.1408956314351 0 0
221.219503231001 -38.3180287215247 -22.8745648310883 0 0
-213.336746596001 15.4522871544855 -0.560786891878951 0 0
173.156464431467 21.6506905703764 8.01924515382574 0 0
124.563956982223 16.9279545540238 4.66613163576523 0 0
-264.137894127666 14.1222882274492 -12.5523275162905 0 0
215.276355339615 38.9118532971934 -26.7684662790389 0 0
25.566285013362 -10.1584602131137 2.11530650485092 0 0
119.260684888294 -11.7359065913606 21.1643857657555 0 0
-229.604223975989 -22.2047788701046 -31.3002869561532 0 0
-244.577958245369 39.3981321745887 20.5893703905161 0 0
199.034030072428 -33.0849271539407 -15.307709945915 0 0
138.694799366619 -13.3790584103312 -6.26485909955256 0 0
-244.801480736826 47.0345313850315 2.01000769716684 0 0
-219.0182795432 -27.732199322292 3.30992673059038 0 0
-189.176146055918 -23.2610469899733 -20.4400842493502 0 0
77.3897165346922 -11.9940394284332 0.889664131007824 0 0
-250.627321208865 -16.8970192680763 -30.6667083849392 0 0
-203.124501271735 -25.5808765601102 -0.229924691339881 0 0
219.926130224681 -6.88210778535104 -15.7239767278627 0 0
-167.731252681857 -19.4446630707823 -17.77042056129 0 0
221.888461348431 -14.4941358529411 -27.5151764227142 0 0
237.305260460016 -33.4226353166853 1.9040222426079 0 0
31.8886331660269 7.06593989283661 26.6264522380953 0 0
-228.308689414635 -14.3032103454769 10.7408179395946 0 0
-271.01338004877 41.6784236103086 -10.3061807466091 0 0
138.007969865197 14.2713504508483 18.3522836344842 0 0
-241.553982455696 -34.7761626974421 -12.5945579805147 0 0
-25.5108061960807 4.49990348805221 27.8453960421695 0 0
135.561895173296 16.8372622146176 2.39793356150838 0 0
-221.320371929081 -28.0653173138643 -27.3540092552173 0 0
212.224638080443 39.8112234801169 -2.43925372751802 0 0
-273.060436630881 47.7302037921694 11.3021181041306 0 0
17.9958936293986 3.94193868426182 28.4193118506994 0 0
196.782641301347 15.4340646476979 18.7906185348204 0 0
-80.6119793310154 6.14268742320359 19.7114891619089 0 0
-70.8270267728278 -7.02622443745383 -7.94952868964347 0 0
-199.031429332317 -23.605321264818 1.89140049898033 0 0
-229.682635241875 -5.02358509919479 13.7978649822052 0 0
222.123709097441 -38.1234413092602 -21.3228920998456 0 0
-250.386409686574 7.58288268684614 -11.0376769047859 0 0
27.4182903587695 -13.9177701238086 8.68499791834499 0 0
232.887131941877 1.91123239365688 1.92915842704481 0 0
163.66581498271 -11.2274981235901 23.3834469172778 0 0
23.0572923731644 3.33790403472188 -1.60244291329807 0 0
-245.970576416514 18.0732338148465 21.7223402636048 0 0
-118.7714612722 -5.18528751650432 -11.3174489125598 0 0
-281.576195093956 34.9587830912453 -0.364510349578396 0 0
-257.758511427388 3.48270458522832 7.81314426097455 0 0
-218.639549949083 14.5407071908945 5.87396138106062 0 0
-180.852935871119 6.12040611557932 -20.5691248265857 0 0
-60.9647842770952 -13.8710836282464 24.3873488371547 0 0
-129.945085807264 -9.77741962428799 18.6368957629843 0 0
221.31116013813 -36.9579957659135 3.67465034871272 0 0
-50.2053323584793 -8.40424604723455 27.8380768215654 0 0
198.200170039951 -0.987156634350788 -13.2816020124282 0 0
199.993786420164 10.8831260508893 -16.746793329449 0 0
-173.68751057332 -18.6917480998885 6.92378012899829 0 0
-101.832856006444 6.2286559900865 11.6259851426877 0 0
-244.252458437769 -10.5109592796239 -12.0427250416076 0 0
-243.663450366034 42.968975677548 -5.49280586450454 0 0
-12.4094389403158 8.53491532850383 11.5541369805624 0 0
91.730311558976 -7.04185146218685 -5.39029934490393 0 0
87.692423609284 2.87010393231147 27.3294379798513 0 0
220.316407542893 36.1506463015387 5.02717559289498 0 0
232.408306714342 -8.53526406504999 13.0895674634049 0 0
111.695231667476 16.1232179008735 15.6073371992963 0 0
-139.96024349346 -8.98875871026788 -14.5659063348807 0 0
122.78126334807 -14.8514233795112 -2.01517341652392 0 0
-47.0441747773662 -4.85464208691187 28.796009155397 0 0
-83.8490120103782 -9.30025995622874 -7.94250511024324 0 0
-185.322160061845 -7.06755853875422 -22.1148527204368 0 0
-89.1247506186837 5.57472357491754 6.03062159532557 0 0
-270.893670158684 27.6961005743565 -15.5246749548248 0 0
183.818780182631 -25.0026396456918 2.46758916164833 0 0
17.8226511848994 6.80025755802793 27.0084968594213 0 0
234.048223413367 -17.5542909254299 17.5783929552442 0 0
1.09547810847835 7.41965777725608 7.38995449547203 0 0
75.5737880147202 2.03232240139698 27.8770845703186 0 0
238.805340106781 35.7527898622989 -33.9079815238574 0 0
-261.810163172583 6.41196579172433 2.72783773585699 0 0
82.5360607716313 -14.0755059880364 16.3202390549666 0 0
-175.925060600072 2.19733739506498 9.37450682248856 0 0
174.696367654373 -12.5850410990751 -8.3024738930215 0 0
133.351726527914 0.557717388597043 -5.84309676835691 0 0
-128.417880410372 6.06793275084278 7.29965043252674 0 0
244.952339328191 33.8812950348564 -18.2509709107174 0 0
28.0240475541817 2.16497384647782 -4.68601321001279 0 0
242.522700896315 33.6069698001553 2.03103954762852 0 0
241.756171560118 21.7523413095216 7.45055084818253 0 0
167.450960028818 -4.72862890460662 25.384213559492 0 0
-119.856496133267 -1.84622034165025 20.5479627755328 0 0
188.73409740304 27.4677174610652 -12.2372314530281 0 0
183.789900451423 0.291031654019606 23.5266354071398 0 0
-189.461521097984 16.9241701409294 -13.7421034761381 0 0
-243.294372048107 17.3056890540616 -12.3142544575807 0 0
-173.557400903465 7.37505234765878 -11.0569694586937 0 0
34.5190071839714 -13.1341779136273 6.65457797134574 0 0
-105.163244888201 -13.7773054785692 -8.50366264190728 0 0
41.0500418932112 7.50367250852752 3.14827400897183 0 0
-105.869000500739 2.40885217230287 -5.29493362224554 0 0
223.373194583846 11.332286738942 -27.2995487664857 0 0
-133.087215717703 6.03321855262607 3.2218691156178 0 0
219.244422829884 -37.9424358533671 2.99663909755957 0 0
-40.3759213705656 6.22041763231645 8.40610713088585 0 0
-213.799603448772 -6.79968503773812 -28.184806460836 0 0
-245.945046116964 -33.1400173879823 0.941491829898086 0 0
147.594408903597 17.9222691737079 1.221412717801 0 0
-201.767375894886 -16.4362569240861 -26.0005096055474 0 0
210.155020776357 -0.573254654103396 -17.8353175995192 0 0
-75.4640098729837 -14.7072202415245 22.6535230701903 0 0
-281.019036012623 18.2639669684658 -0.457106422976053 0 0
-154.256622974267 -20.9232330430487 0.670628918167564 0 0
210.793655173092 36.3118874889971 -29.5141618091425 0 0
-94.3461219122544 -18.6582026357772 7.20288719427113 0 0
-171.400506108814 -17.5281089442938 -19.5849353226727 0 0
-224.998505923862 -30.8925496073573 -25.2309885416328 0 0
71.1818333830876 13.0675619125315 20.1283306902079 0 0
-241.820677126084 -22.4454239688513 11.5800694049263 0 0
-77.7954134922367 -4.93497572158674 -9.29315420836351 0 0
-5.11433940574683 -14.2247225565172 9.24028975147271 0 0
166.724605064546 -21.6165560775498 0.0373465819262879 0 0
228.957641442742 -9.61658188775729 -11.3696793339183 0 0
-283.023844569923 22.2591180449418 6.59673425277371 0 0
-247.326018264648 18.5413274582627 23.6101607441344 0 0
-204.810269265423 -18.104996359714 6.32305295712896 0 0
-72.4749509176807 1.32688296792648 -4.28971600805911 0 0
-17.8941343197982 -3.45833639479777 -7.48626377920954 0 0
-237.707329204219 -10.9283360978254 14.9828302828556 0 0
227.369938769838 -13.5381733431082 26.018521687934 0 0
155.525735614591 8.94568119265615 -6.31610612658637 0 0
-257.666682072324 -25.2996113890033 -15.2027071393468 0 0
196.803768701889 6.19020682952289 21.1761697265103 0 0
-257.012750612541 -24.7415657965437 -3.17573242858733 0 0
212.661495150119 -10.1153873543864 34.0119749687572 0 0
-256.623983628173 2.96161607526784 9.97039489631006 0 0
-59.1874379486358 5.33386054314466 6.17589432280559 0 0
125.276469550015 0.743606999267178 -5.3422335339101 0 0
-252.815133811855 27.0444631592694 28.6629931578207 0 0
-166.912935638687 -2.6303183635327 12.9573966550249 0 0
227.22446190552 -13.0050552892202 -24.1653242758262 0 0
-196.439450504799 -1.61534062554526 10.2484264410519 0 0
-242.216838529752 -34.4543073547412 -6.73473420137723 0 0
145.561219382623 -15.1842142083679 16.749311375503 0 0
84.4087602270551 -5.86764055501558 -5.59272861076281 0 0
-254.171625553596 1.90634391366929 0.67072134363602 0 0
162.349838176635 -21.1833262457221 0.871607890338034 0 0
206.575589699305 36.5554906025042 -23.2028913610103 0 0
173.11332669291 -17.3198164312443 -6.81276326331394 0 0
238.615053707478 31.2807171957111 8.82329639586552 0 0
237.119847859372 36.2000755623335 -22.4186893334936 0 0
-120.133730195728 -16.9914285864532 -9.19945730779302 0 0
-234.28102996763 -22.3308145165744 8.65001385225473 0 0
228.529758937087 -4.61522165870544 17.295978200995 0 0
52.1053670185928 -6.81929863584652 27.052425319244 0 0
179.78608212664 -21.5977425084165 11.09734303095 0 0
-257.030835963959 45.1327222572247 21.8041612425079 0 0
203.806455957086 -11.0923686913068 -18.2942263309271 0 0
-232.587675092315 15.6864334294174 -9.88877951630211 0 0
233.060157356606 33.737451662348 -40.8332164384318 0 0
-240.963921490725 22.2213206781718 -9.98554301490718 0 0
-157.271094159273 -2.44308263721326 -14.7711133443599 0 0
97.8456012564639 11.6736179559086 1.54259322554694 0 0
-215.103179692741 2.08172165753986 11.8098682444675 0 0
102.922358841255 -2.33393546808285 27.426625820655 0 0
3.92157814164834 -15.5103712700362 15.6228029591705 0 0
-261.674661715927 7.58882749652046 -2.37414145842381 0 0
-173.889084981007 -1.06587516532068 -18.1930518565606 0 0
-142.329171627566 -10.3627443932128 -15.256970495053 0 0
95.4947659307325 7.7893163345193 24.6730900306636 0 0
-98.7337516530968 4.98936127300934 2.89486607509474 0 0
23.4715150464991 7.76009808833236 5.35977945005445 0 0
-161.085209589422 1.14096504738781 -13.7316818655799 0 0
-84.3033021688841 -14.2287934919637 -2.24941988817998 0 0
208.162876999967 34.6241602207106 4.01236980986956 0 0
127.92559007312 -12.2559304349596 20.6510245295061 0 0
-261.638519977419 11.363960797367 -7.60543637760017 0 0
51.290846219025 -7.92024677495987 -1.472245980854 0 0
66.4313438288256 -5.77685522678547 -4.2241106928545 0 0
-193.560666518176 15.9755775231687 -23.797967027426 0 0
-196.400598106857 -4.61385356296961 9.79127114836987 0 0
223.263681427453 41.5170214408716 -7.6990172806378 0 0
221.683562560518 37.0818062399025 3.08296104188116 0 0
199.889836883389 38.9905442982562 -16.4355216733229 0 0
41.2356984103217 -1.47456669222048 -5.17459273367458 0 0
219.928704474205 -20.3471768044468 -31.5150179021113 0 0
223.60281157902 36.6006122788898 -30.7434499061078 0 0
-214.384450829269 -33.5180069676531 -8.65891460226752 0 0
-33.2840288119693 1.41845287048395 28.860675181461 0 0
-243.909080802112 25.8563580727689 23.1590943123287 0 0
-94.2958230879803 1.00694585435748 -6.20219745366363 0 0
8.82600361324614 8.35077318488276 8.51567862265852 0 0
231.12934008616 7.6762822332919 -7.75020793058419 0 0
206.210174591092 -34.8906815344635 -24.4904151761667 0 0
175.332014539383 23.4926022662441 2.73065489804451 0 0
-246.42602236062 28.624516077956 -14.7746191241799 0 0
47.3221749301792 2.60808037760561 -4.10519498904069 0 0
-190.797519677737 -25.7640694304247 -12.0036394076187 0 0
-178.59426368315 -19.2744025946771 6.05376457579648 0 0
112.796624519532 -10.6215740588964 22.4260275993592 0 0
-198.8427245396 -1.10085469335247 10.5453424629505 0 0
223.45557017643 -39.1172347792505 -26.210491476406 0 0
-255.62846929687 3.62118048809771 2.43139041162656 0 0
34.0451219303305 3.83458893844873 28.1018489516795 0 0
230.140171375249 -7.51976027214055 -7.21165149129418 0 0
-242.608866120933 -33.5033640969506 -18.1096297772753 0 0
206.784774532653 40.8490889138711 -21.1476493707327 0 0
161.54060255977 13.5012818377575 18.3442419641783 0 0
83.2200936030464 15.3322041801079 10.9690203194363 0 0
205.829580662604 24.7571520094888 -30.8324599359423 0 0
49.2264091474553 -4.49723575954347 -4.31314280450804 0 0
-273.722717888097 45.4285767034868 -3.29976477585962 0 0
218.785578428657 39.9837719183121 -22.929877824762 0 0
217.225855772317 -33.7517448333544 11.2496068860494 0 0
-270.931247103876 44.0699170978088 -8.37453834537339 0 0
127.874227496638 -16.4937175133526 10.6578310568817 0 0
-70.0650151963304 -13.4709504032105 0.69373463093791 0 0
227.44067169611 -5.9122044043097 -5.79622927768374 0 0
133.695781990188 10.9624195737643 -3.84378372145543 0 0
103.776215278205 4.7188251173492 -3.82549376262423 0 0
200.301184463213 -35.3508357431998 -11.4388857556885 0 0
-229.080558231677 -0.160870331474793 -16.764940482711 0 0
-48.7924742238899 -13.382528007013 25.130875709474 0 0
185.411204848716 -8.90310320018791 -9.89724318074525 0 0
-248.544000332836 30.4474986211655 -15.9288352415766 0 0
213.561817544961 10.8989778136118 -23.1831329189768 0 0
-258.455469324136 25.0767546560029 29.4452282955463 0 0
157.530359096902 9.9882527236114 20.7795879585928 0 0
194.16971357056 -24.6307066617134 18.8675745177696 0 0
168.803705708794 -9.38318287976225 24.7260142334147 0 0
-213.626392889281 -33.1849426819229 -10.9340505595671 0 0
-193.998165023048 18.4205589252502 -14.3569267630089 0 0
234.827580967049 -38.4004893143947 -19.7319880793134 0 0
-152.114412436779 -21.8777255353552 -4.98012149131185 0 0
-211.380102529099 3.93800576841459 -21.7656626345569 0 0
192.523064395161 -28.4785718883382 -9.18745181336059 0 0
238.430064755709 -32.1585014111561 -0.605828883752239 0 0
238.569877554294 11.9085026770872 -22.4998697812632 0 0
-105.427667915671 -18.3610468067232 0.457121284423292 0 0
221.688197751605 38.3751421076669 -24.922074523153 0 0
28.5874578328577 4.68121911662761 0.29916483353719 0 0
-141.648734308546 -20.8258128376421 -1.83348219378402 0 0
-247.180237056573 -31.7164810545408 -2.75407170752718 0 0
-132.197750704353 -19.8282116345516 -7.9722092519197 0 0
211.840191339599 -35.9221731159013 -30.6873521246401 0 0
217.772951936748 6.07326275574497 20.3202714602827 0 0
-84.9866528666508 -7.88472748873686 -9.37551280311568 0 0
105.994024754034 -4.37088170522048 -5.73940357641317 0 0
-77.9336904071766 6.15449417535719 9.16267863694761 0 0
127.038000912589 14.0875382712596 18.7846584310935 0 0
-132.383442420062 -15.0900431227253 -12.245637235875 0 0
193.290417443509 -9.79170189148813 -12.0175693098014 0 0
-200.419253469206 10.8897209441473 -24.0930921306272 0 0
165.72476140151 -20.3067815394953 7.68387225731669 0 0
-231.914566005345 9.36240813018491 13.8217276443142 0 0
-253.696658858041 0.855045801430393 5.89964229294024 0 0
161.707449141519 -18.2877947547389 12.4730240780976 0 0
205.235640284426 4.93183103402168 21.9720964351591 0 0
-192.516771301735 8.47412274499839 -25.5685845227748 0 0
236.247375213358 12.5062567615876 -30.6142609126496 0 0
128.363792616567 -16.8426780343104 7.80698722155482 0 0
-199.920970242909 -26.2145030294231 -19.1662529980336 0 0
-97.1625647923273 -2.14128107731956 -9.17797316573081 0 0
-200.501501631772 -27.7027742495438 -14.976045576802 0 0
-190.736195149667 7.91391661725274 6.29252410873968 0 0
-240.288473713475 -15.9484065439506 -31.6078575038464 0 0
195.234611585979 3.32498712648476 22.4748255329542 0 0
-218.993842464169 -24.3906864660159 4.90430322035769 0 0
198.740332603474 26.9902585197629 8.82872576675545 0 0
224.042829901773 9.65178504437971 17.8913116512616 0 0
-44.4469295394741 -12.4134119119676 3.55136949240434 0 0
-43.4824473404377 6.45833502295324 9.09061169843482 0 0
-211.328381124908 0.0602808829471914 11.6221312227127 0 0
29.8262061474452 8.97972902143715 25.1843325558131 0 0
230.781469124736 -8.13814325736357 16.3991790346233 0 0
-237.115059010523 12.3133432519344 15.3669295067132 0 0
194.28209694997 -21.7585458873303 -14.5637921399035 0 0
202.068077045052 25.4052520848109 -20.8413636284681 0 0
178.452399322169 -6.62511076730202 25.5805248277087 0 0
-185.539698848074 -2.1850476172482 -21.9039668910877 0 0
-124.510254175164 5.21897586960977 0.130939926726288 0 0
221.570075383755 36.9689386209844 -38.9136935442305 0 0
-254.79575473545 25.4581845866238 29.0392466345974 0 0
212.606212123991 -36.7512167349826 6.4223267268489 0 0
-253.130600256114 -19.6895869247331 5.92369014171475 0 0
-85.4354155853409 -18.1544825790479 15.1293932163609 0 0
-77.2346310330964 -18.3455777192548 13.0655359969145 0 0
-102.276611866464 -17.8941818727224 -0.107995964203882 0 0
-33.7264716360007 -8.28259648856814 28.4485449563084 0 0
172.582313078316 23.0418690045249 1.7855179802646 0 0
-229.289131082887 -33.0479068350094 -21.8867548957035 0 0
212.81624105921 36.9012400497898 -30.2872381229473 0 0
118.606718760637 -7.60731869843972 25.1261334827206 0 0
-253.319113434999 -10.2357425400996 -24.2166853245112 0 0
-252.637553529503 3.86297247472288 -6.8417502336402 0 0
-245.831578424948 -3.22762400242937 -9.96170160199195 0 0
-258.291265688812 -19.1103929627327 -14.9785294749769 0 0
189.511603385263 -25.8910884397416 7.06947142863692 0 0
29.2097315905026 -5.70626199475309 -3.06228386920101 0 0
-243.448873709627 43.6385040295791 -2.98841412267548 0 0
-260.091429345778 41.0918905538309 25.304981878552 0 0
141.143518215394 -5.10813130505584 -6.88888717446434 0 0
-170.808332095881 -13.3460151051494 10.8664694503642 0 0
-93.0596431966898 -16.7022402536097 -0.242253268393046 0 0
-48.0666864507122 -0.227385527462474 28.610861952283 0 0
66.301387231922 -14.870999693395 13.1704593493193 0 0
-112.024374885497 -19.3570301659455 4.40817356086417 0 0
-242.16458167202 3.80963644488132 -13.2673348229849 0 0
-236.905354129699 21.2102098383423 13.0719359510048 0 0
187.326386534455 -26.82877299679 1.3145265464673 0 0
215.433660775606 41.8717333714574 -17.5658507536806 0 0
229.449608522482 35.2675424422628 4.28404441353157 0 0
-215.175325135207 9.08503905315636 9.1583081532587 0 0
183.631051391657 13.2199359097713 18.593941363908 0 0
175.952996538838 10.6236308829529 19.7737764433845 0 0
138.592580724404 -5.37668445890857 -6.78583427976813 0 0
-122.57830582852 6.07480347030273 6.36864920352496 0 0
197.303707785875 13.6052589239668 19.1414177564484 0 0
102.33861403752 7.00925469268757 25.0117681700687 0 0
208.430265121696 42.1861930771034 -19.7448599698071 0 0
-167.453669370004 -22.4889546631741 -12.67422173054 0 0
-69.0587816163234 -10.2865628818883 26.1111806930017 0 0
-201.526302027355 17.9868706998564 -13.9660198850504 0 0
172.150898165032 -7.4576395676701 -8.16438077298445 0 0
229.036276306799 0.782711129555958 13.2196795461503 0 0
-234.959458645492 -11.2044047370211 14.4275868082163 0 0
158.398310437121 -6.91023926023633 -7.55222579822579 0 0
23.4781233952141 -12.7512431613159 6.21880750451117 0 0
195.618243050886 -31.9538471963432 -7.61750582573532 0 0
-72.0639953751048 6.76106480894242 19.4460947801963 0 0
124.69314053222 10.2930173278592 22.153633631372 0 0
75.898005878855 -7.34488068366849 -3.86617222382076 0 0
202.922537546044 32.8023145612535 -20.9658007020253 0 0
187.566252977498 28.455875255909 -11.444338808193 0 0
233.922291960992 37.9205407897998 -18.7970296447064 0 0
-266.422713469414 14.9244714364499 -12.4442052785773 0 0
-264.698155678743 41.5729155127311 24.3055559186234 0 0
-250.536826294841 3.10899490221244 -8.65976597507713 0 0
-222.44387794478 -16.164525645298 -32.419360667985 0 0
-239.418164267836 9.74415275467129 -13.0507101600003 0 0
-244.017996958823 -29.6004011720897 -24.2741555114484 0 0
245.594098013761 33.0824392862081 -16.584061738603 0 0
-260.593018954085 4.97072787516309 16.3438587783882 0 0
224.5061266399 11.4756844232664 -25.5501537564253 0 0
-155.063752762133 -19.6058889814103 -14.1439134989116 0 0
74.0301124491297 -10.1451784349466 23.0243406486788 0 0
-181.515268835878 -20.5853275237986 -20.4568309940026 0 0
204.583352120341 33.3370909673257 3.15304666392277 0 0
-240.819314547267 35.730331057103 13.1331515772545 0 0
-249.132689183137 41.5388162436352 22.194794708561 0 0
-175.369094960701 -23.5326284264393 -7.22090831904126 0 0
-283.019869435405 26.9665958703599 0.422019019743591 0 0
-249.401549730914 11.9995527876288 -12.1597158702913 0 0
234.646795162129 37.5647272185319 -31.7509911717 0 0
86.1515867774726 13.5491445239641 19.6901783984437 0 0
-153.577417263191 -4.64129831935183 -14.9247708965438 0 0
-203.753150568817 -23.6559394087531 2.74163056444753 0 0
-10.1356698619595 -11.1648946052256 3.7691057124482 0 0
195.332977187371 10.4298903116066 -13.7597281136886 0 0
-66.561043568824 -5.38719334788732 -8.35866086030374 0 0
92.9881452226537 -12.0343271322968 -1.2625814218282 0 0
228.657689488723 33.8789123615218 -42.5223508265563 0 0
-255.622726659519 -18.0826005492668 -8.77607292403775 0 0
206.293994504102 11.9877320042365 -22.0633230974336 0 0
215.046546198427 6.02273233471767 -18.3100716487494 0 0
171.374282087436 5.9813830886986 22.0887408135554 0 0
-78.7970466448901 2.05143427593577 25.1622289123599 0 0
-169.60644207266 -1.34940870728907 -17.3769293761595 0 0
-209.705348460118 -18.0310341501217 6.45138625100078 0 0
-186.583963833838 9.01769000827287 -5.46736184863996 0 0
-242.828453094508 -13.1010519582901 -14.0930898489233 0 0
-63.1049930370231 -17.0724988900789 19.1961731461212 0 0
235.261141683522 -11.0936244694988 3.27727086047625 0 0
-236.111368132637 -12.3602025960984 -29.5100595934774 0 0
-235.02725926653 -35.0547214172518 -17.5551902650468 0 0
-169.023519032347 1.59259994259759 -15.8008024416325 0 0
-23.5814852974497 -13.2750694142977 25.1868877835045 0 0
20.009854696156 10.3592539180146 23.4783297863912 0 0
78.9862059990814 -1.74841280275381 -5.04904331339278 0 0
241.926462440673 28.0441620768702 8.34463607033316 0 0
198.940106728084 23.4180547909843 14.0521693446327 0 0
139.397264654993 4.49699513765817 -5.70241689185823 0 0
199.678619636625 -18.8558189205134 -21.5459670192734 0 0
-178.483571107294 -13.4559203086388 9.74352477780344 0 0
-8.21606209328255 9.92453645878724 22.0724616133945 0 0
207.937346830568 23.6674371093657 18.8914188327461 0 0
-97.4349242402731 3.81257706381632 20.7203192732894 0 0
90.4258615483811 -14.1024234487739 3.38073592471177 0 0
15.8497836509935 -2.38761205840775 -6.43186355501883 0 0
217.134765209791 -35.9997550576524 -15.2785253310312 0 0
-66.3292948549337 1.81867449283224 26.6328919320849 0 0
-164.16020878538 -6.01663265279016 -16.9652454395583 0 0
-250.74713763295 11.0569058733936 -11.8009339616891 0 0
151.113425456665 17.6114898403455 14.1360009340067 0 0
112.781628707058 16.9189115319878 7.65829394189558 0 0
223.655895737191 -33.2667940636667 8.50033786733454 0 0
221.161559703314 19.5091074161691 -42.8636622030199 0 0
215.780960312847 -36.1759004320677 -18.2783903762397 0 0
189.608886408371 1.83975400894326 -10.5419916001019 0 0
-197.617765821785 -15.8596275820254 -24.9007008824838 0 0
28.0724795231752 12.1774110675931 19.8963210784273 0 0
-239.383449346623 -6.11788868022357 13.9331263045752 0 0
91.2479376705516 2.36119321999993 27.3769490212403 0 0
-135.070104529011 -20.6674575273525 -3.54973249046865 0 0
15.3942957788417 0.197045040303162 -5.91445896698118 0 0
-180.87500741147 -13.808083116677 -21.6205441704401 0 0
-182.87489715949 13.1335091221393 -12.2455753542284 0 0
-280.505194259293 15.8018729387416 4.94483227303979 0 0
-112.488502425077 -0.876217814968685 -9.82843162424602 0 0
111.107509336418 11.376262730725 -0.52974182804065 0 0
-229.583442112275 -4.44639756791654 -19.0758670287895 0 0
218.52287748808 10.2497665902421 -19.6995182218899 0 0
-138.344131612181 4.43975917641842 11.6413103242001 0 0
189.661466042472 -27.9919700156282 1.31720780821852 0 0
-206.751625928627 -1.27154977160083 11.0762691051563 0 0
-266.551471048303 10.6097903649891 -5.89263257716118 0 0
199.538973029743 14.8833646152894 19.1591627211356 0 0
-240.591563918083 -12.7188712146965 -29.4466527755342 0 0
231.47641235899 28.9950439165828 -42.1112921608214 0 0
-244.445072580155 25.0282554164359 -12.062695296428 0 0
-239.049073175341 28.3870395922819 13.6961544553574 0 0
-239.138879886819 -1.36243793750956 -13.8587027287361 0 0
26.1571467717138 2.70460706570123 28.6099731037303 0 0
-246.943294498723 -0.157699329398618 -9.7949483925296 0 0
16.2170294397881 -5.57294068639087 29.1212100316473 0 0
-105.704042468053 -15.3572798899573 19.0746085628456 0 0
122.424318758132 1.31886980395124 26.7400670239126 0 0
-241.566092663539 -25.1652377229475 -28.9074009547751 0 0
204.05182664416 -32.8638588995787 8.76773333739188 0 0
5.09951378879852 -7.60355851285296 -1.1966228416563 0 0
-212.90004539874 7.78261908471128 9.62963174844575 0 0
-159.253169359395 -20.7609426057543 1.70856381522316 0 0
202.392679836188 -30.4772584438559 12.6748586479104 0 0
-190.269528908267 -22.0952830975494 -22.4185036878361 0 0
-201.550884305068 -0.452918601544678 10.845240760581 0 0
231.344775246964 -10.3679758401712 17.4463048348085 0 0
223.236396937734 -38.0285134048495 -0.491024619183317 0 0
-257.169860952105 7.17375754127188 -3.53376609373203 0 0
-282.236679528034 23.1232542890746 11.5336920346357 0 0
-171.915955653106 -15.4289236456579 -20.4308495341271 0 0
198.89702202933 -29.3342570249962 -19.2882880950955 0 0
38.9449314615606 -13.4726865225092 21.0078658466773 0 0
217.230653474896 36.5290855004815 -39.7937751548474 0 0
81.1886409779272 -3.92366874195603 -5.58263672857292 0 0
209.265927048005 34.7033694593147 -28.7134545871053 0 0
48.8825501792109 -6.63648885502088 -2.59154298520768 0 0
238.323082501759 11.4467522109294 -16.7969273859092 0 0
-218.154233548394 -5.94447915700125 11.7625949904642 0 0
-157.219905871074 -1.23848463008517 13.9588271995857 0 0
111.799198592554 3.57466222706776 26.3910939408884 0 0
160.630069964751 -9.97294432669415 23.9097721758744 0 0
-232.217145705671 -12.559247530364 13.2047918078367 0 0
167.092166597416 0.405757530327783 24.3727962601107 0 0
-266.507403075063 40.7424756319189 -13.2370590013143 0 0
199.238888572369 -19.8969103305819 33.0869533331328 0 0
-16.1979064070659 -10.2486212648539 27.5601833058436 0 0
-214.098459630451 0.631354076569523 -22.8189830272165 0 0
229.050384784251 37.026312151145 -1.12968920025171 0 0
-263.776519013055 48.3609008525971 16.7783903116578 0 0
220.914619361494 29.7639469409793 14.8146330389515 0 0
242.586774671709 31.6476693255038 -32.6988235708422 0 0
-247.156927002046 38.9471918203217 22.7049766440581 0 0
137.050620604142 18.6783635728194 9.816673118208 0 0
231.403983680431 3.81977596841389 10.3620541868482 0 0
231.191081404864 -37.1220282032258 -2.66391217372426 0 0
146.679168114633 -18.4092554631585 1.25969584594842 0 0
-147.681788343549 -20.5510719029331 1.43326652492043 0 0
209.738285818241 18.3301820059873 -36.9713408491517 0 0
-260.034035109041 26.7648440255568 29.4669794816774 0 0
-243.527407315304 20.0638097267807 19.4770437528438 0 0
-156.009792811853 -18.8854563075699 7.26662316219312 0 0
80.0826239202535 10.44235836161 1.61480819648891 0 0
0.121057222890895 9.53823033792805 23.8780109699754 0 0
113.630997053266 10.835208316261 -1.4759817541673 0 0
30.8824254371497 -14.4100805791464 10.2285756708985 0 0
-241.783876969545 -4.17502782920022 14.2129525160729 0 0
206.769192929584 -1.35212428190859 27.0386034915248 0 0
40.6702507170343 -5.39213166513742 -3.81971566809232 0 0
-221.62956639766 -10.8818470655676 -31.1749516438659 0 0
45.5987676945173 12.0829378524227 10.365039985741 0 0
173.915403487703 23.128888865614 -5.27957676958021 0 0
223.75673524642 9.40440766908236 -33.1990508511941 0 0
-135.256332050681 -20.4100070740027 -0.0136709225290749 0 0
229.365572902016 16.0322671552016 -39.6888129510358 0 0
-150.318864744068 -6.97480232754275 -15.0651572826437 0 0
-250.688930906181 -29.8250412046047 -16.5562517465579 0 0
-176.415056953788 -19.7323344826231 -19.577625748983 0 0
-79.7602889845971 -4.04341376044673 -8.86410797836951 0 0
-198.607124543054 -22.9410723796708 -23.5122710636728 0 0
33.2677173882072 -0.0782855495584836 29.126026924971 0 0
159.104307619965 10.6110408412848 -6.42249914847995 0 0
-92.0613521547527 6.04307290167767 8.47800957695207 0 0
118.669254052197 -15.0949131495978 -0.473441493495003 0 0
-227.163111487072 -37.8899074437127 -4.1968023124795 0 0
-239.373071227343 -30.6254730478786 6.83452942004098 0 0
-120.115564006576 1.20281805377953 -8.3350681990793 0 0
-228.13433153161 -20.9345065679439 7.67829843220771 0 0
40.4051452939493 3.99885271962193 27.9963265684699 0 0
-222.420275541449 -30.5031618250199 -25.4188388744838 0 0
-222.831630696668 -33.084330997066 2.69183865502087 0 0
-150.78314287528 6.00689854708267 4.89299483756375 0 0
177.974831487683 -19.4053147340451 -7.10398017611433 0 0
244.329920375346 19.4273175463644 1.95044175481811 0 0
46.623030727594 12.984477023524 12.9650268176422 0 0
232.071664805271 -25.9653043867016 19.9117089420355 0 0
205.098168267113 5.76645870960448 -18.9044425346168 0 0
-218.386151942525 -30.2012789042652 2.02186478951371 0 0
108.167080835751 16.8256939887019 12.4722480332582 0 0
-218.509592675274 5.20106978627565 -17.118036655888 0 0
56.5608930126015 -0.63077520191372 28.7154032532321 0 0
-68.6915554663266 6.34329426399897 22.2474374164601 0 0
237.12517875081 22.8734697665926 -37.0875459798349 0 0
-228.527460679475 -17.4834080759708 -32.5351598271714 0 0
