"x" "y" "z" "f" "a"
-167.698226755056 -19.208736040005 -6.81258168846168 0 0
182.943352834969 -17.5098359106473 -24.6096826569251 0 0
-76.2600985333733 -3.03475574260569 -17.9598903092913 0 0
-228.371115503554 25.5035022250379 -9.60552309235993 0 0
165.65634284411 -20.035281366031 9.61717309928912 0 0
-114.729110068501 -18.2758442891325 13.0914942007899 0 0
168.264431665487 -20.0201461857865 12.3634709098042 0 0
-130.816322274384 -22.4745251511236 15.1707302721989 0 0
99.0084204329562 -16.0698910393603 -7.60284172717425 0 0
208.446484438515 -14.7673823488735 -17.5551754044451 0 0
214.408306991208 -25.3773164390897 22.54236083183 0 0
-188.351319187061 16.0251996600331 -11.4652347263225 0 0
145.20781078033 -9.09856959020977 -24.5516485546699 0 0
-199.921029057055 -34.3400909759907 -1.3232843794963 0 0
147.966730512556 -9.66861675657241 -24.3370502805366 0 0
-170.024478598559 -30.6903777232382 -4.2435218843484 0 0
26.9920043387908 -17.8125133940161 -11.3419005994207 0 0
79.9214743016002 -16.1916164994452 -9.50508236398235 0 0
-48.3157328562207 -14.2223116873061 0.724591915033079 0 0
-184.272985447847 21.192777736336 7.34034670538259 0 0
20.9393410238279 -3.5798550673827 -27.7265715101837 0 0
-181.036530539686 -15.1662350192817 32.1524079434446 0 0
-32.4123024733342 5.79110403173447 -8.81942440586294 0 0
-206.91485911625 -25.8274216380177 -7.27321570189728 0 0
-204.641350393476 -13.1487970641201 29.2670408236162 0 0
174.565527225925 -3.58357361774745 13.8634231515056 0 0
-169.382501671599 -33.0644187692437 14.0170594709598 0 0
-215.5781989387 24.6673555562672 17.8173009215377 0 0
209.106957524971 -34.810303334866 16.8651336936659 0 0
-191.600459133438 -10.4945934043886 29.4142581931475 0 0
5.30605164879939 3.26918200186371 -24.5803933459152 0 0
-222.953887881304 22.2936949951241 -17.4068910161974 0 0
-121.131688837227 -25.0535478337159 10.7032596819438 0 0
78.6796681932522 -4.21594560086367 -27.1704328054461 0 0
204.397341408445 42.3922976589865 25.300266835277 0 0
-203.97589899739 29.0877511556848 20.2945094555533 0 0
152.669360554785 5.99912194773281 7.2198119158188 0 0
188.25929713619 12.4663420165636 -19.2360136247304 0 0
-114.461372364257 0.147818830391541 3.5295946977385 0 0
-166.884031765674 -20.210041002807 26.5080709844625 0 0
107.185544005101 -3.8620323598264 -26.1782002824534 0 0
-169.774643957588 -25.987711028086 24.8037087717684 0 0
42.1403292888926 -5.3481481096937 -0.110921985319578 0 0
-212.495958666539 -18.6268867104113 27.3093116421264 0 0
-206.717861025194 39.1722657697909 19.2734049389329 0 0
-41.3975720797295 -10.4013059163155 2.73685124129532 0 0
-210.52907594073 10.4847867889072 4.97430873771024 0 0
152.447179745428 6.03318523699478 -21.6782099496251 0 0
-187.385621802598 1.06146336135935 -10.2859076139195 0 0
83.615140245713 -9.66379125741558 -1.2049115692454 0 0
1.8933447751839 7.88692091242399 -19.4251019289055 0 0
-133.378876357138 -4.38720263907159 13.3874009002972 0 0
87.2440951419673 -16.5435813774209 -17.8365801836255 0 0
8.28128124598647 -15.4055432113458 -25.5691120953762 0 0
-192.766341325822 29.7734229062134 12.3632661987122 0 0
-121.275007435108 -16.0313680466865 -12.6460159912523 0 0
-168.293954798536 -14.5177582351814 -7.15662705527552 0 0
-2.81438205778348 -10.2340520452267 -2.31967307646212 0 0
-64.9865636064142 -23.9773688354812 -4.93241080542745 0 0
198.084978493285 -2.12852563523743 19.3514245584602 0 0
149.094801573845 4.86607732069295 6.84598011458361 0 0
45.4163477853438 1.48887907135587 -2.85543268091353 0 0
-170.511915788847 12.5397163758136 13.7366556350532 0 0
148.3789457765 -17.9571619022834 -0.635078542465002 0 0
168.46963548946 27.2241580692706 9.08385632337849 0 0
-75.701370245569 -10.8322861776168 -21.364737350474 0 0
150.448893524676 -9.00997395135156 -24.456197925256 0 0
-165.992856409053 1.39281105423139 -7.16957268292445 0 0
-20.1819522717252 7.19454567442066 -15.8065280864154 0 0
207.391497030073 35.7655184877864 37.4393537595382 0 0
-224.481112815089 26.4279549747907 -17.5779706637799 0 0
-203.559890029206 26.5180558542804 -26.9585625893825 0 0
-135.290446716487 2.18344001115912 2.35765853751782 0 0
208.850021817945 3.01934320504919 -9.75568081285921 0 0
180.29971338979 25.0795391648652 -15.1704862057335 0 0
165.84665818803 -14.5501788662136 13.0235614846325 0 0
212.012263797083 39.5194396242377 10.0675425606491 0 0
52.9733181638508 9.90113184281287 -9.42279138924319 0 0
-211.005985957216 -13.4317372624448 14.1895899734823 0 0
101.577046986342 13.5880038485219 -18.544985107926 0 0
-187.078830355502 34.7071043791171 -16.4059931445089 0 0
216.193537045407 -22.3049281998705 6.31614364500794 0 0
203.551131257907 -33.7137912632252 12.9551088328332 0 0
201.02839913809 -24.7411507768141 -16.042598869443 0 0
-154.105672304886 2.39908904561469 -4.89695089730647 0 0
-170.010515452923 -2.12528931632911 -8.51965453022006 0 0
-94.0267790762132 -2.79156242458684 -14.6725684655572 0 0
-168.050954497202 -29.7582574021555 19.8484450490172 0 0
65.1438041152895 -15.1414536410721 -7.30813338598808 0 0
-209.678272896326 48.3455906734043 13.9734461986885 0 0
189.212493531937 42.4377449933028 0.0658797678835996 0 0
-152.675363747261 2.88075053711629 -3.28558187988252 0 0
178.359980430539 -14.7467269150366 26.5570244284144 0 0
-135.928903680249 -1.28002873985011 11.4606033474588 0 0
-226.47373000274 45.2251055350795 -7.05663188424494 0 0
198.110392963176 -29.86368596403 34.5703196573102 0 0
100.318219813215 4.90492291096428 -0.101336651983398 0 0
114.88544964455 7.84638492279592 0.0524197525144342 0 0
53.2224710361421 4.98975509421316 -4.31710168426127 0 0
-220.246031328423 50.7407277657802 3.85424660597716 0 0
61.4643334660338 -2.87220494091435 -27.1474790841683 0 0
158.043811775275 -16.6354425953128 8.03743252939908 0 0
148.999543101234 18.2583656505994 2.58875728792008 0 0
8.48554696934603 0.922303216724545 -3.69180355900683 0 0
-172.008817078128 -36.2158546560691 4.07149182652604 0 0
36.8192352738801 -16.7437781139991 -22.2446137399536 0 0
-48.4525241896784 -22.6976459901322 -17.3889970370449 0 0
-89.0821261015766 -12.2371209782516 8.85367020229384 0 0
-79.5359183845938 -18.2934725264888 5.37163006179786 0 0
-223.986401528047 28.9128548672681 -18.7778659166183 0 0
51.2785875393254 10.8595710753348 -11.7747757047031 0 0
-82.701529315818 -4.4542451046782 3.34804672095292 0 0
16.7656446492639 -19.4234796040276 -15.5447518362512 0 0
110.405293539844 16.7697588484575 -10.5988500981714 0 0
-39.288191379968 -20.9744677682794 -7.10743099929683 0 0
132.014494631943 -2.40898123583333 5.6155768733002 0 0
-197.344192578882 -13.6076600103833 16.3849065141386 0 0
167.698250185715 18.0238275957267 -16.9634720980461 0 0
-189.090722025375 5.37576606002564 -10.7209514420152 0 0
171.887150646118 17.0308785823027 11.3096819190092 0 0
-157.104604208007 -9.16131878902722 25.4230132695436 0 0
9.70986338288203 7.59470447493317 -10.1487956654617 0 0
-40.9831344111143 3.75215208663724 -17.9696238071627 0 0
191.438370634246 40.2922631220649 35.1294062728898 0 0
-223.173239848945 43.0886958592685 -16.2804972372678 0 0
-15.4109103391586 -16.8401442415744 -24.802792640273 0 0
107.302914925858 1.76671309890763 -25.0166125098372 0 0
-208.41468687369 0.33321055366469 -3.56523421877617 0 0
-186.535164259485 -3.15355907157797 20.7303292865021 0 0
75.6281283552103 -15.7534517421926 -8.38582287692886 0 0
-56.3903462845125 5.00210707313121 -8.80813488740613 0 0
193.279683627613 9.5639048616025 17.220945459086 0 0
180.416940131225 -16.5460754953117 29.4951826645696 0 0
-176.920532406585 10.4133598643063 14.4354159070595 0 0
187.98777192297 -29.759068906619 -4.16079706384606 0 0
187.787979154535 -27.7894017374923 -8.44069351914441 0 0
206.051968917858 28.5127934444982 38.7398001685967 0 0
185.308233168256 46.2034551224906 16.7997688435889 0 0
-152.714179368974 -28.1151158689122 16.1774064142796 0 0
186.830824668978 18.2332598243515 32.0005561961633 0 0
137.365558344843 20.1404430184209 -9.00777137449566 0 0
127.202031422962 12.9362461047481 -0.916948685358147 0 0
-191.45945730965 -35.5246456960619 19.2120605992016 0 0
178.403635883482 9.1124629144999 14.2917941857946 0 0
195.384337538093 -33.7193366250071 3.32880375687749 0 0
15.42270220897 8.53248230086326 -11.6223977230686 0 0
18.6279479157485 -6.15408058909853 -0.21516348836034 0 0
125.055760504431 -17.0374008472938 -13.773995066242 0 0
-124.648898510905 -22.7002800035593 13.4286312436002 0 0
169.245405802481 -11.5752401662296 13.7000437023647 0 0
-204.485143471603 -19.7123511533953 -11.5246260483971 0 0
-96.9633025685119 -7.02067736244015 7.01217362724557 0 0
163.112788391332 -12.1823602465714 11.4908312537879 0 0
-88.0535358533251 -23.9753376677537 -13.3146640388898 0 0
-193.919232362249 52.4363608709206 -8.53715830773065 0 0
187.48161496529 -30.5053058494797 -2.23330229807366 0 0
-199.674969910131 9.83991195515562 -13.5685694153071 0 0
-117.316149254246 -5.04666028522021 -11.6460042321127 0 0
210.971932400949 7.78774870628513 -8.31873800386538 0 0
-174.779928380293 -19.2145465778961 29.6748519443645 0 0
-208.766923580868 50.6195739815027 -18.7446905977017 0 0
-173.797186925695 -10.9521090966266 -8.61938784528953 0 0
143.138564927386 -15.6610968187184 -19.3014348448903 0 0
-180.222652990226 -34.4646813210772 -6.57386694095346 0 0
-137.874725431674 2.34515495526699 2.69270634207294 0 0
-210.229311866108 17.8421590925784 13.91124779332 0 0
-163.681758048972 -33.0692654703077 6.38204550137297 0 0
200.684145083394 -10.7191986611963 29.4841729840453 0 0
130.687959399135 14.8457822289139 -18.1357059566558 0 0
177.852835299559 -27.6499750203172 20.1123217141585 0 0
188.912569616036 5.85741287817203 -17.5721864717779 0 0
82.1894626252066 -16.2296586663738 -9.49657607378822 0 0
-224.266985138355 47.4995768067567 1.95897821543767 0 0
-55.8873210733039 -18.6060149493609 -21.9830180863373 0 0
176.291894469947 38.3334840094133 7.72643818506345 0 0
-156.307354799257 2.30871108901716 -5.41841480843804 0 0
-50.7229514710372 -14.823488928708 0.808820944099279 0 0
-123.137969755918 -14.6142216140277 -12.4255794615967 0 0
-1.37377924674012 -1.32347910204617 -2.42750852510845 0 0
152.820279895401 2.84085000404449 7.53491810155605 0 0
207.1233569983 6.48010725041253 10.680844954566 0 0
-215.757853871914 -25.7887274044338 7.39767440011798 0 0
-154.559249660264 7.42472621896474 12.1691558928824 0 0
125.610872325337 -8.15981210931436 -25.2553991025474 0 0
-171.185307942394 -32.9079782899722 -2.97471409725981 0 0
-75.7823292544646 3.93291630714957 -8.75189723807442 0 0
-215.177771510329 11.5694019992814 -7.94397912196209 0 0
122.421200954715 6.33959432287269 2.21402519819605 0 0
-117.699543492101 1.95283526891083 -2.83250858963738 0 0
-198.729737716089 -28.4461354594525 27.12611095845 0 0
213.762550949086 -23.8034388257288 -6.38562332386583 0 0
198.962554959668 -33.8969529019204 28.6667797610508 0 0
-98.8125288260703 -6.05161296075762 6.54933869430639 0 0
200.645024167828 44.824037771692 12.3925186244912 0 0
-185.051142211993 -26.0408920291167 -8.71140342246423 0 0
-9.96508274456413 -15.8501057735449 -4.96236583069867 0 0
93.6646427921293 -8.18852530915559 0.578407530994402 0 0
-156.458984254316 14.2577283642712 25.2538978376543 0 0
-182.096074999244 -29.5865213650929 26.4339209854255 0 0
-100.206410986844 -4.67870286075716 -14.4801725447261 0 0
50.7576396996662 -5.84563880557965 -27.7516214341942 0 0
-204.701307423857 20.451344927447 -24.7224505891917 0 0
154.245027739598 -15.7380039907973 7.23655373378081 0 0
209.6927951016 2.05869380579886 9.17195476683725 0 0
118.167649061262 -10.9402680960797 -24.5043604407466 0 0
-202.678165260621 -12.4722871380414 9.8825278665162 0 0
59.6743239617822 -14.1082362612321 -6.0450204059883 0 0
65.971138685392 -2.26316464478611 -26.9294755889641 0 0
-97.3337404944894 2.93652372760242 -5.44780979541794 0 0
-208.209198561709 5.54131836568114 2.4586955718459 0 0
16.6097575208138 -2.79759940878074 0.561492032776672 0 0
193.628805964615 33.0188116569814 -9.22236775729679 0 0
149.982826408187 -12.3219016581403 -23.0056416317792 0 0
-98.0099523091487 -25.338747938136 4.08053701441943 0 0
-152.05878984565 -1.29276558252845 -6.79590345878011 0 0
-207.461773635713 54.3793532198794 1.45527984531971 0 0
-201.196951232762 4.53798111918781 -12.7334420720209 0 0
-185.250410634182 43.358188354749 -2.99807390140841 0 0
198.363375771443 33.4733229919598 -8.33135576423875 0 0
26.8650303348404 -15.2393199467006 -24.9704641231717 0 0
18.7754511274255 1.09711546824636 -3.46978283426177 0 0
-179.446274868592 3.72844808198909 -8.32805375736259 0 0
-161.793732538575 -25.2173877970036 22.5894196300203 0 0
0.305049247034221 8.26150328756271 -17.9699407514362 0 0
179.595906049505 -12.8154730839422 27.9260673416251 0 0
-143.89425491243 -4.14215057071158 19.6743494296433 0 0
89.8678258781726 -11.4034654792426 -1.75481452909696 0 0
188.277907516586 46.6415237362893 8.5579255166933 0 0
186.544885616123 45.1559356432621 21.1548561540026 0 0
-16.4764558459703 -17.8325903384221 -6.39403084413882 0 0
-226.760625953837 41.4686651365978 -11.5308631777681 0 0
193.349173307152 44.2682735748064 3.68533860453353 0 0
-222.252056385319 27.1947390131813 -20.3568488310808 0 0
196.855029185517 34.3783448645852 -7.61038137626013 0 0
65.3802415962991 -4.83729290409355 -27.4331424647484 0 0
-36.0638015536526 -22.9023259874486 -13.6556550990519 0 0
-70.5655320011485 -25.623066955619 -7.33781141506463 0 0
201.749489905202 -16.8811350443048 -24.8002071862947 0 0
-58.3527256027594 1.09413416888572 -17.7213001988776 0 0
179.178496940272 -27.5874984614352 23.2795691947938 0 0
112.579667771864 6.93431183042857 0.28839885867733 0 0
177.353588372344 40.6846317099457 16.6977631845218 0 0
206.522423676132 -20.4237419918275 30.9961187295809 0 0
-183.836208813896 -41.4530158894786 5.64967889745988 0 0
-105.104173513579 -5.07894680767639 6.93692186646784 0 0
-69.6058840584166 -11.8872629357057 -22.3435500757071 0 0
167.681338533226 -2.26908739157166 10.9024153819689 0 0
214.208536690269 -12.0362849291721 -4.52153940433199 0 0
-212.0295366201 55.3623693406525 -8.0448354557881 0 0
175.923330546569 24.2942913875129 -13.9456500271258 0 0
-222.965803316116 25.2936152426976 -18.9517462691545 0 0
122.794002431717 -9.61518898706842 -24.9952962657235 0 0
-210.651000363055 33.0352224056942 19.9400418464537 0 0
173.830374992173 -22.1217039512689 -13.4507623225984 0 0
-227.423989510987 41.7448053298957 2.70799817063991 0 0
186.055019671348 -26.9421633230421 -9.98732976453794 0 0
-228.040924145595 35.5506208739909 5.7647756931919 0 0
194.730815344811 -32.0014198301481 29.8821456731504 0 0
-219.447663716272 15.4991140818664 0.681360835839706 0 0
-147.164232517535 1.53792049007169 21.849743996973 0 0
-211.503828370293 -26.5557659577788 23.1128778477474 0 0
87.5525645462413 13.0947145801724 -9.33614732763538 0 0
-195.072884540184 52.145481192468 3.92185253506145 0 0
207.615843694424 -17.9177893277081 -19.4907791213396 0 0
-17.6326128055073 4.90806339998794 -7.65409922564247 0 0
34.7448729760671 -5.00643723036472 -0.0124539569838498 0 0
215.378024041604 -22.9124722177793 -3.74478925265546 0 0
67.573720023071 -4.39212667265352 -27.3639814090672 0 0
101.965116423285 -3.82192988892546 3.43010457851391 0 0
146.271375308977 -13.2596663853299 -22.2476594653637 0 0
190.868894825775 -31.0454077202072 -2.17381799030817 0 0
132.433456432044 18.1825664831017 -14.1076777516639 0 0
169.466368871884 -3.58062868451266 11.2564592225739 0 0
-194.61519825908 -20.7935396769268 -14.3474934552811 0 0
57.1855616444211 5.07294251551151 -24.390886489064 0 0
176.174256636245 2.1531563989405 -19.784959117141 0 0
-221.678396693622 51.1634245839745 -5.90890920524285 0 0
-216.056593672146 -24.0898977316649 16.3220436816465 0 0
-198.279177520038 -38.3780609600992 4.70258764905481 0 0
212.762251588825 -28.1350292183585 1.77326599539227 0 0
160.209369720431 -9.91471179621492 -24.0660306356075 0 0
198.154038192755 41.0461725632174 34.023412301091 0 0
123.565226165362 -16.5965828148895 -5.70079557488347 0 0
26.5054925852977 -3.20592209896245 -0.0665298496141216 0 0
209.556103504798 -32.1342834918823 8.17388089279046 0 0
-135.306253153862 -14.9456898000331 17.7977264587429 0 0
-9.25906940704887 -7.89778996069134 -0.1113367410713 0 0
-174.563653144065 -36.2866544236134 6.25085917576376 0 0
-57.5797296203135 -10.8236242486264 4.4541530117084 0 0
-180.562055494756 -35.7664964980228 18.2652866623346 0 0
205.309745966284 9.1972531199831 -15.1587257046268 0 0
172.267574719826 32.4629089866131 8.55208204732038 0 0
-208.129883818624 54.7856938383832 -0.42354341408828 0 0
147.042525211348 -18.7327291896182 -9.48580879091708 0 0
20.0045459958409 -6.80410238961067 -1.22136397549196 0 0
179.229568675174 31.1866688638094 21.1807299061972 0 0
-172.908842491673 -35.7114059740171 9.35229145282845 0 0
154.161553789628 -8.04430269044713 8.63684648145279 0 0
158.992351063302 -0.874796040946461 8.72599528690629 0 0
-180.156572185508 -38.7111086130078 13.3690570754789 0 0
-229.737424077178 31.3937076711668 0.831068505375775 0 0
-213.35878028208 -15.9777205180121 27.1826637747133 0 0
-77.7054004535916 -25.8617927840108 -10.3167923568451 0 0
-189.523490139454 11.948142690078 -11.7232071303193 0 0
136.136637425273 6.34593939760574 4.76513802191428 0 0
101.99484996893 2.05073083282779 -24.9752169826218 0 0
188.021756402176 -21.3570257844938 -23.0379567761846 0 0
-161.830816216588 -7.90853242808629 -7.26432587577001 0 0
-192.748025905371 37.5369202407222 14.3380858375674 0 0
175.895839595911 8.48288610256982 -19.3258508712311 0 0
213.700856905827 12.6455465815837 11.8317634343765 0 0
187.434740617382 4.62210544444841 18.3807008491336 0 0
48.757345784159 -1.06151753003578 -26.7085335061749 0 0
-132.678752085902 -29.7690362124309 1.26255973168447 0 0
163.556020620068 22.6343368478326 9.65047336154587 0 0
134.131837232393 -2.11981676486448 5.78073446838127 0 0
-150.254911868466 4.51115978921115 4.97983077687682 0 0
-49.8237326335087 -18.7799413756241 -22.1793852482392 0 0
162.347644320472 5.25074012780677 9.10605182252119 0 0
-62.505977868207 -23.0362997314918 -4.20118865482644 0 0
-221.665571143704 47.3647293047913 -14.4146647310135 0 0
56.7206261789189 -12.7843086990428 -25.4521106177251 0 0
-191.23091426598 11.180744060597 -12.4444558286134 0 0
215.986441444223 20.8273201949094 -11.4763872373272 0 0
213.615416744355 17.5903682841834 -12.7225544547128 0 0
-212.642826842065 -19.938931765658 1.32402682337 0 0
-138.725509172574 -0.589407551226628 -6.66673223777343 0 0
-29.1526071767359 -16.626859525423 -3.59300726778648 0 0
-139.704458625097 -0.0713621451879949 13.4005931111614 0 0
204.876172257178 -19.5867922865026 31.9635011458233 0 0
-207.508531686835 54.853341602712 -7.36002550168562 0 0
-64.7411530980934 -19.0450534353673 1.01390046910908 0 0
35.100651649648 2.09318383362376 -3.68304668398044 0 0
-172.754559339093 -35.8184954976661 6.85355896781067 0 0
162.462903403852 -4.09296296002542 9.83712683950462 0 0
87.8615940198386 -16.8989404031843 -13.5160120396823 0 0
107.482763651456 16.5266046459208 -12.0211744167561 0 0
155.766727317197 -1.97716679073369 8.30840886894803 0 0
106.754567488434 15.2556023698851 -8.00832261638202 0 0
-138.717070692884 -19.4409718448144 19.369801488039 0 0
-202.129161894363 -34.7124089048676 17.9821288840302 0 0
-179.330381717867 -18.9882129615978 30.9767074270627 0 0
166.68988790179 -21.7679419204044 -7.92058335404608 0 0
-132.270696076339 -3.61171806705728 -9.27273163324413 0 0
184.907692438915 -31.5235172415804 2.38645459779357 0 0
193.32854902567 -21.7181542343355 -23.5835182756393 0 0
81.0708371425804 -2.24423241601582 -26.7086934976088 0 0
-14.7290254896689 -4.17688966876951 -0.740032283979285 0 0
-196.754626921406 -25.1704752778789 -11.2455047293371 0 0
189.639137255623 -6.88687318801411 27.0277827597745 0 0
61.3854182312128 -2.53782428964601 0.144045151863235 0 0
-217.576690385212 -14.3131446835029 18.0320789232668 0 0
65.6453922520774 -17.0552488307221 -17.609286550928 0 0
86.7788397393902 2.5476368119754 -25.1216658545946 0 0
139.575035073898 -10.6317920491122 -23.9067144166932 0 0
150.928648100333 3.33790491026816 7.21632033185552 0 0
-189.97168328155 8.12507207337108 14.1287786571644 0 0
107.03045459832 8.95229782608312 -1.86904479976344 0 0
-150.693757978162 -17.3181473409796 21.7744187787966 0 0
66.5376140046176 4.80820373912289 -3.06009670187105 0 0
-166.91709404679 -22.0542637427023 -6.4206887405025 0 0
174.807824585596 36.0993781531113 5.57976406482583 0 0
-191.51590248314 -38.5979880493069 14.880673279655 0 0
171.105824077578 -22.9631261893499 -7.19907096324634 0 0
-87.9339967430202 1.41437173634301 -1.11914568755169 0 0
82.2410842806113 -4.67376919023238 -27.0678482488303 0 0
32.849338325192 -16.8514070114574 -9.83468506635765 0 0
-2.16454585703312 -18.7171742254851 -9.77414937714745 0 0
-211.99148541805 -30.256311277384 5.95153832541426 0 0
-227.516300187472 42.7259519137189 0.738092606004678 0 0
184.926139738532 -28.7274063901948 29.476330061523 0 0
-198.260193438244 54.7927811999681 1.95121533008453 0 0
194.559727222011 39.8738676561684 34.3139736017144 0 0
32.0203797309732 0.307705831816832 -2.52217225835813 0 0
3.65227473267749 -19.1739092656664 -21.19474512137 0 0
218.101035627621 16.3133779720523 7.34968383892499 0 0
-145.09592776942 3.29085196689196 7.96951294386231 0 0
214.936837474949 33.7300325783839 -2.40435578801599 0 0
-192.761896091226 47.7933814055709 -16.6046483341735 0 0
119.491154048643 17.4226270113518 -13.5761173903516 0 0
135.935650814985 -11.2331773776277 4.6347493373422 0 0
199.883526555546 20.8823345961873 -18.5959525988816 0 0
188.707211771477 10.2827690158763 -18.5774983100537 0 0
12.3046732532906 6.20063594298387 -8.01331688698348 0 0
204.735020500843 27.3401262656632 -13.7798242016463 0 0
220.133584926227 23.2747471941503 16.9583972837265 0 0
-149.554059332536 8.27118918126862 21.1042825187778 0 0
-227.720602867144 31.2089915622178 7.19326709002761 0 0
-11.8501328027205 -2.61315158748643 -1.90795138117339 0 0
197.327964577247 -35.391764423002 7.99588761990628 0 0
-188.360969947947 -39.8016425775346 11.8834664757154 0 0
172.701688275972 -13.4361710804221 -24.8260530251135 0 0
100.595482828862 -16.0773467781103 -18.3305399002488 0 0
1.71618829271243 -19.7379582941431 -19.8538425042068 0 0
-18.7894212242749 -13.5484319712575 -26.665836850576 0 0
-146.945725498657 -30.1115564334701 9.79552778014229 0 0
213.2941348146 -32.4090868078605 13.997685656724 0 0
81.7108395370227 -6.92355598564621 -26.9716882658517 0 0
215.49673261978 13.9913541683891 10.9015910810738 0 0
211.62363298303 -8.67921291340583 16.8768474503052 0 0
144.011852336904 -13.997012766277 4.51297802986646 0 0
-189.520101500542 -9.21618288527288 -14.9190169119782 0 0
201.080870537388 -31.0769538151799 -0.255888110875385 0 0
-34.2711090251159 -17.3612279820913 -3.66587518137446 0 0
102.56595894939 15.4475530362706 -9.75368563784923 0 0
22.0623241228499 -11.143396573738 -27.4233217364621 0 0
-26.221033824708 -9.60620833652238 1.11283619329802 0 0
14.3780267081968 5.51540681611004 -23.639241446025 0 0
-201.603270670622 39.7840077211536 -25.8846899696975 0 0
67.2399968356769 8.14846481664004 -5.76456941950477 0 0
205.571934896587 40.9564009273665 3.62304039081637 0 0
-29.685413808566 -18.7046302094628 -5.59240331414639 0 0
-107.266447301004 -26.2562448276234 -8.69150220474803 0 0
-13.147205241995 -14.3295084533512 -3.34516875147762 0 0
-185.703203621105 24.6290221457215 5.31350678998963 0 0
153.797241621564 -2.22507606806889 7.99916132386596 0 0
152.081475670007 18.6280328646495 -15.0169247406573 0 0
118.409118750168 -16.6794804632029 -7.37004795801489 0 0
87.1973082654998 -15.1709079322897 -21.2224898670504 0 0
-20.0907836527454 7.61737095991082 -13.1261007245128 0 0
23.0734157073248 -17.2198753746468 -9.85188459793202 0 0
106.682226745979 0.774792936051537 2.87720646159126 0 0
-203.111615757538 -1.70462697513536 8.61134472047853 0 0
-203.879179643736 -31.3870368457588 23.7034581409885 0 0
124.27752199253 -3.69315963138906 -25.6090164856597 0 0
-106.099791334037 -20.4453896727431 -13.8988544262077 0 0
26.0719052468893 10.0571790215704 -15.7250279288577 0 0
-140.592362448787 -21.5406086734042 19.3118262928132 0 0
185.129393193563 -2.03009746472219 20.1961401944272 0 0
212.21575567498 0.562857883752799 -0.262105326704291 0 0
216.003242883323 12.93602196064 6.67230226308929 0 0
197.432013792443 -32.4522929302369 25.9997966753675 0 0
131.757335704567 -16.4235576302573 -2.44359431459813 0 0
-198.802784208415 11.3451548368534 -14.6794111071683 0 0
168.765965909051 29.8285617554377 1.85451473062982 0 0
160.804677599723 -8.07430676119635 9.99569444827664 0 0
-189.465401317104 -11.4147326878218 -15.9344929474454 0 0
112.025015842603 -16.6318611999383 -8.79249762561818 0 0
184.53447507812 -24.1442639233858 32.7757547743683 0 0
182.435675201741 -23.3583504589917 -16.6865730487586 0 0
135.504090134099 -3.57746757458695 -25.1193728374539 0 0
206.987070669619 15.2439495836889 19.3422424733449 0 0
-153.309542696548 2.16495752981341 27.3770536055835 0 0
-203.952752934832 -35.6331313592351 4.75225704456754 0 0
164.377764146051 -21.8227287712731 -2.60947959969441 0 0
-225.691948383703 17.0860880668153 -4.44157221538512 0 0
187.835649316244 35.391608098185 -5.58519620844842 0 0
-192.307800249903 -29.7057731049965 26.5525781831103 0 0
64.0496013418165 -16.108697272464 -9.51017552838949 0 0
186.838878987801 16.8691867866391 25.4835758139938 0 0
-170.891926873875 -19.4513061489795 28.346450041031 0 0
-168.490964285082 11.9323630588472 18.4000791897376 0 0
187.164801319289 24.590870465867 34.5453422335053 0 0
-63.767289728612 -14.2137303614469 -22.9286783258495 0 0
-167.984974654258 -3.12391989410671 -8.87229779320657 0 0
-119.759271255123 -26.4776358297598 -7.2658200559056 0 0
-20.6882502520873 5.28148310300705 -8.21617726532659 0 0
205.779622966584 -3.59691029155523 16.362953630244 0 0
-44.9009177351549 5.15799018080333 -15.1103535858234 0 0
-199.453635131046 8.46874500841867 13.9319929166766 0 0
-155.970000158401 5.57371657253806 0.577209145050635 0 0
213.729708876396 -12.1643210067774 -7.02071109654582 0 0
-122.034262399223 -21.9590674631018 13.2512594353859 0 0
-127.613537043633 0.284970331960294 5.89188632310607 0 0
-98.8893666954975 2.48586554031856 -7.4845464713809 0 0
-128.648144532426 -11.5658391614077 -11.3687125526679 0 0
-191.265566270962 -12.8492258481735 -16.5591898295967 0 0
-160.102400208625 -3.00505705392102 -8.02879927945708 0 0
205.281711018336 -15.0747014559766 29.4604173956032 0 0
-115.574472629896 -12.3491563071383 12.7293370971303 0 0
206.81086175117 19.9610405573619 -19.4425797963746 0 0
-139.449047810345 -30.21483690025 6.57536184655925 0 0
184.31146582404 -1.29876867929861 18.9567023455781 0 0
220.727273659349 33.525562528988 6.74675173304587 0 0
194.80308916099 -14.3906224985281 -27.3483840445923 0 0
14.5328775963132 -11.2763818313243 -27.599482340803 0 0
-95.7188790954205 -5.38895402756805 -15.7546940857536 0 0
129.608769639934 -8.57353839676631 5.19144560322602 0 0
-160.648840783785 -26.9528084302077 20.6832244203494 0 0
117.551915175351 15.0716740500582 -4.86243742845922 0 0
-163.618689810179 -9.09203130341839 -7.03747809745994 0 0
173.732036932621 14.8117458815134 12.0389171038912 0 0
-225.3389153911 21.8840140539447 -13.6727215015218 0 0
-91.8886998623304 -18.5990374271221 8.09840551625416 0 0
206.152068228935 -17.4119026491387 -21.2215969688379 0 0
167.934560285759 -6.05383951881193 -23.8830163641021 0 0
-86.2877896743831 0.0199907593239204 0.347607477415767 0 0
-192.437106124633 1.67298049309249 -11.3807974388908 0 0
176.962105193089 -11.4947443519018 19.1502241006213 0 0
214.800671585463 10.577964986364 5.56880372374693 0 0
-183.889577377068 -12.3843660278052 32.6488886569883 0 0
213.04178137972 -6.73028163865139 -3.95633343369214 0 0
-207.909934466386 -24.0347349034225 -7.74253828178585 0 0
-209.677631049248 12.4606591912092 9.06132198763074 0 0
-213.296494803601 -16.6058731306049 9.11815089261176 0 0
-202.593797399566 -7.13431466359123 8.52617077789754 0 0
100.556425090067 10.2397127472291 -3.7942323983247 0 0
182.211206343903 -5.17711368438458 -24.3008634582608 0 0
98.5102260979279 10.3721630307282 -4.21711237570641 0 0
198.351430132652 17.3446366136321 30.4439936564188 0 0
-125.833940527946 1.65417974379606 -2.61749463938122 0 0
208.109684844468 43.5625810595068 16.6479771145872 0 0
-102.312595057807 -3.3574316676459 5.39950354847551 0 0
-64.3561520059756 -20.8037053045926 -0.805109628385189 0 0
135.280656326838 -0.716490706221986 5.77544391658194 0 0
-197.283499370252 5.8377120975838 14.2405138529775 0 0
-216.176424785687 -22.3031527932862 18.1846429420489 0 0
69.2119356486177 -14.9365833987341 -6.84368810118453 0 0
-52.8726561646295 -15.8026743932896 0.698303394953807 0 0
-125.896278043562 -17.5676185179174 -11.5303120736015 0 0
-105.327350135835 -0.649751281969067 -11.1934628629286 0 0
82.0064371195148 -11.6084184397981 -2.59830628385035 0 0
197.031328420505 32.1882634987838 -9.44633743230338 0 0
210.191827012408 2.70908343173451 -7.62034146724513 0 0
-85.4914255359967 -25.1942262366734 -11.9044937715035 0 0
-205.669884501962 -34.8448736731704 5.60058670669795 0 0
-224.094551543215 41.4209157304487 9.39154437862441 0 0
203.836468143397 -14.8945620649802 -23.154729110837 0 0
208.472216261266 41.1437335807748 7.3390424361203 0 0
-196.312673888418 -15.9637341775338 30.8079871883696 0 0
100.717245634376 -6.26593562539884 2.73439954313861 0 0
-148.305742453449 -12.046971389131 -8.2158291453425 0 0
219.0275244562 38.134743199394 15.5595252026011 0 0
-178.710589623357 -1.15680873440584 -9.05902804232385 0 0
-80.8136715005673 -3.63492928033404 -17.3932213177331 0 0
-82.6330251652302 -23.5301332067433 -14.5669820000294 0 0
113.108452877186 -7.259834143491 -26.0263964158644 0 0
-207.496797694601 -10.9440279324853 3.306644864717 0 0
178.376397080929 11.996299463657 -19.4557029042489 0 0
-187.255127443303 43.4792819148673 5.35724399881661 0 0
177.166600996519 -17.2995059696062 -23.854434707617 0 0
145.983440101595 -6.98620493990697 7.40450474932666 0 0
182.568241815084 -21.8824401085766 31.6221171639287 0 0
-224.388666181524 42.7136361322343 -14.8983299589659 0 0
-218.592470020638 50.9821040538683 5.75720438672072 0 0
-224.17031381394 24.4802043954885 -17.1871772297491 0 0
-180.671712110581 10.5949302114549 -7.32234583032994 0 0
-208.582271603724 0.714814345611037 -0.740835764050993 0 0
-57.473958244213 4.3615743259802 -12.5412326361119 0 0
-138.113380942251 -8.32590275943156 -9.44258447439064 0 0
92.3538567635846 4.03913120928089 -0.307343928917838 0 0
-134.887317883882 -5.94436964890404 15.1992792199808 0 0
145.253409994264 -18.3221757917908 -4.47184151532119 0 0
182.556098124493 1.77375419121984 -18.8238432484382 0 0
194.408582210678 -30.863869259866 -2.61717173840742 0 0
181.056955881102 8.91062135636087 -18.9990440738741 0 0
50.5119755059614 7.70480895251625 -23.1382403069199 0 0
-130.148227650332 -29.2590062725286 -0.706370799205171 0 0
-224.506252981619 26.8712572011534 11.3300976836292 0 0
0.656051240504724 -5.15267935537268 0.234720011934813 0 0
156.759864883817 -9.04732053988377 -24.2279781477869 0 0
40.3508510513734 6.27593467448827 -6.38660970531305 0 0
-87.3337155158926 -18.7327458446123 7.07762334204081 0 0
118.824592304486 -14.737182959376 -1.82707078085614 0 0
58.4462089958184 -7.92636082208908 -27.5653300798961 0 0
59.6690121301729 6.95807634297981 -23.4260392952312 0 0
140.443977744562 12.2830154658314 3.0141788995775 0 0
-156.307133248998 3.59055086625028 -3.41469282520261 0 0
-126.374848404314 -9.21921441194771 13.173635712537 0 0
49.368470526417 -16.685317871274 -21.0071209903584 0 0
-205.84641424107 -3.51759711657936 2.74928022861907 0 0
135.622048086868 -15.318980544778 0.861086451102061 0 0
173.488602805274 34.1760369997785 9.40186505961912 0 0
-185.482384129429 -14.794108938916 32.6376921159644 0 0
-203.896472837992 9.31527377362545 -13.722488467659 0 0
-212.784565946453 -11.287949503422 27.8095198471904 0 0
-206.762572222691 14.8954759646973 -20.7261599737264 0 0
-196.402521603639 41.7062181376782 16.3372109103363 0 0
-202.213639953356 -23.0521949163668 30.3012246967009 0 0
116.218279648868 7.122007331479 -22.8058299987053 0 0
14.907191732925 9.26474196696359 -14.6809701449199 0 0
212.686997522005 12.7979267927469 -9.81721268301933 0 0
-134.93635213602 -14.2296962566447 -10.4051032981789 0 0
178.456364042529 26.3427455306677 19.2625365844717 0 0
129.51864055871 13.6582861386044 -0.791001372786334 0 0
112.437211494404 -7.85668717486623 3.05465738644467 0 0
-202.517842956986 -14.2662397482623 20.2893506694091 0 0
182.440956562497 -35.3935436947829 9.04810217395042 0 0
191.178712070166 6.36039189908523 17.5148366589322 0 0
-186.997588118059 40.2261089926314 6.13460073693235 0 0
40.0974488182855 -3.81910779610253 0.781990761080864 0 0
-59.7421096275673 -8.27080653637393 -23.586929941803 0 0
121.06649865223 -16.9775461684102 -12.9703435548271 0 0
-145.749691898058 -23.8988689859676 19.2430521528281 0 0
-201.665730234502 54.4370038824969 -10.7571203273865 0 0
-184.946069133959 -32.5198755069555 23.3515020192114 0 0
-145.237267189127 -29.2063419581819 11.7545875057598 0 0
-205.548537696512 24.9560465447456 19.2926777272745 0 0
97.6871718450707 -3.00837646010557 -26.267351933214 0 0
137.86919974501 -15.5282949524954 1.05033367858827 0 0
195.006530729202 38.461031724273 -3.59603042816085 0 0
98.8753008271336 -16.8237268129511 -15.079471479796 0 0
-202.497940827781 11.3940810031494 -15.1924725915209 0 0
-78.3622071878357 -9.12867998658891 -20.8449499239626 0 0
-172.52011784511 -34.2860451135267 14.0708791671091 0 0
178.939309283576 -25.1789545538327 -9.52048718419875 0 0
-192.01651474353 10.4908448840864 13.954344754539 0 0
-197.749408465037 26.6633773292162 16.8952824985661 0 0
119.042378396369 17.2115009533479 -7.67276742907846 0 0
167.984615492837 19.8703138754862 11.6283044367554 0 0
188.328595483493 -35.7612941111425 17.9832813501633 0 0
177.003164504629 -6.63979605093891 16.1561672900422 0 0
182.540027833679 -6.15782122143429 20.8602256802519 0 0
12.0593630355127 -1.6271504074547 -1.46585115707324 0 0
-188.237681667722 -0.751193404569618 18.0558724462075 0 0
96.4876874758876 0.163726291137199 -25.595357471285 0 0
212.513387988866 40.2999569699257 15.4003870094256 0 0
-179.758992223692 -34.2122773802061 20.2807058933966 0 0
-104.966195367995 -27.2670297065734 -6.96818599506207 0 0
-196.037606521247 21.8009462179974 -21.6004296262907 0 0
-87.9233622047684 3.24574553006263 -7.77370533158415 0 0
-43.2016026797216 -22.5543092079485 -8.95485097350508 0 0
179.540315114369 7.97261113533428 -19.0978344075731 0 0
-186.000059684598 30.5947515277064 -13.4345576389988 0 0
94.3439257075042 2.16652257244233 1.12488116880835 0 0
72.805856420729 13.4120797449716 -15.4852017906605 0 0
-148.428989301067 0.104726586650623 23.2407438755773 0 0
136.99272071048 8.41996228206735 4.09738542924482 0 0
164.55780699756 -21.7154551816112 -4.93533596575658 0 0
215.571231325581 37.1232229675936 5.96912521163405 0 0
-193.11508269585 -6.49659206515953 -13.6318782565564 0 0
219.936243213889 19.5935463109626 5.40709575694095 0 0
-161.672017043663 -0.0338164681256472 28.6652949423217 0 0
-210.139008359935 -28.8039192484156 21.0775249104113 0 0
138.739011609941 -18.0485064595164 -8.52999858329226 0 0
130.825885791733 -12.4129080799616 -22.7685385437303 0 0
-152.608015670677 4.94828446061235 2.2087236490052 0 0
-197.58920600746 -38.2956657322461 13.7288455639215 0 0
-222.619955002386 50.5395683697153 -4.17683998852765 0 0
216.804001737755 20.7711328996571 24.2019126677245 0 0
55.3060278549665 3.53910049426923 -25.1045367953722 0 0
190.48386523537 -36.752641372955 11.8978558335892 0 0
-213.419909685888 11.8000984367356 2.1557516033134 0 0
115.662156934863 12.086375579577 -20.2354070755729 0 0
221.264990850858 25.88508818651 13.0667103171441 0 0
-170.115580775134 0.215610293249898 27.4596514026805 0 0
188.811898617249 -32.9789731405883 3.35096284712703 0 0
81.7741742802168 -14.7972653077522 -21.9115423398669 0 0
-112.472758041829 -1.93608627480883 -11.152740107702 0 0
218.45064288169 22.0268478088373 21.9290380346632 0 0
-184.441316004275 -6.33522527684412 -11.9613582142783 0 0
203.310830359931 -3.78383550163795 17.6247652906247 0 0
120.297221738767 13.8101960514225 -18.942194974654 0 0
171.142532134289 -1.70797099099568 12.0678789250796 0 0
-174.19952965186 -23.8870508398783 27.4578938879276 0 0
212.337936820927 -10.6886453913003 -10.0945761918306 0 0
-180.425304123529 -40.2752417296937 4.25934318257321 0 0
-169.054025564993 10.0153460410698 22.7815214340762 0 0
211.179540639121 -11.4485055597865 -13.2166112845333 0 0
207.585098038259 -33.8307131688924 27.4926414953375 0 0
-191.657987760219 31.6074856659063 11.4931584917184 0 0
-82.2583171872532 -11.5569271785774 7.68240256194211 0 0
75.9625300749397 12.3226852823011 -10.434079516162 0 0
-151.734433686713 -2.38012332082416 25.2499510069226 0 0
148.101902628083 10.6148185947798 -20.3386524822891 0 0
87.7603614081626 4.16466980315579 -0.760895299653313 0 0
-156.596097586837 -31.9262236003119 4.61961497203664 0 0
208.913753336166 26.751688593984 37.3365884478739 0 0
-206.986732990015 12.5745803636717 -17.8613957603131 0 0
-189.802463950291 -18.2851940674737 -13.6881158244887 0 0
-103.430459584065 -25.8600688936067 5.10061912164771 0 0
-174.175556575577 13.9834268148431 10.7501072598683 0 0
198.519242621915 40.0007675964749 36.5135038726342 0 0
86.3337977414583 11.1006922270325 -6.97178487134801 0 0
-92.7999778039262 -26.308449607768 0.230999617437954 0 0
-62.2757095396673 -1.45791090048491 -19.6416461471865 0 0
97.1790500996344 -8.96137087784671 -26.0833193174947 0 0
-87.1758443540142 -22.9876027602977 3.33676563849122 0 0
191.017279900733 -30.3570990155966 32.1078468739625 0 0
185.077256083381 -32.9166205198562 4.35594012773536 0 0
-55.2091635391129 -19.5182398588248 -1.82181570833946 0 0
-146.956006048271 3.99561314361496 19.1592296573064 0 0
111.369723715519 -11.6010963012977 -24.171262026747 0 0
186.880738519522 41.2817372417304 27.3137864232253 0 0
-193.196129175499 44.4191304354334 12.7191033712606 0 0
-91.8707068002317 -14.9417518247318 -18.3210771314125 0 0
164.694470003907 -18.7952787249837 -15.8912268606668 0 0
-195.074088867009 -5.64949462811202 15.2586847904629 0 0
-92.6220945143458 -8.26572187407289 7.18602461784611 0 0
-135.609344222293 -24.9416083673957 14.4081890824709 0 0
150.395899557369 22.1008772591233 -8.36159090674151 0 0
158.864171678885 5.41407911763765 -21.3329528588272 0 0
-51.4522547976323 -0.0455533737948898 -20.4129553701614 0 0
-207.682631386948 -33.7692062513893 12.9738205583296 0 0
-194.894370921032 49.7771545053792 -16.1235146303083 0 0
-220.687490130955 38.6595361592889 14.2163127159174 0 0
-210.655523145441 -16.4104368303372 -0.285111769317831 0 0
187.682999055263 38.9703396980514 -2.84947280514112 0 0
-181.226486539682 -5.30711086372316 -11.0216532825625 0 0
-186.896722497861 26.2724182958086 5.49658566865032 0 0
-11.2412058980173 -9.81461188576796 -27.7399522007652 0 0
139.326495991876 -6.54669347466342 6.7843422753194 0 0
-186.045421868429 -30.7375718637648 -8.29934821507394 0 0
42.015737069048 -14.489863429885 -24.7816363410239 0 0
-192.108535120538 -18.961824100418 -14.6327119718537 0 0
-152.612038237815 -30.9566976381001 8.8286881895628 0 0
164.821717158114 -21.6591134670103 4.6298508090129 0 0
212.434874924086 16.5562192366907 24.8020218835948 0 0
39.8158938021519 10.9614045615666 -15.4758318346896 0 0
101.597162039949 -0.743710374636858 -25.7923306714363 0 0
-160.304295793374 2.70570706313866 -5.33222899499507 0 0
179.382682019861 -27.818690199441 -2.69869416516543 0 0
216.281784762247 12.9724648353792 2.38239691526523 0 0
-219.719227753004 43.8814461668218 -19.3071637563141 0 0
195.615161232483 6.31259943656474 14.4354340756765 0 0
-202.404326927592 9.94587319332217 13.1040925814273 0 0
92.1027704707509 -12.0360652365457 -2.01745088352892 0 0
-226.034359118418 26.7340591495501 9.22868388512328 0 0
-20.9656619936573 -16.032202373926 -4.00794142413843 0 0
205.160722883747 -10.989336188447 26.6970412117162 0 0
191.190541009852 20.7918093023356 -19.6323046108857 0 0
-223.193677330879 43.9209835709081 8.6988398029506 0 0
111.713252086179 14.278395215825 -5.4336660391736 0 0
-39.9692879844278 6.16217756685441 -10.0031169963148 0 0
-146.853037998656 -22.9935769714897 -7.4069089760367 0 0
-149.84626584276 5.38254839197809 14.0244036665606 0 0
-197.195607317373 -13.5945450360466 12.8870193031463 0 0
83.8184768725169 12.153016364568 -19.8033441920429 0 0
-132.437635362963 -28.8200286218866 -2.23796459330779 0 0
53.7270317221034 -5.5334371780644 -0.406607153317013 0 0
173.659334040729 -28.513537567873 9.04090672157624 0 0
200.545833753284 26.3253465760156 -15.5051743553428 0 0
-189.385379184828 20.5864995489183 -13.5941114358104 0 0
-161.209102413023 -26.2554281312552 -5.79279661063347 0 0
-9.3865487323896 -17.2410982784285 -24.5823796295737 0 0
-169.620492769304 -21.4208140978373 27.0475378758317 0 0
98.4871260431042 -1.68168211810393 2.82212192139139 0 0
182.355330023829 -16.2042072941775 30.5005243198625 0 0
-33.1970213450477 -7.19928875488073 1.07241294262041 0 0
66.6273707665721 11.5279851263072 -10.2707062455297 0 0
99.6625921973979 15.7412556837505 -12.5303112627322 0 0
206.878923969918 -31.4873960912425 30.8331031495711 0 0
176.478422427527 -31.7768886438097 10.5300338543049 0 0
134.328555280579 11.4221199661963 1.67262462134543 0 0
24.8523811141418 -16.6895222750582 -9.12509702200909 0 0
183.987687789634 42.6905611091191 2.50331694022362 0 0
-213.323240678848 31.6716552388328 19.3444352409596 0 0
209.565929593213 15.1718009044582 16.6340275977003 0 0
-165.951388830108 13.7069304881986 24.4224589522407 0 0
-162.110460709232 -9.4851956481484 26.8600073367238 0 0
159.14429980588 -20.5245353006173 -5.70699823566747 0 0
-98.8787362270216 -19.1332403846398 9.38731700475499 0 0
-197.132335485172 15.8670144378458 14.5644288518161 0 0
-199.335363238471 37.8009552817707 -25.9498517641449 0 0
-217.893951834208 26.4161170228103 -23.5844846789997 0 0
-188.433426066512 -38.2113579234219 0.755787197397984 0 0
-93.4205890438412 -4.45267233716681 -15.7279505375839 0 0
200.310047428479 -8.80049633188227 27.2089199435024 0 0
-158.625705586138 7.74481739188412 7.13550271890927 0 0
159.185803346758 -20.4040451270995 -1.10350131363927 0 0
142.913919812801 20.1932835344512 -3.25366212974563 0 0
155.270294679045 -7.14748679850887 -24.3722069967485 0 0
176.671300783153 6.6704904962152 13.2309464684395 0 0
200.329269804278 -33.6718711223231 15.4563208174298 0 0
-118.929381002086 -28.8583739004706 3.41031748856379 0 0
195.745735002485 39.7773938558422 36.7884993100546 0 0
202.43127055747 16.7437306935627 -19.735872533692 0 0
-178.033837131368 -5.95736171283674 29.6009344924752 0 0
-158.645188590511 15.2299223821433 24.8946819766075 0 0
180.595280078849 41.2223473776413 3.61999529133401 0 0
198.484582044194 12.1422859343091 -19.0706314189749 0 0
196.61160202834 17.5747056057459 28.6235262331872 0 0
54.3444897169416 -16.9227555267095 -19.6081674341654 0 0
191.260755924025 16.6160340599838 -19.6132408029258 0 0
199.805104436895 44.8549194399362 5.5075954578002 0 0
-211.477961784433 -16.3903896262223 29.1449331056953 0 0
187.680193813559 28.9030889723229 -13.0311391113398 0 0
214.757759379276 -10.6004143998663 1.39094745531192 0 0
63.6681145733179 11.1731365027366 -20.7353594023211 0 0
-190.82777622752 3.65729128085156 15.0929576481462 0 0
189.793378303179 -35.9594101560231 15.574130521224 0 0
-93.9063202386488 -6.69648046895085 -16.8172213751229 0 0
187.697177212685 46.6508104558677 15.3685461119533 0 0
191.328381133608 45.959312547137 13.2409995534025 0 0
59.8683891472087 12.0424359544636 -19.1395492969505 0 0
-204.499536621254 -35.5254997151087 12.691993564428 0 0
157.968600086709 20.2644163923391 6.81927535701719 0 0
149.189970252581 0.176860376381049 -23.4819756385345 0 0
-120.866322539272 -22.9868634265421 -10.2177594681173 0 0
-195.952034071098 8.57707275863628 -13.3234037595762 0 0
179.733366107665 -29.1691794318109 21.8298992941534 0 0
215.732355676343 -24.0121937169585 -1.45097465947195 0 0
-188.632770803555 36.2278157639311 6.98164267022307 0 0
-210.606280853966 20.4911555263521 -24.0646298683706 0 0
92.8492704744577 -16.3064130169711 -8.63098645898018 0 0
214.261213776652 36.842141095851 4.13624163915694 0 0
23.4199981107809 -10.299923234344 -3.3376677175221 0 0
109.613908563521 -3.82549752536202 -26.1284837574674 0 0
-134.639459200634 -19.5722628581329 18.071668958497 0 0
171.398409500617 -4.16440766271332 12.5880068057641 0 0
3.5843875290609 3.07780708547796 -5.16193586968243 0 0
186.948181868162 -28.8042702094009 31.1586189542957 0 0
166.800881249668 -4.76822499431763 10.9253735554042 0 0
-201.061505944814 -36.6702725587133 2.29585702343705 0 0
198.889040353474 18.4281457253396 -20.1512038719683 0 0
66.6662689589641 -1.35646019536227 0.127355676231115 0 0
-156.31643041484 -9.73954486559263 -7.33369441241133 0 0
-83.5511728193589 -6.32843033746342 4.74804844712386 0 0
182.350528272521 16.6353868893547 19.5102241825112 0 0
17.1012837762849 4.38969991385388 -5.83397492099397 0 0
212.90623668107 24.9445922284762 -12.3527214160344 0 0
203.920065034303 -13.1093890991225 28.7649624242145 0 0
191.440793478405 41.7385195126528 29.1388234161097 0 0
-196.063070222778 51.4813290665648 6.6866502780171 0 0
-111.521228107049 -21.9133784911361 -12.1420026158827 0 0
-126.975447825589 -4.6321276442569 -10.3885920398054 0 0
-225.104159566098 41.0328632488239 -14.972558808349 0 0
-25.444548553263 6.82609401480948 -15.7954295317637 0 0
206.306359502648 -32.7158221443139 8.64619823486539 0 0
168.592020840562 23.3976248200788 -12.1482237649608 0 0
-189.727158070837 -37.393640096551 16.8750361721015 0 0
-187.329412498593 2.04209964970849 17.131584122376 0 0
-169.218447460613 -9.63181002771706 28.7661218199411 0 0
184.266326907122 -16.5731500943128 31.6569415691288 0 0
196.429842645766 -11.1500575420407 -25.8374954654674 0 0
127.876747433514 14.6169280043569 -1.87384126180475 0 0
196.774736394792 44.3083997053126 21.9878096641008 0 0
-216.831356963283 29.2861505003458 17.9739707636179 0 0
193.663045537108 31.534787039312 -10.8446220798212 0 0
110.46967552402 -1.96652767419587 -25.8718719370077 0 0
139.81934486424 2.08798641811259 6.05164132543165 0 0
-150.519353994001 5.05100825307719 8.95420545523989 0 0
5.82201720655252 -15.9844332915422 -6.6412253861143 0 0
-187.125240891181 -3.65356422625163 -11.5467954453122 0 0
-198.635802580034 40.760125603849 -24.7984495119001 0 0
87.20594507646 -6.45368308195069 1.08359925409095 0 0
-185.024568999484 -9.07882576688313 -13.8588612693166 0 0
-122.267466646198 -5.67870655592204 10.1931530787146 0 0
-141.834746283697 -6.29517635664566 -8.69810771043772 0 0
-222.060531510434 44.6152403800492 -16.4996858753386 0 0
-218.322571184277 40.5949935177017 -22.1905958169839 0 0
125.456398534881 16.4255103765863 -16.3860777614519 0 0
-210.626240782676 54.5560976742023 -11.3629020658913 0 0
-31.3144731901664 -6.25200337953554 0.518068045930278 0 0
184.207241310398 -4.75620693252626 21.4599573316599 0 0
-185.763364614141 29.6817265795881 -8.64946790018811 0 0
-46.5739300447313 -1.83816627637283 -22.9175440669018 0 0
