"x" "y" "z" "f" "a"
-178.221104434552 -31.2227340474523 8.12461930796371 0 0
-171.281186150698 11.9405105223863 17.1577517840816 0 0
169.511451847313 -10.9742607992664 13.8980609642916 0 0
-155.158710146405 2.67985122215245 13.3146515149639 0 0
175.17778382492 17.1900536172704 -20.0112883337394 0 0
199.868459113155 -21.7252385801728 -26.5321786899631 0 0
168.597554650577 3.49075801486436 13.2002252237107 0 0
129.996317596515 4.82274305480477 8.32173273726283 0 0
-25.9096885584911 2.43719586721332 -0.281677092959035 0 0
-9.91986731165239 -7.92786403211171 0.297329941710574 0 0
145.074737095195 -22.2457506803104 -0.393795336790488 0 0
-228.964840039556 12.0437144718714 -0.945094304604941 0 0
188.628724428074 -3.79325664200179 17.6418872791739 0 0
137.530988018373 15.2569653453442 6.80466116932339 0 0
162.171296814269 -4.93005613699055 -27.8687486837291 0 0
56.5594987952139 15.7109079108357 -9.42008804046267 0 0
-229.229736170551 19.8454852306422 -19.1741373906903 0 0
-5.25300773266372 12.1327509980355 -15.3836159193784 0 0
178.494551452556 35.2241627500299 18.6317796286588 0 0
38.2377885156668 -1.49845163482672 6.30790335734352 0 0
-19.0310267665433 -5.11820286496544 -25.6471701396879 0 0
195.692042719056 -24.8578868768928 -21.1426585626922 0 0
209.121196425456 -26.0745639912521 -11.8251723140038 0 0
-189.693832527882 0.850680924728943 -11.5059673546199 0 0
199.682110424461 -4.8129770391289 -22.6404397362377 0 0
164.085798867009 -22.5910917707573 11.2649272239429 0 0
-239.37499914667 29.226241764268 10.8310348700427 0 0
-213.173153278878 52.2900752291976 -9.55762815756096 0 0
-79.6389358059157 -20.6972077139619 -8.67870381576144 0 0
80.6768189589923 11.1211430458675 -22.2725955891863 0 0
-160.397512111387 7.9201923575851 0.858691251912001 0 0
200.865073594769 0.0490810286867814 -16.9622844118066 0 0
58.6871090429808 9.92041309600885 -22.3647525256739 0 0
-166.163734065943 -17.7593752002807 22.5759580537226 0 0
203.963848447419 30.4316016799801 37.8044589890876 0 0
-141.769345874012 -24.678135793714 4.64796721197457 0 0
216.371405913258 32.7843308294426 24.4024919216435 0 0
212.3872806113 21.3092162165914 36.83606395812 0 0
34.5897434361794 -3.513506073996 5.42527658162378 0 0
-98.3792893102187 -21.5987817091553 -2.2817128701698 0 0
-74.8523497070167 -0.310198915672528 -21.0043454301634 0 0
-21.7425366117042 -6.74029081189573 2.610618485835 0 0
-205.210573698448 -2.94743370270501 -13.2411164186287 0 0
186.106731092479 -11.8900373770946 -31.8930830467819 0 0
-1.66391484297537 10.121980004901 -19.3381854028927 0 0
-224.745235482352 12.7406350768401 7.21108090693496 0 0
176.583959602204 31.9375296959265 -4.99524002138727 0 0
-217.686315562189 -10.0048603882176 5.68546034020208 0 0
213.609916988617 32.5398850024856 30.4968077645083 0 0
146.401694004104 2.90757722400762 9.86482608638719 0 0
214.689760330316 33.1214672292064 11.8618183301222 0 0
-225.858516144747 53.9207751111471 -3.29358332708946 0 0
-104.742872079514 -9.08004720062987 8.83078506712757 0 0
192.028425581137 10.6865004365672 31.6421352891616 0 0
198.059291965592 -11.8312929733844 -29.8474297496948 0 0
74.3001451573578 -10.303626094491 -21.7535781612275 0 0
206.634657794002 8.20941782879933 27.1210870468946 0 0
-121.333956040497 -7.80198943871917 10.29088260931 0 0
-145.165160958623 -7.21944678237469 -12.0073629664411 0 0
93.1060487889744 -9.25005839690566 4.69140814524793 0 0
-210.402307895801 -11.4635925791366 25.004399481579 0 0
161.165275862616 16.8824459103144 -18.4095912446354 0 0
-135.496155015886 3.43367642074047 3.4987671144945 0 0
177.764545642816 -35.1377450520201 1.12713050896362 0 0
43.3732277042906 -10.8803790691062 -21.7238758798995 0 0
-194.181348201144 13.7722788467746 -9.5571510270002 0 0
131.038094750631 -19.2374485361414 1.12396505282893 0 0
-134.042043202658 -1.74194401152267 9.36484720692074 0 0
143.846937061678 12.9996912124988 9.34450631760083 0 0
208.917233626154 19.2029061512526 -15.5361205058925 0 0
-176.919540916437 2.4170662824123 -10.2926655918286 0 0
-62.6474064904707 8.49075449064292 -11.6107122941256 0 0
111.667895609478 -9.92306717742556 -23.4232768620731 0 0
-40.7869292163007 5.61191232780024 -20.8282816113197 0 0
194.141930167379 25.2133199725517 39.7746460279893 0 0
168.318770799919 -22.6180775191898 12.8201743879636 0 0
-219.202348496226 52.2901119390453 5.37092392543312 0 0
-222.029775237333 -12.7149220177168 24.5163174009393 0 0
160.119534363573 -20.9865785674654 10.6551307777097 0 0
84.4493217967155 -4.09316490506092 5.96380102452789 0 0
-216.130232611594 28.8332354887373 -23.9493439586157 0 0
67.3135765614879 -6.68232934406139 -24.5616398582935 0 0
200.150336812069 -39.2748650099848 22.9091709134551 0 0
-111.98107978404 -22.6562839075502 -2.24577044001352 0 0
-198.296489439779 8.95254061107295 -11.07719928779 0 0
191.804466739257 -39.6388073335383 4.8700018013895 0 0
181.162996111416 -37.9548902544379 8.7051352290409 0 0
181.485557539372 23.7245564172212 -18.6853193948043 0 0
193.238452786916 -38.9300440335834 6.23883403268625 0 0
-192.2825919292 -23.1527757108209 25.308708781612 0 0
-184.859065037872 5.7578080371714 -10.9755474683477 0 0
-219.746041668961 -0.0757600333865768 3.43965122091236 0 0
205.542107659542 -0.743913823720539 -12.0520728824122 0 0
-188.819355440666 3.36871582610072 16.4287176943689 0 0
58.5921523720213 -14.4397200912282 -10.3351480633818 0 0
158.747501634943 -22.384221335037 -10.9953234474522 0 0
54.9432590241705 -10.0918775911044 -21.9493442782683 0 0
-220.96753462871 51.8663012969246 -12.9673877386673 0 0
98.5685662787432 0.327322399932877 5.83722915718203 0 0
172.071945725513 13.7528400054677 15.9890036925739 0 0
205.63768592524 34.683527299782 28.5225268246716 0 0
181.713738810077 39.1377695263514 8.92891685249869 0 0
-132.227291356197 -10.2316170728148 -14.1710536070121 0 0
219.409522750947 25.2021151978102 26.9350316012718 0 0
-205.401366870561 -38.3006244794257 13.2028982948124 0 0
-198.581554451229 -30.2394766459875 22.68970758533 0 0
-124.92533784259 -20.0341628345206 12.6465750322084 0 0
-48.5516583460269 7.73708682619738 -7.03976379572845 0 0
221.312690624242 27.0329933042271 16.5646067647292 0 0
-199.665771836299 -27.8057103392323 -11.2638778908078 0 0
52.3490069759259 10.139649956615 -2.60774835158907 0 0
57.6767864942455 8.5352557137724 -0.627358004628829 0 0
175.438390019896 1.19834112698467 -22.9039799360173 0 0
200.707011406206 -10.4932556037766 -27.2029199539477 0 0
-0.339734043864235 -2.42058866437448 6.07574333164775 0 0
215.819806817235 33.3592640417302 21.7111780247276 0 0
73.0056852236867 17.8015522658973 -13.7250559852965 0 0
-218.463097387357 3.59361420649408 7.91451122005488 0 0
209.083009595978 -12.7832016511097 -17.6512330500272 0 0
197.193902961438 -31.4662738068039 29.584822998515 0 0
108.830605539601 -17.4134934583018 -4.71365715216892 0 0
186.39213556378 21.4024515181666 -20.919616578571 0 0
221.642994996662 23.1824061385142 12.6098266608998 0 0
-0.682632465323018 -7.48838516989858 -25.1020756947113 0 0
204.823567044952 -25.2335928009197 -17.4868116707901 0 0
-220.88944353665 -18.8162521465456 27.1244680765186 0 0
83.9946107131598 -10.6010445041284 2.88325244695088 0 0
-109.327186637895 5.05705582237307 -3.63270366603728 0 0
-180.500490538012 -29.9442570614092 17.4127389826184 0 0
-19.4850114227163 -16.0104179363109 -19.8094797009833 0 0
-233.298970861048 50.9560170006359 1.92408256485095 0 0
-208.753425746721 49.7513405266224 6.56189827730698 0 0
-225.704629166446 53.5806980868798 -5.78941975930119 0 0
197.949941801317 9.52180254611245 32.9350890873724 0 0
202.029167954197 -37.2194406158957 26.2955455693017 0 0
-202.654130531746 33.483380801653 5.47006452250787 0 0
-88.8954866643205 -12.9099067613567 -20.6936154135896 0 0
-228.202487846732 -27.6534210885697 15.6928191613549 0 0
-224.772964586499 11.5235664822891 5.78729252062986 0 0
169.07200890543 -1.7970612866267 -26.0992157381768 0 0
-138.062443769254 -9.33363685609147 -13.2339519246923 0 0
169.570661255383 -0.934459928724312 13.2633624126574 0 0
165.057865366409 -18.4140182278249 13.0094728728077 0 0
221.038944561655 28.3314661858857 13.1862427542591 0 0
-178.798423941316 -3.27813932614366 25.0604255207988 0 0
-150.929365860068 -22.3245598926891 21.6119573786904 0 0
-207.505854390886 5.99088387782719 13.6211318891239 0 0
94.2573090047391 5.31032812665346 4.3873195098426 0 0
-221.248054992825 51.3983468521089 5.38740051935784 0 0
-205.270290493157 38.5370462961942 11.9760340045123 0 0
-191.698581872133 18.1644798864523 8.10743463118865 0 0
216.575610481331 29.6882803101991 2.08412705560287 0 0
-124.494527038967 -5.17867138059627 9.66311881527738 0 0
-229.403902401202 16.2302744831637 10.1936340868795 0 0
-22.5885668312493 -5.09851816325949 -25.6632119662594 0 0
122.691202278734 0.80317349717098 -26.6073230382138 0 0
-1.76281294715775 4.88826082017147 -23.7228841815982 0 0
191.446303952584 40.9953803163077 7.71300818276634 0 0
-145.673704902687 -5.16351769219198 15.5539902403994 0 0
163.677783227237 8.95602571332915 -22.813704440883 0 0
-224.674740001704 51.9870763635125 5.92566668294465 0 0
198.295591617051 -37.7198459014958 5.80362908211735 0 0
115.104563752091 -13.9230965303832 4.75824832520975 0 0
215.784792507429 22.374120350185 33.6214455202316 0 0
199.070836400234 -5.13195734902099 13.8529302666735 0 0
-190.1099256123 15.2418402372923 10.1010050359843 0 0
194.559646841669 39.2169524109282 24.0411763315804 0 0
177.112495444817 30.7459222746071 -7.90749825853038 0 0
204.736005130655 -7.36572507817389 -19.5061012311216 0 0
18.0753167531398 1.31102545699354 3.72240815889884 0 0
-201.310328822299 38.6958954330443 4.97276845186722 0 0
218.514104632789 27.4190579871789 1.91386861580413 0 0
-211.292832254054 -13.6560511426999 15.9122871894616 0 0
213.608791622902 33.7254361976218 20.3699793945819 0 0
203.805629433982 -33.3130364464992 -2.98482376251782 0 0
212.288430523037 -12.3007702155506 -2.25474693713158 0 0
-8.31133134652482 2.58687838156726 0.680960938343472 0 0
-24.8794361922145 6.09658704311972 -4.12341647097571 0 0
-206.220960079765 0.1351260826129 14.2947731180547 0 0
170.501385863569 30.9954961393853 6.01826227321005 0 0
106.587932122437 -16.7651457641645 -10.2334082974814 0 0
208.143798145735 33.8997453854734 33.7704129167029 0 0
-213.076075505466 48.5962104075337 12.065677503664 0 0
203.945245035343 33.2628645320665 0.101968562980623 0 0
-34.1835379876196 1.33967122687382 0.617799973255546 0 0
159.781672288264 19.1977823702771 14.0268370150557 0 0
217.516475413055 11.2643447672958 18.5280640477912 0 0
146.007097136282 21.9043698161251 3.07681392132635 0 0
189.440312679023 40.9072166646091 7.16397980548167 0 0
219.079245862391 12.6905754340915 15.491386972165 0 0
-45.9419760794606 -4.33904960198745 4.91445201044758 0 0
-121.460207701452 3.61537422996445 -0.171260895981277 0 0
164.482032296546 -19.4841537232479 -19.5462576386539 0 0
-227.023063844019 17.6297256738737 14.2186276040991 0 0
206.786673358881 23.2390804830403 -13.8316880393252 0 0
124.276220027617 15.3787942256497 3.57934865150894 0 0
-212.617481900002 -12.1145655142795 24.4121552245044 0 0
-214.794157513232 -36.4294404057292 -3.74343841904195 0 0
-208.450763109452 0.658889901059331 13.8241563690792 0 0
-174.181245667922 10.8670925552895 8.63350020075355 0 0
212.21776418413 -21.0726305680091 -12.648460383834 0 0
196.668451371303 32.9821225437323 38.494137987052 0 0
-226.33372596965 11.6506861068349 -12.3659573140647 0 0
37.2173054702697 3.86201443242933 -24.6049305161498 0 0
199.117559064459 -27.1668090645992 -16.2462626941662 0 0
209.611040028015 20.3154087816439 -13.7526849635075 0 0
148.029990448037 -17.0524558727164 7.99552854341891 0 0
194.251557122175 10.9090239092794 23.7658192398063 0 0
220.318659678103 25.3579788683063 4.65147302242027 0 0
69.1162699928795 15.1886082766685 -5.9078944690243 0 0
-168.332894852188 -5.17375758960238 -9.28607063942115 0 0
19.0962844109538 -7.25133846444376 -24.7481135687224 0 0
195.673775364356 -36.9190418243609 19.0002752585092 0 0
-94.9661839547569 -16.7534768092998 -18.3126329882759 0 0
-55.534378530932 -7.20863612603732 5.28491886213606 0 0
206.345349423389 9.87084277174855 34.2441327254242 0 0
109.404826922842 -14.3391306493362 3.10620479527182 0 0
-202.882214250777 -17.5691897511897 -9.98791347148491 0 0
-4.67282670552584 0.578186140968187 4.16501328943319 0 0
-211.421667610282 34.2080755169521 18.4030946435916 0 0
-58.8182471757589 -10.9139148826179 2.40772061773672 0 0
-45.3304212935983 -13.9289246414549 -22.5242863546893 0 0
-231.353687020359 14.2009871058948 1.13705763341244 0 0
-201.909465098846 6.39091217550855 -11.1832717235434 0 0
219.655943575163 30.920266258225 11.5844101536689 0 0
-20.6401649572172 3.10904835557911 -0.796053232283675 0 0
-156.624127666498 -27.6114509307022 17.7644963451249 0 0
-68.095637158905 -10.5909901197905 -23.1798998969317 0 0
-225.007058341713 -15.3363163932999 -4.92363353420407 0 0
-150.762154865383 0.800477178361478 12.6349534473598 0 0
-71.7451293646575 -19.0835889240988 -6.23911663598503 0 0
177.264160663507 29.7175544837608 -9.59084829584737 0 0
-221.323640290137 -11.1115713882483 20.4026424147949 0 0
139.678926260749 14.7377333868953 7.90202239859169 0 0
-31.8121925882852 -4.35711789658815 -25.525600334679 0 0
-228.453875528882 23.3179104304113 17.5593972188717 0 0
-199.685543079725 -7.1595065156506 23.242721288902 0 0
214.651961513781 25.3806185802893 -6.6219543806296 0 0
211.087529966278 -21.148533398516 -14.7309167070612 0 0
-160.633694652261 -18.5741144380111 22.0476389555805 0 0
-54.9484394115277 -19.6673301275758 -12.5593611414199 0 0
-123.221588071529 -16.8312648100769 -14.2701853742158 0 0
168.633103396653 21.9766394554794 16.1201472290442 0 0
113.942925261789 -9.35006308556145 6.79540126470511 0 0
211.52528461362 -12.7881968084451 -10.7800184006472 0 0
211.568977663547 34.0859038075384 9.8776956271827 0 0
-170.375482027049 -9.76892573288133 24.8338931125371 0 0
-169.151945318452 -8.47952536484448 24.984540289527 0 0
209.273200119272 -7.99861559836872 -11.0368723707153 0 0
78.0754951050924 -2.42015697778036 5.85419471586291 0 0
198.070437068708 17.5203591871022 -22.0318708587324 0 0
-35.7129177944638 1.16112861763207 -23.9996312355725 0 0
-224.736555945566 -31.4633831682626 5.08499712993031 0 0
-203.61441622769 41.4137818621437 9.37170211375533 0 0
-102.593717286779 3.07220168639068 -15.0406251620173 0 0
179.944146319803 25.59174023837 23.2410532961531 0 0
-186.284528501677 11.2371932019118 -9.0671738327522 0 0
-217.705985397112 -15.1675175312029 -12.9480395528377 0 0
-214.244133768057 -13.2249137822233 24.8472658742835 0 0
165.427402792782 28.7143884243296 2.93928223888178 0 0
-42.9083239717369 -16.9024932935204 -20.337024388111 0 0
-181.397005319441 14.9435780100933 3.13885251924706 0 0
-232.011200428575 -19.9701176844258 7.1232952361227 0 0
-163.098235396897 2.07670723622597 -10.553511725904 0 0
185.866043402539 -20.8366864577368 28.2913286164093 0 0
-18.612731511181 -16.9035059665098 -17.7604874970281 0 0
151.60390791868 -21.9417498945348 -8.45798958370889 0 0
186.029282159071 -27.4100533779916 -16.4711260636243 0 0
-223.688970377064 10.6340617903761 5.35003601818255 0 0
-119.074787953789 -22.6316631210502 5.61956464079216 0 0
150.023250634671 2.84303616291765 -25.9215957428149 0 0
33.4633315618725 -13.9842525238481 -16.8001667666512 0 0
-106.040637700557 -11.6996479303821 -18.5354193200927 0 0
-176.507027213116 7.13441846168451 20.8508170224253 0 0
-17.0670217031514 3.69317936962063 -1.33050648910767 0 0
182.766101609737 8.36078941892324 -21.0442080855506 0 0
-174.796680042269 10.9130999066719 11.135378046078 0 0
-157.867684166891 -20.4078846037811 -8.53572352279514 0 0
-160.338376697011 5.71423493868005 18.9366561179349 0 0
187.401060645042 39.1862825124337 23.1287153616281 0 0
-40.5396574617866 -4.1356398061769 4.96480422931641 0 0
-148.35899307811 -22.9626289192854 -5.84551315631255 0 0
166.836664198038 -17.8795470201483 13.5342950640806 0 0
1.62785278187427 -5.41340230264893 -25.3895482042549 0 0
208.198509565634 -2.51162392482336 4.48401302747137 0 0
162.431271084696 -19.4761421291469 -18.4779777676357 0 0
198.2451424201 -28.3416864861751 -14.1870158359256 0 0
-135.073514612656 -23.6795036880522 9.42721148699124 0 0
-226.837123846366 -9.13950747578054 17.0158215162297 0 0
153.838948764338 25.3398282749274 -4.70695033991431 0 0
-98.6624574053401 -19.5875022755329 4.74014072491578 0 0
210.867764253155 -21.7835082366125 21.7883488502351 0 0
-74.6400779686428 -18.0725189142544 -18.7493846480988 0 0
210.427631620469 -18.0008007752593 -16.8760142434096 0 0
-210.140159868276 18.1958561083129 -16.1542004103149 0 0
-12.9010956357361 -10.0485155705207 -2.10818353730239 0 0
-86.1382261602403 -16.5296796077419 4.58897712850517 0 0
-193.862230673463 3.18756166284954 15.6443037481559 0 0
168.628653384143 -21.2032948643015 -19.3999301199409 0 0
178.641618452245 -37.8462416805349 5.55854892228592 0 0
34.7901338060549 -9.47312594173949 -23.2507568341579 0 0
-196.674318776017 -6.66986524296638 23.5846642511028 0 0
-129.472323019305 -22.2122954180544 -8.6196585183893 0 0
-214.737295694838 -36.8621816361281 10.8375354273059 0 0
190.399488397353 -33.8015521394363 -6.71459557488979 0 0
74.266837598442 -2.69444928782253 -25.8679941214359 0 0
-221.175519424907 2.73100382527108 -5.20878067840302 0 0
-212.957883228226 -39.1948019825946 0.413660119545356 0 0
-215.152177226869 43.4698216450716 -20.8202588750507 0 0
19.9510543442948 -9.20772033155045 -1.72933987785228 0 0
-177.721227719599 13.5052973035951 -2.43367540278581 0 0
96.3502962285023 4.22177389063356 4.86289960641161 0 0
217.517230939362 28.3050339086663 1.04969529731316 0 0
221.640146387784 20.7998149733225 11.4152158114605 0 0
194.271480171847 35.1827489274038 31.9785261100295 0 0
-53.6630003667166 -12.847993120564 -1.35730013475621 0 0
-209.78887602855 31.9586889146823 -19.4457618830559 0 0
-87.2760522620682 -1.26069366182811 -19.6706514695909 0 0
197.062794244157 -8.0582451218678 -28.0897877044726 0 0
-199.030994845811 -33.2063527525428 20.0165795579332 0 0
160.244464727998 26.1897878523296 8.44351944647019 0 0
-103.756934394251 -1.98272368477541 4.56047880246805 0 0
-210.480778102476 -14.2186604722434 -13.621318205128 0 0
197.4588070495 -34.4844127708881 28.4361433248186 0 0
209.365175239766 -0.932028205828836 1.98976529978248 0 0
-211.797188288614 -35.272564761488 17.1869695864839 0 0
-220.618789722508 -0.73992877070763 -1.68179825665633 0 0
-26.6508303548961 10.6349685250931 -15.7157513317821 0 0
-1.98178373211169 12.2534426535734 -16.1424637564637 0 0
-161.5948369893 -27.0129885141387 20.9732969272702 0 0
-145.490405098016 -24.9347688997384 6.55083377997193 0 0
36.29833141852 -14.3713232837041 -11.5013461743525 0 0
-233.209468056862 13.5444243844102 0.0135955502081445 0 0
212.068543077198 -32.2084285857596 0.758216914615839 0 0
193.261208131461 7.12890472389345 19.1660200000471 0 0
-230.802643893685 11.8427548294794 -4.76303205964542 0 0
-104.672540775254 -4.58373976945089 -18.4137620492438 0 0
124.182358665482 -17.0048650486777 4.77948554823087 0 0
90.4009460208038 -9.41754195117061 4.37604725200336 0 0
32.269881706262 1.60447246246491 4.20816495566776 0 0
119.408215388241 8.79061502311841 6.10811558325952 0 0
213.67798226206 32.3532623928059 5.94689546501639 0 0
-240.233450215161 32.8569249840473 9.8449093127066 0 0
209.625879431454 2.45471782958614 7.91053345279992 0 0
180.193885578617 -29.9263988618582 20.6959955609701 0 0
-34.60922356131 -4.41569678745559 -25.4582858891097 0 0
169.280520574735 29.440054275094 11.5806756076942 0 0
-220.207603298902 -16.3854820859097 25.6533120945095 0 0
-128.180227615038 -23.494326318123 6.16243162582934 0 0
130.225343877605 -12.3124379590298 -22.7550498194849 0 0
-88.6938355912997 -0.736563227958871 2.14889309964579 0 0
-208.808263387776 -35.3919574443949 16.7942268894067 0 0
-229.609024389831 -22.1979800791424 19.5864586429259 0 0
174.201790131172 31.8422916273666 -2.63612240770264 0 0
213.152601694929 -29.8003183150324 -2.05977272692407 0 0
189.015538325897 -31.0374490365396 28.0539887872742 0 0
51.768794623315 -3.279789842829 -25.451970990627 0 0
-87.3563393583256 -2.39602403721408 3.78174231608941 0 0
211.207272094812 17.3109090178698 -13.694442154556 0 0
167.540147433912 13.9096257724364 15.2648153035686 0 0
-75.1385310403152 4.92210933704567 -4.01734585979921 0 0
189.270343167179 -23.4237206284402 -24.1181041984672 0 0
-172.006988181446 -7.06548725571774 -8.80445906375598 0 0
-208.40596021931 -8.96460919763558 17.0344724690564 0 0
168.36724689868 -3.23939719544217 -27.2687017940585 0 0
-218.886655398025 -4.33963813179914 3.87602197562868 0 0
46.2382717834156 -3.05363236971039 5.6807839329821 0 0
-242.006221884468 23.9722257339116 -2.70106792934603 0 0
1.49098338764815 0.450402665704446 4.66568854900814 0 0
27.3965954681625 -3.13486969013812 6.14653309129143 0 0
110.075717311308 14.052985775658 -20.4123195591316 0 0
-225.719488081203 26.9667229732439 19.596487778649 0 0
197.497220217302 40.6013963498123 13.9619653362062 0 0
-204.568968388056 31.3481041001163 8.9206022968413 0 0
69.9208420215032 7.31864015459028 1.40305683317722 0 0
-239.000078803123 40.7898869202271 -11.7109320214527 0 0
83.938053167284 6.61122816236021 3.06547312985133 0 0
-217.449908129978 -7.40643610886816 4.56878050569506 0 0
78.6935302773893 18.5998679347546 -12.5147826584127 0 0
95.7046665782565 10.73302571883 -22.596510944154 0 0
-205.750516358575 -6.50716417149326 18.6702853570915 0 0
-220.500249272848 -8.85759591897235 2.4032607190478 0 0
180.256751736454 -19.6662383554378 23.6598697772675 0 0
138.245349325446 -7.10156729266769 -26.500137816979 0 0
194.203695203314 33.7811385725494 -5.56281244297032 0 0
-210.862752503351 -12.3011879280412 18.2446484213384 0 0
140.267518390128 23.5409505144881 -5.42569258391709 0 0
-210.205952653334 13.6022241211367 -14.8960812322225 0 0
-192.406864982689 14.1575648286683 10.8901749387994 0 0
219.324423586765 26.695231804175 2.45692893559149 0 0
203.730999991024 -20.6967633544984 -24.8940255173075 0 0
-217.936792286462 -35.1741204104619 1.18212501449726 0 0
78.9813134070052 -15.1115146318921 -4.81650625271438 0 0
165.972353530411 18.9784026842572 -17.514785269107 0 0
-163.287530841885 -0.314776656779756 25.7776293693951 0 0
-113.861830667071 -22.6737791035655 0.0259582914111662 0 0
153.793154612548 1.52357968122518 -25.9842182277157 0 0
-225.899060299441 48.2213024008993 13.6193653351872 0 0
-13.8283963413639 -11.0494414502256 -3.44270616956522 0 0
-228.239168214816 51.8735724618181 6.95883285187497 0 0
168.621998068067 -25.4774403129232 -11.1098115353495 0 0
-122.076784335101 -17.4763087396151 13.4126057161842 0 0
-218.335761459356 46.3345236589083 -19.4991395282366 0 0
112.736570721223 9.18404024408395 5.16528997528204 0 0
-71.4715710758924 -14.2448452045012 -21.804825723122 0 0
-111.063390426954 -21.9740352214142 4.03746433579633 0 0
-119.440150269635 -5.47030925525294 9.2546644239426 0 0
-190.584934794898 -29.4149636504057 -8.34288554601267 0 0
-209.129722724506 39.5568264401481 16.1024534383192 0 0
-185.549431091742 -33.8215620174031 8.99157235944708 0 0
-34.2307473319105 -12.9542312496879 -23.2016785600186 0 0
-196.882762086586 21.4245399640426 7.54209258977755 0 0
-211.947344775297 18.2041459382049 14.9736407500447 0 0
30.4081884229782 -4.7592619678189 3.78593276046593 0 0
-179.687073012433 -1.16988197798102 24.6278547423131 0 0
191.945675390015 8.82374777821821 -21.4579475384989 0 0
-117.519033324229 1.40378003806507 2.53184792786988 0 0
-131.998473991542 -23.7718620140936 -0.663386307900755 0 0
214.943101503901 -26.2388136197119 1.45841294521122 0 0
-145.910440564334 6.50409270662041 -1.21010437868845 0 0
-221.402353857836 18.8086459050697 16.2692740610255 0 0
-162.815366858499 7.47623931303002 22.018232725408 0 0
160.614135003669 26.7603069685423 -3.57618435033634 0 0
184.775418343414 16.2229834252024 30.9728318319431 0 0
-201.637700411766 4.40455938420114 14.0594936157086 0 0
-217.945873951503 21.9734477984759 18.0366952308807 0 0
209.958216895968 8.40611794991879 -9.99731638356481 0 0
-200.500321653608 -28.0186173150586 24.167883950876 0 0
149.408557771556 -23.0487516985052 -3.34821489504276 0 0
-71.6574671003 -0.803520998045493 1.82013374215477 0 0
-213.707833809538 35.0733509506568 19.3584968120352 0 0
178.921325392409 -2.69391714264267 -25.9430404674132 0 0
-180.745697340779 14.2347844041207 -2.20333331946203 0 0
137.788171882311 23.2050752934153 -7.63114642632013 0 0
164.806517489041 -27.8215991706357 -1.25632506657143 0 0
175.799609774199 -17.3994221623952 -27.3867553961304 0 0
-225.983134634178 9.38884766833257 -9.18663070897961 0 0
-189.212067120409 -3.94249391570345 -10.3959913322798 0 0
-211.648815287172 0.591039753034616 13.1900770271798 0 0
210.557617999996 -33.4530275342687 1.62535190477218 0 0
-186.678306000175 -17.1343906887134 -8.3994872510518 0 0
206.791562586318 19.0644079940505 39.5220190388304 0 0
-177.239289081023 4.68718833349645 -10.3811692214272 0 0
-202.454908635168 45.2453765791099 -3.12856356560419 0 0
-212.379216287306 -29.3502873395625 23.5972109715929 0 0
-176.695695311072 -30.5855984617655 5.52140696710041 0 0
190.22178112652 40.6018201659595 5.53419561502554 0 0
133.101657876831 9.94544290998955 7.99356758697733 0 0
-219.776506840125 -32.2892229074492 18.1432593094596 0 0
79.3386383157699 -12.0303973393263 -19.4976101746582 0 0
-223.934685756059 53.8134123582713 -6.4369013685926 0 0
-211.53034527497 49.0688930079695 -13.9675598377835 0 0
-207.256281205216 6.86443049977347 -12.7375916905457 0 0
206.390839128281 7.05697650828411 14.7347466081435 0 0
121.854359709591 19.4856057051634 -0.622049808512193 0 0
-139.619284030435 -24.145013477239 9.33741916128938 0 0
112.529107719476 -4.22497597041632 -26.2952381795713 0 0
-201.28712940784 -37.2783571291599 -4.39335413719892 0 0
-227.990653708185 36.4938367902589 19.3088490182569 0 0
-174.377357049663 -19.1266228200912 -8.30430442986127 0 0
-146.856303881725 -0.386201905159046 -11.4057174679181 0 0
-211.046322442002 -18.1530504412373 27.6177138246873 0 0
-197.419781814885 -16.3092688416916 28.9402032438423 0 0
-120.007759471638 -19.8743969350188 -12.9412292470587 0 0
-222.078648373184 53.0613323736384 -3.34994786552894 0 0
-217.56388845006 52.6895956173227 6.19859518720191 0 0
-233.024458199614 -18.7095829366034 16.033466566568 0 0
-210.850092608121 20.3780951994827 15.169434432555 0 0
214.65424636271 30.0287058610151 -1.13491211106609 0 0
182.016222380398 31.6969842548763 23.3954648616861 0 0
188.719033613558 35.4657726392071 -3.72923182564451 0 0
-223.089165999736 5.89829303971907 1.55685454068035 0 0
-8.47936574495701 -11.6548044932972 -23.4367260828737 0 0
-196.285992056936 -18.8038849087665 27.6327680078973 0 0
-182.527642164868 -27.8283512793586 21.1406106626891 0 0
-219.022311531448 -28.5271819937038 23.6051664085174 0 0
181.819102882679 -28.7475186487336 -14.2397180147173 0 0
-203.834563097415 44.3281098184712 -10.7754553474353 0 0
88.23368456208 -4.66781165766324 -25.6645256487085 0 0
-137.00652681004 -20.1060087315774 16.0599451282901 0 0
-222.382354224813 -25.8797729937177 24.8509387075246 0 0
197.34263015806 33.9809211233341 -3.85432477776035 0 0
-227.811762157706 13.6318116955402 3.35517700587125 0 0
-153.746050931927 -6.06029939100465 19.564224175645 0 0
-104.728433588084 -22.3595657553459 -3.47696682255407 0 0
171.596661065099 -23.8789041425456 -16.7144116649493 0 0
205.798817921229 -23.2732896692669 27.5418762372873 0 0
57.6296168374053 6.65519349739261 -23.9601705449086 0 0
60.9632465325943 -5.74403966394176 3.9687913678462 0 0
-230.826141607887 15.1505761326361 5.92756548918341 0 0
-232.47877728171 -20.482565507522 4.78045367275901 0 0
-23.9936531283632 -11.7735283700673 -3.7500654277828 0 0
-149.097415987812 -13.0155047955572 18.1205887312863 0 0
183.341879993271 1.76901376482599 18.7798860452859 0 0
-191.740125315302 -6.11879809812267 24.5502398343404 0 0
191.697979810097 12.2446977069046 33.7860408731137 0 0
44.9889812768053 -5.65321107880816 -24.8775956538371 0 0
129.925509191536 -7.60306927718117 7.90446665773777 0 0
216.818825102934 32.6125302465495 12.921696988189 0 0
-188.929687625608 -28.2674768193098 21.9224672559143 0 0
-197.332169687881 -14.0020976595694 -9.73038346448979 0 0
-79.8576037153247 2.36444746758754 -0.996988935981226 0 0
-182.993614322501 -10.9267137813871 25.3859610636574 0 0
44.7258114717617 -10.8538547386727 -1.91314815307095 0 0
-12.2149036830298 10.7152560242394 -10.1645502157844 0 0
-220.448933886178 -13.6749399566634 10.8913109367723 0 0
207.474886474732 -0.482907012768734 6.07457208592328 0 0
29.1572863724318 -6.23676421521588 -24.8024821407124 0 0
214.691124569262 -24.4608027141842 13.6402839650655 0 0
-153.936451787652 6.03250679788499 2.66781436647245 0 0
123.326201112473 -6.47890961952918 -25.7881384679086 0 0
181.347179802784 -17.5290828372496 -29.5669158659683 0 0
147.536999881965 20.7601423079064 5.96036051449948 0 0
-109.841427106639 -14.9225545387058 11.2354104239071 0 0
194.57370612504 8.91602814163961 20.6572673912743 0 0
92.2730607463343 6.66476184159671 3.80209541744433 0 0
197.136162262381 -1.21701809485235 -21.1778188657539 0 0
200.903658729698 24.7338489624592 -15.3998506164467 0 0
-83.9952236957435 -20.6101920396585 -14.5302235088635 0 0
66.3324020144511 10.0728186630564 -22.481653049974 0 0
-202.786449485252 41.5055074129988 -11.3179980618601 0 0
193.053543626331 -9.61889632750359 20.1077803021353 0 0
150.089424853471 10.5651156747078 10.4039515066089 0 0
70.1358616989099 -10.5288692267338 -21.4089251667891 0 0
-185.136626561118 -7.89188929946063 -8.96043792040728 0 0
-210.823638520431 -13.1631241993817 26.4216779216454 0 0
153.556596600866 25.3688191854514 -1.82264664789746 0 0
8.00893609765848 -11.5419269688633 -4.41053473920846 0 0
-228.085265666106 -26.6564744198424 7.60270859104844 0 0
100.244574493037 6.74242014635861 4.53201310510431 0 0
29.9950325023735 8.22947913136658 -3.2216379707985 0 0
11.2849172276147 -11.6236108027797 -22.3178310688247 0 0
-101.943719454508 -14.5438993375659 9.37385681570184 0 0
-228.985718846744 -9.50240114052548 17.2490521094407 0 0
-220.748284413871 -13.2836295588655 7.7716747065244 0 0
135.868580288394 8.02736492248789 -24.1030872928591 0 0
-68.8149977703258 -19.6541103175645 -16.6307023285376 0 0
-72.5696720785752 -14.8288407845134 1.48966542035546 0 0
-71.3161865900686 -13.207007705876 3.16856537707854 0 0
139.132757090904 12.1595298371995 8.74465753388106 0 0
-204.871184696057 39.6526503588417 10.3149548441373 0 0
-162.085615696221 8.5898148606935 -1.05672786020088 0 0
67.4961395460408 -2.95278287970486 5.6399796937458 0 0
144.992512512952 -21.1660209923508 -6.66885486718355 0 0
-192.553572590685 -33.0225967598067 18.3037622713941 0 0
94.0678113105258 -15.5791349685455 -1.87611742239833 0 0
-197.434613696916 -34.2834401407103 18.7412014539053 0 0
-232.33698390567 -20.9033451064269 15.8710553948557 0 0
-133.099359699593 1.69448607881795 -12.0819978026852 0 0
190.536666614546 -31.7022892257045 -10.9225922580179 0 0
202.157870613257 23.3826256258065 41.1165323645514 0 0
101.667043562942 -7.53543035363231 6.22915205729061 0 0
-191.967161984071 20.62663461306 4.31473874258241 0 0
-24.8429170626959 10.9325786560335 -13.5565272486092 0 0
-237.001629156618 36.6040113721377 13.3588865365689 0 0
16.8677071109837 12.5635851017684 -9.61843337185796 0 0
-215.24499605061 19.8781788924596 16.0587588428305 0 0
94.0815020444879 -15.6432657152831 -12.1184789398479 0 0
215.109641135869 -27.9806055639101 3.33184723731451 0 0
13.0165293020872 -10.6392891973191 -3.32826214888471 0 0
-82.7999981076471 2.63653747039383 -1.31662818024755 0 0
208.63573691904 15.1229952803254 -15.8654435782715 0 0
-196.939987610638 -24.251317031399 25.8855009487611 0 0
-45.0614041542021 -19.0388050212696 -12.7392310741976 0 0
-162.454105397405 -27.3814058132516 15.9281280910371 0 0
-221.231946194168 -10.2614841669296 -4.6140696461756 0 0
-116.79794640533 -4.48847391063109 8.45130212749489 0 0
-219.705755315403 50.7573209337255 3.46529456384227 0 0
-100.012805589673 -22.0719763693558 -10.4331355737605 0 0
-137.077739477562 -16.6097064372873 -12.1638855454632 0 0
-147.408174175989 6.51321429781221 -7.57869049604269 0 0
-201.981129292114 24.8781323875917 -11.9741804651043 0 0
-200.109271182261 -40.9905546227889 8.87039026854113 0 0
146.144719932139 20.4430440418118 -14.6259967027892 0 0
214.460604522387 -17.997501283893 1.36497189377355 0 0
173.081393467052 -31.9595962751082 2.695717462576 0 0
-92.5126733261882 6.85491244189144 -11.9473787578746 0 0
-185.034714653155 -30.6443523427268 -4.68413660048414 0 0
-122.763776022066 -11.9444207088075 -15.6582020787631 0 0
79.7495558795593 2.56310194967877 -25.8017386970409 0 0
221.49791417035 22.9697116557292 17.3695811990608 0 0
185.878366310506 39.8698938385441 19.6909642023456 0 0
120.710744202385 -16.9930143931072 -13.2989638871829 0 0
144.656951384578 -19.7327630006243 -11.6976924112187 0 0
99.3960364517777 -1.76359500319089 6.03746024837719 0 0
199.716633253631 10.7440969169156 24.1817756467583 0 0
-207.75899075094 -7.90834345486723 -14.1043426143826 0 0
-214.867356234538 53.4396088774991 -7.37717800483978 0 0
209.712811795183 -4.96399247758673 -2.98375691297435 0 0
66.8691401637368 1.10051152336652 -25.7665988584559 0 0
184.369682820658 -24.2294970543643 -22.9640453620405 0 0
-169.23189935496 5.96165796820192 26.8391282192278 0 0
-208.537575719679 11.4789010162678 13.6903680018464 0 0
-89.9832800331301 6.33012995721613 -13.3930001315777 0 0
-197.365820948014 26.6053520432727 -1.94895021910718 0 0
-221.385817296158 -6.67377469203495 -0.972090205559342 0 0
204.343039607521 9.44705194599865 25.0034950262829 0 0
180.045802173426 3.60767027913839 -21.7854532434278 0 0
3.30164835151681 -11.0449871280372 -23.3004595089985 0 0
-233.679962919313 32.2224388484273 16.7519276374395 0 0
-111.542358963305 -6.02611645308426 -17.6885592669192 0 0
221.371810867637 21.7242707387083 9.06711332027967 0 0
84.2272474390852 -6.21411534753826 5.63402191903892 0 0
-193.996522495421 -37.3257072358177 -3.29842671425138 0 0
168.633260054903 30.0407144049625 7.85244306462632 0 0
-212.126657395959 -38.9035462577672 2.7278819021629 0 0
203.859844857956 -23.7368557838916 28.7366868327952 0 0
-224.670458402884 51.8310364044687 8.601390413102 0 0
-166.752947785241 -15.7866041915949 22.7328542021541 0 0
-196.720966847811 -34.7276790788658 -7.88882883861901 0 0
-9.56350065490799 -1.22661894102903 5.2146693419975 0 0
-175.920732396737 -29.2847031763013 15.8135983756551 0 0
-221.421311940236 -21.0481930235272 -10.2336174675498 0 0
-69.664960706583 -17.614153633414 -19.3715529947372 0 0
150.130676868489 16.9259984201294 10.3608183255152 0 0
207.791135443974 -37.7609692383851 23.7077039174784 0 0
-45.1136843388281 -16.6437517776057 -8.07532729840864 0 0
43.8095641009375 0.21348108113077 -25.4625118958711 0 0
95.207088536115 13.4159575082504 1.06819940516673 0 0
-201.444076413344 -7.17015248094696 18.7423355621772 0 0
-165.302114835265 0.921208721311886 26.9198639270903 0 0
-81.887366988547 -1.77095046993992 3.00170288175867 0 0
-211.225313062369 -9.16097988930516 12.7857723768077 0 0
-142.546884198863 -24.3102544662243 10.4244385617993 0 0
185.122954687929 34.7938938021371 25.0612274921616 0 0
198.115826277156 -21.2568601371628 30.6688482671091 0 0
-211.843654220507 -26.3244792657806 -9.72247977844944 0 0
163.7112931589 -13.3729848851417 -25.6868099281827 0 0
177.148038936977 18.1745467901457 -19.9389545720559 0 0
203.508375724388 -34.8720752346512 27.3527720683287 0 0
-75.6758030494166 -11.8601449070947 6.10409710350024 0 0
-54.3704371911503 -9.58054810304067 3.26124152281565 0 0
165.242800770501 12.714776060697 -21.3445766460457 0 0
189.953257308432 38.7288253976294 0.921969431628482 0 0
58.6042408667365 16.6383646183537 -14.8260653831085 0 0
-222.224257553013 -15.1661729487147 25.7465384883273 0 0
4.97841771163678 -2.81338518031136 6.04193508065032 0 0
-57.0625819628202 -15.5506018163491 -4.29592433452103 0 0
-168.32111874331 -20.6371365623596 -8.10700944663868 0 0
207.150158050703 16.3810717757219 -17.5111908663141 0 0
26.3276466669523 -14.3102800905416 -16.7358971627634 0 0
-232.633485560434 -13.9518597252746 16.4987500602443 0 0
183.744692827596 40.3010026718334 8.00774627375152 0 0
70.030203439083 -14.7629003137347 -6.32717829713175 0 0
168.160038068493 -19.599147081163 -21.4527569057009 0 0
167.65462887586 -28.7616981852784 2.52852576517157 0 0
175.703627214709 5.89259742599675 -21.6720140375686 0 0
-232.216475785244 -9.38236837942033 20.8778163851194 0 0
199.310861982912 33.9467592255665 -3.32588290787948 0 0
-172.021356798325 11.461467226106 -2.30599898656762 0 0
174.422453852232 -20.3879654408185 -23.9375895327811 0 0
-122.763840216554 -22.4292284623173 -8.67922412179026 0 0
-126.227232442626 -22.5799464951769 -7.88968507648982 0 0
171.599327352668 -9.73770390203988 14.2396788034911 0 0
-90.7203070549648 0.166774871258327 1.3912745743402 0 0
193.271717389691 40.8378084320576 16.1600990865556 0 0
213.822495424543 -32.6964540510255 16.6263187845746 0 0
-196.246979171555 -26.0905009416083 24.5562494697204 0 0
183.834539667181 12.1279423752028 22.5172058718258 0 0
160.719667466078 -18.7625055651455 11.6706411076888 0 0
25.3263781393445 12.9990392495189 -18.069091420359 0 0
-198.850303469608 -19.6076887743537 28.0928668635531 0 0
194.74465630012 1.09697137668017 15.5349997076057 0 0
-194.834081603938 23.8914734452138 -1.06804979737306 0 0
218.844353783008 28.4517384667385 26.5822035706916 0 0
132.262553409688 -14.8332929216607 6.73761707970512 0 0
103.156784378648 -13.8806920428638 -18.2348091891719 0 0
192.162914453362 34.0328946922223 35.4151516683587 0 0
167.001316600187 29.3349452733587 4.30346826879195 0 0
95.3359085013502 1.53278136789806 -26.1484015509522 0 0
-16.9003055220558 -17.2057749973027 -15.6748697382258 0 0
-76.071685535736 -20.5644642425571 -9.5800204632067 0 0
198.591118506951 40.2029255801795 9.31440246257253 0 0
157.855812993835 -18.0707926151347 -19.0863358576435 0 0
-22.4262035614498 5.36355440014988 -3.24160417220593 0 0
-40.2759941512539 -13.7121802569286 -22.675426304286 0 0
115.580583676055 19.5207289757279 -1.95108183381894 0 0
-7.23514052562794 -8.68836217394394 -0.729991896332042 0 0
-218.581902921659 42.5978454132737 18.4058777294075 0 0
105.640607546603 21.0370353818477 -7.76510521711461 0 0
83.4146348735413 -0.262096323944566 -26.142362711428 0 0
-46.6974520170541 6.68785106509345 -5.73748300387027 0 0
175.946813807296 -25.9085157914707 17.394067846946 0 0
180.392542286035 -9.45204260177372 17.9152432505415 0 0
-204.279101074987 -37.4445686680699 14.886756391921 0 0
219.257621426184 29.132156561329 24.2110273549733 0 0
-121.361751343338 -1.76312745920597 6.80733257708499 0 0
-169.611883568377 10.519857237014 1.60607057055217 0 0
112.650732715752 19.5535340595938 -2.63986659317666 0 0
21.2983298895277 12.3407042495651 -8.59612672320602 0 0
-195.088140799436 17.6092231466241 -8.32397648297575 0 0
208.143840740067 32.1219594942666 0.627404657472009 0 0
-221.54243045619 12.45310777245 -15.0093540384938 0 0
-218.872430046323 -18.1673798962073 -11.8914175822008 0 0
139.043506193536 7.48105599607043 -24.3488064897784 0 0
-200.451827707408 42.6641964149114 0.862337822970136 0 0
211.060613626486 33.9330190322488 30.579526487025 0 0
167.404454621451 -1.03091399415108 -25.7810664381651 0 0
207.661414707052 -39.4777578293431 16.5448249998784 0 0
-224.741316381763 -26.3189723031257 22.805749751861 0 0
189.264040066476 -29.5677676112383 -14.1448664839991 0 0
174.816175589134 7.98054486460423 15.0310179830605 0 0
185.456039299578 22.4601995576738 33.736338709076 0 0
-38.7209163000899 9.77176025792892 -13.7884210799146 0 0
211.253463914501 3.26072004221006 0.626275705778817 0 0
210.488377924949 -11.8463583748436 -13.0629358449916 0 0
209.45551930953 -38.7346836815435 13.8747909719429 0 0
213.529848851794 -20.1252918468159 15.9986246499173 0 0
115.443289800248 15.2676938319726 2.46850961627484 0 0
-222.014220833061 -13.9320056368772 -7.60204132171017 0 0
-231.909417581402 12.8732648921114 -3.9314744255861 0 0
-11.2141132082348 5.46965360262735 -2.90855922113923 0 0
-64.6185879139346 -16.3434204452718 -20.7178903245915 0 0
-221.310160428669 7.10654503436113 7.05549755161932 0 0
-93.491299911085 -11.3308914892123 8.46365599372601 0 0
-215.841798114864 52.6360062197882 5.91415561944492 0 0
156.43499913377 25.5050613217135 -6.12055131098545 0 0
-87.9913091678582 -19.4780706599885 -0.433142777144696 0 0
208.805811330191 35.8530777088268 16.6726935600378 0 0
214.558004831376 -18.2436535780728 -3.68970356193335 0 0
169.448581342077 -13.9551629791353 14.35767932744 0 0
-138.054506480451 5.92168155274407 -6.38683314443436 0 0
6.04365473998754 -7.2670907119672 0.220065311835293 0 0
-208.183675312717 17.6135139913567 13.6464141872954 0 0
208.129232148282 -31.1549894808212 -3.32761274265645 0 0
213.479432810416 33.0671931661523 9.97797966232003 0 0
167.638785385855 -16.9848879158221 -24.0637602789196 0 0
156.848085414088 9.3095722579073 11.5182512116715 0 0
119.961960043792 11.1161174144365 -22.2980291683191 0 0
184.384303734915 -36.0949581897161 16.1208821357281 0 0
-207.925311509125 12.04554587536 -13.6960325892372 0 0
-40.8156799408448 0.468901356805317 1.5486179612288 0 0
-86.8248218683513 7.5158560038812 -8.74574842918807 0 0
220.875384511985 24.4591959393003 6.81214028060476 0 0
204.539363095963 3.75992114301157 -12.767003740182 0 0
-229.354576584606 15.9788509608315 8.26253422598135 0 0
128.750667530677 22.2659711783871 -4.43625258689262 0 0
-32.7533652790983 4.53693056251305 -2.70354512338788 0 0
5.67261372878602 5.83617680995059 -2.54020470801991 0 0
203.830608877737 -24.7572986806712 -19.4165201329219 0 0
174.992693688849 -13.8410865482895 -29.5601525529856 0 0
60.13043470921 7.39266478691425 -23.7146855734048 0 0
-114.076266800738 -21.9823323835426 5.61259836883596 0 0
135.635698376334 -16.0222471324959 -18.7178805051804 0 0
194.979605812867 -33.2265880605009 28.9146991037551 0 0
213.637102218026 -23.8031721944378 -6.63022881814421 0 0
-7.4575569972255 3.35396188837939 -24.2784062643084 0 0
-157.836180536265 -24.0158661404253 22.9558901685306 0 0
31.6282325670787 12.0493529469112 -6.77978518454445 0 0
-6.86448325576119 -15.7349542922715 -11.177902884829 0 0
-229.550472075338 41.0440764154741 17.1090821070341 0 0
-111.930549401562 -0.300154051899243 3.73354848933152 0 0
221.12319653576 23.448282878757 20.2145600293064 0 0
-194.470666157143 -20.6022613226499 26.751323301182 0 0
-99.3250764536616 -19.3262683040398 -15.762770358716 0 0
-213.154535212842 8.41544957283619 -13.4792151494097 0 0
117.998384479216 -9.22232502532063 -24.2202937345814 0 0
182.487913260531 34.2616005588554 22.5451427012017 0 0
151.078336287982 24.3988681978036 0.698265162175233 0 0
161.403674405833 -25.4239442269414 4.36815978893553 0 0
-63.3232053022397 4.88796262875451 -4.10245382979516 0 0
188.45248198549 -30.8529788082912 -12.3491983911023 0 0
197.636245227024 -3.49352750234968 -23.0441076186049 0 0
-121.729403058864 -3.66965429081086 8.46262656258926 0 0
218.757151864965 18.4695513428427 27.5257725647118 0 0
-49.0942780570547 -0.998569295955714 2.84703303407514 0 0
48.2630339875738 11.825244967669 -20.5124894077668 0 0
84.4683882785548 -14.8360717754987 -13.4169238635284 0 0
-42.2607651818722 -17.8518892634719 -10.4204517185192 0 0
-232.257111717404 -14.5148074452237 22.1870199293733 0 0
125.395980240057 0.958604788882947 7.76692489347828 0 0
10.4633832942829 -15.0245209816815 -12.0955377060828 0 0
-182.141637150496 11.332068444503 -8.4641133604965 0 0
76.7019762336918 0.21402408362233 -26.0214448113471 0 0
158.695315690235 -12.6925617466712 -25.2575662766373 0 0
-122.846368832168 -14.3000079410296 -15.0751349736715 0 0
-228.249909446802 51.0847772755134 8.60664834729408 0 0
-97.009078249271 0.291595223970287 -17.3433347969845 0 0
193.128433458227 -3.57836101963625 -25.9357430703758 0 0
-184.272163791745 -33.3772105565226 7.43917362318074 0 0
196.96590939127 -26.1256567969675 -18.6508430538228 0 0
-198.636650105378 -4.17613662335741 17.9072866512123 0 0
181.976364971188 -26.637055890663 -18.0699497437115 0 0
-122.258428671166 -20.5776680688689 10.3015403359865 0 0
200.640071495374 37.3504023720731 4.89758087281501 0 0
88.980173608749 -13.8895202613537 -16.4955467194158 0 0
-180.263799679324 -16.2552690183864 24.4898416077507 0 0
182.357338855155 3.83441916944294 18.3712631255085 0 0
207.990637294691 16.1909548809741 38.2089858894825 0 0
206.113960547089 31.0801825636159 -3.48855842637216 0 0
125.881279879957 21.6921015570079 -3.54027052801798 0 0
210.816654274861 30.8566685227572 -1.38447801716256 0 0
-162.843419062282 -19.5679532593615 -8.59106271078089 0 0
-209.203841745337 6.85617144401879 -13.6291520311843 0 0
-208.133104018079 48.6915473285183 -11.3253000157622 0 0
-131.617190053489 -16.9526291333459 14.3441292999469 0 0
211.186555428951 -11.8854143368181 6.66938226126918 0 0
167.073020261233 20.3161617398799 15.8601151695548 0 0
-186.614735039775 -34.2621187945207 4.63596377052695 0 0
208.266598309898 -38.9263033368396 21.8206766077842 0 0
201.720995615964 -35.9663974863559 -1.31786565959866 0 0
173.905748043408 30.6243207411122 14.3587379211702 0 0
214.225578165518 33.6393468008994 23.0959442365022 0 0
-225.31680193302 -13.8295323610821 10.7673156576735 0 0
209.897925316002 -6.21980310306089 2.63368717284888 0 0
26.5083083496181 8.07747930803432 -22.6322245637934 0 0
53.4453922605959 13.944473154022 -7.18112250928866 0 0
-201.030102475618 -31.2614632274258 22.1985664107738 0 0
26.9237090848715 -14.4292636786347 -10.7989207742693 0 0
-151.460381850132 -25.6859428868468 8.99523563893408 0 0
-87.3559351186415 -20.2614565508252 -15.3263981550801 0 0
88.3802151363091 15.1546537375698 -19.1761402405678 0 0
-40.4358432805466 5.98451978656722 -4.96697124841338 0 0
-215.418164466684 -35.2119619452408 4.38399435664416 0 0
80.0148371661367 -3.83873510772703 5.89903872654975 0 0
-240.95240000823 23.0501068900195 3.19383585057815 0 0
-68.5110790609286 -12.7755864732283 2.86342830708776 0 0
184.126634387294 -27.4927190055312 -16.3762559147957 0 0
209.00691138678 36.0869112891763 13.312582468761 0 0
133.257263056436 15.125598315435 5.77663604418767 0 0
110.51204747117 -16.170598705855 0.816419378753797 0 0
-173.4802347825 -12.8106750166777 24.242441397995 0 0
213.537762596313 -34.9395004637726 7.021603790016 0 0
201.178093427753 26.0115292129266 -13.9322587404578 0 0
-186.042863201155 -31.1729831668433 19.2479136681681 0 0
-199.909139161539 18.622618537199 -11.1645992761752 0 0
95.4204269545053 -7.57641230873913 5.80175796410398 0 0
125.963986622639 -18.9620065810219 -3.87598972439582 0 0
173.483943342633 9.18486372996825 -21.4812411007583 0 0
202.111706280926 -34.299650190553 -3.21368025328275 0 0
206.372970388159 -5.61116468840507 11.1317908804477 0 0
-53.5800648262557 8.90526995426172 -10.6871206456902 0 0
72.8902891492785 1.20333949885166 4.59464285528703 0 0
-162.867186013927 8.40180389885409 1.05125829411193 0 0
205.775303946901 -39.4975971864547 22.8649325058322 0 0
195.898759264113 -37.509408859662 -0.899517187437588 0 0
87.5684703699998 -15.211364920704 -2.58059823550713 0 0
