"x" "y" "z" "f" "a"
157.657732072915 3.09849707845857 -16.6530132391345 0 0
-83.1383912656438 -2.12021882916052 -0.0155739540216895 0 0
-57.0840438272337 19.8621280342109 -15.9452569502582 0 0
204.033493520681 -30.4064015223583 0.386315237906363 0 0
-175.67692315145 28.4487975770054 17.0042853474595 0 0
203.154387936991 -18.3293806624117 -10.3398979088774 0 0
56.2684995695403 -6.06817722892096 -7.71196728543247 0 0
-75.2984508518825 -1.057832532439 0.376729114245325 0 0
27.1206375682605 2.01976660459496 0.970454739795611 0 0
-172.459980033103 28.3584736191824 -0.746745534372248 0 0
180.344883283319 -8.04900697252425 -20.5381806859537 0 0
-179.204252667351 4.10916566247896 20.8882092261698 0 0
-132.280394688822 8.61272934654853 -8.44384641682141 0 0
-52.8927309406126 22.5340508095407 -13.6890879718121 0 0
172.659797439382 -38.4686557034517 10.6228455396453 0 0
-31.3921173276358 18.8638834489105 -6.58701969683484 0 0
190.673156559915 -38.7153277197269 7.86748533094659 0 0
200.622054751598 14.880664678125 -2.4808345344139 0 0
117.368882858994 -10.9410753404393 -6.90895826766323 0 0
-56.0766206827453 -1.64767514299459 -15.174653600713 0 0
-106.6484106972 18.1402717585395 7.21836572232501 0 0
56.6779656652002 -7.50583775548453 -15.6081568155239 0 0
10.8968729511827 -5.41758305517003 -17.6266314207925 0 0
190.634885548424 29.1064986969288 16.3784802747292 0 0
6.13180609981178 6.33836371550267 -1.38735216316154 0 0
-163.122617759437 -1.74875576365247 -6.96819798113734 0 0
-168.037875357553 12.6558703776447 27.3239551008841 0 0
-6.5872080896857 19.1648694600764 -9.39593463264336 0 0
-170.066978540682 -16.4320137277429 -7.31047496005917 0 0
-182.932926977697 -46.2429175832066 -11.143790702214 0 0
183.980869268902 -5.43186787401428 13.2197509404341 0 0
-35.7514488276906 -4.52216644722814 -11.2879630081246 0 0
-24.5490099768944 21.0234545730178 -17.1951252869561 0 0
165.114902828155 10.3109489608465 -16.5155876455208 0 0
161.349035076118 -21.4016427881347 7.25051119507863 0 0
-159.206330920052 -4.2648374124007 -7.3478695270305 0 0
-93.2893387483008 23.7650685743394 -1.27808810409368 0 0
20.6656014924631 16.6239197108568 -9.51832303046948 0 0
-188.718536673652 -1.21232744797434 3.5050877042854 0 0
-184.636603816333 26.1712143956439 15.4119346404412 0 0
-156.618768260587 -6.13679921575516 -6.90199894335841 0 0
-176.29769042167 2.69955010412302 16.0929120944737 0 0
-167.460360136356 -1.19034985684897 20.6976599557964 0 0
50.9121747836325 -3.48206320020056 -21.2679876736348 0 0
71.2791139489106 10.7903417653929 -3.04153082310255 0 0
-165.339028186292 14.1558176086114 -5.54017446897136 0 0
-80.1900286663395 -4.46423683687572 -5.83692403156689 0 0
33.3243441200681 19.6895812157916 -17.121048290958 0 0
-198.769747742598 6.29528437094142 21.6916839802086 0 0
-196.066597179385 -12.0499125563533 1.84065452030949 0 0
1.68961724515296 -2.04355578224076 -21.1126461592708 0 0
-167.331438140265 32.7608357233685 6.99902591862661 0 0
-187.393936008209 -32.3840998861651 16.9638219551811 0 0
196.769036976653 24.2092899935485 -6.45632796623403 0 0
-179.690762067657 25.44804112048 20.4995287765838 0 0
75.7270094099462 10.7791702142624 -2.68224587661369 0 0
-194.131985089393 -11.1565731844064 2.81303298016235 0 0
-130.94497397702 20.3578051146338 8.05989407891407 0 0
-55.5465281343458 9.35896874416555 3.27451467365205 0 0
-83.7574628908189 19.9613774681748 -12.0977139924797 0 0
35.2244971226614 15.0290953441583 -8.15956284444383 0 0
167.848383483093 -5.03456428539678 10.2128448897767 0 0
161.546992205134 -23.2933594816673 5.83306447247573 0 0
176.779939559894 26.8800388556331 26.9292116202949 0 0
206.555085352621 -21.4812138166843 13.0596881505638 0 0
40.5514702844474 18.1596197187527 -11.9636206608295 0 0
184.540962356987 29.430282345464 21.9208310380975 0 0
-187.368079936251 -49.9673112912941 -5.37597000866735 0 0
150.631277884546 -5.58101476562334 -17.518547367205 0 0
-196.58133493695 -15.9463744597032 8.24869391271842 0 0
-183.67490474539 -49.3271278164408 -1.89473208874162 0 0
179.497900064082 -37.3398747510035 19.7242452801557 0 0
-186.970515845408 21.9127119359456 -2.71205380558473 0 0
165.099798868573 21.2790704008458 -8.11356675036156 0 0
-22.2349187873204 -4.63524124239844 -15.0097177009093 0 0
13.1521862113288 -5.11452212003718 -18.2644005731341 0 0
49.4814127284177 7.31644488300633 -1.86138008199633 0 0
-180.306415079402 5.78337491070102 26.2445940078288 0 0
-186.312406325447 -50.192936014906 -3.61783353924945 0 0
199.630317506531 -8.93902971875891 9.39688629274088 0 0
191.879005697346 30.1517654880174 11.9265948553435 0 0
-21.7409288133029 1.24588844882423 1.56728552661285 0 0
195.355073647207 -13.8688301465175 23.3605036218709 0 0
177.26464657209 -8.21534109626526 15.851821478435 0 0
97.2931355530762 -2.59494672831267 -20.7963711412383 0 0
-187.747987915752 17.7896577094893 26.0371173395352 0 0
-209.26249710755 -26.7076650347065 3.48702493119895 0 0
-191.310334075041 5.60927142972764 16.1176786731888 0 0
-161.778908340926 26.9213717420795 10.6236985538103 0 0
-185.427429848722 -20.1595733873432 -19.5165649265585 0 0
-194.933048315957 -15.912363169814 -16.2287363754435 0 0
16.6958335019979 15.4390466813777 -8.22482977571554 0 0
37.5285056071738 12.7188688389275 -6.08419030782978 0 0
-205.180562762722 -15.2618232137173 -4.37303833942708 0 0
-198.586706383413 -41.9672307753248 -15.8276869785376 0 0
178.872855468541 -8.09960143476861 -20.071924435122 0 0
-82.880060947842 6.71656380121065 -17.1569820102739 0 0
135.661885413269 5.49200455869848 5.76236939221772 0 0
174.551966784915 -29.614423376646 18.2155846783282 0 0
124.189068043706 8.8188372005361 -20.3958203566372 0 0
180.703179253669 24.6583142725156 32.1445192919739 0 0
-96.193482412455 -2.67592367299018 -9.87518067838046 0 0
114.613199602524 -11.2820102822398 -10.8907083113587 0 0
31.2717773421967 11.2516128410953 -5.10952037417418 0 0
-139.794694446631 11.2130951539891 17.1988443773892 0 0
200.135794544652 12.2076549277002 -1.83745519318585 0 0
180.979406042203 11.7709531815179 -18.8942484643107 0 0
-165.266677337417 12.0900051724721 -6.61045354151295 0 0
136.672704707178 -13.5404171776465 -2.49584441002278 0 0
-59.5230817283624 9.12156919260771 -20.1952340298159 0 0
71.4077486700278 11.3657935152663 -22.4789179011359 0 0
-28.4350868667762 11.0851793352497 -22.4358664030608 0 0
-206.420150748884 -37.4592649723093 -11.3010929567861 0 0
192.65394908654 -19.5566958263658 -16.6220889361449 0 0
-71.4773816316505 16.0741409486787 1.28220978289495 0 0
-190.577876296219 -48.6519293159507 5.57116731852587 0 0
196.313746101222 -16.3400246376978 -17.1697250189278 0 0
-181.046616933099 27.4407287539447 2.0707804906147 0 0
113.324896125503 10.3077630163092 2.78592301652319 0 0
-198.660653844237 10.9833800778239 13.2037490324483 0 0
161.034209110989 -5.7783701213925 -17.4412891815086 0 0
-125.470702622478 14.3357141291494 13.2673906803932 0 0
96.9287113501625 -4.12251486985045 -1.83522802090176 0 0
-63.7492832353039 12.6962236147403 -18.953307494467 0 0
61.470940713056 0.548049823390762 -22.923262361334 0 0
188.485474617784 -29.0477056074923 31.6768054939905 0 0
177.955337767993 27.0583634263852 -2.90842540811142 0 0
-147.717823718056 -4.26331704870737 23.1120023876791 0 0
-169.423032659701 30.056916922639 0.106047437368346 0 0
-11.5462014020966 -5.1295040976705 -10.7142657448732 0 0
-176.904720687887 -36.9345046158928 7.24656685018911 0 0
-132.397331000784 -5.79338886549088 -3.43825384983616 0 0
-173.813983597046 -41.9427748738294 -2.10618563178162 0 0
8.99585681890876 9.55955991868946 -3.955935596585 0 0
104.978756160832 11.7151277751014 -20.4407288899281 0 0
-187.178245827624 9.05205874650053 16.0371544825114 0 0
173.474424488817 26.0032193209815 25.1387839986292 0 0
-17.1756847458264 -1.85961170926333 -19.9315697850101 0 0
-96.0442560121533 24.0060994997934 -2.85906838894907 0 0
168.166267789707 20.5255255287878 20.4776112644365 0 0
-162.516027163206 24.9860544235234 14.5551838897228 0 0
-107.268009355875 19.28666944916 -8.14617023993678 0 0
197.538375732974 4.93777400185659 12.146086701741 0 0
-190.042855397979 -9.58794500929771 -7.76921074457427 0 0
-192.683793129337 -19.7023815838803 13.8265402664022 0 0
158.893192898763 -21.852667085471 -3.98476326859058 0 0
-29.2939889010257 18.3204573585114 -6.4409807958456 0 0
198.124479699209 10.5611853699078 24.2313856966454 0 0
-151.717750883348 -2.1913115847208 -7.87400569825724 0 0
-197.23419271415 -12.9341008525636 -3.04470994042133 0 0
167.892019445206 15.1781662710746 20.6555504743002 0 0
-185.114378754426 1.44968404852537 7.3538822744337 0 0
-183.541752927346 22.0290440744435 -3.29419232814766 0 0
-177.154918856253 -3.68711535340638 12.5461613935502 0 0
-193.07774557271 -42.8769021680686 -17.1084494467676 0 0
-80.5555205811085 10.4593320432601 6.9118677128037 0 0
-140.244310429937 -11.342067455846 13.0186519985678 0 0
-182.335487459538 -0.850666641427385 11.0673145774531 0 0
189.002350277443 10.1165387302584 -15.3644663071742 0 0
81.6153511591346 3.88130040455543 1.47602479514895 0 0
176.611732814291 -31.2472963459095 -6.30549032132835 0 0
-70.8293689257859 18.2205481474625 -0.281585076212655 0 0
-183.798381192259 8.07779643610408 19.3600009653749 0 0
196.145973380758 26.920545899244 5.29033056463762 0 0
-132.659001295515 14.6495923305778 15.6703845222526 0 0
188.948319980077 -6.87514839627854 9.45675542673773 0 0
-150.161602370748 -16.8509999135011 11.9101797842504 0 0
117.545265330414 11.9592877586655 -19.4665777869186 0 0
38.5723543672377 10.0203633024536 -3.99004804741307 0 0
203.074868680238 21.1393896878285 17.5302742420889 0 0
-173.52664109567 -39.2935169448477 -8.90986815537057 0 0
169.901534501339 -9.79324797046688 -18.0091932118884 0 0
196.220178944488 16.0570182429677 -11.2074847989984 0 0
5.43070280251481 3.14224385141533 -23.9379535187194 0 0
54.3032928350033 18.4584149554594 -14.8822291793374 0 0
-73.192592208611 3.10521561498681 5.68575519282395 0 0
-176.575864078559 -43.6347299304491 -6.63935036559682 0 0
-176.419581497542 -6.82447007920953 11.9266297299354 0 0
202.96686972869 -31.3342999131034 2.15075705056865 0 0
180.096022749474 -5.72051186396688 15.3723100459551 0 0
-190.615292589851 -12.0832310080615 8.68275162311566 0 0
-178.730089627772 -43.1020804775082 7.3278772190986 0 0
-183.273696009723 -2.32278258470106 10.4877041188842 0 0
194.216820561232 -33.5955029053249 29.0259989411412 0 0
170.882236886366 13.8126176405559 28.5824385749441 0 0
155.361082626065 9.40204501095972 11.8534788042921 0 0
-72.7082962669518 22.34708683113 -11.5647545553487 0 0
100.022164641629 9.1709271027097 -21.8132733888625 0 0
-164.740046924119 8.96609983204489 27.0713181109763 0 0
144.697666628872 16.1759801478042 5.46537443025066 0 0
-124.430222512741 0.355124543416057 12.197727280942 0 0
175.506537710087 31.4363886758314 18.3673299382217 0 0
-169.244833485305 -5.04018970156587 -7.06382120795297 0 0
-174.08454673491 28.0801507676024 0.0850279447763489 0 0
-191.992305421466 -14.7158843751282 -14.6832906420003 0 0
-205.694198708451 -32.4817521323751 9.99347891119137 0 0
188.586337203927 29.710818552163 3.85303527521106 0 0
-166.833739735057 9.01024090902302 27.9850047327354 0 0
-53.7757630755534 3.5886913594663 -20.2596540365357 0 0
59.4293928767628 18.2911907387986 -16.9780408310442 0 0
-176.467349349156 13.7233008082822 -10.4668279140859 0 0
201.618223036435 -10.6185622424185 7.79261652600143 0 0
-178.311373421446 14.0477093513269 -11.2462533895517 0 0
-185.72502964684 9.01183075554277 17.3516061399438 0 0
-193.532359815203 24.7051167043567 7.59116072786223 0 0
-197.168679162506 9.69612406791797 24.2739147177013 0 0
-157.957234725056 15.440180087206 21.3883859199397 0 0
-80.9274923333761 4.21428802498161 5.80449858713341 0 0
-30.9520458949797 5.82049275585082 1.84412549506539 0 0
-176.519467822499 15.9930464706495 -7.24302736441944 0 0
204.686328785616 -15.5555409480359 -3.09549415012828 0 0
-75.4854168798256 20.0068204494007 -0.538757661726807 0 0
-192.901134877315 -7.80521443382112 -1.17626817786035 0 0
135.31219280072 10.0583729458034 -19.1810907637156 0 0
-183.959543765387 -38.9377230463437 -18.7058570877724 0 0
181.419118757782 -12.1719859554645 16.5191146934497 0 0
-145.685128379662 -14.7381249043892 11.4946564031248 0 0
-160.008476446739 19.0761531202961 20.6648442833741 0 0
1.71405622576971 11.2003130814218 -23.5185256242133 0 0
171.75979416517 26.1025598967933 22.0845954535486 0 0
193.005997713974 -38.1493617991112 11.3337333576337 0 0
-184.481759245956 -6.28362188797002 -8.54761877920801 0 0
-10.1170203279754 11.6777657177529 -23.1758810580464 0 0
86.164158183488 3.81269210926738 1.99853470687795 0 0
35.2006983268698 -0.949497595116983 -1.34077483747306 0 0
-193.516503911127 10.9962667245786 1.11650181674859 0 0
179.594369085996 18.8973473794816 34.6799347576608 0 0
186.187670227873 28.4793287943562 23.8224874325678 0 0
84.6750590303893 -7.15779162826371 -18.0161521433896 0 0
-182.001699903229 -9.58132360192803 -12.2473753977271 0 0
169.438918114642 -34.4622176537444 11.6849478248938 0 0
30.0962613248642 3.56084063395292 -24.0941624492812 0 0
-126.293781980076 -5.0303618405328 4.66392467387692 0 0
166.182774354864 -0.295411541001751 -16.162397506667 0 0
201.642466909037 -34.1280041903071 11.427892527068 0 0
189.419426358646 -10.8391906631987 -21.7668662731012 0 0
197.715533909846 -36.2499183443647 15.3510194578974 0 0
-188.103993482828 2.39058322926293 4.62842882330932 0 0
158.675169719146 -17.1706259961205 -10.4301639522254 0 0
199.679654462283 7.32792569160603 5.53134267544905 0 0
205.913631831065 -19.774166637445 14.0572212406772 0 0
42.3847566241177 10.7241382292683 -4.33007998734955 0 0
192.358133718292 17.7832692233608 33.8282902255241 0 0
-172.973850887856 -36.6516038246603 -2.00579376446989 0 0
-67.548051146653 19.8249115670021 -14.758748173739 0 0
-138.576915524168 -2.79541993854081 -7.27148921781863 0 0
-189.046767642738 3.46487312312743 3.68392559083983 0 0
-153.182231230166 -14.2909660636682 20.6016066954177 0 0
192.764500306668 -1.60912120976599 -11.8253355431587 0 0
155.07959758774 16.9102296816445 11.2175444029289 0 0
-118.758428635521 15.5311353209453 -8.76152171147865 0 0
-147.514499786196 -4.29989017733605 -7.48267831537469 0 0
172.073050742503 26.6639655134361 5.88026108012099 0 0
170.002818847186 -15.9541594066196 11.6078514667745 0 0
-162.247783320338 12.3697611164227 -5.78925275447067 0 0
-95.3949435433001 15.7795013497024 -12.9615242397828 0 0
-117.423867747641 19.5939582883339 7.5991391333821 0 0
-19.5376245829608 0.801886359064801 1.26343218809537 0 0
-168.566472269222 9.67957269070379 28.3828183043445 0 0
-148.073037952519 16.7677252649318 -4.59076009442455 0 0
-146.903951985171 11.8771853286141 18.9936452956741 0 0
201.600234914829 -12.274165178617 -9.60234230505587 0 0
164.121159504342 10.9921941912994 15.7468532793941 0 0
178.328796179061 23.7091512840169 32.8071379511815 0 0
-24.5942745659092 -1.85097238615448 -4.59251616920626 0 0
-37.0182566860245 -2.44980323513246 -5.20940643541029 0 0
-141.34496577697 16.8991569680152 -5.35869473942598 0 0
-140.515839295273 12.7102072025353 -6.59393373943978 0 0
-101.364551688202 19.1170141297459 -9.47394340107667 0 0
195.582425868823 -3.7377801431965 -10.7868207194299 0 0
42.3307606231074 -0.910022463360965 -1.13230482767251 0 0
173.386758186036 27.82858416795 6.87661267474685 0 0
197.413742053685 -3.46501627219395 7.56208881480432 0 0
163.224364717452 8.17831332347668 13.671026820444 0 0
-159.116960106323 21.5294252787439 16.3660797788868 0 0
191.949733208186 -14.043673628709 -19.6819997048327 0 0
119.494123793544 13.8486835252302 -17.5093308398399 0 0
-197.186627143796 -12.7015580124177 -0.261720561568156 0 0
189.221384063222 -37.6428222234901 17.7426831755642 0 0
-194.802603396021 -16.0048379222216 9.77431180702275 0 0
170.021866113561 -8.52271165321723 11.1784910415437 0 0
43.9764715137518 -6.78118397024119 -17.220219791429 0 0
169.267100437335 24.1836061727569 3.87962867917102 0 0
-203.761469108774 -13.8654621450139 -4.81796352847296 0 0
-4.49540082682 10.7021080179602 -23.561124848418 0 0
168.345988859229 -33.5268251823215 9.17669417119067 0 0
191.994775706498 -38.3353002891936 4.10120323461606 0 0
161.557547963693 9.98786643315738 -16.4999380099117 0 0
-200.054938225108 -15.4951947972234 -13.4188202971696 0 0
99.8630235816049 -2.56919297886214 -20.7332741528101 0 0
194.060732764773 2.10097075094583 -8.38995047371927 0 0
21.1951125528555 -5.65553019153464 -10.1114951703555 0 0
20.7101476723223 10.4512472855535 -23.8289730498868 0 0
178.528057544816 23.7902698568763 -16.2396167454398 0 0
-199.003990591425 12.9992506744655 14.3266416001131 0 0
-159.111990461425 26.0583287855916 1.86312131912266 0 0
-209.924841164491 -30.6206989743305 -5.66727181149515 0 0
-2.76602056489111 14.9655219806243 -6.91086766735845 0 0
-72.3890822571527 15.1392818128463 2.21810773115411 0 0
-88.5715403356018 -4.60819318560486 -4.66330539099002 0 0
201.166850973764 11.6236032945929 11.53087915643 0 0
-195.3760104316 3.58551166098025 18.6085949840018 0 0
-182.34361110183 19.1667454813099 -6.30359298564379 0 0
-173.152960949603 14.1542503697156 -7.47049035465597 0 0
29.423926613379 -6.51791613103337 -12.1340775666429 0 0
203.270249365756 -33.5513728908153 20.0847132872775 0 0
39.5903234826266 -4.74843814221592 -6.86757885670916 0 0
96.4668892460068 -6.91560497476075 -18.0868270268083 0 0
117.679166993096 8.59903817624606 4.66187028052356 0 0
191.899526203445 -28.3281036295576 -10.3656403171282 0 0
-152.21391736135 -17.0791597767867 12.8485101196153 0 0
-192.67059300713 14.7360397216669 26.4876736083168 0 0
-163.421027394116 22.674954671066 21.4988308602784 0 0
29.4536008052517 -3.37439570681616 -5.22932659279378 0 0
-190.794460754423 -12.4889405108698 9.96396051197003 0 0
-2.14206792061601 21.8017698116267 -14.4404088864892 0 0
-22.9991262208646 22.0453746494732 -15.7078514720205 0 0
-161.281614668403 -1.00226423118401 -7.33139954410396 0 0
-20.6197274197732 5.03418642468583 -23.2865646237764 0 0
98.9964211970583 -5.03727432732411 -2.35935566286 0 0
-4.24095869664616 -3.50136216437037 -6.62404674896034 0 0
193.50200086209 20.1709449666084 -14.4506103860266 0 0
51.7077028984974 2.64495481410665 -23.6826878554539 0 0
-195.783464870438 9.01862132775721 11.9899696698861 0 0
78.8813365133584 -8.92634100384579 -12.6263009685038 0 0
160.922149506458 19.8093285001767 12.8551309450051 0 0
20.7020096346529 -0.922595865098754 0.105089368177363 0 0
204.710885375006 -16.9140335926224 -4.52258255746983 0 0
202.390917119945 21.4107766619177 21.9863439906329 0 0
-161.66797586368 -1.78018988463194 21.0183633869346 0 0
162.877005713013 19.7941426257369 -11.4880576265742 0 0
201.724460536968 13.4910759955418 4.2358039424841 0 0
-105.041508672696 5.91058709934585 -13.4684418203264 0 0
-180.695214238745 6.55130542769528 20.2313048670763 0 0
174.998369622115 31.9127087791778 12.8300342892773 0 0
-179.172850362041 20.2251614985781 24.5352702346219 0 0
156.307581492948 18.9657380649341 -1.23183719247948 0 0
38.0145283204295 2.0545828073103 1.02888217728983 0 0
58.1868563028936 -0.900004219686556 -1.00500620265826 0 0
-195.266917421943 18.6880017800938 0.516527330204125 0 0
-121.911517015526 -3.46014580802714 -6.99472738468581 0 0
192.672503117907 10.1824936102635 30.7657889135147 0 0
-141.125710464266 -7.38366461853716 0.14949861994969 0 0
181.269289788356 5.22679122871301 27.7361987142582 0 0
-193.301864777716 -25.9282734291089 -21.6115058216389 0 0
-117.756419324225 13.9151816033211 11.6997347035276 0 0
66.410868055433 17.0635273025218 -18.1584567364342 0 0
184.875707037281 26.8224169552963 28.3076147961951 0 0
-165.958162788176 28.2575290035092 14.9541657260089 0 0
158.272869293611 15.2518536342515 -15.5012029335191 0 0
-148.208119175102 -11.0186626106511 7.77194884800774 0 0
-172.711691291738 -27.0056256409461 -2.6127862843266 0 0
-184.735631455988 23.471897663148 -1.23261479471351 0 0
-148.417872266879 2.85270466746042 -6.8957001704069 0 0
27.9185609400369 19.349691988434 -12.6906503367731 0 0
165.520583874545 -9.06028179508016 9.11261417167097 0 0
-35.4367240407037 -4.51859717128462 -13.2312942923767 0 0
-190.135684629442 7.23395187862713 -0.891879895572284 0 0
-160.803750372732 18.2450502706521 -3.97681838449123 0 0
146.107937153238 16.6645918946619 -11.4943405443402 0 0
-117.943177542978 -6.2638883152713 -0.831971628969026 0 0
-77.7802253808346 20.4589394003824 -12.6801159433356 0 0
28.4898360758957 -6.49529716481179 -16.905513749473 0 0
196.000018673905 -34.0098482389817 1.06606102624574 0 0
180.936352457472 4.10753713479289 23.1419710752163 0 0
142.08084011795 -15.7762992548361 -5.90827475458586 0 0
185.229224430273 27.6554138450469 26.1245548102316 0 0
-148.215680690919 -17.3605110030384 14.1116272860904 0 0
163.057114193071 21.221108325018 12.2592680123846 0 0
-77.5379396826743 22.6114546070656 -10.2711034647598 0 0
18.7721669758889 16.8320355677985 -20.9797240693572 0 0
-189.888043041707 0.212882809613829 -1.54828918959098 0 0
161.255046215519 8.48722648216536 13.200444781967 0 0
-148.595973087221 22.7845464024145 6.99117455283927 0 0
155.188100469576 15.390149809988 13.0515025863359 0 0
-104.352458814068 -1.77641133916555 4.87069709899683 0 0
-160.110303124666 -13.4221106659025 7.24602464649593 0 0
168.592003224038 22.5407510520836 -8.9750275006078 0 0
166.459748792477 23.0686353059994 9.4035231381444 0 0
-209.632122551902 -26.1003013586771 -5.61081493563165 0 0
171.171021709749 11.9738967781646 27.7904745069029 0 0
-195.582253461518 -10.2242482214774 -7.76103540639592 0 0
-166.867071885004 22.3043764096392 23.2327456305276 0 0
192.51782403256 18.0013561580904 -15.3190069524183 0 0
194.882099024728 27.9267558592166 16.2372075544736 0 0
-205.405086610921 -43.1341457155634 -5.37680759384206 0 0
-172.708297980103 1.20385536875357 19.3895572166551 0 0
-40.4299916396476 12.8826876552335 -1.88305409673092 0 0
-62.0760039400342 11.8140526847448 -19.4090507109704 0 0
6.3458116445054 -2.94760459893434 -5.64005216594545 0 0
-185.277268137164 -4.82826556375567 9.14140270462681 0 0
-127.484624992593 19.1160127173608 9.40769525459651 0 0
-136.980681010977 -2.08196265411057 17.5319528818105 0 0
198.842200205399 5.61467927320572 1.53179551871639 0 0
-17.6476242260263 22.4276736256225 -13.6723770124822 0 0
203.336780619024 -19.2826025870474 20.2827627841638 0 0
-188.838211685053 -47.2334101493515 7.32704155969764 0 0
125.538862420412 1.78897827635629 3.39900964831796 0 0
-142.008300545371 -9.02648263034503 7.98214078176188 0 0
205.537522875827 -26.0690770532981 18.4041935459497 0 0
-9.75317799849258 -5.39630147550158 -11.8621227586299 0 0
170.015631805156 -26.8064469422801 -6.4028549267886 0 0
201.777016590512 16.8829936743593 20.5417950713593 0 0
193.681958339423 12.5390644147098 -12.9289779506446 0 0
96.7792712975862 -0.273665140166128 -21.7224425434724 0 0
-104.251744615858 21.618914151159 3.62451348160599 0 0
-182.93912340946 11.0675138659297 27.7845937200911 0 0
-127.401443754396 12.2357255960187 15.1223857356953 0 0
131.567205210136 -7.89102717722796 -16.6924776007679 0 0
49.488361585467 -6.65359640263093 -17.8355228154941 0 0
-104.996898500756 -4.88899290571142 -2.3548242534306 0 0
-105.245550056776 3.28154796544717 -12.7833720571191 0 0
157.14694312334 -21.5997130941569 -2.32766707035961 0 0
180.177943104081 28.0849893078991 -1.20840341571901 0 0
-174.442004701972 -14.5955627417957 -10.3582517774072 0 0
183.060121618629 -33.6351834485509 -4.94755596261932 0 0
-163.396922849964 -13.2108565477923 8.22328265724085 0 0
106.315428071371 5.62712598898355 -21.934580254295 0 0
-100.423824360407 20.9275450536054 4.15728885359084 0 0
94.9853685065931 -9.64550195564506 -12.8170543526283 0 0
-122.106849370332 -4.95801134758226 -4.41291180586413 0 0
169.274534287056 21.2581554263502 22.3328237132177 0 0
187.117932598121 -38.5473692464132 12.0316710632564 0 0
-11.7240568475021 21.2403006341922 -17.5848353159598 0 0
199.061943655738 11.8462151848326 23.9744288768332 0 0
192.719075134852 -35.4577013130958 0.709835687173163 0 0
19.067255951204 5.38151673493946 -24.2995449928514 0 0
174.31395175087 24.6360474623906 -9.55635691760608 0 0
205.117641533684 -15.4276873618645 -1.15106744305881 0 0
-169.278153810964 33.1546963808194 9.31060365133969 0 2
157.540365134681 5.50135587654415 10.1687512098583 0 0
-178.264993577276 -6.90998607680748 -9.31156832400458 0 0
33.5148527016095 8.30333383223706 -2.97791542104093 0 0
200.583141666642 -34.0105059708088 9.89384429718396 0 0
150.604529172011 17.7214410245322 1.11034510523033 0 0
-177.014911719603 2.7050383839201 23.7564133834879 0 0
201.538492374121 17.2416503679176 22.265967180097 0 0
-150.364078722343 -11.2366631762689 4.596920493665 0 0
-125.34373704292 19.2204629878669 8.92227172206682 0 0
-151.554665512937 6.48692912301135 -6.02771053757802 0 0
-131.147711595299 -2.06200640900908 -7.78372340161199 0 0
-115.347134070078 20.822322808924 6.09963467278949 0 0
28.3643811220288 9.36599650490393 -24.0556309752532 0 0
161.556193067802 -1.10800491897641 8.54543070153243 0 0
-11.7700325399003 -2.99487902471016 -6.15424304398403 0 0
-112.137197625378 21.829869279805 4.66891642142273 0 0
178.561305163573 -3.49986027446236 16.078154036959 0 0
-135.12986895922 21.5178835662207 5.61335567643963 0 0
44.1191639012572 17.176056294454 -10.9877775470328 0 0
-131.082820928704 19.1167798787029 9.91756221288378 0 0
-120.507968934568 4.24877544957808 -10.7920448865465 0 0
183.308627658822 -33.0472717504941 -6.23396708222098 0 0
190.208037556614 -36.2049038030203 -0.01697271483828 0 0
-184.969317388408 -6.59209522981273 10.5065285924686 0 0
1.77211492660025 -5.00793562408294 -9.77086839913635 0 0
-17.332323417965 1.54941876921907 1.47132472262832 0 0
-29.2971629055052 0.654591152200344 0.69008055607519 0 0
-184.375635482945 8.88275895337521 27.4536022174149 0 0
146.584434960012 -17.4128949079155 -3.02813847036459 0 0
25.5423173308172 -1.27770265539972 -1.71796754601179 0 0
-34.0460205620662 -1.7120255241354 -4.06450278311973 0 0
189.784412118191 -32.9825554630754 -4.39946172083776 0 0
79.0995646872112 -7.52987106529393 -7.45756164882047 0 0
-165.698300367129 2.41245017951171 27.2230309077978 0 0
164.473565806573 -18.7346315652607 -11.3054839393477 0 0
-138.653501937059 8.83730243612089 -7.37146828615532 0 0
184.055810887623 -36.0897722150986 -1.42985113831655 0 0
-170.910630467096 -22.9259920138836 1.73575014764413 0 0
201.045540317535 17.2898810942818 24.2703524912298 0 0
56.6486786968663 15.9895297274183 -9.73106064112047 0 0
-187.206175680977 -23.2987614422792 15.4426202137741 0 0
-161.760246947606 24.5701832703409 12.9090051765973 0 0
-49.8869562160532 23.3416035770874 -9.18825998893428 0 0
196.810801863345 17.0311216868356 31.2890031382448 0 0
-146.136288860358 22.4070198525375 6.88795977803984 0 0
-198.328028832134 14.0023484646798 6.29654978464871 0 0
-168.920065202671 -1.56330214386741 16.5188715651572 0 0
-127.169589414188 7.32724196873227 -9.72275050303733 0 0
176.521628699351 -18.2607204776534 24.4135164903333 0 0
167.709083653894 -31.2274027340456 5.914086917577 0 0
-113.579060225872 1.5283077238316 -11.1832621974899 0 0
140.221443162305 -3.81255961320931 -18.3560417503994 0 0
-162.513737987624 -8.49859757183682 -6.48456005111616 0 0
-166.83109533242 -13.6983599015617 -6.62974583346218 0 0
58.2135771318436 10.0320581336278 -3.18540231217538 0 0
-164.486379807335 20.1417718162073 -3.82450628700432 0 0
162.418334180681 -13.5151652084641 -14.7396382847678 0 0
54.2215206253783 -0.488502305257487 -0.0811502316907493 0 0
-193.622731523872 -16.3615512474761 -17.3187056645316 0 0
200.939849979031 -32.8529468044933 6.3860671934135 0 0
-176.402934039231 -39.7992860294611 -12.4826962664639 0 0
58.7126154563084 1.93131806287562 -23.3208756245198 0 0
142.764524934124 16.6748991130567 -1.77783956343881 0 0
64.8846144898126 6.27461596886405 -0.0560585933528194 0 0
-155.051825501877 24.4539481850033 3.36062908772493 0 0
153.886147954809 0.367552288556492 -17.6607389493774 0 0
-154.861427081041 14.2061985325643 20.6070594351559 0 0
190.871369642431 -33.4292157849474 -3.82328225420508 0 0
198.159157455282 -13.1478806595404 15.3615028719081 0 0
196.861028975487 -0.734009757960056 5.48832286568003 0 0
50.2788374713431 12.977775445565 -6.05870825924516 0 0
198.533573389891 -2.87477659830393 -0.398720350800647 0 0
181.270111288059 -37.5468259480567 20.5317193971762 0 0
-117.707566440709 5.71242419060955 -11.2600171771176 0 0
-192.277868674598 8.84706639372335 8.4440271976557 0 0
-70.7508112593365 5.18549211714308 -18.489865641184 0 0
-54.5027064654843 3.58286183794241 3.22785802816051 0 0
-208.832462516325 -28.0122226508156 5.11890763235919 0 0
190.569570307931 31.1680411332439 12.7191473403543 0 0
162.044974077389 -19.6461180100101 8.74616972430816 0 0
-153.039092531388 16.682638176238 -4.48299250670663 0 0
-180.524524642186 26.5729924507172 17.6143141284523 0 0
124.917735828122 -11.3830159954681 -4.53065716736604 0 0
-67.0623470882415 15.5397761066566 -17.3852854811146 0 0
-209.614082050615 -27.9781827190937 -7.0074229799646 0 0
196.466598021701 -2.11604018562736 7.09829153960261 0 0
158.747515163387 9.35301719303838 13.1461753555198 0 0
116.900140197081 -7.9188483435318 -2.22259295016113 0 0
-134.400458250143 -1.37784668841773 16.176626438184 0 0
-179.4122963091 -27.251505083712 7.27151826177497 0 0
-196.460447911892 11.5856119174005 24.578095537998 0 0
-53.8251506826746 15.1620865936472 -1.17270804115892 0 0
-140.576700586069 21.7620424496574 6.04445303441348 0 0
-18.7914774367787 -4.27566421151801 -8.85873469381396 0 0
-47.671010483262 17.2720181523473 -18.7606262840486 0 0
164.0446420065 -19.5169000289032 9.88766672447526 0 0
182.283116790759 2.30724524705062 18.8058490157638 0 0
-197.656835375582 -13.3402565010466 2.33551880580496 0 0
-51.4489552174429 -2.38736982405835 -3.70230925275496 0 0
196.94010315372 27.3343182012713 8.31693679539497 0 0
-10.4098858470813 22.0416898055837 -13.1213425558244 0 0
-45.0291215038264 18.6094835660407 -4.51650413249696 0 0
85.1533207078038 -9.15912474832228 -11.5550179829191 0 0
-179.2605317417 3.91772037386988 13.7558206654695 0 0
184.550035256451 17.5297005463078 35.2022885257677 0 0
202.180310284204 -9.50478612339577 4.10907659842584 0 0
184.211702781027 23.2146246012201 -17.4661142436273 0 0
-199.169908251143 -13.1063697160169 -4.21913878226186 0 0
-149.95351233425 4.56984543156031 -6.54075988931109 0 0
-117.60122148044 1.9076738211892 11.0126578796325 0 0
83.9305357081938 -8.70989526855219 -15.1687323802008 0 0
132.418565856785 15.9229827573786 -12.0775354873157 0 0
170.894791280346 25.1463409002155 3.48835776742913 0 0
-207.208998802348 -38.5979848897474 -8.77186978632197 0 0
-184.00430962275 8.49610916535907 15.5873205961305 0 0
-28.1455277367381 22.7048855139918 -12.7164242476416 0 0
-80.3846015456997 2.48191535452112 5.19261711401807 0 0
116.977344942155 13.9394243957351 -17.6265299073762 0 0
188.497966180525 25.7310817274819 -8.26416994882345 0 0
-178.870458216288 15.6878894878825 -8.44297660151381 0 0
-139.468137034421 -7.16252288240696 2.97318275770357 0 0
21.2080647648342 13.0614639821279 -6.50599668930687 0 0
-105.265667831803 14.2911566054559 -11.7598218514734 0 0
-177.527985696369 24.1434829275207 -4.20051074655007 0 0
-192.873029417099 25.822607027014 5.67472132285345 0 0
174.888503479993 -5.37864227538354 15.3774965968828 0 0
200.723786649958 21.4315236465233 -1.64145803109404 0 0
173.285007243435 21.7940304485619 -17.1838492229199 0 0
202.18230010502 22.5633246557264 4.70242767006002 0 0
-167.928887275242 16.6471838349942 25.2905662631991 0 0
-160.022553938227 26.9055938314381 7.96375374785577 0 0
135.206178820548 -13.8982249356304 -8.98961862617258 0 0
-4.74264520345239 18.2574846135753 -20.0608375904594 0 0
191.416645215251 -38.1414459747944 14.773107053836 0 0
189.67232651224 -4.41419489275472 8.51344366447827 0 0
193.422406095935 26.8200779827602 -0.185025705937034 0 0
43.5480288833658 -7.21408633452373 -14.742263274751 0 0
174.309939861529 -17.8282234529703 16.4473049764731 0 0
82.7918651556306 -7.66553619411543 -17.473890815166 0 0
-193.011433943381 -37.4354718051735 -20.4749297154188 0 0
-10.0585884811043 21.2075119362294 -11.232348227321 0 0
175.496236936876 26.3765576912315 -2.92023079153571 0 0
-199.486302786683 -14.7521155380112 5.63785729342065 0 0
-206.661570547347 -41.7539993602605 -2.4982191068694 0 0
173.238119196469 30.9840679748778 14.1043831094932 0 0
-156.29273565327 2.92894807379011 24.47807588307 0 0
-194.515736235861 -49.2675346901512 -3.25313286232455 0 0
-190.30595431827 -47.6789810038996 -2.85805420455083 0 0
-129.521578310293 -6.04587591692279 -2.29384944460011 0 0
-207.840766684723 -20.4035768066598 -2.46244868750866 0 0
198.996889930301 7.42907724502149 14.289278777564 0 0
153.336001802158 17.3210514652533 10.0609332934951 0 0
178.127438998624 -39.0041422839512 2.46653840816149 0 0
-2.81174754872791 -1.51457783681414 -21.4205588744165 0 0
-198.243290377127 -19.0685363178068 13.1240026119211 0 0
202.236121616091 19.300236315293 20.8233048106976 0 0
171.091802086482 9.11690181418208 23.2938411929618 0 0
161.471059366874 5.09029699818757 -15.9801322399236 0 0
-139.588915334247 16.1329917156734 16.4083091783436 0 0
-202.437184162528 -33.5281842656897 12.8350517519139 0 0
134.271444008587 2.32226950321832 -19.8824506219307 0 0
-107.967562755856 -3.44857303392432 3.52224460758362 0 0
167.188561583706 -11.0587220526076 8.78702897061012 0 0
36.5292589548366 -6.34763826987041 -10.4707773144871 0 0
55.4143746276091 -5.69431125157639 -19.4757478483835 0 0
-24.0684031752782 2.57094699213333 2.13268790687193 0 0
-126.053380566887 1.79132538673214 13.1416234109013 0 0
182.620999827982 -31.9787489899224 -7.55220851768657 0 0
54.8180425245628 -7.37607142581727 -15.8869679466822 0 0
100.99387391468 -9.30091717100938 -7.61809788511317 0 0
-94.5338822933653 6.04326304111314 8.14538647054785 0 0
155.659440772751 7.01148648194339 10.3154272267678 0 0
8.95812272326564 7.41990102061134 -24.1988115909132 0 0
178.632727391377 5.45873659661082 -17.8479109769862 0 0
-176.275327795992 23.0916719654831 -5.09507745237554 0 0
17.3886570907455 2.64359506448956 -23.867882572789 0 0
198.222223674572 -35.6425791192159 9.10583432902149 0 0
-126.388501184158 15.7356715762088 12.3821052233331 0 0
123.107762161822 -12.1709110804368 -9.31189448168349 0 0
-199.141755171387 16.3380418848438 5.9576621113385 0 0
-186.756893789972 14.1603816432909 -9.24762608862134 0 0
200.937664508826 18.5686552883524 25.6018885842757 0 0
14.2207008549056 3.30670996092574 -23.9690962421049 0 0
199.045878974726 27.4239123820372 25.838783483056 0 0
157.530130611217 -3.92946251536678 6.81287219180502 0 0
158.638953425932 12.4445826160108 14.6515496217686 0 0
55.7643072969808 0.946450717330463 0.572758838276541 0 0
-174.1933425852 -3.04549173097453 13.0421782351928 0 0
168.174702756375 -30.4252269956232 2.31370629278495 0 0
-196.141624943379 -11.8060348250013 -1.15204127473644 0 0
-191.843793055149 -48.319568968783 -5.73440213168399 0 0
206.958608527429 -29.1726372161444 12.9019353513638 0 0
-11.5428384627599 -2.90988783070086 -19.4943777632878 0 0
-176.036652102308 -5.5320474371137 12.1259922251381 0 0
179.406202293672 22.4615190680203 -19.8277070281808 0 0
202.24561109143 -30.7283322439871 0.40362298401926 0 0
203.964559055348 -13.2382197607557 -2.88172278711763 0 0
75.0916082199104 17.0518516820734 -16.4235120046893 0 0
-191.330890156866 -4.63999997595113 0.159707584159261 0 0
-189.902332864253 18.3732240476357 -4.94279911101801 0 0
177.753167073059 3.68921464217148 -16.952997908825 0 0
-75.4818511924565 16.3753348453346 1.85701022301599 0 0
176.223206338587 -36.9933322369822 16.3301271933894 0 0
46.1562520049535 3.81980039211557 -23.9596301244176 0 0
145.567744352158 17.1885493846117 -5.02238908889207 0 0
160.346360217673 -6.69459089353039 7.60626656090342 0 0
-102.212173498247 10.574531950659 -13.6483579083128 0 0
-74.9572137783688 14.1116111114019 3.54734050702531 0 0
177.093924127359 -16.6611926972698 -18.7477640339032 0 0
197.634458011085 19.5319478205092 -9.49899150271066 0 0
80.9453060402181 -7.94544923442043 -17.0003707079172 0 0
-85.3183955763946 -4.37398461180208 -6.79062696099413 0 0
-38.9154622134202 14.6056081347448 -20.5981298659828 0 0
204.865881358152 -23.6852177046588 -6.27310863589457 0 0
-170.860524308155 -14.6948665501039 -8.34006521943129 0 0
199.405605712801 7.46535240538475 11.6228801372876 0 0
183.18497422232 -16.9801216448543 28.7062293878423 0 0
94.3084208995452 -8.17163350567646 -16.6148816459582 0 0
-166.75033978771 -11.2268847922154 -7.09531865648601 0 0
197.641530302251 -0.392768257561559 3.00209525991275 0 0
193.357833512915 29.2049689795386 12.3689569866957 0 0
-17.6415126132325 9.26384418561284 -2.10458424902942 0 0
-179.701406399035 -43.8993552439618 -11.511933710743 0 0
193.407236303532 15.6956728902913 -14.1611476028208 0 0
36.1677045517124 -6.92317263635908 -12.8428029323033 0 0
-78.4200009113854 13.9245906684042 4.35919959605192 0 0
189.616877501666 27.0914614721713 22.3854913007401 0 0
-207.210679125315 -18.9977421938751 -0.081799585133686 0 0
155.552468274775 13.4095674245766 13.5893556985535 0 0
188.467086586643 -14.1693819967404 24.7135545546248 0 0
-180.436899929488 8.62537014464295 17.8183939073104 0 0
201.587054350281 13.5856571809347 9.81208103362109 0 0
188.98993763316 -3.51714355769417 8.91028034080932 0 0
193.816358987257 -29.0056110448899 -8.69104919169907 0 0
-148.054637787379 -10.2814620808366 1.2618948993505 0 0
20.645932903985 -0.978572582696414 -22.6009466214443 0 0
-134.581481584024 6.50962997105857 -8.24634771983386 0 0
192.449591813648 0.47779396052532 -10.3977336355456 0 0
175.066784956888 -17.3132691879459 18.2057708931922 0 0
-27.6946097956053 6.08149060385375 -22.8953128756908 0 0
-171.986091671199 19.4175308364996 25.0299763091753 0 0
189.893709083571 26.9682431533128 -2.02915247456492 0 0
-125.1753104094 -2.1330138478266 10.8404060183444 0 0
-100.088855272307 9.20562098020426 10.5473082716818 0 0
-145.992861093442 -11.4628546476749 9.42651018079927 0 0
-159.195515286213 6.921734253275 -6.363579613917 0 0
129.642394406123 14.8208941398267 0.906061274674961 0 0
161.194471795713 12.4557982741286 -16.5662130719363 0 0
11.9453651624042 14.9889405838929 -22.0976575008255 0 0
-92.1358552625408 2.39725499980375 5.97078105941008 0 0
143.852905688809 16.9362451040947 -3.85840996275877 0 0
-180.046832972916 -45.1272663969052 5.86036380843331 0 0
74.6536507933579 4.5085690141951 -23.2952238420733 0 0
-186.833731434737 18.4815019901017 -4.42693339146116 0 0
-189.949851723543 -5.49683860245206 3.06978532979201 0 0
-178.533118117263 -33.3395417528494 7.00909991073265 0 0
26.4632301181722 2.01697478467509 -23.7843690425375 0 0
-174.204142518246 -32.347919814466 -0.948660373639284 0 0
-76.7179359136765 6.70667163666436 -18.0812930038882 0 0
162.647058758347 -15.17689416912 9.18599682108568 0 0
187.222797462242 3.47036283281029 17.4781206439562 0 0
-174.879214529721 -32.7374105224116 -14.8356097806745 0 0
-167.702696565858 -5.17021385573323 -6.6609870366985 0 0
-139.123151133189 -9.39464382088667 12.6849981092932 0 0
123.165961302961 -5.49112049264789 -18.2173638766291 0 0
196.938457574572 9.2169897369818 24.765699688028 0 0
-6.32371980662972 9.76519329873416 -3.40912976772906 0 0
-165.790817134674 4.8324341795275 -9.89588799402263 0 0
-192.1448900953 -6.5733172423706 -0.597593628124325 0 0
21.7013902729795 -5.59487878981812 -18.3207025275558 0 0
-154.153470297281 -14.4982969708325 18.711875861946 0 0
-196.940325776612 -44.896781624544 -13.865724355739 0 0
-176.224168619612 -41.8774176488793 -9.66015370929857 0 0
-15.0103688190013 21.7257910377221 -11.4596389640202 0 0
-38.479464227079 -3.11827299966337 -16.3714005684874 0 0
197.935594038053 12.9531972849704 27.6506806296637 0 0
173.103408788433 -15.6762875390171 -17.5664545906125 0 0
128.534221165242 -10.2799878008379 -14.6903839593344 0 0
168.494465430363 15.8114207547831 22.0535618144828 0 0
25.5143821996929 0.405431080737335 -23.2922612757557 0 0
-68.7742791801725 21.0192178866843 -13.5382886884435 0 0
-31.8449870609545 16.8606891618624 -5.20997828517227 0 0
-201.069646772146 -28.6401440408095 14.0733216984164 0 0
180.784865909818 1.00605736171471 18.059460798816 0 0
147.123730481519 11.8246666626765 -17.4649166233333 0 0
-152.63046428129 -13.5146050339515 22.049198914285 0 0
167.990782351175 -4.93188698649891 -17.3457083484368 0 0
48.7954068304002 16.5523009495315 -10.3831324884773 0 0
-209.264610079416 -23.6030257925441 -1.32247800251549 0 0
-95.3680893103491 21.8353350599268 -7.76333229258538 0 0
169.45742322942 12.4189531801297 22.1358168935615 0 0
-161.364987984393 -5.00815902889654 -7.26581771822211 0 0
194.728174693185 -14.800474010912 15.9655195219407 0 0
10.3499788616085 -2.57002516556029 -21.0970025420933 0 0
192.1642107472 -31.7002736801713 -6.19229473125512 0 0
-17.6887451424482 3.78972220532549 1.74118127823233 0 0
22.8857507226992 20.3571590025266 -13.8862604124412 0 0
-190.723490298628 -5.18162892899636 -3.90335458058044 0 0
157.049543853377 -2.25299502571663 -17.3516894297414 0 0
-186.226239762144 1.33419965887449 6.48080419892087 0 0
-206.119630893329 -35.7279171221109 -12.8933673870407 0 0
169.741188647939 -29.3095582622595 -3.17753941890326 0 0
-193.088687285995 -47.7461171424329 0.56327905953987 0 0
186.336899497255 -11.0514217573549 -22.16368446427 0 0
-209.178684785837 -36.3952736518449 -0.231340685209124 0 0
-181.118797357513 16.3307812208014 -8.36439690834324 0 0
-187.252582467638 -8.30545343025414 9.02862394856443 0 0
-80.1619555079648 -4.03616708039473 -8.52734557733663 0 0
-69.3726946201278 2.91748613448044 4.50246837088274 0 0
-79.7139462306826 5.81074571744785 6.26340529899214 0 0
-110.064068888166 -5.12131826527607 -1.26475692306624 0 0
152.430022499449 -11.9737758405154 -14.0499585608111 0 0
-35.2154191606239 10.5987142212733 -22.1548507267178 0 0
20.3978655537872 20.2778108347698 -17.5401031354196 0 0
63.9038181169881 -5.69311353297129 -6.44343135731481 0 0
9.54399187927534 9.63705023591399 -23.9834336410447 0 0
44.7231349867723 5.77219116035244 -0.452748198022266 0 0
64.4112373280972 -4.75842025325909 -20.3356047305277 0 0
-44.0534692100138 0.850950072230112 -19.7499428684837 0 0
-19.3914537403043 16.6968148055396 -20.8647361979541 0 0
-199.587536881172 -47.8975040449658 -2.51963300337894 0 0
-101.305717544443 -1.62094265373226 3.91696215184944 0 0
194.48911914264 -37.2502905409436 15.7210668988533 0 0
5.3834557015196 -4.3007305832006 -18.8538459378499 0 0
140.762252781421 8.83008105314619 7.63906114649835 0 0
-129.572336074485 22.5411035967985 1.30422041152385 0 0
183.957838103019 26.6029375989773 -6.82518175990055 0 0
167.488379368148 -9.77138135493682 9.12486430301543 0 0
-119.004643875661 2.42952389361781 -10.6743188772622 0 0
-66.1646380884715 1.34591209371132 -16.7992018953093 0 0
-80.1722806634954 18.2925426908479 1.68176436789187 0 0
-199.955849687209 -37.3341280983539 13.1897784629329 0 0
181.522602367197 4.51665629559558 24.7195927770825 0 0
-190.912782845687 -47.4843764949465 -0.815986530618658 0 0
127.463489903013 9.70228363636852 5.76298654837963 0 0
-33.0124076798176 0.260940097663336 -1.33761800494798 0 0
122.649911946328 15.8829726216346 -9.700923022972 0 0
194.867060854474 14.6645823937508 -12.418295882761 0 0
-158.659004173065 -2.46335669932483 24.4565089972151 0 0
26.5557581016047 11.0375700082015 -5.02807440257178 0 0
-189.590666993782 3.17667117298306 1.83447240266203 0 0
-103.731387967941 17.3847235132485 7.22290454292227 0 0
155.903491529796 18.8374838012426 1.14785597156691 0 0
-102.578931414634 11.5353574962903 10.42587788226 0 0
130.886164329635 -13.2279301048342 -6.16769676025675 0 0
-163.082727583016 28.7619601366336 4.82578992669452 0 0
-196.552872675904 12.0500588696339 5.76415559732978 0 0
-165.764170712961 26.3022069673002 -3.12479146635726 0 0
192.790757002307 -30.9853192592975 30.5973507699223 0 0
167.114476279503 6.0704520941172 -16.0647539669611 0 0
-174.949490050712 2.7472102765093 -9.91111099857676 0 0
198.092331929296 24.1226887192641 -4.52657867555875 0 0
175.700206810088 17.2308708178471 33.328795862103 0 0
110.793554943322 -10.87369395315 -11.5636606091119 0 0
-127.392587720578 -3.99396325488086 8.56621174455294 0 0
-31.3380355697597 -4.63951204293104 -11.6847616232268 0 0
85.1686199871943 10.5942948665862 -22.1080050467536 0 0
-11.7345210623179 0.888652317000596 0.315948673192266 0 0
-196.329203565869 18.1434223986797 1.65756327922632 0 0
196.548460075406 11.7228311637414 28.7728441198975 0 0
167.19836894139 -18.299981120279 10.6214422351037 0 0
170.529403718053 24.4363502981653 0.227531719488891 0 0
183.360103841538 -38.9510557709654 16.4300300588681 0 0
-203.081213432483 -22.099668059008 10.9896817727914 0 0
196.843351291612 -28.6572794327792 -6.74820587807702 0 0
173.244629430506 -34.7402813704582 -0.531068296700366 0 0
194.977509265759 9.28264593330982 28.3680909753279 0 0
-202.976413347924 -14.3063962786931 3.64538161931083 0 0
-120.871576595558 2.56152857127616 11.8781066017572 0 0
-184.705521848419 -27.8431958221942 16.9785667324944 0 0
-191.191360637758 8.54835103641848 11.7897072584686 0 0
-176.38395384654 -36.437284766164 5.00400387791913 0 0
-71.8851655543513 1.30378610859964 2.67912430259085 0 0
180.885927466793 -9.5680214245851 -21.0362584341912 0 0
-153.706757758502 -15.3948664980867 17.0059449238366 0 0
184.051948536638 -23.7618395281436 31.0526346171392 0 0
194.067244940753 23.5146954437972 33.3740277627784 0 0
-118.486344006678 17.7645066188406 -7.58915795004106 0 0
-133.304201317892 -5.84809749748406 8.80387114506291 0 0
165.687824751497 1.47196573548906 -16.0365390134774 0 0
160.651733520541 -14.525082642545 -13.5423833545866 0 0
-127.515176223363 16.6342031253688 11.7220712064182 0 0
190.658237807785 29.9609633749977 10.5086288549683 0 0
-76.0782305981847 4.13686478685845 -17.4146884984831 0 0
179.678477841318 -30.2429182325331 -8.5932774626028 0 0
169.141082115775 24.8041931129606 7.54815865081905 0 0
-209.451270170596 -24.1250261580844 -3.25039152501467 0 0
200.763541696638 -34.3547072568283 23.0549689768075 0 0
-118.910235930158 21.195238081374 6.04992762429497 0 0
170.605212207783 27.3863938587503 11.7561223064828 0 0
92.4590592293626 -8.63890414551483 -7.96519356952627 0 0
-78.0533043986354 19.9509703756732 0.0383979686948916 0 0
-96.2479707037046 5.84637289156701 -14.841464540035 0 0
135.628841649553 16.2856585400543 -5.20257455503458 0 0
-130.883473626254 0.116516421819164 -8.59262898655304 0 0
-39.5553795972139 5.08692100838323 3.05660357231002 0 0
-63.6719821206255 -1.02805094693618 -0.79670525438882 0 0
-208.682931114569 -37.2500558020013 -5.69513855970416 0 0
-184.990750011946 -44.4909640388961 -14.7456832197599 0 0
166.505887595178 21.449011370581 -10.1830963648205 0 0
-183.21921709775 27.0492112175178 14.5847258547751 0 0
21.9633409677687 19.3216480042256 -12.2094037602921 0 0
162.694745832052 -16.9188990627263 -12.189493905257 0 0
-169.828767124483 -10.3559875784375 -8.22851546715187 0 0
-203.055154197407 -45.5434998816732 -5.19091603131036 0 0
25.7138913055185 20.1907322811645 -13.8173443142629 0 0
-166.722105957719 -8.34569263505087 -7.47340808343799 0 0
