"x" "y" "z" "f" "a"
121.372857808347 -5.92997784849723 26.0354584264312 0 0
-132.886378642685 -2.98524887486025 -12.1041418201334 0 0
-243.195047027309 9.55654450025784 -2.19752922720727 0 0
-143.026552691534 -16.5368920726483 -13.0748193993488 0 0
186.718320014528 -22.3178090615182 -22.6303392577509 0 0
109.924319434055 -14.6207690151291 4.12238884633273 0 0
18.7707650846525 -5.83687713194044 -1.95053910870981 0 0
164.830551534835 8.82949426950456 20.5722251747691 0 0
232.959559817428 23.5223740134994 -11.7240590931153 0 0
-11.1903686496027 -14.4233736331687 9.91709995828644 0 0
182.011199765298 5.92306516854686 21.226634439408 0 0
-184.746131030162 3.56242030960374 -15.6683091833989 0 0
198.563335745809 -6.67009820133406 24.9773441684026 0 0
-3.68653039195656 -14.9487296072768 12.6697783097959 0 0
194.482279132361 29.3412088953339 -25.520230042662 0 0
-180.866134847222 -8.52999254410432 -23.8834817058971 0 0
129.582878356748 -3.32036266802994 -1.72331783293709 0 0
189.162787148407 -7.00917075582302 24.6757987183675 0 0
-60.2681659159122 -13.7865175102234 17.9083082621777 0 0
153.12311934823 -6.8539818374227 25.2322738708615 0 0
-229.155106519049 9.10125625050127 -8.30792690325842 0 0
100.785681025749 -8.41964753999914 25.3692535311949 0 0
-159.038370460613 -22.2080385174413 -7.69417695869077 0 0
216.592578187103 1.43501996767546 15.1143190566912 0 0
-176.517622694876 4.65063186441467 7.25925836704168 0 0
-229.366936524534 12.1386085750778 -17.3226456497586 0 0
-6.380824325219 7.26794119379498 13.9953306041475 0 0
180.845943058811 -14.9617575973261 22.7705652580973 0 0
180.86875832658 -24.2805929060308 -8.93980428045601 0 0
-99.0106253864861 -17.5204684405964 8.19052865816937 0 0
200.232009567336 -1.6251634325781 23.270158209751 0 0
227.158097905196 23.4094193339273 -26.867177065925 0 0
172.823290999748 20.0221610958631 1.76710280812458 0 0
36.7353624124609 -9.4996457603991 1.26368607879708 0 0
-218.610948229601 12.429293609443 -17.6064056530127 0 0
201.710535650425 -23.6894919371256 -35.5939322720313 0 0
-183.975291624907 2.5350358009919 -17.0874599847042 0 0
-238.041606066743 35.7290395694791 15.1272276342379 0 0
196.527590385959 2.65797201504289 21.795863102986 0 0
209.644365499484 25.0859022838768 12.9677727824336 0 0
-198.507581141998 18.4961881645176 -0.622314321014804 0 0
-104.979471284385 -4.27252530646788 16.9383535052878 0 0
-133.673669287226 -5.53597859787016 -12.6800232193151 0 0
0.128334862245713 1.9446767435643 24.2195984439284 0 0
169.981814991642 -13.668832312862 21.7828951753232 0 0
126.194005743778 14.023820410449 14.6888149853178 0 0
194.957841003483 18.5246883901816 -27.2531090266078 0 0
204.129737755436 41.2132790216071 -3.63487996423251 0 0
-119.427296057239 -13.181621897276 -9.12525255807058 0 0
-198.890704783398 -31.8028480161021 1.38567930733828 0 0
180.58958576107 -23.7551148359335 -4.75923975382072 0 0
197.551239766232 -3.47896247917119 24.0335884228066 0 0
196.691808473217 12.1050442614315 -24.8286363371855 0 0
-203.797197913565 -9.630566489463 10.2246088354372 0 0
219.048868697272 -23.2298763966633 16.9098919849712 0 0
232.250323497803 27.6787040705827 -15.7608758952173 0 0
224.906768926317 5.74925680754129 -6.54120379415414 0 0
218.668443554773 11.591645395593 -24.9748199181772 0 0
14.4060706721184 8.06310508623399 18.8600348396487 0 0
-227.434781441735 -23.4924206137209 -6.3473428367881 0 0
200.016940172886 34.1125832497752 6.51716712646805 0 0
-203.307561621529 3.09441262332669 9.13147064694493 0 0
-224.977355927479 10.5994892488443 20.9013810439949 0 0
70.2514403565854 -3.41171355976085 26.614006113676 0 0
-77.8594105184959 -14.6917322121617 15.7148466218407 0 0
-102.328905904826 -18.0687940685343 2.28984599872013 0 0
194.64659854439 34.7438493087642 -17.0952603116498 0 0
-146.40583142083 -12.7768996807969 9.17395717077295 0 0
56.5024633754176 10.0565348251007 17.8642526012676 0 0
-202.98838179468 8.54422503370264 9.78003766116887 0 0
-20.0181006667281 6.16328115272829 18.936254670812 0 0
-208.34445274673 -2.2651661612068 9.32483383651208 0 0
-182.743301306581 -17.6093888214568 5.40780063520845 0 0
-129.613888739721 5.91464622621587 0.872977359305093 0 0
50.4018371002366 -12.3827119376086 4.3799393257449 0 0
-110.444118699792 -6.30487824386721 -9.46488947691835 0 0
14.5004734942568 5.59421730039954 8.64710682093986 0 0
-67.1149310384996 -0.642857217373637 21.1813053426785 0 0
-243.386993848849 9.39285362834741 1.01746709124517 0 0
-149.447135549864 -18.7916178454147 -11.7989624846997 0 0
200.791436510964 11.1738399041196 22.3063710123375 0 0
205.278524053565 -6.93421155850338 -21.1913840449419 0 0
-184.398448397302 -2.69070005346573 -22.1197162818106 0 0
210.081274939059 -26.7002964814912 16.4689031251034 0 0
205.15532763642 33.3903638792602 -34.4363303757372 0 0
226.306670121723 -18.1680053669848 0.823092287348771 0 0
216.724661613579 29.3787825346152 6.09539765937053 0 0
-194.296681443904 -7.12336395166127 -25.9540905163958 0 0
197.135326631095 41.562566990753 -7.6566740652482 0 0
-178.174724009989 11.1578509722129 -9.06270805886422 0 0
201.429912775529 -21.3048076811402 26.0208171463895 0 0
-213.825057915491 26.2158859597572 22.1779249233207 0 0
212.712128104988 -4.51036344544245 -15.1595086653849 0 0
-241.866300996909 18.6229542235279 -13.7639911095538 0 0
-206.309422575926 -23.2947729490214 6.46108473033605 0 0
-62.8393971125834 1.70763354848237 20.2653050212756 0 0
-133.824977671488 -16.6817376199329 -10.3434946425682 0 0
-205.395946404755 25.9091522524101 11.7755322437593 0 0
-54.0045820665981 -5.25627756005101 22.8574455954211 0 0
-219.240595346641 -10.6941202588382 -19.3989643662741 0 0
-43.3190178064058 -13.7770851325334 18.8561416149257 0 0
-186.324908660811 -31.7296993277683 -5.0033433273924 0 0
-71.2396250441839 -14.1020043022776 16.9102977915594 0 0
195.21076109083 34.0419972926776 -18.9158194864618 0 0
-213.336289479473 6.35655289478456 12.8466109718724 0 0
21.0060320795374 1.41703785633547 0.28791559297991 0 0
-221.508454148522 -16.147414573522 -9.85160811454551 0 0
-167.575083442143 -21.7128896276906 -14.4326172643569 0 0
6.54764364635506 4.21803459511466 6.42234603710374 0 0
-218.908523938862 -26.7258808800671 2.39664761976674 0 0
-184.927637126416 -17.2113757744595 5.45104114640946 0 0
219.277357915911 37.143211113451 -9.47986138244443 0 0
-153.989822444622 -2.97767955774523 -16.1311652075541 0 0
-201.583754336395 6.70060800105284 9.20956189630268 0 0
-177.244082080414 1.79108085515712 -20.1596498418221 0 0
232.146262129342 23.3365660235031 -16.4181108536862 0 0
-223.366896305107 44.6035507019044 -2.55051567768824 0 0
-210.15764316871 9.58059613682437 13.0849778251923 0 0
222.108069840084 -29.9475606629007 -25.0199787951446 0 0
-213.097531715986 10.2587165634111 15.4814153408887 0 0
221.550627052237 -12.5991773706347 -17.0837519771591 0 0
188.932981805053 35.164430376031 -6.57760158468358 0 0
222.416746399951 34.2511542857427 -9.34493231352805 0 0
79.4126175555151 -14.9263439301838 12.0719433075476 0 0
200.321213719702 -33.7566269254575 -4.4820928694183 0 0
197.23206414606 -34.3101875860722 -16.0470659200985 0 0
-165.114595626209 -19.0593470576416 -16.8471780594381 0 0
-216.927657075899 12.8962300371886 21.0586846300792 0 0
-210.298327503496 -12.4507411513521 11.5262552408495 0 0
-67.3923508982064 5.32118364395826 13.7856568537431 0 0
-188.648546032444 5.96530209941401 -12.5094924555964 0 0
66.2163566927794 5.65514096454836 5.75843309225015 0 0
184.241196459818 19.6355864696589 13.1234303298397 0 0
24.302378212085 -14.1130154466892 9.91495569352243 0 0
-194.77050585171 10.1838002395895 7.42907776880614 0 0
218.891298868119 -10.5379165913151 -20.5585981436175 0 0
-61.9199937795691 4.64387734468406 16.669091522137 0 0
184.132043814344 -21.7451849149367 10.3566367372688 0 0
-37.7607826007876 -15.5903524754532 10.8332057300406 0 0
229.865575585792 13.806004472555 -14.3490003329535 0 0
-161.487261039665 6.76533521825518 4.35369815917261 0 0
-31.0938081061759 -3.9498841795118 24.3035270516495 0 0
-231.949146459605 10.8916833051678 -15.6891539790909 0 0
-180.400351752229 -10.925602688746 5.81993758178164 0 0
-197.761208399842 -16.2825805904956 -28.111801403174 0 0
160.479275567545 -17.167129401477 11.8042496239156 0 0
-240.357489784666 7.52239126779401 8.76714407941986 0 0
-200.271867701841 19.0790003009671 -2.96804020315423 0 0
-129.049658851872 4.85855871198546 -4.95236677255767 0 0
124.295979830934 -5.05610897454362 26.1375957236389 0 0
192.313921036899 32.0977442614662 -15.6641287589815 0 0
173.939686629891 -6.62569252441925 -6.72985900738909 0 0
-81.5588758630431 -17.3105172937844 6.88487033808225 0 0
-228.167905024753 3.8403794410158 2.2533022178218 0 0
133.47396727034 -10.2090657255862 -3.38525115259871 0 0
-173.936352038376 12.1663052811304 -7.93310115980853 0 0
29.370403205825 -11.485137893213 23.224999241731 0 0
196.600473594848 17.6008536722479 -29.0608345377856 0 0
186.803183085537 20.7251845932589 12.9074380182863 0 0
-218.183976290808 -18.2964910181616 6.41029527491592 0 0
187.935383731067 -29.703781086595 -7.46434413869432 0 0
81.0796034722225 10.2722573999332 10.7840711470196 0 0
-229.766523133057 42.8934569402022 -2.19590556958628 0 0
217.939265144886 38.4947867505063 -6.89772204167082 0 0
231.118486192023 24.9850043461508 1.84420029720002 0 0
-131.076390510376 4.37017658450913 -6.60814859907055 0 0
173.042272169784 -19.1065856044782 9.2029995405673 0 0
182.667669929213 2.77346626383608 21.9465318766952 0 0
231.102224640193 13.5300492834041 -3.46406292693913 0 0
-47.0758299126468 -7.59713259008022 -3.03251764160161 0 0
184.484219073316 -2.89875795871171 -9.06250671536214 0 0
-44.8818954774466 -15.2137596945538 8.00918585082138 0 0
188.669689547981 0.901062516003122 -10.8160862503154 0 0
107.896497841097 -14.5338845504711 16.5169299511075 0 0
179.27349658688 17.1366217512531 -5.29470531765615 0 0
-199.858166397167 -14.4526857772779 7.63928210830456 0 0
-169.756805652215 -11.3877938813915 -20.5543183590895 0 0
12.4073610777904 8.12888092543878 14.7347859084506 0 0
62.0515653097894 -5.58749707475269 -1.78987448536077 0 0
202.22693421319 2.30945180024443 -15.0359380977102 0 0
203.206186821078 -14.2696796256393 26.6972035684736 0 0
-203.303217953084 -4.87203760811813 9.15471764971781 0 0
188.952480363643 35.9040477892111 -8.61593434570209 0 0
62.6830338219561 8.69785055074666 9.91641675060301 0 0
-208.454548368182 -2.03102242812096 -11.8272530989952 0 0
-215.780735096109 38.5891943743678 -14.4286152456954 0 0
-64.8244692181756 -11.5728689801474 19.6353181026982 0 0
217.085767146396 4.81786473937949 18.2206681545785 0 0
-223.872754776361 7.91924039478018 -10.2799913270429 0 0
189.115358667653 -27.8756706754759 -22.6835594105144 0 0
202.097910396882 -0.240205841269829 22.8183747085592 0 0
-190.473003162541 -29.9166131585293 -19.7287588795157 0 0
200.099375794591 35.3209630386346 -30.200943645685 0 0
202.531726524471 -36.1917304284305 -9.24390152465206 0 0
-224.826990456632 30.3631649899259 24.1835329178907 0 0
-204.384397207736 20.4438362497238 -7.45296884969815 0 0
178.678951973936 16.911093108576 14.5698152459352 0 0
209.070766508086 23.1993786589985 14.7075806326173 0 0
-223.173438786971 34.4701607898419 22.3766041950999 0 0
195.921406202987 -11.5881878464674 -28.3855688606987 0 0
-227.518074017305 43.3843921329159 -2.68736317104164 0 0
-246.141958782334 30.4443524818704 -4.88952553474419 0 0
38.4236815597653 1.30518150162664 0.570945670625214 0 0
-3.64947725696039 7.54001571386974 15.9512189617385 0 0
192.157239819894 -31.2958472690097 -17.8795712472325 0 0
190.212651474861 8.35073615958239 -10.1924856473047 0 0
10.4962767485086 0.454362647356001 24.9758043179737 0 0
208.975823466634 -6.81183747306531 -22.2648126002479 0 0
-150.914125670679 3.13648473922772 -14.6033718751647 0 0
-94.4405772496036 5.11852356145491 7.6122657518843 0 0
26.6142404862478 -4.24485295142501 -2.71660131119755 0 0
-106.161858562608 4.50676391860877 0.401993587256222 0 0
-79.8698613260432 2.93791714185409 -0.158069779565624 0 0
183.079609665301 0.51264692212096 -7.56661920175574 0 0
-168.042397423907 -9.70691929262071 -20.1579782744541 0 0
-207.556134179883 -4.65826893132036 9.42671097928202 0 0
-177.259948516319 -12.4925459167306 -22.5846818787148 0 0
224.481518681888 31.2798357961035 -3.37880074071889 0 0
191.221639158192 33.4601577291138 -14.0955991996946 0 0
157.466585852828 -11.2153123480311 -5.24530167323192 0 0
-222.698061579715 43.9336165307008 3.66825626895646 0 0
106.083552909874 -13.7770907021709 18.5644571761273 0 0
229.034415307091 25.146467034556 -23.9026694258224 0 0
-176.304142151765 -4.53943186631043 6.73339753614191 0 0
129.3782131802 -16.012782641606 7.91883822016765 0 0
-134.021196959925 -1.30571701507312 -11.712142021794 0 0
66.40951017659 -14.708137417152 11.5503901776273 0 0
-168.10294565107 -23.1953067891291 -11.9613456319836 0 0
-200.090593612013 -5.69185256451593 -21.1320570706088 0 0
-222.772698867061 -10.1875128779249 -19.9324257906904 0 0
-160.351371519314 -9.17078736130099 7.9075066407641 0 0
103.433974283592 -13.4980859339347 19.0871514395371 0 0
-237.051952110184 40.5089345620945 -9.04518326218063 0 0
202.443257741095 40.2484670952641 -1.28259706950513 0 0
-56.5399419604644 0.971202083425071 -3.08507403668566 0 0
178.494799124965 -20.2187299044607 9.52841147710628 0 0
-222.866834102244 14.7706841025416 23.2661636117468 0 0
179.723273244824 -23.1870586878306 -3.30688690450258 0 0
212.589176742521 -11.1546256477874 -29.351157091692 0 0
54.5377881251716 -14.1188969681951 8.74513527417822 0 0
-178.216866554833 -10.9537651732326 -22.9198438305522 0 0
-191.079377279949 -33.8181738469501 -0.372877586689318 0 0
-220.59019065135 44.6978992391037 1.17344457487795 0 0
-70.4235901092073 5.44322011856958 8.30124021949282 0 0
71.8230002720249 -2.46916409620858 26.5612480853628 0 0
202.779945042846 -16.4077242144503 -34.1739884059818 0 0
-129.907789256602 -11.1736329001817 -12.8029802734154 0 0
-179.852530087155 -28.4062155065079 -9.72802614172629 0 0
-144.339924412515 -20.346877702079 -4.99194776911299 0 0
50.5687862502704 5.48023758305772 23.1791890792686 0 0
139.491643540722 -3.44593917460443 -2.30634288073095 0 0
-164.786478121785 -6.68025448531114 -19.4035290660447 0 0
197.91461172708 -26.7562172390475 11.4174440350319 0 0
207.635035523827 37.3538086619849 -24.0432737825852 0 0
-212.449857771021 11.62272140296 16.0058186731444 0 0
205.552054714046 14.3539228747888 21.9606232449212 0 0
-195.256337643517 -34.0495778853249 -13.6481494124069 0 0
219.845547017377 -1.23864565666063 9.49709136296791 0 0
87.2272552206864 -6.67347587427582 26.2200814705458 0 0
-209.348251711044 15.1139017966381 15.0253831051917 0 0
192.484178981855 -21.9755201720591 19.4137180982687 0 0
189.350115592536 -0.0919839367096507 -11.6358248169303 0 0
-183.187011612558 -9.01505671225006 6.06079529673001 0 0
-141.299414369874 -13.3855584867573 -14.8261631236451 0 0
-134.258804881261 -7.76132853213063 12.1513554164636 0 0
-233.680353742433 32.5126617738761 -18.0915144837982 0 0
201.734534326706 16.9385282840552 -33.3135807628205 0 0
-184.926984261793 0.429395442699536 7.27565145350051 0 0
-135.079935844373 -18.5010292888574 4.40920952023395 0 0
-155.939450714514 11.4452989044153 -11.9297299406765 0 0
211.461558381814 -17.1333543652256 -33.2443819884675 0 0
-125.596463562232 -0.397778356814733 12.6934031449143 0 0
-214.372358607557 -24.5494050114724 3.94671406467968 0 0
211.663348721492 23.4077436531739 14.1135773966317 0 0
73.956883950629 1.4386042554994 25.49518533595 0 0
215.947354358651 16.3868422999799 -34.5237791473984 0 0
72.8554268810673 8.3195903762102 21.394487751435 0 0
131.647350328549 -10.1499947546673 23.762306208171 0 0
-14.0819729011823 -15.0718430652249 16.5591426492082 0 0
204.43022550163 38.1448409063938 1.89515701424875 0 0
-199.727068775641 -30.6155333758831 -20.5778072433924 0 0
163.662714320791 -19.0091821250675 -0.548904240530294 0 0
-208.914828632863 11.8437726352252 -13.1190741869615 0 0
-214.214149915409 -10.1233642096299 9.08159548423141 0 0
184.603059842423 -25.6027685578427 -14.2736445436564 0 0
35.5725876048321 -14.7446877949529 15.9280148717111 0 0
-213.119787601593 -18.2057997943523 -29.1294360059553 0 0
203.715218432231 -2.07690264016843 -16.0461564764119 0 0
198.559696791846 20.4856318975052 17.3737337306407 0 0
-134.855932332016 -19.3459472574637 1.45659038908134 0 0
-105.018303697189 -4.59103497754641 -8.65102108407311 0 0
188.056452238111 -0.308224945351378 -10.6716280196669 0 0
230.801801880025 13.7779231561342 -10.1669402137998 0 0
-198.057826970628 -29.8974642817896 -21.1772357842743 0 0
-157.762184856545 -17.314738566877 5.95525879570861 0 0
207.83023382084 -9.32541388583914 -29.9619495300442 0 0
192.623286557166 26.1736699885676 -17.6601903573704 0 0
-188.147543780134 12.9811763195956 2.72815695498301 0 0
-84.8678164731882 -8.80035054724525 19.0957796599963 0 0
-212.612635067127 9.02280086843067 -13.2909868235005 0 0
224.059100098663 12.2783552761208 -22.2043346528212 0 0
-216.410898442215 10.6435949056724 19.4856534884124 0 0
154.210925293268 8.55554973728436 0.676489339864041 0 0
-142.79970794609 -11.9363822428835 -15.2481800444004 0 0
-191.885056597172 8.94816260306255 7.02255408692417 0 0
171.917407718933 16.0836401547258 14.7434443102175 0 0
86.8223376130673 -8.98256075872498 -0.717669890889854 0 0
-15.9484080845409 7.08867894715695 15.9582882332882 0 0
181.300813837583 -1.94921641057131 -7.5484281004515 0 0
186.189046525519 21.8821371320032 -8.66628784842742 0 0
147.340017562454 -5.19248987890139 -3.25616922128653 0 0
-134.359515903367 -18.0573744806034 -8.43384902479269 0 0
181.030787181626 22.6339518388755 -3.10317061365686 0 0
223.091608277113 3.66787075218598 8.05088949134463 0 0
115.798793249735 9.5512910342022 5.65016247332188 0 0
-133.953233678618 -0.411454953022289 11.3056107460692 0 0
-228.765375547386 38.3574403992308 -16.1603070777861 0 0
220.28585666455 2.92960920781108 -9.27762578799635 0 0
228.090092691389 16.9729540564068 -22.6929111371711 0 0
-195.027442749689 15.3669175223621 -5.42432828706089 0 0
146.062433400222 -15.278413589512 -2.53266300690266 0 0
-201.739779979417 14.2703001670895 8.70183574253612 0 0
-205.36163584346 32.9929269944697 1.48849855202226 0 0
113.15946281838 2.44326838776788 1.12102463074157 0 0
-209.664208139133 -28.0094690823405 1.77395062743502 0 0
194.862795514048 40.7627437388393 -7.26236368658735 0 0
-190.125796036766 -31.4648407074569 1.05418471627375 0 0
-243.240306329493 26.8393454007446 15.104884953683 0 0
-201.765984961787 -6.85519165512848 -15.7370972577824 0 0
95.9367259794069 -9.77076002772855 -0.831573555390993 0 0
-130.531169776139 5.4529381835309 3.38689325390519 0 0
217.556899783333 -4.67983007960957 12.7525258761032 0 0
-202.844622110691 -20.3968475576859 6.9652814719213 0 0
-215.750691647721 45.0254174760731 6.24687258674333 0 0
104.960780018503 -14.3965168500177 4.13968856599535 0 0
-174.177103434119 9.82129139213026 -18.4503653275851 0 0
-211.363575035005 -25.9532712426765 3.58996002364277 0 0
198.654525665245 -33.6722664504775 -22.5717729076982 0 0
202.661929417343 6.40149324938271 -15.044848213375 0 0
-165.692425199954 16.4726090688336 -11.6408363371026 0 0
-171.20226555754 10.3654583762605 -2.54017816724246 0 0
-112.877722584861 5.19653069842859 3.01583984898179 0 0
3.75587058589923 -14.2965942491042 10.0750789515855 0 0
167.494098630116 18.5206842004581 3.717643196087 0 0
-35.5877028135095 -15.4588244858992 10.5368480474716 0 0
218.489919375087 26.2566280226531 -34.9088007729531 0 0
-239.708848788783 6.07802774158756 -0.628828630879843 0 0
-177.677324539789 -14.8207840488814 6.0173621661513 0 0
207.522674561573 -6.86594978435111 -20.9934554003016 0 0
-27.4418766929162 -7.53188295137541 -1.50665648118116 0 0
197.439771267411 -27.2670028185968 -33.8819244288715 0 0
200.693995848558 12.7462246463348 -24.3999882027664 0 0
-224.646085762163 44.3559073769349 -9.7954425408073 0 0
216.251189063613 -31.7207440399566 -5.80124043232579 0 0
204.412396146795 -7.49136438686859 24.4476594842406 0 0
227.739526159663 26.5478456889113 3.80877975851121 0 0
232.410865780908 25.8441765974327 -15.1649243051348 0 0
-16.4485037007036 1.0565377450485 -0.894048562340151 0 0
-22.51192813859 -13.3708702998345 6.67131373036254 0 0
179.725957272608 2.21803274764455 21.8834922301422 0 0
164.575918400382 7.71258521044781 -1.39335467875462 0 0
203.334329026579 30.2450944185889 -34.432315113598 0 0
117.788709415189 -10.1623803552899 23.7808404512453 0 0
-66.9565733417687 1.421325406519 -2.65916048021905 0 0
-85.2233734570067 2.5241733771014 16.6633853782964 0 0
81.3556779609493 -8.91918794604686 -0.462506072792197 0 0
-42.4020033956428 -11.851748519915 2.15049763280681 0 0
183.937219934841 11.0820215215796 -7.35010704975754 0 0
-129.43791093785 5.72015142869839 -1.78900020975518 0 0
155.365665424152 -17.5023585600972 4.11367168322365 0 0
196.083468159289 36.9583100273609 -0.293881741016193 0 0
-222.719589129436 -28.9057219808653 -3.30687445950322 0 0
-225.148839546086 32.481573656456 23.3152171972922 0 0
-180.677250294532 12.2240489942743 -4.25330414536846 0 0
224.797510570409 7.34479972792184 11.4911362564478 0 0
-233.821637472731 17.5482050200446 22.3863369380726 0 0
-84.6251234077456 -6.38345486873019 -6.91127596657243 0 0
-220.79897068468 44.6843113220527 2.90650158901466 0 0
-207.089541242157 14.9418539293967 -12.497952456395 0 0
230.262147846779 15.4391411436006 -15.7964396071461 0 0
169.559943439885 12.4462035979519 18.1238394969885 0 0
216.714541593366 -14.1206385152533 -27.6996013651017 0 0
-91.8042124285586 -6.88777577690095 18.665883359299 0 0
188.857678605372 2.04641744209989 -10.643745428072 0 0
-96.7297865100442 -1.55685854684733 -6.9402508233855 0 0
-155.371277118344 6.17610803034465 -15.5862698136139 0 0
-16.5231395556793 5.86860027297312 9.82279577164633 0 0
164.182209828308 15.0518216268622 1.2751302041756 0 0
205.558731238388 -8.34309422910544 -27.0405801550613 0 0
-112.958723116272 -18.2391632337668 4.71502789727033 0 0
-220.777275178016 -28.1094543568954 0.45523848932751 0 0
68.0844743956993 -9.36883070520251 24.8170594270883 0 0
-148.34644355744 5.76513811669798 -12.3496607031159 0 0
-131.522561001616 -16.9516782338142 7.50539240393757 0 0
-221.072390584917 -11.578515996148 -28.8259692684093 0 0
-115.998029806369 -7.10548407220834 15.1434694528647 0 0
-6.398668764327 -13.9413699283864 8.73531468890415 0 0
-178.436495898132 -12.1612024328201 6.17768981346433 0 0
45.771348282044 -14.2973079209604 17.6892930835619 0 0
-182.427081693345 -10.802123699475 5.94537481282089 0 0
204.121007430884 37.1395999650318 3.37512841154494 0 0
93.6292683792345 -11.1046638094965 0.216943664345225 0 0
37.4274576741456 0.303460092467296 25.521976820193 0 0
194.470962828332 -9.70228638217928 -25.9044014935415 0 0
182.592269828843 -12.3271326118439 24.4598452437987 0 0
47.9342967733696 -11.5411848873143 3.19759657429258 0 0
-165.03513416834 3.59513810448408 -19.5096159857426 0 0
42.771645893397 -14.7379330694803 15.546518284809 0 0
134.134991246234 7.84511040676495 3.06221020891719 0 0
-123.5150322353 -18.8194736106764 2.60158791968477 0 0
222.98201650368 -0.656786872274619 -0.389487598946299 0 0
-27.7533184088778 6.69826474823027 13.9579281710179 0 0
-170.516436878586 8.58986621259946 -19.9509322129258 0 0
178.434024559147 2.14885693573056 -5.44051877636022 0 0
211.511153697191 37.929200453635 -20.4624493899037 0 0
-158.929347455466 -15.4908813209251 -17.5801926774635 0 0
-134.310162506335 -19.6566291661972 -0.78807009543709 0 0
192.993294706687 21.5645491312675 -23.8394223590021 0 0
-138.568722741823 6.16075748019238 -4.5394424099736 0 0
208.210291563587 -17.0263821843316 25.6899324229381 0 0
155.292205720352 5.3295145706995 -0.595111957419827 0 0
117.191986211922 -15.6466568294812 11.0776739213735 0 0
-207.200841633856 -9.85320677101599 -10.4102506126789 0 0
-203.891822263006 16.6936598614767 -9.6355601710436 0 0
-134.200226174873 -13.6055322070972 -12.8902092287886 0 0
199.284068602044 -26.6238669828195 -34.9516487952576 0 0
21.9154470159568 -3.0276960735203 -2.75747631046147 0 0
-227.552882210221 2.35826376480383 11.928519807297 0 0
-94.6849039715524 -17.3955008712282 0.875390215627165 0 0
175.040237123847 -3.48909028729106 -5.8712189555669 0 0
97.3352802573196 -6.32800521735593 26.3404133217524 0 0
205.075822018015 -0.909705228662658 -15.1438699230516 0 0
-21.3504907602897 -14.0251758997249 8.16713668358573 0 0
191.392311212543 -31.7675089319769 -14.6552093273814 0 0
48.907585610725 9.84830599852334 17.244034167775 0 0
221.374552989263 35.2237624765691 -16.1244915564516 0 0
29.4063565847795 4.16882903984733 5.92046458066725 0 0
-195.401920427007 -0.477744227240523 -14.1160035593364 0 0
176.920323589396 -19.7136423122787 10.0335223772637 0 0
-111.167147400511 -18.2217525178373 -0.741740789011925 0 0
218.075216528151 34.8311193283774 -1.0985362023888 0 0
224.982037637895 31.7173053729925 -4.79921658875796 0 0
-120.876779536523 3.18697763756784 -5.69236293470601 0 0
192.451500828323 -10.3668823621006 -25.9771329076245 0 0
172.759350670762 -20.9508822764094 -4.99793236528326 0 0
-225.523730137872 -10.6812981657646 -21.4824796075244 0 0
139.105127988361 -5.26639674943906 -2.70302710675467 0 0
-136.529349284937 1.75360093610476 -10.7359768194713 0 0
227.439625747487 11.5975586053365 10.1613003260235 0 0
-124.554623814174 0.599431342326864 -8.76126681649728 0 0
-181.482216597478 0.346123490423249 7.32880263111052 0 0
202.60173001795 -29.6353311902681 5.89728922658661 0 0
7.84570408270559 8.02445134647143 16.9239749586692 0 0
-197.297840617964 5.46348157832543 -12.3054548331975 0 0
-154.058805372328 -8.326900892521 -16.2954006550438 0 0
-212.227293060904 7.38470531192941 12.7792461083887 0 0
-132.240275869699 -8.21971701472589 12.3991440437497 0 0
-24.1342256825616 -15.4147676347667 14.5479356454734 0 0
181.851606733142 14.7306689594181 17.0565597537648 0 0
-207.374273167889 35.8452194502102 11.4406256466991 0 0
188.117706523377 -13.1258720998522 -22.0446588656494 0 0
-185.883046172144 -31.6492237073843 -7.72398624681446 0 0
-208.828586084258 -14.2791065624003 -19.5068775502041 0 0
210.551733402223 21.7003175294289 15.9721205509989 0 0
103.588842904572 -10.7293590807765 -0.828240137156704 0 0
-205.776877520754 37.1540100915108 -0.330870957852328 0 0
-191.282671770809 14.7191539204496 -3.97152943127344 0 0
-239.04380777178 11.5794386273316 15.8345655047764 0 0
-222.70971021796 12.2735418126313 -17.5500912131541 0 0
-126.424211061559 -0.996017685265699 -9.92764547214337 0 0
179.478633295974 -20.9769938243622 7.34698884141409 0 0
57.7080299115853 -13.7216008165185 7.062094616059 0 0
-33.1964469885645 6.09495809436174 10.7209275138317 0 0
-153.233655945566 -0.494027127447149 8.95400270176045 0 0
-207.277646041696 37.8944365629778 -5.9869661010194 0 0
3.29417143725611 0.32956218495427 -1.47692454499317 0 0
219.021537496657 13.729083658786 20.5268898065918 0 0
-207.873591821814 39.9726042217083 0.0898576415079326 0 0
42.8800326775527 -11.3335437306098 23.1130497137948 0 0
-216.083248342814 -11.7264265717301 -8.84088434473378 0 0
194.753548305645 -14.4357721765898 -30.0769876630212 0 0
194.01081941967 16.9586879406806 -25.230825893946 0 0
-100.118340424501 -8.94358785784112 17.0940868103836 0 0
15.2077455635583 -9.03530011377818 24.9910504999469 0 0
207.355246209908 40.127454799117 -16.9258893348802 0 0
90.9134078853565 -14.1895947263965 17.0414487022353 0 0
85.6342506276356 3.51949652632788 24.7103934686332 0 0
138.385932891388 -14.2319076103279 -1.75154236603682 0 0
-245.688953448585 16.5454473770904 9.13032672862307 0 0
-226.89964313797 -24.4507444135984 -15.1208172787091 0 0
-149.588424732273 -19.7443976376048 -9.97512506296303 0 0
-207.339790453289 17.7150188420216 13.7996284075697 0 0
-217.8857048477 37.8995578840647 19.1103120630091 0 0
76.7487224613345 -10.2720083967118 24.0401374564031 0 0
211.622060853667 -25.8113077945988 18.9346995075806 0 0
216.3452186096 12.0047265459121 -17.5298572376496 0 0
-124.325248901427 2.19435807461042 10.9155077189542 0 0
-60.9324502055914 -1.01970373110805 -4.47876346132703 0 0
199.955041569186 -10.7473062706337 -29.3913127567266 0 0
-29.2429691076269 -7.71499800947396 -1.46101326189017 0 0
212.465564037453 -31.9807446721526 -17.8398857040023 0 0
157.842622340063 -8.91820647617121 24.5240855430327 0 0
-245.736429024131 13.56837597047 3.40631498985268 0 0
196.991215100678 -19.0165459256712 -33.3891498782414 0 0
200.859492656757 -28.9645694532451 -34.3014357056876 0 0
-220.056856641284 -18.8883496059545 5.32193499985726 0 0
-197.100611318587 -23.5782658455362 -26.0441836880622 0 0
142.031005686843 -12.2054630958928 -3.72893925417227 0 0
-188.374944255632 -20.4345438165506 5.06993360025081 0 0
-202.825524874939 -10.9677130146997 9.56818984405761 0 0
144.966053682614 -15.8463108699878 -0.918707382591906 0 0
203.036952540394 -28.0517125228295 11.5794560755562 0 0
213.176263101518 36.5046996593008 -29.4287947176003 0 0
232.097641559571 16.5598562431924 -5.02808748322464 0 0
-218.29443179526 9.80239173052185 19.1937865402047 0 0
58.5704769569881 -14.3407815691722 16.6827745471366 0 0
-208.53408034618 -9.17753526919708 -9.76034303561259 0 0
225.600410971694 11.9833383863836 13.5636924921056 0 0
-245.399991470376 33.804533314819 4.78059732811148 0 0
-211.254780296739 24.7338000792974 16.5638539921888 0 0
-170.259934582319 -2.10225608784887 -20.4737805273295 0 0
-66.6217417256949 -5.02467898682644 21.8107725109669 0 0
-17.4594190787819 -14.3408716310013 9.23579677069514 0 0
149.01177135486 -14.5585882148631 18.6550517941557 0 0
207.64973290445 -34.859591771835 -31.58225859603 0 0
123.672423501923 -13.207080638953 19.9201321500478 0 0
-14.4177524880459 -14.4436854766851 18.7337365042595 0 0
-189.596810870742 -8.50275584894593 6.95168608105405 0 0
201.725579765186 39.1581526981448 0.488184123664173 0 0
43.9221369712034 -13.298048711488 6.88231023412491 0 0
-36.7656240853279 -12.3412736772261 20.8766776501319 0 0
-185.028798254106 -29.7836759127218 -15.003760657705 0 0
-187.57054326469 7.10067235298958 6.70461951657851 0 0
229.664502490128 15.2040306555742 5.50586402290229 0 0
143.000469589954 -16.0001736963167 13.2692826239253 0 0
184.871374068409 16.4676271195942 -7.7249269419143 0 0
103.556455998059 10.9462550955404 19.5173485320609 0 0
-189.333515272719 -5.00710767446543 7.66440765449477 0 0
-49.7215976383784 -15.4061223844603 7.73003531752288 0 0
-229.018877723554 28.7893580601164 24.0700769864507 0 0
201.736539712622 -36.2983403237473 -12.1704930206643 0 0
-15.7624105941794 -11.1343291126702 22.9649939213729 0 0
-39.5992014196584 -10.928706240818 21.8949591122662 0 0
218.222424932091 -4.84507978497737 -16.763813389497 0 0
181.748311205766 -17.3164549319208 20.2998743421303 0 0
182.5402499244 -21.2615067915429 -14.7938870390024 0 0
231.292466182937 30.2585215479151 -12.7802075153916 0 0
192.649250030652 -30.8094189248249 -3.52861279491766 0 0
-210.611211208297 41.9675812212504 -2.96612085222476 0 0
176.927591723442 18.2979348557796 12.6967642251084 0 0
177.507583105286 6.0483978511134 -4.98423867612868 0 0
-224.242740701891 11.5574112974017 -16.0235541187596 0 0
-214.893005964944 -8.70773414174769 -22.752320171343 0 0
-180.945541447445 9.06980949086016 4.29570904390026 0 0
163.791142979821 4.68518214064997 22.3884334888269 0 0
-192.990867428907 3.50414521900454 7.72768282935245 0 0
-191.778420151352 -18.3757378645824 5.65147176325583 0 0
44.228840902704 -14.7642243967392 13.2865341892752 0 0
194.162944033974 -8.17322996515044 -21.6177259406564 0 0
81.6086407297431 -5.62218002826956 26.509200382888 0 0
174.065769344715 -12.2241706867718 23.387221902615 0 0
214.039583387299 27.9202997213156 -36.3526370605195 0 0
189.939373633898 -20.4378347567154 -30.0380674776182 0 0
-160.614221440817 12.3800000096244 -17.3699924214266 0 0
-193.013541104008 -30.0173605758616 -20.404311111048 0 0
113.565845153268 11.7420159797442 8.0765663131348 0 0
219.530796223729 6.07025305164106 17.2896603547886 0 0
-121.551518625199 4.4200040616157 -3.37691112576401 0 0
-150.168368845501 -12.0813658060409 -16.1730372526079 0 0
2.7274848243976 -14.359742011956 19.1176263348468 0 0
155.108466829407 -17.5350093660252 1.33058741362982 0 0
-95.6669451890994 4.44838564570177 1.77775028121899 0 0
194.437443384831 -29.6316696247683 -28.5619363103287 0 0
-205.448755679753 -20.5931423370578 7.49916924537095 0 0
218.639390920181 -18.6698354974027 -27.9709434608339 0 0
207.528875163359 -14.8319573815844 -33.4447088576834 0 0
200.64891046731 7.71012862534164 -15.7643442168651 0 0
-219.179682577492 -29.6828254985743 -13.0195890964952 0 0
-80.8892227729326 -17.1173185596247 4.53174615852912 0 0
102.838677744556 11.3603696994675 9.12173360108516 0 0
184.951552957905 -19.7214066233339 17.6518921056164 0 0
-91.8648355233142 -12.2139836490649 16.6006842905358 0 0
-173.476466670201 -24.2259620394868 -14.0075695387607 0 0
-8.34073723829828 -13.1398473483757 6.98442218115164 0 0
227.538118246065 28.5946232421955 0.397757802763356 0 0
-210.476445126772 -13.5340664027353 -13.3296356718583 0 0
-220.814216419796 1.58768955587729 -5.46071966071773 0 0
208.445652322956 16.2197597111939 21.1049848948402 0 0
176.176761855212 -9.91983328858185 -8.45674088480128 0 0
-168.647999766513 16.7626811925093 -15.1741365119965 0 0
224.460677931527 -24.1561718708685 7.10154827540895 0 0
172.309290370702 3.96444039662484 22.0492828991748 0 0
52.9153191012449 -9.70859932858171 24.4353837831329 0 0
8.54070868085659 5.30033688649006 8.34205369563674 0 0
-164.489080131236 -14.7905801737239 -18.7361423427117 0 0
-196.916578174052 10.2073316080119 -10.3428545299812 0 0
-192.09373980065 -30.7100587757138 3.19079374862884 0 0
133.783973388539 -5.93666575268219 -2.53166588457953 0 0
222.526452716707 0.680378085749039 5.21085209704304 0 0
-130.929623040791 1.04106877392788 -9.72661458161622 0 0
50.9951098437796 -14.5505728654526 11.0881293501088 0 0
181.526080945281 -21.2157790957437 9.14523088134597 0 0
184.163875737055 7.48508650220883 -6.84129066437061 0 0
172.43564168865 -18.5469924835008 11.6553839206888 0 0
-195.532842469497 -17.648567342362 -27.8809553249656 0 0
187.716688262798 -12.2510396801664 -16.6446986062024 0 0
176.132067405493 -22.0460237194188 -5.36559505317977 0 0
-225.826728216128 1.0768789762474 4.50553236286297 0 0
210.358644394285 34.8985336634422 -33.9821923593568 0 0
203.412085234876 11.7592871456789 -28.1773728376524 0 0
21.4036677120926 -12.4964562261716 5.72469549925964 0 0
90.9873418301536 10.6112345956949 19.4435204098886 0 0
212.720168703487 30.490995074477 -36.3997683082492 0 0
-4.61794639345465 -14.4104000208929 10.1731926622818 0 0
-70.1269660120376 2.97998636317129 18.2023172994852 0 0
215.145615366352 -13.829132791512 20.5206386337471 0 0
-179.83149454851 -26.9121492700955 -1.38149538067572 0 0
203.720510615066 -28.8401766459543 9.15614937553423 0 0
217.239847176631 -2.4529526633772 -10.0613965437408 0 0
-42.6107300429125 2.69617839494599 0.860537340768635 0 0
-121.759270622986 -17.8122129850834 -5.60396461188894 0 0
-65.6000676154196 3.34290179082454 1.4568582677688 0 0
-162.51926345417 0.414228559723126 -18.5443569648604 0 0
207.978690773956 40.2800101586137 -12.6505594716388 0 0
-177.130670477312 11.1428513325806 -14.027960039144 0 0
199.841267965102 -24.7179233772905 -35.3090009680785 0 0
-80.1443662783485 1.29009246400799 -3.23633287068929 0 0
181.268350332364 -16.1205356214907 21.6718926303272 0 0
-156.777300902062 -5.79667383275441 -17.0387705566598 0 0
137.997282659396 -7.58720588100234 25.3018370470606 0 0
-180.104130235346 7.41044109906807 5.46033974686065 0 0
-97.2157651486226 -17.3462390037854 8.954551537998 0 0
217.437987278962 11.6046952728619 -26.4368018327169 0 0
25.7425381001813 -10.8449524384897 3.01927145399006 0 0
-213.285575274597 21.7779893305228 18.4437718516482 0 0
194.148950477557 -34.4039040613729 -9.38835718432158 0 0
-88.4311092576515 -12.6601296768629 16.6868928341997 0 0
-220.345729380964 -28.8863053240143 -13.5547306765962 0 0
-96.8561867510725 5.12212987503998 6.87618465329915 0 0
-74.2649234090899 -7.86745519551524 -5.65197134723303 0 0
206.511213544239 -32.9744317937958 -2.07457267408409 0 0
-93.0491185548261 4.20327621820216 12.6898425673971 0 0
179.649751825156 3.20850071711841 -5.71164128492769 0 0
-231.698050692207 4.08735131401448 13.189758601291 0 0
-239.444230876498 18.4936422431428 18.9632402213846 0 0
149.652918431532 4.4018836407919 23.1849208294499 0 0
210.843649324837 35.2214471633517 3.36430594654869 0 0
177.297167998828 7.27448312634607 20.8521837197293 0 0
81.5536732557611 1.01024107872554 1.17787592448325 0 0
223.119957270551 3.95246179685349 -6.76710208824533 0 0
-28.1456763416246 3.26434810910971 3.35580007092385 0 0
-243.923194942233 30.5105658800644 12.5298356679291 0 0
68.814879371109 -14.5858754428142 9.82015969286168 0 0
-218.98822125667 -2.37474119032348 7.15460905688167 0 0
61.7133454253795 -1.4039808611448 -0.541547832351134 0 0
172.763108429645 -13.0554209788997 -8.47751744321916 0 0
22.7869260749187 8.64943039777597 15.8263404396001 0 0
-164.973805921321 8.95883983100425 -2.06650417387693 0 0
-8.41087265911719 -6.75020285404339 -1.54269872926318 0 0
-211.909826195449 43.3348677937714 0.254257623978261 0 0
226.401503475836 11.3257381354961 -16.9170072970321 0 0
-218.167366725862 36.9421789690285 -16.7618200247102 0 0
203.035025849374 -14.3013955847335 -33.1041862114055 0 0
-233.567786930555 43.4039255597053 -7.61127492241518 0 0
-225.269104804361 25.6760272763853 -21.8101325595965 0 0
213.012460518175 37.9897422583477 -13.9596731279937 0 0
166.146957808714 -4.94635879389621 24.9004483573729 0 0
12.9036977450213 1.16800570568302 -0.243055063754954 0 0
212.013055782762 11.0921480201507 23.6821325428882 0 0
-102.194255395561 -13.9196909672155 -5.5863327048901 0 0
-154.804616081178 1.47144586318074 -15.8880497411166 0 0
44.2589889317286 -4.27227681450232 26.3218330439703 0 0
-124.375316477009 -5.51661507203918 -11.229338940552 0 0
220.109910935889 10.5364353517384 -16.5657028113414 0 0
-221.38432440104 -28.0930555352017 -9.61548128023965 0 0
-33.7466812177276 2.40586606510226 22.2474326614407 0 0
210.42096808029 -30.8278363812753 1.20858476180269 0 0
194.507932571258 -0.994583125467852 22.5786687516721 0 0
-146.126263115099 -3.64616800582741 -14.5726342918974 0 0
102.127181687835 -0.492564344750945 26.1857883580408 0 0
166.514170313924 -17.7525932129493 11.36026528088 0 0
-196.949185415525 -13.7668024265128 -28.0628508883987 0 0
210.160701827847 39.9133320307317 -1.76170743449504 0 0
-60.9664321615286 -15.1482843604658 4.12806626844833 0 0
-206.863746324004 -10.4814886305941 -11.3157435066006 0 0
-42.7755008347282 1.4382316150837 -2.17197433087558 0 0
-110.602793017486 -3.58184103310304 -9.05439534020398 0 0
-74.4741842913093 3.87963003490248 2.21588239731454 0 0
-219.185337545096 -30.5244040501053 -5.32598343669365 0 0
25.5074569670189 -6.21031764400351 26.0157960906645 0 0
-218.161680526392 3.41264915198561 -8.77014380954436 0 0
209.251044235947 41.0785207631334 -3.82787107510916 0 0
219.101714651323 37.0739342129204 -6.57260561383023 0 0
143.635106817328 7.16003427795492 22.1801570983872 0 0
123.516308799455 -14.9417550015025 15.5926496877775 0 0
-208.8501035775 -13.1049762679347 -12.9212375591144 0 0
226.67144220432 5.63138409196765 -0.581026926446635 0 0
-53.5564342280542 -3.24166402220143 -4.7112762342197 0 0
187.914473626623 28.98916686141 -7.84982367613512 0 0
66.4198060840193 9.51785903452356 11.0114680444752 0 0
213.536211099766 39.7160342956907 -3.84939050674137 0 0
170.840023086216 -11.621324552245 -7.59916224619557 0 0
107.025987214855 -15.2454375464545 7.07031974320852 0 0
-104.260147628893 -18.1834036123553 2.59251631932838 0 0
-34.0879852446174 -7.6814486939001 -1.83653013150143 0 0
-143.513754076241 -14.240839596706 8.80252370236744 0 0
193.558641988651 -11.6436783903053 26.5104975742985 0 0
189.805132773101 -27.1318093052484 1.12739823386021 0 0
100.190854713136 9.72104141587013 7.27331236628772 0 0
-216.805021397673 -31.6755830370693 -8.88721992270354 0 0
77.9465663904361 4.92224772513545 23.8806148165301 0 0
164.15860458026 -14.1324665826381 20.6550861978348 0 0
-205.221603263477 -35.2812680087998 -1.34106362176396 0 0
212.853407356341 -35.4406645979016 -23.8756300031288 0 0
86.8670954851263 -5.58413922510045 -2.01059210574419 0 0
139.812382829665 4.4257970413942 0.521514427216155 0 0
118.792258867568 -7.33891861009369 25.5951401960535 0 0
-10.833886098134 -6.24357777149751 -2.03266629072555 0 0
-147.893089788361 -20.3377791013163 -7.66082440718392 0 0
170.30661366545 -3.4561109064037 -5.07148156411328 0 0
108.689321819376 -15.5615218868153 9.44330050301533 0 0
-233.265082596099 41.6292979898157 10.6629731177465 0 0
215.731236556482 36.415539860499 -28.541373103828 0 0
-166.988649393377 3.94411869085145 7.14851519275469 0 0
177.962646768733 -21.5552892183012 -9.94321039419004 0 0
-210.719204272963 -14.9766749770758 -18.4265473700972 0 0
216.11253731492 -30.2744173591809 -32.5618040643093 0 0
-150.623762816434 -14.3439572671085 -16.2439779418133 0 0
193.705752378914 35.0829173120094 -0.883401219330479 0 0
23.5625461369194 -12.9456084944153 6.64860654807479 0 0
99.0714575726994 6.63800403727666 23.0896912139211 0 0
209.974017830213 -6.3802044997988 -20.3960625546848 0 0
187.888108097904 19.629087744032 -9.54768092605677 0 0
215.114647073478 0.283535851317913 15.9607307618036 0 0
-209.714632673297 -24.4661000521384 -27.5859901917981 0 0
-192.980031923541 -2.97290608519321 8.18651310782569 0 0
179.702921058514 -15.0201105170269 -11.886037585533 0 0
-226.061227129199 6.65208089404294 17.2859949143692 0 0
212.627830842745 37.3822590259081 -0.81836062560933 0 0
192.027242375477 -7.51540610896905 -17.2457979709765 0 0
5.94318023906838 -13.7636508944885 8.70161199644865 0 0
-136.089142773871 4.9013229998518 4.3006092939284 0 0
-242.634244688588 13.6736825875025 12.9526154676972 0 0
-68.0548802014282 -16.590206112106 6.88909357987833 0 0
157.572203242497 0.639219629970389 -2.28043640455154 0 0
160.623336777389 -13.3264000301996 21.4608202469003 0 0
-236.411807635592 7.98684152418653 14.9716702807819 0 0
130.69510567073 -14.6892507957709 0.797315766405094 0 0
-192.111430907129 -7.81359412812945 8.29255756207093 0 0
196.732955033856 32.3750380943018 -27.8148189380452 0 0
-41.3253805622883 6.01394443458687 10.6972469555567 0 0
212.072288674731 12.9635278021674 -20.6330540715614 0 0
-234.407742454666 31.4342847039758 21.029387011236 0 0
-220.798631601097 -21.6512290804997 4.20776380548759 0 0
47.3057780447347 -8.08330303754387 -0.170913133313895 0 0
-236.208732631483 23.6115690446336 -18.8135660751059 0 0
210.761905076674 -0.68054284361865 20.0593134969406 0 0
-202.524369891305 1.47327575662233 -12.8118891417804 0 0
154.132852692098 -1.24570907373963 -2.62216426131744 0 0
1.06747540303324 5.94890691851011 9.85398984639452 0 0
-215.433033339086 -2.92832661750241 8.47056932533436 0 0
-247.111363564513 28.279030459066 -3.23131397901159 0 0
-199.95037190105 -3.32962683268966 -15.4023329999021 0 0
3.54229150913116 6.42751092873425 10.6882971605452 0 0
-156.25597469781 -21.4450826962449 -8.63096124263973 0 0
-208.061704581497 20.7687602027587 17.0071312533458 0 0
202.912858533031 0.304499631222801 -15.4610400541572 0 0
-41.6050387400928 -15.4424460848015 15.1576720297634 0 0
-226.550517692238 9.42507214180382 19.9585551274256 0 0
-182.826814650021 -11.6216395789618 -24.5963970441312 0 0
-214.738803039174 -12.6382552208112 -19.3549715229978 0 0
96.4133626234406 5.15616605316139 23.8663001910714 0 0
229.750338374239 29.1101874214143 -22.2601157141398 0 0
-129.34675535438 -5.5963205365436 -12.0854844057064 0 0
224.285661113634 -32.6707359751614 -18.9831505039156 0 0
-64.4576011432896 2.56490105926071 -0.339288638005193 0 0
128.775042488544 -13.86176058059 -0.306828300040442 0 0
198.386615800116 39.7490929102869 -19.632297991468 0 0
-192.686725842964 -14.0951150955591 -27.8836062711802 0 0
-53.5575920997984 1.28381023513308 -2.67206203793796 0 0
219.618640156964 -35.4230523316092 -21.3944726608506 0 0
-184.082715271249 11.3678680195115 2.94208665751997 0 0
-95.3581235876531 4.95872926262764 4.22397905791203 0 0
-200.861972557957 -33.0694548499167 -16.7411256034381 0 0
-242.045127732437 21.6589595722138 -14.1992165470006 0 0
-151.949200241336 -3.34865724120564 -15.7112412370151 0 0
-218.995200332578 18.3506210677479 -20.769722252895 0 0
-217.080622118039 -5.31085737729078 7.27383574701098 0 0
87.3263865813279 1.146797405429 25.7351031702833 0 0
201.927708910356 18.6796103221981 19.5211819134865 0 0
200.040974978096 31.1812460676685 -32.0042038173826 0 0
-22.8501661235499 -13.7395891617259 19.7450914677828 0 0
-20.6951132384374 1.04290213520769 -1.39188158350259 0 0
-197.944658734248 -12.1657139228011 7.59002623927301 0 0
-17.0153902401485 -15.3431696404551 14.0184347302092 0 0
-178.551474766611 1.74662850941693 -19.6908309646095 0 0
228.44086674992 32.2889082406621 -20.2931229538871 0 0
-122.864927178445 -0.0863850473484572 12.9615447449421 0 0
216.9629165851 -29.2171929867778 1.35137497259238 0 0
-228.735342774485 30.7246576686564 -20.3895677906604 0 0
1.2502360040727 -1.28479172221295 -2.89582629421403 0 0
-79.2755337648859 -16.5454944439633 12.0962273702019 0 0
214.833766428807 10.1351045753421 -14.3000427227775 0 0
189.738232345528 -26.0470713586567 3.5748598548259 0 0
-190.506577172029 -34.4962828333511 -2.90107143431049 0 0
232.129895805674 16.6234051513427 -7.31253203723673 0 0
-41.7119650697488 -13.0738989742983 4.00604267356098 0 0
207.466363974712 -21.2380762112067 -35.4023541909676 0 0
105.569230671874 -11.2660643001026 22.7453440088001 0 0
-199.874158548269 -31.7881773169526 -18.926378766873 0 0
-59.6086208925388 0.915924303667385 -3.27892704877199 0 0
-209.139690611545 30.8567728581541 17.1673294109904 0 0
206.485918671862 -25.8113453407546 -35.9060784822146 0 0
-159.394267362344 10.1855555573249 -17.3071052880972 0 0
160.08329314035 -17.9980761501823 4.08077918811039 0 0
-49.7515693562841 -12.4502328652756 20.0339196641193 0 0
-123.86018794991 -2.60411560701541 13.8021565954931 0 0
226.823282089685 8.44042382097193 7.80650874861721 0 0
36.0411935648922 3.41613833769783 24.2410989400361 0 0
-136.554818891324 -2.16758531221833 -12.5051102219441 0 0
-9.54286371915046 -14.9682232747598 17.0614551764419 0 0
-228.996880737649 5.75398675730307 -5.92769503596771 0 0
228.603735592052 8.55682062846522 -3.08946500854084 0 0
-230.610871033054 17.0429585854533 -20.4244485804242 0 0
218.882976796712 35.9200718947459 -18.2342934581347 0 0
-240.514625632656 16.5376764959059 17.32639296782 0 0
193.555667938958 -22.9395882044596 18.4886090683853 0 0
-235.438593795903 25.3846758145938 22.1104942547184 0 0
-93.8450147518824 -3.5789045711365 -7.43313612736319 0 0
-167.795837240294 -0.437611969340983 7.54369404894176 0 0
-209.698636235301 24.2489494758769 16.494883690134 0 0
-150.870144499424 -15.9542460397818 -15.7955929935255 0 0
199.101929152413 -25.1576475601934 17.6955353178188 0 0
-8.44513818986778 -8.38542215052492 0.0507030717554678 0 0
35.5991026644436 -10.9072039869643 23.6740803595612 0 0
-174.882359577608 -8.48145584557674 -21.9771855808344 0 0
84.7328317996351 10.9592394937239 11.8498012213803 0 0
