"x" "y" "z" "f" "a"
171.290962251286 -20.9042679720581 -30.7503406332144 0 0
-222.55664843017 20.1977542610308 -29.7557686276973 0 0
-233.818965750528 -8.74744070853549 -13.7271977668501 0 0
192.867165982084 0.989161269675292 -4.26089192495367 0 0
127.93636141871 -18.0294749196939 -2.85887380495674 0 0
99.4172961502018 -9.15748517773398 24.6421443684094 0 0
-185.271273441322 -11.334612581784 -18.9700420833113 0 0
124.785317340559 19.2241336761579 -7.18599328022765 0 0
-226.55058553534 12.057458032 10.4240791010742 0 0
-94.336798193366 5.53771159104512 -7.80359036531538 0 0
-76.5750714688822 0.235240670853318 -6.81151790148787 0 0
-249.429554086405 -18.837306489572 28.9060563721238 0 0
-13.4798941677902 14.5374363544972 21.0409791763214 0 0
153.973431377887 3.84449350442851 23.1566363914152 0 0
199.859956821073 24.0015577959083 -8.73048663362318 0 0
-225.011252434394 2.35636561885737 -16.5308815280773 0 0
94.4829566091432 15.0968878649345 18.0210084335501 0 0
41.401110301941 13.2069453746855 1.91128638696059 0 0
-3.27620380832829 -13.2283314786225 16.2472439160559 0 0
-120.179060382716 -7.15621409542992 -1.55950703336657 0 0
-231.623092537658 9.21560451089671 10.2478965771286 0 0
202.296086937099 -17.2979032108973 -18.1992402666863 0 0
-261.097120249624 -34.8150736603962 -9.15597919874638 0 0
123.612688452063 20.6681517855525 8.7495555020808 0 0
196.668951640436 -40.8191137673066 -25.6185513435895 0 0
-102.673443217357 17.5575190719817 4.89426284940382 0 0
19.2296965042387 15.0927111131889 16.2538200159417 0 0
-235.592617814812 8.39407793211395 9.14899698373717 0 0
-142.964635035945 5.97206467423063 -15.046419931094 0 0
-107.438694761599 -7.09282714570448 3.15782176937116 0 0
-97.5283753806036 15.1071270278751 -0.358125116995716 0 0
-168.422601475778 -4.2122280131654 -16.0309483372685 0 0
-252.924828718208 -38.0455085010003 9.27617673403951 0 0
-95.9437802476601 6.40124651451556 23.7498574701654 0 0
-268.443100853513 -12.8446247420571 -5.95321214381795 0 0
197.32880466238 17.8627062305976 -9.55797584742457 0 0
144.641295646414 25.4702730068448 2.99257195275019 0 0
145.227802758062 22.0404362474746 15.3987575054403 0 0
127.646393510072 21.5470501479422 6.74853261768041 0 0
-179.260164667006 14.5921504960076 6.07983422624673 0 0
-164.472136181292 19.8410803219799 -6.45779153883898 0 0
152.747676469643 -14.7486947659866 -13.3356534045893 0 0
-70.9618920911905 -7.03718403846838 4.53208613228779 0 0
-119.276943050294 15.1077229736208 15.4226844172168 0 0
-233.816455898213 -10.0254247554581 17.747401790866 0 0
180.310570919309 -41.4371693959529 -27.0821367454935 0 0
50.0179563624961 15.2807523687122 14.8571448481811 0 0
196.530903233325 12.8765803897773 9.76771119657481 0 0
-62.4196431372675 -7.27362880569514 6.24673534175211 0 0
-174.574253357778 21.253170898588 -6.59579258942052 0 0
118.080009078425 3.696538383061 25.6893155193139 0 0
133.947221998603 22.9256932021547 -5.53099708955582 0 0
164.997043573612 -11.9660792394669 -16.6109358083735 0 0
186.587303059102 -25.0149870549948 19.4541323262349 0 0
188.100030617177 -26.2447542544996 17.9479908113957 0 0
-206.877659992416 15.0519619256309 -28.7169229991566 0 0
171.789827848974 27.0421071496088 -37.7162692219112 0 0
104.580502556824 -9.13550496771283 -4.92778751281294 0 0
132.117409427786 17.3902079600394 18.4559684716281 0 0
185.522400542091 -42.8233479686984 -8.41392211468123 0 0
205.008724375243 -21.2032152195485 -18.2686295429925 0 0
113.22306323341 -19.2156072495791 5.06451654289076 0 0
125.296347948472 2.52491736422178 25.3545796349293 0 0
159.355465848946 -18.4330548425303 20.4752642661002 0 0
160.656040270918 13.2319379551092 -19.0681507347662 0 0
155.571851964597 -31.3211145004257 4.28029666363199 0 0
-231.511687665555 0.892995155706563 11.7196325515953 0 0
78.0714902492022 -17.8223474281249 10.0937147016539 0 0
169.30044472292 -19.1498858171259 22.3729314148188 0 0
-62.6819159431813 3.10907186040494 26.8622518071609 0 0
-216.163875825159 36.0775229437676 -13.8987491041638 0 0
184.572953689382 9.57422042204439 -18.9634040536397 0 0
-168.305496925854 20.3403140365331 -6.3857392695137 0 0
-260.720848352647 -40.1262401547539 13.789174514705 0 0
148.423169148262 -9.90263063524333 -10.9421681392122 0 0
121.030124458713 -0.374487222493825 -8.52479248777012 0 0
183.68377020642 -6.08002927054856 20.1277076712736 0 0
198.96349362928 31.9415334729911 -23.3191823647076 0 0
-28.8078134526337 15.9871741862185 16.8673261208184 0 0
-87.3479089824798 17.275451537379 13.7064863552214 0 0
173.124255060072 -15.155165268892 25.0059682649898 0 0
136.13039826938 -9.80705169351718 22.9050458081195 0 0
177.7244456399 -40.6742087275515 -30.5341970248829 0 0
-239.866715705409 -42.4332921373077 10.3645934999893 0 0
156.815434873367 -24.1559258690463 -13.7601753368166 0 0
37.3195998436358 14.0578033986091 18.8710165408692 0 0
-199.850987245687 -22.2625397815179 -9.34115537265692 0 0
-238.56115450888 27.5176449474113 -12.3337034247231 0 0
108.29091073458 1.81592111544227 -7.95935322766436 0 0
28.7214042013246 15.3538457090076 7.96918147470591 0 0
-197.956943358385 -7.33947645713488 -23.1686197576444 0 0
188.759947399318 -36.9337554751493 -38.7499535959363 0 0
-235.379895627157 -27.0301629136875 -8.43595776437241 0 0
208.799684054381 -27.7241806848542 -6.3655313051775 0 0
162.212578701666 24.1226211895318 -28.5041382523868 0 0
95.8905297123626 3.50238039670743 26.8019043760153 0 0
198.921530876545 22.7320843310571 -20.0016028433503 0 0
82.85799116159 6.54196792655889 -6.87489650935721 0 0
186.9524517871 5.35956431780835 18.9754542952022 0 0
-9.70214072059714 -7.22534962888145 27.8198862544207 0 0
-128.899340374284 15.9914050572796 -7.0662890082263 0 0
-203.546906860852 -8.71523347458104 -19.9638327177913 0 0
-200.167074506027 17.1817318414904 3.68310181481817 0 0
195.169483238798 28.2734602776541 13.26958077364 0 0
191.896085611931 34.6697604134429 -6.77510189228593 0 0
66.4919670385079 15.006972013994 16.6292382532969 0 0
180.792435714494 -22.3888854217694 -37.1916924927504 0 0
177.708910346992 -39.8295192355512 -38.0136488206209 0 0
189.17193611511 0.824230889297265 -6.54518626506772 0 0
-10.3971733922595 11.4945146325998 3.32495769681768 0 0
184.112325320415 -9.3961788445189 -13.3252673757667 0 0
186.922761078866 -32.6023385635998 9.6927165128182 0 0
-51.2899195962586 13.9008810945939 4.78815924243033 0 0
-75.3419871699211 16.3704049657469 6.76662255204975 0 0
-75.0024158998174 14.3393638243691 20.8801660035531 0 0
-241.157613132643 10.2376446133016 -1.01248781362826 0 0
202.743584071246 -16.0375288696461 -14.3572037268619 0 0
-6.26665249926332 -12.8228884190317 15.6218694461154 0 0
170.25856620912 -0.401852290738084 24.3998311097828 0 0
154.015214779308 -8.30923084655367 22.0010667042064 0 0
-167.426147783446 19.6788092607717 -9.12186075334018 0 0
168.047732390038 -34.5596061297823 -25.5165263325664 0 0
157.661374410778 31.3025911409111 -0.777264097565533 0 0
-255.154834482119 -41.2684852504917 2.64191647651759 0 0
-5.91580963995106 12.0852265005345 23.8217879618419 0 0
-138.391096871006 16.3356542467974 9.94778927571076 0 0
189.939320395263 38.217139142585 -27.6602205751537 0 0
190.255501527986 10.513550682002 -14.8462179538924 0 0
159.71327726257 -34.2490814489632 -6.61606467821059 0 0
115.011776919367 -20.7622242059708 12.7905111563 0 0
196.797106733757 17.9953197744998 -15.6441609636311 0 0
138.586175649845 9.77423527461235 -11.3342755484254 0 0
-216.215240318688 15.8108116749057 5.9456395706648 0 0
155.982632521726 -2.6872143342798 22.0642751097472 0 0
53.3663710633265 -5.60821776486867 27.2769123419501 0 0
193.243090512486 1.99198582224741 -3.07903297302426 0 0
175.385731684014 40.3703446864351 -15.7474553934865 0 0
-226.676408881236 11.5356711743024 -33.0420110200509 0 0
-254.114983676608 -20.0240204421466 28.6489671005149 0 0
193.524580344561 35.4693887511606 -13.8578343616559 0 0
-192.830318094248 23.9102675875553 -4.39404517191599 0 0
-245.626551502216 21.5384822073528 -22.4620980004107 0 0
78.7358102904124 12.077347549402 21.8413681364914 0 0
138.012634466899 23.5045767948205 5.62814959451921 0 0
-159.850173725404 18.1109462873328 4.91586946530677 0 0
108.558327921283 18.5840806148975 -2.77209778774279 0 0
-18.2790578201267 -11.9719866282823 23.3975106067808 0 0
-15.4933336831041 -11.2581907610088 24.7744046061805 0 0
189.22011634293 30.3585550072803 11.8385598752023 0 0
185.615383062666 24.1439827211189 -36.6931812900115 0 0
-201.42728337456 22.3522337861284 -21.369646331655 0 0
157.145311282131 -4.89518038449337 21.222021915134 0 0
177.056173984714 3.23794341149997 -17.4300775904972 0 0
-218.098899431355 9.22553143285845 9.17421949403486 0 0
193.381005669686 -35.9511832542311 3.19967532743751 0 0
-183.534865491407 -22.4386288471581 -6.55730963827386 0 0
-207.896572422423 25.133328550546 -24.7522935352848 0 0
172.831628851873 19.1897323834586 32.3949731518882 0 0
200.112097176683 -11.9498535974143 6.07956892560799 0 0
131.665367202095 -11.9179552502233 -7.21023216081962 0 0
-19.5523428803515 -5.31563645154204 1.88694829830574 0 0
-238.468702275272 -41.9956009705178 0.899808325137848 0 0
188.226923421768 30.8802617568301 -36.1762084491751 0 0
-189.761371920701 -25.2168033939094 -8.24502484813189 0 0
208.584096003712 -30.4779220756737 -2.35750367719861 0 0
199.710730156825 -38.0021813429019 -31.6468670994708 0 0
164.955584710228 -24.5970740853189 18.7316524845555 0 0
1.83565621709681 -8.44476882556099 27.3339162784127 0 0
203.626595033878 -35.8313705119742 -3.81327311885352 0 0
-114.914381031768 -3.35207658039504 20.8538960076766 0 0
105.533198804891 -2.8003468796854 -7.16491951749058 0 0
-260.096588313554 -4.89594250627292 18.9692448227301 0 0
137.644900446194 -20.03135252722 -5.74375595180785 0 0
-239.58914724041 24.9565331119779 -20.8827376918997 0 0
-139.485148445073 13.8631427142917 -12.0574555607668 0 0
161.702377465744 -6.48066853949105 20.3005232178209 0 0
193.3068430925 35.3058850097244 -31.6451258347738 0 0
170.808489528442 35.6115418579574 2.66489854313914 0 0
201.364242061569 -17.1072341870067 -19.6139765861731 0 0
14.4981889917368 -2.877268805416 28.4854166949409 0 0
174.146701770831 28.5586035738088 -38.1738531302515 0 0
84.7224837519572 13.6758210540543 -3.19722770585331 0 0
-200.863753362937 -12.9861094805008 -14.3081408244992 0 0
152.99081824969 -16.2003206086388 20.5256815135753 0 0
-232.721807545709 1.81171182943293 -27.6628214643942 0 0
203.416510102443 -27.424463455447 -27.3930775760512 0 0
-192.484378778537 -5.15655878276748 9.62528598681734 0 0
-220.426135722486 18.9036378110756 -30.4355769805398 0 0
-208.412682682349 31.541255236084 -8.69307756528792 0 0
20.1210519977923 -3.5148913719013 -1.56219146130836 0 0
169.005272948874 11.4290184612813 28.2229663665568 0 0
7.87490142407586 13.1140663137234 21.9498633955307 0 0
-233.389030965158 1.18967423710675 -25.9177288282931 0 0
-10.3172354357477 9.34338055519134 25.6600872842772 0 0
-233.595319158576 -28.7751224967377 21.3495428852567 0 0
-88.7337238133585 -7.11387815105266 6.13588262738423 0 0
-230.319782442397 -29.6931971596952 14.8261524874881 0 0
182.032396803947 -25.6652065661594 19.3870405022243 0 0
-182.06367793997 -20.3115485827506 -5.72700922049239 0 0
99.2134968672605 -13.3865319580554 -0.198487132732234 0 0
-39.7859620806096 16.2599143027993 15.5558141141636 0 0
199.689992794834 -9.45553636009979 -1.13618423066496 0 0
136.732095052871 15.4243624242623 21.4618168877278 0 0
-216.290900861931 8.02907477944632 -34.0669096232028 0 0
-36.9511569332055 -2.26782775353356 28.1407998746224 0 0
-192.0025527998 -9.85914891608101 3.54858768163687 0 0
176.669388608308 -11.9465507152383 25.8417768548966 0 0
199.406332493985 29.5271485729247 -3.74721387536751 0 0
-271.038155153228 -27.6435143936273 -1.32281822942403 0 0
198.902966646799 17.4999994957977 4.02727508662339 0 0
147.167166261189 -16.6349176988713 -11.2403219963871 0 0
-72.9819259119306 -7.97497015334187 22.5620988521947 0 0
-9.73592268436351 15.3517808951809 18.5045890301129 0 0
203.313253606922 -14.3181564289889 -0.0705001904980683 0 0
165.075322825863 -30.0393768840746 13.9239757628985 0 0
152.576776077033 29.2086935201554 -5.28129319528218 0 0
26.6243330246123 -3.23036533857554 28.3513456928348 0 0
-151.093178719808 8.91844589930224 14.670174731263 0 0
199.447295243955 -34.4315892845519 1.87709034405375 0 0
155.07568081385 27.3937373450422 9.19859108729807 0 0
-231.197960804813 8.77167733925099 -23.0715230820215 0 0
-224.366382714669 33.3988048236513 -17.5230192209874 0 0
155.052149544212 5.06803550848922 -13.4974049453052 0 0
-155.461092472742 14.8047176034938 9.14787351034936 0 0
157.378591890004 8.14607201128965 23.7430574095833 0 0
-226.76970488793 -20.6651614827087 -5.32070886124794 0 0
147.937598890605 18.7483344706582 -14.0137898901709 0 0
205.943730449106 -35.4890257558195 -4.98747149122579 0 0
-126.322789432236 6.82996472797776 -11.9484481998009 0 0
199.796187602799 -14.6844353810713 8.92571547911292 0 0
31.605091729602 14.3346815789215 18.1565618633461 0 0
192.367757634482 38.2006319640252 -23.4579810597555 0 0
198.535357251124 -9.53011562049645 5.9251992776095 0 0
-272.680694578128 -23.739433710137 10.5253757983278 0 0
-14.5265128439525 -9.49660691960319 9.82985209873929 0 0
168.27260654662 -31.1353182573237 -32.9547608901387 0 0
69.2997043733342 -10.2644725778216 25.2578279843879 0 0
-272.042691085531 -26.8998084181108 1.48077072650097 0 0
-201.482644339891 -11.8343981168282 -14.4433442214574 0 0
197.763755188235 19.4153577616185 -13.3191954241865 0 0
-256.44216889943 -23.6510143332524 -16.7025802198574 0 0
-241.170270261957 1.17460693726074 -4.73203926198046 0 0
-231.845659098064 -2.6479988464702 -14.5087897278932 0 0
-239.523010909884 28.5306709934053 -9.03107164146823 0 0
146.264410539893 -0.367574692551599 -11.3172689977481 0 0
143.114099618513 10.4086595032422 -12.1775941105894 0 0
195.695686443505 11.4572551446359 10.5845866766624 0 0
183.827934225726 -19.8598253326694 26.2278791910201 0 0
26.2910321121568 9.54535326427563 -0.617293527398507 0 0
145.533081505472 10.6227287533767 -12.7887022754879 0 0
184.831355921226 -17.0825707861352 -25.8401794176813 0 0
-44.2338769716797 4.91011641249215 -3.50194542990322 0 0
-244.367243134717 -1.77763520368997 -4.54723198428011 0 0
-181.415936667392 10.607038997027 8.67137761193595 0 0
170.721858251176 7.53533128090445 -24.9314310205785 0 0
98.7698120075104 9.04753439940725 -7.7179346113951 0 0
-19.5884181871531 2.96593356602733 -4.78325298829641 0 0
-79.6203653996593 10.0895628159481 23.7555254259318 0 0
-234.336877683923 -39.4822345596337 4.94603458941397 0 0
-25.0955936941775 13.6371368520218 22.8769843136195 0 0
193.719417940112 13.6020587746721 -14.0902053018834 0 0
169.067805491325 21.6797863307901 -36.0735360391517 0 0
-137.155260931269 17.6272418595994 -4.95265269003977 0 0
185.593542936134 -26.6654232702726 -39.161057029502 0 0
-199.352664275845 9.79828148345345 7.15209532916136 0 0
65.5135058868516 -14.4321643378216 6.46872096624993 0 0
180.182502571571 36.1721668543778 -3.27390600297431 0 0
-231.214610928667 9.96903664731328 -21.6270094379243 0 0
-218.530850564705 -3.59332628085033 -22.7996317735495 0 0
-80.228537327217 2.24881519965128 -7.47546392442618 0 0
-238.458167887707 -7.32723372533041 19.7499256674082 0 0
-44.3658505654136 -7.31685044633147 26.3627361278464 0 0
-151.589201497163 -8.96780387598162 -6.49188428449524 0 0
-202.571376997949 10.952466015141 -27.4639392450128 0 0
-134.091016497998 17.3384451612925 -5.14195904322102 0 0
-193.608937250508 20.3712459874292 -18.7206947410391 0 0
194.335670263392 32.2174299532996 -2.45352338303633 0 0
78.0860308312129 -9.98259827230143 25.3368297126925 0 0
103.354341643756 -19.8770356329085 9.27832588454266 0 0
-163.709641833957 -10.7090801656018 -7.92433201436528 0 0
165.773576827659 34.0423176391247 -22.139610594106 0 0
-155.255032195597 -10.1240621638001 -4.7944244768192 0 0
-195.195922041229 16.2426288385167 -22.2878648935322 0 0
-175.637356674827 18.8362138674122 -13.2022730478369 0 0
8.73192669385223 8.19919407612653 -0.595541576682164 0 0
15.3833455776834 2.96489354168917 -5.78378906182005 0 0
-194.277043651575 -18.9440150233349 -17.1036920357003 0 0
174.843440352272 8.06493685191119 -25.2512811806162 0 0
141.276661986781 9.39820605355041 24.2114719693994 0 0
-128.159746283588 9.14507019470056 18.7098386117958 0 0
-6.9064703368766 15.6035673557028 14.9664540894366 0 0
19.0167468789817 0.710861926284067 -5.57355557307732 0 0
-187.847785620285 -0.095217908777454 -22.5859156101461 0 0
132.504027607298 -19.7754526409373 -2.53134049926999 0 0
165.582835534373 4.78898658530361 23.2784966339829 0 0
195.263753113048 -33.7270669007393 6.38621903806011 0 0
192.37207055631 -23.2881789823437 20.3600738042822 0 0
-46.4318301953355 6.79031478591407 -2.31327117737069 0 0
146.881476651023 5.20600805341977 23.5696703722134 0 0
4.39650605779644 -1.78050123599619 -4.66432781483482 0 0
39.0456603059642 14.1485763715652 3.62214169985705 0 0
198.36748609432 25.6535472882123 3.1526783269692 0 0
-9.48537475264926 0.316830538643056 -5.49816776336077 0 0
4.02341561089744 -11.9582256643957 12.1825694206152 0 0
-190.957342354907 21.2991511330281 -16.3398667226307 0 0
67.4435019503107 14.195607302516 0.181860785779732 0 0
-202.549837947952 -10.2301947178436 -18.6652679699699 0 0
-90.3445805338848 -7.20438552847734 7.59382057711488 0 0
-212.236643578805 34.5165725852616 -16.0065279158738 0 0
22.9223037483422 -6.79082162488564 2.47366355729159 0 0
109.363234363591 -17.4657656489861 3.13955990560281 0 0
171.932475868998 -14.459785055431 -20.911327861165 0 0
-95.8071282023416 16.1077983059162 16.7732302128093 0 0
-246.76212322211 4.47252036325615 -19.0175299073095 0 0
148.127085096141 27.2844400624173 -4.46209224826525 0 0
-229.106916026998 29.5869317987278 -3.75854485075548 0 0
-236.265566827866 13.5290131920069 -32.92668829684 0 0
63.1518140846524 -10.817865908928 2.93365565016311 0 0
-229.796210698388 24.832767057797 2.90193060910939 0 0
-65.3131942909803 15.2341435443126 5.52671906864702 0 0
18.4789266780135 -9.76807283493936 6.91671880584149 0 0
146.679744868666 -8.92479453870199 22.4392372446002 0 0
-201.698024942066 13.6494306005599 -26.1936799871813 0 0
-221.381900549216 6.69810597352834 9.99464969828958 0 0
-248.445075785879 3.14581400902292 -22.8575104672095 0 0
187.038387555259 1.35780575630813 -7.64926851960962 0 0
191.605407911152 7.87665147851762 -9.77684189218582 0 0
-196.532712951291 -17.4087174834183 -16.8935819231434 0 0
178.883836647204 -43.4975647552002 -6.68929512360086 0 0
174.54971542808 -24.4564096553141 21.1980574940728 0 0
141.71762966835 12.01045085649 23.7905860669209 0 0
62.4894239160286 -4.33535473888434 27.4546639552709 0 0
171.414584811134 34.971676973041 4.75280822201592 0 0
192.748211734624 -15.9693481162319 -27.5006516096401 0 0
140.381710821912 -11.6617891502539 22.149234992523 0 0
-58.9122479561252 16.6401390022424 15.9583205243875 0 0
160.00453786452 -14.8672853087603 21.736312806654 0 0
198.316801317906 -15.5538330983708 -20.8884853489464 0 0
-229.53641855644 0.758839722082374 -27.0176999488824 0 0
-161.127077470618 -9.02901637797775 -9.84717041764736 0 0
92.8438169618811 3.50772601948528 -7.32500616807549 0 0
198.247889295399 -19.247620874123 16.2486054451405 0 0
26.7853121683505 5.58316417763488 27.0287870604136 0 0
73.0508683306812 16.5417531090042 12.1203641064913 0 0
190.482732219432 33.8949575639458 -2.43327685638025 0 0
-216.887795348292 4.69112671672598 9.77388832010004 0 0
17.8030914722813 14.6365206522729 18.0231594280128 0 0
-150.482945272849 17.9086355784558 6.00149119324923 0 0
46.6976822162037 -1.50065008849742 -4.61006095347953 0 0
-92.9158096606169 8.4907375536685 23.4228882246368 0 0
-177.459830397064 20.8341816899365 -1.49869267228928 0 0
58.8530177045774 -8.63756516797538 1.4696118515959 0 0
120.229022046589 21.3897443322367 -2.70075567130478 0 0
168.291957871901 -43.2942413347153 -6.14113745177221 0 0
-225.212547426305 5.77365955500138 -20.5611700293713 0 0
-25.2047012248698 9.40638610829703 25.6649917231373 0 0
-50.3535173975544 -9.74409154329527 14.8746906868767 0 0
-190.097141754242 0.821151011434462 10.1880732957474 0 0
195.068680917377 -39.1650917424868 -6.9157710864434 0 0
-108.611918026649 7.23472888561687 -8.896573006411 0 0
42.9693642699767 1.58210569628274 -5.61949445478373 0 0
198.589963190347 36.038318412553 -12.3389862355015 0 0
-212.255794314673 -6.02582958663528 -24.7747753565667 0 0
146.32483433752 -21.5285222137483 16.1920049101368 0 0
189.488930963619 35.4708113353223 -16.2047104857213 0 0
-182.646932688413 21.8246076325468 -3.14580734044494 0 0
198.018121544218 38.1984079985617 -20.2906264191008 0 0
2.35917792487265 14.4366041863277 7.86474769415313 0 0
-71.2630302012953 -8.88119992554548 20.0939874019772 0 0
-243.959190131019 18.6972312508545 -0.704979196384681 0 0
89.3042573506226 7.14394554266081 -7.24342343535734 0 0
190.508152439973 15.9553087516901 22.924714363215 0 0
188.088386524911 37.1120716758988 -27.3599969244258 0 0
177.819857509876 -17.5178328138918 -31.0644375012311 0 0
163.884496904343 30.3565552963696 9.95607420515754 0 0
20.7991393223905 -6.56384252882605 2.29661940103858 0 0
-163.748986804735 -6.10174367605038 -13.7730611850282 0 0
67.0038885644918 -15.3795079073043 22.1741933325395 0 0
136.007765881089 23.7043780278594 -3.54654311861267 0 0
37.0872539537637 -11.5576260367999 7.23622470199821 0 0
166.727281917706 21.1341394187968 -34.5310411108851 0 0
-209.513277672294 -6.30233632146283 -24.7283538728105 0 0
-226.041477346196 -0.686018397328681 -24.5926955020858 0 0
-242.693079847058 -29.1438736683777 26.5776018930282 0 0
-239.523102935557 -10.8102144569137 23.3579268770304 0 0
-246.786572385385 -6.57680331201205 -8.72363983518033 0 0
46.9209518436307 -5.7376277071905 27.4273147374687 0 0
-51.2354481439663 16.6241759860761 15.5470094448749 0 0
189.587149674147 8.01357833475281 -10.7296208764337 0 0
177.975691906111 -37.2056591944426 6.80611170418805 0 0
-200.765559187546 -0.033067397362815 -26.9542476982983 0 0
-192.716930811234 -11.6053058093817 -20.4415194566712 0 0
-128.847005645812 -5.94849273012814 13.7108935739437 0 0
110.160446603908 -2.45877845043895 26.0222966575573 0 0
198.949966395497 23.498223183735 6.12555138504004 0 0
-133.043150041532 -5.8472272914307 12.8384790430451 0 0
55.99267289851 -10.0731169518496 3.19082369887497 0 0
-48.0614620281732 -3.57073972897788 -3.64757184481484 0 0
-76.4193176119097 -4.21545490846986 -4.49909249786671 0 0
-186.352020819855 -0.587554195407843 10.0559436395679 0 0
-219.959554852371 -0.494705682977215 -18.831489547492 0 0
-196.445148175756 2.98903322491219 9.52562545244098 0 0
199.904322327319 25.6378729515807 -6.95986088012719 0 0
-203.381459058855 -0.793664614815104 9.83492831977489 0 0
183.967567759228 32.2842938420842 9.01194083793829 0 0
120.972177069791 -8.00335615751981 24.2797764945995 0 0
158.250256005674 32.303345207796 -4.1520242319481 0 0
-115.560883460603 4.52402966119345 -10.9324420673959 0 0
171.954508610842 -16.0136479536111 23.7052728201785 0 0
131.482463020129 22.8143751548237 -5.19548550444411 0 0
-230.493321058655 4.65188651562005 10.8552763587043 0 0
165.755704973567 -1.97709207192773 -16.9598337871523 0 0
-223.439696045899 5.75449662718102 10.3195927532517 0 0
142.344312058992 -23.8850626493503 -2.49597507478674 0 0
155.024011582412 29.7486829985683 -11.5589310593428 0 0
-182.887533099128 -4.13541447382767 8.54216247448199 0 0
24.420877909357 -15.1371861104809 15.4871746163384 0 0
100.864872664779 -11.6109039838993 -2.11180867202635 0 0
165.056888912331 -41.5374746133398 -7.40340103964673 0 0
-163.398527497903 -5.38889546439253 8.19247476950046 0 0
-227.119558401829 -23.2398281267061 -0.0671044435343551 0 0
195.77033292014 -6.72502614163638 8.67611602363858 0 0
-41.951903047381 -10.5703323815736 15.8363487885025 0 0
63.2489029851376 5.74827717577354 -5.73705429777325 0 0
-229.33346143885 26.8455020820686 1.95674994650237 0 0
155.196674686204 -5.82980175863601 -12.376936193298 0 0
-59.1434685907321 -6.18623079602277 -1.28065349118114 0 0
-215.07332792358 4.38052188762258 9.98303208899415 0 0
-2.3202093603655 -13.9374094102372 21.0639793479343 0 0
-21.5366051668443 8.92359635379235 0.420949730680644 0 0
-105.564657446827 -0.0997647428522593 -8.13776997996538 0 0
-264.365606066694 -33.8972938720656 18.5469666476648 0 0
168.569377307043 -36.1211301579122 -27.4700353811713 0 0
-15.447717866161 11.0008308156627 24.685052610566 0 0
-200.663771681258 -16.7695544967999 -15.2720820828151 0 0
-240.530292443221 11.7265465152106 -11.6917069334058 0 0
-243.576704693633 20.8688237103215 1.26604191024412 0 0
174.844579869547 -30.2465638864771 14.8056194229821 0 0
106.422325614706 -9.65780496016298 24.2439189681905 0 0
-79.8411008658373 12.5874143659038 22.1184109190602 0 0
192.115654821433 -12.9870227697072 19.058809291012 0 0
155.736538896044 22.8105105630533 21.3982772144424 0 0
-113.024660322818 -6.71872331226277 14.1612477562274 0 0
200.665206071686 -38.5828187878679 -29.9383225174561 0 0
39.5971286477735 -14.9528529630872 12.0172911064071 0 0
183.303559557332 -43.0753073336631 -12.3174490198079 0 0
-205.692485221815 23.1151105625806 0.306366954410032 0 0
111.454008397079 15.8668416706233 -7.2884648342452 0 0
-51.3978431491959 -4.09540870245365 -3.50848252690007 0 0
-219.209588952951 -12.4098471832403 10.1511255395137 0 0
205.73686463307 -19.4451071866244 -12.8397760834426 0 0
176.821883247953 39.7133057267681 -8.93407343077468 0 0
179.779606895695 35.3091464199602 3.91935204794572 0 0
-96.1762405083177 -7.15840514826993 5.93101226465566 0 0
168.465890522811 22.0076733372128 32.2580646870069 0 0
97.2522267907334 -19.6915101492949 10.7802156195812 0 0
190.639147293754 28.4143169699465 18.2554547685028 0 0
197.133872350928 36.0430559435855 -26.3887797705294 0 0
-133.740347797023 6.72419274231123 -13.0415535683777 0 0
-199.244599770545 4.43709593143623 8.9623073628529 0 0
-246.484698924287 0.805490488559432 13.869567004874 0 0
163.265376424499 38.8502674124987 -11.9761597626336 0 0
82.454271117373 17.3081075185075 5.64304100377337 0 0
200.396450175017 26.6864759056346 -15.8845160870565 0 0
34.7906798827042 4.54894291428911 -5.44104443725677 0 0
175.589512485154 -18.3292344777878 -25.8101905121697 0 0
203.020116898661 -35.6908217146281 -28.3230556357639 0 0
161.168669246905 -17.620819436797 21.1760218700142 0 0
144.865109672046 22.7822024808345 13.5576148826554 0 0
160.352120514584 25.0751342511974 21.1855810683095 0 0
176.608100226943 -36.8134207363656 7.51536667374347 0 0
146.054822676249 26.1673088239313 -6.02957355761695 0 0
-13.4587319131509 15.512651191359 11.9071900480186 0 0
180.17187171574 -4.24912672383437 21.8124631667258 0 0
-178.060807963407 8.07408691490986 -20.8752892051941 0 0
194.050913990065 36.0769401097967 -15.8368271584918 0 0
184.008396954693 -16.2326471149046 -29.6085558660359 0 0
-84.2581726537391 -7.56269695124658 11.3183239775072 0 0
-245.339778340089 -3.13646280814728 -5.34828663598769 0 0
-161.978168590128 14.5943583988372 -15.4203857849694 0 0
205.268698461558 -29.6345741231603 6.05375353237261 0 0
194.049863469259 -1.73287147979139 -2.68833289933385 0 0
-227.421415521151 34.0911631590595 -14.3281776517562 0 0
-67.4156056231736 16.8796588785174 14.1416726022288 0 0
188.734212053812 7.13795845571503 18.6432087432153 0 0
-1.89465160216638 -4.1539533490121 -0.446905384779126 0 0
-181.097106065449 16.8294524578329 -17.5495084069655 0 0
-234.508733087011 -3.19809103609099 13.8964965979218 0 0
154.089756217993 -26.2199416771371 -10.9926826371424 0 0
-213.702720182171 14.81846824333 5.79001302371957 0 0
42.538667907457 11.8530550768934 0.224770391337871 0 0
-173.007349042147 6.56784632188883 -19.9996985198714 0 0
188.184481015678 35.4058890506461 -3.07337000647607 0 0
40.1541247447377 -6.43141178562812 27.5010080966587 0 0
-151.354305877922 -6.71211489522426 7.0908400675325 0 0
-230.894215708541 -25.7273076747957 18.8796260608339 0 0
198.08114333321 14.4186983048237 -3.32503862071253 0 0
86.3295448174727 -1.39933329418196 27.4558312340162 0 0
92.164953129653 12.7457425380139 -5.3266852734858 0 0
88.9027171111529 -1.28585783856667 27.3752740695876 0 0
-185.864028672234 5.75669113825375 10.0231942418641 0 0
-133.392913991772 -6.94512402196554 -5.95664251279822 0 0
-241.772164118805 0.55574209882157 -23.4599104939061 0 0
-33.6558201339522 13.8916966507547 22.5448639036457 0 0
-51.2454897354188 -10.297591687169 17.5711772344607 0 0
184.359447090436 -15.59659545132 25.0393988708904 0 0
-211.421463705521 -16.5019349290731 -0.692214666263667 0 0
180.27659846103 -9.13081493889005 23.5105885337224 0 0
-218.063204304997 6.06947504782685 -33.9363349492053 0 0
-57.4452023796341 -4.01441371547597 27.1548894820134 0 0
99.6443979279257 -19.068253594071 7.87667502874768 0 0
198.437274470848 15.0713103392321 0.120442266692063 0 0
-196.883564605615 13.4445723790615 5.65261138296056 0 0
-254.310958224492 -40.4747990201633 17.0870568200869 0 0
-268.434630624004 -12.0709680990683 16.1913338432951 0 0
27.7756763652318 6.23672143758787 -3.6393380015596 0 0
-15.5372588121888 -3.15973147516632 -3.05914227742606 0 0
140.323750795632 -24.5056375722256 7.18535152469019 0 0
7.94020000219849 -6.95531908206478 3.67411793419222 0 0
-208.661678630592 -7.63194229456335 -18.2854102363768 0 0
5.86859399944423 15.341299634279 12.5413002111806 0 0
-73.2799140011183 -0.896464795733026 26.3881770910712 0 0
-212.776720418149 33.3623896578671 -18.5178651984275 0 0
137.773341607332 -6.71305825216216 -9.26959553724048 0 0
-120.675501877571 11.1040739395946 -10.3027251570557 0 0
-223.374351862723 -3.5667480113276 -15.3570597016135 0 0
133.386885698463 -9.09580176975252 -8.13853004666567 0 0
83.3232359874668 -16.0905216382742 21.4595366374919 0 0
208.606618461334 -30.6296453607388 -14.3779671981946 0 0
130.749652792652 22.9643178214127 -0.308125108198102 0 0
117.270536119404 -10.7672181899071 23.4039557532786 0 0
-195.274438008313 -11.8446352725625 -20.3460871152654 0 0
-115.638490235303 1.84172348956436 -10.1755623005203 0 0
-232.897364963812 -32.8255111871765 17.7813792232851 0 0
111.774922686077 16.6029074127629 16.5655317706178 0 0
-160.078025778758 9.85285422387573 12.4842669423272 0 0
197.983584599328 -13.3462196936318 12.1964713433251 0 0
32.9948337592958 8.02165474176029 25.6244745727431 0 0
-220.388563055033 26.3830513256441 1.53565768071508 0 0
-267.56918382196 -7.71375106567662 12.2003176515248 0 0
160.186379924453 32.3035301891426 -0.0641778565292644 0 0
-224.467320332918 23.472059035882 -27.7708375575437 0 0
159.121473042795 30.4024314969561 3.96327699752057 0 0
203.504647632787 -22.0413143844846 6.75730194907685 0 0
167.087565674427 -10.4020169212188 -17.9982171188873 0 0
-224.784444854879 4.46268410287791 -21.509486030002 0 0
205.032935239777 -16.1639596490988 -3.70222266732248 0 0
158.642442826941 4.62021343821335 23.2792901955367 0 0
151.474771124577 -25.3324994897391 -10.3640647467521 0 0
-232.891004367605 27.6578585493141 -22.4777055093148 0 0
59.7644029418247 15.8992347279087 5.61395658923708 0 0
-69.4959728947391 -2.10114328757965 26.6099769993551 0 0
186.037994212973 -7.32655626099513 -10.1992511092285 0 0
74.289870827853 16.8822843048065 8.2330291061628 0 0
189.059702020075 -17.0291579405151 -20.401207418587 0 0
-193.898676554007 11.5187899321904 -23.6571776284574 0 0
-218.901205795324 36.2290621780175 -12.5674526379096 0 2
70.6915485269448 -10.9077660878069 1.95195487232394 0 0
162.982516618828 20.4904336339866 28.6641943841457 0 0
190.339547148 4.76061871043887 15.4091349256235 0 0
146.876378742367 13.2276426776207 24.1946288855427 0 0
-78.4052569183746 5.51227440161223 -5.532159982582 0 0
-32.7772210666503 1.37559923711246 -5.40268540955989 0 0
199.927827829876 -23.5055046463284 -30.8026389383976 0 0
178.269831001053 8.94132945675641 -24.5102050237804 0 0
-47.168411220034 -8.06880122788716 8.78767151151242 0 0
-233.847186054894 -35.4138530605921 -2.49562393470319 0 0
182.478016750979 35.7017120718976 1.42765227407684 0 0
-212.654941171276 2.69078285918149 -32.7241489128186 0 0
172.446267622636 -40.9575729476908 0.280565248942389 0 0
91.8630013816362 11.8602562463773 22.1443472904254 0 0
-37.4810611107317 -8.77165306098448 25.6709915407991 0 0
159.258743897296 12.1058670743792 -17.4106071923198 0 0
182.789742561566 33.7120610539738 -36.9703601476984 0 0
208.107721056481 -35.7304115715693 -13.6110196966016 0 0
166.916750547523 3.68371359087544 23.4362351543292 0 0
156.092265683462 -20.2928129477769 19.3013513659235 0 0
182.266735103467 -43.8691245784691 -8.8600501023828 0 0
196.398607061346 -26.208501066535 14.7186056507455 0 0
115.963202115222 20.53566531823 2.3533311777277 0 0
-204.355605493876 -9.34350879619124 -17.6164104537383 0 0
174.428585006849 -38.7765234048569 4.65107985450032 0 0
152.005786917383 20.7374560490027 -15.7459565440953 0 0
198.118011205945 34.1314054314752 -7.40278256501001 0 0
-190.177544683324 -24.0184100488878 -13.1692073504924 0 0
166.314289403086 28.8607375403068 -34.5965639378611 0 0
92.7099875620167 9.38812505984962 24.1265727024381 0 0
-255.911546251141 -34.4930238128799 -12.395895750202 0 0
-208.675221886429 -11.2332139486702 -13.722366830195 0 0
169.749564360123 32.8699891829033 8.76868899563157 0 0
-169.695713041879 0.660323241566825 -17.895172092423 0 0
-148.51235494681 19.0843010931307 -1.32252273230705 0 0
160.119650313314 8.28950953589479 -16.3299509166079 0 0
134.289748087539 -13.8165773376898 -7.23233143973339 0 0
149.328487713337 24.1508821668137 -12.1479252968405 0 0
-231.417354144097 1.69421846647812 -14.758952177267 0 0
86.8568177081347 8.51134220626562 -6.83769713928828 0 0
-218.40672111912 19.7129965067879 4.24750200661436 0 0
58.2831722147461 3.09281515439659 27.5502167539577 0 0
-7.52378986077373 -13.3210634052741 21.9486956189445 0 0
16.8121649504138 10.9637539143893 1.53969329101598 0 0
15.9389094960196 7.50642666384826 26.2446817978093 0 0
158.537769351159 -30.0737716742879 10.5976505635387 0 0
-123.070865782257 -6.92536145017395 -3.3230234994321 0 0
-243.453522731853 4.79185898226265 1.28927220390546 0 0
98.9539921337608 -15.6920708277969 2.48847273025344 0 0
122.459670107042 15.764293890648 19.011660590086 0 0
169.746428403397 11.077375886844 -30.4602612223798 0 0
-195.020314484432 24.3045570145041 -12.9564143278902 0 0
206.775532530171 -31.2932446644447 2.76622162869818 0 0
170.357822205543 9.93972536380248 27.6170691581324 0 0
-17.5856074933177 -10.2710502145638 25.7389980113135 0 0
198.234106353425 -8.9853444964285 -6.9110440510397 0 0
-2.96001038389098 15.2703365278671 17.8215581074987 0 0
-269.944377045405 -29.1618081260019 14.567719980853 0 0
-190.039089972846 -16.062930320415 -2.64609284866675 0 0
-11.1419928555482 3.29043856179848 -4.62072618500013 0 0
170.014642314343 -26.4415110703837 -33.0818682114359 0 0
-179.339401203618 9.73160169928817 -21.0318507718962 0 0
33.9649279069613 -7.12660264074032 27.5184715914766 0 0
190.940151162536 14.2368515356041 -25.1880376566915 0 0
-213.512871164895 23.8546099711061 1.11176307621692 0 0
189.36238219755 -40.2104929683156 -4.67133106065917 0 0
-98.7519526678521 -7.09083033776558 1.29429480954418 0 0
-237.406551329224 -6.15691295698349 17.4301865215347 0 0
178.329402221899 11.2855437603797 -29.6351410538375 0 0
-244.399598288093 -36.963358707457 21.9329216388209 0 0
71.7634973161017 16.7198765395439 10.0550400535135 0 0
-246.358543408222 -28.5802285697298 27.5476991906779 0 0
-73.3017721569824 -6.93565739716589 2.70505139737228 0 0
49.0748650460719 4.23096258811837 -5.77914348051366 0 0
-234.305031901411 15.7820041080399 -32.2654866984571 0 0
187.509497778323 -17.0307004594457 -22.2951123049596 0 0
162.145427088585 -15.2864650040056 21.9002440004229 0 0
10.1722724350181 9.05940053362386 25.5269155025348 0 0
-166.339670304737 -5.88742154726377 -14.6976860366173 0 0
-212.534500602508 25.0347218542764 -26.1778627179541 0 0
-263.293963898535 -3.81659930299248 13.6158902232209 0 0
-165.855881508098 6.22329602312094 12.9533277354756 0 0
-256.542592640903 -36.5463065879381 10.0656644713484 0 0
-254.233683599583 -41.6455715604456 14.6989250238836 0 0
65.8185628293961 16.4175238793985 9.64068344905203 0 0
-181.423059187192 22.1535770461935 -5.93041076941636 0 0
191.716935257967 -39.2358042922624 -2.71851800272501 0 0
-3.74262890512701 2.03815260400216 28.2418553398254 0 0
-209.144424342517 -1.24744702258418 -29.4087441187876 0 0
-53.2448119803377 8.91272734874459 25.4504141857669 0 0
45.2348319064476 -3.36507222993224 -2.93268953717872 0 0
-203.883198373224 10.7620678560208 6.64728651866806 0 0
200.658912395124 -31.1066379346168 7.32365080571946 0 0
158.810802794113 29.1420679029547 7.63408418765297 0 0
175.29439875733 4.85444826428578 -19.46866543562 0 0
-111.052302552658 4.46104030721616 -10.1012740880789 0 0
-56.174273921863 -5.35542879347972 -2.6586161030301 0 0
24.8209179001315 -6.02593471276411 1.35335058756594 0 0
145.696625894714 20.2900384250506 18.6282971634101 0 0
185.97901788511 34.0175086573655 2.83062867054304 0 0
182.543502264382 -35.1348331882017 8.278711909265 0 0
188.938893907179 35.7871029560001 -5.38638050789731 0 0
58.6190235520717 -6.7309484806997 -0.404293312319582 0 0
95.9797686970043 -4.26774465695069 -6.41678474136951 0 0
191.106733584233 -38.8383560958162 -37.4252703953949 0 0
194.169543214623 16.0783720947442 -21.7142388692712 0 0
24.2045329278745 1.02808339298109 -5.5859357681326 0 0
-67.0917390008483 -3.92808542405893 26.4177871767499 0 0
-147.992764831845 -2.98791905844191 -11.886619041896 0 0
-205.89875704713 28.9230750974733 -17.7235320584585 0 0
16.8407250311818 -2.40195978873626 -3.48933442549253 0 0
-164.364439255206 10.0231880559627 -18.0567094041781 0 0
198.566973680651 -12.7447561557622 -12.7131291442572 0 0
-174.234166414297 13.8291114333838 7.38385170629314 0 0
-264.527744611347 -36.5384200323103 14.712248765225 0 0
200.361528049855 26.2632679723426 -9.7837440050427 0 0
-271.719672154932 -17.6315572114867 13.2413115880212 0 0
-53.3518260161887 15.9885310692357 10.1668539666126 0 0
-186.643989062804 2.7280513685906 10.7723836996418 0 0
-226.13913997004 0.242395949702743 -16.0842233167001 0 0
-57.5838601953889 -9.79997404077365 20.6258353971603 0 0
192.448497971176 12.0188155531932 -16.9151817261084 0 0
180.532354690726 -1.98527800198318 20.9779161805205 0 0
61.6862192784881 -1.48959400017926 27.9011602390393 0 0
154.793171898999 6.95562412673765 -14.1927758457431 0 0
156.702385295211 1.49369399631754 -13.4064682127139 0 0
185.619911174432 -42.8290992546885 -17.3493416366643 0 0
157.358576885312 -31.62879947532 -8.0977447116176 0 0
-185.943091205062 22.8875149974222 -7.82764665231104 0 0
82.0677446189664 3.66336784937372 -6.82029796459127 0 0
186.921107290117 -16.3172307764751 -30.8841379321573 0 0
164.974960575137 28.7576115597638 14.9997964807092 0 0
197.435792402063 33.2363524068558 -26.689843218498 0 0
153.24903814821 19.3438967605882 -16.7428526737173 0 0
-202.263955718191 14.1002344549288 5.26249632334761 0 0
-181.583009464753 -17.7641817932357 -4.33973897933375 0 0
-104.365919624263 -6.55095501650901 18.8368486420634 0 0
162.485800349383 17.3762417747269 -28.3718817233905 0 0
-75.1186532506251 -5.15872844146865 -3.73967200517545 0 0
-184.439903731767 -9.54158454930835 1.76814749368322 0 0
169.72053109802 -2.63636756635289 24.3558788065628 0 0
-197.408448032772 18.464607883753 -21.9992719770403 0 0
-125.104400663889 5.05141275895301 -12.6290963481175 0 0
-222.272291896166 -4.71895964847652 11.4052459000246 0 0
-256.053692114055 0.516034384464651 11.2452271928645 0 0
169.85445412467 -19.5972511240388 -26.0401538251279 0 0
179.501855250077 -42.0091457475654 -25.41338847866 0 0
59.1575185691044 16.077042360018 8.2868335157745 0 0
-202.771514180932 -19.0262285170738 -8.57393192451999 0 0
143.735730410781 -24.1450071361563 -4.73755220421316 0 0
-253.048223866109 -10.4536418981265 -14.2533314906937 0 0
140.094146653468 18.8854370491314 18.6233294215351 0 0
-191.446423800528 12.9889215317069 -22.4939875861231 0 0
-257.203351497644 -38.9306114266042 12.7348821474542 0 0
77.8765365949606 2.40255209452514 -6.44953650893513 0 0
157.480865238749 -13.9587989555434 -13.7597797143442 0 0
-211.239650754862 8.59547276226932 -32.7121276145636 0 0
-232.086241819184 29.5181607115671 -18.0577209250833 0 0
-229.818969858479 5.85637365021312 -15.5207058396643 0 0
46.7718072667281 15.4166251694814 14.0653448462854 0 0
-56.3048834754538 -8.89458192453763 23.5295014410014 0 0
170.098726422313 33.1353282012191 7.11804353093208 0 0
-84.8420013434386 16.8911280589011 15.5673567079183 0 0
-215.459966763455 32.5846732488196 -2.61598010186004 0 0
101.400694179583 -9.86664996561642 24.2921071167264 0 0
9.23743299048945 3.55814389272768 27.9316321082281 0 0
106.081292718282 3.99479591553791 26.0777317174666 0 0
-207.237130460846 6.87077902821902 8.41917936044738 0 0
106.989597023065 16.101029497671 -6.85188487670531 0 0
194.828529217968 7.00281881554249 6.34915391300662 0 0
-201.674264471595 21.4850359805597 0.876680619866328 0 0
-265.129228482862 -3.64563780483298 4.19565061540665 0 0
-255.665482222355 -11.5260485724437 -14.9129530591745 0 0
-243.519817186075 -8.18489227136065 23.1460366490186 0 0
169.980693992651 -31.8538543554246 12.8655230129496 0 0
-40.1748643125963 15.9825798173702 17.6831627176456 0 0
-75.4454064166418 15.1056069369489 3.26815984020519 0 0
123.353492921436 -18.8756858320009 1.4763981003908 0 0
-179.83159031341 21.5909473936459 -3.41355792084875 0 0
-168.026991761425 -4.86698729256427 8.29703346142676 0 0
37.5593618642852 -15.6104343332475 13.9097506655409 0 0
165.424561138373 0.560348800693942 -16.6846619934997 0 0
170.139233210721 -14.5417382341359 -20.4679469271538 0 0
177.376020159704 4.83247524962393 24.4592459640651 0 0
184.762393677024 12.1561410889267 -24.0304716566147 0 0
-152.701778905012 -9.60741102114674 -4.14498941982324 0 0
-230.972610333266 1.3982672183275 -27.5634475069557 0 0
45.0200475313315 15.7186932639243 9.49007744603245 0 0
-84.4703268522314 -7.34442795168924 8.2089821855181 0 0
-14.1518746128525 13.4559565351751 6.20517389735192 0 0
-21.3293663404512 6.83767285558784 26.6406898616465 0 0
202.435905836287 -21.1318717227431 -24.8311063174658 0 0
-216.424566156774 36.3788307612927 -11.1786877390203 0 0
-212.776807756827 8.49082606334609 8.91198147142198 0 0
151.871200427338 4.64189974076243 23.1437499468736 0 0
199.023040707097 -40.2379222880105 -26.2830390003423 0 0
174.909087189021 33.8117049344948 8.22292455221025 0 0
-234.248256734078 -31.4710145414587 -4.66870304598214 0 0
-45.7477011854812 16.1013442760254 17.7263219490307 0 0
-226.910140155336 -12.4254736964588 13.5776393336092 0 0
-209.659273902491 28.5912912912362 -23.3793786786415 0 0
-217.706354886068 -15.6992406483487 -8.4806049387573 0 0
154.135536208645 9.62275136352784 -14.8173142313135 0 0
-158.018071849888 2.48769121337954 -16.3496785812299 0 0
204.184980838047 -28.7710476365491 -26.6338659686636 0 0
-167.821070795335 -7.90532723378462 -13.8505116220543 0 0
183.45065171526 11.7317843981349 -25.6010382671385 0 0
-88.2479156791422 5.81133424431395 -6.73557217895088 0 0
-206.100191309117 -6.35260933669184 -24.9853576597267 0 0
156.575750186753 -28.3822296998967 11.723295371908 0 0
-247.166644748931 23.5294498682198 -11.1383586463167 0 0
167.149107297596 23.4254897578429 -35.4635535086066 0 0
-138.439490635073 4.0062973210748 -14.0319673469919 0 0
-184.436402743751 -11.2009047534937 -0.894695661032167 0 0
205.54293731233 -19.8403285885902 2.31150047431311 0 0
-114.496549456454 5.38528085892467 21.6724310793494 0 0
-240.057675197931 -5.82684817843755 19.2088669871947 0 0
179.97051982673 -18.6147853055254 26.8937621899557 0 0
205.779231547336 -36.3633387391536 -23.0901315702592 0 0
-152.590852225717 16.3594789540991 -11.7814994176428 0 0
59.7844816491424 -9.9832190587353 25.7187133286851 0 0
-121.543335099244 16.5298584607755 12.6253800856722 0 0
-0.577036367023671 14.2484846811154 7.44177075196893 0 0
-51.9896636601401 15.0825003538056 7.30879013959548 0 0
196.220691659943 13.7810040629066 12.2965668169518 0 0
109.501985093442 -10.3818213392758 23.842279161087 0 0
-162.871760261534 5.63849035907825 -18.3498517336659 0 0
-224.457191117365 26.677663460847 2.25236220888811 0 0
-102.567312502801 -7.21499596892659 11.9773258988226 0 0
123.312990884246 -13.6474901219635 -5.50395542548762 0 0
199.181269265906 29.8627400439496 -22.9836495381674 0 0
-0.126758156975252 0.736950349475435 28.4330988435594 0 0
131.891052877275 17.6248696837274 -8.85432903707274 0 0
-250.44145860927 19.3051550784471 -15.3073266713014 0 0
-263.850489451992 -38.2681797601651 -0.944997849388255 0 0
161.138195566183 26.2501279511401 -25.3579321798441 0 0
-198.419465623458 -17.6234566454246 -16.0234182100408 0 0
179.344773891835 2.58211721241994 -16.2771556540658 0 0
-224.15500218017 -10.1762737977075 12.4443052369514 0 0
46.9719645194878 5.357929556474 -5.20458445590707 0 0
199.159239386505 24.5335580124814 0.786068281752113 0 0
-255.335107009148 -6.48228775516698 -9.37574777099393 0 0
192.729038223915 26.4678131195246 -32.447547291367 0 0
-224.065500472723 12.6699552877662 9.60282167741249 0 0
-6.46291241942525 15.2784499358846 10.8294249589272 0 0
197.605802505783 26.2371320991006 -25.4582711141037 0 0
45.8168696012456 -5.39821717060561 -0.784968559917451 0 0
-271.449891762318 -13.6270737357709 9.92633841845275 0 0
156.776081427506 32.0329751566878 -10.5663195385617 0 0
189.209966322814 -20.651519627471 -35.704644647886 0 0
174.861798141245 15.3166398226884 -34.7894497610032 0 0
9.54313316748959 14.05948159037 20.2891530548207 0 0
198.864006550766 18.2695562625119 6.31796988633945 0 0
168.060490863878 -2.39925854900154 -17.7877557542078 0 0
178.745678022367 35.8843780695411 -22.9819832471825 0 0
73.2143629421293 5.80873692820169 26.5594993043896 0 0
166.787854930569 32.7758209736712 -26.9923582951443 0 0
182.324447581207 9.06631704678314 -20.547813830517 0 0
-99.6069731462515 3.86827150307246 -9.30141739367791 0 0
197.788679371468 -9.57861266536644 -8.67975389186067 0 0
168.460097757278 30.0318830696262 -35.0884770342271 0 0
168.157160023018 -17.3363672340808 -21.3751484591688 0 0
-6.67396329932505 -3.55137589998193 -2.75092519063901 0 0
38.5291105388081 -0.793338141714841 -4.95465729698698 0 0
-66.3021513784145 -9.25278036922302 20.242043840859 0 0
-255.145228667508 -34.938884034254 23.5283140714596 0 0
190.405359253235 -10.6161788861167 -10.5180574867471 0 0
150.261570972314 26.9240683627223 4.28474966906308 0 0
16.4666778006216 -13.724328941887 23.4924541987431 0 0
-30.2364948252229 15.9471197100838 14.324765021851 0 0
-107.109820304797 -6.96857931963226 14.1377522016099 0 0
192.521296297222 -17.7471907095284 21.9683897815008 0 0
-22.0892594888329 -11.584269754101 15.1865279262174 0 0
139.202214430394 7.704303194362 24.4148475648865 0 0
-178.844703834208 -5.88193078315083 7.23644571332497 0 0
17.6016879173768 -14.4197368089019 14.9582763582406 0 0
-142.051799649502 -6.61902613761738 8.12788870824871 0 0
101.435232048732 17.6917195457158 12.5882135970709 0 0
-209.260326382597 -9.08309166711015 8.00365662943454 0 0
107.45001554955 -3.03111507404306 26.0982126248784 0 0
32.1400362621389 15.1813921372169 6.86096414104243 0 0
