"x" "y" "z" "f" "a"
-227.656801846309 -12.1295646238691 16.747951170097 0 0
0.529792065043842 7.00280496633827 -1.81455436772469 0 0
-227.413257794686 -8.81293456107273 9.91080959025891 0 0
-195.584933383772 4.19925016465644 -8.85011856681946 0 0
-100.590496228276 -18.6852324619324 -9.10486698099335 0 0
212.243317990327 -13.7100477443539 26.836501515035 0 0
-38.2323668899023 0.732598318470859 3.62507367496277 0 0
-111.410839523272 -2.74701726248586 -13.6682777270556 0 0
209.255357915906 -5.91273627048722 20.6026702379517 0 0
216.015754548682 34.0541049985928 10.9979834593952 0 0
-193.552132306415 -16.505415940047 -6.20525805269864 0 0
-189.887812901959 -8.7141906199055 -7.74910365002781 0 0
217.471150183625 -18.533985884856 11.9706474222545 0 0
115.124116637572 12.5150874303471 -11.7973822006081 0 0
-45.8793144165879 1.17012178628318 -17.539450742422 0 0
164.296509176167 3.39934789540646 -19.1196564386067 0 0
-191.053088946659 -29.4137830879302 11.0838235400126 0 0
-197.522655934005 -19.9107075574776 -6.33062453526575 0 0
185.072815291295 -26.6053932151018 -5.01296493379289 0 0
155.464670325015 -10.8134579592401 10.1836023015916 0 0
212.444431464407 -31.5054014350076 23.0565531435362 0 0
-212.554161467013 34.6333457084139 5.44432544388107 0 0
-244.987005946914 23.9851385623198 -9.31826538164866 0 0
-64.2058895342627 -20.7064034180835 -4.54861922328041 0 0
183.689823565185 -26.6165438054192 24.150685896414 0 0
31.508680389117 10.8512688641447 -7.71073636882484 0 0
42.4354448449006 4.57416778077932 1.25873518228661 0 0
-197.86991652814 -24.9432926146472 18.0864778526117 0 0
-122.367601169019 2.68263000293172 -9.91484479365871 0 0
-4.878199598424 -17.52616814119 -5.00201237291196 0 0
-50.6413091084332 -8.09782311186587 5.00434766935009 0 0
189.038655842792 -31.662111566856 7.87819797363734 0 0
-220.531725160285 2.59169123301835 -7.04360338525165 0 0
175.675934104027 5.16077203371725 -19.794861433045 0 0
47.2209853796444 7.63341176738056 -1.07307631701646 0 0
-241.564614549395 27.4618442286505 -16.710232816518 0 0
-229.10061855046 9.11499211135031 -6.41417405247549 0 0
-10.8579541273965 6.62855917036828 -1.60782823495705 0 0
118.852478467076 -16.2871952763415 -5.7475645994798 0 0
-6.55953770799441 -12.9988474280692 -18.5076322423575 0 0
221.855787891806 30.2342062998692 17.4945626646743 0 0
-207.542777240011 -25.5639248253951 16.143239744355 0 0
-58.679539964564 -10.2620757449243 4.41014905008939 0 0
211.420752677146 -25.7536014153134 -3.86707334844562 0 0
-184.287710498501 16.5646913500875 0.558501205820601 0 0
60.9543804332737 2.61260813196829 -17.8620784688981 0 0
217.196398110695 8.5340729708524 -3.51251079529114 0 0
-125.979329599665 -11.7731918158009 -11.1653874757547 0 0
84.6530695888429 3.90712925159766 2.97657210371851 0 0
-140.553336168746 -21.0833704707091 -0.0562841996276616 0 0
216.569418955127 9.74480191299021 6.9322921019997 0 0
192.583400607397 15.5459503972614 -20.8969579484808 0 0
-210.458478057066 -1.84212153102416 22.5555907609928 0 0
-143.612043563646 8.106828941333 8.14195338528589 0 0
-81.4351009714758 5.34672297683001 2.10104588262606 0 0
-154.868794827823 -6.11731181404367 -7.98102626125814 0 0
-60.4238768523572 -20.699777213843 -8.92958976664688 0 0
167.95219556885 -14.1852623383998 -18.3020998258703 0 0
-49.1573065335682 5.29751697032752 -14.4441403857193 0 0
105.527087056353 -3.63323293532377 -19.4761019260551 0 0
-203.157353924744 -21.9819656338831 20.0539873646349 0 0
-149.083015025921 8.56220291638614 -1.64760398683192 0 0
-54.6770716866112 4.01810560116463 1.95375476501459 0 0
59.5946712621706 -13.5223607529467 -15.6340065318485 0 0
-59.87944029942 -8.32513056443254 5.82940348928469 0 0
-118.647078743144 -8.74711214940523 12.8997809319917 0 0
-131.537153401043 8.11149220518505 4.22435864610244 0 0
200.01747946824 13.8624646976826 30.7763319758125 0 0
-148.974467126026 -20.2977866560488 -1.34654641049683 0 0
-144.353587056803 -9.93081146071156 20.2919415246087 0 0
-217.656572593736 18.3716335354233 -20.6223541134106 0 0
-231.264868508461 9.60972256295078 -6.0424292383085 0 0
104.872108909922 -9.57755443176221 6.96750447832288 0 0
-98.7145332609746 -14.094626951974 9.27264196134846 0 0
20.2563773508003 7.6604890652419 -14.9445918726977 0 0
34.4231264910777 2.89160570878129 2.80560537669363 0 0
-117.752337796318 -21.1198855341263 -2.89515807083388 0 0
-221.970869697329 8.90992528777242 4.8266031551388 0 0
17.6217557636063 -11.6144686715133 1.14649277857482 0 0
36.4147835314676 -11.8011530441724 -18.0338973879237 0 0
-6.96561601083086 -18.5468402810355 -12.7502524449937 0 0
-157.49024476073 -20.8422621333375 0.417434902561773 0 0
98.2004091578376 -14.8490342755154 -11.8484420486619 0 0
-112.762337070367 4.49897218860771 -9.00868114399654 0 0
-240.007650970966 16.7099377239095 -13.753063658628 0 0
208.342257538315 -30.0067060438063 31.4530942211005 0 0
-202.80368857889 -24.4045449538713 17.9503432877785 0 0
204.758118013989 -19.8382409067146 -22.5983271762849 0 0
-43.3247943169513 -8.16335637997286 -19.7403438365467 0 0
-72.8409132673922 -20.9009587105088 -8.10166431140144 0 0
-58.6457246285729 -15.0163083831976 -16.2293205473466 0 0
196.088005544823 25.1444492752051 -13.5381227937129 0 0
196.235070970294 21.9436721573248 -16.8178995763286 0 0
39.421519343576 2.80021964835918 -17.5937750486225 0 0
-161.92545600966 18.6208930340332 13.8393369957317 0 0
112.956989932976 -13.34455518739 6.13801141458732 0 0
-135.653790070642 8.83007672655955 1.69527333409407 0 0
-175.260645143087 -6.17512632188283 21.0867291672775 0 0
172.155943318783 -20.770884237237 -8.26769149732745 0 0
-126.876668505406 -15.0532563425513 -9.30897929061317 0 0
-227.028263631664 -7.6844360906104 14.0773133556786 0 0
-126.846855919016 8.01002481158085 -3.49736728087296 0 0
-231.908091130994 24.7927809440197 -23.6492845769844 0 0
-228.017228643643 15.912513861164 9.71242913245699 0 0
-36.4085174234997 -0.53630241748399 -18.9266901854507 0 0
-170.776730090913 -4.20963833001378 19.8817780615048 0 0
161.201645848095 12.7213653353691 7.47664093557519 0 0
-57.328443301116 8.94904674182262 -5.03757380967818 0 0
-33.5197307242594 -16.7350477665882 -15.8132057263529 0 0
-217.219883816571 27.0344120508138 -23.1540598352889 0 0
213.414670743903 -28.2543153673042 28.5978274363098 0 0
24.0197312148606 2.43894014244085 -18.0520613025266 0 0
-177.707874414835 4.86198980218476 19.8555331446889 0 0
177.603980032463 -20.8002309269352 -15.3592207054796 0 0
-61.686775973155 9.09746051916066 -8.73727617134538 0 0
-210.758733228906 -24.4376920867931 14.9293600307389 0 0
217.372141410041 12.39626896911 11.9711943367658 0 0
164.171380009495 -20.5894386507684 2.15669571510229 0 0
139.090424401628 -8.36565167364495 8.22547147479037 0 0
72.3723279838797 9.37770758213874 -13.7621569164387 0 0
-143.145327544413 -16.459353620086 15.1830761110634 0 0
-241.929091398478 15.1586732143663 -4.40785870610151 0 0
212.807801856189 1.75202782299939 -1.17802910138826 0 0
149.43373487591 -5.59203773932405 8.23348165679041 0 0
-221.942734234966 34.0791607966599 15.2557794990929 0 0
187.67623549894 11.7665876124871 25.5241957811195 0 0
166.56190435652 -0.409719264871083 -19.6381786347578 0 0
-122.005382186573 -22.1168305484505 0.734406927673811 0 0
-157.620479043228 16.7006722490337 12.0397889622705 0 0
-66.4199564510552 -5.87159869713531 -18.7893280241341 0 0
-222.967754879203 15.28351146693 10.6772550898797 0 0
208.48157142202 25.1113610102387 34.1544779619026 0 0
-93.8255276700365 -19.0693503363638 4.72401865119845 0 0
-232.886364847154 40.0155547844813 11.2507349910968 0 0
109.506074714371 -7.68630143714313 -18.7001250746184 0 0
-221.039220420886 -9.41181202796692 24.9038329009304 0 0
-229.74206719582 37.6790299800835 -21.911204452156 0 0
-161.295159922706 -6.12792897312922 18.5088313285395 0 0
151.093110995748 0.70724215141345 6.8050554336404 0 0
-147.50013508583 -15.8532762168519 -6.57814107025849 0 0
216.062804172831 23.466558819993 28.228197127201 0 0
190.977308994933 1.5903771225222 -23.4366722804575 0 0
212.953843993368 -7.30176313916213 8.92125929263451 0 0
-186.123489686487 -20.3555206483832 19.7275900728298 0 0
66.9371252123004 10.7276160478655 -11.8748322312528 0 0
-94.5316872728256 -14.0437444507678 -14.2081980121676 0 0
-224.333959857741 46.2394582044946 -14.4367007314626 0 0
-220.001681326848 12.2303602812167 9.79001118528752 0 0
-176.91323746214 16.2664537467369 13.2788513872893 0 0
-143.393004205105 -12.14563707283 19.6109995449107 0 0
-181.504081564325 -18.4596934262057 20.0646383326717 0 0
-40.0243788235794 -8.59285948309537 -19.7138786756851 0 0
-40.4491473402926 1.72198050798536 -17.4849563302834 0 0
30.6714233851332 -3.67340250634205 5.95954420005464 0 0
-205.670249541204 27.6791749244773 -5.50254790724432 0 0
-62.140474555355 2.33936578684873 3.61392014929472 0 0
91.4954432209119 -15.9775401874667 -8.66357013856921 0 0
200.795621150842 12.6993117566999 -24.1053436236432 0 0
-204.106067518084 26.2192039242215 -4.21599198618126 0 0
-174.344100187966 14.0618084052814 2.26138023434974 0 0
-3.64869149478476 -0.375215667773168 -19.5106627611327 0 0
-220.054340039829 3.85135370108069 -9.30520356851459 0 0
-35.6264335976129 9.43533122545077 -10.791710265727 0 0
-214.964238972039 10.4270417753322 -16.7846326590289 0 0
149.640271019729 2.88187785692981 6.15271817367797 0 0
114.762417505158 13.8470454333176 -9.34839529776587 0 0
-174.181992685897 18.505282143191 6.52603840143736 0 0
139.399368339615 16.6902050896406 -7.73940615456619 0 0
-224.136547407951 22.771678080338 15.9049290277613 0 0
-210.2263521396 -24.5854926499463 -5.31925672276081 0 0
182.895514213821 -30.4110220154952 10.4808377557432 0 0
40.6843249310957 11.1007256712758 -8.66219254943448 0 0
138.939987608673 -16.6028383029664 -6.50583308856809 0 0
196.807801200778 -22.995638887851 -22.5200298716073 0 0
79.5061745048737 4.30367279828644 2.90984111763635 0 0
2.86071747323961 -16.5351405427869 -3.89126343537398 0 0
-76.0639510797948 -10.3086716388064 6.61195543459978 0 0
98.1478399402652 1.16968320663069 -18.8429595281 0 0
220.609914757343 13.7876713662248 5.76864955294796 0 0
93.1948803259275 6.64841156558585 1.89255462138548 0 0
-213.336715174892 34.3233064444938 9.99937787322012 0 0
125.122376138225 -10.8167705392224 -16.8473336776328 0 0
130.291230443784 -15.7007738587989 6.98066637041729 0 0
217.54052706851 -18.5046543396757 2.23960554300079 0 0
-98.7494834216798 -20.4981238972226 -6.56409810496709 0 0
-91.0874556146608 -4.77409741558657 -16.5353702468524 0 0
186.297982485254 -26.320069337542 -8.1491768666351 0 0
-184.08112070407 -25.3517789469047 8.32134241967394 0 0
221.858050014312 32.2282796409542 10.8200203696759 0 0
213.383243438626 33.2377505053133 7.74340566539922 0 0
-21.0923219117778 6.95740461649519 -2.09764750921475 0 0
-206.157016286443 15.2575469221156 -12.4353910846713 0 0
81.6513062313078 7.02089839446937 -15.8167819425628 0 0
146.752564872751 2.58482298297053 6.04701850660122 0 0
168.105165716188 5.99014443727279 -18.9427306766423 0 0
204.505417910057 -5.12518628420079 14.3607745515275 0 0
43.8393435925973 -17.1839016075108 -11.5218163575847 0 0
-96.6144927938423 0.287175167823105 -13.9257025430101 0 0
-225.597632087401 13.6754507162897 6.67671100776403 0 0
-14.3179664219344 -11.3599574531698 -19.1557156681446 0 0
191.538213380186 -32.6878203809785 5.90593288148348 0 0
90.9056043293613 -16.4200142355872 -6.47431234328203 0 0
117.290476134164 -16.7013638959722 -2.30508277061786 0 0
208.455562359615 -10.309571658096 28.3641083262194 0 0
-245.872074140864 27.2846911009876 -7.22972584711404 0 0
200.622244021944 33.6340814851845 -4.41882850410692 0 0
149.036993828361 16.3359025232797 -10.8858033422302 0 0
115.616786861772 0.458160072724598 5.09528638404013 0 0
-208.980454285766 -30.2967458886219 10.6471130413314 0 0
205.994136366799 -5.66417461147045 25.5451650531923 0 0
-205.067225777579 -0.463585873073238 21.9803884982608 0 0
16.8160243614715 -17.4812617479524 -13.3552730862953 0 0
-220.636703358637 12.7019276218522 -17.9131820936868 0 0
-210.628104878598 6.5936529450534 -14.2620340690991 0 0
99.9820603258081 -16.2614732205307 -7.14200814462684 0 0
159.038751081834 11.9997357608543 -15.7525873916858 0 0
210.813704903343 -11.2578188061927 26.4155030251712 0 0
55.7473020139093 -10.845670171125 -17.7897505804366 0 0
-209.184419405608 9.9895157998299 -14.9138544822354 0 0
180.96822873603 -13.026972592844 23.0500009572359 0 0
71.3186560828692 -16.5258405409693 -10.4224065953493 0 0
-233.219684999524 27.7232921407276 14.9826907243549 0 0
185.068255702871 -0.403992195602596 -21.4242206482289 0 0
88.7407894860172 11.3021380085181 -12.3249840646395 0 0
-47.6279501131272 1.91736426981067 3.20643544089525 0 0
187.37383952385 -28.301030477909 -2.73070597643132 0 0
185.118212937597 -7.90300523893838 25.6176719973744 0 0
-164.763716189843 -18.7674803100157 14.9221003830696 0 0
20.0028836019551 -15.9063105803868 -3.08254488479905 0 0
-3.41838876675525 -11.608709253538 -19.1223961302508 0 0
-1.44814748083945 6.02466190814937 -1.01621369330756 0 0
208.884678192265 36.5174136952921 17.3989550887393 0 0
184.569014326298 20.1249377451502 -16.9204441671421 0 0
-195.49164939805 -3.9623475920377 -10.5929880389329 0 0
-122.786214911914 -1.96467542937875 -12.0301972265075 0 0
-228.24916505161 14.1851195979245 6.15472360173834 0 0
20.6764467294131 -17.4000033095293 -13.0477956442961 0 0
120.476354841795 -14.9059691797968 5.54619943741824 0 0
-216.555034307541 22.360632589524 -22.0054876697231 0 0
61.3307320615521 -5.66991588118942 -19.6872488833368 0 0
-223.535062411293 -12.5145405215716 -7.15053009692474 0 0
172.645574442754 28.6640211048447 2.73068920486973 0 0
-194.450292167072 -8.60711406600193 -9.68310691082935 0 0
148.399668900436 -18.0224229963995 6.30977140592904 0 0
-130.132886010162 -10.4267339361908 16.6968160709489 0 0
65.7698262302022 3.17314894650392 -17.6857504816036 0 0
200.346444766675 -30.372198497641 1.16187738453119 0 0
187.141338748136 -32.1556503325214 16.1995168546792 0 0
-213.594594042601 -6.0806438384296 12.5956800220624 0 0
-192.90338464321 -4.24560250006128 25.4752501822137 0 0
149.585753717028 12.7519428810168 4.12656665286369 0 0
155.87372752323 4.7829913871335 -18.485631834655 0 0
-8.49145213247559 3.66889041743442 -17.3643551265599 0 0
-136.947458590764 -14.763447139902 16.5519831495271 0 0
-102.411214916386 7.13678136664941 -7.52162517972579 0 0
-86.3848393547852 7.24995998761903 -9.35124161367503 0 0
-142.503164467192 8.89714032445453 4.40927847947455 0 0
0.201012304846905 -17.2304292643695 -15.0278624308893 0 0
-37.6641159105784 -7.12285949427902 -20.0571743423338 0 0
184.080725636386 20.1615125273878 20.9256875333921 0 0
-162.862518505128 17.7511017318913 16.5211564137824 0 0
208.51852229485 3.31670962882701 -16.0629293454896 0 0
207.112219296405 4.14917620206767 -18.1654838970769 0 0
-211.827475588245 -28.0336371662185 10.4975710223746 0 0
212.598662715055 31.4530368324246 30.9668293051607 0 0
-209.286002395909 15.4469329684246 -15.0721614725625 0 0
157.420063825689 21.0857347954563 2.65141305282334 0 0
211.986904899533 -9.15274127990738 -10.8038080789642 0 0
96.5745591901388 7.02918877657103 -16.2530048499211 0 0
161.715771251301 10.5772102504568 -16.8780510702144 0 0
124.398714265839 -14.4132105841467 -11.8854022456024 0 0
-160.165610020369 -20.6248572016016 7.92258265388675 0 0
190.637278228129 -30.9309126713886 23.0237004894338 0 0
220.935357668918 25.0909979760707 20.2837108421691 0 0
77.8900665912252 10.0875553401516 -13.3647220659208 0 0
136.823736085568 -8.23235670359063 -18.558852758728 0 0
214.470428053683 14.0043086850322 21.3397566013963 0 0
205.529659655277 -4.93948530170922 17.0750094214878 0 0
-234.979962687315 11.7459378564473 -12.9399354836961 0 0
-120.166360251211 -10.3642633570608 14.2244232648716 0 0
-228.807194044509 -16.2578708916228 12.624024731117 0 0
-208.174928059895 -4.25737030006104 18.6326166613405 0 0
126.525761664933 -4.04986944496888 6.29525328983227 0 0
152.278297884583 3.27123026418965 6.19517907024122 0 0
2.65489253499648 0.376787400211695 -19.1726260563396 0 0
-206.739361252116 16.2182733286531 10.1935900991985 0 0
-227.265715831969 -17.2824664204823 8.19082000271123 0 0
178.192098111309 -24.4763407231539 -2.55176919135077 0 0
-29.4789478730469 1.33962409887886 -18.2198320795348 0 0
-172.451980840202 -16.9568744269959 19.2771832327467 0 0
-217.690196872003 -4.47835606771895 26.1056823098806 0 0
206.687504630456 7.60271337405369 10.3580944326119 0 0
77.2598524296111 12.1097250839416 -5.41648316367274 0 0
216.831827444615 31.9797036748538 3.85266776371571 0 0
79.3334099920816 -13.4803258134617 2.93480108441535 0 0
-218.741901635248 47.9276004356712 -2.73643027915496 0 0
-216.704246420996 -21.5393258220162 -5.76181597314392 0 0
-123.269298978799 -8.94710088737251 -12.188759770626 0 0
-187.565544572564 -23.8318493222162 -2.53605844482983 0 0
-225.120712536397 -22.4647857150459 8.30696734861465 0 0
211.835477396607 19.8811961030342 -15.1216496057674 0 0
-140.872545879028 8.52467655822561 5.25430882246705 0 0
124.25384874404 -8.0698820330314 7.11480482985934 0 0
-122.438471263774 8.3311758099995 -2.55845534113864 0 0
-163.949115216201 9.07350515784065 -2.22725112304103 0 0
-145.249321587103 4.61040932117574 -7.12684752596956 0 0
35.5553410767799 -3.67626071177108 5.9840848786318 0 0
-23.3059117303707 2.44858208493547 -17.7280145126092 0 0
8.13139354457168 -1.53800284529628 -19.8487287204172 0 0
-187.021447704862 -26.407985440314 14.9521538218039 0 0
-88.3122519288451 -9.67379258406969 -16.7048107565905 0 0
-108.590757390231 -19.9978164876908 -6.1262075979318 0 0
-32.0221224374086 3.00287351651083 1.30865762780503 0 0
-115.946080291803 -19.9434224225979 7.35126147239989 0 0
158.282953273448 6.68419375585376 -18.1775170405813 0 0
-213.453534984326 -8.4175916733097 26.9830886002953 0 0
-172.902084287971 4.2499976291911 -7.63528400087894 0 0
6.48202055652084 -8.78688753240119 2.78215756086606 0 0
213.686750480904 3.00148330206488 -3.04946945874475 0 0
-200.914406348954 -4.42148640943765 -11.7071034566692 0 0
84.7479965161299 -15.3170244868816 -11.2177072551926 0 0
198.288839578674 16.2975409416026 33.0959725507105 0 0
200.290867554484 -29.709993344305 -0.77283719328307 0 0
99.6531364339265 -3.88065380568363 -19.480765476394 0 0
199.111729268768 30.5275186953788 35.0082002691036 0 0
-245.726761620859 24.058811115157 -5.88370671774607 0 0
127.150858296564 -15.9409928901996 -7.84452667678485 0 0
-228.036443950601 10.0488831085719 -14.476011502626 0 0
-168.813593057608 3.83415742140698 19.2208800483404 0 0
9.90316146371094 -16.9677911634272 -5.03922294886841 0 0
-175.429416177369 -14.696210582664 19.9169193207745 0 0
201.994926747883 1.79121554573338 7.19981972799641 0 0
-127.377267262142 -21.4592256529718 5.81272028136379 0 0
-147.571567254375 -19.389069399434 10.1655928694497 0 0
-12.3032824395994 -3.41024476571125 -20.3397046162581 0 0
-234.68946932084 10.5939171314433 -10.1929324091742 0 0
189.626645389909 23.1185155466355 -14.9614606220555 0 0
-131.669219646839 8.63173013203721 1.63631274582453 0 0
121.112948772183 4.35701458975622 4.26288387263287 0 0
-221.10347180903 -19.7642715632765 17.4282052879818 0 0
-182.768631044974 9.33716329262573 -7.5752119523404 0 0
-92.8080527579358 -14.644877967708 7.34266080272221 0 0
184.293687350254 -18.6558058393066 -23.0010622333398 0 0
127.481475267395 -8.58961560072016 7.36842165542874 0 0
-25.6765135707463 2.93529412539446 -17.286933684913 0 0
186.194374907123 34.7165193043843 18.2241903873551 0 0
-24.9292368232344 -5.69039422024001 -20.4402329793491 0 0
66.7392733848467 -15.5225275835835 -1.18637190526598 0 0
-21.8197920591903 -4.79448329268391 -20.4469299821588 0 0
160.261052098807 -18.6568216711211 -5.02782990624439 0 0
123.89917134979 4.74223853751572 4.22557203583498 0 0
212.792589931604 34.0601335789312 29.9616991072954 0 0
-191.894713050895 -23.2560437570093 -4.66859800381755 0 0
-201.94884324967 22.9107208414696 -6.48114545192427 0 0
15.7358282445648 -17.1508568116722 -5.45819052190279 0 0
116.969783872441 -16.1486704140212 -6.47685526071337 0 0
29.5549285956298 -10.5196198571015 -18.7725959070962 0 0
75.9182103009329 5.93992291730673 -16.340389462224 0 0
174.151970947691 -14.7980451323871 -19.835553633772 0 0
201.44897747161 -0.33283468414373 9.23432627417698 0 0
194.778338238054 23.4713312444543 -15.1379399260264 0 0
154.435322485723 14.4547775422723 -13.7247979251676 0 0
-79.0531726823682 7.36411505685609 -9.9185309713383 0 0
212.799055949267 -24.1060788275311 -8.82125067661589 0 0
-228.925068910395 10.6965304732 1.1153979330062 0 0
200.986476174207 -2.21887311796796 13.7292742830698 0 0
79.8417139660145 12.571793013404 -7.43018700206949 0 0
182.960263230707 -19.3552315321634 29.1387844418451 0 0
188.903808129651 -34.5875736229265 12.954226045094 0 0
-44.2491123665093 2.51804614281226 2.37227983824999 0 0
102.89734920216 -14.2472727823562 4.17829201953391 0 0
60.8317794827274 -5.20576312916479 5.85589789291109 0 0
-48.1516242958276 4.66151911954463 0.944997495478017 0 0
-49.6504139477033 1.57253076144903 4.28710363156587 0 0
98.1451050680854 -1.26292262899292 -19.3498694436724 0 0
8.88337790825678 8.62575736312913 -3.34616988014758 0 0
-37.0036492090311 -16.8933093858092 -15.487823972407 0 0
182.678425210583 -15.0497919766025 -22.4109112801478 0 0
1.60631474212848 -18.809649726636 -10.5000887642127 0 3
-99.6447746191012 3.44507387842701 5.29201797470775 0 0
178.255227892558 -25.9718356434148 6.28683442491507 0 0
187.153141204248 2.73891551405096 14.4339165176645 0 0
219.844323499772 28.3409125433505 -2.85976175007055 0 0
152.904117159694 -15.4484030432336 9.24844875261889 0 0
-183.399253924265 11.2145850581273 -6.29635949652747 0 0
-148.153420161561 -16.7944867233866 16.4075327718049 0 0
49.3812976232604 10.8994802865231 -10.5856688453702 0 0
-167.665172745822 -17.1684767962096 -5.10864679779849 0 0
-48.5830750594522 9.10701910640595 -10.4138184251314 0 0
-238.279460677808 29.8189063957823 -19.8677015349021 0 0
197.717046835556 13.8245233277644 30.3926833156394 0 0
29.4011072253778 3.57009214429182 1.53816702372442 0 0
206.999893304954 20.8752748447786 34.1499516703818 0 0
23.2369034629319 3.98851890700123 1.18661021759148 0 0
-172.922276835418 14.3717890839428 3.63114391991574 0 0
167.816643056221 8.0651753900975 -18.5636429252872 0 0
97.4999397558146 6.81831117787274 1.98717479490695 0 0
-163.709425331176 -1.65865860043092 -7.22089911926444 0 0
76.764330090799 -6.67893818748345 6.76829301865603 0 0
-201.403230400468 -23.3090907784328 18.9768476702779 0 0
-117.950700356634 7.81276262337011 2.38334222600449 0 0
-152.025732300141 -6.30494515998631 17.4375290042602 0 0
-12.7446167717588 4.70708781432842 -16.5454995541773 0 0
162.95080856483 -2.59382359165586 8.4565783961688 0 0
200.282943517918 3.64216844804142 -22.2534306503517 0 0
-222.422555014923 12.6496733497929 8.6364675832897 0 0
-10.8853843729301 1.30492749049418 3.94209429828244 0 0
-190.99769891858 -29.6402297378936 8.30847525601949 0 0
-177.035361752527 -17.0768762397539 -5.15021117191959 0 0
-215.393649424132 45.7459327832587 1.06727580383155 0 0
-130.766376988815 7.66685862585235 -3.91409107760018 0 0
181.94220076958 4.28230702785644 11.358232621197 0 0
186.493303899953 30.0786849121541 -6.38116021533202 0 0
-200.264071392366 4.99495795792601 13.7905109209308 0 0
162.022012946836 -17.7193270288961 -9.84763471155991 0 0
53.3702040994416 -16.1382976195323 -3.24628632193352 0 0
203.003290083026 -8.14054718757946 -21.0714138353293 0 0
36.0315694517135 7.63730441869957 -1.52660513737118 0 0
-214.802199856248 -1.46848997645042 7.76508259172253 0 0
29.0803217922421 -6.96259833513829 5.16110739477889 0 0
-73.7338164201045 -4.60234470568189 -18.0888364461854 0 0
162.952321155345 -20.6479409063098 4.26840158830611 0 0
92.0692892918887 -11.4009193862957 -16.5821796927494 0 0
-204.060245388983 15.5085591829124 -11.2464372475506 0 0
214.167519803065 -10.8755087284856 12.4964633483683 0 0
149.218522347899 -17.9604147583854 -2.47849053181244 0 0
-216.167024693034 -6.19249294766295 -9.53066827356721 0 0
-214.904529578853 -17.1658954281351 23.7145169952826 0 0
186.721653533706 -29.3318666936591 1.35959056517915 0 0
201.629286935017 0.325331700018357 7.37128899336877 0 0
44.0593273775876 10.8338438153149 -5.51473928576691 0 0
-224.505150898336 -18.2464550396079 -2.29843174082378 0 0
82.1413185059918 12.5364913605927 -8.92967798932696 0 0
-64.649806265917 -18.4004414922242 -13.0142390315746 0 0
196.702059966099 -4.87515925165826 20.5357799912722 0 0
157.068717537733 18.1257586427575 -10.2623817173758 0 0
-153.713163096102 -4.65206382819529 17.0249026655422 0 0
197.433149042098 32.2738059482807 34.2939859845871 0 0
181.799623774586 -21.3945975238908 -18.6256261412868 0 0
-68.1919474864311 2.69724925584223 -15.1249844561577 0 0
-123.154697568366 -21.3962408456907 -1.69314811663315 0 0
-28.1484482868949 -19.7912851586779 -10.9153707653312 0 0
-218.401942418744 5.95553810799725 6.50041248666013 0 0
139.374576494867 2.19195399270799 5.70430167075618 0 0
153.485360263777 -7.19777993604006 9.04835156553699 0 0
189.220505607026 28.6363047901653 -9.07525713086131 0 0
-136.684311835086 -9.04919883933791 17.7681241115106 0 0
-86.8434905792041 -1.35685810788295 -15.93963098594 0 0
-208.562103709855 -26.4174806220941 14.6800342297498 0 0
-136.089458430839 3.85784974911032 10.3183481499744 0 0
219.152411501359 10.7845190167185 -1.89907231953474 0 0
21.3052110449155 -0.620181954311184 -19.3671164627377 0 0
-199.080200191668 2.75980613331026 17.4806677112179 0 0
182.121981874194 17.4449486887125 -18.3065703982773 0 0
177.94771537405 -3.49743209063995 -19.7116931159349 0 0
-172.893564834902 -22.3824789941149 7.00296922464399 0 0
-200.497409265546 23.2379042256202 -4.04418296982047 0 0
123.184161363843 1.67376079589821 5.06608739820673 0 0
88.3777237816723 9.3323465626989 -14.4454858950713 0 0
-172.924410791734 -8.59828744557316 20.5142992990437 0 0
187.421234178721 22.5770040881545 -14.9910768655152 0 0
-178.109880941172 -13.5331915170484 -5.59944800418887 0 0
-74.8444670493303 4.81794433809458 2.40216348077821 0 0
-213.988433540638 -6.35303879074359 -10.7852933186524 0 0
32.0769522090633 -9.67309179745033 2.91215995733344 0 0
215.124476092775 -11.1835152106905 -2.012522735777 0 0
185.210109122777 19.3475104709857 24.4227900832408 0 0
190.412447602935 -5.00451210528265 21.5271453588923 0 0
180.076459630505 -10.3521050884399 17.2739508631251 0 0
147.166818425342 -17.4567632376141 -4.17899402678126 0 0
-105.204495665748 -21.7533073804516 -1.20438536572778 0 0
-49.323328863208 -17.6003233825399 -14.4309487856869 0 0
194.078537111893 13.3792037111921 28.4285190553678 0 0
-89.8906166964566 8.62965532808662 -6.37154375642259 0 0
189.869320963802 -5.83551744910125 25.9148446950995 0 0
-209.510293664302 14.1190881911644 -15.6358541488333 0 0
-37.4993976065706 8.71288320499526 -12.0722368531795 0 0
-228.813877847102 -14.4205557047406 10.7528064653691 0 0
21.8482130258703 -2.52867624841072 -19.9666248938523 0 0
-132.74043208891 0.584976616739047 11.479014076847 0 0
-186.085479788297 4.90472341365719 19.1844885239393 0 0
71.9007187790612 -8.90273941509085 5.26561211063673 0 0
106.797987239746 -0.657732528777613 -19.2311011428737 0 0
199.621620210886 -19.7191545288123 -25.5100103683921 0 0
175.487330787935 6.98621157617775 10.2329108705884 0 0
192.655640390408 -35.5765326657118 15.2078669942687 0 0
-113.510371959317 4.55845284331935 5.96680938089638 0 0
25.1128133325132 -10.0606281053754 2.4433211253932 0 0
180.197727756571 -0.835575642879124 -20.5522480968032 0 0
195.6237480105 12.1590420240085 27.7095335592353 0 0
215.228077715164 -12.6474444478308 10.7564189080971 0 0
173.972230778266 7.65808282135412 -19.1466278184028 0 0
178.2481379459 15.9266677219658 -17.8746507936198 0 0
198.331514166368 35.9302748776488 -1.37565526019393 0 0
-80.3633325477993 8.05619990552767 -1.64438643273962 0 0
60.4339367715208 -3.09824057478843 -19.6422686269823 0 0
-228.011607640105 22.973340618154 -24.1159668743816 0 0
184.028942569434 1.61507015790317 12.5184692767158 0 0
-223.016167136683 10.8015338002829 5.36845907550514 0 0
213.41021740873 -6.88291992106275 -2.5188535820698 0 0
214.25895000008 5.00259077718971 -5.37527938783504 0 0
-107.836302022933 2.65359728399149 7.06582332117404 0 0
187.742075671997 6.34004700608239 -21.4435745586235 0 0
179.605995228775 -21.9342229614986 21.4518579547591 0 0
215.743743553987 -12.0828883464761 5.31516342943049 0 0
211.111932192795 22.8975368950122 -12.7141836842008 0 0
-190.190424629412 -28.4593857079258 3.54531618402111 0 0
-70.5296061552033 -14.1445975239087 -16.1213448888387 0 0
-43.7689761069702 -18.7603794904 -13.3764219945094 0 0
-7.67391903068506 -15.0606741591894 -17.1526715323869 0 0
216.373372929846 -23.1058401242475 -0.654097658841157 0 0
-229.097952384594 26.8092352654385 -24.4784280321895 0 0
202.280505509744 20.126023505725 34.9427663737223 0 0
-203.986883467079 24.1382584454437 3.06459414271582 0 0
191.233604799748 -29.9534242262963 -0.462875351502746 0 0
58.8240441531 -2.42095238716187 4.99680333329892 0 0
180.226419605608 -25.4674690710301 -1.97189846323874 0 0
-224.566251068748 -14.1396114103998 -6.19968083958845 0 0
-206.89862594884 12.0850972488011 11.2124308183453 0 0
-130.190374118127 -0.39057032857679 -10.6154330274048 0 0
-46.1164649956379 -14.5569454989264 0.898988844491965 0 0
180.237034810836 -14.4025501284327 21.8996472088344 0 0
177.130356687198 -8.23239931758688 13.5477973903174 0 0
-194.833769938631 -27.72263175076 15.3388591574287 0 0
-189.493344234708 3.85653061661498 19.4583834755522 0 0
27.5041959405487 -0.433388268429052 5.07560233167536 0 0
14.3764621327663 -18.3164517877489 -9.38498790577606 0 0
29.299563648876 -3.03143546361948 -19.8981484647573 0 0
112.054234285373 -7.7456039057045 6.73640642700121 0 0
195.863391682032 38.9145912700616 10.6070142081009 0 0
-215.730395021342 38.9869394915613 10.5726572312653 0 0
-17.9595000361883 -19.5143172899077 -10.5407258218991 0 0
104.235236475029 3.26136987338163 4.06736648308914 0 0
-141.205101099713 -12.5059324181278 18.5010722793094 0 0
-113.727246498843 6.62491346374138 3.93147882837725 0 0
-211.064213917067 -29.8539480930121 10.4006068990175 0 0
-221.782594917716 31.5946413447488 -24.1967276374945 0 0
18.270461700236 0.266606671596263 5.12443658611653 0 0
181.353698847321 -28.9626748015399 9.42147970072934 0 0
185.39353644878 -20.0787904386526 31.2951379798721 0 0
-18.1924263211868 0.816132292158094 -18.8317533455478 0 0
171.335403872587 27.8994606517645 1.51155127615342 0 0
-167.879703992001 17.0484262308379 18.37372673708 0 0
200.819641238871 17.5522819702206 34.1118884374684 0 0
184.938511154075 -3.00435155135488 -21.6139388477177 0 0
211.959424079457 2.93391620768126 3.11082377514681 0 0
213.028366939788 5.52122011906166 -10.7997491289303 0 0
177.434928386805 8.55339558089684 10.7990982673243 0 0
-183.620850517443 -19.610612228077 19.9350158064543 0 0
-207.764934621256 7.58635006103892 -12.9829013795152 0 0
-147.85904444703 -1.98260444778475 -8.9877758584273 0 0
-88.5313498881536 7.70011499148824 -8.52647207824826 0 0
86.6550095109211 -16.3060198692396 -3.16774651592772 0 0
211.265561375607 1.8100356943844 -10.3899761343324 0 0
112.563333393981 -5.13574601225236 6.08692384030455 0 0
21.5660673022894 6.05119468095446 -16.1293283421561 0 0
97.431988518624 -10.7897128669712 -16.9271567762191 0 0
-205.419733364203 -25.6220312706048 -5.21310614472634 0 0
-1.59826966873881 -1.49578026373314 -19.8786848067798 0 0
-77.2705613924588 6.37084450079465 -11.1153705774422 0 0
-119.235299855083 4.80482838676621 -8.32120913109446 0 0
-173.3958641168 -22.2013769874715 0.123925489820858 0 0
-18.4093759909957 -18.852495891947 -6.35573117671297 0 0
-147.269821821532 5.36321723616918 -6.50647917330121 0 0
-216.201623549242 42.7465417440256 7.35658324016685 0 0
216.915842179472 -15.9034354715337 -3.20623264499645 0 0
112.866811238276 -0.867605552473376 5.19596451687781 0 0
-202.449009316934 -29.2621250284662 12.2077108605277 0 0
95.0374585541281 5.19628997362693 2.7685531691074 0 0
211.932704412265 24.2164610004669 -11.2592075418678 0 0
-52.2031981171404 -0.467563333240381 -18.097644713392 0 0
74.0551379236822 7.6916446393079 0.055637010915224 0 0
-177.908359048629 -12.5806993577942 20.749826938478 0 0
177.516991835958 1.47046481975477 9.63635070893806 0 0
-26.3152001769287 -19.2055197064541 -12.6270152375942 0 0
-198.004739259454 -31.3411027503609 8.71224579255329 0 0
-5.85085151367406 7.85609226577516 -2.80015630930091 0 0
40.988869235161 -7.70658216826582 -19.4821507851944 0 0
64.5317299504591 11.8726025902491 -5.75813152350184 0 0
204.104576206336 -30.6397765332107 31.4486937327251 0 0
-46.1347458626212 -17.4700679927911 -1.77086700653781 0 0
214.686236637067 11.3100486445086 13.4910733543344 0 0
-23.4311678208447 4.2510712617335 -16.3221898793876 0 0
44.9346935603235 4.62664815987917 1.47363690102967 0 0
-232.036469783279 10.2134838032278 -12.6465080912523 0 0
98.6009506759063 -8.72663151482596 -18.1869790786628 0 0
-210.364557323242 -5.7392747344981 13.7810751412273 0 0
-236.142406277177 45.1773869079864 -8.74121786614138 0 0
-213.54012355572 8.53173895327302 10.8781027051778 0 0
-74.6542419363845 8.98735064687648 -5.10473797000165 0 0
196.419474546903 29.0963455416508 34.7650467205787 0 0
202.802148885893 12.7088029358435 29.1421273907366 0 0
204.393725033831 -29.4498298254225 20.1421953416184 0 0
-183.877241798698 15.1826475475877 -1.21649443476319 0 0
46.4591139816963 11.3360658919316 -7.66845171406088 0 0
-226.200705023537 -3.37063424649931 18.9398294330206 0 0
213.263170888324 35.8277354258895 16.1813827914107 0 0
-82.6265069389712 -16.6332374887319 4.41833216271946 0 0
-191.174142865484 16.2999978790632 -4.73011569491951 0 0
72.9334905496836 9.10151186644919 -1.16815213775627 0 0
219.229900126179 14.1214611150711 11.9789017498528 0 0
205.917737929222 2.49712421254244 -17.9448266354799 0 0
-188.718252583134 14.6527729495832 -4.90885345163746 0 0
-107.688557095539 -21.4284316689744 -3.07760161190465 0 0
-180.093942758364 -11.9955215301878 -5.7256108401852 0 0
-167.632736736573 14.1858595939261 4.4956931831702 0 0
-201.734013182456 -6.28587390091684 26.7078999037545 0 0
-84.0656800544531 7.31403755791331 -0.141997054150856 0 0
-204.187675795876 -12.8473366746729 -11.3376749073046 0 0
7.12977161565875 4.69464394608744 -16.9074796101475 0 0
17.0838282889566 -7.02449265173099 4.54507940042617 0 0
-148.941898248274 9.74637246290254 6.07223768844279 0 0
-220.088399260079 48.2997939967774 -4.85179483317748 0 0
-6.11198637422535 -0.67263267329262 -19.6276551499219 0 0
-36.7859290927447 -19.7204586831366 -11.9901390906912 0 0
-171.419224104657 17.5090660228892 5.36368519110216 0 0
187.014849231971 17.1009899162892 26.6630148895153 0 0
31.6182254995493 9.91144580920822 -4.52730801166967 0 0
-26.3782292299754 9.95285913867663 -7.37700164033796 0 0
212.783214177368 -11.1279712075295 22.3340678408136 0 0
-241.133198878291 41.673644073025 -4.35951576593135 0 0
132.494908608899 0.964736267259859 -19.0241391968299 0 0
126.485446851779 -15.9962658444389 5.31012346450403 0 0
192.61235131076 12.4934864986798 24.0681595828643 0 0
183.442353669163 13.9184684972435 15.537474144038 0 0
102.056580026636 -16.1753670107554 -0.107652342870055 0 0
-25.1954480899855 7.92085000322239 -13.6845428813747 0 0
-211.662100468069 37.0040003313077 1.29430529321671 0 0
197.610569622383 6.46680393332809 13.7145811964329 0 0
175.33986616002 30.1604008246551 3.49924713770675 0 0
210.894927385398 1.22891378249227 2.98551993609782 0 0
-51.7279353125951 7.93731895553793 -2.85185334601068 0 0
43.9110823185803 -18.2472499924255 -9.03651541696387 0 0
-222.825056435709 -5.31405778931951 24.7367833875137 0 0
-200.138772335377 18.4562375543571 6.81238956313397 0 0
4.1232767078844 -0.292410120130613 5.5646202720366 0 0
211.786133195855 -9.23522531377417 21.1221465659712 0 0
-168.422224088603 -7.98093118698917 -6.41811604921011 0 0
-223.86923725418 5.73974162012995 -5.36956985274097 0 0
-222.912530154514 -24.6639192035775 5.20375773343142 0 0
-79.8059483773614 0.827780113717096 -15.4749823567438 0 0
205.442297876552 -10.1031778578634 30.2774879753124 0 0
-242.179322818489 31.2757530894389 7.97816259353118 0 0
-222.682432415415 3.29217254309286 -0.44467379410282 0 0
209.006407454107 37.3932190254985 27.9578201848964 0 0
-204.117384119182 -18.3346894276657 -8.12216398050313 0 0
217.631501841701 -18.3848204923528 -0.138990954021835 0 0
-153.559817197651 10.6100930794069 5.27618275485669 0 0
159.484415730474 -19.4539517278964 -0.866991705622012 0 0
185.171197879504 37.0464030445931 5.97349286469974 0 0
-126.931392322855 2.79813691189489 8.89223614501716 0 0
-174.037229949704 -7.54737160854107 20.7791593669914 0 0
-147.251978420374 8.84320534468022 -0.0800464082501564 0 0
-212.730562265902 42.7278813359868 3.43191350085279 0 0
-124.230670493566 -2.9231670392731 11.1269217668687 0 0
219.156860415619 16.4296411454931 16.8734166838054 0 0
119.948358481228 12.7283085681904 -11.9835694145403 0 0
-105.533073291849 -12.1351077077331 11.5484950059482 0 0
9.61512283581979 -17.3840824935741 -14.0378654216365 0 0
140.884794223508 -14.9292021669296 -12.2653112063678 0 0
152.403042573988 -0.576570204212016 -19.4098907847945 0 0
180.708590427773 -27.8163286987216 7.1359137048693 0 0
214.096471924734 -20.2089842654204 -12.3823714216595 0 0
-83.4077683328185 -8.29976123218301 8.99981952206404 0 0
131.524526516568 -9.20935486919223 -17.9745598078616 0 0
-131.825365569095 4.5716167766176 8.56215555057362 0 0
180.881991886976 29.3129681580169 -4.9686107759912 0 0
181.330468264352 -26.1803042214137 19.0871297332908 0 0
159.694609390983 -20.0232161547651 4.09408234598073 0 0
149.418430682215 6.21453404150115 -18.0886998163905 0 0
97.8372026694383 11.7476174946791 -11.5719767068318 0 0
-72.6318955665572 -5.04916017249577 7.47864933408858 0 0
-51.072647980007 8.78831781748027 -10.9162316307482 0 0
193.443494947554 16.1981412482199 31.419725168982 0 0
112.650301740137 13.8786772373709 -8.70687251773646 0 0
-156.531863592451 14.6403620540877 7.94462514803799 0 0
204.088889158192 9.26838690777496 -24.451817337774 0 0
-244.097462808148 31.009550151125 4.79524797041236 0 0
79.3878112319617 -6.65717418234456 6.78351346553228 0 0
-162.278216232984 14.4988441884337 17.9025184114305 0 0
-243.771755306158 20.868754085051 -10.9626231188561 0 0
89.9264157682961 -2.85488825699596 -19.5117012730217 0 0
-216.320785163653 -26.6218584654863 1.60493363345431 0 0
147.48472905056 19.0960969981249 -4.01452519742177 0 0
130.738607650056 -15.0903146092888 -10.7625002282978 0 0
-220.893462464958 -22.4545934060059 14.0713416548906 0 0
48.2785808990811 0.770446304410048 -18.5187032796754 0 0
181.839611405997 22.6258522356384 -13.2135546436563 0 0
215.421635702768 -20.1535031076821 24.3820965325365 0 0
-203.560448165036 6.7792913326392 12.1196214386725 0 0
132.977611834046 -14.7004665236533 -11.9657383091304 0 0
-72.7984611538476 2.04332812911168 4.29099536280372 0 0
105.183617846423 10.6095582103404 -13.5167206389918 0 0
59.6427165278723 -16.855654899737 -5.99298920506731 0 0
166.623441825214 -21.5654331355546 6.06234136105223 0 0
-223.471391654558 -19.4947574300355 16.1866417965386 0 0
217.323158151742 -17.3377989625164 4.77501143525622 0 0
206.287666588418 34.9314597398654 -1.04609412662454 0 0
132.694111195828 13.9991513294807 -11.5970852376554 0 0
-140.883523068073 -16.418334847286 15.0489914854785 0 0
-180.589822647735 17.611975092285 7.21892843461739 0 0
-6.85526914909215 9.34912340053734 -4.9582267859043 0 0
147.128890515016 -9.19613278721016 9.12890487930604 0 0
-224.011587521596 49.280239913805 -0.608243491649656 0 0
222.486641845559 27.5268559695086 15.2403509977464 0 0
-123.962649246676 -11.1439168008489 -11.6796173095285 0 0
-200.995792884924 4.45031481700091 -9.00019312752992 0 0
-215.971565921431 -23.7540696914571 -4.92446383576932 0 0
-62.4186627384372 -20.9519510508192 -7.45878554948419 0 0
-221.265296249864 -11.4479912563646 -8.05497820267138 0 0
-89.3577113130305 -5.96243004062065 -16.8287197990029 0 0
-137.746684925225 -17.809244082924 -5.5987734573229 0 0
-159.707347341534 14.9922282509847 16.2578730359858 0 0
205.358443568829 -12.583284151621 32.1266606254798 0 0
49.0615731424955 -12.4536753237179 1.69550647463717 0 0
-144.613981859942 2.88356643796138 13.4806514244324 0 0
167.784771714887 -19.050247098866 -9.73097879330818 0 0
-94.2273498299685 -21.4111011104979 -0.191688377864646 0 0
172.645719996289 -15.9815625583092 -18.620491929389 0 0
39.638028575087 -17.1969195127043 -5.92918329165432 0 0
188.79734583248 -21.4273344611965 -23.6613716674298 0 0
7.62765176184009 -17.2390417881519 -5.40581503015616 0 0
187.835687543526 32.7840653710243 25.2706562673395 0 0
162.081699601662 -0.811982623041398 -19.5909004569712 0 0
154.456083901089 0.385281340226294 7.03564489580277 0 0
-143.354787361613 -13.6819505784557 17.8891149050372 0 0
-207.834009978548 -19.3555878624523 22.1577849675815 0 0
-110.005752779805 -4.52571015935591 9.90465858921147 0 0
150.015086583234 8.6623953362653 -17.2036075326057 0 0
-26.6114089267036 2.84673479545059 1.36728158889247 0 0
210.292711914397 37.9517138614558 23.2841627548813 0 0
-218.637416982117 45.4606103524064 -13.5141595991396 0 0
-168.152670596422 -9.50108041055854 19.8575909952506 0 0
188.965184362244 2.52015356050035 -22.8530050449716 0 0
-206.867083973329 28.9951663385994 -1.31242825227624 0 0
144.847722609336 -16.2060437333443 7.54790004138935 0 0
-60.5547220750036 -0.518079729962066 5.88432254125336 0 0
192.174145810916 -21.0104718613974 34.9613932059199 0 0
-221.27686188505 -7.00455604536695 -5.10312482188428 0 0
213.728512825496 30.5921774356223 -2.05142035148795 0 0
215.857752426088 10.4600548771994 -9.892301190399 0 0
-77.2889669582682 -9.04007415997639 7.80822686480337 0 0
167.211154474038 -21.1363873294551 1.04339985771259 0 0
-168.276862093895 18.7999668774794 16.1210787948997 0 0
-112.5026385186 -21.2712078377963 5.25928447987863 0 0
66.9540679252119 12.0377481170927 -6.42008753491254 0 0
-9.29488947878636 5.12587898767757 -16.4328823355223 0 0
124.105943690913 11.1888036613255 -13.9806844216019 0 0
-104.09984544237 6.5969457801922 2.54333269918913 0 0
-68.4181528044566 -18.9865521598094 -0.521670578147493 0 0
168.38418727062 3.72192083978249 -19.2123874270884 0 0
46.7751171615334 -13.5922240560292 0.487447935943569 0 0
192.21276875976 7.73478672909557 -24.3263063573722 0 0
179.646149866113 29.9730800217053 -3.02774235916908 0 0
-157.946893932306 9.30755162735931 -0.460398552859476 0 0
119.426171258528 14.2765252412285 -3.3187159761829 0 0
-30.1340199328675 -19.3015268654973 -5.96470682216839 0 0
34.1835242203728 -11.1847736564305 -18.3887595462075 0 0
-60.9081675631079 -5.14948163417757 7.0970302042652 0 0
210.192641221179 33.2518105551129 31.9342479249249 0 0
-178.9732148832 -15.6564261125524 -5.40892342064481 0 0
-245.648599305909 24.4688140129321 0.0562679521561547 0 0
-207.524015422751 -2.30026709131096 24.0731784963053 0 0
189.244456430913 37.9439774900262 18.4631053022234 0 0
101.252382497714 -0.328344788616623 4.93161750373247 0 0
-100.750921066079 -19.899722754382 -7.38710689076936 0 0
7.64255297282952 2.51056334226585 2.70910902490892 0 0
-154.196664837203 -8.80648925704103 -7.89200397314766 0 0
-61.279561070933 -9.89840900416467 4.89534706611157 0 0
-216.133905228165 -19.8190775022566 -6.70420677628154 0 0
187.399723731715 -0.677286729083279 -22.4479918646763 0 0
-197.332650315462 20.5112769685961 -4.55988741867318 0 0
-138.512534354715 0.994931249582635 12.7955254414604 0 0
165.190555091986 -19.3984867020957 -6.21698151262426 0 0
-208.298908446478 25.5632585674507 -14.2178655539057 0 0
219.069622968322 13.1629497114136 10.1302721910572 0 0
-136.307353123319 -19.9806956596063 8.80004126946389 0 0
-203.810016645905 -30.4193268904536 10.9611359020716 0 0
128.033522869636 -0.261155454811664 -19.2408673036692 0 0
222.78239368265 19.8635306872527 8.02814785786256 0 0
164.115436458627 24.2485217645415 4.73412584415272 0 0
220.443647845568 22.8784501752782 -4.88409076277753 0 0
163.698113564895 21.8330716905164 -7.05020573328259 0 0
-143.640551711284 -5.76040069950919 15.9541310078105 0 0
48.2757829137257 -16.079229202622 -13.0365455426055 0 0
107.623157540264 13.7131094955344 -6.68097214087022 0 0
-138.54662107602 -21.5772349636034 1.81726019734237 0 0
-227.062447834236 9.76624642369246 0.167413204174345 0 0
180.988704240588 24.5752535637017 15.0548488806052 0 0
-5.16829092916937 -18.9588490681145 -10.7849001845289 0 0
-212.11487410731 40.9535923066132 5.78828995885358 0 0
-105.578196078854 -1.8971507134932 -14.216279845482 0 0
-73.5517952545611 -6.92420661004081 8.24994963282298 0 0
214.054166311531 16.8703160884401 -15.947960561046 0 0
-187.276397565235 -20.9789335876896 -4.62727524008235 0 0
-226.41169614737 -16.7378308460553 -0.431367470630218 0 0
134.310028224689 -11.9461390549582 8.14596459005848 0 0
-68.3835985890631 -1.07855056604014 6.1304753611344 0 0
-155.43867763326 -8.09736363051097 18.4081116513467 0 0
-237.594619423592 11.4489335385678 -7.09103779183996 0 0
186.177621971498 30.669358237909 18.4554511019324 0 0
188.644509608223 -22.1197665242936 -21.9901226188841 0 0
-197.341305480532 3.50678034386721 17.0694376849493 0 0
68.4737385127405 -14.7677436743145 0.458467400789108 0 0
103.518262213779 13.1246183176696 -9.38174117853855 0 0
-85.3228874381331 8.43022780325321 -2.49497221956353 0 0
-191.269566775436 -12.3873363486171 -6.70177293068204 0 0
-221.7329489245 48.1329927406559 0.756515646669474 0 0
-202.657272999669 -16.373512946489 -8.44678751914178 0 0
-144.936647904492 -18.8251251517669 12.9773545500843 0 0
-123.818960413085 -7.74427240724849 13.2973248931501 0 0
-246.154658238491 26.267412017133 -3.10908772633312 0 1
-38.4876520137633 9.44197942320349 -5.93581644339261 0 0
-121.97148494236 -3.67348403622295 -12.4777652522236 0 0
193.940321068911 11.0011852193351 17.4579465458346 0 0
-210.676887436072 39.7460882855958 4.84689953387563 0 0
-26.7294494308365 -10.5873755765566 1.85532603671806 0 0
-176.084483027395 8.84527370536734 -7.59472321022454 0 0
173.094311499915 9.33340679646067 11.6526636637621 0 0
122.126790429202 13.052493320474 -11.7111705457284 0 0
178.001020850032 -1.65150076835359 11.0888746542156 0 0
-113.183747758516 -0.489529937346779 8.68451391770347 0 0
-25.8988076474608 1.18010919117259 -18.4776038372439 0 0
208.247144394095 9.18716508193878 -21.8873531944933 0 0
22.1321127993477 -16.2833414064217 -3.94005952964938 0 0
-227.736009302605 -12.0328672680942 14.4461537467025 0 0
-143.975356852681 -20.6862280190602 -0.872349380792656 0 0
-16.4577207487022 -5.17075853531837 6.54656654140619 0 0
188.441739948285 35.4805425524103 20.6132774289762 0 0
121.527441819658 10.4933723770274 1.54891391282978 0 0
197.394000486638 -10.7229407180085 -24.7539967713348 0 0
198.484371139048 39.068906012585 6.2484638868845 0 0
-156.932231432955 -18.3283482222607 -4.25950696158283 0 0
188.293482666741 15.0214557629332 26.9704191328858 0 0
125.135743281869 -16.8666981368451 1.1560802763145 0 0
192.377108150652 -18.6776800110679 -26.731573565677 0 0
2.43735956109138 3.71484179099434 -17.4578071439441 0 0
