"x" "y" "z" "f" "a"
18.1831010263478 -11.3899624904156 -19.7317771206781 0 0
54.9124455002069 9.44229135930824 -12.6127571581941 0 0
-189.507053395658 -26.480732586389 15.4406633297671 0 0
163.730357549588 34.5676271905619 16.4000494142429 0 0
-110.403509002248 -11.8992606541091 13.8312942893625 0 0
123.281395845943 -9.89509659891115 7.23167372841348 0 0
170.020519991531 8.19928064538693 16.6855459832072 0 0
65.1831799555878 -5.49441836183212 6.78510710522523 0 0
69.2770524245459 -4.22755660009134 6.25190773855382 0 0
-197.464100682285 -7.49972387415183 -3.34800477212914 0 0
133.067495328264 10.9107972068758 3.16520925701402 0 0
135.261984293904 -0.0858342527990059 -17.9051894542905 0 0
152.730489566597 21.6578250103786 10.6723804154631 0 0
-17.1643377352348 -16.0547566386216 -16.8435412406114 0 0
-157.445653005688 -7.18043089951484 23.8728657421212 0 0
-3.11650360802487 -14.3765653172184 -1.66605080564448 0 0
154.894913347093 -11.4197374635374 -19.7742247469628 0 0
192.564584369259 30.5376480706602 -1.50540817926273 0 0
113.893118449777 -14.7200417208339 -13.8479117199513 0 0
151.523551687837 15.8582028758624 -12.9815563455141 0 0
198.177792723383 30.9001174419253 2.73936050589719 0 0
-15.5260857207199 4.24004796799468 -1.38517212575944 0 0
-183.506017196076 -30.4899089395421 12.7543389195717 0 0
164.17635912665 -8.84444892013148 16.9506346871931 0 0
138.210022228493 18.5841825337259 -5.23386721111976 0 0
-198.692177616097 7.46677932629332 -10.9315607102387 0 0
174.551314189238 37.0725682228791 29.9649996111177 0 0
-171.566231297172 -24.1938997566992 -5.55364931910533 0 0
192.36233380613 28.4782250813727 -8.42497501259742 0 0
-199.934502507199 31.3805711769038 -22.035904225179 0 0
182.706120874335 -21.8541645919547 -19.8501342600559 0 0
50.2140538774672 -4.86308944572161 7.17435615438701 0 0
181.63515688934 -28.3817360087449 -7.08992288833083 0 0
155.929646169166 -4.23666305334549 -18.5503079178717 0 0
-156.483733510172 0.434492245989679 23.5243398608163 0 0
-199.699353716399 8.080885276733 4.23511775773887 0 0
131.12134643708 2.52114738679472 -17.482303540597 0 0
-168.54622916628 -19.4156504117536 -5.81065148970405 0 0
-218.577923073196 25.2195721942163 -4.59992179233023 0 0
165.557666440618 11.286187471903 -17.8190481133969 0 0
130.703497393922 -20.2771955038707 -0.305283433320122 0 0
169.955447773208 3.94169039688831 -18.4180033215517 0 0
174.203879569762 -3.28360532962244 -19.2039611509892 0 0
34.2764422972428 7.32173425075085 -6.31719111817668 0 0
147.170474425584 -16.1399525067181 10.1389814562865 0 0
-124.263471508737 -22.2324408733276 4.15057301715203 0 0
79.5188507544501 1.44153261803764 3.58683120584147 0 0
184.351502075158 -35.1124956776218 22.451760905393 0 0
-182.998152712144 5.75859648488659 -10.6575337879942 0 0
-4.8804507484281 -12.6838520702078 0.373282528481352 0 0
185.264848293604 37.8144318769719 22.3979280914631 0 0
166.03431472162 24.110427505523 24.9710163311997 0 0
-41.6763347874303 3.7088574525736 -0.874702321649491 0 0
-80.8262251850049 -20.3999579002552 -8.79472912685032 0 0
-120.701054217456 -12.1412547583216 15.5593595943209 0 0
156.431378862118 -23.745641399881 11.3166758059859 0 0
38.8905472046319 -6.04552942130908 -20.3524427962862 0 0
-66.2457728653064 4.94759612587863 -3.81118961419378 0 0
-196.812271400121 7.17595141387318 -11.395520918821 0 0
-62.2170960074296 -0.759650303253958 -17.3781053121883 0 0
-120.167502872309 -20.7076284957608 -4.77479105629679 0 0
-63.5853233047541 5.29573361065092 -6.34722578293103 0 0
182.422762141217 -32.35379447736 19.7019058508357 0 0
-207.897675431724 42.4358471746365 9.30090383378171 0 0
-69.8369596038039 -12.5770188110515 10.2081579795748 0 0
-17.0704373360162 -9.07786537593368 5.16897919926653 0 0
150.656414336123 19.9283647961028 9.9214540982961 0 0
14.4901445326147 5.66266087305817 -3.38533891702014 0 0
-177.187020018716 -28.416712612894 -2.99338326407889 0 0
144.797956800291 -0.808838343260247 7.41576734815045 0 0
174.528462206605 -18.6734952811124 -25.4519258313241 0 0
-77.920625155855 2.6106632976279 1.98405443654078 0 0
-70.4767945430921 -11.5994016124621 -18.3317117874035 0 0
-149.753213304681 -2.07772936258154 -8.29161786321957 0 0
21.3630970676759 -0.115360003194356 -20.2164365305182 0 0
179.821769388954 -26.0955907267351 -13.2141596478523 0 0
121.582648182962 -14.1737234008373 6.09172988356991 0 0
146.039315984997 -19.926037477202 -8.53807079393099 0 0
-213.416598315215 16.5801276588708 5.33358682051753 0 0
76.6807464661629 -8.54566737976086 -18.9226967035045 0 0
-195.919317644745 -0.0208904634788812 -9.10715677741517 0 0
-193.093129544363 9.38085951320111 12.1071928333205 0 0
-127.325468928186 -3.9857254187478 14.3422508877551 0 0
109.173440404795 0.218438971909483 5.52218837787238 0 0
-199.236532922212 14.823910987731 13.0914641072515 0 0
155.320174805713 -1.78160763608237 9.80792700068006 0 0
166.789397782541 -29.2488163208531 23.5967415754842 0 0
-128.067194228426 -12.4324961271911 16.6025029298203 0 0
-15.5236546475856 -16.7381410341361 -4.60065211380637 0 0
168.194002330946 34.6747325240043 -5.29144874097793 0 0
-203.028112040286 45.8786348138007 7.3954581861384 0 0
191.265056894176 29.6288730954824 -6.92601494766597 0 0
129.98099323531 -18.2844244291939 -8.15792861323206 0 0
166.297446719979 32.0646643319149 19.6572803413767 0 0
25.8949616802771 7.85680322960852 -8.3938715745992 0 0
-192.766480536579 17.2479975736907 -18.2526485298954 0 0
-182.515106689374 12.6006603638691 9.83384169654204 0 0
164.284409877916 33.7124806700803 -4.84352472192717 0 0
161.342794826324 27.2456189384083 -9.31716769496772 0 0
-166.67820761499 15.5903627426775 5.9086216370742 0 0
-161.261690134708 13.5775927091667 -2.33460287732439 0 0
-145.11274389815 8.75788908724248 -3.00707520819469 0 0
-175.251596840652 -25.7439989826671 21.0971442743711 0 0
122.455827976012 2.39241155011444 5.35943025330929 0 0
-175.249783076927 0.184569594875022 14.7114966408879 0 0
194.956882353437 15.9617539425254 -4.99943496650858 0 0
159.306720862629 7.47697382294056 -16.8771156152762 0 0
-21.3379266068875 5.40095859609532 -4.3808862986041 0 0
160.329386716362 -12.7669984687624 -21.7130423267174 0 0
160.674619649183 2.44861541907462 -17.2910867288032 0 0
174.251814581809 -8.75952398399707 21.0461574907559 0 0
-203.127667391215 33.7560200560782 -21.0564970177685 0 0
-56.0132859536213 -8.60110583790108 9.37136612138031 0 0
-178.305259072032 23.0597117390854 3.27116798858517 0 0
-15.8216854828484 -17.6701993547071 -13.6932040902377 0 0
-110.688110755448 5.27213472007907 2.90895643346685 0 0
185.277343806172 -23.1811545735174 -16.5540695250875 0 0
191.091078449802 13.787475815116 12.7983735370477 0 0
-203.234033411467 -15.0816083767522 13.8562300274136 0 0
13.591082041643 -16.4437586005917 -5.66631759596651 0 0
36.3964703173418 3.53619414874175 0.0274642400712135 0 0
-129.346295096171 3.40113795379758 -6.90303740098532 0 0
-171.424125541342 -31.0784390346619 9.54389268047083 0 0
186.387412570227 37.583340622854 18.1066838361758 0 0
72.9115525012123 -17.0015652452006 -10.4562549537515 0 0
-189.522943400825 46.6158998219335 0.433120056663917 0 0
55.6903293653088 -6.34310407580625 -20.0183688306832 0 0
-46.4819928418243 -2.22457882221931 6.23230964923175 0 0
-2.52411013509805 5.54734586006855 -15.4785704084015 0 0
117.39482724415 -18.4957647612817 -4.18195065099426 0 0
146.261256195718 23.2278064824516 0.386332282579062 0 0
-32.9027605333974 4.10990483722758 -14.7879089272481 0 0
-125.642419345128 -7.94923881462651 14.3648036096028 0 0
195.955234804865 24.0757786045587 -5.5450814809431 0 0
1.80424821429821 -7.25222067602759 -21.0096987560037 0 0
135.344135949733 -19.9834882725224 -2.09288506169987 0 0
-181.74097135961 37.6825435423889 3.46121611326792 0 0
183.251775701542 39.2744273366344 4.72422247560107 0 0
96.8599374754756 -8.91571040238174 -18.3645464696838 0 0
176.575992757662 -34.1312031065844 5.95644908176883 0 0
-187.959751683611 3.68871089251547 11.5604034689508 0 0
-30.191146524589 -8.77833622925131 6.68638649315168 0 0
-129.361860092006 -21.7947863654087 -0.764664371827042 0 0
-207.730516406833 30.6463711851901 -20.0650422900739 0 0
144.35344844598 -16.9055299904505 8.54111715517158 0 0
-205.30896221479 47.42321661231 2.59445687222889 0 0
-154.586646861598 8.47653800451761 -7.19820094209675 0 0
180.39096425558 5.63008180296999 11.2919998286692 0 0
12.4042942915465 -17.2564480675994 -8.25129269972834 0 0
-82.9562995220454 1.81529071952831 -12.5037058694938 0 0
-206.550832599831 11.3074239328181 0.579317962227934 0 0
180.420491702311 -11.4760870038173 25.6356972547955 0 0
175.900238089276 15.5740738455777 -18.960300606405 0 0
118.682150522731 3.52828898040393 4.72288903468721 0 0
163.954073305992 -12.2570313881425 19.3304343299629 0 0
161.448413145309 37.5880265087776 10.4824642464255 0 0
80.4696190958498 0.752870983386115 -18.7153058863086 0 0
184.910135790977 -26.4157080067034 -8.84864531682789 0 0
46.7810897130127 -12.6786385023494 -18.0921445961228 0 0
-127.897745889795 7.46906265897006 -2.48803309596013 0 0
25.3923291615389 -14.8186722462744 -17.1589206718369 0 0
67.5685797379351 9.06964174270072 -13.8443278276325 0 0
-207.818175734831 19.5057617118408 13.4793351707377 0 0
109.559519073315 -1.58140770673013 -18.5691596446917 0 0
140.56073612939 18.3268450612803 2.64266351982778 0 0
178.727660753301 -11.3584475223572 24.8315406765521 0 0
169.689839949643 -25.7338606715682 29.6380588315811 0 0
-146.907866535661 -14.9436360894618 -7.82255392098958 0 0
27.5917745614151 -3.97273169600703 7.08321559096411 0 0
-161.627403266538 -23.980171198275 16.7075518768449 0 0
188.290132090718 -2.46812191133948 -2.10336669111011 0 0
155.451171387377 23.7648226104105 10.7594084575517 0 0
194.299145516091 32.6523483277983 2.43089771060411 0 0
-73.326292552911 -14.3328071383683 9.66643866657619 0 0
-31.9048851067143 -18.7320993376878 -9.55198316862955 0 0
-198.611999616801 7.47005471334925 5.40106763605406 0 0
138.508216479189 -1.97616297523196 -18.1211509497519 0 0
188.098932322426 -3.22159659094287 0.266069000831332 0 0
35.6188252558827 0.446768522674664 -19.7056384357235 0 0
-111.754346114955 -19.7593869619824 -8.55690261000848 0 0
21.1355467157017 -2.75844715649588 -20.6523746303385 0 0
-124.588274770925 -0.235193354314324 10.7742168209716 0 0
-200.672736443839 10.7175454614313 9.5442105424837 0 0
152.684198134037 3.04393585315049 -17.0219079030293 0 0
-91.569472932489 3.61847051274983 -8.86602845555978 0 0
-9.47015390593017 5.18697469142441 -15.561508011724 0 0
-34.5535952493231 5.00599549705007 -13.0738635004612 0 0
98.2911102014816 -17.2415619585429 -9.04378978443419 0 0
-200.798181562288 4.28385527316156 -5.65127422524403 0 0
53.3699901914867 -7.452934599906 7.05390574440149 0 0
194.495803868238 -22.2639934138142 7.69448862786343 0 0
190.321699552785 7.35906668951587 3.08106628297782 0 0
187.971829830978 -33.3787386067014 11.0777931524223 0 0
2.37415428347175 -1.75511802842829 6.71298162360327 0 0
-206.069525660421 43.3149675010476 -13.1917469377296 0 0
163.482482305579 -32.9079371723124 12.2440977182246 0 0
-194.672407207056 46.4190229546298 0.435782069262652 0 0
190.153626336313 14.3575453350386 16.2184130488689 0 0
43.6442754022087 8.17198558711491 -8.13771074410156 0 0
-198.63854499674 19.1604368226575 -20.2545884865265 0 0
-214.768312620859 22.0622278142753 8.19797982295907 0 0
31.2019074776974 1.36527039521294 4.17484286764171 0 0
176.261979396207 -9.2640259570982 -21.5763578768463 0 0
-61.9142113665893 -19.5492724887895 -3.65152459267316 0 0
150.887251393468 21.7514294231539 9.59292990155746 0 0
4.37138966148174 -15.6935961092773 -3.79356358064998 0 0
-149.821416995077 -12.5251823829354 21.2951661847612 0 0
53.3774926325972 8.63457356771457 -13.9943618833599 0 0
166.253977974908 -1.81713224406008 16.6250999172902 0 0
2.38862901842639 7.96044662836027 -10.6599012857559 0 0
66.8378135415116 -5.75943103225972 -19.749223455817 0 0
-192.231074511832 -0.559315994668202 -10.1408654406838 0 0
-164.255812319279 -27.8471921112195 5.20461073423688 0 0
-192.315160281105 -18.2465971958215 -5.04814416118495 0 0
-187.485987172341 29.9623967052233 13.3966349624712 0 0
-29.1260931364622 4.90361392312746 -3.14947490635825 0 0
-22.4806852928989 5.60404166974234 -13.1717906055778 0 0
151.481597783344 13.6569385803732 9.7003212373404 0 0
193.222468104751 -18.1785098768554 7.32169963855066 0 0
186.940353506284 -34.9387083888312 16.9129605229784 0 0
-190.528091995059 -8.85045822940537 -10.7736899524243 0 0
-217.209919575262 23.8182199698349 -8.7808054347576 0 0
192.61114236121 15.8677286211849 -8.3934512424415 0 0
180.264271800384 -0.479951138690787 -15.7383750446033 0 0
-118.980612928553 -16.0077923481546 14.4402147362484 0 0
185.856916227954 35.365647246115 30.2850639960189 0 0
-174.687164621997 -14.1820418792156 28.0298295415981 0 0
-187.162860060816 -30.5840939420243 2.5426445522391 0 0
-179.962940745818 -1.07212236564698 -10.0137048364716 0 0
-91.2780426970263 -20.9726822993369 -3.61950572164462 0 0
-131.70651864641 -7.27850987239725 -10.6004052733525 0 0
135.097734228819 -9.18636258433711 -17.5761325161779 0 0
189.762629136869 29.5248580350404 30.190344121186 0 0
161.676770762968 4.28114012266748 -17.0229585022985 0 0
-51.563812546463 3.45519024099142 -0.519865519150279 0 0
137.22465989126 19.5832194072663 -1.46939657454071 0 0
-166.410344242615 12.5651233085968 -5.82468017344577 0 0
58.3604352167938 -17.1100365961491 -10.5421623030687 0 0
97.4829266133571 -3.05721618993084 6.25982094747929 0 0
159.690922241685 -25.7896458684104 -9.49005139733677 0 0
188.913575854839 36.5966635672086 20.5716522197057 0 0
-213.902078711393 18.2480941507499 6.36040146049406 0 0
145.904258027209 4.68217096539396 -16.9249503036118 0 0
-128.254343799758 -11.4249070991126 -11.2505729789328 0 0
101.848395498777 12.7136567384034 -8.13650519242439 0 0
36.3653723491806 -6.44556601965898 6.15003829271723 0 0
-183.261653101696 39.2967992795827 -9.80451028971991 0 0
-132.462456907292 -8.70546281991044 16.1507694825229 0 0
124.700006784988 14.1140784515756 0.39211941154531 0 0
190.148321641127 -22.6521220082306 -10.4635035396198 0 0
25.3705363235217 -17.0050931883979 -7.38919816471401 0 0
173.932014182933 38.6057919351939 0.86298409727641 0 0
8.48216550239301 -4.84621443164418 7.23890788241462 0 0
-188.543600068892 40.9602334971788 -14.4931263422274 0 0
-155.313642557476 -14.7086962834798 -6.9890514160651 0 0
-82.568114389439 -20.4335846568122 -7.89051525900107 0 0
-201.620779268975 -19.9307635206021 4.09965759039999 0 0
-213.872228235655 37.4320064395045 7.60877720175397 0 0
-184.066479980794 26.7798231571851 -13.3028023705759 0 0
-218.611730358597 24.5754174934656 -2.44169566808362 0 0
-168.174453023196 -29.6183086185738 4.07569433791123 0 0
179.766236364779 19.4099354481541 32.4282812889744 0 0
-67.4207198343805 -19.631888643094 -2.13466873069505 0 0
192.431734378979 20.6865553538236 -9.48453248888369 0 0
164.503783344881 3.65273968896858 -17.4796574345058 0 0
142.59995987259 2.74976166294086 6.50227602238729 0 0
-65.121157516286 0.301130471773596 -16.3598297842529 0 0
96.6977222093643 11.3506905040443 -11.8258057501322 0 0
40.9039189891081 -16.3483715537086 -14.147977530726 0 0
184.884273865459 29.1822253374953 -9.04649006377321 0 0
-204.621153926615 14.0711554583711 10.4501385301496 0 0
186.668149919243 4.21004258052332 -9.70607548675856 0 0
160.048308142927 -15.3812285797249 16.9284338918178 0 0
161.121559554789 -24.6392809948518 17.884630872665 0 0
-156.167575685691 -4.36558588032536 23.170371261153 0 0
-67.2582582198552 -20.0420826592921 -4.58148657226667 0 0
-134.194077335896 -3.83104136336953 15.7421851796125 0 0
-144.703430486325 -21.9727431664431 -2.92110256690953 0 0
6.95373634717778 -3.41900663362813 7.3669906857485 0 0
179.341168255438 -33.7600132066953 3.34711944324343 0 0
-138.167133592897 4.61381048139848 13.1966975949139 0 0
153.122284162024 -1.06921696083679 9.00940944825538 0 0
-194.92265722314 14.1879465957459 12.8836842274376 0 0
-126.287190141817 8.0297799945167 1.61938351306572 0 0
-33.0221995062221 4.14933285137156 -1.63588327757914 0 0
-199.085043669473 45.929645488715 -1.87294942104042 0 0
8.44118906929012 5.38413157508154 -2.97087689693028 0 0
34.3534801455693 -9.68769998368473 2.86612368164534 0 0
43.3973754138213 8.65928458689841 -11.123455317779 0 0
-188.681664406341 -16.895439882634 -8.12956925039682 0 0
-111.632808900747 -4.01730714278967 -13.5772867931424 0 0
190.064656079989 -11.9406469453838 13.0880844869772 0 0
-162.188002752781 6.85617022748995 -8.39088604591788 0 0
154.383348078778 7.02298639036568 -16.5783166848095 0 0
-85.610362643097 -16.4532098695373 10.3528381812745 0 0
-191.161383904632 -12.0445062878394 17.9277685784372 0 0
138.508667619 -15.5488813049318 -14.0324910215054 0 0
-51.0986431304551 -18.620193664855 -3.59630141249612 0 0
-145.653679970525 9.29579411371091 7.11830168224091 0 0
17.2436495185288 3.00809137747985 1.32611057272383 0 0
109.578559174908 -16.2821464453011 -11.6976721255343 0 0
174.537471732292 37.3280629421627 24.4346331933225 0 0
184.847472714017 38.8820163297011 10.9710844528589 0 0
-188.371204734662 -2.16450371093251 10.3793626639427 0 0
176.059412024862 -6.38269456966652 18.3140213977586 0 0
-116.327688411102 -21.9999436742808 5.26576369551057 0 0
-139.779438927649 -14.7308564176318 19.0852328864304 0 0
152.674661126544 -8.23809029871895 10.3485947900786 0 0
157.805334376848 -9.03872037275579 12.9689840403876 0 0
165.224399731157 -22.9473744045188 -20.1779261126459 0 0
-194.218365420459 21.0093210228549 -20.2276587527845 0 0
85.779170483249 -1.10741530236277 5.25353261964606 0 0
48.3727134391312 -6.20932727533286 7.37592451893605 0 0
139.775137337035 -0.175093443487302 6.8396485405082 0 0
117.035593005378 -17.9705221830171 -7.76364448482944 0 0
20.0791815129481 2.32018547138049 2.40345488039072 0 0
11.8742465437242 1.01338942228604 4.86062822570409 0 0
-122.584105656743 -2.26017026554466 11.5689834047011 0 0
153.349850040438 14.2574642348783 10.3486537009674 0 0
-209.151629713135 45.3737741381667 3.1406739107872 0 0
0.0438143455177458 1.46840361861217 4.4848751924539 0 0
-183.627814020205 36.2598209381131 -13.052299004145 0 0
-66.7855430258728 -18.6447758409917 -12.5158259669448 0 0
-35.7327925644865 2.36566591452856 -16.5301739224248 0 0
182.577541933297 34.2948794459353 32.7321135079057 0 0
103.526615646247 8.45076685327305 -14.8896736369355 0 0
61.4749291906302 -12.3438429734584 -17.6481945636028 0 0
194.673960961974 -23.7611130043457 8.36022148353524 0 0
-184.910106279876 3.39369363411498 -10.8032599333207 0 0
-66.7904349498523 -9.20089653221311 -19.182139144557 0 0
129.393974138872 -20.2146578261278 1.24032619592981 0 0
-11.3299237324739 -14.0252468052394 -18.7673967844162 0 0
-149.091619160083 6.57639185432764 24.0591559469794 0 0
-58.3171622642823 4.72175512383293 -2.94036037373761 0 0
134.108699215381 9.22051813413625 4.07612134336811 0 0
102.032427268032 3.59702347197493 -17.3846952188684 0 0
169.274992889921 -28.9732769789495 -8.22762902158422 0 0
172.679326831809 -5.05751340573818 18.0444879881554 0 0
186.907696411719 -30.7982032945294 3.11857168932384 0 0
-68.1420638338075 1.24476250910873 -14.9949924611095 0 0
155.108426621603 -19.1924164556288 -17.6032660738324 0 0
113.902208309128 -15.23966381994 5.42102648768919 0 0
158.856251774581 -14.6176205942122 15.5365444068221 0 0
31.3337684157464 -6.89785198669617 5.32007354828182 0 0
162.58307205344 -11.8194882099554 -22.4162109171046 0 0
-194.796364993389 5.65911866082124 7.11571119781543 0 0
183.081353437095 24.6108234943993 -13.0784117151525 0 0
188.182345837121 1.73318312247157 0.875371847975898 0 0
-61.6737962597658 1.02715550935287 2.99899234084258 0 0
177.757389091288 39.5263338095981 15.7524484197892 0 0
174.322696456017 -35.2603647406523 6.21098657872861 0 0
178.238005649717 -28.0220606524819 -9.29612281022161 0 0
164.787562485736 26.9297316996039 -12.4851289120658 0 0
-107.794085419027 1.44716206142838 7.63948761478881 0 0
-57.6541744136094 -15.648031899892 3.92466852629652 0 0
20.9976514915274 -7.56788347190288 4.71711985976 0 0
161.90041597704 2.13080811601623 12.2258502682986 0 0
-197.744645698518 -3.69022477089378 -1.32071097220336 0 0
183.499901705386 12.8641636184816 25.2601874161362 0 0
46.1937069473155 1.55032644266614 3.392855550717 0 0
-203.293548294082 -11.0178201196641 15.0510305690526 0 0
51.0313536296512 -7.73561188614778 -19.8691072430161 0 0
-191.777542348105 -12.638330121912 26.5743394396807 0 0
-150.199868349766 -22.6677238479093 -2.29873403955379 0 0
188.491762531848 1.92631097857656 -2.45076561345448 0 0
194.806015587245 17.6525495072085 19.683714842154 0 0
54.1806616900311 -3.83733193925785 6.523888119352 0 0
-154.132189364117 13.1379404753709 11.8912243927615 0 0
182.895016106422 -32.8964269443794 9.29513864687157 0 0
-178.902203270938 -21.8766959901656 -6.07056217996195 0 0
-161.947696639073 12.9129032068494 -4.07667617989198 0 0
161.048286038243 -29.1586262055689 13.6549967561649 0 0
10.6843762200524 -4.13300037334968 7.52264636058222 0 0
-34.2455898553172 -4.03369512138113 -20.5351975019705 0 0
-140.964950060565 7.81150354980325 8.15243490844373 0 0
-119.443699209774 -21.5020456865821 -1.25575847713765 0 0
183.834496753554 -31.4378816859391 2.23024234135443 0 0
51.4339821490071 -17.0734272082248 -7.77773035747095 0 0
-165.122017366456 -25.8574213159607 -3.29298822183451 0 0
-216.681723509051 19.953867599618 1.7532181519959 0 0
61.8004335398678 -0.674164186291153 5.33789721341123 0 0
-4.92383062888508 3.45373449360812 -17.6292938688081 0 0
-201.889514437646 -12.1437353129312 20.0993631142331 0 0
-65.0282424350512 -15.0760286422535 6.67176105858129 0 0
-212.729611225117 37.3485876773944 9.19454136715178 0 0
-179.194124189966 7.67674032509543 -9.54795937965434 0 0
-149.989267077907 0.900805562016722 -8.12730599320611 0 0
122.687827433612 -0.238908933847487 6.25508300634407 0 0
187.546025290993 6.00486695262256 -9.43385437386095 0 0
-82.7892552330458 -16.1580720193806 -14.6730572478552 0 0
139.744557764757 -12.3321980761295 8.40546778226994 0 0
-208.446951482809 45.8858557046441 -5.90592142729087 0 0
-168.836255284714 -24.4285984800975 -5.27033958459901 0 0
-63.4166099671733 4.71393943491086 -3.01769289525558 0 0
5.41493873199091 3.16256789839407 1.31438815388684 0 0
-23.2864178055809 -15.0677053414217 -1.23413346172921 0 0
-107.681968968587 -11.1310293361098 13.322530351699 0 0
184.101760889036 23.6812524329096 -13.4306632876369 0 0
198.30451391418 23.9484271522056 -0.250297882002131 0 0
163.350892375896 -32.6603642339852 7.42478640137734 0 0
179.446445918378 34.9842676128225 -2.71512355993198 0 0
115.509858137234 3.90494540247384 4.30377308298727 0 0
44.1768000120505 -12.0779868068765 -18.6281639047533 0 0
-156.321913640501 14.2434193914119 13.9712585408567 0 0
-87.9060288658469 -18.2933555235884 -12.1241526513793 0 0
169.690602990133 -26.6562130488865 -14.2241099505273 0 0
191.533869623211 33.1010649165239 0.684419206058354 0 0
188.932866824823 37.2670600283076 9.75685651076427 0 0
52.1854642664293 -11.7699241454102 -18.3668375336477 0 0
178.676535024259 37.2118702859046 30.3629356259479 0 0
-177.462859750023 -32.5493344686946 1.91193789744371 0 0
-198.69919435785 8.65018297613203 -12.4097780019557 0 0
194.071852791958 16.1581368450616 16.7575422667248 0 0
156.883567991062 21.727839891887 -11.3307272068508 0 0
157.720379166939 24.9634670235123 -8.36246656249406 0 0
188.100938353789 36.5801125989975 4.60139408761324 0 0
138.091839305622 -12.1988465388996 8.1818972305999 0 0
-169.442980973785 6.8413864720322 12.5244525251555 0 0
-4.94781060741328 -3.07475812855008 -20.770982718838 0 0
-136.443045482814 8.82070159026696 0.963383283731796 0 0
-189.849819926381 -12.825585483767 15.6112481586802 0 0
-167.479172364163 -25.0652038271477 19.7504282570774 0 0
86.9185139766624 11.5957610505122 -8.65844672462808 0 0
14.7020333600131 3.37423731938301 0.778877319452225 0 0
154.88331348117 24.4583032778577 -6.17588047733306 0 0
81.0327007472702 -2.05961342124658 -19.1803549690956 0 0
101.083790857432 -12.6469747828669 5.51910768453483 0 0
142.141511198677 -20.4129191469493 -3.03133172721198 0 0
161.670007138786 33.8386942159731 -1.79856440256389 0 0
192.144871275365 -15.0999911839762 0.497954609066049 0 0
186.41545890519 -7.27192892917066 10.8539817490571 0 0
-118.830504566704 3.88010809641031 -6.68558617175644 0 0
137.37894410159 11.482400508819 4.06776460262129 0 0
56.5727801977262 -2.36151227319786 -20.1269376047068 0 0
198.970098334825 31.2644116792716 7.35354415453201 0 0
-207.990053506575 14.1944239390333 4.16243518667604 0 0
172.662122930329 18.0271388673267 29.6838213027719 0 0
-140.608501296768 7.61768419342731 -4.47652862001875 0 0
71.9991609659648 -11.9170060684467 -17.6947769734027 0 0
-175.46901769441 20.9136014618009 3.10560074407796 0 0
-188.452389330283 -12.1876573469806 11.8226607076086 0 0
-73.6597116117175 3.60280788956259 -11.0871538884002 0 0
-198.974834043998 8.90860591936588 6.49949888728883 0 0
16.8781358959461 -7.34184663315574 -20.8822759524542 0 0
6.88330900312707 6.54749389154076 -14.5546938972919 0 0
-188.957423917746 -12.3629365546712 26.8697094836359 0 0
1.00498464731244 5.54053406101609 -15.6749893495498 0 0
-48.7239799788308 0.768125385243834 3.16684678836186 0 0
1.17957833615131 -2.47500252773363 -20.718175554486 0 0
-156.608798100372 10.3698387917423 21.857166061382 0 0
158.926515376843 18.7408982964948 -15.0536343546428 0 0
140.916332402407 4.15860503161526 6.0804657179646 0 0
-188.803547264445 18.0643644997246 -16.9049481023636 0 0
162.949647284595 21.1354968493267 -16.3738034267475 0 0
166.161077832835 -27.6650411825586 25.122216486475 0 0
-106.704634634398 -21.5476532608235 0.638353845159287 0 0
-186.953196401504 23.5760250190388 -16.9054379066991 0 0
163.770595751289 -32.3049568708148 13.8089418449079 0 0
186.861519858914 -21.586446508927 -16.1740911604411 0 0
-171.34170866815 -30.7881845478711 11.68565198247 0 0
184.101973524907 -27.7589576652782 -6.32553389967634 0 0
-162.481166397766 10.7132815591488 14.715585281847 0 0
129.175429102092 1.55753933856188 -17.7393825774945 0 0
171.295155694436 -22.3549787905748 -23.877667970877 0 0
-179.294222334286 4.3942799999804 -9.46339618714807 0 0
-195.383498189621 46.0894251296689 -0.503109100291223 0 0
-94.7021584982153 -3.3512686539595 -15.4559631547075 0 0
-191.202627011635 -10.1793376550173 -10.9639122385502 0 0
134.739719532966 5.39592955817552 -16.5843730311091 0 0
-12.6125883726268 -9.16633323370056 4.40619436845879 0 0
-185.046306808343 37.5276898210829 -14.0995320038117 0 0
66.594230730295 -1.14810908976918 -19.6664860052967 0 0
21.4938981789038 7.61421516615814 -13.7063941761207 0 0
126.613042661013 2.09486966348345 5.71915370586572 0 0
-53.5959174972441 -17.5872532937005 -14.5505594048468 0 0
-149.227310485107 12.7222801375561 15.8283664075879 0 0
191.298440088077 36.4869984652543 12.3354514728497 0 0
33.8211436531443 8.29781872493111 -10.4751112843858 0 0
165.755301001016 37.9401393786126 -0.546634270855202 0 0
148.577665009288 -21.6808195409395 4.7740603605475 0 0
28.2179989421753 3.08478574515092 -18.7087234251972 0 0
63.6026121361392 -9.67150630682428 5.02339271998646 0 0
185.273068282509 -32.1042552195107 4.91853717332976 0 0
-100.719935690457 -16.2569763979974 -12.6438547762812 0 0
189.64849529688 12.119482328905 9.40637881437722 0 0
-45.3249521763855 -16.4594185074076 -0.196522308242424 0 0
64.2968281315153 -17.2551695374073 -8.90464533368321 0 0
38.2888314552168 -15.4715906421955 -3.30736521201389 0 0
-153.034122149373 11.4246455285072 8.26697849880638 0 0
42.4526872046828 6.4132829212234 -16.4505682730194 0 0
185.984837796971 36.3212389492242 1.43044498323758 0 0
21.6960372039861 7.40257249002402 -7.10291256231212 0 0
-211.626634828778 16.6422441400382 -12.4578402745421 0 0
-104.531724107707 4.95166689732395 -5.47376109713396 0 0
-61.5723077104495 5.36481479857806 -7.64639042503839 0 0
-195.813090909151 -19.0244839081891 21.6043118482805 0 0
21.6465426838702 -17.3573091956187 -9.25785927310873 0 0
-83.3189537227158 -18.6360099540494 -12.3592900800933 0 0
181.865010504163 -33.4385840881415 7.80971658897653 0 0
124.956539224467 -4.79735327689395 7.19986334344614 0 0
-172.012877066995 13.1493922237172 8.8618846744648 0 0
-129.23935717255 0.352209794835865 -8.96892583439922 0 0
-13.8678618179017 6.80078790129635 -10.9706206175948 0 0
-113.177412133547 -21.7166242157159 7.2391080833743 0 0
39.9578336717168 -9.02929329941725 3.67875476644955 0 0
59.5369812007506 -16.8008935381631 -5.51016473811846 0 0
10.1302268168367 6.48030720183402 -5.39481845925411 0 0
169.495764308244 18.4141388515961 -17.7590262164342 0 0
-183.380382008276 -22.2453334215484 -4.60278212845974 0 0
-185.612674145659 -22.8493465623258 -2.9033731235598 0 0
137.602688313255 -19.1263969493154 -7.14923062953978 0 0
174.229093852746 39.6161203533446 2.83345100840046 0 0
197.343729304548 31.7209689874727 5.61053126434645 0 0
190.604921827062 -25.5045681217694 -4.40653092802733 0 0
-182.964586488742 30.8945791357702 -13.3936580361203 0 0
171.45705821493 34.3439407678839 29.7373693258065 0 0
143.475343536661 -1.44323766902023 -18.0298005522682 0 0
-45.8672186991582 -11.2647597057902 7.5379135735441 0 0
174.072737482386 -23.5242508068948 31.0125027734777 0 0
-162.770899003253 6.46775099716509 17.6200851793756 0 0
-21.6919875803026 -18.2477415589934 -9.24659123837867 0 0
161.856970562336 -26.5833487967218 -10.3340870626216 0 0
191.498522798769 34.5201612684339 3.16954009131807 0 0
-69.1311905778037 4.53303250278505 -2.33207713850925 0 0
-176.397185732009 -24.7516797528263 -5.27086106568188 0 0
-178.420017863819 -23.7204100686058 22.9195409827994 0 0
-175.300048876566 -32.4160443268173 9.59046901676761 0 0
164.775317626762 9.47873797323487 14.9241878535834 0 0
-185.86752454864 -25.6796402414239 20.0461842246178 0 0
-169.536628570812 -3.85428880992619 -8.90493879051106 0 0
-211.069499021698 42.51179769349 -9.99574433537191 0 0
-99.2608437409699 -20.9201200858418 -6.40772222749592 0 0
3.55678562790854 -17.6259642622305 -11.8943848880904 0 0
175.090162652668 -34.2453580733005 13.6516659396194 0 0
120.224089646657 -15.4340691403978 -13.0921454713443 0 0
195.453774008129 34.5340476167557 14.9623493330634 0 0
-140.367747257663 -8.53212006126314 -9.07112659201509 0 0
-107.005642581429 -8.42214245548788 12.0432537798053 0 0
127.737200274237 -18.0552668194769 -8.53900370802879 0 0
87.2124943151124 -2.70932472937572 5.76847101812986 0 0
24.313701329428 -6.69784272738027 -20.77190453821 0 0
-196.903346253754 -6.57805415156771 22.9880895477063 0 0
187.489291332272 -20.4876376553371 26.6506105459172 0 0
-22.716401595724 -18.1165962165646 -12.5741447260253 0 0
168.776322509667 -24.8887461310663 -17.697148438268 0 0
164.874885170129 21.2297506924974 -16.9610370952356 0 0
-180.889338958245 -32.0066637534696 8.99235178957282 0 0
-189.232518791568 29.5140625362157 -19.0172151716106 0 0
-209.694151323976 15.8315939030385 -13.806898162187 0 0
-160.761357682488 0.124058677478679 22.3297739578192 0 0
-177.470981507317 -32.9062653481452 7.00835305178762 0 0
190.182188266712 30.5899950774962 -5.69125588644701 0 0
-152.291209528675 7.36521377775326 24.4087530305108 0 0
148.625585388007 16.031352782769 -11.589605134583 0 0
-45.4119355602593 -10.5721505469576 -20.1310387347203 0 0
-76.4079255134945 -0.758230766859512 -15.970704528689 0 0
35.8201704924438 5.09580770968275 -2.30036569768272 0 0
168.134008694701 -9.69516577993306 20.9832140822411 0 0
45.641304999473 2.55551901645581 1.77800984783944 0 0
111.727828200953 -11.4424814835836 6.89404012188311 0 0
169.432826440146 2.9668915514714 16.2833921258868 0 0
159.745926661757 -15.110971668243 -22.1349595813356 0 0
-201.768459083361 -8.87484897121578 20.7475882984876 0 0
-113.9096139482 -11.4270813754044 -13.3938033114231 0 0
-130.016646705483 -1.1435283173753 -9.72045925864801 0 0
188.910795135879 -9.0679084452055 5.36444879420941 0 0
-190.69468687458 -19.3217615733607 -4.31779044265091 0 0
-168.764258318181 -14.4663908131357 27.4864143489882 0 0
-140.643847305378 -21.6032228697348 -3.33003883662721 0 0
180.346121871806 27.5094916125836 -11.770591694794 0 0
129.310441640009 16.8982991614716 -1.27845977655636 0 0
83.4399963832584 3.9813777313729 2.02175072561312 0 0
-112.185074150699 -21.8852546793627 2.41705448379633 0 0
194.510166622768 -23.8417377478721 16.7537942358694 0 0
176.157871843859 -33.8854126760695 2.75485740014887 0 0
170.674355598279 35.5970640729027 23.668171379994 0 0
1.04968847388871 -17.0365967837426 -14.7037166953272 0 0
159.567838431148 -17.3977757504705 -22.1533268724782 0 0
-171.157001267942 18.4795403764889 2.10140600139307 0 0
-103.151212706255 -10.152591732501 12.5246401757625 0 0
-191.704894048379 46.2619863389523 -9.00724755587476 0 0
-48.1873705437834 -1.20411734163872 -18.6448300756037 0 0
127.533566505814 -4.13112919208241 7.19438876311476 0 0
192.945941215094 11.4425741495737 5.1691109224386 0 0
-198.376343864391 -9.83568862640161 2.98082817926313 0 0
-147.898127601397 -12.5702284261859 -7.88514203733899 0 0
127.204105492238 8.7623961889028 -15.1400896029426 0 0
165.700979271458 -32.4123596954233 2.98186116103522 0 0
176.947279059795 -24.9583770442913 31.2989885876985 0 0
-134.312796908373 8.84296287768369 0.438147428873593 0 0
183.062514041921 10.4336077071178 -16.1318414505639 0 0
-159.227544919446 -25.5627695636881 9.3549609458359 0 0
114.973377131755 -7.2858730776755 -17.9771124492925 0 0
156.289136377133 24.3340144171444 -7.68294759987753 0 0
-37.1032063666934 5.33179076505905 -11.7047187420155 0 0
4.48039741061211 -11.679589607222 1.18635343599758 0 0
-55.8917242390106 -1.87909214656268 -18.4977920016222 0 0
48.1770156880066 3.05497090408704 0.967248920536005 0 0
-145.585139824852 3.40256591270218 -7.50502987528325 0 0
-127.306447408251 6.60322865790916 5.28025246865017 0 0
82.4275812370982 -14.1616177227738 1.45212991747113 0 0
160.345632780559 27.5052725030664 13.5362034506998 0 0
133.976921694195 18.3022593969764 -0.842442592331317 0 0
-126.03759780188 1.97743447901547 -7.94363656318938 0 0
-53.2983447626572 -19.2301460460761 -11.2972414965185 0 0
-174.737843384902 20.8827085900713 0.250411580319706 0 0
-104.029257930361 -3.6933895717826 9.74022780728975 0 0
-90.0735450151279 -20.209974291927 -9.43894406489746 0 0
192.576685063967 -22.3160107683951 -2.26320169169165 0 0
180.169620711993 17.8345184320799 -17.6801917518507 0 0
-53.9884271184043 -17.5931484886088 -0.367281618658543 0 0
194.130997034476 35.5928337807341 23.5326632494513 0 0
-191.591023702038 -2.10993954877793 5.68716805985938 0 0
60.0270002914677 -8.45710230764909 6.56728683503333 0 0
153.462403494949 -2.89922177035946 9.50063509215281 0 0
-101.151972057462 -3.37539350996463 -14.7115669321499 0 0
-3.90138222918438 -8.10542298559957 -21.0717270185985 0 0
-129.140237799211 -3.26399938095421 14.6370665757263 0 0
-175.44041605238 -5.64519671914894 21.2022965988974 0 0
184.919554601883 6.18254398815533 -12.8509143611832 0 0
-186.305921743156 -30.5193392746874 6.81495316533246 0 0
162.383956239145 -16.3615099824413 -23.2948459729818 0 0
-184.979296412525 35.4529674037175 -15.0028724026182 0 0
-187.901255843301 -6.97349908690237 8.30600607645619 0 0
171.2850593144 13.6121452725634 19.6502184617035 0 0
158.472858524557 0.231160779462839 -17.7645203508847 0 0
163.250677779557 2.28604436931143 -17.7514744310574 0 0
-138.223125810064 -22.4932718255552 1.63158796794221 0 0
-24.8554837541238 3.17613954029418 -16.455033659903 0 0
-126.161622314802 -19.5371081819541 -6.97615035593034 0 0
164.727600687355 -34.1466906191725 9.23228791028201 0 0
-201.9215718793 -12.6866713337712 8.10106109636152 0 0
144.562705339038 -21.4567830299792 1.88954034316454 0 0
-201.938902526104 -18.9337416802942 11.1196224834515 0 0
-193.989296278823 -25.8450591455968 6.26225529892899 0 0
187.26954217958 10.3679014213013 -12.3412061211225 0 0
161.958490543971 -13.8261928230212 18.3290298559867 0 0
111.073220514 1.23725201448229 5.28377000328968 0 0
-176.861948451409 -22.7699979522317 23.8318183429612 0 0
-153.798991569099 -8.2208484666469 -7.07602670936002 0 0
157.127467193044 31.3853732823778 1.83603471953133 0 0
120.680281321529 4.12252438712999 4.6080181448219 0 0
-79.9894825127911 -16.3223890972717 -14.8506010138291 0 0
-181.009704818693 33.5550182695633 1.03760848970316 0 0
57.8993694199533 4.05421199035503 -18.2105965703648 0 0
-156.670315607809 13.4215126933781 12.1372762041599 0 0
35.2030772694107 2.20757647503901 2.30304540629287 0 0
163.799932810418 -4.93807065171698 15.5065012104353 0 0
19.4969516757735 -14.1448268995906 -17.9672248628599 0 0
156.694778210625 5.22504202055818 -16.3942165308653 0 0
-87.3877502417166 -15.1531104924106 -15.1047186778042 0 0
108.978602303737 -17.572284499629 -1.16012152143789 0 0
-69.4017111830978 -3.20004624819166 7.19442356009824 0 0
193.797881315333 15.6048398290919 15.1803654010135 0 0
-21.5165559243935 0.2062211042503 -19.4126330508891 0 0
160.67698875541 25.9691513574041 -10.2469396912174 0 0
-147.742890804349 -20.3183444914875 -5.42931254651396 0 0
156.734475386789 -16.9551341044728 14.3400888164389 0 0
-199.749440542829 3.24119281134104 -2.12085645815527 0 0
-169.637233464649 5.24534405508143 -8.67438477788259 0 0
176.332256765391 16.1086735231816 30.0002169659847 0 0
-92.1375460718332 -10.0960495372959 -16.4590200586398 0 0
-203.018734944629 -14.2481093284591 10.9708212921185 0 0
-218.96580527105 29.9604756016101 -2.46243771058577 0 0
-72.0485103268596 -11.593478977448 10.927138783207 0 0
188.467457004783 13.8415782693 14.8444902175776 0 0
69.4980924676479 -6.62936095706096 -19.5620740158316 0 0
-151.091354331475 10.9227369525447 2.46657666961076 0 0
-205.090370547122 9.09889969613816 -6.50842770776717 0 0
193.679081656144 30.8723948249198 -1.64730301628641 0 0
-175.050394353974 -8.83567327120052 -10.5924639581188 0 0
-74.3818623208602 -18.3534363467603 -13.3770237479199 0 0
-75.8246919977686 -12.0290398204329 -17.8130421187384 0 0
-184.377551515368 17.504675310798 9.42819752612383 0 0
-59.6439868076473 -2.26951401466317 6.23371988793525 0 0
-104.45031843217 -20.4003594001183 -8.95496458285495 0 0
69.2735176649999 0.238554300684412 4.62102458259947 0 0
195.101443358358 35.2417642368594 17.4080156503464 0 0
160.851720261183 -28.95539630523 3.66030818313499 0 0
141.446166928157 14.6740295398485 -11.2160835544691 0 0
-117.225170614214 -14.0802493262331 -12.0052845091234 0 0
182.638355378535 30.4358795700446 -6.04843587982577 0 0
-194.345376638676 -8.52078690838995 18.2207715677913 0 0
-193.804344166359 7.85923213559454 -13.3231977462843 0 0
186.156631349072 -18.8452301096857 27.0860620881566 0 0
-150.095998262166 10.3142633481629 -1.54988537482352 0 0
18.578280183785 4.76954407766046 -1.76972493425274 0 0
-95.4948294432478 -21.1177533683393 0.217450598820497 0 0
-1.39302539933863 -5.71202059420974 -21.2498528471703 0 0
174.177280980202 -3.45282815301292 16.5983433784875 0 0
-178.239391150561 -29.0518329066421 17.093182404229 0 0
167.00073749581 -26.2850865535561 -15.1056451825722 0 0
-162.088925095093 -26.6885012729289 2.07265398248565 0 0
-178.177496525581 11.0925547681211 -9.13773339134063 0 0
151.951571471495 3.97530036180525 7.7916353540404 0 0
38.1106740942256 -4.23626474309262 -20.3217704720332 0 0
160.320546285708 -0.17290012624801 -17.7476578286258 0 0
9.15910030553092 -14.6522876670727 -18.0104455729058 0 0
150.650683827423 -21.057054909758 -10.359930043053 0 0
178.317823784883 -13.9685814203627 -22.8986933807649 0 0
94.6035578357739 10.5574350332559 -12.8651723301402 0 0
172.398699220709 36.050968705965 27.5545132360934 0 0
-100.209487996827 -9.30058667468986 11.937904324603 0 0
20.9400546178692 7.80829662466901 -9.08305726788116 0 0
-36.716592517755 -7.93620239747624 7.89245310703715 0 0
139.473770487285 -7.39044681739368 8.19148098516827 0 0
127.965354947339 -19.1341493978303 -5.01032271882867 0 0
-150.548963466641 9.71159490697383 -3.44953340611808 0 0
-127.967017879194 8.05792116782138 2.35017666023992 0 0
199.299946647112 28.4209108934256 13.8202196980282 0 0
-145.632517598197 9.84148646580706 11.0600960721351 0 0
89.0179591881739 10.4473965076038 -4.81886964080095 0 0
189.201483700505 -35.3095952077865 16.1749099674679 0 0
173.413254385595 -33.819234022841 1.83548851722156 0 0
-170.970741891227 -4.78361838123962 23.3002684231143 0 0
152.071974722941 -16.8253188722384 -17.5123711518907 0 0
-65.0745176500235 -13.2881298564585 -17.739976035926 0 0
-115.244980316153 -18.521256638211 -9.27697299830025 0 0
157.428540914973 -23.9244107321113 -12.416003178818 0 0
94.6794393735152 9.88558921377116 -2.91060763499301 0 0
170.187806333374 32.4842558594825 29.0813828161147 0 0
-62.6937888872379 -9.06789367173715 9.82074256265028 0 0
182.795777150245 36.7660525526478 0.33707747185927 0 0
-201.518135049672 7.04067651683057 -0.205293982767194 0 0
-142.788525668287 -13.0922106589561 -8.80584709320879 0 0
-171.957500915187 18.9217184920423 -0.427763006046455 0 0
114.102135087346 -18.1600696289054 -2.53250818511828 0 0
97.2889319364208 -9.82738375952789 6.8854332611154 0 0
114.287739108477 11.7839757795622 -12.3926098615238 0 0
33.295157880313 -1.84836655450221 -20.2550554089504 0 0
125.429064938645 4.80795782766686 4.68308498255584 0 0
143.432352344284 4.19587950467091 -17.1223945508542 0 0
-110.046544779385 -3.47834314589507 -13.6433985092433 0 0
-150.005880390599 -23.6487081466359 8.25095962882604 0 0
-48.8827062377916 -19.203204552064 -6.41903985906021 0 0
-160.396993137091 14.0765875281342 3.42968457818128 0 0
-189.659983757002 43.0185828844951 -13.084166946285 0 0
161.708814626197 -23.8730116319575 -17.7553704073334 0 0
-205.543752695338 10.5748994899463 -1.0945276086967 0 0
131.085478820182 11.5142285829948 2.67308513316381 0 0
40.2128994734 -10.1578186188506 -19.6801165238458 0 0
115.250771465825 -13.4039919525168 -15.1495793042434 0 0
-194.976369945338 38.0719802277578 -19.5437410205387 0 0
6.88333840126587 7.99331334116713 -10.401824457422 0 0
-117.439434551495 2.70863800730214 -7.86412018957328 0 0
151.221087719699 22.4283898557629 -5.76903527009867 0 0
-78.0303373347929 -6.73277184267564 9.39599593883379 0 0
37.1867114784835 -7.68710263314131 -20.2393000688778 0 0
141.937989192528 9.44909143194201 5.58961188912332 0 0
-102.481690038361 5.31904548036668 0.565718633673418 0 0
-199.69001505555 -10.810493044471 -1.73494406034727 0 0
181.358518814676 -6.42856858990321 -17.0113322521319 0 0
69.9829288882482 5.22878326931226 -0.579758614544963 0 0
92.6480703263413 -3.01044684826626 -19.022700896015 0 0
187.14698950825 -15.0858566912327 24.009970514209 0 0
-175.251218820421 -30.3695827061615 15.0503487622549 0 0
-132.935600667479 -5.91646120339302 -10.2704393633088 0 0
-118.737891675933 -4.61541171273482 -12.644087979666 0 0
190.043199139466 -32.8002590756909 24.0204596332681 0 0
-196.118026042271 14.4076457490681 -17.3898140257249 0 0
-95.7783285717993 5.32875952459928 -4.12326749261909 0 0
-138.693550684122 8.97361180973275 0.423545330957913 0 0
-23.084757195174 2.12930131081243 2.10912911760169 0 0
24.9369055284103 6.42102958777706 -4.60709378580394 0 0
151.927036022753 -0.760058986456749 -17.7131756610187 0 0
-194.812752539577 5.00718496262284 8.44210509584584 0 0
140.617557312205 7.93299486128231 -15.9015809863675 0 0
11.3579519299232 5.64063816003652 -3.37371124213828 0 0
144.745374003384 -13.5978585269533 -16.5096071534707 0 0
-154.416685977059 -18.1260569618649 -6.24738364242749 0 0
-174.480184098535 -32.4120566093344 4.78453205766032 0 0
172.767725925138 1.39612233732847 16.0924523048158 0 0
-198.041769626505 11.6870883352028 -15.4209820943019 0 0
-135.682159649615 -21.4501102458509 -3.49051553346366 0 0
-201.780684331718 5.90013631169384 -4.66530564416907 0 0
-8.12902484916983 -1.35787351378736 -20.4023551784618 0 0
-179.399480891215 -28.386341325457 17.8622756206813 0 0
-161.447164235828 -24.869868266958 14.7385671078185 0 0
-217.43509976672 22.4749810566445 2.92949733306736 0 0
-204.930768335274 12.8168822797626 3.37590720034335 0 0
156.87188082116 -11.8339460738945 13.3772026354408 0 0
-145.127987176582 -11.8060878258181 -8.38666444173651 0 0
-161.821517968888 11.7489751829902 -5.3272671021272 0 0
187.245857540235 -27.4937719957158 -3.52758616366478 0 0
124.104703137537 2.79347279348459 -17.4549256765843 0 0
-3.73567375113313 1.53521348319576 -19.2764568710672 0 0
-93.4481070706413 5.0809134326791 -5.35758940230541 0 0
165.18800948912 11.621614836288 15.6304259316765 0 0
-188.189025780754 22.1574524038646 13.0066459312642 0 0
-181.905859645948 18.6728518196023 -10.2897297741731 0 0
23.1923127463535 5.45239970968578 -2.93111977295849 0 0
-218.712283122789 32.1752334481604 -2.7887656255788 0 0
-71.9340769411259 3.98261196095996 -0.824437141352481 0 0
63.6809986483738 6.43963908188905 -2.59530968980942 0 0
106.584512434357 1.25605128510509 -18.0805707640929 0 0
160.271056871978 -11.0204632633231 14.9739041118642 0 0
-109.416645086103 -14.0454192411349 14.4121308548156 0 0
177.857383480347 39.2690964634879 10.478398226655 0 0
-39.8460283628689 -10.9822812169148 6.42805865549415 0 0
-184.747066563567 -12.2049207160814 17.5880993612635 0 0
-196.229156951492 -9.36749196724684 6.45981486107951 0 0
-130.158685893952 5.53988310690887 7.1695282869162 0 0
-185.102726249367 10.3231292488056 -13.2188205127853 0 0
-198.767232444481 -9.41974385584786 13.9521798020066 0 0
77.1189124353639 -17.2075523261499 -9.25150909922695 0 0
-178.010875203398 -13.6655997996909 -7.98078710334961 0 0
-158.193804681632 13.4984896209645 13.6182175860551 0 0
158.307133089844 18.6185882677488 12.012551656352 0 0
152.91598718594 17.9035948439538 -11.9658203582428 0 0
100.935265063634 -15.9212647939323 1.41567535091099 0 0
-47.8332993190902 -8.69789716166886 -20.4138036116803 0 0
77.0934701209248 -6.2943218054324 -19.345315167765 0 0
-101.17916988298 4.05242359899749 2.80797574068948 0 0
-101.726517869695 -21.2294193079813 -1.72256933051486 0 0
177.718706925508 36.0608364263416 -0.648403965294184 0 0
83.6468333287533 -6.9708027428423 -19.048684847847 0 0
133.739834974615 14.5720925160593 -10.4869594432511 0 0
163.540150588448 10.4471433923983 14.1106741302704 0 0
-111.077689662464 3.67029413678217 -7.12542653704071 0 0
-182.47697627656 36.0965762350263 -11.1145533686066 0 0
-182.343770545838 -19.2219548998461 25.5948328787677 0 0
-144.374364477045 -6.33212476389174 -8.54749539465631 0 0
-51.4653837264766 -3.64357333227129 -19.6965440354694 0 0
167.518559318991 37.4986576080906 19.2087956384346 0 0
17.8917196282203 -14.9073273007895 -2.85800063734341 0 0
186.069377377014 34.0730345066162 31.7018755140652 0 0
148.998082049636 13.8455654897424 -13.4636495224089 0 0
168.412986016882 -36.0595629321256 9.85466538239877 0 0
-177.534684496471 5.44878233134966 -9.00843006573366 0 0
-176.219632705452 7.91587974896155 10.8907240375181 0 0
117.958323930046 -15.8641427821833 5.17472566242055 0 0
182.778153531046 18.5971661147889 -16.4902747200976 0 0
172.148473090171 -9.42974022006665 21.866673293671 0 0
158.46146721005 -27.3144831584122 9.22076194812468 0 0
98.4507324749161 -16.2018558427409 0.660396066311608 0 0
188.815865175787 22.279227530627 30.0805198762448 0 0
94.7182480760271 12.1074458721073 -7.58834608753748 0 0
