"x" "y" "z" "f" "a"
-135.535867228831 11.545966665891 -17.4494620955773 0 0
-116.347650357245 15.4400228508336 -15.620109533128 0 0
169.652024081263 6.23315094747251 -6.893118060005 0 0
-1.03469611454712 -1.23273768589259 -3.76431492497887 0 0
-15.4084798229534 -8.64049001951295 12.4180642911334 0 0
-212.372620205896 21.6970758313586 -6.01595945452632 0 0
-48.6627380379976 -6.95092662771788 8.14579409873396 0 0
147.002352143557 2.40432353949574 28.0183244638843 0 0
-220.673988370557 -45.7685001002138 -3.31941804282573 0 0
155.253639494511 -16.9017430288315 -5.83655871988986 0 0
-231.020986619195 -42.4511988648258 6.36036711012368 0 0
221.244253425102 -17.6737778339849 4.78361045323882 0 0
188.410014771729 13.9839439747701 -18.782753845953 0 0
22.264066943938 -5.90138417142699 24.1038436861443 0 0
211.841869431304 1.71702657464441 14.1213502827863 0 0
-234.433379240461 -26.2810729168233 16.7606302108815 0 0
201.122916790174 -39.4207456122562 -19.9418242959235 0 0
-214.938404280311 29.2026187893622 -8.83363897673589 0 0
202.645821043254 -32.425049944854 3.39335172394591 0 0
163.35612206978 -12.1397401440038 21.5679993856888 0 0
-55.1327657713846 15.7464005800626 -4.47326918512875 0 0
-172.739461175832 34.9072848372209 0.796745954344108 0 0
183.477717193472 35.0153348333979 3.61968927570571 0 0
-201.186909628143 -39.445235947814 17.8746327211149 0 0
28.334751918019 10.3979936507731 4.07437062445922 0 0
-166.401097113097 24.0468256304854 -21.6962626142621 0 0
198.170150038516 -41.2035389401325 -16.2204869953883 0 0
-144.817838027613 21.0481493681104 5.65312846446759 0 0
-113.953092229702 -3.42905543061037 9.59134270134088 0 0
-215.586800888193 -28.4119751489594 -20.3650856125229 0 0
-216.7275159461 -47.6997788771805 13.0757159381642 0 0
181.103029860645 31.7440777753059 -16.9874328985858 0 0
75.0504631117571 7.91654137729248 26.9805466579273 0 0
-64.6263065769274 -1.88163471961924 -1.40262488243753 0 0
181.277188326022 30.4743735296526 -20.8325319529043 0 0
-24.5923021696541 -4.25981239406192 2.21346259886626 0 0
181.567892725885 31.7677082447522 7.17744363757572 0 0
203.161989099096 -0.337127214106431 -10.4311195514081 0 0
137.322678858789 -18.4643449982207 14.8373271716414 0 0
195.322105050853 30.0528226203557 -29.0794807282008 0 0
-14.3803210440082 -1.98476365654234 -1.88643489352489 0 0
207.0825564656 -36.8853087385163 -13.3973692694911 0 0
39.3696237173615 -9.7965219989048 22.3868770292392 0 0
-184.930841197554 34.1528496158811 -19.3583136597422 0 0
-180.774956206268 27.761797647322 7.20962903124588 0 0
162.261704925276 9.92689144959241 27.6688458081244 0 0
-232.98514868819 -15.5856347940951 -8.05486734815113 0 0
-59.6917223459611 5.20439630392512 -7.0975727113936 0 0
-91.6812222860271 7.07133400375856 16.0642382892625 0 0
-164.815644863521 20.7705087327179 6.08705377555244 0 0
-69.7876922214757 -2.55466013761046 -1.03555276372415 0 0
-192.65193975166 11.9820844976756 -18.5498865814733 0 0
-196.008878298355 -40.6470157961165 4.03965163383894 0 0
174.109481945709 -17.4227325868661 19.1702733941638 0 0
-146.962499407514 -7.81131707450533 -18.6498471796394 0 0
195.902886692876 -39.908185171923 -22.1443039225816 0 0
-203.755172875157 26.1064820309394 -25.8652712245264 0 0
26.0948958977319 -0.945559187583227 26.0844649103343 0 0
214.904704930383 -30.788811362717 -4.11953065864127 0 0
-148.040539694861 25.1558029075184 0.492815493610973 0 0
220.044187963703 -9.5356908622109 -11.0712867664784 0 0
-64.5116649272191 9.40402467156668 19.6685177706241 0 0
142.507801300888 0.920479545975922 -3.28761007725464 0 0
191.85975202622 -4.4539689391628 23.8744125462686 0 0
-233.580616517432 -12.5567577676051 9.36731308567661 0 0
-119.221069951374 -2.08509768056189 10.0131477896232 0 0
-237.646063255901 -23.7280767078692 -3.50694230872176 0 0
192.672510060226 38.1598573435324 -24.865433287006 0 0
22.9605877816755 -2.7753785822806 0.493721909252022 0 0
174.585898320273 -28.1182134738905 -15.6334449959534 0 0
124.796457273725 16.1034808952728 9.62347969375273 0 0
-170.076184641984 20.4682758986152 -24.9251658519219 0 0
182.406315334346 -31.336661190192 -23.3283513281636 0 0
213.735474371239 16.3536047634334 20.0927686839231 0 0
72.531428912674 9.60395974624856 25.7189871955269 0 0
-201.813750015936 15.1112169903658 -23.1352246654373 0 0
33.469206915728 13.7284728088576 19.4449052141071 0 0
-98.6991410700612 1.33569404097438 -8.2549538156212 0 0
55.9789839441265 12.8999845623905 8.86181395425612 0 0
-190.033376791143 -20.1953175614709 9.38852282616123 0 0
215.439736159977 18.4152860160081 -12.8582925768282 0 0
-233.123062313183 -40.5594065374961 6.01267119247337 0 0
157.745543341405 -3.66110452919377 25.6560506556951 0 0
203.510391188311 -17.7082753776871 22.3369458638914 0 0
-192.857250788864 -25.6868842456507 4.76332451346645 0 0
-206.186693779466 -20.7998695995891 25.0900094172257 0 0
150.429187156179 -6.45570750438301 -4.17977233353571 0 0
183.024980191475 22.4416878946973 22.4062626432112 0 0
-192.124515071388 -20.9379462393643 11.0441526087415 0 0
-156.897728085098 -17.1255906575615 -20.8493702336138 0 0
-172.087303073482 0.373715699330352 -21.2520445472289 0 0
-162.029108131613 0.999839469637741 -23.2467060644653 0 0
179.658631516206 -29.1949881335711 8.8450532574438 0 0
-211.608570761221 21.0996184397275 -7.71881268259145 0 0
-223.792062646839 -4.81834582926229 12.0265114059906 0 0
188.871287034405 38.3724294913326 -7.74799479610677 0 0
-31.4630770643691 7.90788381710438 -5.62688331100714 0 0
-49.3450907744985 18.8139197455486 9.06776889267952 0 0
-110.047241233078 -2.64479017293959 10.6350371279806 0 0
189.711679439866 -40.529925932983 -15.3016583588564 0 0
-193.794013974667 -25.533516635206 9.60128440993539 0 0
15.8766798484566 0.662353676167341 -4.09931263343052 0 0
133.768308474852 -9.68303122682246 -1.83057812941235 0 0
202.295764885954 -21.4318769792819 18.8571379513818 0 0
204.769474554658 -39.3894648930585 -12.7580500989344 0 0
-196.857435197797 -36.3432501526217 14.3776881694877 0 0
-40.4475719696142 18.3423365363333 6.78809066371952 0 0
200.442189682595 13.7396670080854 -19.0252079418589 0 0
-154.646166686825 28.1686610455063 -8.55583567980766 0 0
-199.748503064313 -29.0578194169011 -10.0249971442403 0 0
-80.6650012003454 -5.13976118294577 3.16691565865865 0 0
185.781487307115 -34.4644894299895 -26.0734458562709 0 0
2.98957060771568 -4.04202467087649 23.434297991316 0 0
-107.041696778013 12.5686108596168 12.992513291901 0 0
183.118643993425 26.6917743129726 16.1648006302389 0 0
43.1382040750471 -8.40991653691043 23.8662966565829 0 0
176.082759564626 -29.6480007026303 -16.5874023811581 0 0
-70.842558903337 -3.85478323986722 0.651290311334541 0 0
-96.7180550861853 20.8021949334517 5.80196921810877 0 0
206.698657574851 -32.825033613859 0.219432295877362 0 0
223.138418018705 -29.6610247707387 -20.3586092759272 0 0
-214.757428109332 19.1578087471729 -17.8724053595945 0 0
-141.638267323739 -6.42330531869293 -4.65393837370023 0 0
-179.661703908778 35.0010801553716 -17.9803864802616 0 0
-172.040344708318 8.92110909648886 6.61946066748246 0 0
98.5071184256346 1.01238487788932 28.7627592445541 0 0
-190.725216125193 -12.2736561105521 13.5076277323618 0 0
-220.013083600194 -41.1412683578377 20.9729836862184 0 0
169.516078847953 -26.969114262928 6.13157004019726 0 0
193.636547886029 -34.2651666329413 -32.2957403526871 0 0
125.033886960026 2.50302583579105 28.357847023191 0 0
-61.2109823936281 8.73185112088955 -8.28786370085803 0 0
-41.3314884853193 18.45273317674 10.1873710218386 0 0
-211.33647329697 0.819024656996894 6.28754138810172 0 0
205.604447007615 42.81494442761 -20.767815276024 0 0
-18.249829369985 2.11550297871899 -5.28715893800051 0 0
36.6577321572821 9.68081690205987 3.50492339731065 0 0
-215.212451353605 -10.5579975648565 -14.6951775783089 0 0
162.158106816387 -18.4513532676984 17.235789459306 0 0
25.6325156793774 -5.69192409066088 24.4758474512398 0 0
-195.254500707376 -22.5422253890853 14.427717523163 0 0
141.929106524819 -14.1565860845034 -1.96034129353827 0 0
213.674816992223 10.4652501534024 -10.6090221117712 0 0
217.076748243849 38.1420925172454 -9.51828062875715 0 0
205.358572348246 -19.3349725005422 21.7567386724936 0 0
179.399887779024 -6.26304368712213 22.3657324306114 0 0
99.4789421098101 9.06805750770662 -1.22363064371659 0 0
-204.412129804515 4.34357127737764 12.9430175946715 0 0
-201.692072981593 -7.07527479576924 20.2153342502472 0 0
162.601095434247 -9.72288340970822 -7.18261992148631 0 0
-46.2961251685725 -6.33827480025983 5.49992308557949 0 0
197.347326389836 15.4950177218929 32.9737050495276 0 0
213.717881157419 -10.2927427487466 -29.6907935909653 0 0
-117.856074601001 20.6516446015827 6.07949832882152 0 0
-184.149383528372 7.84292416526751 12.3755710021061 0 0
153.760759571862 10.7279320965102 26.2864181771929 0 0
-201.854149641671 -41.5110217904297 -10.2553898825199 0 0
53.8929327960671 -12.7867476873823 14.4942241930975 0 0
214.054143466737 2.88132397613033 9.43123238130874 0 0
-33.1204806326243 10.1310866400368 -3.68674007399146 0 0
-163.554887776338 21.3350971848782 -22.3921504022642 0 0
-130.549541687816 15.1614503637825 -17.6012676903706 0 0
184.217254752667 -36.9360607108675 -6.03239660007352 0 0
119.880514673269 -11.5787306985967 23.2580560792766 0 0
81.3579562146952 -14.5094447812071 11.7502815215989 0 0
35.2465916767011 -9.00451681615081 7.79537090880158 0 0
21.3343205694821 6.14924280110409 -3.25174768550376 0 0
219.83942810525 -8.6416378194812 -8.42555264014469 0 0
-199.198358916241 36.6561242243809 -10.6521810304133 0 0
-226.953905014286 -5.17333296974833 -0.471536596662559 0 0
208.82602842258 -0.947652030380885 -8.71490600109274 0 0
57.9719325035842 -6.58989029330921 4.1573774679799 0 0
-188.687857307162 -8.79491912742066 -11.0343987603483 0 0
-228.134252510568 -43.4605366786747 -1.32654163262408 0 0
-134.814346192063 21.2619253078684 -16.0364233714267 0 0
167.639202240751 27.318124088765 1.49103596316385 0 0
-66.069653015863 1.15919298407784 18.7810506574363 0 0
56.2733584992242 4.74863009889639 -1.93882308145468 0 0
216.527942833138 -7.65749922036998 7.74673068528469 0 0
-198.511908912616 30.0276899498269 5.96927207241917 0 0
131.554492594537 -11.2479950447816 22.93637235969 0 0
-142.937925794393 -4.31866197536185 7.53721808877193 0 0
-231.026771908869 -8.78250998994139 6.43221470503618 0 0
202.493338304996 21.669954808373 25.0231081520889 0 0
-200.935690926977 -43.117422437743 -6.6232362826642 0 0
194.572242771912 -29.6354639854838 9.93413387449712 0 0
-101.502389175177 17.1333357280747 10.9089013909017 0 0
219.435970712206 -31.8510707008067 -19.4957684159372 0 0
150.571596522295 -0.753216402346606 -4.06853420875621 0 0
-199.839682569017 -23.4215152345332 20.4162297848028 0 0
-183.333236074037 35.9990445073747 -16.2491349185612 0 0
224.819843912676 -23.3819788626884 -23.4508511626143 0 0
-72.3356557380493 -2.61276005672017 -1.18932079592973 0 0
-208.086059494467 15.1046051612715 -23.6724682657557 0 0
-211.804156671718 -18.9924393474568 26.0002710575654 0 0
171.261527602909 28.5294790895623 -3.04576335654405 0 0
195.595919429091 -15.8957073694909 -39.9327178288384 0 0
-236.554084211051 -19.1865234416634 10.4808699063411 0 0
-170.08921679456 7.67486143210261 6.59612650088752 0 0
182.056374833178 -17.9311444466346 -19.1011910547602 0 0
178.622388121713 -19.8894875247511 18.6833783785103 0 0
121.892629152635 -14.8271513305692 4.93468161408615 0 0
-128.07253211428 -6.6337469888592 1.86167335727503 0 0
-200.698000621082 -32.0409585254539 20.8451183650697 0 0
193.294215581055 35.9504145828388 6.50094740359005 0 0
31.4624641038863 -8.30720708682368 7.10139432154006 0 0
198.459351149343 -0.971474354393793 -14.8496592495346 0 0
-100.766349681308 -1.75108874452822 12.1299958917597 0 0
-127.427815173357 23.2167351259884 -9.75666257430764 0 0
-182.398202578215 7.14877271244619 11.4218069625966 0 0
-227.962534938346 -35.8043422589923 -14.2074252823363 0 0
165.162907609043 -25.6645240481254 2.74006750890024 0 0
-127.251996901188 10.1485959156255 -15.3549731036142 0 0
225.392544143547 -25.4699448635794 -9.83483537922345 0 0
169.187056096017 16.7706775800056 -7.93638624410825 0 0
186.964687764587 -36.0327338625519 -0.928193613858717 0 0
109.141221046051 13.2096435273652 21.3274448635877 0 0
-69.207278814618 -5.59270829791643 4.18350344646031 0 0
177.580348602571 31.2033689468447 -9.38695563977841 0 0
-151.472310212883 -8.08925063989625 6.62241236990782 0 0
-185.06633993694 40.3241415819873 -6.7407926189469 0 0
216.032761641496 21.2748405810724 -13.2608332779449 0 0
-219.059359562934 -19.6718436709635 -19.2110405540467 0 0
-77.7323873285142 9.77541153544159 -9.76816760143414 0 0
-225.112273325556 -38.0115339459625 -14.7703381469837 0 0
-206.693623853936 -46.5682226792251 -6.33409745291386 0 0
132.313345262593 -16.9259073411637 17.7929810292781 0 0
119.752649899857 2.22640855965082 28.4175803055856 0 0
195.55470222311 21.1481926023998 -27.8142755004522 0 0
-188.350332032998 -21.9621457426665 -0.600945770486135 0 0
219.271753433101 -28.4310204129947 -1.34893756444269 0 0
-55.1596773411247 10.3807528753857 -8.58799168389132 0 0
-86.4268389628027 -3.5512846628146 12.1021891335659 0 0
-169.007944957661 -7.78013451080191 9.7826949481088 0 0
-215.129053581041 -41.9327034727661 21.220039089028 0 0
-195.509452527412 -27.4955456520028 -2.29841554434643 0 0
-164.426463724928 -4.08606499179774 10.1703900779534 0 0
-82.3019722911466 1.66236557132283 16.5263025154969 0 0
-199.392857975503 -37.7609817939317 16.7395890937392 0 0
181.557135402319 -19.6191127882471 19.316592506148 0 0
-172.443701419223 -14.6194685892205 -2.31763845313451 0 0
-10.2925650170552 13.1080500191323 20.5235320820669 0 0
81.2040217089825 10.8884401662765 3.11784788916301 0 0
-218.758108422866 -28.8625809793009 26.6583567591074 0 0
204.536232815057 3.98810498554628 24.3988615769837 0 0
-170.68914208689 26.8389566380656 -22.0264566214517 0 0
180.877905819781 15.2004990450118 -13.9909699876109 0 0
201.20348283931 -15.8015621555734 22.377367473401 0 0
-213.190020674676 20.3388968912492 -24.0314302149413 0 0
-181.436415773561 12.7255867230298 -28.709477789978 0 0
217.182564375529 27.3479763168415 -14.1919958654751 0 0
3.66687698793088 6.88933244601281 -2.55247842549047 0 0
-95.4370854828224 2.17371910381281 14.744989285467 0 0
-212.076832262884 -22.9623713647395 -20.0765784053207 0 0
198.127519622125 -8.87610067067489 -36.051426677632 0 0
184.874967094725 -38.8173774918461 -11.2261390094532 0 0
97.9292773448789 11.9597516445871 23.1953660061789 0 0
-112.075310707599 6.8374691802777 12.8950800004541 0 0
152.081847092364 -4.68168796756955 -4.39245337435298 0 0
97.2193975956904 14.4881391980491 9.79374229178806 0 0
-158.78237300545 12.8245491094878 6.41687094605854 0 0
-206.983223146636 29.612149705993 5.9693597780352 0 0
95.0767530213934 -6.7088857259679 27.2294377351963 0 0
180.395534258723 33.6041883850448 -12.1947671642602 0 0
-210.615497315241 0.309593834665538 14.1158955713345 0 0
203.443460761809 -11.4660135242603 -39.9488339426279 0 0
214.5988533669 13.1373173063987 -10.4384785758616 0 0
-198.847759963126 -31.5964816487881 18.4171920270483 0 0
111.061288554918 -15.1758088091945 20.0992272799033 0 0
-155.842050830268 17.4510112359922 -21.4617871419404 0 0
29.8414351022875 9.21780217531003 2.56791754206021 0 0
191.492214982607 -10.7170686575619 21.6875507902033 0 0
-16.5332134547727 -7.06050457731462 6.95604859281844 0 0
-200.006495923349 8.17255018518101 13.1539481940815 0 0
-162.655707746165 -13.6929070279667 -11.5777479616375 0 0
152.463684955963 -21.0637963899007 11.8611763993911 0 0
133.511571691498 -15.2491101055431 20.2017321627412 0 0
198.276933655577 -39.4172401316228 -21.2951604358088 0 0
-75.6738081297304 16.9997079498449 -8.87985395152696 0 0
-99.7681183725794 21.9496512442379 -6.69409154454409 0 0
209.278990861609 -29.5173915954756 4.32212313552659 0 0
147.226975269924 -16.7008887799579 -2.06137921131474 0 0
-204.373748630218 10.8316421764663 11.1214804713475 0 0
200.178180533482 4.42107566236058 27.1924214325605 0 0
-113.570129719441 -1.54322531565396 -8.06433384707029 0 0
205.619660207112 -15.8095893611353 21.4389520517682 0 0
-204.000388916357 -41.5913319995752 -11.7604893045363 0 0
-197.071112847509 13.8834245286715 15.5799108994444 0 0
-68.0616140939672 0.665994956445124 -4.52632755582043 0 0
115.555913080235 14.027749012505 19.5337904881415 0 0
175.89473851612 -30.8238041228735 -11.0130531486117 0 0
199.909110302606 -34.847786437614 -31.1143854854645 0 0
184.714945151277 -37.1014273277303 -24.2170832071615 0 0
-23.311419023148 11.5019210765311 -0.180311519074283 0 0
-211.836882881182 -10.1983997718944 23.057063267218 0 0
-194.983113588805 13.6396607732208 -21.5185409969536 0 0
180.259595489806 -34.8748771042353 -10.0917620496962 0 0
-157.839760999082 0.339860731886091 7.84203698954349 0 0
-205.324037208142 31.6909154573086 -20.2846009370404 0 0
172.947143358593 1.38555314854077 -8.02417126472884 0 0
143.247995351309 2.41353973030462 -3.47523754383617 0 0
-163.266395446515 19.5307319016414 -22.8698434905518 0 0
196.565241922765 -39.9716288050298 -18.2299611884192 0 0
-17.7737536731462 17.1599189581764 9.89268710353541 0 0
-209.571650544297 -7.02164116387796 -9.56232804578724 0 0
214.79269878565 -1.31303610395552 7.29291504512914 0 0
-101.129876309182 0.747334731503009 -8.16042290114039 0 0
-105.174363487622 19.953104544855 -11.0458715022862 0 0
189.004360722837 -21.5253734112165 19.7463824037193 0 0
173.927675250691 7.99391148993478 28.4738259818644 0 0
-140.522375494657 11.7801933533088 8.68268756034062 0 0
-207.160477926848 33.798220627759 -5.96049910207324 0 0
56.8844228683453 -4.93976374610524 2.91620161200374 0 0
186.814034656334 32.0872462519132 10.2343314845757 0 0
-199.494815324706 -13.3762194476742 -12.2278551342289 0 0
136.572632659065 12.9653319799602 -2.37912596753697 0 0
-160.280059499949 -16.6788337203317 -20.1999758809277 0 0
-4.2449385358683 12.2236143000242 3.38113295865121 0 0
31.0796271268109 -2.40109611156357 -0.631044839056326 0 0
190.918393154224 -8.92810743562376 -25.3090153573475 0 0
-156.425472850869 -16.4131774038765 -12.9497799390295 0 0
-112.636574514401 11.6844586079198 -13.6397279022208 0 0
-229.11512672632 -39.1800779486334 -10.9135766995635 0 0
-172.222079804743 34.7081115110693 -3.37373238016013 0 0
197.402923051998 27.5782194037597 17.3919797751624 0 0
-187.071267805749 -18.7178028323883 -5.09798124393876 0 0
12.349483630381 -4.68409097554983 23.8697632656424 0 0
-193.888513218814 10.9335539078017 -13.8720729339628 0 0
-158.70899109832 4.86335310679917 -22.8921485484924 0 0
-97.3647926314803 -3.31856040663197 -2.22263388521914 0 0
147.857277767959 -8.83801083567384 23.895500226354 0 0
219.318828664983 -30.933886515102 -9.30885331336353 0 0
-126.709538572827 2.48101022201412 10.6524784604916 0 0
140.512689343297 2.23738958611323 28.1139862704024 0 0
-213.489813194131 -9.48969048376029 -12.8902320843748 0 0
-128.14882845045 13.6665875245433 10.1039296666808 0 0
-101.43894170854 21.6098511564884 4.09236172725207 0 0
-178.269831489476 19.2611995378325 6.80444774694168 0 0
-207.441005196589 2.47402393826789 0.122935508843117 0 0
-188.516541926386 -14.0609691604598 11.9631782524163 0 0
214.359614033195 -10.854857938156 -23.1875540148545 0 0
224.083045331479 -23.3319844226052 -25.755283655864 0 0
185.727675797329 -23.533217458365 -29.1261804492289 0 0
195.980087034517 39.6038128441902 -4.46539194976964 0 0
204.390428343537 -26.4759725203563 11.2326702804413 0 0
-193.896668537291 -26.9293970708691 5.60819257017809 0 0
148.788593026728 0.097445680409309 27.5318666479635 0 0
152.390339420958 -8.4410719083435 23.9799000608692 0 0
-173.738312829349 -4.90688939517212 10.8806118967944 0 0
105.899655533691 14.2897977665566 18.1859986454879 0 0
147.09862199467 18.0642068145702 -1.34307672464732 0 0
-202.419968167527 27.3863886246189 9.50513917240093 0 0
-91.5325786467561 -1.85339124152693 13.1416952450444 0 0
177.328155359358 17.2719459574753 -11.825361455491 0 0
204.09411106653 -33.1019474458607 1.35518253347036 0 0
-82.340873898594 -4.3673356201439 1.29564885605697 0 0
202.456887337711 27.3335943771705 16.1945235464979 0 0
-170.754848034446 4.31463718856825 7.72212445880669 0 0
203.193700297886 37.0110012011094 3.4653125363873 0 0
-157.44380099405 -2.33444132434423 -23.3404037712295 0 0
176.337029257773 15.2158414899273 27.9696654302209 0 0
183.115674070171 9.77168883078886 29.3541464020006 0 0
-192.965966225511 -11.3266316140249 -10.7462321838202 0 0
208.270781249532 -35.9274856217343 -27.0575382536995 0 0
-222.517676844151 -46.6919724321783 4.87470088596123 0 0
-106.437946764226 4.00989502900581 -10.5966746051255 0 0
-212.700423150937 -0.0944962103401513 12.7403293842589 0 0
-223.635926075078 -30.4635037536723 -18.5370308949966 0 0
-61.9238436902974 14.0385651091766 17.1913009316857 0 0
-156.091214458397 23.7737018617646 -18.5261865815139 0 0
57.7851227272554 1.7250227694645 -1.81892626320814 0 0
192.437474474193 1.14270582936064 -16.9258656468922 0 0
148.937939562546 19.8769402774163 0.605898574592263 0 0
23.0818653270247 8.74638694955278 1.64776136999775 0 0
158.929488264722 21.5340836853816 8.15665033843072 0 0
215.587830323262 -18.6071111821444 14.3642134458925 0 0
164.476223153036 -8.60807732275269 -7.16769986032262 0 0
0.0759593269106898 2.49067764299825 -4.93513201020374 0 0
78.5724063544423 11.520430201061 4.53917998289444 0 0
197.647028081395 17.5289756457848 -24.4237442185213 0 0
177.281591507862 20.3731908613569 -12.5799990984582 0 0
215.257497147127 7.68628654452195 -3.713674064216 0 0
201.599444140499 39.8661374709619 -25.5725542669858 0 0
140.955396637975 -12.0165880608375 -2.75312796464402 0 0
138.772515024298 -17.9488967415242 3.78431641608694 0 0
185.418572169322 3.15809983884713 -15.7036989817023 0 0
-188.898222648077 -13.0528582559086 -9.41959628348322 0 0
-183.74766555631 -17.8392759430441 6.67135601435547 0 0
187.116467420451 -12.0388608683493 -28.8352042452051 0 0
215.087903026918 19.1254311189774 17.9133203102992 0 0
-143.278250009217 -7.69696669764352 0.468108217377688 0 0
-40.1335793807076 -4.58878021715077 2.48803087554688 0 0
-151.024107450117 26.0804416905788 -14.0700710083075 0 0
134.165673198815 -12.1815680589227 22.3753956934199 0 0
214.737970995507 -23.9540481151475 -39.4455297207533 0 0
-168.283330690298 -2.83528199864397 -21.5453268913651 0 0
-171.210990882584 -6.25163591750141 -16.1122266628683 0 0
220.866753920872 -14.6512767613521 -27.6182503873164 0 0
-79.8900942826474 10.8738009328797 -10.6342827956722 0 0
-207.600106174829 -49.0429749297456 5.95826964464725 0 0
-207.786852418807 16.529700499646 8.09451296451785 0 0
-212.036586724652 20.8354036835175 -10.6069029242357 0 0
-200.063584003937 -34.4387139868253 -9.89331612324201 0 0
182.648539732577 -9.67632592622535 -14.8802722646525 0 0
-226.330673151875 -43.6030837871157 14.2170602761757 0 0
2.51624592702554 -6.49196320032125 5.52771633910529 0 0
204.919232801966 26.6991166343888 -28.5274159189441 0 0
216.2839341115 -21.352561585892 -37.9769101105111 0 0
14.7659691746369 -4.51965131180019 2.43974330051233 0 0
-202.319649194707 -0.993549777419939 -11.1743238840569 0 0
-208.969211580244 19.462848740324 -7.27129469553007 0 0
-129.051575278277 23.3535876152169 1.30959012936948 0 0
-177.402251675923 0.700705858620199 11.236846891285 0 0
41.4283301539366 13.8473750592684 18.5286016522432 0 0
219.479669218735 -27.9580684413632 -33.6214014049722 0 0
-194.178173937481 37.7128939644049 -6.77283382670402 0 0
-153.002102421873 19.2890298247167 6.48700439501046 0 0
182.905641189154 6.45959806797765 -13.407442394789 0 0
-13.4763310854853 12.9514071679347 2.95201658464427 0 0
40.1246725686761 -8.14715088491113 23.9830116725747 0 0
-229.511258135455 -6.4263075393048 2.54384739259514 0 0
5.49173981212499 3.54620335405298 -4.82552352896426 0 0
185.101030425075 -38.5671946470371 -23.5371367634179 0 0
-203.183092598749 -38.4027960306203 -13.9318236111915 0 0
193.324117215718 -25.6244904646633 -40.2556895361773 0 0
-95.4291176366298 -1.87950536370616 12.6352687259676 0 0
-183.925768845636 -14.2255137045602 9.90606497770033 0 0
177.82482279971 34.4770065496174 -0.818307841594337 0 0
-38.8506144974 10.5849464328027 21.1818468144116 0 0
-210.83334158262 25.1796197767296 6.61564032356372 0 0
52.9113712016255 1.66787379954456 -2.15194074556119 0 0
-181.138289497154 -10.0495413481534 10.6824453477573 0 0
-193.961353508429 -22.9094343644395 -4.70276047877878 0 0
-161.511298375095 -11.3611686879016 -1.65907504104087 0 0
222.042978664019 -29.5566977438859 -27.3879144230574 0 0
53.6084442059521 6.92074780951168 26.6396754069732 0 0
-208.818877630701 -49.5199774789519 4.88036817142992 0 0
-187.818599202773 -1.28535375574367 -13.4988481686671 0 0
-165.024025259493 16.2062231817749 6.19504600289802 0 0
34.565060353043 -11.6827565929677 14.2529064020618 0 0
224.137239709468 -28.8897421193089 -17.1502965389818 0 0
192.998681900094 -14.9271665195718 -37.8352878889807 0 0
-131.927573694563 11.6743201555561 9.80845300820778 0 0
-158.98604444169 -11.1512030482401 -24.3973282663512 0 0
-235.527219541361 -18.3266994014419 -6.04700438434903 0 0
-49.9671528322605 10.9081973664305 20.2849726679586 0 0
-14.8287194549088 -6.13229669957976 5.24412859258386 0 0
70.3837010308401 6.28771699412973 -1.21710396044898 0 0
92.5066274520823 13.8156635954971 19.0532098109002 0 0
8.98756056335044 -9.83788564507612 12.4120135144988 0 0
-199.179615436762 -41.2526174823581 13.2809688089016 0 0
212.361005570825 1.0697867611945 -8.0847211056319 0 0
-86.792633940486 0.310927977464819 15.2697091158107 0 0
-156.568776255755 -9.22717758388315 2.88623444467447 0 0
200.721485961359 -33.0889816372587 -33.7520900541472 0 0
176.637758982533 0.756515270487423 -9.85302420799913 0 0
193.843266669183 -40.6587586465354 -9.88482338896722 0 0
-62.6310831135528 10.6617014116894 -9.32744389524921 0 0
-151.139052160669 -16.0049560114769 -15.147969162157 0 0
102.488494527569 14.1947323303165 7.47119329751155 0 0
-73.222796166528 6.2089738906442 -8.48928027232418 0 0
200.158799461205 -10.2567853680177 -38.6491170959332 0 0
25.1738866260146 9.16781466754182 2.26265430960791 0 0
-192.648893218661 -8.12906508974765 -11.5622414276146 0 0
209.384419123825 -33.2293765123936 -31.0297857221343 0 0
160.899077956764 -15.9859420023407 19.0852105010924 0 0
-152.716390909337 1.95553835290917 7.66083008739472 0 0
190.557401861359 -41.111470540461 -13.0177658728606 0 0
216.154734773403 38.979648551275 -13.5569344174803 0 0
138.645590768181 0.133332848943055 -3.04772609351443 0 0
-164.196770830192 -9.74739943585567 -21.3989148708352 0 0
209.23825371707 36.2238567617114 -3.88487569110102 0 0
-5.02786445507397 -8.5885429935662 10.1934096782747 0 0
-53.1393727765382 18.7871922278712 1.9022023192797 0 0
12.0643402758848 6.53541056904059 -3.1772014425414 0 0
-195.179184217749 31.074134613054 5.99077689324195 0 0
188.981560284852 37.3997053129563 -22.9304346584025 0 0
-31.8921484939909 -3.33446650435198 20.5259486647346 0 0
-201.636155923828 -13.9977722737971 -13.0319783559086 0 0
-190.069674459045 25.5786223845599 -26.4409575089393 0 0
38.558474951721 9.66256837942558 24.3366620626452 0 0
208.471535712411 -38.0882718936715 -15.7453893043159 0 0
71.0505390257445 -10.5404739415034 6.90346065606742 0 0
-149.188479560482 23.9339077539254 2.92148060317872 0 0
219.332156506758 -12.8096353300623 -28.7873268993412 0 0
179.481726283967 -14.8055045987606 -16.9439896071937 0 0
-169.056444091483 8.965221797572 6.28179607242169 0 0
-184.583180023759 31.3531973866058 -22.3126567467821 0 0
-112.213260365926 13.504509206767 -14.4414751486748 0 0
-174.486708681758 15.2079208117831 -27.5348969763769 0 0
-214.726453158996 -30.9283613585072 -20.0644992184556 0 0
191.121278060894 39.065824023631 2.31260710027273 0 0
201.355039282743 29.5306078623325 -29.1753647944894 0 0
-208.413820628791 32.2858644784827 -0.287768577596004 0 0
-169.368950240185 -1.81838374106393 -21.3877470145479 0 0
-228.046907139042 -43.0833149098013 -6.27500131074646 0 0
-207.504590791136 -48.5245147042272 -1.89853793895757 0 0
-173.410561830618 -12.4802179615791 -7.64338250296722 0 0
111.380680159985 1.96837375923072 -1.25355094240788 0 0
171.190671147193 21.4884467258651 -8.814312778914 0 0
-110.556652191251 9.9822555887093 13.0168854550838 0 0
54.5236665709026 11.5728716605608 22.9623518523161 0 0
-205.37710060949 -44.6207317452284 15.1455591991518 0 0
-21.6003298916893 14.3155074700311 18.9971428102976 0 0
-202.105825352996 19.6850133128651 -27.6694960973009 0 0
88.5472703191644 9.5267820328494 25.657155973104 0 0
-221.893101016874 -22.8308108873194 25.8839256778088 0 0
83.65353067646 13.2170251605645 7.80219136252679 0 0
-208.905218964378 -7.74705498007636 21.2613521477961 0 0
206.055412700589 15.5666792948909 -19.813992553721 0 0
187.221548118654 37.6732846357177 -19.8666191726545 0 0
158.479381278015 -5.62819919466207 24.8667655090093 0 0
-150.903476609015 -0.253392510885706 8.01473346058481 0 0
-166.339752251337 -1.50213869463947 -22.1816921402481 0 0
197.870002488871 20.4323775187895 -27.9279457165746 0 0
221.394645142536 -29.7061993558156 -8.02713670514813 0 0
194.118617417698 32.4422134263174 -28.517526247323 0 0
-177.622765691367 -4.84437234315372 -14.2487470397983 0 0
-188.162813037048 26.1746428754238 8.17619796401271 0 0
214.280098251127 38.9616400559063 -18.4232810226905 0 0
211.449644163022 -29.4806557917134 2.94780859919154 0 0
198.351924488601 -38.8390788451064 -25.8926517284909 0 0
-141.453092654731 14.5126293178754 -19.8984994537426 0 0
137.049552680276 -2.04422322633325 27.5230655703285 0 0
195.396590126537 -1.94852993089047 -17.1447782193441 0 0
-207.587711099224 14.8694783201029 -1.46929585084451 0 0
-175.402559620523 5.39870249163531 9.10087293247998 0 0
207.742412556087 17.7944256777091 -24.6384836986928 0 0
225.23339337375 -19.7592153637939 -15.6272761486525 0 0
113.754554519806 10.6600875391941 24.9751919739363 0 0
-200.679026481549 -16.1472208043565 -12.6973584585281 0 0
199.942383645794 -31.7349395044904 -38.5351700375428 0 0
-157.828560563903 2.09701682862619 -22.8624480886453 0 0
-116.218204672454 -5.4987851707365 0.170029137012137 0 0
-202.406754854538 -29.8206055540666 -17.0533971403453 0 0
147.443471664371 -1.79377861297524 -3.80821327897419 0 0
-199.347457579226 -13.8060459897935 20.7232471115568 0 0
179.804298964545 -17.2096153536414 20.0209355060466 0 0
-103.312905351997 14.9627313369278 12.2942705202295 0 0
-95.2719985320781 22.2494270904302 -0.0964700396262393 0 0
-216.065853276893 -6.72200618919553 -4.84715911965009 0 0
186.153911469681 -14.7409466559389 21.0569418655908 0 0
-51.8152677710054 -2.46162028287165 -0.324632169234451 0 0
140.211161696142 14.1088174813095 21.0252435474649 0 0
-65.7008158271593 -1.5068034031844 17.1928541683896 0 0
147.560996001915 20.2080891846088 2.56662598663474 0 0
176.951442036167 -33.009549333727 -14.5984387000693 0 0
-148.155597052929 1.39621571295666 -19.4839911689297 0 0
-135.144399432634 22.8738969404238 3.04147709080447 0 0
-235.172780567267 -14.5155337196387 8.19674191203144 0 0
52.6909591095576 -11.1918736626399 9.74468172629152 0 0
184.84915867823 -21.1483317046254 -26.0132485882754 0 0
-189.800078789644 27.2846655068335 8.40651159557963 0 0
216.741898857932 -10.5059874630191 -24.5701455347358 0 0
-82.3755655906616 -2.09209731016736 -2.56560157655506 0 0
191.732347230033 32.8551099180976 -27.8204372785363 0 0
-187.419407158801 35.1413352728207 -17.7859216186444 0 0
-64.3759149945991 -0.347530036040893 -3.05585586105952 0 0
-175.303813444947 36.604921085135 1.18016753621322 0 0
-191.612761904745 1.36953109325485 12.488868841427 0 0
195.707341437818 -10.3347207393257 -36.7779060704308 0 0
115.060251316123 -1.39773075560177 28.3513199951478 0 0
19.8504334827834 -2.94216024601869 0.547498095150626 0 0
-165.961529037424 28.8275189644701 -17.0006078620045 0 0
59.2519583884486 -1.43846501860816 27.9480952795349 0 0
-192.179047403003 25.5995027437752 9.27698971617783 0 0
205.419865483684 -24.7874799311654 14.3549014487833 0 0
72.9948086592908 10.5283500222099 3.38310156017207 0 0
168.460239209194 -14.469216850065 20.3616794450893 0 0
-183.198219603381 -17.8611264022852 -4.57360436492373 0 0
-212.638457038948 -26.6178019534289 27.1359705920042 0 0
-225.480070702711 -7.92929880087948 -8.78818174119384 0 0
-172.530512196332 35.0552413084989 -7.92079457362736 0 0
143.119874958448 -14.4373562968071 20.5974557931969 0 0
116.592291695733 -15.4094359693476 6.83314984593745 0 0
73.5448430279726 -7.16247227992364 26.3973352814581 0 0
-205.976073652395 -48.5874343503266 3.80703632998419 0 0
-183.658580885275 26.9839467835682 -25.2974822120995 0 0
-192.204427566422 -4.05719342990687 -12.2801611237975 0 0
-201.33859092478 -3.91045162722755 17.8819923931913 0 0
-187.121238965055 13.2131670115737 12.8488609130874 0 0
-200.682487082671 -41.6652381461512 14.8650547017981 0 0
187.131865697539 -10.6484537646984 -27.4064722960383 0 0
152.231196600302 11.9112860041126 25.1502059364064 0 0
-56.3434761638151 19.3320135200914 5.80083007694229 0 0
-85.7273924685002 0.378981472643484 -5.97625319206273 0 0
154.35487732846 -17.16580576934 17.9842096847705 0 0
210.902899073653 -36.9713480011673 -19.6632242485628 0 0
-203.523271363161 -35.3770244846249 22.327669209014 0 0
-59.8977446570056 -5.68833638524467 13.0223497422792 0 0
212.513803289074 12.4991536282129 21.1388771457115 0 0
-208.865368295828 23.4128837739594 9.32293111583153 0 0
-26.2763592378188 0.995949760776486 -5.13695869947362 0 0
-207.813864574162 17.0312899481336 -3.14494773122583 0 0
-206.764467866743 -1.47581236923736 -8.2310874450598 0 0
180.803954935149 22.590110736111 -18.9960408490904 0 0
96.630133384081 -12.9138544814883 22.4156764672957 0 0
164.143868973403 -12.8176852937838 -8.69383582411644 0 0
-167.679850941554 30.7335257855097 1.6801086999688 0 0
207.327646891827 17.5156841526665 27.3921864211926 0 0
146.146100161352 -18.3660511817915 16.093945916453 0 0
-128.996810163243 11.2681727249428 -15.9454027193488 0 0
-161.280379589928 11.4100098788001 6.12487330021554 0 0
-93.1053606517081 -5.49234946315788 4.8751887937829 0 0
-48.2916566641789 13.4044698917604 -4.70824634239623 0 0
67.6504461194376 6.89230240618952 -1.07090578352509 0 0
37.2014181159937 -7.28613354535425 5.50336214383212 0 0
154.228533825264 -12.7195397867655 21.3066956495678 0 0
175.162975545292 -30.6390939803046 -14.8486176860236 0 0
-102.741702045537 11.2606881976206 -12.4222649541184 0 0
-161.238345993261 21.683866977137 -21.6035966410326 0 0
16.9745965852389 2.90080347545831 25.7964512266114 0 0
186.206066448882 38.4414452885149 -10.9508188427113 0 0
201.804656337748 -37.4715075524469 -26.8651860695716 0 0
-176.116787750221 1.9762755440185 -19.1816029752113 0 0
-202.625644773173 -18.6924149770671 23.1114164714874 0 0
-127.098403687912 -1.70638832069537 -10.304274930577 0 0
161.420709820827 -5.91414104438339 24.3805944209733 0 0
193.849801274215 -6.58769468099099 22.995110837013 0 0
-199.596142607028 25.8857927404281 11.0130354436904 0 0
-205.522943666571 15.2544831697241 -22.6691922076622 0 0
176.711787889538 -27.4003522851295 -17.5899333787626 0 0
187.282926090297 -11.2864603975987 -22.74860334063 0 0
135.854312213017 17.5760170306606 0.262574136374264 0 0
-184.506467258037 4.97455705415491 -17.1576030485327 0 0
-146.716894883373 -7.01395330557042 -6.47738864887888 0 0
-84.872617640636 18.6121944552278 10.3391468693036 0 0
215.212959775062 11.6854824367503 -8.05260826655094 0 0
223.099132760973 -17.1947308546819 -1.87780478344001 0 0
159.888063658577 21.9672277074185 -1.71406497801044 0 0
198.773088974529 18.3804836957267 30.1391459797178 0 0
-201.296987571022 -43.6718667275493 12.5649346629591 0 0
-196.140825058993 25.5766977991958 -26.4990869905619 0 0
-219.351908406479 -15.8550595377673 24.4579859868302 0 0
180.094840940068 -17.3774945887067 -17.8879214976435 0 0
-51.9496293113606 -0.566510248291204 19.7628491627961 0 0
191.580753464045 -40.5781188750356 -10.2896059604908 0 0
208.679446377856 33.8104862904814 -25.8054094525971 0 0
-193.28795719868 -25.6850582946024 7.49143511133793 0 0
-237.988012931536 -31.2687627670099 0.790766827925897 0 0
-212.534720722918 17.2307015149496 -18.4940593525752 0 0
30.1088449379913 -10.4552693572194 20.543595352991 0 0
25.9682297807434 13.7667703280223 9.12177953483343 0 0
-105.615786467456 -1.31712322210494 -6.99149178638087 0 0
50.6346136819646 13.9585690642429 17.2583702743792 0 0
-228.823257981933 -8.30780783521266 -6.23349500821428 0 0
-198.869339618571 -36.5799459551376 -6.56298924158607 0 0
-109.283423027016 5.5528734655931 -11.4724037344731 0 0
-74.9079610280119 6.77607244676529 -8.72953888503283 0 0
-68.7521446552596 -5.96136598689103 6.11809664160496 0 0
12.3600437977027 13.8621378299124 7.5773787493514 0 0
216.468668349234 9.77481078367165 -2.77621635953343 0 0
193.708077702652 40.3719436930359 -2.77580213656306 0 0
196.104308897969 -9.23139990372553 -28.9217560630344 0 0
-195.399500907789 -37.1586539876663 4.13376098393365 0 0
-188.618900791104 7.90578898469898 -18.0368165101655 0 0
-88.5819465509569 -1.0139272074604 -4.7716359858973 0 0
161.796553448374 19.0418281048476 16.0440391141043 0 0
43.9326965382076 -12.1199466582336 18.5386784534918 0 0
-197.265984178385 -25.536571554347 -6.0609123060588 0 0
-62.6602625492206 6.54785942481749 20.3166734647559 0 0
204.436069727859 -7.95137547385038 19.9025448044756 0 0
184.111261178257 -15.2340957857084 20.8681786483906 0 0
-201.218428462448 -5.249992716431 -12.0803284094261 0 0
-235.585198598116 -35.4319254123054 10.2629744893543 0 0
-82.6441138004593 11.8738348689186 -11.2039857588971 0 0
200.590914592691 24.9390420092168 -29.1577366699481 0 0
220.074711966587 -24.184069528094 5.50385260327997 0 0
-8.71308514103509 4.71811409303155 24.3723339055385 0 0
80.4975185114687 10.8980298166241 24.2261906001674 0 0
211.049943117683 3.20069937070876 16.7709129680828 0 0
-210.822315610013 19.6405416126416 3.85840943672105 0 0
111.103935163742 9.07264828130261 26.2468894494116 0 0
68.0239615952583 -7.38978581487676 4.43484955397739 0 0
-181.505828879062 25.3313736844139 6.64517885562037 0 0
-202.4234914567 17.7202184475241 -11.8684561425909 0 0
75.0953820883228 14.0026487046891 17.0855112163308 0 0
-195.260251379778 -14.299803164049 16.7431728506022 0 0
205.077728610167 -33.9684753188398 -1.38894935287818 0 0
-185.517227013222 -8.292346895521 -11.258153145115 0 0
45.2266576720577 -10.793925589109 21.6418796752282 0 0
-19.3334656931469 10.9860476763991 0.101237954582318 0 0
-206.539672933872 34.2550202234467 -12.6438466031693 0 0
103.632635356291 -11.2969102620023 4.32364767740529 0 0
-100.098664916885 -4.80641288517601 0.645792072623188 0 0
-3.24052281237188 9.39573101401869 0.790281420882069 0 0
-124.911031101402 23.7860820633955 -2.15242846359691 0 0
-40.5836661640592 2.97989627621787 -6.16889817385583 0 0
-9.69438068487918 16.3442815439511 16.0165876072373 0 0
-171.243730522357 4.95945538071977 -24.749800975508 0 0
-146.290301591423 6.90631699765159 8.01649849105979 0 0
-143.650953292383 -2.15664726840802 8.10085296405474 0 0
207.507002821918 31.0099786678186 8.55312256549304 0 0
-173.464213456842 34.5969838719102 -15.1514958764419 0 0
148.579825749286 5.28445127656563 28.0900910622702 0 0
-65.845790015182 20.3258176897478 2.88706536929224 0 0
-181.232011329594 27.632892467936 -24.6053367337786 0 0
213.189762568206 -12.108716621085 16.0855272160691 0 0
208.589642888043 -8.38985743493726 -30.8881885494434 0 0
-175.911594791042 -0.581976915349512 -18.2140241888156 0 0
-149.24749275177 -13.9482160307305 -17.1209902007215 0 0
164.031587725822 5.97780893300653 -5.75636076362413 0 0
64.048155225955 0.076247712902752 -1.44363412660416 0 0
99.9857976561672 -7.9069937452176 26.5671599967644 0 0
-35.8851296288421 18.269421793916 10.3602902183201 0 0
-196.862354728863 -29.6930117360977 -2.84517112718136 0 0
172.180105584436 26.2350672395772 7.37908885024268 0 0
225.785819304168 -26.0640617094764 -15.3474345424011 0 0
-112.846564217823 16.7797887578351 -14.9062969395868 0 0
111.826602054881 7.43604676275885 -1.66130750614274 0 0
216.53312516607 -32.7929926616926 -20.3073576717336 0 0
212.657589825293 34.6013436304131 -0.393068946824402 0 0
188.500776022474 15.1491493827907 -20.3548820070514 0 0
-191.168497775177 10.6215451280322 -20.6565220055057 0 0
-38.2182680679998 3.7954058639839 -6.38742117353014 0 0
70.4204441740136 4.31275569433199 28.1708673851331 0 0
-197.135636363149 19.0546346832244 -12.5747340369339 0 0
179.510923715463 -18.7153009971468 19.3667559655602 0 0
194.593674864196 -41.3371277624839 -11.5414929694797 0 0
-163.868725123264 11.1254463000883 -24.2605934810309 0 0
-195.387247018556 -19.3802242848522 16.8521826164523 0 0
69.1692121983162 -9.68247422985331 24.4282899880188 0 0
200.945195291119 35.7445946467113 6.03680219514264 0 0
-116.9116642393 10.2324017140346 -13.6670983173837 0 0
-195.247433584514 -34.8957390701885 12.2585032751929 0 0
-171.665160719316 11.3401565530522 -26.6441297910855 0 0
20.8092470438307 -3.04976034569669 25.1699272891839 0 0
-166.088703054921 -11.5743109990476 3.59114400594044 0 0
-204.635534480737 -42.0616601122342 18.1142073250344 0 0
165.628338192834 -25.1286192737782 -3.33122927840916 0 0
195.51525567912 13.7550465498145 33.0677063767921 0 0
216.526744695677 28.0866018820751 5.80575210358267 0 0
215.604572866853 -1.00572758467637 3.80223352203011 0 0
192.126974688862 11.088859806057 -18.0820375240848 0 0
-30.5483152197698 18.0550871078137 9.77352218783548 0 0
93.8774372644541 12.3636023595537 22.4646929597768 0 0
-4.9559356209328 7.69799929783532 -1.44879029818361 0 0
201.726297040276 10.093058375659 -14.8877724647688 0 0
148.958630063736 -18.5751997846044 15.9655197847913 0 0
219.003271708073 -30.6645336372287 -7.6103423557826 0 0
-199.890024859074 -43.4931883449764 10.5115937379014 0 0
208.956914563584 -10.2534301979965 -20.2817867589368 0 0
-198.259823271026 -43.0892068537232 1.04374008243428 0 0
-191.145599259344 27.0130320672526 8.78328179452549 0 0
187.311707755684 -10.4037280268229 -25.4995354344821 0 0
202.211319312836 -6.92540701531744 -34.2343052195826 0 0
-124.710405926109 22.6693319279194 -10.1869141203739 0 0
217.580841170419 22.4009541047227 -8.82416938531491 0 0
113.318919781116 13.7589580761505 3.36757294838771 0 0
-61.3429165506904 9.86981218452294 19.8577963952378 0 0
189.383960876409 20.0719168179491 -26.1303414773158 0 0
-163.69195959305 23.2415834894194 5.30298280746177 0 0
-191.601853911136 23.5748532039395 -27.3647149963029 0 0
-166.810854112999 27.0527455987309 -19.889313931993 0 0
-87.6994128659599 20.4908553708135 6.82797750980244 0 0
184.514497408727 11.7456561606005 -15.0155685261117 0 0
123.393989742618 -10.0941195143266 0.521350957526818 0 0
88.8117648177783 14.1895716282132 10.3776257753234 0 0
-214.039769736063 22.9161192080412 -10.4361184108773 0 0
50.6154917413272 7.0782018981462 -1.07982252253958 0 0
-211.347514727406 -0.394439255662091 4.77860249847996 0 0
-131.10217633019 19.2849111092271 -16.8900610474357 0 0
50.7685267145356 -4.40067306201554 26.643653195054 0 0
-151.958017480112 -0.304523509106546 -21.4716799852863 0 0
-194.367538980917 -15.9519053874938 15.4876879067156 0 0
62.2760720380562 -11.9447933934758 9.70747801868205 0 0
215.389028446723 5.36398396762315 5.6031994333987 0 0
-102.286436065411 2.76065535745253 -9.47417252632742 0 0
-225.721014393896 -36.6439772441799 21.8428112773331 0 0
-197.499126634515 14.4124201218432 -23.7757726626085 0 0
216.421243097157 -31.997283839692 -8.17955771658824 0 0
194.932429458256 -18.9887643451853 -40.3577475826491 0 0
-199.435219962193 9.87035268529415 -11.1060173637325 0 0
149.97314595113 -13.2204398959418 21.1309878379209 0 0
-178.657620983219 -0.846346997261594 -16.5664183364973 0 0
-142.558725228798 -6.77861352402613 -13.8523187748033 0 0
205.672491757304 5.2693341563045 -11.3855790251113 0 0
-160.407173868717 -8.69203334160703 7.47185748914158 0 0
60.6373463248359 8.76234413974972 1.40730201271779 0 0
-232.219173651118 -23.8205752446852 19.4082932335011 0 0
-228.378849429974 -34.7314217570764 20.9901370330002 0 0
-39.5144183932226 -1.14661502257895 -1.68055861746382 0 0
198.236206359164 -39.2768920862321 -23.9749971762012 0 0
-224.952710214265 -40.9461289397633 18.7538313990599 0 0
-160.116546715885 19.0785604767379 6.30479134249634 0 0
120.493187469121 -16.5868414433351 7.77746127932419 0 0
203.338562809157 5.06560476534251 -12.4624531303067 0 0
65.0604460167899 1.50512770590302 28.463907095919 0 0
-195.296974493395 -29.972038888645 12.5627734222453 0 0
62.1241861835264 -8.13152547182845 5.28533808026744 0 0
178.724698598869 12.2524298926023 29.5683804631008 0 0
165.763549141017 -23.8511336374119 -9.22886310024806 0 0
145.104013865018 -3.85318681573049 -3.59317522513178 0 0
140.912451810658 1.47249957421414 -3.27437309768234 0 0
174.615702088346 31.6915492135302 -2.48097102300466 0 0
198.751394322598 -40.3128977072745 -9.94455731923571 0 0
-193.620063332393 7.39350857366258 -13.496075412208 0 0
190.643119959707 39.4688060337843 -3.13059149264677 0 0
176.580742603051 -30.0470216556685 4.93907404218587 0 0
-141.194697533617 8.2779701915597 -18.0593854314365 0 0
-205.456317821924 24.045281051407 11.417688560066 0 0
-26.4744159764961 -7.7357832307285 9.25716958981669 0 0
198.217315045273 -31.1201699846636 -39.8902278726454 0 0
210.605928799885 0.513939710426339 -8.7956657353289 0 0
204.095395815358 40.6931526165936 -14.468122733705 0 0
-31.4276714257943 0.265797359309976 -4.37333192970977 0 0
-55.7394844953411 15.1073717901172 16.5380798329655 0 0
-76.2296818287502 -4.52638364567035 1.4993078585014 0 0
162.579101534303 22.3061390850542 8.95733612767651 0 0
-205.234047081056 -24.2144761343626 24.9971272297802 0 0
206.692632156189 7.63083679979344 25.0692144422301 0 0
59.3688996041729 12.7350725459344 21.0970456912732 0 0
184.067304014568 -17.7164088184117 -20.5276556332551 0 0
-218.563503069401 -43.471664821267 -12.6224523041936 0 0
50.6656396311686 -4.67727583141502 2.91366661182094 0 0
-99.0666338782648 -2.19674495013268 -4.73020414517327 0 0
191.142146397891 -8.43425722185865 -22.1554144457818 0 0
-59.3846310698165 19.5538327584834 5.85563226268874 0 0
-164.769947171293 25.8438129421303 4.25246186787669 0 0
188.255371370408 -5.0988880290223 22.6243237157944 0 0
189.382966326058 29.3452040860784 -27.7132175077713 0 0
-217.523918754932 -30.8857012864649 -19.8951751181686 0 0
-199.409302471413 -18.0312617502646 -11.6392294249108 0 0
37.0261382556745 -5.03392206092179 3.52480432687232 0 0
-106.878208911223 -2.02958061391389 11.365737389605 0 0
-231.834272266352 -11.6845086428343 12.0711768738442 0 0
-97.916018318193 -0.742571987319626 13.0972122767245 0 0
22.275152962157 -10.7363566536189 13.3819840274157 0 0
182.711754981992 33.1477297761621 -21.5675931056604 0 0
222.312577256282 -19.2497776035786 -28.4822317003058 0 0
-197.067707199516 -0.0336085708678691 -12.4076783312717 0 0
95.7978249246001 6.3181652627871 27.6700079126364 0 0
208.163296173661 -0.658453106944606 18.1984303385515 0 0
-215.068114664095 22.4798203331101 -19.4142555925218 0 0
31.0661012609865 1.00377688505907 26.6508648957435 0 0
-91.7311428819458 4.44031399543069 15.8164390188506 0 0
-193.203945126978 4.44212406411616 12.8818600441644 0 0
