"x" "y" "z" "f" "a"
-58.3468626926923 -2.27127826459508 -26.075129293408 0 0
-65.6550335960989 -0.484825052010059 2.78805921365696 0 0
188.295212721229 -29.1178840696979 -15.1734915769782 0 0
110.066867781759 -4.51597453696494 4.37644496480225 0 0
-185.786336140223 8.90498485418531 20.4453470025635 0 0
194.348129019001 -5.35574293332665 33.8615316383716 0 0
157.785857578271 -7.77448320179102 12.0552009653778 0 0
-144.040538681155 1.00722608724258 11.0382998787103 0 0
94.2578097483797 14.2813563615613 -16.1740465919379 0 0
95.656122560452 2.95997640838718 -25.4817521314712 0 0
-46.2709592054902 -3.48616897730839 3.38563402258661 0 0
-213.879229170081 -38.2877430605493 2.43191675023956 0 0
69.8096420022094 -1.81424910623329 1.5037571871697 0 0
-25.2454788775608 -18.5862816766522 -11.0733620243584 0 0
-211.879213540347 -5.78728534972746 18.7552397358245 0 0
161.030383073691 15.3055454298534 -18.6505221217344 0 0
57.0408701185117 -7.53681174818663 -27.272109937729 0 0
168.694248324439 31.4818629150368 2.85438171237006 0 0
-29.7509103060311 -9.66205902295259 -1.92920608331726 0 0
139.016479786595 16.12454750137 -16.8616797209048 0 0
105.817898850688 -16.6572892371225 -14.40025716429 0 0
-140.715650097446 1.36155248899119 9.80240729298836 0 0
-112.649361542093 -6.23246222189294 8.30605283719309 0 0
-216.17642546676 -38.8677590152578 2.99185994444021 0 0
-227.155831859168 -13.9133963358071 31.3858644868045 0 0
-86.1959564041171 -10.9484781761896 3.63066118513095 0 0
-32.9917066571721 -10.2163484367568 -2.01651306098456 0 0
109.069934604116 -16.894634872262 -3.58106000168988 0 0
31.7228456986151 5.92603230063144 -7.18540209250729 0 0
199.134464852892 41.3192754520801 1.46001135601351 0 0
-89.6741217624462 0.961389252524985 2.67394234172546 0 0
-10.1353633472952 6.57773593418046 -12.6511147948804 0 0
-25.2736326101084 -5.7109581371826 0.216208027765377 0 0
173.097585709212 34.7803464104248 1.77806742724841 0 0
-109.694559117674 -22.2391754383196 0.500817840426799 0 0
184.058364319626 -30.829033668813 31.6104355992715 0 0
-220.337634913521 23.8405431530187 -22.3987118615329 0 0
-216.286363889397 -11.0170775186042 30.0932916272256 0 0
-197.530927170331 -28.4866520134579 -3.76963918064772 0 0
-190.554586923769 -21.9711675333487 -4.39525769182883 0 0
-163.586251457019 -24.427917674758 -2.10668888501736 0 0
91.0031349203713 13.3846698555904 -10.9140222351523 0 0
-189.390085620357 16.5589909500182 7.65804685874897 0 0
-195.373622744934 -36.4935453783381 0.0538373523727704 0 0
-216.356142892807 -39.181591126694 6.82334474143703 0 0
-61.8642407071093 -21.7670141784207 -14.0573034366864 0 0
-14.3306710997516 1.52725425416966 -27.6611855215017 0 0
-219.672507573854 -35.6215672205933 14.2385676537734 0 0
-215.674512422671 14.8867623657107 14.7785285802171 0 0
163.579909505276 19.3009681046403 11.9497840302246 0 0
182.376778522052 -3.81152437048136 -24.7351969047548 0 0
210.775112022421 13.4860678846692 -12.1220071857271 0 0
-177.163755224331 -17.2993737812609 -5.77567994929434 0 0
179.566776292654 -29.2359101278853 -9.2441293593618 0 0
-230.335369960004 44.1828638938578 -20.8568601218714 0 0
-80.3961009825253 -18.9723229735874 -1.68507062086186 0 0
194.412681550803 -38.3843817296246 14.2788769103957 0 0
-125.943559088815 -9.52930392066704 -16.8255130810127 0 0
2.06125504752409 8.09811158531905 -16.4054359825038 0 0
-149.768007321583 -23.7530011397053 9.24015193613947 0 0
-132.539054388079 6.27660740982614 -2.52054064878021 0 0
218.397965457581 35.4752866922432 23.2718415078359 0 0
176.818110843985 35.2929826610731 20.9529148410446 0 0
171.353521814182 -24.4762477124884 -12.8240453267608 0 0
-225.559383633959 9.60160108268677 12.873972006456 0 0
176.224432541221 -5.42828059803144 30.5673301882956 0 0
-65.3966032241202 -18.0665144349324 -21.3261432058813 0 0
123.782681037 10.6894879967409 -21.4908752695061 0 0
-181.369294314828 4.33439612459401 -6.71374460052782 0 0
43.2866934625336 -17.1695041255232 -20.451559338793 0 0
-230.271174313321 2.97553413029452 -1.61455487341778 0 0
-112.234138628375 -13.8934245222263 7.20456511967127 0 0
-16.657849138117 -19.5486134089638 -14.6524839097534 0 0
-178.745784543946 -26.9826609419641 15.5378643885514 0 0
207.268517560262 -31.2491588860375 6.66920560428708 0 0
190.277145693938 -5.20827826194936 34.1949424476593 0 0
199.466556465291 8.42522825837297 -20.8524295372998 0 0
41.7130255124802 -5.28093840564723 -0.0420676079109966 0 0
196.362626703471 -25.4034853754653 -22.9588133431916 0 0
-139.643215854785 -8.04073878196251 12.9047391200159 0 0
-182.32719182533 7.89344747401952 22.8148367544737 0 0
157.007346278707 -4.30726104573344 -22.7652712876089 0 0
162.259488722516 18.4715260371306 -16.1884753460537 0 0
200.520710045304 -6.78921404961016 -18.7416999849361 0 0
171.367019510685 3.60529045216661 -21.6295412524427 0 0
145.762563501099 -1.67695882972816 7.38285247042209 0 0
-230.06596911118 -28.9661002996982 11.0161360074754 0 0
28.9851358772376 -16.6514635210479 -9.86810236275678 0 0
-215.217984464616 -34.0577364416169 21.7020971536968 0 0
-206.306027534296 -2.63048621728238 18.7408826024795 0 0
-162.823203890442 -10.3002462658197 18.6359717623121 0 0
92.5974555310433 1.65112370548633 1.8950561237133 0 0
-104.354560780419 -21.7826610356968 0.0889592086321752 0 0
-148.732210076594 -24.5458464222035 3.73290844570218 0 0
175.691298320684 -11.125690859381 34.944851432696 0 0
-60.743057570749 6.14576343440446 -11.6332981426921 0 0
-229.483449166416 -13.9283344951498 27.2866977312363 0 0
183.919552845276 19.1720702816104 30.3920606542262 0 0
-186.945271568463 -0.807595080427087 -8.02979106964944 0 0
153.562411057315 -3.35392302133537 9.20845346043208 0 0
-182.996907196519 -1.02967352990525 -7.37171224746393 0 0
130.526106665117 -17.833536305175 -1.89223540986603 0 0
-199.373658916116 -22.8982687405056 -5.04484719143333 0 0
162.048380773976 -2.09772393674164 -22.2449219242039 0 0
-150.859379387331 1.26669768508941 -6.29446618749438 0 0
96.4123076931296 -8.25167560820077 -25.5056245382275 0 0
139.186509157131 5.39678947531544 -22.6674702190903 0 0
-251.735029736395 39.9379555099798 5.70305789525866 0 0
-24.4118082729108 7.04263384763448 -19.6815625788199 0 0
-233.14205205052 49.1784196534809 -1.05845928360341 0 0
192.804761434628 -1.44077016143057 20.1666283882022 0 0
-227.312935798192 0.363265309406042 -5.71178723444936 0 0
192.341717638166 46.5921266404507 11.7014580006511 0 0
-183.656992766287 15.0560241269447 20.6156755257742 0 0
-101.535327375017 -15.7637626264898 5.27213142041406 0 0
-221.364684409331 -6.35256517359132 8.78179561425471 0 0
-252.735214131376 24.4070392325426 6.4889193188904 0 0
218.483225840848 19.45574584464 0.91789239436264 0 0
-129.330587502145 -13.275049881145 11.5847685163074 0 0
177.12868334505 11.283921418834 -22.2722041499917 0 0
102.570396260054 3.59557025812758 1.81979154933983 0 0
-113.432808248085 2.39570383391359 4.01414429341602 0 0
-230.931010411298 -23.4112690739662 7.68265796568464 0 0
-117.679876412486 -22.8714429212775 -7.63928478171734 0 0
-231.536444856728 52.4207437616255 8.57184721533515 0 0
32.6988407325306 3.21827867092507 -1.82648615003807 0 0
-206.562504801291 -37.4227259696908 1.54818184918261 0 0
139.097632781105 -18.2733954878302 0.381758560279629 0 0
-238.127680851769 31.7242689439017 -24.0652932115755 0 0
182.293353371847 31.8569107499521 -12.0915249019396 0 0
-199.205449058164 -35.984200368535 18.147056754828 0 0
170.883274966562 -24.9966985081309 -10.3823784719728 0 0
-205.051507883493 15.3612051812858 -10.7898152208472 0 0
91.0572731565405 -2.19570714392651 -26.5969509502664 0 0
-118.91053053873 -6.83731379504161 -17.8161857146754 0 0
101.439799418038 6.86744512253946 -24.0198291004755 0 0
-214.145048560685 37.9823605436442 15.1165188534901 0 0
176.511682245525 32.6814179465206 -7.60717568855146 0 0
144.524102236514 12.121057729406 -20.2206321409895 0 0
-59.9993007138565 3.55088636174688 -20.4812978511134 0 0
-234.147809264628 39.5080687209759 20.7843586643549 0 0
25.2731803280637 -17.4075960679599 -21.5446336561072 0 0
172.892870423651 -21.5170423074584 -22.5832187441337 0 0
-197.390076098671 7.435946687283 15.1189598018794 0 0
-216.386813805671 5.71531156215392 -14.5792793923641 0 0
21.1485815459575 3.7347416431343 -3.95429970879715 0 0
-221.389127509115 -10.6314220978773 -7.39810266620796 0 0
-29.7306204825386 -18.6921100386411 -22.63628931198 0 0
144.987855098005 12.7922090847405 4.16822592038432 0 0
153.979729792557 -14.0990386945822 -20.8091718111748 0 0
116.196834288983 5.9509820515785 1.99728184358612 0 0
-193.933058870372 -37.1806119471283 13.8963615214109 0 0
-7.33658723632601 -12.4660380552309 -26.6535969858462 0 0
147.466342030919 16.2881251680887 -17.0473992536782 0 0
189.326119704411 44.4668655145926 1.24210964154205 0 0
-224.252182850151 -14.4272849250943 5.67936896997351 0 0
206.09334602894 12.1394581368053 -19.0322246877412 0 0
-183.763617834599 -22.7873594851227 21.67903575453 0 0
209.660047385955 36.1386970270482 0.917438690570712 0 0
177.507392095863 -14.1747602491039 -28.8454226522664 0 0
194.111786837767 -29.9452345983109 -11.5664452558877 0 0
-198.834810299586 21.060212380581 2.39336888239787 0 0
97.0295245191322 -4.16348500502257 -26.4518133508433 0 0
174.175421626614 44.0221313990004 9.84945824692428 0 0
-159.875619607336 7.44257638846369 11.5620293766801 0 0
175.116763180388 5.64565794774094 14.4820086963615 0 0
55.7809254296675 4.76214264502528 -2.72766158736436 0 0
87.452541553571 -5.56117906593168 -26.8759433067425 0 0
-203.345238220898 1.30623129684782 -9.02066507927089 0 0
-203.348916902919 22.246098547411 5.16309457549019 0 0
1.29545800988762 -2.58821656556771 1.24249092224102 0 0
-231.679234399209 11.8402739156296 15.0019564764891 0 0
-203.983299536895 -14.4877652073293 -10.5882963165297 0 0
-220.315907481042 36.1302022344834 20.0069679645595 0 0
-211.72563111092 -17.0746930679347 -13.7601639890348 0 0
-149.73178369714 -16.6705824717296 17.0845581915358 0 0
144.835016620126 14.7083509436696 3.37796941411476 0 0
194.544891556032 -35.9090808893231 8.67182124568281 0 0
-223.023301497696 -12.0950503567621 7.72792843839751 0 0
-225.409360569416 -17.5667398107432 4.90093315677083 0 0
210.474963984354 -12.6364813519745 -0.237764948172347 0 0
-195.244561319994 -4.33643882849854 -8.74363630731233 0 0
-233.828025662913 3.78560593453916 -7.05027908664958 0 0
112.184715314118 -15.4219326894283 1.60738806823772 0 0
-46.05805296213 6.00484849074272 -8.37557175309166 0 0
-36.8331001565142 -14.1678119933047 -25.5541147884475 0 0
184.919380119934 -29.7732115022989 -12.3140128879165 0 0
-230.559867063012 -19.493066384523 25.580809771296 0 0
189.181480379783 48.1059920841638 11.5649797300033 0 0
-90.3687460800777 -4.8860335246672 5.40137360435946 0 0
182.279754855367 -8.32540085119625 35.8709860012185 0 0
200.194111593346 16.3980295920388 24.3955782274342 0 0
-125.189640393456 -4.37772179150562 -15.2446697443844 0 0
-222.639001467745 22.4591667305798 20.1654116475753 0 0
-178.693700983036 -9.11774256812572 -5.24714722725813 0 0
5.05930006290385 7.79771150366582 -23.607897719159 0 0
-254.019930787546 36.3696245738925 -0.266014350140644 0 0
175.296103672371 -5.434900262364 25.2757000846047 0 0
-14.4705133290803 -1.17180524321969 -28.3505192606942 0 0
-178.247441402381 -22.1987969657659 20.1942530666014 0 0
171.809736090463 0.585990760853012 13.8312922336411 0 0
-237.617399094722 20.1147031628761 -22.1377020428232 0 0
-99.2467225778526 -16.2169546047073 -19.2297595582716 0 0
-71.6181416075357 -22.1141260853707 -11.9378408702928 0 0
-208.367748750466 19.993797482659 9.53669806426859 0 0
-162.237314412528 -25.7356912127595 3.4852102104546 0 0
200.82386119339 -2.92792992158731 -15.8177528384689 0 0
188.020007576413 2.33330937821364 18.4467154810127 0 0
-236.856647425598 46.703963658279 15.6338578215275 0 0
201.72590117669 -6.7275409314379 -17.3162832276892 0 0
-211.38676551623 -7.32515935706945 23.1216940514846 0 0
126.071465806043 15.0529219547202 -17.696604140314 0 0
-190.130765314851 16.6245584468534 2.12528639381877 0 0
-133.252512166657 -9.75999953296213 -15.5391108021809 0 0
161.635521044058 -13.0269812136443 16.3488399841679 0 0
-173.06698054331 -13.4633241958249 -6.59909880343252 0 0
171.855183624938 -23.2064127739245 29.2812202786377 0 0
184.550657794423 17.6185895302216 22.5994354971815 0 0
-197.336624949574 -17.335624859336 -7.03368227421814 0 0
63.7686118394578 -16.5484333953893 -9.27478544870983 0 0
205.295653197146 40.6336613999025 6.00046622270385 0 0
202.857002335567 41.2303177348367 35.1920220325185 0 0
172.658702244847 32.9870609218478 17.1057773440828 0 0
129.226142274484 1.40319793397128 -24.0903876491994 0 0
137.481291805323 14.2372861144909 -18.8420950431179 0 0
163.288455141084 10.7391889673246 -20.9372894243442 0 0
-165.147450535021 -12.456470299346 -8.16490273671061 0 0
170.327417346285 27.8599153412258 15.7022457650052 0 0
198.818581508222 17.4205812890214 28.9641606992097 0 0
-125.802391265468 -23.2359573619177 -4.54126187551938 0 0
194.397347980805 -36.5040896103119 10.8099105168889 0 0
157.669155811372 -21.1606294827626 7.32260777365735 0 0
144.499352303324 -18.6830939438494 -11.6597780277055 0 0
175.987873265461 -26.708254645821 35.0192451469274 0 0
211.314608743891 -31.5196988767218 18.3144551502475 0 0
131.300593425464 -8.89946602265256 7.40107856616246 0 0
-59.7353044910491 -21.0133678416837 -9.83985709920848 0 0
-152.98415086583 -2.83818322999613 15.2063034083176 0 0
198.325245386571 37.731430739938 -4.65672621554323 0 0
176.817378974961 -1.54933449763253 17.9296695973891 0 0
157.63954635245 23.681473173036 -5.0660908943616 0 0
201.727389304623 -30.3646277488086 38.2985224093116 0 0
123.687889992484 7.05146804100977 2.45969553155857 0 0
183.87549381103 19.3737337323246 25.4584681328422 0 0
-68.3129036524891 -0.192488098501836 -24.0107488874766 0 0
201.064068933043 -4.54793541566887 21.5008438129213 0 0
187.783154480573 25.5524476301325 -19.5558141055418 0 0
121.966101603392 -3.87219816092521 -25.0162135582484 0 0
51.309891760483 3.48278013883902 -0.317698579962787 0 0
164.501866776793 -3.28146912234116 11.9011262902047 0 0
105.890381166295 -11.3901598256989 -23.2818266583561 0 0
-194.642538180356 -0.988746781740881 21.805363802002 0 0
45.6903444617336 -15.3750869166789 -22.898767194433 0 0
-220.097073948255 -21.4751721815228 31.7130282043 0 0
175.337472921899 -7.2165986297635 31.9396390829296 0 0
-243.736420665461 36.8972814383468 -20.3400462995505 0 0
-186.800192428033 -29.8059125400389 17.3124479305803 0 0
-233.074274346886 45.2954642810843 -19.917729863623 0 0
-228.007506085777 50.1760397218799 11.9109099321434 0 0
-246.45749985804 14.2070105581099 -10.7046811920554 0 0
17.384617022473 -5.9125595055644 -28.2503915074473 0 0
166.594444438462 29.0442325978869 9.51329052627333 0 0
187.731976233533 -37.4835291141161 20.0659107389763 0 0
148.608024211507 18.3221658594012 2.50098720030336 0 0
-147.636333542992 -20.4606313869408 13.6323176523811 0 0
18.1995359391332 3.17340576725473 0.369029446285263 0 0
-191.361920895916 -32.6940506988544 17.3250629970505 0 0
-190.39246127848 -3.3303582247724 -8.14171376955539 0 0
-209.940793003291 -10.7925229883053 31.0321584746621 0 0
-202.208995495148 -36.6479189837059 0.412614177128639 0 0
144.065719583806 -19.177781642542 -2.68948688758706 0 0
-228.9929493801 -24.6669375622342 23.9244761800319 0 0
205.806931033086 -15.2460845473119 34.6025701786764 0 0
7.76569626007501 8.30565282673417 -22.9656030356095 0 0
-226.826947197375 1.27646074138209 -10.63233846508 0 0
59.9491130981594 -4.91922197668392 0.804893604790212 0 0
176.550840066734 24.2007370972844 21.940731537679 0 0
-10.2953047349809 -4.19022389485649 -28.5940587525945 0 0
-63.3208295224582 3.68218922883421 -19.327392261558 0 0
-107.231234552158 -13.105896443095 6.42963091374455 0 0
205.041666379649 4.13990271153392 6.63097164214775 0 0
195.613971250052 -28.9095661495042 -15.6713661159662 0 0
-241.180322176241 47.8157714164937 12.2266999556494 0 0
135.660387126739 -15.2642699542252 -18.3403306723839 0 0
177.707766554088 42.1377284820302 3.59056271866366 0 0
-209.453658991879 16.3290041746941 12.0017309614064 0 0
210.414883118002 29.6463145313155 -8.7988164877442 0 0
133.141130417704 -17.7547757964143 0.0470910691565406 0 0
-58.2947970620882 6.20163203131338 -8.36599791727615 0 0
-7.59099368607691 -4.79808251832195 0.0626873707439098 0 0
137.624110892497 0.659455255147521 5.79759177162741 0 0
-222.679579703452 -8.60399693398103 -6.01876944256782 0 0
-3.29999015017348 5.44620676776846 -25.7389840596235 0 0
-229.711522227216 4.23700891940011 2.95817716870773 0 0
179.865240836086 -37.0384515416334 14.893799366369 0 0
138.395235888301 7.9973143577859 4.28006420104302 0 0
-254.611880792344 33.5160362969986 -0.418203637207806 0 0
180.843747892283 22.2555613270805 -20.673153487563 0 0
199.388713788749 -5.48376516586651 28.8058385202772 0 0
-9.10171128635121 7.42497995299021 -22.4371016171996 0 0
-221.264233197117 -6.59570343916608 6.56956373048589 0 0
97.9185084230566 5.75406842299978 0.28304862083353 0 0
112.823761706071 14.4200365311476 -18.2294261132772 0 0
205.12900833339 -34.9998019358539 21.1995775737311 0 0
91.610968501131 10.5755158891288 -22.4838158819471 0 0
196.823229982504 17.0292488097747 -25.6654285178871 0 0
-206.005524434072 -8.37798275726525 -11.5506086544318 0 0
184.474962247015 21.956208347878 35.5206186636255 0 0
-154.596964033002 -20.2467047596124 16.093123475988 0 0
-221.906336891916 5.64322071596138 -14.7270927020931 0 0
212.978744802064 20.7410693042539 32.3009694642341 0 0
-107.304722088011 4.95350776876188 -8.79680964499706 0 0
198.049704921915 -31.4334181888379 1.10218868276466 0 0
-146.968214294827 -17.9901872876664 15.8297868802196 0 0
-215.151715598604 -9.99498940762907 28.9205288248518 0 0
170.568502182632 35.2184504208898 11.797301560534 0 0
-223.254239901774 -34.3056790463499 15.2870076804391 0 0
176.050346503841 16.5415884007251 16.5085338845043 0 0
211.38048410799 16.9272415952539 29.2254200471558 0 0
-48.1401381383707 -0.213503413915943 2.93696938452794 0 0
-135.424995497213 -9.247842289902 -15.0500817777349 0 0
184.883596670943 4.96314987733416 -23.4485102273059 0 0
154.97855368527 -20.8443947238418 -3.87200187891874 0 0
-231.237662330295 -20.6345327208815 14.5562579831307 0 0
-180.053184478814 2.0222436880251 24.5593341170535 0 0
48.7726756389248 8.75595325844703 -24.3268063342925 0 0
-91.3672562532003 -21.202236145798 -15.2342050817614 0 0
-161.27977770405 -22.2174751292243 -5.13216781153686 0 0
-221.49522655828 20.1514099803698 18.9737943700627 0 0
171.4864363274 -21.2541881810854 27.6315108597888 0 0
-211.357276031419 38.9625573065757 -12.5092205564178 0 0
-76.8920540615658 -0.017387559273069 2.4792213397898 0 0
-109.780250050143 -23.0816385403396 -6.49655812839219 0 0
204.022902418522 -13.8013104991244 35.6867071921598 0 0
11.7337348045931 -2.9165542148977 1.00948278081578 0 0
139.39171200715 -18.3289258775194 -11.3583641304387 0 0
-125.315072559416 -16.0559152509659 9.96754235630318 0 0
193.728332863386 -34.5737831350865 4.43303207529935 0 0
11.1726097607825 4.3426708227076 -26.9897564030368 0 0
-67.679693102516 -16.1958206908094 -1.54822576372417 0 0
-247.956435604669 24.4211533082886 14.4221534641174 0 0
-164.335651802592 6.42955735728801 -2.04806713878323 0 0
206.571253180403 28.8542781778963 -11.1079572169103 0 0
110.322897043673 15.3904647463969 -10.4263551213767 0 0
-80.4712933199096 4.39832216297103 -13.1656635431701 0 0
-151.199387641737 -7.56175102791102 -11.0890191283191 0 0
132.039986420509 -1.48472973753525 5.69940320401021 0 0
-216.332657001689 -16.5592110496121 -12.6880363257178 0 0
183.448851247796 24.2546746701689 -20.3659449336776 0 0
182.179427995901 -26.3095696812635 -20.6822359670151 0 0
125.384764579846 -16.9546180822178 0.649912621484947 0 0
181.046820165833 -23.2114679771647 38.9650179935594 0 0
109.559932767347 -7.02632529679721 4.66120987861057 0 0
155.023327683089 21.5550911263283 4.03796671397613 0 0
220.385665769259 26.8171109614799 3.66926123020951 0 0
-53.1245749847161 -7.08782180645588 1.5133724292758 0 0
-1.59026863155764 2.41703980325604 -27.6213492934662 0 0
198.576254927297 -32.2355520456608 39.0377529748074 0 0
-227.495326905737 53.6819505831194 2.40551209451758 0 0
-210.28092016601 -18.236258834669 -12.6385154504079 0 0
-251.847842110948 26.1000320398313 -11.8267456784471 0 0
38.5394553854322 -7.53611805148267 -1.43470903457567 0 0
-228.445696563706 -21.321763804381 27.1527344361212 0 0
138.526933084417 17.3416933529483 -2.9701735945179 0 0
-223.595162061049 52.8458275990433 -2.48843322427801 0 0
188.140679193189 -18.9174309303064 41.6381638987273 0 0
82.8745890079838 10.7691739043928 -22.4219954677753 0 0
-99.1516890811509 -9.98010732298264 5.9857545071258 0 0
50.6536058929822 6.79366548740276 -6.56358231573318 0 0
-113.677557261292 -10.8761519154696 -19.0085386599129 0 0
177.362625744562 -3.32992571837138 25.6774221036905 0 0
-110.803058185199 -17.826449990126 -16.4639517919616 0 0
81.8384950280977 -9.75583974909377 1.21745806108992 0 0
-217.979949165232 -38.1702801636639 8.12206283525831 0 0
-170.199987005686 -12.5929850988868 -7.26797895829923 0 0
156.352695300183 13.2897257575991 -19.5301183596543 0 0
216.390480951248 37.4497938197758 11.1666240056957 0 0
-35.5951159150888 -19.435126544158 -11.0748597807532 0 0
208.599087025138 15.0426426319802 23.0865142820804 0 0
181.674918055001 -31.3669141671984 -4.10022362499972 0 0
-151.404664091567 -22.5751921474467 12.0641849203852 0 0
-219.501014024752 24.1961160105571 19.2817067674377 0 0
-211.012718197735 -20.3471184505097 -11.2311112719896 0 0
165.150550829911 26.1454629398738 -5.80360157359288 0 0
199.379108387922 30.8617214613781 -12.2880258953828 0 0
58.9627525813701 11.2194442736587 -21.1036646763082 0 0
-176.693274513416 -27.7568325339606 13.071805645721 0 0
-117.779886857812 6.2927255664663 -3.53715190586509 0 0
-222.374007224812 47.6147673437424 13.2575194300941 0 0
175.886377643168 -31.7590228767572 7.90410385214768 0 0
-112.721968936762 -23.1511967849737 -1.70655673983393 0 0
172.265578258679 24.2939176599198 17.3447119259614 0 0
-218.312761760941 -12.4006826326107 20.913439181975 0 0
22.1560193970387 9.80829452631116 -19.1887091508785 0 0
205.074190664363 -4.51556427271274 -9.68236209086502 0 0
-58.7052131879413 -10.3713500890894 0.473409967137257 0 0
-78.9785860285225 1.02783059176157 -20.9768627554366 0 0
-192.045824562 -23.9615563524765 23.7606283460859 0 0
80.1884929564753 10.2340575799319 -7.03392550406576 0 0
-247.173076219718 16.739311766712 -12.9978310913096 0 0
53.7054791751 -12.8857108358143 -24.6468795992536 0 0
148.843569274697 -4.72802303768535 -23.267253377636 0 0
-142.985543501026 -14.7967933491019 -12.6204098482359 0 0
-67.3421589497737 5.81283047334117 -11.6988172748767 0 0
-49.3623879715887 -15.3560455841599 -24.3460829762844 0 0
11.67937112269 8.46493311520305 -15.3125069501399 0 0
-7.79121179741697 -17.7189321865668 -11.6655665606338 0 0
-211.698181798368 -7.73338266909321 22.0502281742894 0 0
-201.744436097344 -9.07704091324995 -9.69877033884512 0 0
169.580131732981 -12.6912408023762 21.8578212831336 0 0
-246.141315672292 45.308420384454 -12.3070227573859 0 0
-6.80559082941692 7.29571243636893 -22.9944972649731 0 0
-94.6845718275672 3.85101030628539 -11.5865357443324 0 0
191.710966101142 18.2363290674773 35.3771505196198 0 0
-45.1166968969806 1.99432037636114 0.453134488419773 0 0
192.645147072358 47.2356978682593 8.68408042567113 0 0
203.661789268677 38.1637564786242 -0.403405995407734 0 0
40.2309055686263 -12.8883185385476 -25.2924527305263 0 0
-209.069631655192 -32.8577434182793 23.1706419422 0 0
163.500818717386 -11.038287933593 16.3092155157772 0 0
-174.362323814534 9.51773776223278 1.82487892909304 0 0
-225.356990908957 -0.632752811419099 -8.68576122812946 0 0
151.820497512787 -0.1792158648351 7.85148034737268 0 0
-151.474296561863 -18.4355010054378 -9.239470004545 0 0
18.2825416375441 -18.1460816746995 -20.8823756804725 0 0
123.869240836156 4.08167595161618 3.56382829725668 0 0
-187.904771854391 0.899200354666222 24.1602178312787 0 0
-21.5140524417023 6.30158260910347 -23.4021607364491 0 0
193.098513967687 16.8092486847983 -25.7840073583366 0 0
97.7591591911043 9.06195000411755 -23.2185562553184 0 0
156.988645884528 11.1769911484117 7.40906362669667 0 0
-16.1334300011059 -15.2873629787114 -7.42466666146289 0 0
201.186800685322 42.2239094491346 33.3064444642679 0 0
186.72094892601 -38.7166996752955 13.1251926673347 0 0
158.976580286873 -21.8118135701002 -1.10862826307772 0 0
152.068316983637 -4.86965977987499 9.44879663385969 0 0
5.58654358410737 -12.1322109205964 -26.6343961281751 0 0
-239.45041198852 52.2700685441205 -0.71789088408662 0 0
200.71653592838 -28.2154961292714 -16.3545897795322 0 0
-152.595669298967 5.06608175650231 9.76251245997764 0 0
-154.271685491682 -12.2319011551997 -10.9319517386282 0 0
-173.107904956332 -4.56977663877755 -5.76996503618468 0 0
-6.76027602272987 -14.9323820108337 -25.6775215427091 0 0
-54.7636732577978 1.23884687061372 1.10376792672931 0 0
210.007302886655 -26.9540812514158 0.199699324863641 0 0
-231.578611272531 11.568659368249 9.34076123346169 0 0
-103.971292686278 -15.5605544420858 5.68038259378877 0 0
-205.367791128001 -39.2060819151022 16.0643128770608 0 0
208.409757778758 -10.5536740256209 20.7741537879541 0 0
63.369164541594 7.62747860496526 -25.0800674881191 0 0
-166.605296125707 -24.1249138095282 14.2958216390421 0 0
-196.705571599807 -3.14500133653153 26.4518444103525 0 0
-21.381334567139 -16.7206531289049 -24.5105279482875 0 0
-49.6217081846448 -17.7034974275286 -22.4938561196121 0 0
-194.942222250419 -26.0667696195621 24.7289050222004 0 0
-210.612131825659 42.9476421518747 -6.4073060236898 0 0
-73.645280892811 1.67857239909427 -21.1088977949813 0 0
29.8349314022098 -13.5440519547274 -4.83621729126587 0 0
-194.554166645434 -2.30779865464396 22.7410471804475 0 0
164.031993680005 22.1018034826921 12.022915382645 0 0
71.9162680092089 9.18300738848706 -6.91941210524159 0 0
-108.809670220021 -16.2727565325321 -17.8319439333076 0 0
-107.807836684394 6.44988267205572 -4.53644196462877 0 0
-153.381882811412 -17.1002211032318 -9.603525685097 0 0
104.861589608954 -6.42304877387348 4.18476397714839 0 0
169.658932074741 -25.83888057173 -0.603578210742147 0 0
-74.3508581349106 -5.53636954134336 -25.0059465033557 0 0
88.3903001166372 -0.500219807596601 2.23793698688254 0 0
-218.036275328017 -23.1574019188374 -6.89498814032419 0 0
-210.431814183438 -40.0924353871419 8.63043217520574 0 0
208.941991098947 7.77083415706065 -6.42610961733893 0 0
-121.120157762053 -20.5635419175441 6.45853633333577 0 0
170.041229586173 -26.5014588661109 4.73364202532914 0 0
26.142593494674 -12.594175916449 -26.0380630588731 0 0
-154.302871870488 -24.6566197025725 7.97471729179366 0 0
-72.9614376055689 5.91817745960924 -5.98474851686369 0 0
211.934746098341 -19.7131880409904 2.29840834392841 0 0
173.200149004595 -31.9939305909572 24.0192108184754 0 0
193.486524154739 36.8505116951463 -7.42110779304642 0 0
-34.4334960200489 -2.82619131964933 2.96561115571383 0 0
178.669945419514 -35.9746875746383 13.437713229015 0 0
-89.453229793922 -20.3888409019003 -16.4175345373597 0 0
-185.067463990455 -15.8432169918977 -5.13730666160404 0 0
-98.2903595529421 -22.304662684696 -4.05905031615664 0 0
51.8583818278603 9.55986839192162 -23.4933980245509 0 0
27.9634346339879 -11.3087454252689 -26.6455659804655 0 0
109.496577776371 14.324304422683 -7.68204704864727 0 0
24.1189330480565 -12.3185068353417 -3.92397608719251 0 0
138.408128260485 2.24974917084398 5.49107385824581 0 0
170.865077632736 -26.3924704745896 -2.26881969099659 0 0
75.8864040369803 12.7329194574806 -14.2348207642621 0 0
60.6614429061584 6.40366487065224 -25.8007532432278 0 0
-152.973857402822 6.35047460906033 6.86467602386094 0 0
194.86071698771 -35.2631978601625 19.7361021717412 0 0
-48.0822921312161 4.12254886941384 -3.19117544432163 0 0
-186.249747569117 -32.5690830371756 9.32886623382201 0 0
-194.374522208433 16.5539479697432 -3.06417285608258 0 0
-170.956024502163 -9.79155653978595 20.9119791504367 0 0
-185.685660380323 16.5966389065303 11.3201080341772 0 0
-119.10109651253 -10.2942379639475 10.4774849224972 0 0
-169.157612526553 -20.1450575328461 18.8295444582186 0 0
-211.872521848951 -12.2061603681139 31.3564780650255 0 0
-178.89414295681 -17.7434053372481 -5.53617944667948 0 0
-222.713585081235 52.2216604387567 -6.77402764491324 0 0
160.939172432835 4.27949489329856 -21.6798772523047 0 0
195.890790068931 -29.9336266735675 -11.5367624645397 0 0
130.730706997868 -0.319079914050305 5.25702552249076 0 0
205.649923428859 -21.821773814676 -16.3780669815958 0 0
121.366815436118 15.1610791467386 -6.36583044040476 0 0
-170.140359339405 -19.1582083237602 -6.16828273882655 0 0
44.770142178122 -1.43683545530665 1.71056343781773 0 0
193.468727864226 -31.4718690441782 39.4288615721835 0 0
-209.946697354101 36.3145727208768 9.23336276074843 0 0
-216.806540154049 -33.3829945659835 -1.88512817805573 0 0
180.316169504618 -20.9424726925529 -29.5238547172005 0 0
22.6178618542974 -11.0873767655512 -26.793748586582 0 0
63.8235410756208 0.324789784667804 -27.377209521442 0 0
-252.592734849937 30.6104613886067 8.86902352392349 0 0
187.459429923082 23.6498964588993 -21.089902820444 0 0
161.516768132416 -2.74603846034866 10.8560103335712 0 0
-98.882092325408 -11.0895174259971 -21.3715231253888 0 0
97.8520238915075 -16.9940804241738 -6.48699514105235 0 0
-214.057651535265 23.222132185386 12.5532010194594 0 0
149.875523592479 -19.9267931326789 -0.991135176464323 0 0
-163.898141747754 3.21780855628224 18.9474698391737 0 0
168.789131667512 -18.9032382522837 -21.9598496019871 0 0
193.234523623904 -32.7446825439241 -0.408371813348167 0 0
-233.40129704409 49.9103565911141 12.4717765305455 0 0
-226.883336169181 46.6876590073781 16.1207972144289 0 0
89.7224139299516 -8.65866650825662 -25.8087194330885 0 0
-13.0137432485434 7.45276781312248 -16.9788794537602 0 0
-155.847489720666 -10.6393152160787 -10.4482746249458 0 0
-17.0843977530997 -13.7552470178099 -26.2868681653629 0 0
198.550182182931 -15.1551687273219 -24.2983937292309 0 0
201.022542068043 29.6850322768751 -12.9263687623319 0 0
-204.216302171738 -8.39846973717567 -10.4844395373342 0 0
-211.462277084503 -33.4599115638609 22.8426310306423 0 0
210.904514793485 -30.1608274124748 23.7015803295217 0 0
173.946789168754 29.462580927673 18.9071396912167 0 0
88.5249307802099 -5.1091361711016 2.76073210090619 0 0
191.126492556526 -17.7921723309979 41.6371642103712 0 0
120.709521804366 16.5169937720636 -10.5278238979455 0 0
221.308688240906 28.7427148961103 10.1173914829145 0 0
-233.107825686845 9.58047216968799 8.53266882839645 0 0
209.977606927977 -10.6865823144399 6.02457003603012 0 0
169.713189586995 19.1674583725047 14.7539809127128 0 0
-217.148773628138 -11.051858492691 14.764211098875 0 0
162.914306898546 27.1936411757701 3.62704905114214 0 0
181.181334408346 2.29972474678525 19.7230240785978 0 0
-124.070970972057 5.14205630237748 -5.49212265789783 0 0
-174.7445946574 -13.7412369022575 21.5754949370489 0 0
-25.2256736861062 6.51081783662214 -22.5804141621654 0 0
56.2616283691803 11.4434930557623 -20.1030312978498 0 0
178.368509241677 -19.2972128453404 38.3700904800455 0 0
-162.96489479315 -2.6847322754829 -6.88131941468914 0 0
-95.7282433113165 -21.9065310459107 -13.5839260381512 0 0
-243.392733513201 19.0994256333757 16.0946013561676 0 0
-98.9332099557114 -4.68059385758101 5.97148419517012 0 0
-252.142125676369 41.8017576210738 -0.907522762989882 0 0
-227.070858058432 52.5607871091736 -7.94388932894031 0 0
-50.6146446755451 -3.48364455562713 3.56609294296715 0 0
196.547559007301 -21.6132702609094 -25.3098395084435 0 0
-199.688298530675 16.7187158929527 -6.88774567350027 0 0
174.275045918316 20.852865191636 -18.2410959167936 0 0
-173.220472493935 5.89299180044611 -4.68345841355815 0 0
-237.371628657168 9.98756879123535 -14.1494279578678 0 0
154.937828535293 -11.6763075296937 12.6729055160101 0 0
195.862492917374 42.3880877364057 35.0854803283887 0 0
131.787827055632 -16.8760386556511 2.76297169340757 0 0
155.212403955493 -19.1314639428324 -13.7552415131309 0 0
-182.75339673162 -16.5423099298198 23.5326007247156 0 0
151.82083910066 21.8389758334666 -4.44066207222259 0 0
-60.4849290502037 -18.3251610229299 -21.4566591329524 0 0
-241.123462184314 24.6196024718473 -22.2879702494161 0 0
90.4174055572946 13.9630483030424 -14.5311143970677 0 0
24.9888068493223 9.64535239517919 -16.8217998078468 0 0
-99.9119027016361 5.84454289636719 -2.47604350493407 0 0
195.526970853085 18.2776503124229 30.93378079285 0 0
-65.822755708105 -2.34960993451945 -25.4151101054925 0 0
-253.599027797595 29.43775147033 6.36930738355995 0 0
-10.5422129245392 3.97804564235305 -3.62615386305213 0 0
154.869174549925 -15.8373018790547 -19.3144460052729 0 0
-179.461887555828 -9.87864194286669 23.4887504831433 0 0
-220.535804033286 0.926512349644296 12.7413352846522 0 0
166.145188598437 -23.9913897555321 -3.35124296667337 0 0
189.516784082198 10.2271265110478 16.854781341072 0 0
-140.803941882469 -3.04699938790565 12.2439367242229 0 0
171.344479981831 34.685647971 4.61111146921753 0 0
66.4119651045041 -4.29440052485843 1.31204043400405 0 0
71.1308195142616 -15.2954114163222 -4.44896345232609 0 0
82.8125264534819 7.40165829785166 -24.6238994461561 0 0
73.0444087665507 12.4477428343588 -13.878031933312 0 0
-226.0292113045 40.0419365699401 20.5394417515368 0 0
-189.358529403262 0.916953050902296 23.3225481214156 0 0
90.8042231231662 -16.7273490190797 -5.97353041469143 0 0
160.234060089295 15.99188212304 9.12403202122308 0 0
49.7959556172423 -14.4365987636521 -23.5950504886014 0 0
-215.197623930424 -22.3267687180442 -9.2077282000591 0 0
195.03674080142 -3.5580386425607 23.8507530676006 0 0
176.744338332256 -31.569840131732 5.13049656928324 0 0
-92.4485415152019 -3.50740874220098 5.45829377534774 0 0
22.6866693848208 -10.1354926076495 -2.84565780094201 0 0
-86.278549410292 -17.5750222785203 -19.8462476644448 0 0
-7.13357942865201 3.89272138062901 -3.52715132732487 0 0
-232.167742560046 28.4073398903729 22.7804540676354 0 0
18.0063004739969 -18.803744087554 -18.2907159311499 0 0
-62.7137535696566 -19.670732533411 -6.51342807036175 0 0
-12.3890142884309 -6.23324352500717 -28.3544749223026 0 0
-128.048755475823 -5.39236242775544 -15.1785304710435 0 0
-171.618012612489 0.63997471573706 -6.89140867621451 0 0
182.268665734696 43.0806373062045 24.6357574055816 0 0
-58.2028149126861 -20.156970992356 -8.47780152628828 0 0
-89.3720495599439 -8.04472145662895 -23.0905779328829 0 0
-62.5402159605968 -15.8048194822776 -2.28032873508698 0 0
100.951477291726 14.766705593694 -12.4891369406835 0 0
-145.105222330733 -20.8894871439139 12.3116515639075 0 0
183.406835365405 -36.9042107057438 10.8447996453517 0 0
-75.6578802606256 -6.63134865829405 4.94398154845161 0 0
-56.2526181798749 4.41834462228387 -18.6576034526718 0 0
-212.045095070552 -27.7890741393983 -5.41265650519343 0 0
54.321344495251 2.94679800899993 0.334167848521406 0 0
87.5069077930967 -8.214273400781 2.11173262416114 0 0
-210.087062216536 -3.02336195171804 -10.9989261747908 0 0
53.0775645951008 -3.50551149789854 1.33566202948139 0 0
-227.415245474706 -26.7219719602976 23.4800035497066 0 0
-156.200374997756 -19.6046381643848 17.4892176518642 0 0
22.6044593729564 2.07377442310573 2.35823682000463 0 0
-184.39910102398 16.0024564689303 18.6227692104466 0 0
-129.641675690518 -21.7270859190727 7.42094014944751 0 0
-212.239342818248 -11.0048956379581 -13.4898191437066 0 0
-206.081913303368 -26.4877469852908 27.7050418951207 0 0
203.194289455202 -33.5488772180166 10.4739490531495 0 0
102.066533416489 -14.3176955430336 -20.2307274427977 0 0
-201.678659518179 15.0646342664704 -8.69726139792406 0 0
148.77975716894 17.9762565826252 -15.0914476762274 0 0
-183.508778271514 -12.9639575449609 24.4885592019105 0 0
-227.203521782935 -23.1405147890204 -2.85309178960568 0 0
138.209509071158 10.6084411297287 3.34422741407971 0 0
-118.417284219018 5.24733845979687 -6.4154920873629 0 0
150.550454561013 -18.498818047106 8.57171486424085 0 0
174.292505071241 1.11087888983224 -20.9666358128052 0 0
-236.216211458877 51.4281984022756 7.2679065143773 0 0
-169.419794725329 -26.1833749014864 12.0235725734581 0 0
-224.09934671632 50.9368462402719 -11.769631293617 0 0
-192.388573955466 13.8186891818936 -4.24973639138798 0 0
-33.7070192645339 4.24667681997614 -3.02947102706819 0 0
200.652387252495 38.007752619322 -3.19601738933186 0 0
214.177256868813 16.6368517302074 24.8525866872882 0 0
206.66044802647 -26.2006852096421 34.7424056943609 0 0
169.474304848112 3.83916469201143 11.7262742300263 0 0
-226.645291111388 4.18749627369776 -13.3708641385603 0 0
73.5474686980554 9.36187184486527 -23.7128511191576 0 0
-187.097036593286 6.13771172814474 20.807116560794 0 0
166.39887429198 15.3174909247734 -19.3464415859546 0 0
174.537468480244 1.16921252828822 15.1028537776481 0 0
-187.26418310942 -4.71246446683977 -7.28938580471743 0 0
116.143495361359 -5.00969622693459 4.96294097250228 0 0
-220.401169688344 -12.8050017461232 31.4122571623274 0 0
205.823531792832 -31.6370068687378 7.0447644307564 0 0
202.141058492219 43.7051431588029 15.4296685518427 0 0
218.736325211255 36.0773203403798 19.3009207060298 0 0
-1.80996117622295 -18.9616513852833 -20.6794545525634 0 0
177.573280367023 -2.07364069248736 20.8782945629339 0 0
73.5871226801075 -15.9159775208903 -19.2303815204242 0 0
110.597800120815 -0.814339867874393 -25.4582048474591 0 0
-77.4220447441195 4.27581942245439 -14.312606252644 0 0
-163.819940329364 -1.03720822297247 -6.26177230367891 0 0
-174.661603653226 -26.190640742198 -0.599564848303185 0 0
201.484196163854 28.1455834619765 -14.1265445291268 0 0
118.037236366595 -17.5419277580504 -7.08577000301156 0 0
155.137250568116 -20.4934450447049 5.83010682067713 0 0
-231.314835749391 47.207176639654 -18.3235190004304 0 0
-253.896071143518 29.6412250921539 -7.44897457286482 0 0
-222.631614170281 7.98196423501629 13.9397697666494 0 0
171.590867026694 -8.72426558696424 -25.7012235112583 0 0
-1.14726343597196 7.3985921173524 -23.7690857450173 0 0
173.488262139038 -7.86045606276181 24.9927990328308 0 0
-122.182984558853 0.514904649734591 -11.6591833707706 0 0
-230.048066812743 -20.7531616522604 12.4747172565955 0 0
52.9979159112413 -17.159594374445 -13.8172670369695 0 0
49.1083510615733 8.1164479061034 -8.82343532937041 0 0
133.195901862863 3.49313939843765 -23.4237001565931 0 0
184.385354990051 6.00472863332135 18.4017995540536 0 0
198.5692210127 -11.6813046451973 -23.1501810534628 0 0
203.726037682882 9.24215426602226 -18.5157419081088 0 0
-214.177242859043 -17.0447156985115 -13.3441963189886 0 0
-223.623874514506 -3.07797774924371 2.36719665538587 0 0
5.72229638526661 3.2473486049987 -2.79409607491967 0 0
141.587155030003 5.91615590828381 5.0932692569779 0 0
-106.597620895986 -7.16509270093036 7.58384953979348 0 0
196.155897237756 2.28544361665114 10.0012097163411 0 0
-206.284983070729 25.026695235772 -7.62045841999289 0 0
-217.308887009424 -12.4598905538116 19.1752456129083 0 0
77.7533492845077 -12.6915100620019 -0.612766565438582 0 0
-157.965970970601 -15.3612608922933 17.6779220405155 0 0
173.947909939984 -6.87467102765436 26.8202227730411 0 0
59.5468381313913 11.8192167785185 -17.8296605403069 0 0
198.725430155578 -5.97370126145422 33.0500757125405 0 0
-1.37015815303697 -7.01691830630558 -1.46680606580514 0 0
12.0371632687268 2.69492494116365 2.01657912250838 0 0
190.865818257239 -10.5802628119597 -26.8126664644572 0 0
-90.348399630976 -10.6203559656523 -22.754993188538 0 0
173.787488434848 30.6554590337916 -7.28956066925632 0 0
-231.242468772791 -24.1568219341004 21.4950272206047 0 0
105.990026585619 13.7372677477143 -7.24346289915366 0 0
203.973564332273 2.38208753203406 -10.4800625390074 0 0
-217.440381924707 -11.1322795185445 23.4962485225935 0 0
198.764699309199 -5.51791172519748 26.2749226616167 0 0
-173.023619816662 8.24792801065977 -0.0838444083510956 0 0
73.4397706674149 -16.0609985614986 -6.17628806473716 0 0
114.215379604239 10.7666015200575 -1.72832539761734 0 0
-207.73702337638 -9.37990110414257 30.8056474291653 0 0
-65.4337149163737 -6.84528302456615 3.69718703218428 0 0
92.0770096373243 -15.1455738496569 -1.59598653252183 0 0
-232.701685425231 34.9666697416985 -24.8376338774053 0 0
161.079393386144 19.8426515276636 10.4901080773514 0 0
182.791866314722 -31.0158116565703 30.6104590596906 0 0
-128.245965255184 4.60054985725129 3.84653087722214 0 0
-186.895186410848 -19.6862024676201 -4.77057373262074 0 0
-17.1989329793284 -4.00094570693182 -28.4638244358717 0 0
-3.13226655229762 -1.46148600940437 2.50566393081641 0 0
-178.189618442214 9.44638284657444 0.517640816559195 0 0
118.215203585923 -7.93228044889712 5.75274485840109 0 0
72.2026268912895 12.2606622860575 -19.7623630984206 0 0
206.920703952755 41.4693127311545 31.1356177076249 0 0
182.446287192039 -23.8951193030547 -26.9611157430639 0 0
156.113075835991 -20.9452470294126 -6.12931029497701 0 0
195.16121634902 -14.1910064792802 -26.2381148244289 0 0
132.957124118138 -18.0581610634554 -10.7124318181462 0 0
-216.648423365966 22.3978830980919 16.4128202950249 0 0
-136.036486958587 -0.195932154861417 9.90009706919581 0 0
-60.3680144420715 -1.10363471164201 3.36383647796585 0 0
11.0394430020423 -5.51808896671859 -0.606058942678082 0 0
179.937970722798 -10.5000350075864 -27.4159695034568 0 0
43.5256881545333 3.8375988563131 -1.82992989271985 0 0
205.622763000362 0.0942098813244247 -5.11168891039877 0 0
-52.114810540432 5.14542813553337 -16.1844721095072 0 0
218.979622685901 17.3868899253995 5.2079839294688 0 0
185.989046742345 -30.9567594894502 -6.87460454099636 0 0
171.40596062987 38.3892175294389 15.1349365810621 0 0
-206.755386095045 -11.0813291301614 31.7543063698549 0 0
-24.6899926097358 -20.0248630324272 -14.4643060080062 0 0
-147.380304784018 -6.77756046405506 -11.7606844816605 0 0
-240.597421067321 49.1666954441985 10.4764555139356 0 0
-164.451675249975 -22.9504838418848 -4.15582654852542 0 0
197.299891066604 3.44075664320177 -18.9405127699341 0 0
198.872054011006 45.0153578796964 9.17242811431027 0 0
166.519306446894 -9.56837180614603 17.0590024423137 0 0
23.4235699641996 -7.32006380229562 -27.9427934872943 0 0
-200.460891588612 -30.1524856766348 -4.39386212303693 0 0
-229.144690446194 35.7939739243823 22.2150101403299 0 0
210.826572348052 40.8473395742185 20.183982978891 0 0
167.691485800192 3.66508082422517 10.9796833325876 0 0
75.3045318619978 -3.95694880071125 1.88174449163817 0 0
-250.971157362654 42.9566329856894 -5.64391483750123 0 0
-237.279214998347 27.9109683191234 -24.2762576122692 0 0
211.728270833269 -29.3188278461118 20.6327423685186 0 0
34.0225342512015 -11.4141530503603 -26.4025887195801 0 0
174.973256599043 16.1370160537994 -21.0249711717867 0 0
-238.918225167004 52.8076350505775 -2.69889839793644 0 0
203.925510148389 -2.13318894065813 7.32099604120422 0 0
-53.2054851492555 -11.2480546650914 -0.862758598647698 0 0
139.100441741892 13.3951638516835 2.09534513048854 0 0
-124.67442706449 -3.9532345815538 9.34964234000713 0 0
199.408890213007 26.9386790591203 -15.5750029846226 0 0
206.11554576878 5.85387007927421 7.69942936333604 0 0
-79.5154131568799 -12.2078437874475 -23.4397910547645 0 0
-226.265942768322 -14.7488476922756 19.4340980177454 0 0
164.455314662219 8.23422412109541 9.35967698197313 0 0
208.719951625578 -28.871296609691 -0.952720585131409 0 0
-249.099056604358 40.9216914009678 -12.8135363202727 0 0
182.153011418781 48.4284800681419 12.9870969563259 0 0
-52.040162198384 0.838490570529404 -25.3835594246821 0 0
2.36281533475041 6.2976737453756 -25.2870711568584 0 0
-117.491083374494 -16.6122743231408 8.15745921524555 0 0
112.014005703021 -17.1205538378184 -4.20797692795809 0 0
182.20286849757 -24.4109520879704 -24.9756057017774 0 0
-228.468382550854 -27.7412116047614 20.9962715230718 0 0
210.894988347846 -28.2982145871089 5.93802587683396 0 0
-151.996411101018 -24.6765022877659 1.61225490927404 0 0
146.165333002219 10.5194693555806 -20.8482485947539 0 0
125.162629543021 -7.129618438258 6.38656909410214 0 0
160.450439338609 9.9516388867396 8.12917644696259 0 0
-13.6576326548602 -1.10052670075846 2.5128673109787 0 0
61.5431852388985 -13.6384053524563 -23.665726746467 0 0
16.6446463399858 6.49252498543759 -25.6545903878592 0 0
-215.242452043073 46.9633260121562 -9.99585031167693 0 0
207.074784482751 20.2356671068002 -18.8175152629109 0 0
-226.791168825352 0.593206020972678 0.567479696331769 0 0
-166.568614628756 10.3831969024985 8.80965029578673 0 0
194.26735643971 -33.1634634286347 31.3586679866951 0 0
196.643212024545 18.8766285439767 37.3217930454694 0 0
-153.050408367927 -21.3629076866704 14.1355545695166 0 0
-176.620594197323 -25.9255095148844 15.8840860661149 0 0
45.1643452297792 -10.5426953639047 -2.08520111527787 0 0
-243.955032448988 49.4800333770401 -6.57137741731551 0 0
-205.601173071609 0.705713062504848 17.6845484054853 0 0
-203.051092731577 -36.3929630035299 19.2376444345008 0 0
166.470538953865 -23.3894103814314 17.7365273976091 0 0
96.8487073900274 -14.0206007572392 -20.8162299781424 0 0
147.347168748515 5.97499592617175 5.76911122964951 0 0
217.267678722279 22.0556815744387 26.0376103975152 0 0
125.413832165255 -17.0741731961483 -13.8584948229428 0 0
-23.5651331911388 -17.8809043636792 -10.0791155779233 0 0
175.458062092388 -10.0448841415246 -27.2386083822131 0 0
-9.66430917650455 2.48566978058443 2.28402679933001 0 0
125.549695459312 -11.0272471129161 -22.466261073886 0 0
172.265942033592 -27.9187268670907 4.60003549789784 0 0
210.345047153571 30.8892392520291 36.5820513200431 0 0
220.603521718201 30.1469153190813 4.10042194181206 0 0
203.418697253342 7.54807048930509 -16.9560076342048 0 0
201.703821627135 -34.3569406938853 27.1101028834712 0 0
-45.6059743205125 -15.541087145492 -4.83742002913513 0 0
-155.916996995076 6.17137213244035 -2.11681366598986 0 0
-168.177294918435 -1.66976279669978 -6.48208304454357 0 0
205.541993632167 -32.7776337640523 11.1515879875615 0 0
137.951143012822 -18.5095098741176 -2.6760089046533 0 0
126.186896659057 2.39540987610055 4.21639252315046 0 0
-82.8456296089785 -10.9105074912093 3.19006852915015 0 0
-228.681683153839 -31.6960870718783 13.1799042365594 0 0
-43.5356861809226 -16.9977369457349 -23.3622836202668 0 0
-220.416327954703 10.1945767094947 -15.402921897953 0 0
126.906978244218 11.208321263676 0.235530455982419 0 0
203.677065194172 -4.71733670832572 -13.0443440533692 0 0
-27.7847361322724 -15.7052200886017 -25.0815280128709 0 0
51.4086202718483 -13.4105049874602 -3.5146841770042 0 0
189.217303933305 28.2035829359476 -16.4189466431966 0 0
-95.152703833199 -22.5700831817026 -6.4259163467513 0 0
37.8821714542606 -17.9229647600283 -14.4645671566788 0 0
191.06500974572 -33.4625383888169 0.606029178365461 0 0
-144.112618817868 6.72946785027058 -0.0346097787142893 0 0
151.755330913411 -2.67775618351472 8.61523047847845 0 0
-160.501810952564 -16.0924580241134 18.1047390711089 0 0
-225.650260505287 -17.8665243878102 7.11338646777457 0 0
-220.609109674943 17.8135925591848 -19.0157794867205 0 0
-214.770809839116 -39.1114681924464 9.17820875312018 0 0
-159.308972815227 -20.630299468219 -6.70012266306895 0 0
