"x" "y" "z" "f" "a"
-170.180391169261 22.0198165223845 -9.56429382566921 0 0
-134.403592305453 19.0188253685199 -11.3231973255403 0 0
6.81219532296419 9.52103530980391 4.19040432238469 0 0
-22.5813269694639 6.82868398593781 5.62745583486406 0 0
-217.087187897544 22.2919367308525 8.59353376934815 0 0
73.1645937011671 21.3220332803186 -14.014351241394 0 0
-106.541053515511 24.6280694190723 -1.69075089414751 0 0
-141.36726053592 -9.14066160144779 1.14171439639107 0 0
1.69687163250745 -2.74367593037414 -0.795269473606552 0 0
-203.318936659284 11.4504853555762 -11.5371403742837 0 0
-149.66280968894 25.1190354962563 -3.92463337950112 0 0
-209.695221647966 -49.0636290339243 -10.9010241312148 0 0
-60.2563625396266 11.5625151183814 7.143841141883 0 0
-197.00646006924 -36.5978315376268 -15.9460906995382 0 0
-170.834291630659 24.2735119373871 -9.02363058799237 0 0
77.4990263314239 17.8430407626192 -19.6183889397505 0 0
-225.421735405544 -46.8156664202415 -1.66631680337132 0 0
-217.694725978974 -13.9301167015783 14.3820212718681 0 0
-154.877864316438 -11.2447211508907 2.49032936250882 0 0
-210.038063135581 10.0992403667672 20.0019844198777 0 0
118.526296763681 -21.7640819330793 -2.13032302068086 0 0
-119.698908008668 9.71269955370786 12.6275470135013 0 0
-158.319600113361 9.3344890894303 20.6709903377952 0 0
18.5774929442276 -7.5067069169621 -13.9140325491386 0 0
57.3720589201134 18.7366586995538 -0.495993334300045 0 0
-214.245859011869 -8.5320641755011 -12.1461771084446 0 0
-224.700936768163 -43.6413783055208 -12.4783445204769 0 0
-224.951957753849 -31.3628650588594 -20.2476615275989 0 0
76.4060051986141 -9.19525873005814 -1.33974561502556 0 0
-211.589943793086 -26.3237678938018 -25.473523773197 0 0
-231.499872690222 -34.2330283927053 -11.8994583684564 0 0
-131.468452259989 25.4090695367255 5.65394604325565 0 0
-33.9209908046567 4.9503908569779 5.10981983309251 0 0
-145.213697596205 5.05227334062137 -11.0690485975342 0 0
-40.8847010592094 19.1141433165724 -19.7948842796766 0 0
59.2909629373491 -9.12677377711236 -6.01216891375855 0 0
107.866120161463 22.7750032044112 -3.3091506374829 0 0
57.6951458492791 -9.52169541288777 -15.8720077598828 0 0
88.6312875143679 0.85212171706559 4.67383176418789 0 0
-232.736323022609 -24.9035116612837 5.09648677196088 0 0
-188.840738202315 31.1438770122566 -7.32776999755453 0 0
58.1002967163759 20.4818301543005 -3.59740379838436 0 0
-133.671991262573 2.55657999303936 -11.9187890195212 0 0
3.63725656360051 -7.01773967115478 -13.6719704350223 0 0
-208.602616662443 13.7031078053765 6.36496597160286 0 0
-226.991155812259 -21.622005293971 13.2190974908195 0 0
43.9295909394463 20.3773765770638 -17.0018564072748 0 0
-83.002339311139 19.8351642340611 6.56945952929196 0 0
67.2700959520774 20.1548492566758 -16.963190011423 0 0
-200.404906820673 -48.4159791856568 -2.35768184699445 0 0
-211.32219880277 -43.2236099124391 14.9558290957345 0 0
23.2348257734201 -7.82504821121984 -13.0761973985629 0 0
-106.626191645299 14.5585278260032 -15.6869162933535 0 0
-104.959199128574 -6.16356201691077 -1.94098597630238 0 0
-231.922307923845 -22.7552769764399 6.38442320341665 0 0
-201.405930565851 -33.9682212273564 -22.1751272320787 0 0
-28.4747868160984 11.8935487717675 4.03929111219766 0 0
92.6860174631798 3.94867380613728 5.54875070365176 0 0
114.129170570845 -20.1043576057629 -8.02458529782355 0 0
113.900062363613 -5.96567985303886 4.48916473260226 0 0
43.0674237166543 -8.69205057652059 -10.3977436614391 0 0
-193.944768330405 4.62698801816939 -13.7599132913029 0 0
120.430459253148 0.414851256753724 6.32577213732577 0 0
-211.028807554362 -35.4827403414402 19.4341510086635 0 0
-135.41884522943 -9.01727816664027 -0.909105697573879 0 0
83.5732410790499 -12.6506553763652 -5.47027667755194 0 0
72.568193498248 10.230234676536 6.000490183991 0 0
39.5495546791937 -8.48490175660041 -10.6480877225751 0 0
90.7082632579993 6.34228746147363 6.23697596509901 0 0
82.6522286740578 21.9267028227158 -8.54449025496722 0 0
-157.561894817673 -14.5665789386908 6.97824089152384 0 0
-70.9243328086725 19.3715702350215 -18.155211550285 0 0
126.351848012954 1.23884877762092 7.31778246863139 1 0
-85.9311192666836 -5.34753448848465 -10.8950976698106 0 0
-163.247938909508 28.8688208519925 6.106431506247 0 0
-199.176625367053 3.96825198167244 9.90126325992105 0 0
-196.948372337307 -39.5538092490581 10.2821918262828 0 0
-207.787983454671 29.6358844755094 9.08763964955936 0 0
85.4228867585365 21.5865939502542 -11.6160971681227 0 0
87.2546612064628 15.2538833497287 5.31798808041534 0 0
-132.72326395064 -7.08156807154771 3.7848623152552 0 0
-70.2966554036262 -0.122243213236466 3.0832718294096 0 0
-16.2523787661584 -5.79735930421893 -5.90456740962446 0 0
-156.849007881165 -10.2708641203926 22.6207059323655 0 0
-219.378248218675 -28.1132853691251 18.9152603889748 0 0
-29.9577040245554 22.5914645766207 -8.78587273277567 0 0
-6.05231908747472 16.099646827442 -21.0077886540922 0 0
-191.687458032171 1.06066402864274 -12.2728627340334 0 0
80.8698722277321 -3.31986148984001 3.01972866119939 0 0
-217.361801047588 -36.810278419168 -22.6265037933277 0 0
-140.300510398316 -9.19482684427071 -0.959905220061001 0 0
-191.96213583992 -8.41599754275485 -11.6793031261907 0 0
-198.642907196078 10.3513865218803 20.9753600656685 0 0
80.0123753991247 -10.594571200616 -2.5549117580566 0 0
-91.6211338536318 23.9125168434328 1.78554103074509 0 0
-183.850681531074 31.2134142617737 18.184644570889 0 0
-94.0773298698573 19.1608481050215 -16.0283546318889 0 0
-55.9390148641793 6.09496340201299 5.4296165516982 0 0
-179.7588886236 28.1029523951787 -9.8210653789728 0 0
65.1578405354188 15.8378745039667 2.90967920283094 0 0
-230.650742881087 -15.4513666033672 -4.1487283053538 0 0
-98.3197576954272 -2.29095935322134 3.15570383401857 0 0
-179.952413684505 22.1419674709419 23.0251768108214 0 0
-179.107626428176 -14.5733894022273 11.9136547119032 0 0
-192.230230691035 -27.7980646319609 -11.1594414741936 0 0
-19.9146507422822 22.001006066774 -8.3797499254162 0 0
67.6607989562505 10.0275891431985 5.71305292109254 0 0
28.5341968519006 -5.90418514353291 -18.3271344715716 0 0
-54.8848162202471 10.1090140035322 6.90545859870422 0 0
-211.731888807986 -41.5838359889051 16.2398578746249 0 0
100.512093685155 6.19833381582269 6.38588211118166 0 0
-9.57381885612856 4.94414468206396 4.82014878850536 0 0
-88.9519088579576 24.1881059257689 -2.00532149973064 0 0
22.2030458911418 19.3606965450252 -3.68545670565483 0 0
-160.366900788692 -16.5374560334319 18.1025546954757 0 0
-34.6174192271767 -6.06028350380651 -13.6637219475376 0 0
-187.330127028801 -0.89174233951323 13.991838107088 0 0
-198.697774930626 -20.1943861040742 -19.2042654883445 0 0
13.3935641733294 3.84274718021809 -21.9968328084352 0 0
-174.741226215931 5.0587961129135 23.7731013289722 0 0
-159.957309781111 19.4218002850678 -10.1379040980419 0 0
-133.285374359244 25.0170742928168 -1.73720606379206 0 0
-233.678975400292 -25.2095670786481 -7.48854363092616 0 0
-93.901063617487 17.4007830284467 8.17991255496317 0 0
-46.8294312766321 -2.14818326024559 -0.364781118658581 0 0
-199.993386621091 34.0042522242085 5.38279550779014 0 0
-192.708044921078 -9.86758017250703 12.7897188713618 0 0
-113.204153455874 -4.05619028607457 -11.3045602508197 0 0
-148.561999648467 -14.55745815985 17.2059664914227 0 0
-195.722696247615 -33.5908965463747 7.31013924193858 0 0
52.5956533409904 13.9064854582872 3.33584902792711 0 0
-55.6543026239665 -4.11392763938765 -15.1033439499602 0 0
79.9498744891293 0.982576968678346 4.41195800187705 0 0
-217.066514778614 12.900119988845 17.6512889038203 0 0
79.9213621394949 -11.536999413728 -4.44100479702481 0 0
-193.648208816625 -3.61402797218417 12.7856325873876 0 0
19.7560616591153 -1.38983240552111 1.53301712709347 0 0
-193.48708668084 21.3630101141553 24.3028907441973 0 0
-170.445678053783 27.8579611044211 18.4304781159371 0 0
-99.401139689487 -6.0156167129499 -9.18597204455874 0 0
-170.163976026511 30.0987858576706 -3.67035182510045 0 0
-155.28782762738 -2.84508691370311 -10.6722993596299 0 0
-212.118475083529 19.7310761161248 -1.434435809623 0 0
-153.87692908259 -16.9109392425366 18.346539788756 0 0
-77.9090390949085 0.343562321988725 -16.7422952423468 0 0
101.039625242825 0.706569543548863 -21.0612599464798 0 0
-59.3628512930375 4.83413965287698 5.09755819476501 0 0
60.7485924866329 -3.14970135506662 2.31812002986714 0 0
-170.434258802189 -0.641265304080837 20.7974481080798 0 0
-1.92494258706505 4.06503343436028 4.66210094484777 0 0
-67.7937887167723 7.73260828482414 6.71149727339522 0 0
-222.227361734651 -10.6733267362038 2.59949022966182 0 0
-153.961761108109 23.8163018137723 15.9873391570326 0 0
-55.5157391636781 17.0977965549342 3.74041855305234 0 0
-198.692434273866 -47.1993191940829 -0.725456507409008 0 0
71.6489716112765 -7.34767895064502 -0.0724070592338912 0 0
-228.571184378646 -21.0738809815659 11.1717144981876 0 0
-224.607458340832 -39.5555982413327 11.9271281207954 0 0
-223.012544317118 -10.4613068372966 0.650418996725479 0 0
-197.973792245836 5.50650281894614 10.3882862249503 0 0
-52.491591041804 17.6763116535697 2.72533899883612 0 0
-226.167176756693 -44.0550084158864 4.77892302300834 0 0
-28.2528492805119 3.72314906395739 4.4736216228985 0 0
62.1547466652399 21.7975135308033 -9.75680944312107 0 0
-196.360933247653 -18.671749315749 -15.0284930368966 0 0
-205.600205771725 30.274321619938 -2.6792644686779 0 0
-69.7434617748705 22.2512054424203 -16.210955875015 0 0
30.4780618507586 19.4083931374856 -18.8367333516539 0 0
52.7235556000322 19.7304387328563 -2.27790063640895 0 0
-167.27001333295 -14.6877327959738 -0.209148649105322 0 0
-171.201681515929 24.4720980673821 20.4192791544186 0 0
-187.084256954265 -11.7176957099369 12.4550087894449 0 0
74.2903277828939 18.1740755942497 -19.3503964937947 0 0
-120.467579610307 14.0061162487782 13.1267459201609 0 0
-185.141823064479 -20.0861141820043 -6.97598952127965 0 0
22.2568004407037 14.3518308577372 -21.6600615225506 0 0
-30.6838051970114 6.60100498523551 5.67079117841276 0 0
-130.473537537894 22.4858929044528 -8.85357121800621 0 0
-41.5512807427717 4.68483861092292 4.65776120531907 0 0
-187.1958923738 37.56298814611 6.35283695342614 0 0
-42.9561754900703 12.1213110777158 -21.0445091374065 0 0
33.2612692772438 21.7275383577057 -14.3071520578615 0 0
-161.275821106095 -14.6570175032293 19.4079727124409 0 0
-202.005665402006 4.60520937985283 6.8092467549807 0 0
104.532102010013 -13.1239246504174 1.18836296808682 0 0
69.2032048231815 18.6862774719711 0.451611894331761 0 0
-94.3775056691226 23.2331773266978 -12.1406662435415 0 0
-193.628967136226 -40.2677462287593 -9.56816457880755 0 0
-168.615123984532 -7.5287703310168 -9.21310441732743 0 0
-190.917668590573 33.6003156763818 13.6367992682869 0 0
-186.133901151602 30.7625575222239 17.7759438270763 0 0
-80.417210382169 6.10505560184739 -18.6559739151542 0 0
77.0938295216508 21.4455387722381 -13.3419587444026 0 0
25.9717340113464 -6.90650380012718 -16.6110830935091 0 0
-196.900622593325 -27.1620390942343 12.0848288709689 0 0
-195.032683011893 -0.65936880473958 12.5678034458033 0 0
96.7084639666029 -16.1066886303599 -6.95110741163429 0 0
82.1519603552548 21.7805656912856 -5.97716103337596 0 0
-170.732101803957 -16.2222157775271 -1.05269745748141 0 0
121.09721838239 11.8268041058534 -21.5091175833993 0 0
-29.9721928465584 4.6213097805389 4.88840187756589 0 0
-144.913684179116 8.57234646966829 -11.138152401389 0 0
-197.844443134851 35.1335958280323 0.668974617167742 0 0
106.097123507443 -9.86882428297561 -18.8290957855761 0 0
-165.620452855751 29.3466639227145 0.374469569592852 0 0
5.92210180133509 13.1758455238918 2.40341500334956 0 0
-172.507281290505 5.20108367509885 23.754338637618 0 0
-87.2238172926387 4.17024996238239 6.75198059913026 0 0
-223.276636042631 -20.1156770259032 15.4591006677211 0 0
48.5862656284643 12.7278435372859 -22.204875723487 0 0
-190.412966981373 37.6081990003056 2.68981060173863 0 0
23.4899298557875 5.90365395152871 5.22411697521031 0 0
-81.9726880330208 3.45063384260339 -17.7545086228898 0 0
-192.536162787556 10.6597614946682 23.4404738515214 0 0
23.8046668945345 0.318559679931944 2.70115470980576 0 0
50.3743060968708 7.48977328008086 5.50171906767678 0 0
-97.6494052457738 13.1896477487141 10.0192927667256 0 0
-184.51139011795 -24.2747510222149 1.9812145724152 0 0
-186.411112124657 -9.91264241407398 -10.5299212125539 0 0
-54.6435010187045 -0.743147296843801 -18.2854303531269 0 0
-132.199616726958 -1.06069703636163 12.6760644238164 0 0
-161.040306777633 -6.43040232801242 21.9879212498233 0 0
-94.0966402229847 10.7384375700954 9.69291010098055 0 0
102.896189575048 -12.4545071185789 1.19489665607197 0 0
39.217724128234 -0.643233408166029 -21.7429546255672 0 0
-211.022615968237 18.3641572363853 -2.41056149549157 0 0
-222.515244346317 -15.9961771126347 -18.751394985544 0 0
-186.127703474588 27.2123562031868 21.1558043640603 0 0
-83.2818551149806 8.9433346118609 8.6030498818984 0 0
-133.824157432286 14.298566112273 15.1146183954616 0 0
92.4877944104884 6.52405165235807 6.3310379240482 0 0
-198.641294996874 -37.8799859918033 14.1304168367098 0 0
-61.9725909148202 13.9967256009966 6.43843139430631 0 0
-171.41987768101 10.13658875127 24.3588582530726 0 0
77.7871469147489 2.90592893367933 -22.2345220777653 0 0
-202.01465227838 -44.6306645659241 -15.5129955531232 0 0
-229.889884104417 -28.2919770536965 -15.5137028751043 0 0
103.965169543112 -2.38741179168769 4.47285802038525 0 0
-228.824477505456 -32.7719281313323 -16.0593360525143 0 0
-34.052267915555 23.6094522503742 -14.2973377662995 0 0
-217.577926364578 -35.1272041769082 18.2541673957998 0 0
12.8394273605553 7.37809294970747 -22.0093024752041 0 0
94.4426151415653 -15.7260153160037 -7.60147555860022 0 0
11.9602587235615 -5.68798845571983 -17.3068528515301 0 0
-179.458148708141 14.9980026506881 26.3839883276795 0 0
-81.452975887727 10.9516380768519 8.83696253475132 0 0
-214.710318675553 11.9727992735445 19.6620288352685 0 0
-220.298437949192 -10.2558877971374 3.62217400232928 0 0
-214.182043861202 21.9983609689793 15.970723817984 0 0
-175.363395335156 25.4420757595569 -9.14157880806606 0 0
-214.023320039793 -8.99894155957158 2.11087448285389 0 0
91.5780095759749 22.1931967941766 -8.76645666667919 0 0
-192.549993422937 -32.6239312468497 -10.4173560378034 0 0
-224.019058780571 -23.1177902507589 16.0629901675631 0 0
-135.195463811154 -8.93180974152113 -3.2371382602165 0 0
-37.9451590797593 17.8924770333199 -20.3084514977638 0 0
69.5775405273199 -10.5355441590706 -16.2545917652481 0 0
-66.4228742631344 17.2229790450595 5.2851886604065 0 0
-150.875453135993 -6.78649172673178 21.957440192232 0 0
116.214357137853 -19.9303407185781 -9.57698234058032 0 0
-8.96751646287519 18.0065334039563 -20.3513237332541 0 0
-214.368857450659 13.2356437592702 21.0395632977201 0 0
-176.316486106263 18.3600577756925 -10.1303203836917 0 0
-186.761239908714 -20.6002988735013 9.07554449722466 0 0
-194.162126048455 -25.4927319290506 -14.3302534952686 0 0
-200.02131643979 -27.5559248870366 -22.4065984964092 0 0
113.20553458914 14.015510577981 8.59158584419838 0 0
-90.7873953020526 24.0246347369442 -8.18564842993858 0 0
-210.063326837319 -7.02329801854049 -11.4524279940966 0 0
53.5859172946423 17.2187275141022 1.04346565721765 0 0
-32.4448866090149 1.87281449866827 -20.5995642586628 0 0
111.340776078283 7.76803490127407 -21.309776468807 0 0
-221.11495870826 -45.9179402026554 -1.30165350201638 0 0
122.232811884337 -23.2797423436082 -3.84430569426391 0 0
-198.293436264085 -3.80492230916012 -12.8859184348823 0 0
-189.050348220036 4.60705808670437 -12.8404247517814 0 0
-219.078740943042 -45.8021171041208 -14.3511375715934 0 0
-200.665915410879 10.4414446473862 8.30648468281371 0 0
-64.3164803118403 -0.14565553783829 2.90222844963699 0 0
80.5475705516171 21.2644568694135 -13.8193014701824 0 0
32.5561073147423 -2.95160155653023 1.22151676859686 0 0
-141.251186793291 24.4396863106008 -4.90500244637856 0 0
-211.730407671608 -38.3031611526207 -23.0406122249937 0 0
81.4090662620786 13.9743223870003 5.26280209366661 0 0
123.472254943981 24.225434692857 4.25677871140055 1 0
-59.7794651716622 -5.93477369222691 -11.2391171565339 0 0
-94.6032421426702 2.13375025209062 -15.9804822303658 0 0
-60.5826629656575 23.9807643161676 -10.8727872080014 0 0
125.741755057922 -12.9006321006822 5.11484643609161 1 0
-195.017434950766 5.66708313124976 11.8904575270478 0 0
-216.315163064091 14.8958215125617 7.96768922316891 0 0
-207.918992879732 10.3894361749233 -0.879834381586127 0 0
-208.840312263264 27.005867653052 15.6813302946526 0 0
-56.8682524470419 10.5695647429405 -20.5225942497288 0 0
-0.66489584368282 -0.769593930787262 -20.6747800054922 0 0
97.4671577161263 -16.7650063150834 -9.49731438867717 0 0
-175.765012762313 -18.6582653998969 8.44896240339354 0 0
-173.514261347883 -17.7215902409474 -0.90487829952888 0 0
-210.755585983144 27.8223625868414 4.28679520099419 0 0
-214.873298012418 24.3829668938946 11.1282123020247 0 0
-199.09322965488 -25.4603671288286 15.5463611202207 0 0
-144.515138339187 -5.73891877901804 18.8234266217019 0 0
-122.94290745277 25.3632627685097 5.21447737594352 0 0
45.2851321721351 10.8856254720336 4.16093936384239 0 0
-175.148661273318 14.8074257332635 -9.88021370854715 0 0
92.8971388889947 10.8774416568151 7.08697572394201 0 0
-214.786127853851 -45.9635709607658 8.43143132588466 0 0
-153.846036329182 -2.9455925965971 21.3689995619774 0 0
-67.130423550808 20.3257168783 -17.9574493329101 0 0
-182.088400953809 15.9811716481366 26.6419343722928 0 0
116.17944417435 21.290254561378 -14.7075771936312 0 0
50.5930349412539 -9.42875901038416 -11.876685005292 0 0
44.0606549830943 14.9560012929232 2.35906249478089 0 0
-196.837363392505 35.1478864694855 3.95955959967933 0 0
-197.709694791632 -45.6474198997358 -8.44667281410703 0 0
-106.301512041602 4.50754355749812 9.16679878756435 0 0
-193.67761700819 -28.5072706805518 6.4900036411662 0 0
-165.043810942192 13.8241395411039 21.9725609066891 0 0
-163.012677934136 4.34765999976944 22.1499826543982 0 0
105.397033715288 20.6594914518323 -15.2857143754658 0 0
-152.007071022472 21.140702170559 18.9955238676264 0 0
-37.1202033971677 -5.86602616032829 -6.61813193973446 0 0
-22.7078861848684 10.4093357441271 -21.4914481771836 0 0
119.412293200138 -21.1133727052265 1.69474670607043 0 0
-168.390988124043 -0.197561094133921 21.4974098378996 0 0
-148.959863216937 -13.5609170506403 9.14202817737349 0 0
-36.5005061190088 15.9409040350172 2.26507607216706 0 0
49.3703919078573 21.2521111428106 -14.7504301725215 0 0
67.2562117968002 4.8243071885834 -22.5298236108294 0 0
-19.8181699916167 12.2471972580972 -21.40671598337 0 0
-184.336755712408 -8.6115766603 13.4207836246232 0 0
126.953044305589 -11.6518455864813 5.32656000249932 1 0
-190.856026674031 -11.0431456520593 -11.2815921133652 0 0
-1.11771794864181 -3.27080221902646 -1.83850059668328 0 0
-62.4128250156574 -4.3020486976973 -2.72329223910026 0 0
120.706292679351 23.4244886433431 4.33145008490934 0 0
-189.767596387819 8.72090413891605 21.9632961865729 0 0
115.678538910288 4.39574818043833 6.95407008136204 0 0
-143.511493023784 -9.07239249385761 7.36801881532412 0 0
-192.253444940781 36.9780067485294 3.00914758548352 0 0
-203.851972004933 -44.5712338901993 -16.7239105063273 0 0
-218.390851912028 14.1894385494979 14.9949996259796 0 0
-172.581680594244 -18.0857780305795 4.58831285572134 0 0
-198.616588587274 -17.4510415798543 -16.6185698426621 0 0
-142.991918199817 24.9193976298206 -3.37282602926973 0 0
123.48775541603 -15.0894375857754 4.61380902643981 1 0
-203.584506053063 13.5299038292654 10.6518180743247 0 0
-192.593880152187 35.5843193393674 -3.05127493478709 0 0
-208.770884397394 28.5652209316761 3.04071971406316 0 0
-145.273972201245 2.68460183881285 17.5529133496766 0 0
-147.432181129517 -7.97817281070958 -7.74141190064185 0 0
-188.06583966654 0.922647166272946 15.2376336039101 0 0
-150.404623428739 -10.1069782170319 22.1882042773662 0 0
-136.809096659763 19.322983688227 13.450225419051 0 0
103.054772201794 10.5732576853495 7.42170824964149 0 0
-199.100663686392 -12.8052903577605 13.1717661196562 0 0
124.725679345287 -18.3350268021926 4.75110990570146 1 0
-197.489325247219 23.7540237845271 22.6095507001837 0 0
39.3821726142273 4.39110963827871 4.90317599245433 0 0
33.0172400441622 13.5005663642758 -21.9350046584683 0 0
-192.591629339687 27.3213456005936 21.1217576382558 0 0
-206.391754620545 12.7673079845683 12.8346548424695 0 0
-193.943996191461 32.8894399420456 -5.3424381009539 0 0
79.5036247686383 -7.88078431732327 0.454621181806022 0 0
16.3013604936208 4.30100141151163 -22.0576905257269 0 0
-182.825340485637 4.90673930602057 18.4193794699282 0 0
-201.948596347907 32.5640724065573 -3.7296801370834 0 0
105.918561407598 -11.579685497985 2.02747217673677 0 0
-202.040309051848 -21.2216746010761 -22.207966462597 0 0
-178.106429613779 35.3473479021181 10.8075477866481 0 0
114.72607337458 -3.56455795369271 4.92202080366592 0 0
-195.171133395167 -42.5402888598712 -8.73603933274391 0 0
-190.063641296176 5.15779663411845 17.3770246155194 0 0
78.9635323384474 15.0275614819335 4.54767202792013 0 0
-136.701922247081 5.96666066157952 15.1623969141301 0 0
-158.106491866947 -12.5585180344343 21.9248073897075 0 0
7.56732031323754 22.4175339111263 -10.7806309378238 0 0
-216.933095781281 -8.68779429866557 -12.9068846361633 0 0
-204.359629453915 -18.2520286325448 -21.4984788524715 0 0
-188.131028920984 33.3376215248122 14.4841479745028 0 0
36.1068485933944 -2.37287407003802 1.88921262501128 0 0
-183.192821094517 -8.04435077722081 -10.0797553076254 0 0
-51.9494310730899 0.940770474142071 3.25132675024865 0 0
-178.331774537061 21.6358592899828 22.9991094803581 0 0
-96.1127255499453 -1.299165551386 3.94519692629867 0 0
-42.7718930927637 -6.26848667873631 -11.8043314981956 0 0
-74.0781801323448 10.5311059102904 -19.5209250249018 0 0
67.672991630113 -4.06277533466064 -21.172065557862 0 0
-168.657037964979 24.7087812347717 -8.51106147753605 0 0
-161.133330188821 -12.3671529687257 2.03465053488901 0 0
-216.263304812733 -19.6080680815064 -23.3240885502671 0 0
70.4761290928046 -3.3626573514897 -21.3922169337311 0 0
-1.89699424894301 16.3447235297419 0.162121248109331 0 0
-135.037212207333 21.0020740649526 11.893654071787 0 0
-13.1848526233998 -5.98597496682258 -6.23178152112914 0 0
-148.470201896532 13.4443213140029 18.0336500642424 0 0
-25.8553643702742 10.3815853628528 4.66725706382662 0 0
-159.249473092782 -10.5667665486661 22.0126760607264 0 0
-149.711671952268 -15.5392778255068 16.6146135872525 0 0
-31.23366525106 -3.46856241317941 -17.4790262998964 0 0
-140.38615007168 3.69093825077668 -11.450991817154 0 0
-21.8685438489315 13.8005733939897 -21.2784385412859 0 0
-137.243230479987 -1.97600076501489 -10.8132278797421 0 0
-200.054347450536 -11.1327458106977 -14.3614656861015 0 0
-76.7245293299149 22.3750611358744 1.49377518374874 0 0
74.8275144189844 9.96929277960345 6.25484123117642 0 0
74.9065997816356 -11.876548757518 -14.4880017415943 0 0
-161.873804766344 25.4920089142849 -6.46051180360412 0 0
-143.14641546636 -3.36373366889131 -10.5566649656536 0 0
-160.642770965352 -15.8097692852197 7.79144146717057 0 0
-199.082109968051 13.3320105018653 9.65977915568269 0 0
-207.590400981722 -14.7683528951875 15.2344905373368 0 0
98.5915331097339 -0.50399042785526 4.69716371380467 0 0
-193.80742438301 8.20572173320094 18.1671329576456 0 0
-68.8482946264677 -3.44779760947907 -0.887505973715138 0 0
-108.345537792928 1.79054003321051 7.88166182987153 0 0
-182.852263247459 31.8218441289176 17.4498110382928 0 0
84.5326366123452 5.48617607276334 -22.1929977699049 0 0
-82.6149906315171 -0.630612471387233 3.30300796678551 0 0
27.286930173311 2.04624715340903 3.91890729790913 0 0
-214.565994092255 -47.0195772822988 -4.93618073519355 0 0
85.7423437171719 14.0559642685989 5.65998256153351 0 0
-155.976664851977 -12.4672421857464 4.73065991215359 0 0
84.1301426155491 0.490443523522423 4.41699901933268 0 0
-152.35947976078 25.3913826349627 10.5301139058195 0 0
-180.921991592715 26.5051832035443 21.2101270229065 0 0
-104.933034005242 14.5569911629595 10.3469891196882 0 0
108.157354004995 10.7884905078418 7.72554603150925 0 0
87.0781685753823 -14.4720598512846 -9.92893087312501 0 0
106.010974495846 -13.9531172494512 1.07592966863293 0 0
-171.837718719779 2.37643199087807 22.1992760949765 0 0
56.1419525446249 3.31361074862598 4.72133258673127 0 0
109.106758820373 -0.299312553259823 5.23151704818695 0 0
59.4032060201467 -8.15575532230563 -18.3532026051373 0 0
64.605548022442 5.29442367051474 -22.5878209070338 0 0
-150.389765468521 18.0875284935285 -10.5834856648799 0 0
-137.211087066892 4.36674918973645 -11.8755706447301 0 0
-87.0307521142502 -0.793067899748144 3.54499062762659 0 0
-136.603820448228 23.6465545329615 -6.72187112573798 0 0
-175.883170562749 -8.9949301823949 14.828067405223 0 0
60.6458286395598 5.70880911365262 -22.6377509420565 0 0
41.6332360888776 -7.38466160096985 -5.46270817951886 0 0
-16.2234608205436 3.2730819376727 -21.5104136221323 0 0
53.465996894604 -6.85345473598385 -19.1172673670379 0 0
-144.103916921364 20.2557902091872 15.0995651173846 0 0
-127.148388208867 -8.26246744396265 -3.47975206280612 0 0
-206.257606417184 4.3752192287419 1.70049336589998 0 0
-38.6477442938279 -6.29473665140679 -8.27332191396931 0 0
-8.40625283381655 1.35384054476541 -21.2963734776707 0 0
-192.996545473025 -39.5755817931329 -5.71794362742779 0 0
-213.347040398697 -24.0846123121309 20.0331483399631 0 0
-130.878708601325 -7.6137490843878 1.62709003227075 0 0
-174.601247392477 6.16219015578464 -9.91910959552335 0 0
-174.597534485925 -1.4946294093217 -10.5597323417924 0 0
-174.35467455227 -10.9351315061939 14.317944193377 0 0
-200.405313710797 17.8445173896668 -14.4545032029901 0 0
-174.501289711339 -8.01438174281099 -9.52434070300249 0 0
94.2863493135681 7.45821277194192 -22.0340323837617 0 0
45.0607921403381 21.8579088503284 -12.1504538999856 0 0
115.238120849178 7.88262048922119 7.75653738852798 0 0
-207.875929153004 17.5468921909177 -10.5064146521554 0 0
-179.915575333465 0.304295169217357 -10.9690563049133 0 0
-204.154261148613 -13.4427802823804 -17.9641086216041 0 0
-14.0380256329111 -5.03641766981584 -4.65797292599376 0 0
-185.191473804442 7.44063986148569 23.558610414977 0 0
-230.235055221233 -14.7590788133426 -0.840602377022136 0 0
-134.962897202684 -6.59184547011791 -8.86231581885104 0 0
-44.481578977796 -6.33890978454057 -11.2529842441367 0 0
-195.524869432932 27.9897007224865 19.9138243105187 0 0
-200.650826166915 -15.3010307865028 -16.8615524821499 0 0
-80.9045303012613 -6.035133552076 -9.27915596352544 0 0
2.6260878806139 -7.14763035533455 -10.8682344265211 0 0
30.4567512224839 22.0013286680987 -13.2229605981554 0 0
-215.543910734513 13.2764376378842 19.8929773175144 0 0
-197.313025885545 6.79663192349726 10.659966659209 0 0
-41.7362457578189 8.88362045690825 6.14829923312143 0 0
90.5609682846958 -8.37712395228392 -19.4887298316734 0 0
49.9722178475297 21.5759534619105 -8.09319658867538 0 0
61.1148204043367 10.9701331055909 4.86846145646618 0 0
-226.832386390271 -17.2733718753506 10.6493611199725 0 0
100.821963010888 22.3819581715702 -9.54213621111435 0 0
-75.2278478021344 3.96888091626609 -18.6191356157238 0 0
-209.643262225963 -47.649622933314 6.45653300476392 0 0
-125.52050463295 3.72287537208979 12.3410293942703 0 0
-18.0015486000922 -5.02309747157129 -4.62630508074838 0 0
-172.904592922216 21.9799742874128 21.5787174345663 0 0
74.8101744740319 6.37088779728291 -22.4519210540569 0 0
-199.895358184635 33.6064753683793 3.25383704199204 0 0
-114.141420738181 14.1307625970531 12.1114734231834 0 0
-215.273166017162 13.8271818203061 8.4537327424313 0 0
80.5120204608171 18.1769363236685 -19.2702544807039 0 0
60.6218018168542 12.5883890922714 -22.3281176149494 0 0
107.944844965371 14.5198578174834 -20.9733680595165 0 0
56.686214475133 20.938284012517 -15.4245179669054 0 0
-131.819958684819 12.4954274129586 -12.7563009612524 0 0
122.00842248756 21.5640134461874 -15.3504092609269 0 0
-147.118928885993 25.800075143355 -0.397938635986753 0 0
-7.40041391452999 -6.54565897257627 -14.3800820184658 0 0
114.605900836086 -12.6610088035476 -17.4033386946543 0 0
16.7298812342694 15.3982884010082 -21.3342139892468 0 0
-174.230342372836 24.2125392560438 21.0671385404478 0 0
-215.018031821606 -43.5556747722162 5.06294910742659 0 0
-191.377746340554 3.48377779657754 -12.9893425613157 0 0
73.2917564235225 -9.84724637387189 -3.30329251177734 0 0
-100.847873892599 13.3371457359982 10.4033822206862 0 0
-159.682520873399 10.4705825488018 20.8806565558006 0 0
62.7187919423626 3.92890971123306 5.0379378507682 0 0
11.3875222596931 4.17412608444889 4.84857455128696 0 0
79.2028889064029 21.9568827674586 -9.14049940059079 0 0
-161.511287818039 -7.89097853554925 -8.46718974703066 0 0
-198.216060978486 -15.6016030374341 13.5067277338513 0 0
-142.756034079047 19.5759762738915 -10.50727482526 0 0
-184.443334429225 32.2274076080812 16.8075110646402 0 0
-193.404838106357 16.4760218758351 -14.3406172551578 0 0
-9.56468147632743 23.0421576821127 -14.2015060579189 0 0
-223.137493539964 -32.451699354543 16.3468179972205 0 0
-46.8255125175529 5.7207541529748 5.02182191434816 0 0
-163.511804012503 -6.69116293726818 -9.31247227760686 0 0
-39.8989253752254 -6.41208306381828 -11.490107512415 0 0
-197.185242523372 -24.4438099108739 -19.7516883601597 0 0
-186.021704985181 6.99232278735473 21.7655778191757 0 0
-207.832744949159 14.2390499824406 -8.35674264482359 0 0
-174.95514047586 33.1326764828947 -2.02131217947552 0 0
-208.889059246671 -48.7137030252 2.08642002254363 0 0
-153.0732632696 -16.9624664300495 19.1064200476418 0 0
82.2374408059034 10.1459131768347 -22.418597638777 0 0
-208.675726630916 25.396466584898 18.107600110369 0 0
0.965500475121813 16.5901379045205 -20.901955318447 0 0
105.371648781579 -18.390326329265 -8.51360613391304 0 0
13.5647930007048 -3.84126270917038 -1.46750101661238 0 0
-232.181957497002 -18.0284023132027 -1.2317884356202 0 0
-153.700027010341 7.10715386109851 19.5431706038058 0 0
96.1998076798058 -13.8390500432408 -14.9233230341906 0 0
33.4598773029541 13.881169904181 2.5573019369335 0 0
-52.2522108522114 -1.48603030290364 0.691418000640338 0 0
-185.876289410379 10.0169135193881 -12.697119024079 0 0
-233.834759988819 -32.5779818987086 -3.10078056346671 0 0
-66.2037426314205 5.12404866537761 5.5692162010132 0 0
-140.5504401606 7.98406966063923 16.023507961273 0 0
-173.23584318765 -11.3658849230311 -8.06351268228213 0 0
-79.5115964608273 -0.96392464249532 2.65476167346948 0 0
-187.150737138649 18.8949902826461 -11.4611276557771 0 0
-204.40138170116 31.693981722565 5.60432649538127 0 0
-201.752165336567 -27.2115532996486 18.5835936343946 0 0
30.5194338257762 3.26191190120492 4.50079754395363 0 0
-175.782042129911 30.1556658098065 17.9927231440986 0 0
-26.0247830010217 -0.463887221373823 1.42306761028744 0 0
-75.4137635240593 15.1774981363997 7.65108166049189 0 0
-226.673590049563 -41.9387470102779 7.56886588917151 0 0
-59.0008410381241 14.915389797563 5.59591935563161 0 0
-61.5085795493715 20.7422157497222 0.451925854420281 0 0
-190.04375931889 36.7552614329254 7.56231671462787 0 0
-58.6736622665477 17.5083571868095 3.86768521669374 0 0
28.5560467389146 14.4051676961364 -21.6765113662877 0 0
-193.575368488692 -32.1847121818272 -12.5638300014081 0 0
73.6587196642621 -12.1057240323911 -10.7058018659556 0 0
-222.948542849064 -25.8203039339506 17.1863318862827 0 0
-101.858384046595 23.2266294999077 7.1512493089637 0 0
-130.913029105861 1.2806119642885 -11.9103417666796 0 0
-30.1848856834091 2.6394657969458 3.93468597547383 0 0
-198.107053609107 34.8643453409777 -1.30806072577715 0 0
8.72972974794092 -6.36607426503303 -16.0412406760159 0 0
-44.8619987448279 23.5188857899378 -9.95486358498162 0 0
-202.011174494995 13.5239418709733 23.4445792965948 0 0
-51.7011367606385 18.8243019651331 -19.528360287425 0 0
-132.993700811648 -7.97894659299663 1.36798542921206 0 0
-98.4765092712514 17.7983743275967 8.31000720643508 0 0
-229.804438271743 -38.8428797546716 -10.9050620992257 0 0
-210.382292334973 26.8982444017537 0.00744976343457649 0 0
-192.327289216491 -35.9788041554063 -7.57798517176055 0 0
-207.26581583364 -48.3352974116485 6.08999773477315 0 0
97.2802086688043 -4.24272456774195 -20.7191866524079 0 0
-188.713904691348 35.5410565137232 -3.13405796493034 0 0
32.4951497639737 20.3134443216616 -17.6457383632705 0 0
-66.7525012513799 2.04960133272174 -18.7173526340977 0 0
-208.362732765339 -25.7979221695167 20.3471113520231 0 0
-224.934684856704 -36.7202859244551 13.3195726311426 0 0
118.1932281782 -19.7007629225663 2.23773732076608 0 0
-199.224409592801 -15.8535144187345 -16.2500779455608 0 0
-52.1011430048904 15.4826787050386 -20.3875045608674 0 0
20.6596048693915 12.0425715744968 -22.038113690965 0 0
-202.23398238386 -22.8475843378348 18.0721706633258 0 0
-108.721720990766 24.8358138040893 -0.0464732333100733 0 0
-29.4491266951877 4.67967980113635 -21.3237154652705 0 0
34.8429741210106 -8.01653225741779 -15.0412113043904 0 0
103.444556116478 18.2855710542376 -18.609144858942 0 0
76.4258123273787 4.77471551309869 -22.3315751012865 0 0
-181.051421247675 -16.3729407339766 -7.39317549710817 0 0
-221.267186283186 -11.1426868138474 6.4796582067496 0 0
-162.651832445146 27.9326655593604 10.1759466438077 0 0
-156.618397030452 17.7593874084956 19.042936681588 0 0
-228.638948153178 -30.1773064827744 -16.8938506580132 0 0
-206.989927707656 -11.1268587074622 -16.9143718596541 0 0
-191.891310168894 -25.5009118641699 -10.8097670717478 0 0
-28.6507832270407 -4.81018705030732 -4.23785514418134 0 0
51.8142426377392 -7.85871759381426 -17.9692133202545 0 0
53.8092347348922 18.6966523444512 -0.649969583437223 0 0
-216.027707000874 -44.1357820390433 13.2023075113719 0 0
110.438637394459 12.7318962021038 -21.4259234131209 0 0
-163.960943000732 27.8892473593705 12.1482722289768 0 0
-26.2488543097145 7.5501057926923 5.66069847425646 0 0
-211.340320208969 -47.1889228038103 9.28168817908132 0 0
-190.245682874531 -1.26470833980137 -11.6069287524711 0 0
27.9032557754999 3.89925552457597 4.75011207210568 0 0
-73.1507632086534 22.0246467646535 -16.1345059382916 0 0
26.2330763796597 21.3982346609907 -7.86602662936314 0 0
-46.7997922177738 0.080992581668741 2.22317198029848 0 0
-196.673068035414 -0.719807850221947 -12.7943305846549 0 0
93.5212736617686 -4.12458073117751 3.37690063655247 0 0
-107.205522064221 -6.61499998214251 -7.75079505566034 0 0
-192.308178406418 -16.2332160235133 -11.4514182632668 0 0
63.9107357104155 -4.68162601940585 1.4124469867216 0 0
-85.6174093271688 -5.99793898383176 -4.95978517238495 0 0
-193.697900659854 35.3776551125001 9.23301968034256 0 0
-113.970664974517 1.89395134452292 8.77689112341333 0 0
-230.334370977555 -16.7754344536241 4.49959907068316 0 0
126.467196405634 -1.31708053420218 6.51238698693371 1 0
-100.654860622979 0.854680883472141 -14.8650954947975 0 0
-139.89512423345 16.7511208390852 15.933178685933 0 0
-16.4416409028957 15.6789955235475 -21.0868809354491 0 0
77.0150041171157 -7.26451845587506 -19.8898330437982 0 0
-183.368587773324 -13.6365349719773 -9.19484470200013 0 0
-194.533177821428 -4.97483488821887 -11.9261720539884 0 0
124.491516220888 19.5093457146964 10.2229767706292 1 0
107.882625176533 3.74569077317072 6.20718986431994 0 0
-176.234686324822 25.9829993216862 20.8592211518929 0 0
-197.696918532358 17.6815082526638 -14.8005486446487 0 0
-183.150383130794 -1.39003059725402 15.8674859872079 0 0
-177.352265016095 28.1029877679368 20.3815738711293 0 0
-211.404368363786 26.8460292819904 1.7837725256432 0 0
4.49532359946914 14.8907627075366 -21.4107296268313 0 0
-164.454204516211 -7.90905558417608 20.6628894685207 0 0
5.26566817438396 2.13349098065821 -21.7325050298507 0 0
-192.031128791747 14.0749659127256 25.3601868693342 0 0
-20.9187915980542 22.4232902612094 -17.1912427441469 0 0
-204.612347015139 11.1481110331682 4.81442743211946 0 0
64.8465688068346 -10.2999742655955 -15.6534634405188 0 0
-108.738835641957 18.1891784484473 8.85968703177703 0 0
93.7598977398646 -13.7513998250634 -3.1516802081006 0 0
-201.157902170301 -41.8889843146823 13.2360996835573 0 0
-142.292397853612 -8.88195769053568 -5.68012165339444 0 0
-197.553330643171 13.7416050348112 24.2483676337226 0 0
-13.5228751854668 -6.6137276550938 -8.54805725169444 0 0
-121.6084909333 4.6862593213375 11.7341943771748 0 0
-49.6912353750917 23.7169338614994 -10.3370595093892 0 0
-210.465554291175 16.060377272195 -1.09712129685765 0 0
44.0170769381802 2.37469830832269 -22.2668886253872 0 0
43.2603149704851 2.41226305188249 4.21562061528399 0 0
-201.353327901728 -11.9159752982726 13.057475992793 0 0
-99.79213436853 -1.77163225247873 -13.631992407837 0 0
-128.62901923049 24.7446050416124 7.43068694656036 0 0
1.80261188315731 13.4373758947292 -21.6661047379918 0 0
-218.758505896874 -44.9908132213008 6.94189327965939 0 0
10.6946836634908 -7.45052678784088 -10.5248967704451 0 0
-226.461167648104 -35.8420482118943 12.3444369253666 0 0
-221.838069485382 -47.8845951636121 -6.49854769925154 0 0
-218.535921399966 -10.4983615959428 1.96916087526269 0 0
19.3708822677643 1.59522443806021 3.52533934679977 0 0
-217.492552224524 -40.2815035423863 15.765605711953 0 0
-161.807986158145 -9.8489138929967 -6.4289595593994 0 0
-26.8161326437168 21.3834864077711 -6.34835705564301 0 0
-199.769821116526 -17.8593694101212 14.4299237493389 0 0
-169.88486842876 -14.1347341811189 13.6905268318447 0 0
-183.489078932031 17.9750583398615 -10.7749100845224 0 0
-18.9294204893976 23.1436373933836 -12.4936410662793 0 0
42.2066028734199 5.02779283714823 -22.4718822615773 0 0
-38.6498728748861 11.424380664683 -21.2050819984727 0 0
-168.305110068764 -17.3212654016659 10.7612634172302 0 0
-13.2434872426891 13.053573365213 -21.4623231146402 0 0
-87.8550256100131 -4.3177737093122 -0.885126018787564 0 0
-190.02806712627 34.7302186039147 12.1286230711036 0 0
-57.6005091385268 20.5257525812114 -18.3998093731012 0 0
-63.3832441555754 5.65443383555475 -19.9060638353692 0 0
-201.008912656646 28.9706343720762 17.4249505445233 0 0
-119.719011065649 24.1393455909585 7.60523094697619 0 0
-185.901420014956 -5.59386404170712 -10.8239754362985 0 0
-185.666621766182 -23.6157392586101 5.05123994450568 0 0
62.6531109161621 3.64293943419398 -22.4973823738783 0 0
-193.350122776353 1.96955537144774 -13.0308119005671 0 0
94.3137451793087 13.0336359961468 -21.6921489402597 0 0
-83.7109810239276 24.0168283991458 -4.1239668768937 0 0
89.4540465096605 21.7726852947372 -4.42663146378716 0 0
-17.245458022682 20.2258393380777 -4.93125589917543 0 0
-199.184647263551 -27.5955959999799 15.6110193716428 0 0
-148.496140095759 -4.27054367733792 20.1450610323407 0 0
116.678141548123 -21.2045852404209 -3.24096449649599 0 0
-68.8300595653688 10.438507260723 -19.8676169731993 0 0
-111.009002266105 25.1523355425815 2.26070397138659 0 0
-221.031836530793 -45.1031512510233 7.76361648542931 0 0
-134.360843936171 11.2186035776601 -12.4772466659456 0 0
-197.660623828969 8.24899954964859 10.7045165992679 0 0
-209.230556986796 -41.1805840652748 16.5946740888763 0 0
-109.099141264927 -6.97104284108822 -5.93076621101 0 0
-183.679651985289 20.3476406590917 25.7348686833965 0 0
-194.723539403867 23.6597704311946 23.0450397725502 0 0
87.4378518812342 20.5524229725218 -0.598863810112508 0 0
-177.978735094993 31.9336172295643 -7.85985708128909 0 0
5.80749657109239 21.5411661282914 -8.31073554445152 0 0
-131.471298526825 23.8688809915218 8.9601573866621 0 0
-208.402711834671 -5.57266892566859 -10.4136117699001 0 0
-195.256925209461 25.691459174927 -10.3357889586686 0 0
-214.015892634937 -45.5020917634911 11.9470693904221 0 0
-194.934883729259 -18.4972091676165 -13.735984152762 0 0
23.2444594566664 -3.17787053244398 -20.2540731867247 0 0
-203.614061299605 -2.98629384348243 -11.8088744254831 0 0
-185.268206289673 13.0754931324269 -11.941577560195 0 0
4.25611932457708 8.48134346366253 -21.8981224147376 0 0
-214.947381323622 -9.6639090817779 5.80236410984717 0 0
-166.311680699286 8.11945578632091 -9.30296165089493 0 0
115.335847059552 23.3210776848807 -1.37856256018646 0 0
-116.973604344572 5.17909296244261 10.8607578722352 0 0
-178.404085630945 26.568677377405 20.8913866823044 0 0
-85.1302718355305 13.7290684855003 -18.3987995509614 0 0
2.62867590388059 15.9258682433143 0.524642268652644 0 0
-225.074519612323 -40.5232742232911 10.7123412086692 0 0
-106.90606597426 18.0693828811358 -14.7583498885517 0 0
121.336024362591 -21.6771587388803 2.31801741934133 0 0
-39.7315643221014 14.1958098471613 3.83017138842616 0 0
-163.347565970486 6.85855200153352 22.1086439864734 0 0
-112.406705254676 16.5345593887935 -14.4730562493878 0 0
83.6596412840959 -13.0581640275827 -14.2818221498309 0 0
-231.282414210883 -17.1435185626624 2.22475433470484 0 0
-208.423613501619 12.3342323653195 0.63941890802701 0 0
103.532889874319 -17.6379832551061 -5.95878516537505 0 0
-25.7322845996777 -2.35390155283239 -18.5922071973884 0 0
-216.536562642452 -19.1821832885909 18.2379139020552 0 0
99.6826846034569 -13.2105030405586 -15.9421170272799 0 0
123.664938561925 7.1586840111884 -20.6736459739378 1 0
56.4153620292678 16.7204613638297 -20.6682658774863 0 0
-217.803989910043 21.2975549471071 10.8490960770852 0 0
-182.811608332106 1.32348660526116 -11.4188054619826 0 0
-214.399621419951 -31.045409658231 20.0411391180463 0 0
-27.5335279556453 -3.07007571573351 -1.84057120619485 0 0
-98.5990722573253 21.8801818018597 7.44530506550767 0 0
-106.456178454196 19.80941319043 -14.0663083916926 0 0
-205.937080034346 -34.9638312999036 19.2385043860139 0 0
-75.9653055951332 23.8431908026122 -6.17885283267963 0 0
-178.018048894405 -12.5801647508378 12.8948312313703 0 0
105.514990427384 3.1516354594116 -21.0169129261056 0 0
57.9306976081642 -2.2146856355469 2.72372323426558 0 0
-163.900906816252 -9.0218877309788 -7.8475621124332 0 0
103.691915063362 0.998026536642275 -20.9082780699402 0 0
-205.618540804229 -7.01618155001113 10.0317351405064 0 0
14.7739901746173 2.74184717301637 4.07055482952423 0 0
-203.16957402545 2.66405818147771 6.45792453632626 0 0
-135.16859301229 24.5009088125876 -4.46046856224207 0 0
-150.618861065866 -16.4303763797582 15.4626827571287 0 0
-97.3993647744124 24.421451330318 -3.08530858160461 0 0
119.510377706346 21.286050977292 -15.3506348437623 0 0
-205.079602498825 6.67095904802491 -7.06737722536742 0 0
-204.705729886335 -5.33318266160366 -12.0641094062372 0 0
-133.655908623697 23.4862488168899 -7.13866711290459 0 0
-183.641357615625 27.315500257313 -10.8783409618602 0 0
-214.116472221803 -38.8180506653154 17.610986545269 0 0
-45.2053595425497 21.8699867121214 -5.06127070553026 0 0
126.291505037179 -19.0263509806002 5.12737057676256 1 0
-226.117493596665 -40.9059220994147 9.30838862897731 0 0
-60.6707486748213 15.1270160061472 -20.0230535489115 0 0
-34.0681368807087 -5.45957919272733 -5.50292867738727 0 0
27.3488186782243 -8.03698392384205 -11.658217792884 0 0
-202.76721529222 14.6279294865545 14.2869731117388 0 0
113.329825183701 10.3080798149009 -21.4925603314316 0 0
-205.289264571279 10.7858637852735 19.0923598822162 0 0
-214.244080865811 -8.81265010448142 -0.0301823003891136 0 0
-172.358590014036 17.522140002384 23.0378265044918 0 0
49.8650586172055 10.3347436035875 -22.5699832678442 0 0
-116.574882079217 12.5344605876426 -14.6621135005131 0 0
122.842102821392 -0.066240243136412 6.44672823261611 1 0
-125.36533704455 3.65669598392925 -13.0178262168044 0 0
125.132256092377 23.5240712038316 7.52579335883787 1 0
98.329084934516 22.4062972645403 -8.28938924499295 0 0
-2.58146345361128 22.8272435828252 -14.3433523526278 0 0
50.9380424582757 3.37877098402622 4.67861522742337 0 0
-141.309112396359 14.6600009489393 -11.6699047240727 0 0
-88.9499315550249 13.0257803136556 -18.0615651920633 0 0
-184.093364757163 9.31172724361772 25.7596386285921 0 0
108.433012597609 0.2919310103638 -20.5483966806736 0 0
-174.491070580975 2.8391085950838 21.4571150132678 0 0
122.754280261202 1.81726241943291 7.01508984200732 1 0
-205.511554954532 -41.0596698732676 -20.7414515313141 0 0
84.0859726820446 21.1225372093271 -2.98678528984323 0 0
89.0899462197265 -5.61865715527627 2.60846830280857 0 0
-178.351691444029 37.1811785244565 3.52330504123124 0 0
93.3561339658398 -10.6016536666947 -18.0902100328576 0 0
-200.028537352272 9.00287071007049 8.90062199301101 0 0
-154.252401319888 -8.64479612317051 22.9054098040188 0 0
-201.019800595978 19.4643733028779 23.9540718592388 0 0
-230.21460045505 -34.778906725084 7.96552780618365 0 0
-196.241291572258 4.56929285942379 11.3660777374955 0 0
-215.909656802177 13.1546123008222 10.5044947758598 0 0
124.560416937024 -24.2504375550887 -3.67822961757794 1 0
-43.9183125192059 10.3651413487475 6.1515062985391 0 0
-218.537080428093 -9.92096182676358 -0.947077319188233 0 0
-210.305633922398 11.6060005449216 21.8945704272606 0 0
-203.497381941298 -45.6443423804557 10.1737780106863 0 0
-147.696767644512 -12.0406203577754 20.12428084055 0 0
30.7125008285937 8.85587204102573 -22.3348319918643 0 0
-146.836632438712 -10.8408576370002 7.50272111703893 0 0
-24.3821961260172 6.14439654398453 5.47148138788988 0 0
-190.488756885558 29.3852565986314 -7.91854354075283 0 0
-195.701206788043 7.55591359304169 -15.041907273334 0 0
35.1411448580274 13.0050428201767 -22.0733603421936 0 0
-219.571038839146 -21.9906725658614 18.0810625865968 0 0
-217.658326833364 -44.2378794031091 12.2476086143143 0 0
-212.150802014992 23.8636336115446 16.4812790783589 0 0
118.503540838782 17.1318390898345 9.33637640914115 0 0
-199.865802390163 -5.05236485418315 -12.9515478224056 0 0
-227.839900369186 -13.3118285529283 -9.17015186661724 0 0
13.988199912919 11.768749415429 3.19066855499507 0 0
-45.0709960333698 -3.48686804849111 -16.7216232965622 0 0
-204.334562085248 -9.56039334076811 -14.4249506940514 0 0
-187.458745487295 -8.38399994351107 13.0660728630009 0 0
102.693789489246 21.5630013705036 -13.0070076139426 0 0
60.0208965046582 9.16718843534621 -22.6283849243873 0 0
-72.9636994865927 13.0334371242122 8.11556902405427 0 0
117.224117968821 -2.89136193885568 5.23616060265558 0 0
109.95140545677 22.1384750260935 1.34577405610232 0 0
125.037561375059 -23.9468357838951 1.72348737873531 1 0
-212.484144888833 10.1965001118784 14.9807564061654 0 0
-229.535131635727 -41.9039913044767 -1.36241590147546 0 0
-116.825202210474 -7.49979129985048 -5.4311079505748 0 0
79.0281178094204 2.93920393998883 5.0065013990577 0 0
120.129863917153 -15.1687927140401 3.91926251644115 0 0
-198.57267726715 25.2749478401376 21.1614130407149 0 0
-151.141536029568 -17.227205857028 11.2507231555514 0 0
65.7566661198801 21.2431789817766 -14.4283589891024 0 0
-37.0214798660031 0.952358161675241 -20.0629379922832 0 0
-203.045877394173 29.0733891299402 16.8861170842166 0 0
112.80131375596 21.6228571952843 4.76085965712414 0 0
-128.104887388314 -1.7459743306707 -11.4125011847093 0 0
60.7887632520426 -8.42782621498319 -3.96026964210305 0 0
85.7523076387659 -9.30270378462466 0.180801833034063 0 0
-223.679645413318 -9.66142020376843 -8.40425242479046 0 0
-223.686230244745 -26.756360315376 -21.565847794736 0 0
88.0730273367273 21.0173248905938 -14.3037128238792 0 0
-1.27890582259187 22.2161721882423 -9.83382551934302 0 0
