"x" "y" "z" "f" "a"
151.992018453825 -19.0884830025295 19.2989962237402 0 0
-19.9457231440707 -17.7702570612224 2.3415812900883 0 0
130.656374195174 3.57499133981552 -8.2671959264088 0 0
205.336398991514 26.0594814463462 -30.9033072736545 0 0
215.146825502112 31.7742406763088 0.554710142530942 0 0
187.564038733578 36.587660875396 -35.9507787767469 0 0
188.601858189942 -34.4305698187928 0.87135657846824 0 0
-5.52159859892868 -7.74602867989984 -5.20321560885106 0 0
168.027815083634 -30.3698562614331 -5.13165505261219 0 0
167.212523126659 -29.0479156018664 -0.678192520787418 0 0
10.8005882831035 -13.6198686766051 -0.95307602122503 0 0
27.6006066597301 13.141687430992 9.55992474486071 0 0
156.16887060357 -5.78299150144382 -13.5039453041193 0 0
65.0037286176963 -8.97625731977153 -4.58041461035735 0 0
198.939652147263 -31.0420836567112 5.12827575933553 0 0
-8.24938230842808 -9.18282201665437 -4.27204047549673 0 0
-40.07686610045 -5.57408740943637 -7.77560390081084 0 0
182.138369253477 21.1048989699472 -26.2578271521247 0 0
151.820706749206 -4.12527546051681 -12.246012550351 0 0
-23.1848745422283 8.58354678853321 14.545092324334 0 0
189.026198657489 47.1283290835506 1.20150816463681 0 0
131.037452244427 -10.7310314547173 21.6242385063795 0 0
30.0344490768725 -14.700787411376 0.427765857453023 0 0
165.425291111104 -28.9766649452625 -7.29623331939404 0 0
194.025104973493 -37.0560372639331 -10.5923778117621 0 0
173.337528148727 14.1572046797171 -14.9599551851206 0 0
-6.05847745152253 -14.2759948419465 -0.962839362050025 0 0
210.080320761679 18.4915034727022 -13.9723257459899 0 0
41.9695463443659 -8.10328017722729 -4.18912414726353 0 0
63.0694531860977 -7.54069041287874 -5.30436113534928 0 0
-36.3532010496678 -18.1084163059425 16.4958557597002 0 0
156.734561023665 18.2944547129382 -8.71487004342659 0 0
175.418564533965 17.764069313852 -17.3120910700502 0 0
139.411358376274 -0.74179884357563 21.5959766310948 0 0
171.239797997024 8.21609282994724 -14.8271300958571 0 0
190.898009623322 -27.9615928081297 21.7838759214232 0 0
-7.25975716465373 -11.0336938683385 -3.46537909223325 0 0
-34.6497262546594 -0.91848388017386 21.0439699400109 0 0
28.3263965118456 -16.8439671059442 4.91349957351398 0 0
136.119631839064 -14.49411687696 -9.83679398811978 0 0
197.463613855374 1.84111012233454 -7.19090747978321 0 0
143.288646595941 17.6101812396982 18.0757425429431 0 0
159.618083920645 -23.6509716291535 -13.5880574295893 0 0
106.614433980841 -5.95379443571499 -7.71811497891921 0 0
116.60807289052 18.7624292022538 13.9809995174953 0 0
173.596906189017 30.5491427168509 15.742203777451 0 0
185.137989100697 44.3171975039103 4.92663764803182 0 0
182.299471420922 -20.6520413209973 -36.6782695905854 0 0
187.759191248479 -27.4901148734645 21.7904617826246 0 0
196.645890002527 -36.1200561410887 -9.04866592758242 0 0
-19.233503675434 7.74291954920647 16.2739856645533 0 0
158.620874830453 16.7375787873935 -10.2538036470743 0 0
107.350575588613 -14.9961261936919 18.0848787342261 0 0
70.4052888559605 13.4197541708975 17.0906520360846 0 0
197.39391776202 34.6488404398426 12.5667781115785 0 0
195.402334366094 -24.9939377411546 25.9725567619184 0 0
199.707735871959 14.2398686568544 25.8585109782366 0 0
74.8675941178072 -17.947760789346 6.19736046386967 0 0
-36.7115059571587 -5.40135716411091 -7.7002148269406 0 0
27.9012894246578 -7.19332436710739 -4.72180585154853 0 0
-28.0418512462212 -12.1489845210648 -3.42588345250562 0 0
-6.33700073676702 -9.31771716200548 -4.1276536348244 0 0
198.408358578156 -8.89440860115724 -26.7121562198475 0 0
84.173049194412 -18.3833805427961 9.0710721495461 0 0
35.6641075588588 -16.0487783867962 16.9332853685222 0 0
152.308590252601 -3.38312468223141 21.1997224520491 0 0
196.795680811858 0.000820104145867118 -9.98759047976315 0 0
202.272368731307 41.9170749262175 -11.3792603678261 0 0
203.577106108943 1.34921824868885 9.94422676515164 0 0
203.469858892939 -23.3993272162111 -28.8405442340031 0 0
-30.2949809426132 -1.97984519483642 21.4687416417239 0 0
164.572367704963 7.86796814096489 -10.5051702896081 0 0
-18.538007213897 -18.9481154460402 4.16739582378495 0 0
195.379744050913 30.2800906242059 17.1700715854703 0 0
112.711100957352 -8.13610334589801 21.8896782940102 0 0
214.739237772511 24.3888122376523 -10.2120751977084 0 0
120.551935818782 -6.28904321299743 22.2406478820083 0 0
55.1649288439891 6.52206546506361 0.60373523135022 0 0
156.729208099718 11.508117156559 20.9871992969634 0 0
169.502425044538 15.8500624966803 21.9123029944789 0 0
83.3285604492972 -12.6050654144846 -4.31345819174082 0 0
167.680317370469 -2.63864350492049 -14.9476973640213 0 0
-4.35432947833713 -6.84223462971472 21.7836823500031 0 0
82.5781732411263 14.850040115984 16.2911715316447 0 0
205.278165474877 -5.91830102151195 4.94578631262148 0 0
-1.57154382763347 -16.916496866926 2.99727417234264 0 0
4.01192459007704 2.96904673500115 21.27934931693 0 0
176.261601843982 -26.9658054794091 -32.4578701059525 0 0
54.612941717603 10.626668230114 3.9222772771806 0 0
178.991320674719 7.47203586280249 -17.3711980146604 0 0
-30.5877253768384 -12.0139396943657 -3.62394886248881 0 0
125.628340627365 12.4923415941751 20.3324594933723 0 0
152.706385869858 17.3421060571879 -7.31615710395415 0 0
178.887040405219 -15.1567704803963 -34.3537221066333 0 0
73.7957112719775 1.68228222260245 -4.14247253302237 0 0
119.913668434075 8.21774878858034 -5.60725708950152 0 0
175.306222735239 -12.5655200379443 -31.2785543959382 0 0
123.410965388628 -19.1623573605465 0.632747698642849 0 0
171.171155644524 39.0735550607996 -10.2018270858482 0 0
129.852698307593 -20.1979781871843 6.64628005509385 0 0
204.128012632587 42.623022202003 -27.0763881131587 0 0
209.110408422327 19.2188451562227 -16.9981169694732 0 0
152.382904504701 -17.1545985009071 -13.9644968948197 0 0
-40.5045236062349 4.23877460231107 2.22336319645704 0 0
-19.9379830281812 -0.566153036696275 -5.44785591663217 0 0
101.996739898704 -11.1020192709667 -6.30488586492554 0 0
208.454264162514 -23.5569666427893 -2.0472058596197 0 0
193.495358449519 41.5624891115934 6.24232862595224 0 0
109.447555648505 -18.6572642637745 12.6952802746828 0 0
171.830943101298 -8.68177154830051 -21.5164587465759 0 0
91.1826123679628 -4.76240269950268 -6.5522790729638 0 0
28.5864756597312 -0.686783620846134 22.3438305052521 0 0
177.144219251689 -34.4655987390486 -1.55499117072307 0 0
206.913982656583 18.5669090142241 -19.2064545530314 0 0
42.531850721711 -9.76854432934923 21.0836356079307 0 0
206.719713988675 -14.4829216825181 -18.1350177904695 0 0
122.67876954351 16.622690909086 0.326115093376784 0 0
169.440205877357 -8.86411947202655 -19.5255499409634 0 0
202.788027007384 -3.68531872758504 10.9312774424572 0 0
148.416987023829 21.3884293029547 -4.12667145147173 0 0
82.8945743875387 13.1814421606143 3.2076004629388 0 0
178.334164556549 -28.420978318418 -32.5355094742628 0 0
69.1664423519837 -10.3659837818307 -4.26902358697863 0 0
183.589562884989 47.2556107491172 -3.39646052269086 0 0
-11.5144055994759 -0.331852927241838 21.7967037443118 0 0
47.8141828725139 -4.662293860978 22.3145893599978 0 0
104.465004224777 8.86825636553936 21.09857343698 0 0
136.282924657647 4.45008749506354 21.4353765560749 0 0
-5.51247521818214 -7.13745570363891 -6.34932745769651 0 0
163.900111248311 23.4911899464898 17.7853967840727 0 0
19.6708981444212 -13.0651111757563 19.7960990743367 0 0
207.54566836529 9.59518614858211 -7.09726320387473 0 0
196.025863523026 -29.3111446384436 -35.2493047785063 0 0
153.054216489768 24.0261160543059 -4.84271808071936 0 0
213.79194121866 17.7147873261243 -3.44672993432769 0 0
213.459578536522 16.8811800483006 -1.8334256974391 0 0
17.8399083828415 12.6758098685963 11.5070357296049 0 0
127.265803085901 10.9425260301706 -5.19897555710023 0 0
200.555410474322 3.95912931805639 16.8619493467345 0 0
47.6563506454607 -5.60249602921951 -5.94389841283614 0 0
-33.3020281291967 -20.3162555275693 4.46553655883867 0 0
82.1322573511681 7.94887923951531 21.1790039332287 0 0
175.141824645171 23.9954996721009 21.461767885372 0 0
-14.7644252665424 -3.61150961836715 -7.28506530171231 0 0
148.911840677232 8.90969498292352 -8.42144975835087 0 0
181.43594708015 42.5984522087227 7.07323364987713 0 0
136.313945985108 16.0561067226539 18.7678812468465 0 0
-1.37363498636051 -15.3617237491703 0.62712147347574 0 0
180.219500437239 -23.6292729702027 27.603661148575 0 0
161.406806158818 23.7898781110022 16.5275982587929 0 0
119.414290591279 -10.9900740996785 -8.06508776747906 0 0
90.2721694621895 -18.6077832211146 5.50469166552343 0 0
163.44091571898 -17.7863915678555 -18.4281670686276 0 0
113.849193752371 18.0427164041606 3.73105167793383 0 0
72.0024455626086 15.002252282561 15.1015756786108 0 0
172.133732261985 42.6428456209987 -1.07753883843612 0 0
170.419801519719 -32.7289172178524 -6.99762875891203 0 0
208.401844913136 11.7308382481536 14.0749437943653 0 0
166.5115683213 -24.9757126537656 -17.6543519161264 0 0
158.986050580199 29.179936238618 4.76444328845259 0 0
105.464730579632 -16.515279667588 16.5895990387427 0 0
129.376204928847 -17.9884793979821 -5.1457081007868 0 0
190.696312091795 -29.8578205295792 14.6081642296824 0 0
189.773517247914 -33.6261973367123 -30.2023292711286 0 0
15.97457140791 -3.45180474868065 -5.88754764160915 0 0
-37.3854672943696 5.69636332234616 17.2401317219 0 0
109.972752625319 -7.07898334264861 22.1030468154293 0 0
-24.2612412106246 -18.6464127170568 3.0071719667424 0 0
146.551160432109 -16.4750071390073 20.6375049730294 0 0
41.3533389673171 3.58093137230117 21.8882964111852 0 0
136.146866284521 21.9895481644858 10.0490457661022 0 0
127.391909461928 8.90397768861474 -6.18245987294019 0 0
127.213491338339 -17.1064496869262 -5.77247932773523 0 0
-2.59302609840519 -18.9671740543389 14.8150854908552 0 0
111.548548183141 -13.4202394426502 -5.9719970108976 0 0
185.507216175497 -29.1426301197354 16.7999282440786 0 0
208.806212152373 -19.2282516490667 -14.714486676526 0 0
-36.0862685507154 -18.9983110310726 1.90010198640811 0 0
167.837013135778 -31.5280048064213 -9.88912462411402 0 0
203.946443934969 38.1638894244991 4.27056355900572 0 0
-2.73774183819219 4.39607357937363 1.2645299863123 0 0
58.6302526714596 -17.719795057086 11.6434732349038 0 0
96.7672585624297 -12.6586618908529 -5.29111984550351 0 0
169.413085526995 20.3029124476788 -12.3742970850413 0 0
122.445916774186 -16.0050796848878 -5.38059363111897 0 0
22.5227920464362 4.3696267513079 0.524036397303927 0 0
112.122929822701 -15.0482905331373 18.3681503475739 0 0
198.491194774234 -1.83758161939075 -11.4980410737049 0 0
-30.750885631447 -17.3799551224065 0.626851980474883 0 0
79.4908717982164 -0.827104969523534 -5.02923308167213 0 0
186.612936819971 -37.0961142552059 -19.713409834848 0 0
195.526535387638 -34.7337921284236 -26.3862113945919 0 0
153.24421898324 -20.7597538193657 -12.4773366837985 0 0
44.5904320876498 -0.905455558013898 -4.60582377895149 0 0
-44.2569744170089 7.19676259173903 6.09232183899838 1 0
186.559166093623 47.4870853438269 -1.24980310515255 0 0
176.122562582184 -0.11139829284028 21.7753751236504 0 0
180.502408423737 19.1963881126003 -22.6482851122965 0 0
160.018804970345 29.2255155976937 6.76375953368127 0 0
129.206996745224 -17.0247633225402 -6.81438728062932 0 0
184.735897536976 17.3844717029049 -21.3311787748641 0 0
35.9970594905173 -11.1217794866503 -2.87532629633156 0 0
201.705902243349 0.502638981052809 -5.02671013980417 0 0
199.337247759189 -16.9576042855366 22.8487838297645 0 0
-40.4034222906784 -20.5937842275289 3.75295717418787 0 0
17.0304458094204 7.71031842099559 3.42538853940089 0 0
181.768727015227 -25.9067903582649 23.1176047993768 0 0
123.550697794379 9.43935647836098 -5.60637542349666 0 0
186.926819968972 43.3891536519714 -24.8100421540206 0 0
-26.5114750615403 -16.7675819434865 0.42230341201908 0 0
57.9228824685424 -15.8955964681989 16.3686026991328 0 0
120.53227097046 -16.355799481935 -4.41996005440538 0 0
188.359532742946 39.0183839885456 -35.4109005847152 0 0
136.413380608387 13.8727810195681 -5.09050124391051 0 0
29.029687152239 -11.9837980132399 -2.25031114949405 0 0
110.814943441627 -7.92100697049177 -7.92478270626849 0 0
135.862346750672 1.84791309754236 -9.06140850403135 0 0
128.766290524122 7.02580174543426 -7.01854119347489 0 0
-41.2613695487121 -14.3614878670945 18.781987210258 1 0
170.343730075744 8.86963863360053 -13.9096721819749 0 0
122.82743986123 -12.7552677747075 20.5451849031809 0 0
160.323539217176 0.97791689479175 -12.3533761402449 0 0
196.200983150434 35.3834278551484 -35.7406986903319 0 0
206.054691510484 5.08826522239191 7.54018767771734 0 0
-8.9119830630715 7.49077338283901 17.4961489189127 0 0
-42.0188888328698 -18.4423839583447 0.464591073546526 1 0
-11.8518367992039 -16.2018691373131 1.27494566741137 0 0
182.995796614537 30.2929982783496 18.3404194732093 0 0
-10.4823945070538 -14.6016973606001 -0.660333280130832 0 0
82.4187758976004 9.13010245225852 -0.745482406884181 0 0
68.4003388812751 -6.63322162091022 -6.02084434441123 0 0
122.557233878821 -3.11753085070983 -9.08695001670123 0 0
125.315124704127 15.21046212904 18.7798426376988 0 0
117.880710479093 -10.9487102200802 -7.81501466490049 0 0
211.246960285718 17.3615788693588 -10.6898081936069 0 0
213.865309164772 18.1012652173132 3.3324756173254 0 0
181.268655117868 20.9897513525884 -29.6020942654789 0 0
52.317162563098 -12.9039387271931 -2.07182444087372 0 0
173.267300395325 30.4637336765266 -21.0084318964645 0 0
124.411706073549 13.7796211302832 -2.72106107515155 0 0
68.5646562393479 -17.7726516257895 6.63285549258617 0 0
1.92621225811962 8.77773187538752 4.02360352741152 0 0
14.2459188499966 -5.67356059791294 -6.50669630326594 0 0
159.59805211065 13.768790079715 21.1994819968228 0 0
168.590232695986 -32.8570860049988 -13.3654387179265 0 0
144.661799505195 -7.78596726541403 21.8778543999932 0 0
19.1113161075613 -10.6010139192461 20.8438771606157 0 0
184.346315955029 -38.420820830584 -15.6351813989567 0 0
160.565338067915 25.517021947621 -8.03145225331402 0 0
38.977334150448 2.96575976325502 -1.6812426145566 0 0
99.7063835064202 -7.69616258374139 -7.13050415628757 0 0
198.619138663771 20.7381420901066 -31.9543498908106 0 0
109.549212884773 6.03133093047936 -5.52300294662213 0 0
197.938262436664 -32.7424126716037 -0.394780985586136 0 0
207.537813172334 38.9290985589225 -3.45865782829107 0 0
125.23127354595 10.4737801498475 -5.30510749066105 0 0
-3.39306198807019 -10.6909575375998 -3.59503544347833 0 0
135.644500246651 6.94555441495365 -7.64010199934456 0 0
68.094698151998 -7.48049517262199 21.8199717569631 0 0
88.7181657020926 5.50252873624353 -4.13178879965259 0 0
87.7444378958223 2.23595220346972 -4.68600199927051 0 0
194.499760217823 -18.3068568529793 -35.1428504645545 0 0
190.620934277317 11.3928988248131 -14.5071549309295 0 0
154.059753633099 -7.15772773754883 -13.5563484165428 0 0
123.243010907448 -19.0216105552935 13.2785620390451 0 0
12.5824528036104 -18.8655917675815 12.8199448194875 0 0
36.4102182211976 10.560710151524 17.5273685971882 0 0
161.422369101747 26.1155696060117 13.7180722972481 0 0
171.305921646195 -31.8405811522482 -16.9810744354797 0 0
79.1345519639449 -17.0760109944687 14.3222576689988 0 0
-38.3405401792615 -5.41234073847119 -7.6322151933546 0 0
4.89846266179309 -3.6889882193323 -6.42969629202051 0 0
66.5805879520604 -3.50419885028092 22.5367294456303 0 0
75.3518535620491 -15.8574323054154 -0.749319002822101 0 0
177.392987167446 46.273654409858 -12.7932112615656 0 0
185.278617987899 18.5268203370352 24.1529128405614 0 0
185.124184147708 7.4896653578649 -15.7242481971214 0 0
-7.98443938308005 -6.72761601337704 -6.46279264761546 0 0
183.138396448348 41.4548548672426 8.29121032581133 0 0
129.329938590159 -2.57860517670345 -9.50114625827863 0 0
12.1898696376326 -9.8441703160683 21.1609289036463 0 0
190.630254526697 20.1761671062605 -27.4636931483752 0 0
25.6281120476656 5.59740320301267 20.8618835563162 0 0
175.272652820253 11.7252508920551 -16.6969069420149 0 0
38.3739189982629 -16.4231606633807 3.83948068700659 0 0
-23.7683140519265 -13.9287125815757 -2.01256754044765 0 0
163.016739868306 -26.3668279674822 4.73842011935604 0 0
176.643843565212 -16.5645587785582 -33.7952394466357 0 0
193.745078661893 44.962053425422 -9.16055305668574 0 0
33.0305895504151 -11.4003396655752 -2.70871033636547 0 0
108.916672641541 -18.4914165832816 1.34037474943925 0 0
109.366408351866 -19.1793587496751 4.28951854894331 0 0
170.198056367882 -13.3558912466258 -24.7199505212714 0 0
71.4412479239939 -15.2204969190648 -0.989254732903461 0 0
44.7836651448916 11.2588093470199 4.90878127515673 0 0
133.868719465124 -10.6728886698604 21.7266135933684 0 0
176.319434640322 0.337683152603587 -18.1935250641202 0 0
135.300063793446 -18.3612138953576 -6.73325099320269 0 0
103.940727155919 11.6539359930079 -0.958054712162021 0 0
208.568611639291 -30.0291570234476 -18.7215553874258 0 0
16.4836460196182 9.76476382030013 16.8204760338672 0 0
68.206563160223 -9.41449910064982 21.0932376925511 0 0
97.772741472068 -6.89429828253481 -7.00320433540368 0 0
-40.2820403365335 7.73348420798124 14.3297121220761 0 0
202.739310847508 7.93969672696798 -6.94580630118983 0 0
126.02290168517 20.320460841362 11.9018640330356 0 0
119.54306105563 19.7554862402091 6.04780917696561 0 0
213.121582778764 38.4806126096876 -11.2895099277916 0 0
-38.897150673827 8.49404017045829 8.58563903672292 0 0
130.353987083057 -3.53721544812082 -9.75962890085957 0 0
95.3718515298463 7.64557933352764 -3.24997996064886 0 0
33.6186058669361 9.14203374269237 3.95130230247685 0 0
173.815953138566 -4.46902538534356 -20.1075473710028 0 0
188.487132791606 -24.3885600300545 29.5661701245136 0 0
145.558468623566 -1.45045703652267 -10.9280119568559 0 0
156.089696663933 -22.8073727035695 -12.020600334984 0 0
180.010272074039 14.0306903514525 -19.151680343264 0 0
-12.499653675652 -7.05995568524231 21.6914983066766 0 0
50.073883519859 -12.739856657349 -2.12742604859368 0 0
40.0696586076323 -3.2472652847116 -5.21751669439345 0 0
112.709447959001 10.7175442007473 -2.91833033333419 0 0
99.5136147365773 -16.7321992045228 -1.76862054418539 0 0
180.346908276116 47.2191611362966 -2.86889160062029 0 0
153.393196819893 -22.8825170229775 -8.46495791879767 0 0
165.854290561737 -5.68109972605325 20.048139204282 0 0
-1.21185060226787 -18.5103524171427 15.5642554084979 0 0
138.89065311721 11.84717569562 -6.44316985513293 0 0
17.2905398041997 -16.3650071563621 17.4211614571937 0 0
117.613393149062 -14.6191405398665 18.9577141371229 0 0
124.50398125021 -11.7765658433131 -8.64407088236611 0 0
188.404317321669 20.9076552893086 -32.7890617723357 0 0
-23.2746167472386 -4.02583516304605 -7.64599946938062 0 0
69.7246078583569 -15.5729047725926 -0.277598355815877 0 0
-17.2083983875034 -13.7476267125933 -1.81882254342489 0 0
195.478433058707 -14.0124565164574 24.6893697095083 0 0
108.315805049674 7.51914645106795 21.436664236898 0 0
94.3274057871943 -18.1187252810193 12.677377555746 0 0
107.64070364684 -16.8369860686034 -2.11196049751592 0 0
214.578591240526 27.8016636578663 -13.310132663039 0 0
13.6106514319566 -17.7741294198646 6.44871385646232 0 0
90.1566665747446 17.3397202030121 12.4683498581694 0 0
197.314239970813 -30.5386706905101 9.93283707806788 0 0
208.376573815555 38.2365684462502 -26.3116534593293 0 0
14.506150096121 -0.365117359695437 22.1431157744386 0 0
205.231428988284 18.747766567252 -23.668012803818 0 0
9.93509923496033 -2.50292124725171 -5.99063753721025 0 0
117.818322471183 15.3703576478529 18.1915140841974 0 0
157.828490090796 -0.131601038821526 -12.1748600627966 0 0
-7.92723671138878 -19.7153971324825 8.04754638276322 0 0
116.708255061832 13.9047013031187 -1.08237707540907 0 0
4.76026125066035 11.293605360961 6.01244628462929 0 0
68.3265575163671 7.44238948419548 -0.467977781686474 0 0
147.306926646243 -2.23030776121066 -11.2750414737934 0 0
191.559800115327 19.6801654051853 -32.3030942165092 0 0
167.891633403133 33.3081735455708 7.76105979293908 0 0
94.7310490918803 -18.7483348012929 5.49137730024148 0 0
144.328164688534 -12.0021390482163 -12.4277598060873 0 0
94.44946856636 -5.11185612252562 -6.59505328444345 0 0
102.682032108202 13.1833536016275 19.2631037900433 0 0
163.018342296862 3.11346001184629 -12.2507326002029 0 0
48.2418321653282 -12.8672604491635 -2.0057151217311 0 0
86.8534924187856 6.58211510125885 -3.11600865947487 0 0
-44.9890917656797 8.38082805098345 11.9164387964309 1 0
-0.7908297301352 -19.4942787146446 9.59285075644538 0 0
149.696129085585 20.6774329188856 -5.51933922709454 0 0
45.4917728334403 5.26045859664337 0.286128634024542 0 0
-17.9526580860334 -0.806981829076403 21.7268126280301 0 0
171.807246510953 -11.1118503961298 23.9011725838918 0 0
91.4022676888425 2.40978171413428 -4.88267467769003 0 0
114.491020525085 4.12024062689853 -6.60435540504872 0 0
27.4301417670624 -12.4147871027212 -1.93835088880204 0 0
138.333177758224 -5.80134549927886 -10.966722237152 0 0
167.307374898201 18.2615187420634 -12.4748198552572 0 0
42.1503030982493 -3.90095966266304 -5.36631602886853 0 0
38.6561751482981 -18.0193972956894 10.8491730017273 0 0
157.465293461605 -24.7519041082546 -10.6358458154839 0 0
93.9279405993645 -14.4697493638373 -3.95606334973567 0 0
184.741422040496 39.1124924478602 10.7749363124913 0 0
138.362882716251 22.2427060514688 3.7986821840431 0 0
207.733190395989 -30.2053840483817 -21.7179464442505 0 0
172.434486157252 23.9163591205815 20.6084118444458 0 0
184.183757854781 -16.5949041838771 -36.1748182450771 0 0
124.463865228618 -0.713853032155548 -8.75082647777588 0 0
207.473764904502 9.84798852555598 13.6153086586391 0 0
172.870963277837 9.32367115922842 -15.7192537915672 0 0
91.4386022655377 12.7822827686696 18.9728389358719 0 0
91.474287316275 -18.5091695106877 10.4543526388288 0 0
209.22795260184 21.7330169933172 17.5501372814768 0 0
181.25217830798 43.9192757079391 -19.3643602663388 0 0
62.6750005269878 -16.6242757444369 15.1370240823973 0 0
84.638235264411 16.1935029222684 14.4740914816474 0 0
131.11140394278 -18.5620009029877 -4.192359162752 0 0
-2.31313017461701 -19.0073656909083 7.21167040752906 0 0
180.438840127821 46.0841715413908 1.79829581170862 0 0
71.9374412955076 -12.8982014096433 -3.11966858877319 0 0
89.456367843472 0.103935872813096 22.4980712665064 0 0
195.417831695227 3.93203960797972 20.3314806077961 0 0
-26.4121208101422 -10.3533293231265 -4.40778560597988 0 0
27.7963082857996 -14.0832784760866 -0.373432493218857 0 0
114.331181259899 15.2178711109955 0.362825791050249 0 0
24.8100015969314 -15.8483423742638 2.43682128576938 0 0
2.09953614867776 -17.8052452672029 5.04765141267385 0 0
-36.6846337224784 -20.6174798850912 13.6605392682874 0 0
-14.0536131209409 -13.5814260505884 19.6719941041561 0 0
82.3423281210538 16.9955395166414 11.0990787163238 0 0
42.4562404226708 10.0557085015337 4.23594986398172 0 0
173.30092604506 -27.5345370140398 -27.5386426021864 0 0
173.876147746348 18.5257700138995 -16.2408914870286 0 0
158.380303904525 -7.40986605843876 -14.4382480096047 0 0
-26.0003407376829 -4.28926900787313 -7.78571463686232 0 0
191.804816284042 1.99146201698207 21.7059063193511 0 0
71.4444999304474 -10.8063111453973 20.4119196598428 0 0
153.023711192527 10.5438520441335 -8.69982701447168 0 0
165.774619827234 25.4039884171735 16.979196034648 0 0
130.979873049452 -16.7220484958311 -7.67158388958282 0 0
180.978328438783 -12.9603189810301 -34.000022337453 0 0
-20.0934212886012 3.79392675396211 19.8376250833202 0 0
90.0555101991069 -16.9967220190525 -0.43972154059392 0 0
-3.63804113469767 -19.2852058426192 7.6693918685471 0 0
184.621570687503 -13.6619293936408 -34.7698879792596 0 0
-25.4861782416688 -11.7137929358297 -3.53849703045777 0 0
179.406173199464 -35.5156540666937 -20.0624824152259 0 0
127.638259334104 -2.33221520619967 -9.32932372110448 0 0
30.0748888140924 -15.9477039600535 2.83488359522108 0 0
134.261035037233 2.50063008765494 21.6080713426669 0 0
155.677795901882 -11.9399983159612 -15.5980848672624 0 0
133.348177957971 -17.1852661031218 -7.82804323382659 0 0
212.274011065597 16.4509410026665 -7.35437297043609 0 0
-26.9193418013571 -14.0341810944464 -2.04501700554899 0 0
141.092783520145 -20.1225140710004 -4.41641664959584 0 0
187.73932631349 -12.6014333532111 27.5438817144162 0 0
-16.5966713376841 -6.08477711408494 21.8710577482684 0 0
198.203681909844 28.1240703898024 -35.7726420819825 0 0
197.54493090325 4.16618734925835 -6.45230984891284 0 0
-2.7954839069729 7.89480925624105 3.83882459458033 0 0
187.783455860587 -31.8780838127483 -27.8449164853746 0 0
107.012463602013 5.81885341108717 -5.30170358855452 0 0
200.454624039483 28.4807277725427 17.5843542954487 0 0
149.41846017748 12.186353195901 20.7876447467109 0 0
184.218990781473 -35.2540127973237 -0.753795699063507 0 0
101.668327395356 -18.3844979126016 2.36123364777459 0 0
208.354098643717 15.8553443500388 18.1398322891724 0 0
12.4119890403624 2.1128831304122 21.8108207520078 0 0
198.548944990263 33.3397781721198 13.3323189600591 0 0
70.535125809531 4.03325170185032 -3.11571475836029 0 0
211.450263257031 12.0090111608932 1.32690724606986 0 0
149.857505143364 -21.6742038263959 -8.05459687252504 0 0
2.033730824389 -19.4138967924328 10.6636541050362 0 0
88.2591274801107 -16.7302245382174 -0.735548022414371 0 0
161.298437964422 8.93692218228631 -10.846701476118 0 0
-32.6431448298009 -17.4745888089 0.487333757760714 0 0
103.090490646716 -0.689104952428872 -6.60916973789925 0 0
-34.2977223882627 6.64173471661382 16.5224712085601 0 0
-11.9133579706329 1.02255596516347 21.5264388268515 0 0
170.046981063369 29.2666503467378 -13.3668497611745 0 0
159.2977657058 -6.24227717773175 -13.9887859053055 0 0
172.738483585148 -31.1946281393953 -19.379831556014 0 0
-25.8870620434818 -19.0375334123431 3.3931755479377 0 0
125.611217787162 -3.74243891484286 22.1841071923181 0 0
45.4552380651776 -14.121907600419 -0.595999334500359 0 0
-18.1223266073943 -1.41572015009834 -5.56716771376885 0 0
171.173011588196 37.5780501823407 -11.27047825062 0 0
46.4605273937326 7.04624242345274 1.77711880319849 0 0
13.7222471253911 -3.44080111165545 -6.00379310289165 0 0
171.15319999424 31.7715004227395 -14.4889105611518 0 0
119.389038007604 19.8743831487474 11.2392155621475 0 0
33.1785822379584 -18.1221632524373 12.5850768120852 0 0
-37.8045734048853 -21.5447103771458 11.7089013547264 0 0
195.376356780031 -1.10566552982973 -13.0050473953883 0 0
154.836628619573 24.6375503383146 -5.19924630030244 0 0
123.292474063124 17.1353006706855 16.9463422863349 0 0
185.640825571509 31.3343245855936 -36.336458939456 0 0
139.684008948812 10.5262098259518 20.9978157729013 0 0
132.950174443629 -7.59439875062927 22.0423447395749 0 0
168.827653699971 39.6120239362368 -2.4669724854569 0 0
57.0915964998767 14.6568295583992 9.31731769084179 0 0
-13.1167941671303 -19.1430583390653 5.49957740575835 0 0
179.480345395787 44.5628881105633 3.67853061659882 0 0
-19.4006028567819 -4.75235622639056 -7.7893472072622 0 0
102.386606730146 1.7474548495685 -5.99249626024026 0 0
40.8860131034388 13.9604658809954 11.3712189138419 0 0
173.352043368726 10.3104166270391 22.6240485654394 0 0
117.270521712414 -14.0638825348947 -6.25108854453575 0 0
194.159870457453 -3.23163557364083 -17.5095918041734 0 0
155.833128693614 -9.06766072270517 22.08139973536 0 0
150.632191803304 16.2306287515032 19.4947245998088 0 0
181.715390269881 25.5717308365231 21.7790236028499 0 0
140.983999224691 4.78059313907443 21.3421328706616 0 0
165.150819033186 14.4807601309685 -12.4009711682977 0 0
102.236790183039 -19.0286999629053 5.40816585181076 0 0
-39.5069136558289 -7.22061053371026 -7.55181154105964 0 0
163.720393825889 4.84085755592583 20.4826399728651 0 0
184.650054706065 -37.8093138168313 -9.90793633538312 0 0
-11.4452359170445 -20.3564128150506 11.481142399633 0 3
155.790738224618 -23.5042297018488 8.72747674427131 0 0
214.46989715996 37.191164003938 -13.8185331636125 0 0
-4.61395097402315 6.10511625473227 2.81027351955639 0 0
194.305743619926 -30.4041339418025 12.3015566309901 0 0
104.496285540036 18.2894921325509 12.6815505677352 0 0
178.411260441483 -24.503215936575 -35.0212692660281 0 0
176.426781755818 -37.2625860764936 -15.8332279870517 0 0
168.792720090492 42.0108647249336 -4.60582479891487 0 0
207.119787776448 42.171426555182 -17.482967507954 0 0
131.89861094682 -3.2891078657087 -9.87325653359466 0 0
209.584871841764 -25.1310271893066 -13.0826256458393 0 0
-8.28918187163991 9.86211333825881 14.0878848749734 0 0
17.1623521600771 -10.456727784683 20.9003998779208 0 0
180.351478383669 -35.7674565259749 -3.74554927312608 0 0
114.460903485392 -10.1274615455495 -7.73053199922798 0 0
46.5039055934298 -16.8793100911975 15.094334250193 0 0
117.839369185706 18.4240223054181 3.4656071667829 0 0
192.677611284362 -33.8781717732982 -18.9155348105084 0 0
98.7052962333193 -4.77042681789085 -6.78642235699756 0 0
100.098444661829 1.87431807384348 -5.75293484227465 0 0
129.944614264653 -20.0586335100395 9.65745260868633 0 0
183.258386409529 10.7264044689063 -17.0799453753273 0 0
-20.690151763331 -20.9477621598679 10.9888478008548 0 0
10.9126844024644 8.65167039757387 17.695380432244 0 0
-43.6281720580315 8.26782287529001 8.08631368389909 1 0
169.274817935296 -27.6675401611101 -20.0935183797835 0 0
144.149728219691 -6.72593044347358 -11.906699644191 0 0
203.786576524109 43.2898894545255 -22.0736296140779 0 0
179.062735552368 -34.2992197437289 -22.7330518653469 0 0
-40.4828731776637 -11.9152232902288 -4.61743317319329 0 0
140.763285762581 -3.79506259695248 -10.9056176651985 0 0
207.849635193295 -16.8935821262612 -16.7181101488767 0 0
-45.3023987877299 -21.7892944968628 5.68161321452597 1 0
-35.0014464158694 7.87805745163588 6.80163918265096 0 0
83.2036110637289 4.53294734290878 22.0663681793311 0 0
185.76795493734 -2.31237502972243 -16.455594425808 0 0
76.9245741994604 -17.8536141773937 4.75794943972942 0 0
173.740875957993 1.41916990436874 -17.8387105283016 0 0
213.593013860621 17.9234927283211 -5.6996951285485 0 0
187.46580684579 -1.84023926213003 22.8757975731682 0 0
213.64082084125 24.7264343126764 -16.3968668310882 0 0
37.2576679537715 -13.9181407871385 18.8946355030092 0 0
-41.3849275233655 -0.939915209461682 -6.3000730032163 1 0
184.272959113942 -30.5290538432154 12.8988874321336 0 0
156.267543565402 -0.180896575027482 -11.83618897045 0 0
157.611387371346 -3.61284363059961 -12.9525283451688 0 0
152.439624701623 -2.8423230425729 -12.0440644904156 0 0
206.70976290821 -8.53995976540807 -5.5606526153817 0 0
160.198461458535 -25.8715529587639 -4.93070978822277 0 0
162.370319918357 30.31551825081 -3.57063573030255 0 0
41.1725226291012 -17.9769911839798 10.7983168472347 0 0
189.672160869669 45.5798352143636 -8.7944162160972 0 0
209.910277284887 19.4278784466852 15.6689478756531 0 0
196.499084682508 18.7882510765474 -23.1024563231967 0 0
208.054259843604 40.1039521078978 -9.4137653286491 0 0
134.314440463038 1.84323073870115 -8.87253713479293 0 0
169.165743412286 10.5067133333381 21.6873613769916 0 0
-23.0111253994853 -7.61540550040731 -6.18257502375734 0 0
-41.9530692435281 -13.9144744361716 -3.49132457865064 1 0
118.231059853748 9.75395613907382 -4.50269618657372 0 0
181.796273443608 -24.6869370915977 27.2298467242257 0 0
18.9011319649413 -18.6237436385597 9.99424481056583 0 0
163.805426470321 -11.8078916777645 -17.5610283259649 0 0
176.831786657672 30.6728459324633 -29.8692811988924 0 0
80.4386584896596 15.7922551808761 6.86370262087381 0 0
173.558759970101 -9.35455016512344 -27.4210489858382 0 0
161.35752454495 2.52304001823998 -11.7444647647193 0 0
179.763568424815 -27.8759716423406 18.8122356489943 0 0
130.045241618506 -8.61810481795332 -10.110315391197 0 0
75.7214919626581 -18.0876068825845 9.18292050223926 0 0
48.8784854404553 -1.52613758245692 22.5444387839274 0 0
186.82406719582 27.5147017833519 20.4618050670028 0 0
174.136838625246 -10.8345154491718 24.5713248516345 0 0
125.60476580112 -7.49268157998179 -9.60902625781696 0 0
47.3619973484694 -0.928998073566897 -4.62361702931179 0 0
17.5340316453137 12.2319529276845 8.18674960711759 0 0
-33.2217925601248 -6.11378116592416 21.6366278830741 0 0
204.130568509698 11.71698737747 21.056244213479 0 0
126.821857325633 -0.353320355717588 -8.83454577069978 0 0
28.5608568480413 -8.98362079805543 21.3326254964208 0 0
147.618591598825 4.08102242203104 21.2036461295082 0 0
190.954236370083 -32.5528282499785 5.72080908178333 0 0
174.436141482075 -31.7216529412055 3.94080307816116 0 0
128.804610826671 -15.232388908958 19.4500947742762 0 0
12.0087774299289 -2.32671133638683 22.1807815026312 0 0
-16.7705266754416 -6.56424217146566 -7.6606751943111 0 0
182.318066122125 47.2162174230636 -8.27270564969342 0 0
165.465083998808 8.93613237909797 -11.5722454187523 0 0
199.341617005597 -15.8101948438101 -31.5364529184722 0 0
-29.0301679371744 0.459225118231541 20.9578960758776 0 0
137.02638681815 -20.4925346178783 1.9992409878196 0 0
150.337529747709 -17.2448617655996 -13.0501292683034 0 0
32.974749564755 -15.2734887126113 1.42679152946803 0 0
87.660247054944 -17.4207742205798 13.9473150434165 0 0
148.793028791569 -7.82010718769744 -12.8098422859701 0 0
21.779897253801 -6.56272277932304 -5.88426844036049 0 0
-1.7502132676467 -19.6911634221994 12.3353621127297 0 0
206.617966946886 32.0627395197304 11.9579441693679 0 0
79.5010584580442 -17.8906916626785 4.35114612451242 0 0
67.2692164558126 -15.4732046478042 -0.0631106062373047 0 0
9.11893235940688 -16.339694849213 2.83172733399012 0 0
168.667949855659 -23.2585483573628 21.345659780396 0 0
127.040870050464 18.1957993484414 1.05927975045071 0 0
177.445919793426 -20.6909523760715 27.9759525339095 0 0
201.910208503539 24.0702607585709 20.5782298833203 0 0
92.5927543287987 -9.24146401994987 21.22308863077 0 0
75.5120449063159 -14.9974145559677 -1.71718226427259 0 0
60.7576143548039 14.0209250226023 7.31270205583175 0 0
186.390951969068 40.8046627965639 -34.2874181783376 0 0
90.4674167290639 11.6110840872762 0.552381345510577 0 0
126.854738769543 19.319222777096 14.4221998392725 0 0
98.1161280416392 -13.9238438313291 -4.73682598324613 0 0
91.8716598409875 -11.7010037847301 -5.32264615010065 0 0
115.86522655791 -8.6182421012413 -8.38768753630156 0 0
168.585319820458 -0.880849966248251 20.5482150815943 0 0
167.229936497022 15.2316255439545 21.6192470691821 0 0
159.130392054116 8.9112023808388 21.0564726785514 0 0
200.796733829893 12.2691467892289 24.1876484924504 0 0
203.011138317287 9.79128502373532 20.2194238190643 0 0
157.245383598669 -12.7196603868929 22.7907355633523 0 0
215.41451268633 34.5439357953841 -11.2139433636663 0 0
175.766009302425 44.1497825379024 -13.0254694176797 0 0
67.4922247406653 -5.02974316439421 -5.94812418519511 0 0
84.2041118454039 -15.2762429355642 -2.37940050829689 0 0
149.383085917481 -8.50676020599781 21.9332138586811 0 0
76.434663641237 -17.384805291871 2.85246826284578 0 0
-7.95869992716627 10.7105162252109 12.2099210343369 0 0
179.153634197341 41.1046202619844 -21.8800994644918 0 0
191.668410676522 -37.4297728694219 -9.22620394308128 0 0
188.916655773072 44.0349964621591 4.21808906363914 0 0
-38.0904659918257 -2.078477755017 -6.52541959785101 0 0
158.602820493026 3.53273002243983 -11.2893867819497 0 0
169.425232641518 -32.1083073217398 -15.7872624197228 0 0
41.8197021859031 -3.44106921577234 22.4038322378131 0 0
-4.68051588630017 -19.5950917611605 8.60882133065025 0 0
88.9089444565707 -3.92570143994138 22.5567817666731 0 0
60.8656043319718 -5.19453927919146 22.3663220742046 0 0
-27.2621794140613 -15.9447763111315 18.1626955186337 0 0
172.987650858704 28.495439807037 17.4640944634997 0 0
-16.9821476029666 2.89570091950792 0.0865416825381556 0 0
206.032080448548 -28.3111363405742 10.9591950606488 0 0
165.383233605729 -27.9445812834756 0.0440012453047261 0 0
169.759095373457 23.1731041185825 20.223909469565 0 0
70.2114799312916 -0.81606638783584 -4.76780771607612 0 0
-31.304616497811 2.1039795524515 -0.593529636370873 0 0
168.10566238896 -30.1029149979576 -3.73465465645299 0 0
101.122171440749 12.5479666288524 0.0976939778816298 0 0
-29.1154477268894 0.537255080661841 -4.48922522246335 0 0
50.206763103911 -7.34956418870651 21.8208060219744 0 0
186.644179420162 -38.3503814914098 -14.8239965707918 0 0
-41.2258102084717 -15.893722757725 -1.94519384604367 1 0
156.040451654665 6.13586834834843 -10.0398995794304 0 0
131.617055728512 9.49657995382513 -6.39479220840072 0 0
-4.252640927291 11.0721115191058 7.09646199385698 0 0
208.250882476182 -20.5976858041257 -19.5806914637106 0 0
-39.5734747155499 6.34805460344403 16.3171771795342 0 0
191.551848377913 1.53332973813821 -13.4018244277158 0 0
150.88204385111 -20.2601882776397 16.9292573950346 0 0
52.0484643953278 8.84813761978039 19.9045372469255 0 0
149.26309863203 -0.180646518221105 21.082560925374 0 0
203.804958907346 -2.74830433894846 -5.19742074235423 0 0
89.2841930396506 -10.3624030295657 20.6754420471282 0 0
3.06858055655549 -7.57588880025425 -5.18795994306552 0 0
215.37271751598 21.6607174545329 -1.6677678453575 0 0
55.4026389046829 -17.6005387894325 7.68210464364911 0 0
143.622573274057 -21.4242909851641 4.32270776748086 0 0
45.2834489671578 -9.50666948756558 -3.64634472191545 0 0
183.745501018977 43.7719582598954 -30.2958951301375 0 0
198.626605201166 -33.6993036599311 -4.08797091865444 0 0
-39.5276745243242 -22.0636545798442 9.39709867709619 0 0
52.4645500528933 11.12076186034 4.43536073359615 0 0
170.751179646359 -28.1939946348038 -22.5103212648644 0 0
172.682489284337 -6.10859395937825 -20.2405443624663 0 0
103.200249429473 -7.54702984297024 -7.35536758778324 0 0
91.8519430659812 -13.9100812022721 -4.16274425347845 0 0
94.7992564629355 -7.75661555083625 21.8077942511874 0 0
172.654408570001 -30.6442261241479 4.93237905238509 0 0
-14.3645873211651 -4.02147040446294 22.0493013185737 0 0
159.594076827201 -14.9882907011717 23.3602853829892 0 0
209.339831877139 -19.2068085533495 -5.95311951704352 0 0
200.092353701533 -34.7491857989791 -23.5576233772914 0 0
4.60330095407631 -16.3153140093847 2.47280205468913 0 0
200.661151534755 -2.41164480570541 13.1524180588734 0 0
-8.49786336274345 -2.08727767320311 -6.40129137181165 0 0
155.013556855157 13.0410458497414 20.892869525928 0 0
-7.58362994093182 -15.3863103786087 0.431031417393029 0 0
163.391099593575 27.0627530086682 13.6638811244037 0 0
86.9495746802737 -11.8653702545505 -4.94687924670603 0 0
192.247951873637 -33.2088703153866 -21.1206844936443 0 0
17.8857536301233 -7.20505617830438 -5.27284075092614 0 0
174.199394863509 -30.2119600681826 8.34217523298033 0 0
-6.03992887153074 -16.201261039703 18.2027546605419 0 0
63.9551371381498 -5.16716347120953 -5.95108719616075 0 0
86.7893201880368 -4.90312365071828 -6.5563781628381 0 0
49.3976980174142 -15.8959197093586 16.6198475611542 0 0
-22.7589296232324 -17.417171097316 1.56788606910425 0 0
148.930160767262 11.919321958235 -7.85112028298557 0 0
83.9118065911344 -9.4165869039615 21.0735661528952 0 0
212.558276646245 14.1901083600576 1.4326112244811 0 0
204.335649274674 -8.05171595282705 -14.1006221297376 0 0
78.4243674815155 -18.1484839915231 9.60781431268899 0 0
22.1290074547646 -15.0492725100451 18.3863468956043 0 0
53.5189008067071 -6.30394276688678 22.0927761176424 0 0
129.277373330641 -1.04835122363033 -9.15924790055106 0 0
183.833720678734 33.6683865827639 -35.5890442122245 0 0
208.850573002798 -24.2292785352759 -6.45600216204884 0 0
-31.7789342875991 -15.4833178727709 18.4079757160355 0 0
97.4734566422845 -10.6449907460724 20.682060804228 0 0
100.868987935737 -18.9357818562033 10.0240842990718 0 0
-36.0508350275453 -16.1527826140096 -1.19435454339726 0 0
129.347821388012 -19.9667662787244 2.56218590373844 0 0
92.4152101201363 -17.1916342043951 -0.314472051287337 0 0
186.706973453823 39.2597359156422 10.5111694394058 0 0
-28.2036631580929 -6.4687570455246 21.6229945786496 0 0
214.017217139888 27.2544249272974 -16.1361205064753 0 0
106.163094817039 -15.6962851573302 -3.58253978649054 0 0
201.283705996144 43.4646591192531 -19.1964930739113 0 0
200.988833158038 41.8350707995916 -0.342215235914666 0 0
199.949444890151 -33.8440090743696 -30.7143408658812 0 0
71.7093525759133 1.84557111029016 -4.01790338516207 0 0
146.949388306479 19.1119884128374 -4.98089580008073 0 0
77.4565910470792 -7.61809241982215 -5.92949302751249 0 0
180.039443168171 -0.0527366524492052 23.5070743938912 0 0
6.78833741508892 3.09901371729204 21.3723956588514 0 0
172.722724158067 43.278858393863 -6.428125766644 0 0
183.727275620784 -6.43849356662953 24.5352318167303 0 0
176.596676450769 -27.5291310665959 18.412392889133 0 0
-43.2159323665515 -12.7729950615816 -4.39714382878911 1 0
55.76912202101 2.61395744724773 -3.71199813039809 0 0
160.105166887596 2.82100079506521 -11.42667556582 0 0
114.874456614997 -1.35194095481987 -7.98549338976128 0 0
202.743526145547 34.8639947240005 9.43697167961565 0 0
180.723000038367 18.0746588490504 -21.6668406115304 0 0
16.5555453791326 -5.56687305977028 -6.38271082704931 0 0
21.2063088019552 -4.12508647953995 22.1341006497055 0 0
180.44731835222 23.2469151203156 -30.257115374935 0 0
-3.63451758740722 -7.55110934189598 -5.45883775177094 0 0
127.095699750173 -5.28294869741561 -9.7081920394395 0 0
101.507984744981 -0.685727368298143 -6.44630838756274 0 0
-18.8719003615512 -9.45116850578566 21.1121545322451 0 0
105.459715205057 14.8714697214653 17.9257054962044 0 0
162.563040610845 -27.7795635646644 -10.0941654182515 0 0
-31.521421850717 -4.16357234044399 21.6198474150621 0 0
-3.17299246206482 -19.6766057376787 9.47810176092892 0 0
155.967661336907 -7.67017296374437 -14.0693887845323 0 0
97.2151594779305 -10.3523094660874 -6.21388484149606 0 0
189.776869575803 33.6279189103229 15.5529817947805 0 0
-34.8652631872165 -21.2752584863925 6.29338988123502 0 0
148.739390219542 -22.251842442335 -1.42078101252805 0 0
212.737813148991 26.8797407871112 8.91394738078696 0 0
-44.4462997047601 -5.47205997816388 -8.29288476710055 1 0
60.6024039852286 -8.23324912846658 21.5636800825329 0 0
134.216272663507 -20.3485968552402 3.22498451208606 0 0
60.7145883106766 15.2283507702137 12.114320572008 0 0
150.054329581547 -22.2994631841197 -5.68842403924528 0 0
-6.18627130279444 -18.0496824656628 16.5224473186722 0 0
79.6832392891913 -14.3919488501356 -2.74133877784061 0 0
79.6124837450809 -11.4342477813313 -4.60265551718064 0 0
207.125043406629 14.6310816189247 19.5670715741452 0 0
17.7730465395809 -13.9452841309726 -0.688966646510497 0 0
-1.83542440411576 -2.21877524672813 -6.489361519854 0 0
-1.10140629907095 -18.3101013926797 5.71351844410692 0 0
-37.266670624394 8.78447335828207 12.2564700923504 0 0
182.539075655673 -33.9061542629576 -23.9906657627762 0 0
168.400324646787 -16.8670147754317 -22.9421121381774 0 0
182.475701312497 -29.4152210760622 -34.3926604841099 0 0
181.656824363507 -35.3671956007276 -1.7121460696181 0 0
212.445609904178 16.3987969349309 8.1831234201164 0 0
161.889617807875 -26.3532392818219 -2.0924325557657 0 0
173.954909561225 35.0377812274073 -16.0597636400815 0 0
206.290095273331 42.5680976263631 -21.1563821993184 0 0
-15.7840849380737 -19.641706733832 14.6493286888854 0 0
169.165842555762 4.69458437110765 20.9081068736477 0 0
135.691715331496 -10.622670934657 -10.8634474600678 0 0
213.708830860669 21.712844222054 7.8126052115439 0 0
191.58402290955 29.8041424195088 -37.0624821538664 0 0
68.9198620434655 -17.4156722760331 13.1450811846584 0 0
127.490292356398 4.28558815685571 -7.75732961455463 0 0
211.05890364474 40.2249585416569 -14.6657606543588 0 0
-9.70812307639691 -9.05538074536308 -4.47442801919946 0 0
64.9200036805695 0.839491316849431 -4.13038577811395 0 0
161.816468640183 17.745654987812 20.5579510446911 0 0
121.832822030354 -9.73471231116641 21.5754450184231 0 0
-17.7798806296023 -20.3643675374378 13.4446800342221 0 0
121.70445837634 4.28960398225976 -7.24416240825908 0 0
55.9429124042058 0.18685913957527 -4.42071552128747 0 0
193.640021443143 19.7612242586483 -26.8947095934636 0 0
199.980450781724 38.8230724493115 6.53756542709341 0 0
171.760199325627 -26.7260512797445 16.2702688414311 0 0
142.333603590628 2.54550052209742 21.3794080998008 0 0
125.640165512916 8.24171695173191 -6.27220653229832 0 0
146.209462240848 -21.2458177382181 10.9963781838415 0 0
168.828536581004 33.1641721065472 -11.0483396012021 0 0
-37.7975978222808 -15.7377157413222 -1.70629497204924 0 0
93.5280287347936 -12.4899857417882 -5.05380728130095 0 0
1.21321327698062 -8.61154445965643 -4.37331070316688 0 0
25.9544006018658 -16.5463759924043 4.0202912871077 0 0
139.199841944802 -16.9153521912234 -9.27710960556991 0 0
172.327071378978 -33.6344239430304 -5.50251999297983 0 0
45.3508590674117 -11.6866360311009 -2.69939629732533 0 0
171.850195027138 -22.8431637079213 23.7501593197353 0 0
84.7957337426048 -12.2420687582836 -4.58206059365669 0 0
168.151222746632 -26.8513654576875 11.9924667417845 0 0
205.42459612986 -7.0420358327221 -10.4832440092136 0 0
180.813438709054 -37.6616287479181 -17.7744346358517 0 0
76.8674068446585 4.68932356583691 -3.21438809802802 0 0
137.751397902512 -13.1917606540579 -10.6229371591026 0 0
76.6217196918602 15.3985377416911 14.9956657744056 0 0
76.2183556120075 -4.64533577191189 -5.96875129422532 0 0
69.4616502194613 11.3009799090926 3.21135844791977 0 0
61.7425015807999 -5.41818497109586 -5.99056717789063 0 0
-18.7814754822191 -20.5858129934146 8.45053359921872 0 0
-26.2775745698003 -2.66802251655091 -6.63569361426967 0 0
146.209879414456 6.39838258349261 -8.89979864235793 0 0
-5.12627756750245 11.3330527708164 10.7749171541035 0 0
111.849527008509 17.0511883519944 2.65172807373308 0 0
159.000201982558 28.2675330645382 -2.79831537348694 0 0
206.388752730745 -13.7909051687091 -14.9762166169727 0 0
213.791457525863 32.8231580711803 3.87784450156098 0 0
188.945282575584 17.5204210135502 -20.9780916102038 0 0
154.427337772115 -17.6665162699248 21.4191220978355 0 0
-37.5352258966293 -9.13938344139852 -5.85162285460277 0 0
-14.0195417664751 0.468860009030247 -3.87395299109045 0 0
167.394470773075 -27.3370954119266 8.74484191363252 0 0
198.756525582711 39.1070105324202 -34.0191243443036 0 0
187.498012881183 -25.7024901626958 28.1781671459707 0 0
57.8987582876046 1.62771371915287 -4.08916217771871 0 0
206.706232414683 -23.32207460495 -23.6340286200008 0 0
195.938688209922 -0.453885417240669 18.2850897666431 0 0
64.8023804515747 -1.11926562688286 -4.87183752201349 0 0
175.682384865582 -28.4840674316472 -29.1424989681092 0 0
194.94343603737 -24.9115279775158 -35.7862303468099 0 0
202.913599313275 14.186159717248 23.6860845947463 0 0
-43.6969546300959 -12.3184284249461 19.6582604698029 1 0
204.955502431792 -25.9382717709165 -27.184024375068 0 0
28.3153524603743 13.1384853612751 12.5567979609624 0 0
-18.6144806145028 -7.19744235383142 21.7064718800711 0 0
165.487900491032 24.7277745525182 -10.2062152282159 0 0
38.7106021965737 9.62836352001405 4.09182254848459 0 0
151.490118231131 -22.9715026372999 1.83672597004938 0 0
124.227816634332 18.6789602223291 2.31828461896189 0 0
109.698289522728 8.02511876023993 -4.43751391405202 0 0
161.791495259194 -25.7630555529615 5.77974147649005 0 0
120.986210263153 10.1149028561582 -4.78017926127898 0 0
180.787772873135 -37.8196619644016 -12.1779011924355 0 0
191.946785341471 34.0262085318077 -36.6122435510863 0 0
144.697847596984 19.1112950815313 -4.30628267224756 0 0
