"x" "y" "z" "f" "a"
-200.672666057563 -0.704677661656545 23.6269603631345 0 0
-208.482146982498 14.8680090691925 13.4152056942453 0 0
-110.399818699292 0.818415966032824 8.31715030549523 0 0
-200.552777195454 -5.9332924508819 24.5829037147765 0 0
-155.79497115765 -8.1892971057495 -8.0070860868952 0 0
-9.35231181954834 7.51650883600911 -8.37539660319993 0 0
-170.790554372819 -22.1100438494952 -5.0170603070295 0 0
-192.368812369762 42.7713990891943 -10.7283013062926 0 0
-21.9408630679025 4.88370243970653 -3.26201397215808 0 0
-92.4540767333502 -18.7283894990943 -6.73937227674812 0 0
-184.09714684108 29.4440980051483 -10.223174285777 0 0
-20.5845484803527 -16.4640371941371 -8.64136428989793 0 0
-162.735957546842 9.35850845350834 -6.59704897194533 0 0
-210.990585333424 42.8549778077926 -6.94163162398767 0 0
-183.30018336875 -16.8517148228657 -10.4392252845546 0 0
-9.37071438793948 -4.31028856100898 4.14759719851283 0 0
-141.936928321264 -3.53265857518883 -10.1701651893686 0 0
-184.624159945934 18.0976594815561 10.3796908184407 0 0
-187.596824820283 21.0152059154365 -14.7404049036765 0 0
-33.7109848574457 0.660320762892961 2.16097389238915 0 0
-46.4782570756827 -4.63454473275652 5.05552890754015 0 0
-191.23390344777 33.0114026830655 -18.229867222237 0 0
-40.3474087231629 1.05740424859724 1.52967722466351 0 0
-171.578262228163 -1.65487399188184 -11.0036815038906 0 0
-125.871011197637 0.1334486948612 11.9806739425507 0 0
-183.867867894137 8.07707960985849 -9.33730168095546 0 0
-99.2931624177831 1.84719350841475 6.83089743852767 0 0
-204.178230235935 18.8640443010807 -20.1162292307993 0 0
-112.647870751317 -11.5176449005892 12.1195767365558 0 0
-201.696977401675 -9.3558250238055 11.7185476111118 0 0
-37.7934009633156 -16.4273595496245 -6.19622935464987 0 0
-192.704050154154 28.7082297290551 -19.8921097471774 0 0
-92.6130422707895 -12.2818780111792 8.58211891000019 0 0
-103.056089993121 -1.59132907007736 8.63675821264215 0 0
-210.296407482014 9.48645430706499 1.94922511383558 0 0
-143.624042841408 3.33935973854369 17.4075330948717 0 0
-149.42884755984 -9.09760910328036 17.1812861055617 0 0
-130.162301966961 -16.1896564286342 -5.80326293067111 0 0
-166.595298661687 -0.161617201071994 -10.4976351963036 0 0
-43.2176504911487 -17.3633058498018 -6.87057351557213 0 0
-209.698602580561 42.4773725750723 9.91011847566943 0 0
-201.39411962051 -12.6521954797287 -1.95848174778223 0 0
-143.041961805236 15.2011342297928 10.2568466067182 0 0
-38.805654011027 6.52294210862908 -14.308412646933 0 0
-146.215458625465 -2.75726582969872 16.9893250842464 0 0
-159.509440177131 2.62975704976318 -10.9572604874371 0 0
-197.53929539517 1.22754847651757 4.13887118478678 0 0
-221.457413686794 26.3885547812305 -2.40250021071459 0 0
-2.38884519524295 3.59424533757409 -2.25577908460854 1 0
-169.118208223903 1.73439710785154 16.4587233997266 0 0
-167.84423404628 -19.8189305327352 19.7167057778328 0 0
-212.986071676002 39.1202318074129 10.5586710258691 0 0
-132.390679029209 -16.7882776168092 -4.80439819147054 0 0
-212.796900966944 8.91046791070772 -3.69746711835207 0 0
-38.5625339157911 -1.49648723324248 3.5385129093632 0 0
-170.956470328385 -31.2902213170869 6.99900201079689 0 0
-187.84719724862 6.77607491750852 -11.4068756563621 0 0
-209.32521157871 43.9490485827573 1.99746891599565 0 0
-188.898116643345 43.6556595292233 1.65214384472184 0 0
-156.770325066557 -21.1394687337786 11.7364301211035 0 0
-186.077697125503 -6.40606794686172 -12.4249756741449 0 0
-200.494664601812 -19.8383317095422 -6.50282272895771 0 0
-207.419417658547 21.1171377736257 -20.127882029513 0 0
-179.084054937742 -32.2690769119894 9.5122872770951 0 0
-183.035265365313 26.7205617876697 2.39352433402298 0 0
-74.5414308946215 -10.657104074758 -17.5920088470996 0 0
-7.78900827111471 -16.6578539891868 -13.8736572012389 0 0
-51.9624958510865 -7.89610925081032 3.55326703248969 0 0
-195.064637139014 -20.1399892144436 -9.6102366217722 0 0
-169.490473578949 -26.2770240838469 16.1469931155505 0 0
-192.154877387384 -23.8243584179606 18.6641365021655 0 0
-50.1660951254379 -14.1555729029681 -17.0960113046649 0 0
-90.6443740288514 -4.49158936281943 8.37479897770608 0 0
-168.7586758503 -26.9649383478713 14.5920864516938 0 0
-44.1585499087298 -14.3031004863172 -17.3075989013141 0 0
-198.173223191663 6.22363607778757 6.59937178418331 0 0
-34.3257279735799 4.92986085900028 -16.566124366413 0 0
-42.3559494545422 -17.8894894196657 -12.1901284084094 0 0
-67.3368229182869 3.30394610170049 -14.9097368537726 0 0
-176.465731976864 -5.33551359041286 -12.6779843216086 0 0
-146.622610457118 8.3102928957381 19.7952452456814 0 0
-44.6472345625154 0.335300449214376 -20.1302038023113 0 0
-185.646509826636 3.97175052038014 -10.2903096389654 0 0
-210.461433684919 8.26764630468283 -2.22955413187696 0 0
-42.8136134887788 1.55988116103331 1.12696922014907 0 0
-182.572997347176 -12.4028228919347 -12.6652374021404 0 0
-147.552052248265 13.6977405733541 18.9993082918473 0 0
-108.866496893542 -7.1646419622144 11.4732818253476 0 0
-175.377581670634 -9.4218710680181 26.2912331335938 0 0
-103.042161907251 3.00114364698401 -11.394795183423 0 0
-151.691145916797 12.8570451159555 5.96777673164441 0 0
-125.80839816948 -13.235551640026 12.7743276337805 0 0
-213.084628108823 12.7287523068913 -11.19171903624 0 0
-94.3781437830858 -13.5751619223237 -12.4621430314297 0 0
-15.4768743061078 -0.632705174036188 2.55133752340964 0 0
-77.5999491394125 -10.409399912829 -17.3450169246572 0 0
-202.322135498801 -15.4817910618444 0.718236854036062 0 0
-168.425527960305 4.63004858993821 15.744438912053 0 0
-139.726870492331 -18.2843092213778 9.68561076926901 0 0
-36.3236009053457 -17.068766672107 -7.56615307793371 0 0
-182.68584385534 32.0128776186801 -2.92068125826789 0 0
-159.882137732728 -9.0381856128004 -7.80018117803645 0 0
-132.394084018691 -0.990633566660272 13.9092810015819 0 0
-59.5493586777934 -17.7447544619592 -11.9610296026707 0 0
-170.4654428529 -11.4168507953547 -8.49651816659076 0 0
-5.28269736580553 0.804474027077349 1.06667731902269 0 0
-54.0109004174837 -5.72453378572238 5.407918794795 0 0
-212.491763029142 22.7018212057015 15.9722755740924 0 0
-178.995060523946 -27.6573270795519 15.115488557163 0 0
-131.661892758568 5.56663381659158 -4.95854320983357 0 0
-53.0755968856722 -18.4678129101258 -11.1091858083216 0 0
-184.028422668285 -28.9317786185549 13.2135049195064 0 0
-78.3340892354925 -1.78294619806086 6.15679172371486 0 0
-130.501158418885 -19.8290183063806 0.290735541592891 0 0
-179.745123164523 23.1006763707327 2.55822700522954 0 0
-213.633164164425 27.505233392771 -16.8736608024956 0 0
-177.255675959908 -21.5653567078683 20.7387675091365 0 0
-92.2943225222736 -16.6235898323675 -9.17441189502846 0 0
-29.0489325283666 5.82450201417131 -15.9170109280045 0 0
-129.347221436087 -0.621073049402719 13.1876191646673 0 0
-81.5391958228563 -14.4929114888977 -13.6007968081179 0 0
-31.0184289521003 -1.85124618097448 -21.5277517200903 0 0
-38.1826315229756 -12.9500651516725 -2.24563807419944 0 0
-162.431837497363 -21.7510528199588 14.8157630515643 0 0
-171.740136692136 -30.466053972074 -0.418908397018545 0 0
-132.922994184033 -3.17730313107771 -11.3151548211146 0 0
-199.135198303084 -11.6482528732507 24.1756718906808 0 0
-154.837087016155 12.0926021578573 19.376837339979 0 0
-180.397729540971 17.6481739339747 -6.26819179453563 0 0
-71.5509090780318 -2.83052340945789 5.76522480733829 0 0
-219.588808671357 23.5632333053404 -9.2534341384918 0 0
-182.591704072415 -19.9168019029887 22.1025850028349 0 0
-9.99261578008781 3.83756026111978 -19.4667659844355 0 0
-173.966880352273 -23.0263890597414 -7.90139952370877 0 0
-202.496825193042 38.7985577610001 15.9309984715799 0 0
-139.152199495578 -16.9731169686733 -4.43640587173749 0 0
-50.50247682742 7.4926921048969 -5.96791786216541 0 0
-58.5555406409159 2.2656546456938 -17.0660265754384 0 0
-215.695089630919 29.4905670634077 13.3963424657913 0 0
-120.560747422358 -12.2789570469201 13.0430599217847 0 0
-164.154443109527 -20.1715088648925 18.5772361192631 0 0
-162.178020920423 -23.7054042392957 8.9144095155177 0 0
-158.351858042492 -20.7488365330759 13.5547078143347 0 0
-168.74628708409 0.102141092398841 22.2539335981915 0 0
-170.96727290782 4.59564473555814 -8.13888970591738 0 0
-50.6746714776502 4.28984238580499 -15.61805074409 0 0
-182.201061294665 14.0942270676607 10.2575309928384 0 0
-198.866974393356 -13.0100654595101 -8.47510396543209 0 0
-205.914144182209 12.4952367501496 5.71306667458608 0 0
-197.565092293448 2.24739206881721 -8.40541878753088 0 0
-147.046490740142 -6.91665028951502 -9.16132459964379 0 0
-24.6939366068985 -8.7523332087253 0.381763811516667 0 0
-201.481141572104 6.08138411607057 -10.44608262395 0 0
-202.877961875303 -10.1208509182747 6.16932682043844 0 0
-107.514382837713 -11.5773696843449 11.6579162511618 0 0
-97.7650202129188 7.15031560226795 -3.73119926912694 0 0
-142.47951728768 10.8688623026617 17.3272866545854 0 0
-214.388799744066 19.1249079378329 13.2856852173452 0 0
-124.737146950472 -14.7512965116593 11.1102554555557 0 0
-126.312473839017 -0.93198767334834 -11.7033044136383 0 0
-171.189054460799 16.3111785747021 6.026115123665 0 0
-216.030627481736 34.1032934414541 -12.2546371746554 0 0
-165.854260431643 -10.9057079584351 22.0372900596582 0 0
-189.95357431243 -4.57327582347804 8.19516905291086 0 0
-140.57125126325 10.8079817458777 8.59289517970255 0 0
-173.621144684419 -12.5159516069155 24.9862798949566 0 0
-125.400031553208 4.9802960395958 -6.31649885322845 0 0
-168.187975702319 -28.3505751525347 8.45025563057417 0 0
-145.517587504008 8.71933624626165 1.54540047210918 0 0
-187.754350423215 -28.3461495791542 12.1225546386269 0 0
-200.435684269137 -2.35827092363754 19.075365534981 0 0
-146.881329276666 7.65121155222879 -6.33569168400367 0 0
-186.389846323745 31.7050271493765 11.5564582376032 0 0
-3.24932476216721 7.83083927625348 -14.6149400182982 1 0
-157.500451152862 8.86082327700725 -7.59151069728827 0 0
-174.82996069677 -29.0643705309072 13.8154689129428 0 0
-119.483057726988 -11.2845154554822 13.6836975232322 0 0
-201.3078684946 5.71697025760995 0.784320972662891 0 0
-192.768843848126 12.0793502045712 -14.3361106830315 0 0
-135.944947825993 -8.0523776608124 15.677860722764 0 0
-27.3478253368547 -14.7925139612914 -17.539720337323 0 0
-131.656094897018 -5.32361278439495 14.2165507071365 0 0
-199.208915349698 25.9977549951225 19.6057152398289 0 0
-66.9022988443707 -8.9240738218161 -19.164559355348 0 0
-179.580305963966 -29.6406748327396 -1.7890169148402 0 0
-202.838209643893 -9.41044259808657 19.2848657542721 0 0
-216.880044033676 14.064346669808 -6.67549222206967 0 0
-193.430587327948 18.2291105727779 15.8337941759657 0 0
-113.322118905502 -20.4396493464891 -0.5496021454493 0 0
-173.848600770335 -18.7480686271987 22.0964763078797 0 0
-204.575384950719 -14.1900720831341 14.4996604501098 0 0
-200.136123748767 39.0005916950462 -17.6683922276852 0 0
-189.011793469206 11.1282294308014 -12.9443813261837 0 0
-159.918245269275 9.31975438383317 16.1333909551689 0 0
-138.310202702155 10.1953552919054 10.1832354559251 0 0
-169.365931733036 -31.1521414527046 7.38315715751961 0 0
-135.055964088049 8.11793106278313 2.18166818615771 0 0
-182.101400409997 -29.7336481134797 12.7591910290697 0 0
-144.395505905458 -16.8816999665777 15.2082347173019 0 0
-99.6724632465914 -1.51688544549092 -15.2727745653539 0 0
-134.600205309417 -4.19312184582575 -11.0952541812707 0 0
-148.977555075237 -15.8728681497247 16.9029774132984 0 0
-29.5202735736638 4.27036921622673 -17.9719646569697 0 0
-201.628310987948 10.1143248921358 -14.7083479036801 0 0
-212.720360362101 9.31643300876737 -5.61725738246654 0 0
-212.332737056795 36.4525103928611 -14.5733265601943 0 0
-45.2973491775897 -16.7249933160942 -5.3967929391861 0 0
-12.5274408314108 -12.9688133678079 -19.378703628504 0 0
-151.716549593988 7.75855597163879 20.1893099670537 0 0
-182.353021850418 -33.3996583787307 3.91926808530301 0 0
-191.165112501477 29.9584617022459 -18.6882329003618 0 0
-186.630377549737 19.3371261912644 -12.5820745396083 0 0
-39.4246705290162 -3.68159625743727 4.5563355219986 0 0
-161.694185336171 8.79188826025142 15.0832812823916 0 0
-205.785059466513 9.26733970627449 2.23603369150221 0 0
-190.887124578642 -20.6940966389581 -10.2964740350112 0 0
-193.103821358855 -11.509051490531 26.889538346093 0 0
-114.645304011725 -19.4172639896872 5.6811718672168 0 0
-178.084942438167 -28.8961480191198 -2.61008117709984 0 0
-80.7706642005243 -2.65311420200842 6.65264411215284 0 0
-128.959170477971 -11.6081307070435 -9.6711913689191 0 0
-158.924064664182 -12.9038451246966 -6.89968202620957 0 0
-170.738340205321 12.1724891805188 9.45352588549938 0 0
-165.202545082945 -18.543859527174 -5.24761731626529 0 0
-106.630258733561 5.9110598386075 -5.8960355295776 0 0
-24.4489880374128 -2.67897597121012 -21.8729211883729 0 0
-198.851668500743 3.28884800587357 -0.197435416284862 0 0
-122.267512691056 7.08222989327133 2.12050647774568 0 0
-107.290751353995 5.0413683133623 3.09951280690792 0 0
-166.800436933643 -2.98528536587047 -11.1298531843969 0 0
-38.371409285793 -4.6869692720604 -21.5010488421881 0 0
-73.9848689963233 -7.77303904967785 7.43835287389197 0 0
-156.479895262734 -21.7209274882492 5.29436815683738 0 0
-101.316901915684 -14.002120337559 -10.9463930871148 0 0
-101.280897730897 -1.68721299935173 8.50760908834216 0 0
-114.444898184842 -11.1691245235215 12.8181669047651 0 0
-168.017704600384 -29.2215067925998 11.93500621914 0 0
-117.473687781644 -10.2223649550427 14.3991371653037 0 0
-168.008366434642 2.13083420047916 17.4790117106144 0 0
-20.4221954801976 1.55163802400939 0.85941552609754 0 0
-122.036371153674 2.82528996160434 9.6170168510052 0 0
-106.679039312121 -5.66789145832848 -14.7595734215991 0 0
-152.180067897765 -10.5889690166789 -7.75688786158907 0 0
-135.912289195913 8.84929045197042 8.37797343181654 0 0
-190.466798849498 9.84777891272644 11.7823287052976 0 0
-199.836807338976 -5.67743866869958 14.936563554106 0 0
-132.166976742449 -11.2147573107872 15.9092084321593 0 0
-212.080491930821 40.919454725772 -10.4510141540562 0 0
-49.5049241724384 -10.0287219210484 1.38860811944348 0 0
-143.03900827444 -1.66535839641278 -10.2029486258541 0 0
-169.421914659229 -16.1121286841099 -6.41189523170921 0 0
-26.7482163396306 5.98680425892137 -15.9315305191686 0 0
-130.135730207252 6.02625471144345 -3.60334971197926 0 0
-145.016670468634 7.45234615600781 -2.15347719814324 0 0
-199.937399700887 9.66564545417828 -13.8346297789262 0 0
-202.467079213242 44.3338131457531 3.56220193395452 0 0
-145.759074866408 -17.4248084838084 14.3962487058297 0 0
-38.8783294639116 5.94872623027894 -3.88876999913918 0 0
-4.27564478757456 -16.3128049865191 -14.7381901010568 1 0
-17.6144595971274 -15.9563747251206 -16.4115212718758 0 0
-185.952682678337 -17.3601960716355 -11.769563549546 0 0
-179.833859875465 2.85366133383434 13.8390701512609 0 0
-203.31521084969 -19.5998784841664 5.34018296374288 0 0
-32.644301723457 -8.75068067716119 0.993062689884638 0 0
-207.907173560398 43.681454344228 -3.50128193986779 0 0
-196.630876210018 45.3680084278689 7.14294919233837 0 0
-109.497885402766 -8.72027081376006 -13.6404238747368 0 0
-183.205912183306 -8.49523834016488 -13.7034253367317 0 0
-25.5935641726336 0.113110678015568 2.19343972725798 0 0
-169.991522737786 -29.0739416787323 12.7411758043505 0 0
-143.656700910697 9.9706320719526 18.3358586073903 0 0
-126.551816983795 -19.6797134858675 -0.825233721504963 0 0
-199.373729599485 -10.7719306161599 -0.51984881743574 0 0
-27.8960290878565 -6.16552797315419 3.1155057011203 0 0
-103.503333963016 -3.25940537355292 9.55446774194802 0 0
-156.381065526293 -21.4735905969658 2.58499130536984 0 0
-91.1418091596597 -17.6099877658092 -8.30499411922588 0 0
-205.94983073084 13.0921430930471 -16.4180858808428 0 0
-148.475147888097 -20.4557237059491 4.28457194927509 0 0
-23.8035425458986 -16.5475593600047 -15.1267000891574 0 0
-182.270403937816 26.3376973133246 -2.83620239376993 0 0
-196.93216253816 4.56949061016893 6.95339689636607 0 0
-20.7129459217005 -15.1200816208958 -6.18390959719479 0 0
-151.150325108746 -20.8386822074317 6.09378877437258 0 0
-136.088749085716 3.60383572403491 14.1805583841898 0 0
-48.6030805401201 8.06370039743636 -10.4687876975483 0 0
-95.4455487080275 -7.34417687834718 10.1008272513453 0 0
-191.142371831443 36.0935154298113 14.7419735167465 0 0
-149.901191774355 8.01616345053515 -3.69523349712881 0 0
-68.2063120744985 7.13327389094617 -4.50623746232682 0 0
-195.694636559149 18.9952514234627 -19.4952604959536 0 0
-9.03202258671175 5.90560670471615 -17.5939518623158 0 0
-8.84830292496008 -7.08332796855314 1.40092000481616 0 0
-101.277254010223 -20.3207324529359 1.06019445077694 0 0
-213.421468438904 22.8265645905329 -17.1559386113471 0 0
-178.156750022325 -33.6610882558703 1.53599667751544 0 0
-215.047181892138 32.1271834062158 13.1262626231169 0 0
-34.5328272474154 1.43724057921208 -20.0898682965896 0 0
-106.988501440972 -3.20092339333601 -14.7678087844725 0 0
-146.662622990173 -19.3964520162916 -0.31211312505759 0 0
-153.117330190897 7.15329302228747 19.7802691076307 0 0
-206.181159658505 35.5223355057969 17.0129938438981 0 0
-192.273526189096 -8.58976972711564 26.5004564830305 0 0
-192.921323785379 38.6035417966814 -15.7888672249299 0 0
-201.84045661831 -5.44056722207461 16.0830760825484 0 0
-136.158529114394 6.44650217098375 12.9168838079904 0 0
-198.983397907292 -23.8681254639057 1.82137101238287 0 0
-133.525114741556 5.99003086802028 -3.69142247101393 0 0
-121.629315916176 -8.29113873314327 14.171756667697 0 0
-3.05147899668319 -2.6579998157627 4.00708867097369 1 0
-200.581277190329 7.72900426661584 -12.1555598157077 0 0
-53.2553964093314 -13.1511769977013 -0.644379559995766 0 0
-39.1305835895209 7.84678810670553 -11.9652397889466 0 0
-200.966300686194 4.74694185519707 -5.68687512860141 0 0
-124.39933488591 -18.3456175535269 -3.00502652462107 0 0
-79.4326450362041 7.4401505565135 -5.19250636993061 0 0
-113.693447965611 -9.67336384232235 -12.685761365646 0 0
-171.481048945447 -30.8115058835436 8.50509747441547 0 0
-191.376189182837 -28.4804150607287 3.25361117800052 0 0
-69.9931636911346 -12.0654759940983 -17.2716059259238 0 0
-186.423604040386 25.904305476118 -14.153368346546 0 0
-128.216994848622 -20.0950111835857 5.12662071688276 0 0
-200.075237770211 -14.9184951905147 19.5417695607615 0 0
-181.055148747111 -5.39149929240915 -13.290393659169 0 0
-220.308720668609 31.6571334307491 4.88485025454369 0 0
-157.324087333625 -8.84527830232022 19.4155661787077 0 0
-95.031470941787 3.6082922010282 -11.8990077985234 0 0
-68.7799496538295 -7.68184003411902 6.62914167286507 0 0
-92.4975644121839 -15.9148316728832 5.44880455399608 0 0
-171.523242711169 1.54868041299915 -9.57618117822497 0 0
-26.9533219040152 -15.3931116352601 -6.1248501708536 0 0
-80.1422318942601 7.41738014097104 -7.94962695561055 0 0
-193.455892095254 -23.0305762959721 17.8437490302642 0 0
-76.3604352883714 -10.7260167069345 5.57934805857528 0 0
-154.352211148403 8.62112339847739 19.5883682661245 0 0
-124.216888769272 -0.840090856649773 12.3127078036007 0 0
-81.3157531760648 1.88943191707674 3.17495286553261 0 0
-214.556063600177 11.075661670754 -6.27819160147972 0 0
-183.598048078667 38.3623794051405 -1.63209987417854 0 0
-150.96643754337 1.38752272269546 -10.044352485183 0 0
-85.7006197744622 2.33990725267575 3.1945936439861 0 0
-33.681582514454 -14.5704366297468 -17.5035404571088 0 0
-200.190921934357 4.35958916688234 -0.222946960875002 0 0
-207.784491830125 15.8928248390543 15.1563712754976 0 0
-111.231534168386 -14.4272028671111 -9.32696307660605 0 0
-37.7072961194607 0.577231124334347 2.07351239513528 0 0
-165.677313567926 11.2589400934894 10.6624659588563 0 0
-208.199893035899 7.92849086539601 -2.84134129815022 0 0
-157.809544756118 7.69367527142704 -9.26953229983446 0 0
-93.8743110403053 -11.3116600072012 -14.5809316076464 0 0
-31.7588923277656 7.92417657978199 -7.91159710842385 0 0
-202.439953606357 22.3489299806015 19.7097859296888 0 0
-172.168198272444 18.0942597744588 1.99975454953509 0 0
-120.629066599002 -7.38685889924023 12.7735642265789 0 0
-153.855373342302 2.03559562015802 19.539574365604 0 0
-206.636951075124 43.5038490489871 -3.01045564214408 0 0
-159.437018795604 2.14336834131887 19.7014583291849 0 0
-150.929071741592 -12.3640300822509 -7.24596247708189 0 0
-66.4802960039583 3.38744246721722 0.0817735419114239 0 0
-190.988432571624 -21.571413429198 -8.9589139280733 0 0
-197.030297052569 -2.62945170053842 -4.45754974063056 0 0
-25.931145818604 4.78054122327334 -17.7003313416679 0 0
-69.5310782931722 -11.4345341672018 3.61976996535411 0 0
-192.736843766099 -2.6247191704053 5.78604897558337 0 0
-163.035255555724 -14.6413066102197 -6.6765396532053 0 0
-187.319390104098 26.8548395324504 -14.2581615035904 0 0
-69.5354352479974 5.01132311801598 -1.50150717808321 0 0
-85.8704205939639 3.78049591867677 -12.5817222702156 0 0
-187.059395216178 -24.7904187714974 17.9204553720669 0 0
-79.0392879611629 -3.49007649339092 7.04974305741577 0 0
-213.157814806893 14.8208416240715 -13.3197732789984 0 0
-97.0954056066047 -17.632609498032 4.81824312451625 0 0
-147.038611155074 7.39812761276321 -4.46429400242213 0 0
-207.30736492244 7.91104385245436 -8.72301377142307 0 0
-189.392292235509 -17.6635184948494 -10.8367976282125 0 0
-81.345419450603 -9.85908846357034 -17.1630000284644 0 0
-168.924794021534 -20.3897760834195 -5.19446072140635 0 0
-194.739580188073 27.1188409758903 18.7941936886717 0 0
-172.99455258111 -26.5710281079674 -3.33144362675707 0 0
-86.3712331117246 -9.20136029885306 8.72092728133606 0 0
-188.282466348061 37.5137552042118 11.509856420502 0 0
-115.977020228401 -8.97762821601759 14.2105262645129 0 0
-159.701976256931 -11.0059341447826 19.7026270533993 0 0
-214.096410335934 42.3332647072943 1.8098598536875 0 0
-172.119377395424 3.10026228841197 -8.39035863464708 0 0
-217.707560126903 30.6851570834977 10.8397618627993 0 0
-117.699259963424 -2.41966650886072 -13.0909124838538 0 0
-61.2492141630951 6.16957453664544 -12.8976556144603 0 0
-217.286707048055 35.4189737835706 -9.51344658522204 0 0
-7.60038397085987 -14.2134473897306 -5.65239592995614 0 0
-220.267327121279 22.3076289074185 -6.95650574461508 0 0
-204.745368647251 6.56844778935785 -5.24453377869951 0 0
-184.579323446028 -13.7532044129831 25.6825205889841 0 0
-169.249823723852 -13.1399782235432 22.7298806521305 0 0
-194.1374326359 -15.4153202392188 25.4207814179863 0 0
-140.776289618886 -7.43838348307798 15.9202891545601 0 0
-6.67639755727332 -7.74821270716876 0.736330728742076 0 0
-136.860533244566 5.20916959489746 14.1690640369109 0 0
-28.6940317823784 -17.3825676612108 -9.788130874336 0 0
-82.3533634896181 1.63476038799337 -15.4268135872117 0 0
-131.861306345395 -0.978752818729884 -11.2757133138225 0 0
-202.864923321534 20.4542661644785 -20.8529150890022 0 0
-97.5709691890424 -3.57902345733311 -16.0945085676274 0 0
-76.2387976811603 -8.38463670826243 -18.3765138593869 0 0
-172.790989475232 -33.1553514161066 3.89933779254169 0 0
-146.847740797403 -14.7217067452071 -6.59445326135768 0 0
-202.648957027848 44.7070050911061 -11.3889140225034 0 0
-107.028601927887 -18.6987943449702 -4.55925482597769 0 0
-159.739753505164 9.53074280713266 -5.82215724557502 0 0
-67.6609582711714 -18.4922242049991 -9.7700405325855 0 0
-177.580479659273 -26.2710640115548 -4.9851315722183 0 0
-190.325495749054 22.3035592700193 15.0377153460169 0 0
-53.7156499255893 -17.1077563134245 -13.4189913195382 0 0
-181.651097090944 -8.17601838856074 26.0589814905046 0 0
-40.0743195947612 -6.34782377561302 3.69616940403575 0 0
-133.535727122635 -12.3655085161986 15.443304101747 0 0
-60.5494966899224 -14.726350809899 -16.0018493788046 0 0
-2.34789999088837 -12.2859017108085 -19.8187885561569 1 0
-219.036804830423 35.6993149915145 3.86488983045781 0 0
-153.750414732655 16.5120112818596 15.1639678835788 0 0
-184.591230320103 23.8463070889077 -9.32461510444402 0 0
-134.230610904586 3.94460388310483 -7.98195611492557 0 0
-17.5683099323158 -0.155586563140527 2.25479106132234 0 0
-76.8035048954708 3.25029163583663 -14.5662687470385 0 0
-183.600128286928 37.0119576567059 5.328285872476 0 0
-194.141058461665 -25.490816443975 -0.675758525023058 0 0
-153.477106617601 -15.7253323266586 17.3385053636483 0 0
-194.149976452558 -25.0908809268646 -2.04126865483053 0 0
-123.205518028448 -12.4486309867827 -9.82850071863489 0 0
-178.046833007159 -23.109002352513 -7.03959476941893 0 0
-135.278228751821 8.55838065700446 6.21562488487545 0 0
-96.5127508376734 -9.4121811182936 10.8709940574289 0 0
-40.7628777011287 -11.7280195802489 -19.6099061805863 0 0
-151.915575241656 18.5752357067869 11.9178647287742 0 0
-184.226336767508 11.247549653425 -9.45005624361188 0 0
-161.264394240571 -21.2374979260455 -1.44224144954647 0 0
-186.071710728604 26.046305772441 8.21374803371661 0 0
-178.655397766864 -33.8012116064391 3.49293001440038 0 0
-187.360490382697 39.5074648903575 -9.78683165688779 0 0
-180.472253650573 12.4109126421293 10.4376925103463 0 0
-202.059636558953 -15.8288323904885 -2.83766637817622 0 0
-112.46713296302 -0.924599672801193 9.58214751888014 0 0
-74.9977202021474 -15.8033544338068 1.91782960880724 0 0
-221.356325944095 23.3812376876901 -1.91419256567603 0 0
-143.878848256767 -14.5207918275282 -6.90650669084761 0 0
-130.644925361245 -6.18009764216092 -11.3024299453516 0 0
-170.840264870952 9.49092792550267 11.2435541473687 0 0
-193.144091866259 -7.23545152872338 -8.82714506494161 0 0
-162.308943584568 -19.4162790481027 18.1726123991928 0 0
-193.654112118767 -23.745344717857 15.9291237094038 0 0
-160.447480915562 -22.2361572850904 1.61704468051655 0 0
-162.2624978139 -5.57697640873387 -9.05292245040024 0 0
-29.8691773780363 -6.82088525036874 2.51109560684779 0 0
-172.915137124928 5.80213155738832 13.4891883668976 0 0
-202.791752796798 14.4336090500198 12.7432535734203 0 0
-172.728785514274 7.27601771016064 12.5609380078042 0 0
-157.338955123966 10.8532822620163 0.355264993860343 0 0
-88.2107163703927 -5.6237022051741 8.54803032726126 0 0
-194.316169013853 -22.3206533000716 -6.93820764457588 0 0
-75.9180078244012 -14.583976319416 -14.3573159467362 0 0
-194.805509345214 33.3345779156156 -19.7007945270849 0 0
-29.782621341982 -11.3403161260675 -1.46957717739791 0 0
-215.697359696311 20.4912951448492 -14.4618458831715 0 0
-56.5066327723722 -4.70810808798028 5.67850046002591 0 0
-86.3194833718647 -19.438960392453 -5.37165289931534 0 0
-57.1216832072752 6.75888406901054 -4.34390784139583 0 0
-198.138541880184 31.6383708438878 18.927304145282 0 0
-128.094378434975 0.628030898291243 12.3368009886421 0 0
-174.878230370911 -24.5300946408764 18.934896917063 0 0
-183.370906701023 -22.5273690930466 20.1565447415274 0 0
-176.352506477586 -16.2536307965274 -7.76120372605283 0 0
-179.502986743932 -17.8188731681447 -8.64616737864838 0 0
-189.803967291986 -28.6549889120686 0.658753116733992 0 0
-129.147319928938 -18.6768814416768 -1.94723701443924 0 0
-94.7596472368838 -18.5370169498884 -6.75263841370323 0 0
-138.874841743998 5.83275669366338 -5.35565369634073 0 0
-61.8867332995737 -2.9853353066976 5.23716561084569 0 0
-63.3259692989977 -19.0916935689742 -8.30796374836761 0 0
-202.215796928954 44.3028113715631 9.57334968804893 0 0
-57.5909094144829 5.28413203217499 -2.58834555893187 0 0
-24.4629151379131 -12.7038508327996 -3.11255593431564 0 0
-195.540557717384 -22.4496803275781 -5.91338181448389 0 0
-150.632184463088 -17.9990275609818 14.2889395078229 0 0
-43.6121487038038 4.69827524762142 -15.8849398602788 0 0
-198.072643519924 44.9375843301616 -10.5683169628487 0 0
-163.553787117135 -0.979076183381483 -10.5757165759145 0 0
-147.623026707507 17.852205935547 12.2098835871916 0 0
-114.64957535813 -14.0854232366211 9.83998330205669 0 0
-179.116898395347 -10.8541440947195 26.3148862304216 0 0
-164.095405673117 8.3272208593577 13.4733417148341 0 0
-143.896850517875 6.5969336548077 -5.9813186008458 0 0
-135.781837527869 -4.00403617153291 14.9516944816252 0 0
-189.950835049512 11.5894884200656 12.275452035722 0 0
-48.4451204039873 -0.671489071153372 3.82793108862946 0 0
-196.862211434905 -12.2725735791049 26.3279433014731 0 0
-216.202185698753 12.4692229099241 3.87028473140346 0 0
-200.643597688851 20.9568225272669 -21.1078532975844 0 0
-41.6160014120571 3.3978914078633 -17.8180432626312 0 0
-200.084079258198 23.7687223818798 -21.6959798587292 0 0
-58.7093796455815 -7.66590924076416 4.76802062531752 0 0
-13.1948420788385 0.59177520771606 -21.1688152609829 0 0
-198.498772143215 0.816215887368411 -3.67280136322234 0 0
-191.925591381502 29.7203427533628 17.4299108263841 0 0
-155.524978912285 6.01531791480202 -10.1003563799224 0 0
-29.8037200755595 -13.6624417715078 -3.75254139216513 0 0
-205.563154737024 40.9774418487197 -15.1751439655792 0 0
-112.303557021842 -13.23156452654 -10.584533814036 0 0
-83.0326896719679 -1.46296689594502 -17.4940898906674 0 0
-203.449197273151 -7.17921032112655 18.8697279489757 0 0
-187.55514182546 23.5533314190094 -15.3669576944445 0 0
-122.436834950679 -18.0892987720406 -3.71749884717758 0 0
-127.99731559884 -5.79080009078765 -11.6721192730083 0 0
-193.471021765292 22.0601935109088 -19.3614501657571 0 0
-218.337815740986 31.0337555434731 -10.4539778719004 0 0
-55.1773090672743 -7.61812022059549 4.19253424624512 0 0
-160.406151034425 -5.06928095140628 -8.69242729820736 0 0
-188.424293398476 -2.54322410010046 11.5523118577695 0 0
-201.419379101946 -3.63503099499592 19.2161886916362 0 0
-192.990693503918 -17.9249924914967 -12.0813380884092 0 0
-171.274013189271 -28.7141881523667 1.70758229589227 0 0
-183.336382438456 27.2678156958804 -6.03930909855445 0 0
-108.096218295524 -17.2150397747144 6.98049925423226 0 0
-100.336399146518 -15.9980158758851 -8.88183654473396 0 0
-79.0474328194499 4.32351457836006 -13.1238960979186 0 0
-178.245505037486 -8.59707047707853 -12.9703295088399 0 0
-164.879898627497 -6.22902266786759 22.5003903439325 0 0
-104.735991313406 -0.610799998300032 8.29991977574688 0 0
-13.3958897225766 -15.7161377743923 -16.50125184567 0 0
-184.416575366761 -23.6743258227301 -4.68844700399852 0 0
-59.294993249217 -12.9952281828406 -17.6552966656465 0 0
-56.2867853632633 -0.600766123184021 4.03685384286465 0 0
-166.514564718065 -14.7066804707792 -6.66366377960961 0 0
-104.818434015113 -6.06717255242284 10.6030893041642 0 0
-155.253968613533 -21.1974926689625 9.93132958455718 0 0
-106.47321452462 -4.74721286160416 10.3445498823576 0 0
-202.628282466243 18.3170937476228 17.8566327250068 0 0
-110.03135324275 -20.1855261134595 3.66832894594676 0 0
-176.197549378414 -17.7214154796453 23.1343989419026 0 0
-213.555821114089 40.4688033839273 8.52140797488997 0 0
-48.6479757976128 6.37463600013261 -13.6694682991244 0 0
-203.044129200561 -11.4123030272629 5.78801180979812 0 0
-175.051045872309 -14.4377937308347 -8.14868670836612 0 0
-201.505931659845 -14.9427365602599 -7.22276715971789 0 0
-184.78872005038 9.7548975708356 -9.75760874134195 0 0
-143.768542481046 15.8415626710912 12.6925216401801 0 0
-155.115107711378 16.1337914806853 14.2445475812383 0 0
-199.700968494368 -20.2470757775147 15.7791705870252 0 0
-144.780905719693 7.43307440089584 18.9916759067702 0 0
-168.46493371623 -14.3656837780924 -6.90973412698851 0 0
-179.309377840391 -12.9675924291178 25.6256794728873 0 0
-132.420524107629 -2.82752194400266 13.9838875225779 0 0
-132.314027220677 4.71188919122717 -6.67645538037585 0 0
-137.748309626106 -3.37872780873793 15.3127429370615 0 0
-164.698337837639 3.18092494175346 16.7617067342894 0 0
-150.447941057986 -0.667354385048586 -9.63674202301369 0 0
-192.515432896317 -3.20081996434022 7.12751205353047 0 0
-220.096560119608 18.0496374573651 -1.42618622673834 0 0
-35.8166856034797 -1.22465096195236 3.47792149287911 0 0
-33.7161606160695 6.77903375988883 -14.5364177102807 0 0
-201.446049430079 -9.01582428360851 6.42888145144507 0 0
-153.493958574673 -9.05245474481324 18.2352986176228 0 0
-9.49501279654499 -16.6100786696191 -11.0802934413096 0 0
-145.116609748443 -16.4172988931175 -5.33444695569946 0 0
-171.073679784624 -30.2461787787565 11.0834852569415 0 0
-82.1017337652475 -4.40261098482229 7.42867323221621 0 0
-177.901950247443 -29.7000235343894 12.8672029112544 0 0
-151.449053695663 5.05956038922071 -10.286069745274 0 0
-186.413641968828 -23.787196438647 -4.88981121701515 0 0
-191.382565248725 -4.57162647454918 7.81096878213606 0 0
-156.799064205728 -4.97817115721935 -8.96278801851556 0 0
-185.841061980882 -28.6290547270564 13.310543595035 0 0
-160.557400774192 -19.7558783809276 17.2416676576516 0 0
-191.210753804451 -7.48183984914409 13.9298170237232 0 0
-195.386894805964 16.7457998364903 -17.883794062804 0 0
-210.532412146897 32.4957431822422 16.3554174756608 0 0
-125.813845118498 6.2388449620562 -2.61206646628589 0 0
-160.063333029153 6.72018037045739 -9.78014862681234 0 0
-88.4768527661926 -19.6716784717429 -4.59173344350923 0 0
-184.535575522588 -2.13639273249876 19.7567288086217 0 0
-196.261295243195 -25.6367742249799 2.50738164584702 0 0
-173.669829512491 -26.2510297930427 -5.44246024770773 0 0
-26.8060266976215 -12.8895099299613 -3.18219075743555 0 0
-0.233761906124719 1.69557271650344 0.0466898741522708 1 0
-164.088586962215 13.4066768823513 8.90735429961331 0 0
-189.198213056577 43.1878642527864 4.69108334223196 0 0
-116.692210164811 -12.5358501447301 -10.5265550940798 0 0
-131.826384464108 7.39259621135161 -0.785187155847971 0 0
-195.879293605723 37.0635621481126 -18.1911589069861 0 0
-62.235506345992 -10.6058459591782 2.86336188868759 0 0
-151.659781179565 -20.154671186946 0.459375003472328 0 0
-162.895849982177 11.5878259560594 11.1054172971101 0 0
-144.092897609144 -10.1333903101839 17.0918450597774 0 0
-142.39979096958 -3.07863204042047 15.7845375882522 0 0
-138.83484376969 -13.8949987552796 15.6386199156244 0 0
-190.060816875094 -15.2365546591746 -12.9531964239694 0 0
-66.4841970949772 -16.8037447238793 -1.10681347664398 0 0
-170.060200398053 1.23375274121071 16.7396677694777 0 0
-64.6958492264474 -9.64644261859907 -19.0858074076777 0 0
-96.4657518438814 4.88159353708058 1.29523997890957 0 0
-139.981565744674 -19.8948512099915 2.85557948021932 0 0
-160.701111671672 -22.4849545769895 12.6116723852914 0 0
-94.799061678362 0.863148274247164 6.44327748168645 0 0
-211.885150060666 9.71961969201444 1.98318260766893 0 0
-99.5002366428166 -8.92781586141864 -15.130803616008 0 0
-72.4806793258918 -19.1796677980827 -6.12992451960154 0 0
-181.12026279161 24.7593300693701 1.59934955721264 0 0
-101.840820189195 -11.0136659102515 11.2615743100498 0 0
-195.369583860793 32.9376850014651 17.9947047978767 0 0
-128.855808423654 -11.4103013006621 14.3879314934671 0 0
-88.6001821213458 -9.23861851305759 -16.5966366357903 0 0
-95.817253167153 -20.1622407270199 0.129980085244171 0 0
-157.312770050039 -18.1188440341277 16.4045978036084 0 0
-131.518872208034 7.18247362421275 8.48438868178264 0 0
-220.075599251843 25.3938151557422 7.61877043719635 0 0
-37.3079055986662 -4.70900534906126 4.72558875827288 0 0
-157.629757438755 -3.36929135480857 -9.28634578971511 0 0
-174.652952215724 16.6328964317003 -3.53361556513208 0 0
-215.602873117614 14.2610090805793 8.27462710276104 0 0
-39.3402622282225 -10.3203087316929 0.229353600414624 0 0
-186.652080941382 -12.5323271776621 -13.5590935891733 0 0
-167.568421864263 3.53803685715996 16.8099783648453 0 0
-50.3272099103509 -12.3075733316996 -18.6801977433369 0 0
-92.963346808081 3.10037647846914 -12.5464876592791 0 0
-195.16893693002 -20.8584291308773 19.714416130101 0 0
-124.703540621583 -19.4002279185476 -1.3307850474338 0 0
-207.256572004186 42.9137380570424 -11.8412117299022 0 0
-96.8797452395137 -13.2517259263682 8.24260724797935 0 0
-189.55161361802 -22.3696546839045 -8.4158968731577 0 0
-208.727625216355 25.2905030761138 18.2900352558518 0 0
-184.333493996861 -24.0028326449039 18.7382503673964 0 0
-196.890115105507 39.4382150806799 15.168233012144 0 0
-188.930618388002 20.5433124881608 -16.4337946076059 0 0
-32.0273202370425 -0.552526507651604 2.99074030211215 0 0
-102.28684626846 -4.19162960208368 -15.4825674338132 0 0
-152.868728993331 -11.6924004579202 17.7195744075248 0 0
-132.50008900476 -8.04784054236409 -10.6868152758099 0 0
-155.822659132495 -16.5847199846094 -5.36271563069618 0 0
-104.5937245388 -16.5260558378708 6.98443313843097 0 0
-115.699455783143 -10.5098256523445 -11.9366263347165 0 0
-153.369519823764 -21.2968459274051 7.1506578917525 0 0
-156.937202090466 -1.01299783857153 -9.64320410944297 0 0
-170.290238836454 -30.6241862291827 5.59721763708571 0 0
-156.932606600746 0.291246416681885 -10.0936056412591 0 0
-171.103473438577 -13.071682912099 23.497831695298 0 0
-210.689128238076 40.2867349948187 11.6562042741438 0 0
-110.009313957789 -20.0134930426629 -2.1337771966964 0 0
-194.501543029377 -18.9432317970674 -11.2522105326731 0 0
-158.974339410664 -7.58813139510271 20.0290935342926 0 0
-196.8144426552 -16.7629078483021 23.4908641898864 0 0
-193.243553752825 -7.45146886992002 13.5710768936509 0 0
-81.2324031697798 -0.257590147019522 6.02764673280843 0 0
-200.471574136425 44.3322758704571 -12.208907480081 0 0
-160.474654376813 10.1835418663803 -3.66882428046255 0 0
-126.479407192913 -9.01761800980871 -11.1511906254186 0 0
-178.002754508628 -16.7254203491783 -8.07227369055619 0 0
-11.3532524616595 5.72514298041375 -5.02588440074617 0 0
-141.461293818459 -18.0123521087535 -2.69781815764761 0 0
-158.280447991496 -6.77473345522797 -8.22743873290007 0 0
-123.723555028302 5.93190124717221 6.42151836118234 0 0
-221.178778540999 27.1088995386236 3.86731992847714 0 0
-20.9324229184761 -6.57002219432626 2.35696441747482 0 0
-4.4520221659568 7.27153493546056 -7.94929974938668 1 0
-188.774114025055 17.226834973971 12.7650964628462 0 0
-189.372874016412 5.43262319599414 -11.9636770746449 0 0
-201.358638482386 -8.29518582782811 22.626831522423 0 0
-176.566491293255 12.0018078200449 -6.79796257148526 0 0
-150.794635484815 -16.7558356035887 16.4678825151926 0 0
-182.240480353001 34.7655409662867 -3.31233417650473 0 0
-89.4659003219992 -3.74721491978958 -17.2843944229025 0 0
-63.7211061892192 -14.3297041136809 0.49397403350894 0 0
-35.9164988745352 -7.75647071420793 -21.3225738876129 0 0
-105.463506637867 4.89232257771754 2.83815535619586 0 0
-72.2917305133717 -7.47824756278835 7.23692239743976 0 0
-210.542459336138 31.358088970339 -18.2614644583594 0 0
-218.321583907015 22.4541835636597 -11.4193876835537 0 0
-176.417650820617 14.4379849718426 -5.71871233999289 0 0
-192.357456483142 8.70034406031373 -13.1910221165759 0 0
-186.496564563394 28.1944461338255 8.03405626268466 0 0
-201.345068921677 -15.4901727348104 17.5061155215337 0 0
-92.373300597381 -1.7405644260391 -16.3464802318082 0 0
-42.6382925747513 -13.4259244591848 -18.197670277006 0 0
-94.1983772634636 -15.223470116615 6.52361872176961 0 0
-144.395643015555 10.9992083360337 6.28078628871866 0 0
-27.4827543394715 0.942734816346651 1.59111099309876 0 0
-44.9794045074171 -18.1433786816898 -12.0230467116525 0 0
-46.3334697918555 -1.48125065036044 -20.7978633406451 0 0
-202.150272648473 -6.94046008654976 15.1244147704189 0 0
-140.541242727339 9.51351797347686 5.26294770476816 0 0
-189.638667847582 42.49844214608 7.02782815385135 0 0
-131.822213272031 0.572099042531999 13.3910982589998 0 0
-40.8742060146075 -5.04570911972105 4.62267441616563 0 0
-210.971433850252 14.4555431393663 -14.8656511311483 0 0
-205.316655525042 -17.4861941925532 12.1685641477523 0 0
-203.248409203298 -15.0644750952315 -1.11302004551667 0 0
-150.737575749822 18.2138115052686 9.80694991936887 0 0
-180.86962340647 -18.8937089507494 -9.7697703631421 0 0
-212.932412921335 42.8374794538673 -2.65346129519423 0 0
-183.644578441505 -17.9372242840808 23.6247511119226 0 0
-197.198416837598 9.23870254315892 9.33503267749475 0 0
-172.246568137461 -6.72208246702973 25.7473257038279 0 0
-191.240951921803 -3.01384483432399 -10.4195571135103 0 0
-22.1407051273654 -4.16379226414174 -22.0051034059511 0 0
-129.864712712479 2.36959709403057 12.2094692390142 0 0
-106.924737096386 -9.23333070127599 12.3239919755693 0 0
-190.732699071479 43.7847976212267 -6.56486345911782 0 0
-13.5522226001791 6.47091553749459 -16.5378007585804 0 0
-206.127905639768 -14.9660716263385 5.16776320571119 0 0
-129.667567965048 -16.1283519698848 10.3569642502824 0 0
-195.360691743417 9.33634744948712 10.1027326537113 0 0
-68.230540904471 -0.852996038544246 -18.7901600036803 0 0
-194.902460354349 13.8205451866154 -15.2995429915737 0 0
-118.595794464789 -14.6140783626962 9.63637487096209 0 0
-40.5463294387672 8.026295015664 -7.80531616509408 0 0
-187.0062714948 29.5379650269023 -12.868762893679 0 0
-201.292179832967 -11.8390340393194 3.88001396848338 0 0
-61.7201362835347 -17.5792082734167 -3.11638766559881 0 0
-42.1428085821878 -18.239776492826 -9.37614464274785 0 0
-216.06286926758 39.2839361601714 6.20678447436144 0 0
-18.8177285405681 -5.86091062663847 2.9520420735114 0 0
-58.2813099991851 -4.45946441553521 5.61349141306671 0 0
-163.154215401535 -10.324043990666 -7.55969490329945 0 0
-182.554513644883 33.2076276397872 -6.35154334032112 0 0
-192.716435984059 15.0690487207199 13.8605131676287 0 0
-127.825006952842 -4.57654828790997 13.2488816405671 0 0
-54.1566337961281 3.07318896732733 -0.239091496847225 0 0
-196.106170092565 8.07490950882106 9.20718028057441 0 0
-20.3877673347181 -11.1474368468312 -20.5465488012505 0 0
-151.750133727042 11.673586445608 4.48053671468623 0 0
-138.254323578112 4.89409207022477 -7.26771026835405 0 0
-197.910948593927 1.4802044499828 -6.0023651183982 0 0
-8.55298992501533 2.91487240268878 -1.34153029783853 0 0
-184.911239495841 28.2247934488067 -12.1276245106402 0 0
-79.2697376281572 -3.50446641348856 -18.5701798690974 0 0
-85.9982636335931 7.12150992357296 -8.11594215461927 0 0
-94.7841602047378 -18.281580079792 3.74599377509219 0 0
-158.734721762364 -19.9023524110903 -2.47641020999018 0 0
-213.270534463737 10.0836172277303 1.63235217747093 0 0
-141.096684489863 10.3457759242648 16.2947546076667 0 0
-215.868514036351 21.0875715774065 12.7336117005649 0 0
-178.939321477022 16.0497416617348 8.57455071062081 0 0
-115.083371967175 -13.9128222124325 -9.45722459042131 0 0
-147.313314905955 15.9252858571908 8.23494394311417 0 0
-203.958167166569 -11.1099804983006 10.4219117772349 0 0
-204.227890457936 -17.3015825191195 1.63029877581869 0 0
-179.143893696271 -2.28256871133632 -12.0853898709607 0 0
-189.71679232297 -16.1103195386442 -10.4084689436991 0 0
-186.872554648652 -29.8951033907489 6.3084546505671 0 0
-21.8921000376386 -14.7159970284238 -17.752377898381 0 0
-203.989150718564 45.6066557939329 -8.53201896254176 0 0
-189.596121227412 42.3669591505215 -7.96984703232617 0 0
-201.709874775593 -11.803772408383 19.6245975186892 0 0
-174.336505922392 -31.8817548756735 6.58062191799108 0 0
-12.796871801897 4.60730041802782 -3.38041272757048 0 0
-74.3630241777651 -19.1835276918715 -4.0849732225617 0 0
-187.634497612203 -8.54481675053942 -12.7736252129448 0 0
-193.518684460844 10.1269579251411 -13.8335748137445 0 0
-55.6245536813589 0.804153800058063 2.22201454496201 0 0
-179.814729539715 -19.9797090498516 21.7911955560429 0 0
-141.461929090199 -1.12914816057782 15.7163058319838 0 0
-158.404684788044 5.82551118475363 -10.1454084249623 0 0
-171.043496646239 1.95852075576551 18.7695725905512 0 0
-132.980706653168 7.28243326029093 9.90531970107258 0 0
-137.607076113324 3.53776065524263 -8.66360448613275 0 0
-107.615647185258 -14.6437678897907 -9.43999222618087 0 0
-148.930699423363 -12.9156847021212 -7.28666679528446 0 0
-38.6075041622858 1.81844736479635 0.845694969560712 0 0
-149.063234839913 1.73643571164328 18.9655204618525 0 0
-146.906670180122 -18.0130795326423 12.8767025150135 0 0
-181.623661030752 -32.9306790870206 6.64273401557929 0 0
-161.175795726466 7.46886673715937 16.8629974986637 0 0
-132.901573962065 -5.49797358810284 -11.1835035648967 0 0
-162.370635956081 -19.906777701992 -3.54801900840567 0 0
-79.9966120737583 -11.4495396721371 -16.4055782089655 0 0
-137.473532649191 -11.6847945868397 16.642619014182 0 0
-194.829194248317 38.362473838706 -16.9425518065744 0 0
-191.212981347921 13.8231667561984 -13.717174738427 0 0
-130.942881347773 -18.0117343024409 -2.83533197961481 0 0
-183.246768203753 -14.5258893212888 -11.1006315577378 0 0
-49.1973223087256 1.44460248653708 1.33301879134946 0 0
-143.065498392669 5.29793438764741 -8.20288286486565 0 0
-187.634536163475 -19.5769238909309 -12.1917931305239 0 0
-102.082495038439 -1.09095476436226 -14.7786421394166 0 0
-179.985078834241 -31.3075470194794 -0.323487669514068 0 0
-189.581430534064 25.1510335867154 -16.3147329470125 0 0
-183.828113655466 18.7372725158896 -8.75479592712328 0 0
-53.9348159936137 -10.1811830138307 -19.6554651298776 0 0
-185.797138391448 -3.8982294475019 12.9805001509249 0 0
-37.1332253729281 -14.4059447552698 -17.4786272185688 0 0
-149.84043734757 14.1670441746068 19.0780525995694 0 0
-219.49722226972 33.3350965342331 6.05189295560383 0 0
-46.9420740866806 -11.2795442717767 0.152299360623644 0 0
-119.087597830976 6.69351402764758 -1.86237838740709 0 0
-16.03252378969 6.3297832889961 -16.4964517257869 0 0
-71.6046146243277 -5.72200478749033 -19.3387070546183 0 0
-166.871171587969 5.37819204359629 15.8112606531693 0 0
-193.576888661681 -14.4364298058746 -11.3095443813863 0 0
-201.043351301891 -18.9126572419876 16.0295332649689 0 0
-106.355806085706 4.20609179045421 -9.11223757594976 0 0
-162.617036506857 -23.185062195216 3.36652557641768 0 0
-184.838792213782 -31.6649081283282 3.07982712025614 0 0
-189.366236888232 -7.69305099818743 15.0796996105719 0 0
-122.607181097949 0.346812515887101 11.2320675895087 0 0
-110.584733298259 -4.43382055197399 10.5522933921063 0 0
-128.950209067195 -17.8021247049965 8.78673427342609 0 0
-44.148602148444 -1.99303891748931 -21.03585740509 0 0
-167.211511178714 -5.73797086831825 -9.6889130198192 0 0
-185.273577461977 12.9801246288661 -10.1228850075612 0 0
-187.908592710476 -6.01860946550121 -11.8031393841302 0 0
-201.154371192529 -10.728446875998 4.9687218401761 0 0
-211.344023359358 37.2777729175381 13.4355959009775 0 0
-200.506364376483 -7.72058875551501 24.6982713758 0 0
-217.417370713281 26.0005698737598 12.0299512248931 0 0
-144.867164147579 16.1255549360782 14.51159690551 0 0
-139.166211008663 9.71844023589884 7.21084660160242 0 0
-172.310772493687 -0.739857652169719 23.3925136838343 0 0
-210.147361974449 38.0255143506312 -15.1365205178836 0 0
-165.231945999478 9.48374056467886 12.0276520648688 0 0
-157.570743481776 -12.6145949900025 18.4980420355942 0 0
-201.985267177215 -17.402306679357 -2.35704410846782 0 0
-114.516268187862 -12.4454120587007 -10.8587749846055 0 0
-17.1957000971456 -10.7786761879862 -1.53521064897686 0 0
-200.329944614736 45.4036919685774 -10.1101102317905 0 0
-68.0810416792751 -18.2712258522696 -2.76321720639017 0 0
-115.17101860622 -16.186075963778 -7.00624944134125 0 0
-176.349369513079 -18.5315122182469 -7.39459293087365 0 0
-85.4798827878677 -12.1354972603464 6.67035730639413 0 0
-207.791354187177 27.9502833939963 -20.4329760484871 0 0
-25.9964551694574 -6.1269270055358 3.08807859264718 0 0
-193.800586282325 -17.1754045361972 24.3612862093667 0 0
