"x" "y" "z" "f" "a"
-66.2533330620312 -0.262294122954109 15.8403375639203 0 0
229.729309150515 23.7288868419662 10.8656111000906 0 0
66.9730231036157 -15.2240218557441 19.0141353722963 0 0
66.8978481726032 -17.7555787294482 14.2590011144156 0 0
220.809999568576 -33.9671205697104 -12.4472108579385 0 0
182.926242494255 12.4214261786212 17.7691721338064 0 0
34.2984357284833 -13.2737198465379 22.6834298468565 0 0
195.192201704193 4.31311761084463 19.9808832717907 0 0
-80.5855183868251 -2.88307718404566 16.1380762501281 0 0
193.453948162486 0.0930424981040037 20.5958998063408 0 0
15.6716340072091 5.98293788407005 18.8446703602897 0 0
134.282032036756 10.2612053517202 -5.31471746207785 0 0
182.274604600833 -24.6301884714422 -9.28893303175777 0 0
175.90684752041 -11.2305717118213 -13.9612457812339 0 0
-102.789437522342 -21.2683533488889 -10.8456615203332 0 0
191.590842446011 29.6218048196197 9.56979221514623 0 0
-61.1966695779907 0.895956240225322 15.2996827291277 0 0
-45.8564013104437 -16.2499693538596 -3.13817970886307 0 0
191.143149004183 -15.2886730369582 -30.1754762211739 0 0
225.403854826717 15.3121598992866 -20.3038313657283 0 0
-124.71587966772 -9.38158580508424 -13.593856138894 0 0
178.335145143442 -17.8723923729305 -14.705003590805 0 0
156.19008405351 -11.3363968011016 19.6416665231904 0 0
234.093892617402 24.3747401826305 -1.37137955983745 0 0
-72.5326581131504 -24.474938925601 1.57593501283794 0 0
205.591375356216 22.4489278063853 -36.8939578875725 0 0
-140.707952991134 -7.39415457934011 -14.8030818372003 0 0
227.638038051018 28.3429253314621 11.4350503976359 0 0
197.215628183145 -29.1457540802091 -30.3726006509443 0 0
-80.8664619586213 -6.28769723778385 19.4327420758384 0 0
175.792463009576 19.8549812534369 11.500542007309 0 0
211.926509432474 -0.836317701482554 -12.362066734413 0 0
-127.181273707434 -16.0941949246894 -14.0675263092296 0 0
158.484971663855 7.87344989693464 17.7886078328637 0 0
169.027837839263 -21.1470263884753 -1.92282376714488 0 0
192.37507117985 -12.6750391821792 25.821989260394 0 0
-3.26271499362311 3.41064292862528 2.1195558701436 0 0
218.201606019268 -30.2094853310776 -0.368458631404701 0 0
218.602697926838 12.247435602178 -13.0741752292311 0 0
157.177149074608 -0.79084218657941 -10.0596297657492 0 0
195.506952538015 -23.2828671153783 22.560012640063 0 0
-93.2867246776493 -22.4264175627233 -8.09310774182183 0 0
151.510622032724 14.0181306620489 -5.29453995242916 0 0
201.238668664719 -14.8931518438117 28.552000839496 0 0
-111.712512609414 -16.4923198691517 -12.3674717786067 0 0
63.8560409247818 -1.55391063725525 -5.6880075689852 0 0
158.070977105523 -11.2693808676353 -10.5583614547035 0 0
231.04558871006 37.0721356490048 -3.99705421699385 0 0
22.9485365062253 -12.1172240424979 23.3951150643127 0 0
193.711664130402 6.8750662974453 19.5084648222572 0 0
-145.504718994955 -26.8153696521369 -2.1004532202435 1 0
219.448931960687 -34.3629479538236 -26.9962501641698 0 0
107.503255847745 -0.837421807634981 22.1750064591233 0 0
190.033939402198 24.7811546006361 13.7073075372806 0 0
-123.278530398935 -7.89309286850676 -12.9375172037319 0 0
215.343897454799 27.7060647460395 -39.4488957502754 0 0
135.321926169363 -13.0261461348533 -7.62278731249216 0 0
215.483324307493 -23.4196025106531 -35.2408983622474 0 0
209.216119797564 -2.69995627603124 -17.1456451501292 0 0
167.812823604591 -21.3236279082335 0.318712089940372 0 0
153.724719600795 -19.4069090901818 6.14102404704352 0 0
43.785071872717 7.44634556662608 19.497057688909 0 0
221.096618733335 -24.9973539456601 13.6021000814992 0 0
209.025652114593 40.8706529344159 -33.4212999143613 0 0
211.28559254701 41.1447035313157 -32.8455115765208 0 0
35.4824925949042 5.68259992326133 20.7148309319716 0 0
232.705184668689 36.4837388096152 -5.08968352633352 0 0
198.42015818718 29.596988291375 -33.4582856621879 0 0
-36.05862098582 -22.6523836033606 17.4150426431608 0 0
234.047085892615 35.7806324043224 -8.41684034513083 0 0
172.739141036576 22.1445658897496 7.05848719319731 0 0
216.101358725836 -33.8738102241986 -31.0130797165954 0 0
35.5704936104422 -7.12384651295294 -4.25412202068115 0 0
200.4341613345 6.63018961008248 -18.1451210320145 0 0
192.485966932983 -16.9678940979433 -31.6257564899823 0 0
105.433819560954 -17.8929688967497 6.75939218107714 0 0
219.541852748703 -24.5068578944127 16.5834431544173 0 0
-50.5938429560216 -15.8249623382389 -4.23963550465448 0 0
-105.261214477821 -9.65897232535763 17.5357215963831 0 0
-61.8115235197861 -10.0767707300509 -8.77284649911353 0 0
205.397686381282 -24.5061220809385 23.9537374699775 0 0
-98.3372325775638 -12.9472159065963 -12.2400626782857 0 0
-13.1389465494512 -13.0747498800007 23.6494907428578 0 0
-8.30125923225047 -22.0573229421076 17.1475608551275 0 0
-76.9870573044488 -22.2241860022597 16.1296990654243 0 0
-119.194306695666 -25.7830735918486 4.97091403788654 0 0
-17.1027776164125 3.04916010726153 2.18360517366897 0 0
-52.1135838152569 -20.4987712118829 -0.35235596761546 0 0
-84.2682237736072 -5.76855825582972 -8.79675663005369 0 0
200.669431648552 -24.3311244923482 22.5300379454615 0 0
225.169744926615 -9.53954490041867 -2.32368923334441 0 0
-145.487117613884 -13.3152292504034 10.8857090260539 1 0
206.623904393444 43.732772092808 -8.09316233739788 0 0
100.89224835646 0.6490711242729 22.1620986664219 0 0
166.600085917798 7.97398578737256 -9.91506189253811 0 0
44.0185685487568 -0.33823660712375 -4.99582157883208 0 0
220.946764559755 -17.1700131490791 -29.4603065930339 0 0
-39.3507587776982 -17.4243160639541 21.6481404815538 0 0
36.1017505758466 -18.2629496412982 4.53615046827708 0 0
-61.7960374026399 3.36914999951948 6.6269157826292 0 0
117.620359349625 3.67003292909672 20.7754819698689 0 0
162.600845245797 -20.6431705883704 4.33503135994136 0 0
224.488157894645 12.6322437461882 -12.0242914182196 0 0
200.207501824348 -21.4412086111378 -36.3469272685595 0 0
102.599000632424 7.99631118145494 -2.62123541696887 0 0
-88.1175572150416 -4.02062976989808 -8.60981023942204 0 0
-101.232854566817 -1.57194986953088 -7.80297115047045 0 0
76.1498986396064 12.1884086446973 11.4973895444631 0 0
-60.0834768988022 -1.74813232145022 18.0068951428528 0 0
186.341088644794 -4.80491651021409 21.1547634910384 0 0
31.8492644736775 -8.60296514799844 -3.26476564618955 0 0
223.193993777514 20.0344704230255 -32.7423160744306 0 0
227.172933273376 21.1996134195769 -29.3118301683139 0 0
217.982138037339 28.6535211134474 13.6358656279698 0 0
13.3328004759945 3.04521695186459 21.6707776325101 0 0
121.901129481874 3.74567718686095 -6.8162952797654 0 0
163.519109858013 -11.844720880172 -11.2151918081228 0 0
170.385954103836 -22.0338081082513 1.22941636000692 0 0
195.290209258544 -17.9292523382581 -33.535260490395 0 0
-65.7046549223978 -15.8059371809391 -7.23782057509864 0 0
74.4946043190745 -9.75986411793973 22.5800103842773 0 0
217.813304836903 -5.47747195933908 -11.2571960257842 0 0
121.357852244482 -14.8024199090566 -3.54124890760932 0 0
-69.0644040900857 0.9925278809179 14.1710692138434 0 0
218.331712175301 16.9103423820102 -25.0790050056991 0 0
215.267862378824 42.6575302400417 -7.28042235625219 0 0
220.074530082759 -13.296980669175 -28.1266977067327 0 0
-64.3264339270881 -24.5711485241846 3.63296853765132 0 0
182.590062202265 -5.98731945238356 -13.9982877845344 0 0
216.948988075756 7.57747149706072 -8.59941940346955 0 0
-85.9373994455379 -25.3507206512328 0.913928254690066 0 0
178.618664553656 -23.7571636108385 7.94563096017852 0 0
216.358090362931 31.5319381324124 -39.2477241201263 0 0
-70.7288054787286 -25.7965053940359 8.05303678164442 0 0
-109.816441405221 -11.3777120913691 16.9279157822015 0 0
215.406456706154 41.5502378660763 -29.6788911582257 0 0
209.582813281716 -8.65306942051738 -30.563255937215 0 0
194.482532037034 -13.9985090050397 26.911863853996 0 0
-29.3008122908194 -0.682639577315272 20.6476250113948 0 0
205.452741954203 19.0825256625223 -27.9481139115415 0 0
-15.2576133329989 -10.5046671109659 24.0845690884114 0 0
137.345129293781 10.5586925057847 -5.52118258528371 0 0
227.179795422622 -16.9008589306841 -11.7666098149292 0 0
227.831714320674 23.0643205166309 13.4797499646134 0 0
211.105863117852 -32.1451180017631 1.58734867039491 0 0
202.607694875777 -24.0617869996536 -36.8527941153483 0 0
-137.471991810263 -23.8684359419061 5.9829921762448 0 0
-10.4976345247023 5.48319782841477 11.986431464025 0 0
225.808792467773 36.9399653402303 -1.10344613645172 0 0
-75.1392663291665 0.793453414317838 -1.99340571071061 0 0
227.291486158337 16.5066252817353 -19.8678299833967 0 0
117.557234026286 -15.5602719591298 15.5141193465851 0 0
127.767932948115 -7.32704591223172 -8.94403512563463 0 0
188.908387678667 26.941069549318 -14.3369315522936 0 0
223.176388072423 23.8166115500868 16.7575328109434 0 0
154.141295648918 10.1585047526349 17.1023924602236 0 0
-18.9258988076543 -18.8521404674812 2.28929715433991 0 0
191.212670261855 -0.984386186787817 20.5349288845057 0 0
10.3204836861148 -10.4987343523451 -2.30733415750169 0 0
-57.0992902179036 2.90573646865199 3.81063498751054 0 0
106.885245803397 -8.11312092629315 22.2563681051587 0 0
150.738613461271 -3.9486082139307 -9.86060319390997 0 0
-33.1839958987759 -15.919829443103 -1.67539437403961 0 0
31.6759328901507 -18.174435930244 4.24325934024946 0 0
231.831810721169 21.8302525871463 -16.6268670082314 0 0
225.876549239508 -12.2584953246253 -8.6413059166258 0 0
222.933076804274 -7.03380004600316 -8.94586217211992 0 0
-92.0687341264195 -2.8534575995633 -8.26489574934064 0 0
-43.2713228317814 -0.528678001107197 18.8475456101382 0 0
138.901588877036 16.7861098294238 5.59191677579069 0 0
-133.614601429384 -16.0798158148779 12.1816447876995 0 0
213.001945049669 -31.7758300842633 1.57589100670732 0 0
14.0520926940593 -1.71916603153459 23.4942037160044 0 0
54.550187067504 3.28383911380076 -2.59349035864765 0 0
157.378796911227 14.5254376798356 -6.10537571905192 0 0
160.750133410601 -17.7602873058676 14.2459496194228 0 0
22.5983951677805 -21.0685661836576 12.502055051095 0 0
181.791976529996 10.0954678757822 -12.3158084577377 0 0
151.794969358047 12.2022603545869 -6.50417639109123 0 0
-20.962912076846 0.00306188669416932 21.1986109986278 0 0
225.448975898848 28.7695014661866 11.9965530631825 0 0
-59.2668418484196 -14.3959716831572 -6.77255448708971 0 0
204.956468511866 33.0999644840016 -38.0211079796634 0 0
189.279926839213 34.5936685260086 -13.6071046007641 0 0
-111.027636550265 -15.3183252568305 15.9915884226413 0 0
195.800954486453 27.22461032808 14.6334524331014 0 0
221.282820119478 16.176030413904 19.4965457394603 0 0
190.712670967025 -22.2394970344908 20.9602818273343 0 0
-76.8192233403476 -3.47308701339102 17.1551620632429 0 0
232.984938405836 31.2830412251775 3.65203408134813 0 0
87.4974155883379 7.52947915475502 -0.933104038833729 0 0
210.104243350676 27.4499918875856 16.6447858615264 0 0
-127.516186754968 3.47867580762308 -3.94506903121874 0 0
21.7925383341241 -10.0884805790654 -2.20169894205171 0 0
-31.445408933312 -1.24812433715561 -4.63795674505377 0 0
11.026613453619 6.71025622257898 16.1624063619213 0 0
6.9790338107736 -1.93163456001283 -4.69979344994471 0 0
-37.4261394267375 -13.7750960824817 -3.68778437376397 0 0
55.6062748211565 5.36030861621195 0.573501419116086 0 0
17.4325024736454 0.794585990166237 22.8327868586944 0 0
52.9992771877149 -2.17705991088191 23.4796572224144 0 0
220.037763142094 16.8750180801808 -24.9182443891905 0 0
81.9279451642952 6.83195428578173 -1.03965958154331 0 0
69.8064944926834 10.9501642862129 16.3008734541273 0 0
-144.199768780443 -26.9915295903961 -10.3096196162112 1 0
197.846660746374 -10.925139924451 26.4237724356537 0 0
13.2642545420797 -2.63270023296271 -5.30248252158102 0 0
-89.5614375794901 -10.0626730799073 -11.2203511615476 0 0
35.1980651901166 -19.5429588112613 15.3195971626183 0 0
-89.4118410252217 -24.4135648430114 12.2005645864789 0 0
163.854224176277 6.24244014831387 18.1185742699316 0 0
196.89757182604 -32.884557092895 -17.3116272873613 0 0
219.597632450457 39.6925797670444 -4.55923342320065 0 0
199.457553023939 -20.3795989773605 29.2010888632767 0 0
-95.9476163471676 -22.126554191045 -9.13203811194547 0 0
221.050255999317 26.5675294055481 15.3531721813537 0 0
8.45548065675516 4.46673374320303 19.9915288976552 0 0
209.455750809092 34.7075864923699 9.25506025275695 0 0
3.04695330731157 -4.18170450073938 24.0817965557117 0 0
206.87878671424 -10.6179216248549 -32.498328578615 0 0
115.199236472712 7.97069874320594 -4.13489115296841 0 0
209.455133064467 30.6942125771962 -39.5420299994088 0 0
168.11723635975 12.8918635496852 -9.06269582910367 0 0
229.136027897551 31.1637421407112 -30.1021793160354 0 0
51.2627339101911 -6.61089231535718 -5.34658449578865 0 0
199.959093473114 36.2302816518054 5.9720008838921 0 0
18.8367635381849 -2.86451564081554 -5.55078865502643 0 0
174.821954965897 6.13036943365451 17.9061290404943 0 0
-62.3201863575187 -25.1019059106661 11.8641521984264 0 0
58.9150689492761 10.6773648241632 14.5445868317206 0 0
150.149587521593 4.33072388719866 -8.77062773267301 0 0
224.336099121837 -26.5993153850546 1.32671603020781 0 0
183.417617965374 14.6889195725339 17.4715845920295 0 0
204.187282913201 25.1752283653824 18.9663735134315 0 0
223.665719329797 30.1264448953794 11.7043143402848 0 0
189.359393519885 -12.5686324920075 -22.3494907562283 0 0
217.644093548688 37.1127144120526 -38.2561706973303 0 0
42.5513135887295 -2.6976798470524 -5.63459899618516 0 0
170.942287937779 -18.4366721684644 -9.13731488346048 0 0
-98.8003245155176 -2.45253766950145 -8.51641554608513 0 0
-107.272315336714 -26.2291399617846 5.33670872630499 0 0
105.726557588715 -6.88695787158943 -7.80312353206603 0 0
141.062510607605 4.6025916476252 -8.0420481933014 0 0
197.080609440103 10.3802537884292 20.153595935455 0 0
218.82203390855 -8.79124425173512 -25.1370344970871 0 0
-103.233821057481 -23.5024707478299 -9.22207887250845 0 0
-145.064094597776 -18.819545129006 -16.2429064750126 1 0
6.25850331211037 5.12324810946269 6.07266347975053 0 0
-132.708435056584 4.21503526693851 -0.573944272471408 0 0
144.322723169179 -15.3273652076647 -6.80958500244898 0 0
203.088758183856 18.5006873307291 -25.3386460910274 0 0
55.2342067199326 -18.859917777806 12.1474639611894 0 0
-71.5302730020373 0.499537073252397 14.3324763145617 0 0
134.040262784608 -8.67576518963199 -9.08564981246444 0 0
215.322962834421 -6.41559592223732 19.0840434913108 0 0
208.979808273595 25.815987062446 -39.0978186727778 0 0
222.080476420306 -17.7176137301496 16.3527991601787 0 0
189.202816157099 35.0337582632663 1.46481457965723 0 0
173.040555470724 1.1896222938152 -11.6108710239587 0 0
176.67055000341 7.22262157013656 17.8886823122566 0 0
100.959963505696 -6.90747828716883 -7.46559111088492 0 0
179.582245018264 -22.2623157666191 13.1464674383251 0 0
227.434593955891 33.2589408047404 6.45275358791132 0 0
-90.8299932805142 2.42240149418257 1.30214712570878 0 0
56.7253638259384 0.259550959340161 23.0662228132737 0 0
-48.5664507300792 -20.5238880257792 0.259546781153276 0 0
197.185940027956 -5.93386330576231 -24.5976108204726 0 0
66.3181704478023 -9.33681230416383 -4.22110257710372 0 0
187.51330767551 -28.6085767364184 -10.4567144269216 0 0
181.824818290447 -21.1401946085503 -14.5668769534992 0 0
71.373697787094 -12.1783146186948 21.4898928892057 0 0
91.0921963736775 -17.8215762198677 6.2950592102663 0 0
225.791148895006 -23.0606523191667 0.589822642609116 0 0
-115.009419004925 3.20337511926652 1.68005009467076 0 0
142.705206813632 2.4888570456215 20.0538352440965 0 0
224.480593915713 4.82929848763067 3.53741181322736 0 0
-115.002411142992 -25.1053715883813 -9.00342888289095 0 0
-81.7670651039042 -18.3220394227856 18.537297783162 0 0
184.400290329726 -9.49623269942383 -15.966032580964 0 0
-42.9916591615669 0.625998199093221 -2.13003847502751 0 0
-5.00194029319515 -17.5896923342286 2.11810511849018 0 0
91.1440147900456 -11.8075720023246 -4.54748608622549 0 0
96.8124478413576 7.14632293374296 20.1406784185072 0 0
212.71629044664 17.0915145549091 -31.2924319974362 0 0
191.204609338287 23.2429928546722 15.7597381549467 0 0
96.8343383749249 14.0119919047245 10.797766298202 0 0
206.484846094691 -12.1906354446345 27.5229275122238 0 0
-62.6076586185095 -0.213206454432784 16.3256665205238 0 0
-84.9626154331196 -8.24971908557653 -10.0642367393503 0 0
101.706306981268 -17.8449019371247 7.01287907632396 0 0
-129.965997331447 -12.9724600496812 -14.9338712552932 0 0
216.490106178903 34.8026719282696 -38.8996635378878 0 0
-122.251026781172 -26.3634253129665 -7.11907208505066 0 0
92.1034554489505 -8.4505283779524 22.5610403860542 0 0
103.918717504519 9.15904847126133 18.925132394954 0 0
-120.888260968487 2.27460529387449 5.33501597775722 0 0
2.25476963314659 -20.3676545608857 18.6788977026823 0 0
-3.68345432609667 -22.1753837188602 8.62770295756855 0 0
-103.454673373572 2.70889768238545 0.782241729447654 0 0
75.7376546049991 -18.189908792389 8.45607272037917 0 0
221.573886393737 41.1413682331889 -30.9748704362748 0 0
223.386227518448 -17.4359941925669 13.9297177604021 0 0
193.392903668769 22.8975254419832 -22.1122037078354 0 0
219.734729915665 16.7744145685554 -27.0150213344402 0 0
227.603755925508 26.9262779907964 -31.8663366184014 0 0
142.386878228383 -18.4852642954238 8.46085063063036 0 0
57.4619281811699 4.15673505802693 -1.26847779223996 0 0
212.194167874848 36.3787228131563 5.65128414515961 0 0
214.925768393608 -25.8971416985664 -35.3111935238959 0 0
25.1665946962815 7.67413288458307 16.4284794428717 0 0
5.0526381707455 5.99085882537973 9.51440774202122 0 0
16.1595731590342 -9.89569963479951 -2.38717943954119 0 0
-111.322027951451 -25.9467937753121 -4.97370697830478 0 0
71.5291949082048 -16.8083990327419 2.71179517456862 0 0
105.792149809265 -17.0848414637167 1.60875847681283 0 0
224.459701302197 40.1052868014838 -17.608513980151 0 0
-58.7506209453707 -2.82303210546785 19.1638602989882 0 0
199.559516362476 32.6940674711254 10.0562319420513 0 0
-107.571358975307 3.0017304622061 4.41000328487553 0 0
209.536589562286 12.5240468546108 -17.5607837200271 0 0
192.215789675888 33.4895608234103 5.68218374075977 0 0
227.886909803421 16.2616559322305 11.0948426353636 0 0
-46.5514786893933 -19.8721574612257 19.9948867413844 0 0
22.6484294396293 -19.1388248562094 5.62442746634987 0 0
-117.277943750157 2.61075468639328 4.91815221695253 0 0
227.470825898656 38.9096896064406 -11.599753363412 0 0
220.989664762216 25.0894704292267 -37.1099977839733 0 0
224.76626053072 39.7732786659289 -31.3933197382014 0 0
-78.8885916677353 -11.8589711619342 20.6195482727499 0 0
-63.6699578542347 -4.1660326007682 -6.96707884474593 0 0
230.207974972948 15.0294363794192 3.59153840664819 0 0
230.56036116764 19.6527989556417 7.1704346810658 0 0
-125.740137598691 -11.4148597629957 -14.2473622860935 0 0
-136.27341981279 -24.9414107949739 -12.9194865154882 0 0
195.847910006016 41.35634578897 -13.7512332174638 0 0
107.838568999738 7.36414923542301 19.8133282243462 0 0
206.455531822759 41.0495053928173 -25.8136840187201 0 0
-132.522960201992 0.110107645331343 8.14523162207387 0 0
-145.767683365144 -16.6048763145323 10.0151368991689 1 0
176.819481226476 15.4945554658621 15.6183858615593 0 0
-109.005309065741 -8.95775143842785 -12.2254784165198 0 0
121.040237918666 -2.84918731686215 -8.28468797416917 0 0
39.5592548177049 8.31519308294378 17.5638526269188 0 0
104.142928078869 -9.90867976267056 -6.48106917073047 0 0
-138.937275695973 -8.58751698769504 -14.9260550768069 0 0
198.568244622398 43.085235771523 -9.16900593941932 0 0
67.1695020077472 3.12553745900981 -3.3534122502916 0 0
49.4874907355813 -0.923402384876794 23.3371186716961 0 0
5.00745152365164 -7.69535517031458 -4.59767711094322 0 0
-95.3741637197569 -8.91180534191012 -11.1700971396292 0 0
185.0836909026 -26.3153357285858 -11.4400218262307 0 0
213.141880452437 -6.85432999786355 -21.2002720910539 0 0
219.941330560074 3.0476340432776 11.7172774594063 0 0
129.855238936595 13.7140160393043 14.6553686114928 0 0
21.3166883834664 -20.2531532612577 16.4839001182419 0 0
69.895481028637 4.20497523213088 -2.42100536827223 0 0
151.664910948723 -0.315693369420009 20.2770816687658 0 0
151.064546212458 13.230709322308 14.9828770442575 0 0
219.567465756811 23.4871214710186 18.6687313030033 0 0
36.4097587674468 8.69603255742351 13.5399529398702 0 0
204.64222571262 14.7062928679593 24.0953547055939 0 0
101.485529922164 -17.25561555664 2.60243861575604 0 0
168.500627151145 12.5319512518305 16.1311190478661 0 0
226.168518556711 -15.0503019789384 -15.2166049259803 0 0
-111.084667915073 -0.62622179633277 -7.50539568873428 0 0
62.761921068987 -12.2955063217992 -1.92111596043041 0 0
212.045263530107 1.63234091663833 -7.96743366391002 0 0
70.8066308399606 -15.4330435630058 0.666106118135915 0 0
219.123770540471 -18.1545703091646 20.6862432467713 0 0
-124.817067143386 -4.6618470016978 12.8354962539541 0 0
188.175268966629 34.1629755746953 -11.1424128051337 0 0
-33.6400322204193 3.9654685182474 13.530211016577 0 0
11.1429678702768 -4.93090748969348 -5.39533598844819 0 0
211.682380130507 17.0238733657716 -32.5621642154227 0 0
167.353099696811 -1.8663202636838 19.460539352638 0 0
-142.654549331141 -12.1408382221792 11.5751375322675 1 0
186.544703973013 14.2296752235939 18.2087814743131 0 0
155.181585425388 -8.69593742053516 20.5327521932215 0 0
38.163808776798 3.7826890890521 0.122264522938355 0 0
217.213408063091 -26.1630317098544 -34.1620604470897 0 0
53.4707175729678 -18.7532294085591 13.4211874069313 0 0
103.725061526984 3.38089314698884 21.3043949732364 0 0
213.504891981912 -31.5984491298122 -34.1007304292291 0 0
217.353565331304 37.9222368984644 1.58470403455434 0 0
106.379001182228 -17.6247814476347 3.92294012908643 0 0
67.1590497630448 -1.88276508645962 23.2417679135074 0 0
106.067049911319 4.48704118873699 -5.28886667437563 0 0
158.470601419177 18.3064150172605 8.54500859108969 0 0
-121.76588939452 -1.89223274675007 -9.98657402671451 0 0
35.4247272304039 1.25381381800769 -3.71524319133899 0 0
182.409728433306 -10.8190198547201 -15.8109125373306 0 0
218.337986045672 41.5393776386382 -29.1289612004368 0 0
63.2446841592513 -15.7582928675596 1.19574290331113 0 0
32.3740319414472 7.99137892766939 10.5462580367214 0 0
187.553545457377 8.53270127629288 -13.1748303254266 0 0
-35.9790311382075 -1.43392207340472 20.6455962172728 0 0
-50.960214742489 -13.8250959768559 -5.74567933858478 0 0
228.10417467659 20.9094834486284 13.1566667310164 0 0
190.896199157056 16.1917523164516 -15.537422297437 0 0
209.508451062268 10.6701480655581 -15.7397087197989 0 0
140.44359135363 -18.4642628878009 5.50471862249144 0 0
22.8508583405564 -5.853264356996 -5.05137156100155 0 0
188.301633568827 22.4452214747563 14.7870115823036 0 0
180.806937457858 -19.2125639182885 -15.2243757402082 0 0
176.661244141716 -2.69264406571955 -12.398036376351 0 0
59.2474517138073 10.2209930583958 9.32077023631848 0 0
188.113344922616 12.4729436622664 -13.6763062156501 0 0
-55.3931735823862 -9.82796206577811 -7.92413590871267 0 0
-44.4937825509135 -21.2194035020801 1.61990643900264 0 0
171.280042240174 -20.553663714645 11.9060335002892 0 0
-130.733392622322 4.06210855666997 -1.63743177000536 0 0
-120.212328331606 -25.6137124000057 -9.126028085371 0 0
88.9695436344246 -2.98343039419532 -6.60035087583324 0 0
215.838875862593 -30.3056998123911 2.7444142755412 0 0
65.2207035311556 -4.99877651069913 23.490966797043 0 0
-85.1660499653225 -20.2023826498035 -8.4645002429472 0 0
226.122044949566 6.87429055584913 3.34341529318952 0 0
222.880350744468 -31.0916818913633 -3.3877930153246 0 0
210.008125550014 -8.32417601021565 -28.1714076018708 0 0
178.279618342148 16.3982619215061 -11.8157072954163 0 0
234.703649028981 25.8125081346613 -10.1572660782721 0 0
214.974019325225 -29.236456781842 7.01693382868995 0 0
181.679904979547 3.00381454433272 18.2028496628105 0 0
208.404505542393 -25.4624999271193 -36.630470965157 0 0
-84.469925278448 2.95062038539925 5.25236597213639 0 0
214.298758883801 -31.5801594229833 -15.3791854539092 0 0
113.698256341705 -0.294616437334327 -7.46607771341935 0 0
-98.5225944973555 2.5583325217924 7.29801467866872 0 0
-59.2062471790048 -23.3460994677643 16.088980623523 0 0
-128.388424782151 -3.02143759649485 11.3029427234546 0 0
42.5886903608754 8.26167878430142 8.38589258931661 0 0
-45.0514909782435 -12.8212152784935 -5.50264415825123 0 0
-53.3237464817043 -4.39342718334831 -6.57114018327386 0 0
-13.455831454501 -21.5671983464662 18.2744953703032 0 0
46.5570170256443 3.40513721916581 -1.38025476493311 0 0
-27.4331140974314 -21.8510108654958 18.3875201722067 0 0
179.002048004937 10.063334206779 -11.4993658949526 0 0
94.6338267903476 9.9284643594157 0.563865660989115 0 0
27.2727146831733 -13.2268255934518 22.9176102212665 0 0
165.044116883805 -20.7857869593041 7.88097377484445 0 0
196.856331924174 -22.6181743209013 23.7774271877074 0 0
157.517710874668 18.8151215300579 1.48524083947272 0 0
176.442578869817 23.4166757091839 7.26476739475613 0 0
123.55892815393 -13.451905712572 -5.69290996892625 0 0
159.482059766604 18.8921553949268 -1.01544849800979 0 0
218.190454745715 41.771263928643 -24.0260329272285 0 0
-24.8216793100184 -22.8207985879007 6.64774828595647 0 0
215.883351332772 20.9903736077896 22.209805259144 0 0
145.214384161267 -13.6603675874385 18.1360724707164 0 0
-67.282623633655 -2.3349361647763 17.5938917464376 0 0
224.28692087872 5.28600393351243 -3.49857147219877 0 0
197.852293830795 16.1940993422532 -22.1362450654244 0 0
178.778082320729 -24.680453323042 3.19192484661815 0 0
-47.8538250508714 -11.551210206998 23.0376787541611 0 0
40.1614401581781 -1.1474522609672 23.4234006925304 0 0
-139.308346112227 -4.71955668957738 11.3594329515978 0 0
144.304726742992 13.8718036488468 -3.82073642016309 0 0
204.643477496671 -15.1446480752151 -35.5413599185077 0 0
188.163665630872 35.52762298103 -2.76171585594364 0 0
44.5458434458366 3.3747081237471 22.1524120827865 0 0
227.504242378513 -21.9413742763415 -15.855032377835 0 0
-107.50016813952 -20.3015016360268 -11.733482746565 0 0
170.970718390896 -11.9347132496798 -12.9194464007816 0 0
234.103417514429 33.7417090937912 -1.95646306073973 0 0
-97.2728079466192 0.452511105410308 -4.18981369302358 0 0
206.777538937095 26.7702861250932 17.4355916469985 0 0
-16.8429847597378 -3.95122875143761 23.5097022268785 0 0
117.386022061058 9.14458167301633 18.5590599187588 0 0
188.645814985709 -28.6133492901739 -3.69021503353614 0 0
199.277461285109 14.0953312052322 -20.5816686619016 0 0
-86.3896963208478 2.94900240076917 5.67973193577162 0 0
201.151162375565 -27.3428156814882 16.5164785227851 0 0
117.303265096352 7.13203993480281 19.577935793106 0 0
206.862163679663 35.9978000099408 7.79729221120282 0 0
228.157881727672 15.5334877401309 -14.8926670476876 0 0
-145.057860867794 -8.8339598829538 -15.9517598941821 1 0
130.536344902666 10.7218332757575 -4.35100312026033 0 0
-121.243255790355 2.56574196310774 -4.45804575395673 0 0
-45.9932806581345 -24.8572679418419 11.9167623967053 0 0
189.249029655932 -28.8418753763568 1.08531640917857 0 0
45.7608090887403 -17.3303044346905 3.25800385694158 0 0
144.634769483195 3.96073999962351 19.5875069191782 0 0
203.816057167907 12.0171177243416 -18.7854746193174 0 0
-82.976431935638 -25.2723231415098 1.42396330040402 0 0
-48.8571146004054 -23.2152093676451 3.65899196184368 0 0
218.16277749376 16.4782432473935 -31.3813462414703 0 0
126.751432903516 -13.1030374829885 -6.33502425502056 0 0
41.3958642468951 2.96632241230809 22.3455427311455 0 0
155.72957128381 8.00968547091987 17.9883416949395 0 0
-65.5541789337269 -4.2831267734056 19.6352487935665 0 0
112.234263639005 -4.25809525463058 22.4954420333568 0 0
202.019205411343 40.511059736137 1.12528968320558 0 0
223.711994567844 -14.5733705269265 12.5767933199769 0 0
187.472957682293 -26.2823774991067 -17.7681201487435 0 0
231.782167155232 20.6657973402768 4.96235977389117 0 0
50.3989054410567 -17.4181240288283 3.44691157431108 0 0
140.050019627073 -12.729364351411 18.8172024845013 0 0
153.673536835369 7.74449634193967 18.1360674091203 0 0
206.236935152738 34.3545512432754 9.71819360959224 0 0
101.612724998715 5.71007826744809 20.6397326624382 0 0
179.35758962254 12.4795518706988 17.2699462574651 0 0
-30.2744992893161 -4.37651007621349 23.0201201223933 0 0
193.146665286614 -21.6908596165192 23.6965594372035 0 0
196.24570946028 27.7752858955612 -30.338008504781 0 0
-47.1092718878651 3.48385286254363 12.617507879503 0 0
131.913784834288 3.30409992272165 20.3945443369938 0 0
-81.8930139219344 -6.58563829208748 -9.00042302494123 0 0
208.864317540061 42.6875222564281 -13.4746714583937 0 0
-88.2342098994123 2.84705645669321 3.62121771710159 0 0
-140.843486053024 -9.66569293077874 -15.521542217266 0 0
205.407569163996 43.2012819279018 -20.2944017011531 0 0
-116.936298591902 -16.9990404555681 -12.8808461581008 0 0
-81.4354813731542 -10.1573192778242 20.5398787880451 0 0
-53.3619009598354 -5.46662693684711 21.8880491778251 0 0
148.912676719256 17.6924326951879 4.8789551276452 0 0
146.424677839916 -16.4253641518835 15.0372336617914 0 0
111.478463677 -17.2193274010962 11.5887747859345 0 0
230.128016054968 31.9288494654826 6.58767673526889 0 0
66.9141148111659 -18.2123474511255 12.2811852879517 0 0
36.3615089784359 -5.49712238311731 -5.62762267402894 0 0
222.802428132901 -25.9151459315208 9.81017426003563 0 0
228.5682140988 10.6171160534456 3.26081944424111 0 0
215.146758424227 21.3114925974149 -37.6342171812868 0 0
-100.297236698717 -23.6216626993444 11.9261035117318 0 0
-38.5596249638716 -5.42369341189941 22.9651501452029 0 0
-100.122785086597 -17.8691692166005 16.5928405802932 0 0
173.39544922335 23.2754320068092 -4.14481277326716 0 0
172.528005228733 2.42835280211486 18.2432595019524 0 0
214.734640671397 -8.00673393337886 -28.1683590079317 0 0
-145.193881090021 5.78073440862693 -3.32599037581478 1 0
224.575533567544 11.6664097470293 12.8138345410806 0 0
226.812723219295 -28.7496732424372 -13.9451127064455 0 0
-111.661597570936 -2.50369801436606 -9.32158827914968 0 0
-90.0012639752846 -5.28176008975701 17.1047088617073 0 0
234.906120401757 32.4106822905616 -6.17703434716285 0 0
-119.198138804992 0.884257180664901 7.83960840262439 0 0
175.214895116107 -2.33327372748209 19.2665998419121 0 0
-124.654333293102 -7.25233353109362 -12.7529483614639 0 0
-75.7794000771914 2.81003411661727 9.64934409218201 0 0
-139.090022856834 -0.657334914353412 9.04721824735917 0 0
35.8650185712935 -15.8915625730944 1.57564266952754 0 0
-128.852840734169 0.0678258370144283 -9.53721985496095 0 0
129.316092683557 -17.9942922155944 8.83458613518709 0 0
161.966286102989 8.02434612421262 17.7468086003255 0 0
231.263915519416 16.6808707516686 -1.63730951878307 0 0
221.392390176086 -15.3471244567458 -27.6565353633965 0 0
175.118635830334 8.58124989013379 17.7614780968365 0 0
61.0804102456234 -6.19327066653392 -5.96642157215372 0 0
-81.7144983608981 -15.8871317065988 -9.52912281778726 0 0
17.72689717637 -20.5369545346355 16.5140442073267 0 0
-8.36026565692144 -2.70345937861013 23.3915605227247 0 0
140.627578696161 10.6356002992501 -5.96296255526654 0 0
-92.2403583391528 -6.86823105806402 -9.91258705072445 0 0
205.680886209853 -20.6150580457043 29.3485025058407 0 0
211.381775706935 -32.785964823814 -0.9041071883415 0 0
25.4069838688955 -3.84478676309742 -5.64615069038247 0 0
-102.538591263402 -26.1792082084737 5.86669635764438 0 0
161.669886221858 19.628694258068 -0.44872702723779 0 0
88.15431447537 -13.9869335474001 18.8867710474605 0 0
-55.7904142029324 -8.94908681787206 22.6865840707397 0 0
-87.125032181516 -7.85063257893407 19.5239239124178 0 0
226.676183627896 -15.1307332926567 -6.07832799443126 0 0
99.168931616452 6.69545778616392 20.3163145821463 0 0
-67.1309145671794 -20.9384218539367 -2.6829656131606 0 0
9.76414508825458 -1.94464289957036 23.5614396059116 0 0
228.922378281592 26.5693373765154 -29.7538247955996 0 0
72.3530399441868 5.24212819437557 -1.51798115255819 0 0
190.06799667648 10.773233053217 -13.9291843933644 0 0
215.133819829855 -24.8002240245492 20.841984655164 0 0
-136.915234084133 -12.181690611614 -15.8396064905768 0 0
-73.0031948085373 2.17603329314819 1.29534501729523 0 0
15.9612120160204 -16.8372805637543 2.30403834134925 0 0
193.117157413726 22.1135159179261 -19.4957514068826 0 0
-138.730971399036 3.77461261966965 -6.27403697769413 0 0
214.984167718317 7.46391688927331 18.0065520965444 0 0
217.7622467058 17.1555408578949 -26.8706165072089 0 0
220.649803239403 -32.341591878135 -6.70123124878206 0 0
186.41516434053 -10.9339090918025 23.5160981337383 0 0
169.105468663811 -18.1678141480099 -8.80023950524093 0 0
70.0278661977368 -9.76385321145791 22.7379431675176 0 0
-46.3275174953161 -8.16852769019797 -7.26918815004384 0 0
-93.2142296052006 -7.92006354577905 18.8675363048348 0 0
231.48008864502 26.4081614900143 7.97492514955331 0 0
107.972580842777 -6.36927384082048 -7.9863286292635 0 0
100.427833130731 -17.5491898699722 10.5204400003507 0 0
167.933695882187 17.2798661713634 12.1623787698916 0 0
216.845047593852 15.4176728856691 21.6256614981229 0 0
108.157289551623 -13.0705942750159 18.9451935689013 0 0
38.2786747756369 -16.2378714702833 1.88324038135593 0 0
10.8759616616361 -21.8814089016906 12.0875943382428 0 0
-131.529070618239 -2.6520642535195 -11.6139945534001 0 0
-121.224596047328 -8.75591967132175 -13.1064117837868 0 0
-138.380834456723 4.45718556777156 -0.0549880856724567 0 0
-140.958667443071 -27.3755843285094 -6.22594437703268 0 0
-86.5023396805975 -11.380265203164 -11.1510954502394 0 0
-136.55669725151 -25.2333105941957 3.92496746506257 0 0
234.88255888773 25.8368700203593 -7.05711073898482 0 0
214.704841394607 -33.103980512031 -23.090112792849 0 0
-56.9478870674334 -7.24891247792932 -7.88674977855189 0 0
-16.645058620358 4.31638931924862 5.80317079096516 0 0
211.931289091735 13.4964010933881 -17.743032998356 0 0
-76.8536182257602 -8.41750215743183 20.837872225186 0 0
68.9644294012474 2.80341598274483 22.2471137515509 0 0
201.398951325364 5.97343998384331 22.6114321113872 0 0
204.415495116584 -33.6390804039359 -19.7131908862111 0 0
-75.7802055543149 -5.87535041790838 -8.25593627425676 0 0
200.234011372823 -1.47125228585439 23.9078551663121 0 0
181.342885564416 -2.60752137005915 -13.0170143925499 0 0
-101.456909788774 -9.43883600352824 18.0835970474205 0 0
98.1624082744786 2.2939765676777 21.8074776964984 0 0
206.766426723918 1.69212110946671 21.3199922867799 0 0
214.701006241993 5.3046340547533 -8.01596520798746 0 0
230.356698787633 38.978578756653 -24.1532591448491 0 0
30.4260350560902 -0.962209173021238 -5.033567140232 0 0
-19.2746032168566 -1.51210343015599 -4.9009371835073 0 0
206.084435215324 17.0143241603918 24.3584742640007 0 0
174.470048995606 -19.3565596861281 15.5291515809257 0 0
58.2756587089907 8.40854824317176 5.1398461751249 0 0
7.30239990827372 -14.2389068857545 -0.0619221778662603 0 0
-49.9253768159913 -1.24728252917803 -5.12150963317577 0 0
4.52040451573469 -21.6852261898564 16.0363845839016 0 0
32.8836306087855 0.38887338993941 -4.36279080307702 0 0
-66.2704915260734 2.85611870895397 10.9872900643254 0 0
224.862291072922 40.7431315501201 -20.1210648147387 0 0
175.205377754084 23.5507785321131 -5.81134917873662 0 0
223.172364321352 -27.0397244506557 6.16298641085559 0 0
9.87204803414232 -7.67664158496841 -4.25297725501142 0 0
-128.998547587732 1.55200927882447 -8.05397842664846 0 0
151.374296133838 17.9237071065902 6.19124347475478 0 0
-101.878799392697 -24.6479593988552 10.086754191 0 0
-142.410548649198 -0.988711432851642 -12.2760144591875 1 0
39.1358152458099 -2.07376721038205 -5.50000058443068 0 0
176.671253709705 -16.6300121039003 -14.3888759217932 0 0
137.0261328125 -12.0971948458486 -8.65832293729099 0 0
29.3391567435187 3.62331552482263 0.264933616802154 0 0
34.3699495875542 -17.640172053666 19.2168001223509 0 0
171.999898889177 -1.50467280162291 18.9133820033255 0 0
193.962927627741 32.8166934318866 7.18008639525321 0 0
14.9990522465307 -5.01963756789581 24.0755660005272 0 0
-61.8329016955695 -6.39075745101572 21.5982550717269 0 0
211.080545289393 -31.4617303391879 -20.0288820144429 0 0
225.500300791002 8.36030492861622 -7.70880422238664 0 0
-47.7911935711696 -24.2571162380843 14.374367203542 0 0
198.713313324173 0.606883916141785 23.0074928073555 0 0
215.730511367052 -14.6611872313076 23.4753190136185 0 0
175.809881190516 -12.1732542825582 20.7967944726767 0 0
179.538965868118 -24.9184679681579 0.918021232241849 0 0
56.4584196408073 -1.82859982522609 -5.66568929038279 0 0
65.0484888790024 -13.1294116570822 21.1326166834131 0 0
170.630840243204 -1.92667721963321 19.1085504046005 0 0
-46.3960608748923 -5.50786732838268 -6.75273511588413 0 0
157.045921174565 -3.77858629042222 20.5641921651409 0 0
-109.445897197095 -4.08632280286428 -10.2302005604391 0 0
182.293326035937 16.1326417924687 -13.3246872103174 0 0
191.801315188008 -15.2065266560762 25.9607560996982 0 0
225.806338055979 9.99036389167732 8.61254249878127 0 0
-67.8591505361649 -0.475661977103975 15.8369271336728 0 0
-119.027448664338 -19.4952111424736 -13.0990376242603 0 0
-15.9158435796263 -17.7175216965614 21.7837814088373 0 0
207.559727597668 -31.0828853513423 4.65808838807547 0 0
212.848093904154 -29.2746111536165 8.59321946821212 0 0
-119.570982699699 -13.4828516790672 15.1563436831783 0 0
198.054442648099 20.1303134152434 -29.839995184027 0 0
55.7853488411924 10.4716725441234 12.2085912622533 0 0
175.366789300486 15.2606761995997 -10.6723534261863 0 0
218.715519173191 19.384115882975 -35.1426088603853 0 0
210.349832880086 23.4805127678093 20.3519874743086 0 0
-8.74269245042723 -22.6269854079828 8.72058161553223 0 0
211.151591650106 7.76207143769651 -12.6413631001276 0 0
118.071442096403 -14.1889808365522 -4.44872528692678 0 0
187.341177710742 32.7296750075627 -9.80015829115369 0 0
-131.275345630722 3.89299456729469 1.32836505430306 0 0
-69.001980304829 -14.5855420133158 20.9614980212115 0 0
187.320781424893 4.87132769721783 17.9354674879301 0 0
194.94410464842 -26.3043009002085 16.6194366352355 0 0
-81.2805264432222 -22.9510780162675 -3.63068138653151 0 0
0.377323722387745 3.28796291226304 20.424831976473 0 0
171.809749507055 -16.532897508568 -11.816442740246 0 0
-69.3237195688174 -22.9484151692407 -0.656434568619613 0 0
45.6620710049804 -8.19998074209604 -3.9039382239069 0 0
224.642847204379 -17.4636474480426 -23.0101377209515 0 0
228.588049291176 28.954634096884 -30.7265201081703 0 0
13.7989222296748 -13.1609792819373 23.2771373965058 0 0
206.435050194508 42.6125591710488 -3.09350642375248 0 0
200.861159706083 22.5500050559127 -33.8039859226761 0 0
201.78216694987 -16.748634370976 29.5254772221721 0 0
-140.705920478755 -0.142875698071974 -11.3800888553241 0 0
159.888282794003 12.2484447100316 -7.73366817274566 0 0
188.380750432526 -23.5577205389535 -20.6413466187429 0 0
172.421616246543 -22.5413692676323 0.546012235159606 0 0
51.8013455399397 -18.6715038029428 14.1535825351033 0 0
44.9079960199911 -3.1411628418516 -5.65920593380706 0 0
92.8259547559746 5.32251931559782 -3.82787151595307 0 0
159.905689386832 19.4255222255039 2.01605485629608 0 0
172.031179533638 -21.4812035252643 9.85656813514833 0 0
100.544856976314 4.08383776552553 21.2522760926477 0 0
6.90484888848229 -19.9421071940618 5.60321481986639 0 0
20.0747125665025 -0.906553028881507 23.4309031554137 0 0
-129.599535611875 3.99724306983456 0.0156218851815325 0 0
-73.9373227918974 -25.8853401218345 7.88000676974661 0 0
-30.1138480672628 -17.6951018204401 21.7341445814222 0 0
202.071272567171 16.0580150627805 21.9926099411806 0 0
169.797204683803 22.4385120009932 0.993435677667495 0 0
-11.2921157703926 -22.6834722345261 8.47241420930158 0 0
187.358887471901 4.45766319922628 -14.1612611521959 0 0
122.148232821553 -9.59761189638178 -8.29656040601784 0 0
-136.418920672334 2.00906952900739 5.56263061292332 0 0
212.375412010021 -32.941329957199 -32.9497488340411 0 0
54.9545498538055 -7.99652142939614 23.5362332439035 0 0
227.409245934508 -19.0886393977826 -14.0446893033007 0 0
224.875124982715 -20.4946769041169 -24.1834091887546 0 0
-89.4731732959968 1.48597686373403 10.5851627577857 0 0
-4.56349554601315 0.844331179523328 21.9860890434796 0 0
186.5035738722 32.9711595688077 1.51704254745528 0 0
-132.484233905476 -27.1633634673116 -5.48983916211331 0 0
51.4573242313844 -17.353321494978 17.5063066688006 0 0
128.667147415792 13.0216315797948 -0.921774122935286 0 0
221.835538323621 -30.3448791144612 -1.33938737746586 0 0
210.032489217804 37.0625185763751 5.60472884102222 0 0
190.352865671015 33.2952249290167 -15.1456800937403 0 0
188.740349575436 28.3909014243501 9.31699080875863 0 0
185.085427089031 -16.2439168432494 22.8336592029583 0 0
-23.1537554742916 -0.470168581367942 -4.40547144298401 0 0
-69.585412327126 -24.4543908552465 2.14931973235964 0 0
169.248540964468 6.87130162576435 -10.3302852692811 0 0
221.216392808151 3.60907742358737 -4.96357982399344 0 0
225.147006411375 -12.3154026432569 6.65571428172856 0 0
142.48439393113 10.0005421130737 17.4772680300026 0 0
-52.4101614108354 3.3819229437861 5.76843449079717 0 0
17.8734102656488 3.61346759772523 1.25211253620562 0 0
185.749302132945 -14.3270199612494 -18.2073609688652 0 0
204.059335201191 7.2880583808298 -17.3718545117864 0 0
218.847418919414 -28.1665023435882 7.77671750938127 0 0
1.58700400784729 -2.87343188105476 -5.08188748312683 0 0
-38.8720959797985 -1.29626406287647 20.0886342857202 0 0
-142.910111890138 4.73289618429669 0.153687764523272 1 0
191.5047560043 -30.2666857746171 -19.5297551178105 0 0
-71.5888130805418 -21.5897994630085 -3.00004538635369 0 0
-56.6288076579907 2.25078307933608 13.9981168840281 0 0
-114.266256835003 -24.0098011636074 9.40045024842556 0 0
129.342222708433 16.1179517245117 8.68050224172493 0 0
210.365447469078 -0.544217286685408 19.3374262190062 0 0
-100.15889967294 -4.52030473124724 -9.53508414185331 0 0
135.221668868512 16.0191699589523 10.1827130380906 0 0
226.543896299926 40.2154647874637 -17.6578237061637 0 0
211.160482674401 -4.71795544200151 -17.8338583590449 0 0
221.255191980784 2.83193481172067 9.70607861141117 0 0
176.265610070727 -22.9126116648131 -4.10645109658952 0 0
42.2636053709388 5.65804742150602 20.9311115913672 0 0
208.883162890895 7.2089001631066 20.9580804772518 0 0
39.1719776221607 1.02677309436038 23.0071250528361 0 0
-35.070122008804 0.676899878237569 -1.84723726737173 0 0
1.74048820311475 -10.6275846774908 24.0421587648702 0 0
108.520799272734 -16.9495049882993 1.00058716673697 0 0
93.7879435533558 10.7558255954493 17.8073308262177 0 0
169.500222909512 5.34184295028138 18.2452481513562 0 0
162.102487909349 -20.4057451663549 1.89741737368076 0 0
-109.825611219319 -0.925435167106204 11.0396795443888 0 0
207.062464232902 -33.5762510254893 -17.7412218106147 0 0
214.610263211331 38.406791276929 2.43003164517073 0 0
-133.805751978218 3.81633849237521 1.78445436712236 0 0
157.49704770299 6.5708549592719 18.2819442183802 0 0
75.5931032941478 -4.84020942146549 -6.6979333578867 0 0
221.74574767302 -25.942902382844 11.2982331961446 0 0
82.3994765530455 -14.3509724477204 18.8644585731048 0 0
113.25515822142 -14.1366138479119 17.6763483401884 0 0
41.4842669923164 -14.2545995584042 21.81596813414 0 0
149.857094527753 2.1830863372853 19.8254783865994 0 0
92.2009567650965 -17.1627843732306 2.89164086499094 0 0
31.0897595597777 -16.7430074749967 2.37767224593716 0 0
-92.9774375037516 -1.16659051374559 13.0098766332454 0 0
225.347226286989 16.6570378633674 -23.9850666326557 0 0
231.700639847427 38.5099320122993 -12.0159459438081 0 0
150.541782461853 -17.8595048725519 12.6581501819603 0 0
196.73995775657 -7.49862305961595 -28.664583336015 0 0
-103.083634711732 -2.70281883459888 -8.98487860487821 0 0
-124.45996022853 -20.7718961182886 -13.6540656147892 0 0
47.9846292538607 3.88887225460714 21.9395466229225 0 0
102.508486266075 -1.13207434821549 22.5066504200177 0 0
190.491834819352 35.1983017846102 -15.3734376959868 0 0
53.5546572902825 -0.0105803997751203 -4.96673212452612 0 0
-2.68631996724122 -5.75609817205173 -5.92946801634125 0 0
-136.056329234145 -2.72201634311759 -12.3022699997324 0 0
-71.0996421222841 -4.99519043839549 19.6859686035381 0 0
85.4123313948151 9.92963147050973 2.39801726873232 0 0
218.122482483474 32.8674928913811 -38.6630417661545 0 0
193.937384168317 9.5818815027858 19.4686037617197 0 0
198.241519313186 -28.6307073539364 10.7550950992122 0 0
201.358593733375 37.4664746798837 -34.5578921054752 0 0
-95.0956047768286 -18.6274853906427 16.8677222715854 0 0
-86.8196295097339 -25.3347891975274 10.4603537520064 0 0
215.565381849564 32.1859492149132 11.0198171022804 0 0
175.871250075427 -4.26818217033898 19.8003685981588 0 0
192.314320285118 10.2746081216234 -15.726157215632 0 0
135.286554271336 14.7698732612248 0.728702230859494 0 0
192.996986415665 34.9146642060234 4.51924836893813 0 0
20.3467501121865 5.52510502081084 5.41825549935395 0 0
219.21417100265 -5.70593008067084 -8.65743322430702 0 0
194.749129359155 30.6321773844797 9.93912788959173 0 0
134.437948443508 -15.0372420498698 -4.43057922178817 0 0
38.8850973157472 -12.8499705173323 -0.735594742373957 0 0
13.7000991928158 2.93101242465881 0.149225485244295 0 0
130.512844515111 -16.6629366002109 13.7101134235899 0 0
15.8681330129886 -11.0848927901791 23.7397323478346 0 0
-4.72986816880149 -3.74241251651858 -5.60482244633774 0 0
189.272686964335 -29.3911991596026 -19.0960446427354 0 0
40.6289105745799 8.78511921134262 10.9527563122524 0 0
171.946583977553 -13.5612741809312 -13.2256964752547 0 0
-34.0147893570277 -16.7965954566647 22.106702874686 0 0
232.584228845989 29.2854783801796 -22.6331706341799 0 0
228.873270411875 9.77774655127469 -1.87334083710867 0 0
182.402007979403 -23.2335733786907 -12.7029876277933 0 0
168.649740294018 2.7191455198301 18.4264626761795 0 0
150.316305323336 6.05624436215586 18.7907261036663 0 0
127.072799992596 -18.0757558334442 6.62500864766963 0 0
62.1553033734446 -0.458160592934854 -5.30747098393562 0 0
35.5463158571205 -19.1707268465562 6.48233074763368 0 0
234.767260160474 29.3298284164715 -12.7500621053532 0 0
39.1209944716961 5.14145607694046 2.21392799722833 0 0
151.665019034775 15.7966455694347 -3.56201394901575 0 0
183.644372323468 -25.863731441764 -4.96320451380535 0 0
162.345417183513 -18.4502038453563 -5.30423676298363 0 0
-62.1123975069233 -19.057059079951 -3.5154001315957 0 0
-90.6757524593313 -25.2009622349146 10.3581404979177 0 0
167.261688915598 -16.0592540675151 -10.4023322363961 0 0
71.0808066034398 -12.0391734071033 -2.76919431640814 0 0
-54.8564369268232 -23.7193474194522 3.6035261632059 0 0
-85.5807215745446 1.73091534835964 -0.230144413532827 0 0
176.453014898184 17.4800018589141 13.9271332653015 0 0
197.656177631024 -22.2538922544123 -35.3926426554161 0 0
2.24965108726892 -0.19378703642629 -3.81876200897761 0 0
224.20369077038 40.9717428912474 -28.4732869013494 0 0
65.020321734887 -0.218708027208831 -5.32149707322844 0 0
82.8656085590813 -4.57396918965657 -6.68861946994309 0 0
-43.6725813592965 3.89610404278202 8.91435778519621 0 0
-94.2281619302427 -26.1190806763142 1.66785195131474 0 0
108.881271627355 0.955595415668523 21.8196091254799 0 0
0.856868216153163 -6.48406021445235 24.2711028075385 0 0
207.719522735608 -0.221291738332818 -16.2166862183387 0 0
219.2735904428 -7.5208342172103 -19.2614034935518 0 0
