"x" "y" "z" "f" "a"
-207.379661522221 44.7626397738279 0.45986911247233 0 0
-206.142553824737 5.05208931473574 5.4338498661308 0 0
-174.474782698242 5.22459514235882 15.312327974816 0 0
-35.1419474019313 -4.33180619615314 -18.7138415581529 0 0
-94.3361645809423 -8.92926010193803 11.6954727941093 0 0
-188.532379019143 18.0343752923912 9.70499813955463 0 0
-215.203429574897 12.0538644502971 -21.6593164292586 0 0
-64.2198639774388 -17.6111957145335 -9.60567774775831 0 0
-156.655301989614 4.1729027778982 -10.7303404617685 0 0
-82.3237660811128 -17.438338016352 -9.54905679865699 0 0
-183.863116804595 7.94015369219901 -13.8088648875571 0 0
-172.471490022111 15.7733726812345 -1.47554755628119 0 0
-221.538592087629 26.4683908611473 -20.3403230493668 0 0
-204.239189973169 34.5285857766943 15.992604802425 0 0
-229.172189853378 21.2165183668519 -0.594457131949569 0 0
-38.2252718756922 4.20163661637081 0.706745672652637 0 0
-194.200225283977 28.2354299693332 -19.7824880954447 0 0
-219.540548804884 18.1741484331616 -21.4404233750686 0 0
-215.283086222438 40.628249764056 -5.45703362002162 0 0
-49.4586521359853 -1.88057943274605 -17.8943985939563 0 0
-187.901525866309 -10.0455303117012 7.52975933857435 0 0
-23.8504017875128 4.37354439215515 -17.0745081232663 0 0
-148.067101231177 -21.700705894251 13.0836301724883 0 0
-181.17425988429 -11.8904771925872 30.5356930805211 0 0
-169.501858446747 5.74024513438701 16.9126518321781 0 0
-124.164722831714 -10.9937489911792 -10.411461787636 0 0
-218.217528074969 37.2399477784168 9.42428261914324 0 0
-90.9883650070086 -17.8159944094434 6.52893916478058 0 0
-136.156591097884 -3.12663938046532 -10.2259340788898 0 0
-61.7544365377712 -13.2560007390953 5.03152367859049 0 0
-194.60941965678 -20.2581702839619 26.0604075004276 0 0
-189.688090116113 37.335341572153 -6.21983731834002 0 0
-81.8591783342675 -13.8475078865949 8.02582871527405 0 0
-149.691211628886 15.3993250699125 17.0769721668781 0 0
-202.421550481333 -30.2596847461381 -0.196679016140397 0 0
-155.787730961646 -21.4938864398661 -6.26567751113379 0 0
-227.255588842116 14.3287901833876 -7.97394048186437 0 0
-162.058266145181 -18.4034046432231 23.0012188208383 0 0
-177.55919841007 -18.9494701420787 -10.6237255678899 0 0
-25.9301282515589 -8.48258630819913 3.24088073991343 0 0
-85.1038448489396 3.80863129915255 3.2593561228489 0 0
-185.412655743456 17.4134679269248 -11.8022524803319 0 0
-194.631151883323 -9.59988257658214 5.32679945444245 0 0
-121.231957313735 -17.8235162290766 11.5602515477907 0 0
-189.332078403298 -23.2841850529909 24.818797360802 0 0
-192.149266417648 -8.71862269477776 6.37356234153991 0 0
-172.200420627161 -0.617693400002191 26.0405102266721 0 0
-182.153916351175 16.446270559638 8.3114844125732 0 0
-203.596333175922 45.1156397331184 -2.63971958539441 0 0
-155.740235388586 16.5281904318734 13.9374197754284 0 0
-100.279345982216 3.84167964729065 4.51904539824564 0 0
-175.251930445963 -22.4938092119079 25.5621936895392 0 0
-103.194017603706 -16.4505682433439 9.96425157590861 0 0
-20.7479553584826 -6.52596672617794 -18.876574421184 0 0
-209.199203052187 5.69687180350487 8.38599567278872 0 0
-172.933235157703 -1.36269658490854 -14.2967362641875 0 0
-79.3678002666365 -18.1315911156526 -8.25461897818372 0 0
-213.485114510216 41.7775581971746 5.52861135725772 0 0
-219.716761181332 38.8971849666435 -1.1522235115853 0 0
-5.471167381562 -3.98362813575947 5.10448937239471 0 0
-207.735552492887 6.09479144006937 6.63794189655198 0 0
-62.6442538767234 -3.0560537516402 6.87081589244938 0 0
-210.501897203708 2.04366547881789 -7.94957053279794 0 0
-172.931749304718 4.91803170419341 -11.9484465752735 0 0
-13.4660004255943 -6.16864991355623 -19.0909481495968 0 0
-69.9530004160286 -12.0237259866189 6.96023883189354 0 0
-107.494081756479 -20.5179244636258 3.03969162062371 0 0
-184.121734597132 -34.1131417310328 1.16364428976078 0 0
-184.743643979506 25.4205813591681 -2.75226722380118 0 0
-221.869640112411 38.3444249701673 -1.72685505714666 0 0
-166.220054655403 -17.3627539363363 -8.88591300554597 0 0
-223.48718186215 31.6543617476335 -16.2087835230463 0 0
-132.361330062947 -11.4333097127258 -9.68630119859754 0 0
-207.255660219899 15.9041246022459 -25.2936753033405 0 0
-168.390999576747 4.65492335518489 18.8080304204944 0 0
-224.6279542834 35.5290852276926 -7.63442530487713 0 0
-80.9327263312165 5.17095655152453 -10.5328521424561 0 0
-201.95648337059 -7.09874638173755 24.0937676955576 0 0
-206.064781816664 -12.0023200162868 23.2488333582199 0 0
-53.7139662886115 4.34595919883919 -14.578895380998 0 0
-145.358896924622 8.89607772897433 -0.642968274464739 0 0
-157.338796493464 -26.3776470945139 6.16537725097555 0 0
-171.774091809357 -29.0061829830298 -5.51124803422663 0 0
-159.016530409894 12.4701109646516 4.11589522180096 0 0
-24.9729227443956 3.61013522306272 1.39731894628223 0 0
-162.286882691342 15.5065878831387 10.5767104519161 0 0
-201.972795245295 7.65800374868572 -20.7128058567585 0 0
-93.5472177830871 -18.9961469994394 -6.35731561308209 0 0
-152.831180053387 -20.8245186933316 -6.41581270036379 0 0
-181.801783389014 -3.70146305886014 16.783475850343 0 0
-213.299646432036 41.4553507269405 3.68482399816872 0 0
-194.73635779099 36.4626006968354 10.337453348494 0 0
-58.7345022421221 -5.14255369131533 7.2023048451276 0 0
-191.667942307139 39.7878377512843 -4.36098356289039 0 0
-46.4628522611911 1.14678149884015 4.01005694387886 0 0
-167.849832227479 9.84265286217158 14.5470954820523 0 0
-127.602534099983 -16.090033258249 -8.64023931992439 0 0
-120.793403187874 -3.38172966319659 13.0945330675029 0 0
-180.665495599409 15.6084761203704 -9.10976926930779 0 0
-131.598292901043 -14.1438558093313 -9.32160929163765 0 0
-68.1355553133026 -15.8560796136769 4.00593985322264 0 0
-179.69623170682 -5.52655192889939 29.3958173824821 0 0
-144.704432147491 -18.4544010435763 16.9187972048044 0 0
-73.9430661280897 -17.1734659543732 3.56018038933989 0 0
-134.377969368198 -15.6378830133744 -8.65980566011781 0 0
-197.639911054219 38.9253887917178 9.92392584831898 0 0
-112.047631775567 -15.408628622601 12.0377443463881 0 0
-207.220919504303 -23.462433775013 5.0410216699762 0 0
-191.818855865171 38.9045293849222 -0.383444188519558 0 0
-54.3806421669688 -14.3027306322688 2.75580070461214 0 0
-170.190549499743 -5.72602787097035 29.1046559588804 0 0
-196.43031099277 -30.3520045434202 6.40905214537051 0 0
-178.957848309479 3.68863829433912 -13.3878020979375 0 0
-199.131150250663 -1.7939959317289 -10.3196254233143 0 0
-135.153143166961 -21.2721009198938 9.14147562390231 0 0
-170.147699920295 14.0337379782299 -3.96005841751611 0 0
-154.518509501984 -14.0612222468581 -8.81061738409846 0 0
-191.808457660266 -25.2583512446795 22.6907786349926 0 0
-213.998073351667 2.94209379897981 1.7794892725063 0 0
-212.839704447706 1.64300513074015 -8.25022576434662 0 0
-95.5729613259317 -3.5035019642226 9.48894064758763 0 0
-179.483285769365 -9.68955309359378 -15.8609658292667 0 0
-162.44801393902 13.7258186555541 18.5043098553135 0 0
-177.540853448403 -34.9731756030507 2.92084612385404 0 0
-29.5564033541073 -1.45868480981254 -18.8826402301497 0 0
-189.777271070131 -32.9585102061577 4.86622102745182 0 0
-83.3168527326647 -6.38670861362066 -15.0778941753802 0 0
-131.183882669325 1.24672721173137 13.5333137476343 0 0
-123.338761335487 -8.67302679543001 15.9237310926383 0 0
-196.898646031316 -15.0827194890476 -11.9565921201877 0 0
-190.859687862228 -23.1768287013083 -12.0917077140283 0 0
-1.99415884203451 -0.894958014390421 5.46591410218187 1 0
-136.509133926437 6.30787913299372 -5.71061844522303 0 0
-174.883501850137 -30.8308320316332 16.1960949516748 0 0
-6.03861622159168 -16.3982043055581 -7.88252342140821 0 0
-117.59096026675 -20.6643705185438 6.46453641231271 0 0
-196.768604984181 27.1584416186209 16.8143087390568 0 0
-140.289117460602 -21.2516718714117 10.989959328386 0 0
-69.4038643467312 6.10395422015197 -1.53815887790143 0 0
-172.235355239379 -31.9599666293931 11.2893207222589 0 0
-163.851345917318 -25.6000440584335 -5.08976274817611 0 0
-220.820291006928 37.3085369978432 -13.4806333476527 0 0
-216.706483366428 6.3863720298715 8.92973173982543 0 0
-211.285132304009 42.9617382915919 -0.775019658525841 0 0
-201.716075473827 -16.8479850378578 -2.56184522973967 0 0
-204.063921780324 -8.91553414363309 24.6922280743075 0 0
-206.169545339939 6.24669012671224 7.45508440503548 0 0
-27.9951846804613 4.45331983989683 -16.7474206731124 0 0
-218.35936728911 17.1437820289599 -21.9457293329503 0 0
-36.7542103229573 -17.7416228067764 -7.97719389057048 0 0
-152.171605432123 13.0727130771257 10.2682398633159 0 0
-134.573175796883 -3.78779929934733 16.8270066770436 0 0
-193.839415853715 -25.1852622789019 22.1195958174832 0 0
-101.836710149475 6.01205187044097 0.404528269783623 0 0
-195.80151742597 23.1309978810614 -23.4937858078267 0 0
-115.398057781079 -6.3093389881018 -11.8718866088362 0 0
-174.380122479354 -2.81948567578852 28.1799389746301 0 0
-49.1899567269916 7.26446556556723 -7.22434063101159 0 0
-76.0452851476087 -7.74858046430346 8.39528757668493 0 0
-221.545423834218 28.2172660549743 -19.7907549695955 0 0
-192.160106097515 -9.6782639111182 17.6274557164473 0 0
-106.413281402216 6.40246317693447 -0.484414165030321 0 0
-158.06241610683 9.48252438807321 23.7738945897426 0 0
-199.780132235403 -2.06561220416779 -0.925657249695458 0 0
-67.4631976581887 -17.3461783689423 1.53198744782812 0 0
-47.685894842801 6.33668110556095 -2.56261267841703 0 0
-221.205774407398 9.92723765783992 8.65245834477951 0 0
-162.532184429315 10.8728926578663 20.2248504102336 0 0
-186.855078629872 30.5395508126134 -1.94648931465889 0 0
-204.118218171453 26.9234476248568 18.8854716547597 0 0
-77.6324433714317 4.60792732371434 1.66517985157442 0 0
-205.771780533845 -20.875692494616 17.0391303163409 0 0
-187.005572193973 21.7343394777709 6.38746398426558 0 0
-188.541943850729 20.3630750082004 8.85231476350928 0 0
-201.436280811496 44.3932336479233 -7.35607082772602 0 0
-142.806460383726 -20.8831966332501 12.5219653039926 0 0
-195.756489768768 -18.2834978736047 -14.40916150651 0 0
-44.374642328763 6.92617694113142 -4.32400438056676 0 0
-8.34619373998975 -14.1932941878871 -15.1045943796904 0 0
-79.2701985693815 -10.7516593015858 9.10240036032031 0 0
-223.547727758124 36.5439456784125 0.356699730010424 0 0
-125.700738025159 -11.1717000873808 17.8686308583612 0 0
-99.6885852615657 5.69865124170303 1.13965819276938 0 0
-187.164015290213 -15.6653477923454 -17.9717933027096 0 0
-130.029650555438 -16.273652353846 -8.48904704707245 0 0
-188.11801070486 16.1526616666539 10.599255194967 0 0
-172.498437064304 -34.4671668705731 7.26036675131653 0 0
-190.425815318476 -31.4958278323305 -3.23186422922584 0 0
-123.934464507196 -13.6928854302008 15.3641777636248 0 0
-78.8590353029282 -0.990670549518507 -15.0691735875375 0 0
-51.0044532738244 0.268870544081153 5.00942266034046 0 0
-205.87620901081 39.6883214699466 11.7267796123758 0 0
-156.44915312998 10.9247654340498 -5.40638983632402 0 0
-169.79020164584 -18.1562817960752 -9.13727491629781 0 0
-136.513798735576 -18.0093700788703 14.9509521523323 0 0
-108.026105330781 -7.621129954747 13.1593791830465 0 0
-155.455666687119 -19.7029527731724 18.8936410081833 0 0
-167.971975321495 0.369752162001268 25.8941492557945 0 0
-216.116409408212 7.94428242564089 -18.2533279898798 0 0
-38.8236078387948 -17.6365282381701 -9.82085867950638 0 0
-196.176901563407 -5.50646376752652 3.91196462302334 0 0
-92.8823092575335 -10.1756621585407 12.2273440326572 0 0
-35.5846388725615 5.69966509699698 -14.8300466024821 0 0
-150.735123411032 5.92394303412939 -8.03984367613774 0 0
-145.735926832243 -23.7653300011186 4.80709958980226 0 0
-29.7597959097941 -13.3852563104114 -0.516288124931099 0 0
-167.16569179413 14.0868119363138 10.5752140600846 0 0
-18.7806339251007 2.10177854838583 -18.6251024677335 0 0
-190.770838259123 -30.136521944149 -4.82552144353739 0 0
-205.17729936027 30.7524938102168 -24.7288437732871 0 0
-146.012611905858 -23.6456605181732 0.59693877716301 0 0
-131.431741297191 -14.9126037973558 16.161296904085 0 0
-197.757671517702 -5.16719143075979 -9.44654375236697 0 0
-135.890813481179 -16.7625476757744 15.9860688524466 0 0
-205.283220722822 4.34625035186147 3.62707590133695 0 0
-227.08086966321 13.0953323226551 -5.85541777442713 0 0
-188.855115795571 34.5995683142194 -8.26812436239413 0 0
-197.296624964003 39.9697663932071 8.25299320326327 0 0
-2.79736412879665 -15.5027721246992 -13.1126672590307 1 0
-153.402952010003 -5.81461769345625 -9.73209000786692 0 0
-103.542718462213 4.89094257005632 3.24068180206481 0 0
-51.1763116653818 -12.4297721993534 3.74375840326624 0 0
-56.1794793062197 -18.2067303623382 -7.66036665162324 0 0
-192.122983946344 10.6352941733818 -15.6459266619862 0 0
-142.857664237696 -6.82199267751241 19.3516965284842 0 0
-189.696785470382 -33.2284734291839 2.64328052850276 0 0
-166.226704212267 -21.2023564958549 -7.57548775199733 0 0
-206.843430736506 -12.9069301006845 12.0580285500957 0 0
-206.910730943031 -17.1790908644053 7.88958808210845 0 0
-187.377564480449 14.1154555120422 -13.3021463608181 0 0
-47.0099735173943 -6.30743127500937 -17.9309120051649 0 0
-23.2726476891748 -3.15780277160569 5.77464412769698 0 0
-198.215396441856 -11.9855294263434 -8.20904417502935 0 0
-154.545258650597 10.2035203479419 23.6536877818365 0 0
-85.1693954252646 -17.9688283671009 4.87098921012283 0 0
-117.661506291051 0.573887908423066 10.5646619173563 0 0
-15.2540918535468 -8.13573622826654 2.90042286913421 0 0
-205.083352852397 -12.3400130575668 11.0855108677154 0 0
-151.675804596086 -11.7137090481298 21.4942117835632 0 0
-161.221663237197 -24.2080183412856 15.4061920698395 0 0
-132.586264889094 -13.8519740632365 17.8137609869104 0 0
-142.828156001814 1.78308314959976 18.5871072457768 0 0
-171.907421480472 -3.58557004713374 28.6264733117485 0 0
-198.755885745044 -2.42286579416516 -4.71373722194604 0 0
-209.76941683542 31.6740600043221 17.2324509466682 0 0
-210.170120502061 43.8262263385327 -8.37062882543183 0 0
-198.435315229221 41.3484230696164 6.72885544789085 0 0
-106.543187296956 5.54208347339029 2.13764164619634 0 0
-67.5047453768168 -7.12347353212148 7.78178626945555 0 0
-195.857575789882 7.74703657243205 11.4467679088862 0 0
-202.866435398035 -5.20635981451965 18.7204541047321 0 0
-185.788587255596 -24.005957690095 -9.89897239626561 0 0
-194.441102341774 -32.025083903096 1.01895363100306 0 0
-99.596050766576 -10.2950703664938 13.4624030297595 0 0
-76.0802237459763 -4.34559783802114 7.80267083957016 0 0
-123.206843948837 6.07666777355023 -6.42153100658057 0 0
-166.582746042036 -13.2497980015642 -10.1632203979867 0 0
-137.025272835133 -20.412085815994 11.5090891687407 0 0
-148.004492056164 -18.0037923584564 -7.67011053000498 0 0
-100.180037667727 4.9807734694188 2.7688359178312 0 0
-167.379423590443 4.01962594809543 20.0425522776531 0 0
-128.32264564463 -11.1160121238099 18.9347639542849 0 0
-70.8045372241306 -5.56770600513556 7.68512058684004 0 0
-46.2542214051458 -10.3124391180513 4.22099954312288 0 0
-205.265770899554 -24.1843575903946 -0.112935898663607 0 0
-213.372434587281 30.4422706106876 -23.7649964191416 0 0
-5.54248366972409 8.80338473328832 -10.6152714749026 0 0
-199.242504971296 -16.8135174085065 -9.69930388024439 0 0
-222.425332400729 35.3495556680696 6.61855168963999 0 0
-184.481359775913 -16.6793692045507 -16.8294815484878 0 0
-36.6682942305555 -6.24312885694024 -18.406186299979 0 0
-101.964879875041 0.458224597932385 8.47086416982756 0 0
-117.192249398465 -7.38511563910694 14.2915658790702 0 0
-14.5222776658748 -16.3710546598973 -11.8651738520022 0 0
-215.747750085563 2.80977442768463 -10.5706073996095 0 0
-75.0573866230211 1.05038066683978 5.32474916701948 0 0
-169.005812255663 0.426174570227962 -13.7179108534115 0 0
-194.334657252941 -30.4737584173561 5.85673756920834 0 0
-130.221080306563 -9.73855879557607 -10.0420197131685 0 0
-214.556485433223 38.4470949931097 10.8370737859022 0 0
-112.574861081679 4.00597194987825 5.8096635848529 0 0
-199.039941017435 -1.97764086034128 1.89372908565437 0 0
-226.689122329453 14.3801110423765 -10.0081521139867 0 0
-33.9721329196216 -16.1382142412689 -3.73918414982963 0 0
-194.17063668764 -6.75205056686321 22.0869734013567 0 0
-204.703685506672 42.5574991825706 7.42990003493158 0 0
-115.634033329216 5.68279980576283 2.93798177921463 0 0
-157.376660865562 8.62043685147981 -8.90749831468611 0 0
-119.576322781083 6.195596956747 -6.11385636146719 0 0
-111.451975551227 -8.2439770022607 14.4231578176469 0 0
-181.177745620541 -16.8515864524477 -14.2518556197748 0 0
-193.412206472531 4.74584928450001 10.5193799987978 0 0
-196.955616719878 38.8330943475062 -16.3923303046349 0 0
-144.480500130125 8.49072735731801 16.8082429548759 0 0
-153.152649699478 -24.9600468467026 7.52335710746216 0 0
-187.096618301927 7.0970991604525 -14.8984542356899 0 0
-148.205155707998 1.06416377013556 -9.90691425487327 0 0
-5.30872923226287 -13.7481254791601 -15.4942107472795 0 0
-78.566188477963 -5.30948682256012 8.11803372929584 0 0
-182.762257528431 -3.95368256693062 23.9874863855474 0 0
-38.5596964680312 -16.3605048849605 -12.5643907954922 0 0
-143.172869004351 -23.3141150407701 1.14862000773134 0 0
-66.9302622657857 6.45271813444572 -2.59721192340402 0 0
-194.439537417561 20.3571541289168 15.7070081955448 0 0
-150.797899879432 8.38627967963876 22.4652328280275 0 0
-216.261925185814 27.8756132571345 16.2196827382246 0 0
-127.243558200697 -2.57039942193191 14.3656923131538 0 0
-106.144008503525 -19.3299185082428 -6.43280821035178 0 0
-165.051113324604 -14.2945812043225 -9.62634990207518 0 0
-204.598723370382 10.8970498025 -23.2414768889124 0 0
-207.639444275232 33.2501338394588 16.7628123131962 0 0
-115.74924615418 2.31856596220022 -9.97670981325545 0 0
-188.974490402913 -10.1438857432268 28.1103272446675 0 0
-17.808477682266 -12.2343725520766 -0.616254053408601 0 0
-129.64616139281 -10.0163790915666 18.272377912761 0 0
-217.452016482746 40.8233146578984 -9.0059894618295 0 0
-188.250942253981 -26.1859166357908 22.4233390674114 0 0
-168.572318317578 -25.8671376189305 -6.0724967164682 0 0
-205.88772321149 -25.8458715968227 8.78272472909219 0 0
-6.43916817725927 -12.4659161450697 -16.5531333064507 0 0
-8.95791922972106 -2.38453486293038 -19.5336079850757 0 0
-155.614994402181 -5.89315648905295 -9.79191708413612 0 0
-55.6875337918338 -18.2075815589251 -5.23140802219389 0 0
-104.106015908431 3.37293173982095 5.50892030524724 0 0
-74.9572673392021 -16.154232500756 -11.4454760499146 0 0
-219.942889536746 34.0446497720983 -18.0032625616955 0 0
-208.535247299037 26.9613734650764 -25.6974202723599 0 0
-69.1748366414426 -2.64476275263498 -16.4368250085267 0 0
-94.0424665376687 -17.3808960593401 7.72173790466707 0 0
-191.680115470569 -6.86661495539197 23.5177072600715 0 0
-195.032487856781 -2.43122294429105 -15.0952788858906 0 0
-85.1327022814274 1.85572259840126 5.23959895925006 0 0
-206.992169806789 4.24061871364226 -17.8798661472079 0 0
-64.9135779058546 -10.4549384858082 -15.7468601344339 0 0
-226.983249579469 18.5329253036865 5.65118564355152 0 0
-174.404257252404 10.7814283939876 -9.32664760262474 0 0
-151.228437903533 -11.8494838977512 -9.12461447481723 0 0
-173.607008166295 -4.69775240848727 -14.5326715553274 0 0
-167.09735881359 -30.320428972763 -1.51127890783571 0 0
-201.017431182025 27.7683958666424 18.3233457080351 0 0
-193.451756458004 25.2379251587683 14.8757564636807 0 0
-13.9210842472031 2.35512560593384 -18.6784470100499 0 0
-222.943992709808 32.8331157689463 8.27099517340329 0 0
-184.522819750701 -31.760173392102 -0.694289555131771 0 0
-138.304060113644 -21.5353818445447 9.58208864087819 0 0
-224.202410427629 8.48555998175422 -0.413599285893477 0 0
-198.189591530954 -29.0954695142783 11.0156280138833 0 0
-121.986009811049 4.5431390946907 7.20889185845207 0 0
-84.4126502585534 1.41784257628579 -13.5903309050858 0 0
-78.1717357649754 -18.982347733198 -0.0682268416692127 0 0
-43.0425979484096 -16.0044766394843 -1.88412637315084 0 0
-225.768296715884 34.2742412316236 -6.62003753243321 0 0
-207.466140938471 4.69991078149256 3.03460443904345 0 0
-219.27065743992 7.02916124843199 -14.3447686018524 0 0
-83.4538623941599 -19.2653925633508 0.195064089874372 0 0
-208.350135113995 24.7420485442433 -26.0271154977894 0 0
-200.197673094914 -13.8029169644302 -5.74398504421333 0 0
-3.3498616503722 -4.80653771498259 -19.4070995705673 1 0
-91.4606814232779 -12.7098396168699 10.2048256368338 0 0
-112.943564055282 3.74440950325705 -9.49681058684202 0 0
-180.796483698359 6.21589088826978 -13.2946524912842 0 0
-183.976935387417 -33.7591071568808 11.9861996528146 0 0
-130.591705686638 3.4914003203164 11.3104922565736 0 0
-161.068768976577 5.48818266400316 23.8440705578512 0 0
-202.400500047248 -18.155891060089 -8.1506467491124 0 0
-221.60678159932 38.9562855296016 -4.42360729285705 0 0
-219.48267298571 3.97852442864112 -0.917470677742138 0 0
-162.020677430552 -15.6738046780308 25.04290205376 0 0
-46.1368285009381 -11.5959805840442 -16.30930369473 0 0
-216.849590086171 3.18878736924321 2.30481362850161 0 0
-182.900334682172 -28.5815869783677 -4.7775658468337 0 0
-11.1834865961545 -8.52625796932638 -18.4825288897766 0 0
-207.24038215454 -6.87961996273008 18.5076852271889 0 0
-128.620810179676 -12.8647170633067 17.8603603283106 0 0
-166.264435938147 2.75715338749777 21.3011775203947 0 0
-194.053218812024 -23.7797849403058 -11.4597215592318 0 0
-83.533662386147 -7.18594593214402 9.03713015138472 0 0
-204.147162683862 1.70579551117159 -7.04279013786169 0 0
-156.638937359445 -9.76231627021754 -9.44103585784653 0 0
-218.690016658086 30.1250201173067 -21.2772697992605 0 0
-228.050706860211 29.4934188452378 -0.698966220732292 0 0
-171.076947677113 -13.4498676695925 -11.5719843164843 0 0
-213.537267284147 22.2804069345779 18.1357078009274 0 0
-200.120076887876 9.13128077751783 13.2612299097691 0 0
-162.082289807315 10.302993029029 -8.79841909305886 0 0
-190.539278214955 -29.3157507569184 18.5526838014581 0 0
-212.368628785701 24.93233916119 -25.309349487897 0 0
-228.741214065129 28.2215779994 -5.17456694159901 0 0
-174.717111780172 -17.0818047608937 -10.6728519186503 0 0
-212.087686978677 3.21377000076123 -0.141463635247231 0 0
-182.159254888667 -23.1766207180953 -9.98163732551738 0 0
-211.883140210525 30.3540898220373 17.2758844852716 0 0
-156.377211381261 2.40646310197844 -11.2382036552594 0 0
-171.111473325062 12.7607235520452 -6.58041964675164 0 0
-219.038435786858 18.2493305701928 14.9393611825121 0 0
-172.618917515754 -12.3687740845019 -12.7100062943053 0 0
-159.821933344691 -6.65850590463848 -10.0408389008643 0 0
-56.6622989147826 -14.7270029796409 -13.8156101320764 0 0
-205.060444507497 2.12554970960795 -13.1811353784351 0 0
-45.5588908229753 -16.933407733454 -11.4359094196938 0 0
-167.706051698606 2.13248559661487 19.4474296148 0 0
-149.293728956568 10.5954433430607 8.78018149976098 0 0
-227.593837511395 14.0602206033571 -1.38009782692358 0 0
-119.018742972896 -5.7984189730507 -11.516220651419 0 0
-194.321833186387 9.06618965979883 12.3596679705346 0 0
-196.53856620556 -0.961326137610481 -15.0937979985552 0 0
-173.720531410301 -9.35962164095048 -13.9955495448009 0 0
-166.963071583981 10.6338529043472 -8.12903530233299 0 0
-183.940510127697 -7.76614261104387 14.6978735100904 0 0
-116.04880992432 -1.38177330464486 11.4313157222129 0 0
-192.284096145937 28.180671519171 -18.0616428034389 0 0
-156.406753462646 -9.30562663507584 24.0009788003735 0 0
-122.789257348132 -21.3616841271565 -0.831067093971447 0 0
-139.747394232497 7.07956759696699 -4.63237928470102 0 0
-199.202606925129 32.2265517041141 16.2112117810605 0 0
-105.838281332876 -0.184012988794659 -11.9264077345307 0 0
-154.564405073805 -13.9693259876517 22.3590124316288 0 0
-54.0608024473402 7.11421845756716 -7.82101152486067 0 0
-213.079792532249 13.3728048723548 -23.2159364303541 0 0
-179.777371144271 -34.5601804980546 2.75253331928169 0 0
-129.775611041493 -19.4415452063028 11.3037253364378 0 0
-192.2389322647 -21.0757207694044 26.0182987885333 0 0
-41.6635345556148 5.70931157759859 -14.0857816981095 0 0
-72.5218929880908 -16.0730800602477 -11.6344336210967 0 0
-217.361143817252 39.298732661899 -4.00056583971337 0 0
-169.533347055809 13.2483633006025 10.7897541953979 0 0
-196.824318467238 -18.8507641122426 26.5705421182267 0 0
-115.508113309889 -5.30172421308352 12.7176705102503 0 0
-198.710872842128 -7.24830569573381 0.903144254004973 0 0
-57.3782710713071 -7.09535476813198 -17.1663232809804 0 0
-192.013830387232 -11.7434053306499 10.7349053436876 0 0
-146.606510126912 -5.01109526371364 -9.9182012847561 0 0
-195.889869858743 42.50452999131 -5.94546026487327 0 0
-15.4889710593047 -13.152330287291 -16.0070272872566 0 0
-187.860847501734 -7.43455874605272 -16.7415984150438 0 0
-207.485732472651 29.1573270075217 -25.2205286789455 0 0
-53.3013243782779 1.05821210319954 4.410126655791 0 0
-197.529606080434 27.8189893584593 -23.6059437059355 0 0
-183.850102179276 -21.362940720457 26.5711660589985 0 0
-134.734300149925 -5.79627420680819 -10.3523924611611 0 0
-196.996084669224 6.49565820577225 10.2054324216395 0 0
-205.587058411282 1.93870861227353 -5.30873114840589 0 0
-200.69411155504 2.52775846344926 -16.0914613260168 0 0
-191.779490651296 38.8274091768969 -9.50654325428565 0 0
-77.511410237472 1.70338510140807 -14.1348809612974 0 0
-166.198065228337 -19.3884389696075 24.6488063809687 0 0
-192.335748798955 7.69502858268265 -16.0013644329333 0 0
-87.7921097812652 -2.84544894566647 -14.5298778373098 0 0
-201.867871090493 43.8868310499709 3.01482725053264 0 0
-113.150935518951 6.0796420113659 -6.45155388932245 0 0
-160.841441373392 14.715794696848 8.3393765737352 0 0
-179.067773668228 -2.89511153644814 22.5794127301861 0 0
-165.100036086252 11.6914476307896 -6.47237309842167 0 0
-158.111411070226 -11.7986403519716 -9.37442085738989 0 0
-185.658021252784 -17.6296618966579 28.6650598010898 0 0
-31.7054651728625 -17.4885283779815 -7.81586471756058 0 0
-156.762900385292 11.1186914536903 -3.10079611496324 0 0
-140.622719964031 7.70069206156269 7.81479277460265 0 0
-210.397387634412 3.36938883957155 -1.1191763929161 0 0
-130.933264961509 -11.4690071182672 18.9982058123575 0 0
-43.8778146326165 -14.7964334332961 0.022967201344012 0 0
-154.781857413058 -16.3950755462097 -8.28626162137775 0 0
-201.344833474833 18.168862872277 -25.337185225379 0 0
-194.760394804608 -31.1292116040044 4.03285470496968 0 0
-151.644182310922 2.56585963614701 22.5910527852601 0 0
-53.7138742516721 -6.87050027115021 -17.4488982708647 0 0
-170.256236496966 -28.6417626707969 -5.45800881062259 0 0
-92.5234113327811 3.10133738480298 4.54068255533769 0 0
-90.2713754291381 -19.6843019677123 -0.0167411061353366 0 0
-189.350931432805 -24.5745718411901 23.6910596773219 0 0
-161.756725795563 -15.2391536462624 -9.01387260740398 0 0
-113.66667101224 -16.9025236489863 -8.8729854572336 0 0
-47.4417856101993 -8.47771698321753 5.47235830050584 0 0
-83.3508922620088 6.20033045046151 -8.020201426085 0 0
-188.558184505118 -13.4297223668884 10.6301766666376 0 0
-25.7257188344883 0.0964801288967377 4.54879998332461 0 0
-33.9207396753073 -7.94301627571838 -18.1189018633133 0 0
-106.380972528619 -10.5340734770674 -12.1719258873258 0 0
-192.574907133073 -9.58210180947187 -15.5439813749436 0 0
-211.371636841064 43.8721724407067 -6.36091719723484 0 0
-195.649174265534 7.54851033632859 -16.942894617126 0 0
-166.948188180511 12.9228377555696 -4.36473640319911 0 0
-145.979248645893 -1.71365838435976 20.0267569276538 0 0
-116.035674684612 6.21223473271052 -6.06517730155109 0 0
-51.8111955364692 7.16575293563001 -6.11808701282075 0 0
-208.459426362018 24.0818779578876 19.2148401812637 0 0
-207.820104360122 20.6281353429441 -26.0817135619858 0 0
-105.699592871637 -9.37790915971241 14.1953811765986 0 0
-131.427657099683 5.22210926239677 8.89322833578705 0 0
-178.488095273399 -16.0909464834758 -13.1686473416317 0 0
-192.355654118235 24.3924286789895 -20.519907042656 0 0
-127.360665960804 -8.64853420773041 16.4212961894061 0 0
-105.770357342592 -19.928487696526 -4.00951346018006 0 0
-138.083094659238 6.39655624882309 11.4873916866148 0 0
-192.916870630106 36.5534282415149 8.23396153418044 0 0
-179.777540565183 18.0913313858869 -6.12357840941331 0 0
-144.650036552805 -9.95761352268332 19.9260490284587 0 0
-224.65033815272 13.826894265001 -13.8611311279607 0 0
-218.204636630754 16.2537230246155 14.9861533365855 0 0
-197.532784119666 -9.14854531453902 -9.21445977533736 0 0
-213.691372095928 38.2236967394406 -18.2359866378634 0 0
-44.6765506280765 -17.9376000507042 -8.29442739260353 0 0
-146.248287290139 9.45276317164223 8.63162929630618 0 0
-116.260514156989 -11.8800466910392 -11.0223077978685 0 0
-164.68301673935 -24.4712984914714 17.6472802528099 0 0
-125.450156662481 -9.23418436960955 16.966643825496 0 0
-96.8526466131485 -12.939585735707 10.8994229680809 0 0
-207.836666934316 34.0503843824472 -22.938604080981 0 0
-83.7440941779352 -15.6769645878089 7.36398720747588 0 0
-177.86909090686 1.50686114682699 -13.8302231580835 0 0
-188.37626578271 12.9261549509537 -14.092077980734 0 0
-209.610363141914 25.7196488735358 18.9046063257551 0 0
-202.940531287031 -23.6326279741258 -6.6134577211119 0 0
-208.389576785163 -8.83783566370017 19.5850676800407 0 0
-90.4894311152188 -16.4853375783096 -10.487259839296 0 0
-44.1447184865258 -10.6319691302162 3.71579208794951 0 0
-73.8983187174875 2.39629310548898 4.26893298513428 0 0
-92.8759140450877 -4.15943621397658 9.24505093617143 0 0
-138.290924178079 -1.72050981000296 -10.0742289977901 0 0
-178.269925649353 -33.4518568517583 0.195468808748148 0 0
-79.8890164489903 -4.75116501437917 -15.4641792254459 0 0
-164.301728462167 -9.96536011483613 -10.5004040273385 0 0
-188.947319325161 -17.3588914549449 28.2234279497808 0 0
-184.094991624677 -14.4304085729745 -17.6823076994694 0 0
-193.88057379653 30.33576080388 -17.5665058449382 0 0
-128.739030679498 -20.7436951048725 8.86069329040118 0 0
-67.3144399426864 2.28454371959556 4.02324412369571 0 0
-77.3448005477208 0.932893165904552 5.5243493650037 0 0
-162.615246731581 12.628570662036 0.286371231831246 0 0
-224.569541809785 8.62212316276798 -3.80531952116667 0 0
-141.015404428153 -9.41678253700664 -9.53677961284366 0 0
-134.250494049973 -16.4027673279898 15.7996684725305 0 0
-201.586789304483 0.44840602096282 -12.0922633162356 0 0
-214.90069809403 39.3983401187837 -3.39491599114457 0 0
-130.191296630137 -12.0979309480972 -9.81627410621933 0 0
-64.0196715152976 0.741830645961857 4.86729739959892 0 0
-101.452145461282 6.33389367608824 -6.16526973637969 0 0
-143.499543690615 9.29883791648135 12.5721735029474 0 0
-198.967535537826 17.3914826381539 -24.3141258929929 0 0
-39.8946639389009 -17.8172790403846 -7.21898533131521 0 0
-125.302658952524 6.55666483322614 2.8251431057617 0 0
-196.37319489401 -12.1023914087619 5.18297468432391 0 0
-189.454082642163 -32.455614083831 13.8673247011298 0 0
-150.850143735476 -5.97295210020618 -9.75632364805664 0 0
-66.6204840887472 5.1496396349949 0.230787598435211 0 0
-165.024495354096 -29.7413051950078 2.37748524565158 0 0
-65.6877148245632 1.45074014340905 4.55680677103097 0 0
-6.90746901300589 -6.02885253284288 -19.1684669404652 0 0
-17.2079187399169 4.76584903833158 -0.16761638883433 0 0
-75.6392110263652 -10.7276697096529 8.49147852546976 0 0
-127.607800647788 -21.2201779370601 -2.89160135786474 0 0
-209.926148014229 29.3272059735307 18.0586729562118 0 0
-195.88431397949 39.7168033588099 -13.9766263037261 0 0
-147.636006219517 8.69230092342202 -3.32276746849423 0 0
-214.608449235531 39.3029510284838 0.574622223999752 0 0
-51.1608706336851 -5.76959663098171 -17.7428701779885 0 0
-200.034984847497 -13.6137814075825 1.53403962946736 0 0
-138.795136404567 5.48516521701164 13.5546453140128 0 0
-140.639130883069 -16.3087314996641 18.248276962566 0 0
-40.9844694068145 -16.4709136704491 -3.17934780124366 0 0
-136.089681882414 0.0414133395305903 -9.66621785786946 0 0
-1.94743642953091 -7.25238425843058 3.00832514153581 1 0
-11.4890210142917 5.28597243546467 -0.865670297048482 0 0
-13.6398286943878 7.66152977434436 -13.9041397060182 0 0
-201.421721151212 15.4511885456593 17.9550554656937 0 0
-225.896586782668 34.399576236348 -3.82990498580173 0 0
-71.5420444612732 -14.8550697504174 -12.8777427425418 0 0
-45.6112086078771 -14.4627354716865 0.768161298768924 0 0
-204.834543218 -27.3580136646846 3.38624450596757 0 0
-195.388465664112 18.6369387707245 16.2682991756128 0 0
-174.244317435959 -33.0935286292703 -2.13540463756024 0 0
-196.163761717037 -7.8400018224967 3.25214459923953 0 0
-80.4715100471242 4.86409096825549 1.45882720567726 0 0
-81.0252859287933 -18.9782405260842 0.845191737749624 0 0
-221.502702031115 32.795870367289 -17.6102235990365 0 0
-68.9787927214378 -7.00979692230396 7.81156714911261 0 0
-185.313733226883 24.2026507414302 -7.3361998165489 0 0
-157.628520631675 16.8383897402598 15.6157988859354 0 0
-69.2581753203982 -5.38097435762279 -16.5249475543633 0 0
-159.002141808595 -17.3857569420217 22.4369911972197 0 0
-163.981631107937 -27.3068239335665 12.2656355034124 0 0
-67.5253573133101 -8.98511330937481 -16.0017535992263 0 0
-101.434538743411 -14.0892647384777 11.0330410729905 0 0
-177.128420352625 -30.3007324815999 -3.69692986541393 0 0
-91.9676886443917 -4.13445850101267 -14.2097539620388 0 0
-140.319508457372 -13.0508879621069 20.3449286925307 0 0
-193.508170113661 -6.29297766699302 -14.7940176552675 0 0
-37.1528550230316 7.45852285262389 -6.45863073039372 0 0
-94.9066689370219 -11.4447760282018 12.0011247622833 0 0
-182.11753429064 -29.5108856081115 -3.11063530476069 0 0
-172.873749652853 -31.92658062864 -3.76141109942303 0 0
-175.77552375088 12.8554078071811 -8.05582339310363 0 0
-158.674273726262 -27.1950677940044 4.1556032825089 0 0
-105.457183203608 -16.0781041671459 -9.99501125976642 0 0
-212.5453057634 22.513516458245 -25.3571652071474 0 0
-208.222811166565 -18.4827789856307 12.8248375702524 0 0
-212.064589644871 32.1048587997678 -23.3971684764685 0 0
-201.376560499036 -13.8244533435351 5.68778357111226 0 0
-25.1154385785087 -14.4932773741455 -14.7938815058395 0 0
-188.534962734318 -33.9503865932096 4.6132214180807 0 0
-74.1869639410252 6.75530008329633 -6.93315768725787 0 0
-202.807015941794 44.1119968427441 -9.63645091332895 0 0
-215.179345493123 30.8173465048202 -22.9302789726639 0 0
-171.918209346092 -22.9091974080912 24.0326291157809 0 0
-69.2900327826124 -0.952984466680937 6.30467663859747 0 0
-194.091681715636 -30.9115447961459 10.9865049641779 0 0
-118.982187189534 -8.94045588677752 15.569510909135 0 0
-10.2751076467991 -16.4921872653618 -7.57548526599358 0 0
-76.7008795401258 -5.80636498287776 7.87490795602529 0 0
-206.674777470991 42.5373090999771 -14.2788585175147 0 0
-206.439575582681 2.95233280553122 -13.2365563069679 0 0
-174.989250125818 15.4710354584941 7.86109474353974 0 0
-193.033596080402 22.73797116818 14.3728281885663 0 0
-172.555566502728 -6.18277809415914 -14.1624619622537 0 0
-167.342227264318 1.49643446349387 20.0735042396456 0 0
-147.976742306658 -9.88329654387033 -9.29240090111751 0 0
-206.284291830403 24.6764567011077 19.2757823030072 0 0
-165.12964282007 -4.71442286712606 -11.57495313509 0 0
-136.999654023122 4.12435530300341 13.8350393016006 0 0
-227.309582524798 31.3168248891752 -0.0791714469546593 0 0
-196.412712310277 30.1758694075974 -21.0325378629422 0 0
-197.570901994217 -12.2048271943361 -10.3107492108709 0 0
-118.47813838459 -10.4579831505931 -11.0325149326785 0 0
-41.6309055398062 -15.6057626393553 -13.4496953403307 0 0
-189.597103907655 -13.8498371962564 28.7685360238243 0 0
-161.043080997295 4.37137947437836 24.284582732563 0 0
-131.583000710501 6.3949088427217 6.21203443820629 0 0
-198.828336020449 -25.2654788713573 -8.58628456613818 0 0
-182.141152247629 -32.0455750993992 -0.564787161901276 0 0
-224.148768122063 25.81911928018 -17.7633424356185 0 0
-35.2726685283985 -5.08529406271458 6.22011315228953 0 0
-94.8698398417466 3.57043707023799 4.28825403563469 0 0
-141.281716681403 8.58056122516426 1.39723610925114 0 0
-218.479418641354 21.4615603234486 -22.7061292524092 0 0
-205.621429945454 -16.865462568022 6.39585824881162 0 0
-219.468891697349 40.3038485597869 -5.3185224052366 0 0
-169.132500744268 -14.646801697013 28.5941241901848 0 0
-134.920212231888 -13.7603174724918 18.610184966517 0 0
-223.189360880548 29.1278172768376 10.2592725300468 0 0
-143.403145266079 -15.3945329907008 20.0594610657962 0 0
-160.161438416972 16.4640853831411 12.1234594397386 0 0
-193.390677627368 5.06779577050193 -17.0568206949542 0 0
-181.163122643136 -3.32197482194318 22.0282208454769 0 0
-126.188513400014 -21.6274688264378 -0.288210932685948 0 0
-200.212077092592 -0.867781358893857 0.0261684053767432 0 0
-226.234630375674 12.1596181585959 -7.73163688680858 0 0
-212.214370175687 37.0803668963895 13.3540167161029 0 0
-188.457936980867 -28.6729856037847 19.4223367229589 0 0
-105.405841110698 6.67262272530164 -2.56195436344182 0 0
-209.151022074308 42.7558518776243 6.70619300316237 0 0
-22.8264182924809 -16.3449802890397 -5.81030372038009 0 0
-32.3102901114398 1.17838001122577 3.70798119525649 0 0
-12.5602073098458 -8.93083079294245 2.18806932099393 0 0
-161.145168408606 13.041061639297 3.89992935852325 0 0
-21.8362572777497 7.35248723906351 -13.5568957245591 0 0
-195.428310752006 -29.5165067739176 14.5873968828124 0 0
-128.873379941489 -8.87692630702339 17.2211906444692 0 0
-186.101637065406 -5.45983956292759 24.1939872530169 0 0
-204.756968402131 -10.6309944583036 24.4660159081438 0 0
-164.699107789942 1.60413403053754 25.356551245582 0 0
-123.281602638456 -11.3376478168777 16.3816734543712 0 0
-175.860259477215 17.6309650629017 3.77185378831565 0 0
-124.186702548438 -21.6511943460707 2.6535593815246 0 0
-143.015554176993 -16.9882969819778 18.4413439346077 0 0
-195.866011352938 -30.3294651267303 8.29402409013479 0 0
-119.609053003072 -16.6059571446009 -8.74512476880926 0 0
-9.34085537697079 -16.3814259582322 -11.2687855727351 0 0
-91.8332349013444 -8.74022386684526 10.8361750356543 0 0
-217.238956007663 32.8866874156963 -20.8050673977906 0 0
-198.285991761332 42.3759286855726 -10.9773481487463 0 0
-59.8234331610213 6.32952260294784 -10.4127184294886 0 0
-199.039160271805 41.4817831315958 -13.6290837104293 0 0
-28.2635402483563 -16.6743296023648 -11.8328860490737 0 0
-162.087725887723 -8.32043473315789 -10.1281149731677 0 0
-142.868717258156 -13.1868362392091 20.1496440683976 0 0
-186.441228121596 -35.6612047360233 4.62240442387714 0 0
-201.455103231247 44.7559129118736 -2.41829455087138 0 0
-106.314895179681 -17.9411143666723 9.3139699262079 0 0
-197.557295540342 -27.7737680589343 16.0080062595299 0 0
-170.383126953497 -30.6121359616965 11.4717251132326 0 0
-166.812254287491 2.42660855706384 -12.3892499153702 0 0
-96.260152943646 -16.0477054307898 9.09446447963576 0 0
-188.925238495635 -7.22721531198243 25.5159854290256 0 0
-159.18607155244 4.82221249297599 24.2643802611603 0 0
-196.734936662539 28.7394940661904 -22.3084081964493 0 0
-186.998126682828 -35.1668657511913 2.32240427669667 0 0
-122.103058808177 -14.3589828190527 -9.7631199668602 0 0
-198.764160619972 -7.26387611890038 -3.63669425430486 0 0
-65.5143221575346 4.86161255847204 -12.5098561687179 0 0
-210.599837644161 36.5450713531168 -20.7394960800461 0 0
-190.303381405194 22.7474730327092 10.0890225602212 0 0
-102.819615891305 -19.1567830624927 -6.69732304317575 0 0
-194.044726298445 -11.7241555120313 10.4410002682314 0 0
-189.585375148522 25.0500032886142 8.03384327518986 0 0
-184.780179611607 -1.01959166127756 -16.011007569375 0 0
-171.40136712379 -32.2861170424769 -3.47830986970954 0 0
-195.117193460042 -2.24940786297798 6.03622576388204 0 0
-135.596035340028 0.439757555889422 15.6559911223214 0 0
-47.3338699740384 -6.57126539140564 6.54460424017738 0 0
-70.0577759404516 -9.47043708582071 8.19467900220381 0 0
-0.281968179631984 -15.5089077057607 -5.93564860665118 1 0
-21.9834143198385 -11.1775495867965 -17.2307151434847 0 0
-193.070255428609 13.5406123643725 13.358975667986 0 0
-172.603268715299 -18.2621616689606 27.6818993095997 0 0
-209.772761861104 44.0477171313738 1.4740991744527 0 0
-194.007385960433 39.4593316084835 5.39789253394406 0 0
-218.082007720008 40.6713895207131 -6.76294727023331 0 0
-40.8140240450327 4.4334181620661 0.460994428266108 0 0
-179.42549099282 11.6837330546153 11.1182922974582 0 0
-57.1961283054061 -11.0970174174699 5.49215085673048 0 0
-205.704105027673 29.0364699939165 18.4988276056125 0 0
-191.732420376308 19.4782934164505 12.567659307619 0 0
-167.476206564865 2.06883328028926 21.2835929579961 0 0
-134.16961645829 -20.317855433889 10.9278202560333 0 0
-211.955385284459 40.5118911108817 9.32704192964294 0 0
-204.464996723207 -26.7364000276833 7.3493237461268 0 0
-206.983939628452 -23.4887894926276 13.043090169699 0 0
-6.62647301427007 1.75803980561103 3.75389138353307 0 0
-186.754050042465 -5.98183411447021 11.3169444758483 0 0
-209.066140360718 2.51724050613362 -14.921471964278 0 0
-77.8243385003309 6.15115994859435 -8.862919919846 0 0
-159.476004431321 -9.78411900625474 25.382341447126 0 0
-124.305501240355 -0.38622381648158 12.6053211711981 0 0
-202.632385714021 -29.4670143492617 2.00100237197552 0 0
-172.232450733587 8.98945413797531 13.5674103392267 0 0
-197.027439767492 37.2297847872846 11.419729894663 0 0
-202.216145373014 -17.2799623409059 -0.254771515819131 0 0
-104.340543868087 -13.7560090274641 12.0444765210742 0 0
-208.008583640322 13.6726174698141 -24.4753660037382 0 0
-22.6122603548352 -12.2530566115982 -0.1554257535769 0 0
-220.348209608006 6.462745119387 -11.8973690490484 0 0
-200.535922346103 -29.8946774698828 -3.90417024602711 0 0
-176.416489261814 6.6430165336974 -11.6352450368232 0 0
-116.744232811 -18.7794617788907 10.0818700108093 0 0
-191.257812398796 3.77415627052917 -17.5380556359651 0 0
-26.1775844748987 -12.0829114442326 -16.567207167291 0 0
-178.318257001569 -26.014331661711 22.8414233877545 0 0
-136.770410547352 -3.64459140485955 17.3270908753691 0 0
-225.907443811162 12.3716089180168 2.78701168634274 0 0
-143.238233688768 -18.4538934418929 -7.37984984041115 0 0
-128.956600532688 -0.708056164528739 14.0616924076575 0 0
-215.900390574422 41.024673565061 -10.6344434901024 0 0
-203.571064183812 4.01920601236986 -17.6720245189322 0 0
-164.082660495861 -4.28677967854093 26.8706899983481 0 0
-202.889820030973 39.8568019971087 11.0359602572244 0 0
-188.347143733366 31.7729505628715 2.18184940099445 0 0
-107.931403246459 -16.6157641129568 -9.52098516110856 0 0
-183.473564168392 8.58165908487729 11.995259304142 0 0
-98.0988924844044 -6.21671314099274 10.5730625765133 0 0
-94.086728582914 -7.28017684475222 10.5678510094024 0 0
-190.776971259336 -29.0057892582796 -5.98189423521593 0 0
-104.890321777508 -20.5336109341041 1.23288018238838 0 0
-192.029872943269 -32.3812592128004 10.8097461900157 0 0
-84.4730834322427 -2.51691950776917 7.98038536514749 0 0
-114.544843132417 -20.2231266756206 -4.59224766727833 0 0
-40.45075926787 6.94442060580079 -4.41201125148123 0 0
-192.325632429497 -8.67722634560111 26.0454825597441 0 0
-113.90268790197 -0.715770412716019 -11.2071382899043 0 0
-45.9662133772991 3.43475829580491 1.83986828285047 0 0
-74.3306920871905 -8.21804372150601 8.49039842160748 0 0
-186.125511031841 1.18116189353682 -16.4945934216132 0 0
-193.126974080695 2.90925152765268 9.74649019745656 0 0
-184.431477160827 24.2174228415273 -4.8924525260908 0 0
-171.823605076675 3.4564539017439 -12.7490098174077 0 0
-163.516538431931 -1.3141090435628 -11.7935017207435 0 0
-82.0791859650305 -1.46644822749483 -14.8384484038432 0 0
-172.420825355729 -0.418666615335678 22.4660806941277 0 0
-203.045737157455 -26.1619200562398 -4.76141631366485 0 0
-199.961501725935 -12.966922737676 7.29422709416787 0 0
-166.022650760745 2.73573301671806 19.8428982649328 0 0
-114.768432748044 -8.10276532798418 14.7196630810516 0 0
-198.562785054243 -13.3584826452882 -8.56093379108588 0 0
-185.296700328741 -23.1367585832867 25.2237950639757 0 0
-52.0236013933466 0.389399288130452 -17.1906908258821 0 0
-203.603428107926 -24.7087366858871 14.757515779272 0 0
-68.7462272827726 -4.66205562737358 7.17418325795991 0 0
-163.065443036463 -28.6507321690113 0.610129132618711 0 0
-189.213886323288 26.5348332542083 6.46213233149334 0 0
-202.373294906331 29.2548803298798 -24.9562882959114 0 0
-86.641448178645 -13.6948874799198 -12.7294736073269 0 0
-97.4473256685338 -8.58260662430237 -13.3934625810926 0 0
-183.179499522986 21.8420843264846 2.40297985170837 0 0
-217.904028106839 27.7260677466096 -22.6208526797975 0 0
-127.678214168261 -2.27856269824677 -10.6036023649097 0 0
-1.41842668380392 5.23122853692785 -0.68343012506689 1 0
-165.805095049914 13.2267977211443 -1.16428201751238 0 0
-48.7244839360361 -17.026738089793 -2.61546025259561 0 0
-181.395648406533 -26.3837665352596 22.8068247667289 0 0
-162.954479074409 -21.1282689422736 -7.24721650628027 0 0
-145.93730826978 4.61224813769362 20.0231529018373 0 0
-105.825184090105 -13.2430317821383 -11.5038052999091 0 0
-39.3461946322883 7.21776702008525 -10.84458576661 0 0
-202.553750752118 -21.8059762589248 20.3362571454167 0 0
-58.4339686770449 -2.53637725617563 6.65082171961524 0 0
-147.331343957594 -24.0896425911926 2.83613022026837 0 0
-202.042706453256 17.4251414916083 18.5213667836923 0 0
-192.824581194288 -1.53903316428567 7.94854469828446 0 0
-144.962334320337 -14.8221225469549 -8.75488079916234 0 0
-210.771112492942 18.5965390808042 18.6038702238907 0 0
-220.270319791911 10.4100718000812 -16.8855361512086 0 0
-181.440337908102 4.62897852529151 13.2024505513585 0 0
-218.656207002 13.674329666745 -20.3384685906309 0 0
-165.847895562702 6.87910920897317 18.8826736739744 0 0
-218.198936991522 24.8127530682906 15.7332774757563 0 0
-90.4764425696043 -7.41415573421291 9.91983973472651 0 0
-112.755870812335 -12.145344220304 14.8064621695129 0 0
-194.934558034129 -32.1779758470312 -0.829528151975024 0 0
-99.7218159508004 -3.05873357424421 -13.2082508842663 0 0
-198.517874365077 -2.45879239040189 0.231929756209209 0 0
-152.971642110309 0.532490186042844 23.0675049750627 0 0
-215.556238094642 13.5642337708449 15.4685487626606 0 0
-194.762719224363 41.6815433694474 1.22940310909381 0 0
-19.9415665045911 0.0579103331107366 -19.076699307192 0 0
-185.913431038226 15.4810306215572 -12.5350668007193 0 0
-120.820727155058 -10.4172804802977 16.1852944616979 0 0
-186.043351603173 -32.8244285044782 14.0683286086079 0 0
-160.290812130074 -26.6598725894069 10.0756918165888 0 0
-32.6602859479429 -16.7645762372626 -11.8148200554463 0 0
-193.279364366656 1.1487863604452 8.86271520338573 0 0
-183.920831694635 -5.55747955388473 13.5622429803234 0 0
-187.153857378917 -13.9666120720982 29.1693593230922 0 0
-110.932080508951 6.35938280599621 0.192934718599081 0 0
-94.1309953093246 5.07461370241639 2.00028926607343 0 0
-176.259156883829 -34.5418352938114 1.06509057298372 0 0
-83.3988815645595 -4.13836276365065 8.25245019523839 0 0
-187.746066767977 8.62731917356054 -14.4552869179443 0 0
-190.468732404525 35.4662145607685 4.63418373143348 0 0
-37.6023073804363 6.74089549443901 -3.71025204161475 0 0
-126.460268638858 -14.9073944549013 15.0334715839658 0 0
-149.09789266221 10.9250138362523 21.373371779761 0 0
