"x" "y" "z" "f" "a"
160.36357825129 6.59798982219438 9.59969193562487 0 0
9.59708744868153 -3.53332929968492 16.8004571576979 0 0
-32.2914117281697 14.2445486555397 5.42244746892879 0 0
107.855679010135 14.1428032352925 10.0871163246704 0 0
-54.3201175165802 13.6962669659609 12.6720127543277 0 0
178.041843676859 -4.35139023431797 11.3548520926458 0 0
97.772411991365 14.274440083232 -10.4798070160018 0 0
175.966267431519 -9.58032052442897 9.77213140807157 0 0
207.493521250227 -32.1306611886654 -10.5096036390657 0 0
169.556846053688 -8.54601766163657 7.63890213727278 0 0
85.7036202491879 14.337096674217 -8.59374734084659 0 0
84.607102970421 2.72313753795324 -8.73366098061623 0 0
188.875895365041 -43.0197939274654 -1.23844861976929 0 0
203.287412135104 -24.2375908739244 -16.1113112000841 0 0
174.214982928131 4.97773621284468 -20.2949832699202 0 0
189.659517667798 -42.1175359553505 -6.06982808871866 0 0
203.927876284313 -9.47838683557828 -8.48436045402572 0 0
5.06669318133642 -5.32017405556768 8.76630326990561 0 0
210.651249824199 -12.2937232288336 -3.54300460596065 0 0
136.692855349518 -8.13681633915031 -14.3331048085182 0 0
-57.8641485648193 0.964177812084495 -4.41850620955978 0 0
-68.8980064771134 0.861103735240744 -4.48654738031635 0 0
97.9782098094285 20.0318090925152 -2.38902934293695 0 0
-27.3144239553264 13.5318252181 15.8464919112484 0 0
168.51663676525 31.3817682540149 -11.7664407524918 0 0
-8.76144555195632 4.95164030936701 -4.9756399435189 0 0
0.486758182595181 7.6920670366338 -3.68254658163443 0 0
137.361807600628 -2.68379444467218 6.60382102234697 0 0
-50.5783063283515 0.943650118554619 -4.46583779988152 0 0
-78.5285065400353 7.39894453323499 19.0182062407364 0 0
153.244533254001 19.2000779201815 5.80971669001541 0 0
94.8475569652898 20.0917321686567 3.27202531811889 0 0
118.785524396261 12.8609444511519 -14.4020098699117 0 0
74.8981230499788 3.86019429716377 -8.15286110858906 0 0
211.079350486806 -31.6929346679429 -5.48028029180732 0 0
-45.491274909877 -7.98026719209703 12.3882400090991 0 0
173.340423724355 27.3699751960402 -17.9374701374347 0 0
63.2156685502087 -1.15548642700689 -2.90678441931919 0 0
-68.3282959880543 9.67904275050036 -3.32750223398864 0 0
200.573416906261 -39.240992348461 -0.575078319418988 0 0
-75.6657063497935 -9.96963473009979 11.5141982899166 0 0
154.494784757633 -8.40055577947365 -0.437530187254726 0 0
207.611506781588 -19.0559942491349 17.5434060449769 0 0
214.311436004375 -21.0507403153387 6.2097233836576 0 0
44.0252589131478 14.6100929714365 15.6702590477914 0 0
207.194454157547 -22.6783539373337 -13.5888364127494 0 0
177.162376951284 -10.3736458916297 10.7014248877633 0 0
185.128239013498 11.1708972574748 -5.91538793604078 0 0
81.9181209344083 -1.05880559333949 -4.78520973184429 0 0
186.925601694185 24.9391790743726 -19.0100295007799 0 0
183.523027931096 -40.3184544485777 -3.97885942855494 0 0
8.17142169041499 3.5680113046562 -5.84428654650024 0 0
-77.6706421076174 -0.29218690840273 19.3909889779776 0 0
207.01157833039 -27.2054728362356 17.9200288113726 0 0
72.1064892115813 8.41431375925819 -8.98552253186823 0 0
-11.8643279016532 -5.59640212577195 8.13787638215335 0 0
-14.9295658944402 -5.48392178656984 7.64103290404959 0 0
195.094084036757 -1.55843783052027 5.2043634488016 0 0
-40.3798831136054 -2.28912459405059 -0.901472100145912 0 0
189.896246618474 29.08098702903 -3.38396671810283 0 0
-80.8076906137858 -8.36637484413647 4.49748472872668 1 0
68.7308525083105 16.136694931993 12.3707005243642 0 0
209.597765018003 -19.356222453387 15.5554480628303 0 0
114.346160645579 5.06370249263335 -13.1280547877504 0 0
-53.981878272248 -3.94311286081635 0.594258532525661 0 0
-30.591448464904 -0.558480577903197 19.6757931941734 0 0
35.7704577339757 3.81597450347491 -6.22211792424791 0 0
-4.04017506300148 -3.33820320448701 3.18856338924948 0 0
192.78980945566 -36.1009058316814 -14.3912193480608 0 0
210.652564172428 -14.6572466271473 -6.54295197967701 0 0
163.118507756055 30.8051444129005 -3.19972162002613 0 0
192.397594106045 -9.53985974060605 17.5418795070906 0 0
-6.04245621553166 2.99456581712578 -5.42128900198021 0 0
176.94731918552 -30.7560269612037 -3.35222709767992 0 0
204.305025857942 -33.0518549625477 17.3934954268522 0 0
-17.0190314503846 8.49676925626612 19.9511386203956 0 0
101.927992276786 7.78357288346104 11.8676081660025 0 0
-22.8289808228358 -6.52447714276538 14.4816739654063 0 0
174.468219483302 5.48333342284675 -15.8921601675043 0 0
97.9935200316294 2.05409120469241 -9.69903915230377 0 0
138.312483941142 -7.79148199224987 -10.7730289464566 0 0
36.852714402002 9.76898955567376 -4.71377233696961 0 0
106.549509776294 19.7230366457861 5.13116784366245 0 0
-1.49801267313281 1.47303652949277 -5.02319391222289 0 0
210.040998912008 -17.2728498364924 -9.39726612244775 0 0
200.292842212166 21.9257346479116 -6.76037024942741 0 0
-52.2661885258738 4.40028267999682 -4.73778516400667 0 0
107.682027813145 3.53105113465596 10.0855092484083 0 0
125.619521222327 22.1423220709292 -0.43718251171949 0 0
165.806243626089 31.9637184621244 -8.09254920164927 0 0
178.503314081244 -15.3012320547636 -10.7675904965831 0 0
-33.3252548005031 -5.16036060662173 5.20142586904501 0 0
190.34441189388 12.8877483297467 -4.20353552682702 0 0
-68.2995899575846 -8.71164772017628 7.28613107898829 0 0
166.114918364432 -11.6840663409259 4.91630608849759 0 0
168.56025025127 4.40043027634188 -25.1859742119095 0 0
79.6030335380014 -1.19970955098966 -4.35265361683078 0 0
162.693732032475 -7.10503664955312 -10.736782112647 0 0
70.104714091401 12.6086618125961 -6.96386968127584 0 0
191.549741706077 13.1389265879528 1.37601033212235 0 0
189.14929386649 -21.1810852922397 22.7606441594946 0 0
-73.3186116684826 12.2392281252333 -1.48707269896822 0 0
-48.069769569677 -5.14124018861671 3.37188559746506 0 0
146.085415818085 -10.8276665992945 -17.0045909484998 0 0
176.890107209728 -13.9382327089273 10.3260920690346 0 0
-3.96556407047523 -5.77552287782321 12.5886280610243 0 0
150.216256423469 4.59477579185694 7.90588120212463 0 0
173.564101880622 -6.5598082772541 -10.6267230573047 0 0
206.196819953086 -33.9162988408028 -10.5901621806848 0 0
185.279278904392 9.76796616586671 -20.2344877252587 0 0
-47.8484842137537 1.142848713324 -4.53379939699471 0 0
176.636467738555 -27.365884680269 -1.75759839069279 0 0
154.614010002356 -3.79598738585714 6.44391359853888 0 0
62.8885332712267 3.21617918214572 16.332505570524 0 0
185.091202607611 15.6229667872681 11.6778462355646 0 0
204.739268441896 -39.0934520841292 3.51533211387011 0 0
65.1226468698754 7.03371939726396 -8.40603980959729 0 0
190.622342205724 4.64247461816279 5.92394521905314 0 0
8.68879853968071 7.99217376194153 19.9570330334493 0 0
89.7454159354371 16.3249991512921 -8.08161090437578 0 0
201.736913697503 -38.7260064008817 3.28228200600099 0 0
8.8168053248539 14.8165989415944 16.0211113890639 0 0
33.9766835416027 12.006251594266 17.9536216678892 0 0
46.1200411020977 1.83781688522358 17.5372027264801 0 0
188.897211629357 -38.8718406986449 15.371653505518 0 0
175.223057383506 26.6739320390037 -18.2642090681406 0 0
167.104744442764 32.3663136849303 -2.58080307766576 0 0
39.5085669125935 -1.99990940622987 -0.220164764961466 0 0
-83.6314421394881 11.624574130714 15.5176804576485 1 0
55.6851005909566 -3.88585240433812 3.63757799514187 0 0
134.550345584933 -5.82369981553717 -15.2590493586681 0 0
-26.4192259326633 3.20592151765657 20.3915561566192 0 0
-16.947242216213 12.2446448479598 1.04725339404267 0 0
136.460141284897 -5.2027935396854 -2.20958936874762 0 0
173.399884318793 4.31332358854697 10.3129363066067 0 0
19.5129160789304 5.55079180682381 -6.19875521469397 0 0
176.016901800113 -33.4874761482852 5.51678706005258 0 0
198.935217966323 -17.8227850347806 -17.1029189119641 0 0
198.153806061423 -19.5320707695504 22.6151156549597 0 0
210.176031365185 -10.3273407791803 1.64124514475458 0 0
211.715089933431 -20.3423406117056 12.7597083204434 0 0
190.053128635397 -14.690863994446 21.2709080184433 0 0
83.6357296635124 13.7041349299504 -8.65220045835606 0 0
144.629427537402 19.2866808066677 5.44343286611116 0 0
-53.6079331676992 -3.4990701335301 18.6315951248896 0 0
65.0186268069728 -3.94642223548289 6.75644716295335 0 0
-52.6355954997509 2.80001753214094 -4.7254046067163 0 0
122.678014184952 14.618019851057 8.28224020946868 0 0
16.0828439302182 5.91773294360621 19.9077723163503 0 0
40.8302946310927 15.5780610960124 14.7296690218873 0 0
214.528284814961 -19.6265316988343 2.04547006930044 0 0
119.837323214808 20.4275279535005 3.67080513009871 0 0
169.452289836446 -11.0721253516743 6.51279618216661 0 0
187.72168071021 -32.4630467365857 -15.7307234901018 0 0
61.6537531992092 2.33099870618407 -6.32706256523445 0 0
214.773448133756 -22.2250458854157 3.71382833210526 0 1
32.4951830725266 -2.12520667179251 0.36355464099784 0 0
95.1043408494016 6.1510560457489 -10.7360132317128 0 0
198.049789929122 -37.8176364817312 -12.0458219061545 0 0
180.505830511297 -10.1064075416928 12.988598655463 0 0
-0.350851915334255 -4.19119736715366 5.02846182526246 0 0
69.1716814929549 -4.05378420811783 4.5257743734549 0 0
-17.3222959939544 -6.28237643435862 13.8300379530723 0 0
198.417072262808 -11.3305775665006 18.4034010838869 0 0
157.77280260318 -2.60228914685487 -17.7746931947535 0 0
-55.9975541822069 -7.4571353180312 6.84389075906164 0 0
60.0668069218802 -3.21093198421963 10.0157192747123 0 0
62.58908161508 7.34058547852979 -8.18914614248247 0 0
162.860629649087 5.97848558098208 10.0007385982402 0 0
191.447092224232 2.84403565759178 5.94326652525181 0 0
204.274996764265 -6.39589456625253 -1.19734540749902 0 0
30.0295684271897 14.454171561273 1.3632879701962 0 0
10.3711750309982 16.2288647879461 12.7973015453756 0 0
189.855605917345 -31.5901534207349 -16.5825701846543 0 0
177.620962736818 33.0452671216233 -4.12816304883681 0 0
157.949833685465 28.4391432332039 -4.72091926788076 0 0
194.757673556599 -5.17722925607444 13.4945454645206 0 0
85.6666338238045 4.5328131592741 -9.27721497758239 0 0
-52.6334334727307 14.1636091998261 10.9947782064207 0 0
10.4080323292937 6.28047318184335 20.0611783427816 0 0
176.521422717006 -22.038418769508 -6.02170762642265 0 0
33.8734047908686 9.10715625303037 -5.01919061364627 0 0
141.317918034862 11.6601891589778 -20.198065141685 0 0
155.739663775459 10.5402098358112 -25.0363257112544 0 0
200.851871071521 -39.7487205365603 6.61625607058581 0 0
-49.4006054166369 7.2621033936573 -3.61652005028413 0 0
165.129108877732 31.6981867814051 -2.4545890716145 0 0
157.829089995945 20.4120190111432 5.57324152929351 0 0
-50.1989641647848 -7.02740599243492 6.99358622335703 0 0
70.1711216520034 0.858347126099906 -5.72496427217904 0 0
186.065503485092 -9.49909375080148 16.0732799074115 0 0
194.880620450175 -8.39726808586378 -4.77291321924717 0 0
181.975422489331 11.2133506912981 12.8831822217019 0 0
54.6108967851846 6.54302460155092 -7.451464052018 0 0
184.682109075824 -42.0204751258316 3.10475431538574 0 0
148.80231720252 25.1598797636021 -1.28659367387886 0 0
205.099252944108 -36.1592786711984 -9.52541855110535 0 0
188.925715663581 7.60651555467966 -1.81187795727403 0 0
163.088055410541 -12.7061089309893 -4.3132362070653 0 0
120.736165636824 4.51970925108092 8.61193773516187 0 0
171.393162431701 11.7600774770163 -27.4480522476997 0 0
-5.65377746066549 -2.38063436525556 1.19943814881314 0 0
90.5881012705599 18.8938196152278 7.21753232689699 0 0
89.5491942201423 4.42591368760545 -9.74523875464978 0 0
177.832738333524 23.4122934432459 7.99220079381599 0 0
208.2740768177 -36.5241700902097 7.93550388283134 0 0
-5.16461198149957 4.20458360609254 -5.40650423437007 0 0
16.020095835799 12.3629130980796 0.144017359199016 0 0
-41.78758177495 -4.19771833645417 18.1671236952486 0 0
163.774991966008 18.5995637902498 7.04443652498851 0 0
149.647402339364 10.8346639357609 6.23501380114747 0 0
205.54795894713 -20.49109017914 -14.623644142408 0 0
90.0114713619651 0.571562635494156 10.9726714274636 0 0
191.357840215225 -2.90469659464112 -1.7113975133428 0 0
126.844118304558 1.51258466368793 7.0939857269382 0 0
146.064578357863 22.0816612408676 3.29620486839316 0 0
9.81358504449257 2.07114077742482 -5.33301954665685 0 0
142.709905228651 -5.70677532588484 -2.70086552362664 0 0
-20.0867505213938 14.3947187640038 4.98751278493676 0 0
67.6263264890233 18.5016651160111 8.58022726142736 0 0
109.705503433564 20.2056382415428 -7.51464830364192 0 0
43.1455434335791 16.250885060558 13.7186017584837 0 0
184.531092976464 -1.43958828383774 12.1933579164044 0 0
199.593283081417 -5.13014476811937 5.21843639720924 0 0
195.524296967807 14.7098380976936 -23.1316191219614 0 0
185.890900143023 2.60418217002391 -5.6824714491337 0 0
24.1303397967001 12.737247601447 17.9489673011537 0 0
-49.9977432920533 8.11414654292564 19.5843962589454 0 0
-80.1783110645413 -4.77246138075555 -0.738739120877872 1 0
-3.63590859098817 -0.0281242003213881 -3.94987716297869 0 0
193.712069974303 -35.0487533885233 19.6642651426415 0 0
183.933866181304 -20.8833964781478 19.4582512631711 0 0
179.247371352512 -25.6114322156817 16.364625357423 0 0
176.015538233847 -20.1792495952259 -6.23390924564184 0 0
-38.0662242923323 -3.72827992775891 18.4269310291994 0 0
-52.4062208260431 -6.48952197871388 5.30074880121352 0 0
178.299179725574 -17.2975973086484 -10.5795215140538 0 0
188.672932441989 -1.02488451805244 -4.0552178094201 0 0
132.616159245172 -4.06036741818222 4.73444655741181 0 0
141.083602723302 23.1871050404907 0.864772970146141 0 0
96.3179304094799 16.5765055998431 9.63511979984525 0 0
112.170528559868 -2.29593309138765 -7.56976210016023 0 0
-40.4064871057187 -7.38637817582876 9.78812202030636 0 0
176.528850986698 -34.8664191509028 4.38421431853284 0 0
42.7854559684677 2.6232502766073 18.1377793588824 0 0
95.6369507529873 -2.02350602943277 -5.18526567124803 0 0
206.7896968255 -13.9847925078417 15.7609019226881 0 0
116.300983116488 12.6100002061084 -13.9784384812764 0 0
-1.66909304916516 13.9573453186538 3.36608140601628 0 0
186.233636333298 -36.5191100904446 -12.345626409083 0 0
-8.84870609984353 7.49727864953134 20.2346017144317 0 0
199.508601320827 13.8365910347318 -10.5371992598344 0 0
60.567427850819 14.5500009153913 14.5669816936644 0 0
176.137086158262 -32.5778163938558 6.63388887145223 0 0
194.551442287258 -41.1831459236282 13.0499205999994 0 0
-72.8330884753127 -6.53431211223622 16.9043618009125 0 0
-31.8289022291397 -6.0487891962028 16.2692931076257 0 0
92.9803274601116 0.863655506320023 10.7178749747615 0 0
92.5073893427983 2.13512762732831 -9.21429170247134 0 0
-21.0926095511442 -6.36388915414091 9.78845963184152 0 0
-68.8764950933426 0.72691070281032 19.7952616038846 0 0
-8.32728277351214 -5.95397580572155 10.538796993175 0 0
61.1050775533312 10.110690035641 16.7006136220164 0 0
113.019234707679 2.12167043389217 -11.8765942347314 0 0
-8.84181007258634 12.7696774010941 1.77167750061429 0 0
88.7154959867197 -3.75072359936268 0.022970084717622 0 0
24.680876220152 14.5450214883089 2.13283160598433 0 0
-62.0849137800738 -5.00727778994105 1.32940515969453 0 0
-70.4924723569651 -6.8433742057923 3.3455895877067 0 0
156.185467487616 27.5694378475735 -7.81979469928174 0 0
-77.1827345086641 6.02004704569996 19.4465316734031 0 0
-43.3574707887207 -2.23461511161717 -1.53867199144518 0 0
171.828032465474 15.3566020504079 10.7195453519335 0 0
14.4148385665472 -2.56752042256072 1.68688767791735 0 0
144.383904517424 -3.16315716796887 7.09479866355461 0 0
134.026180538523 20.7338220768693 3.87379075909887 0 0
192.646818719809 26.0635817882087 -13.2312093800894 0 0
213.87615466716 -29.0526404230562 1.30425447286475 0 0
211.895610550145 -33.361033824229 4.15432437007843 0 0
193.332209219635 -7.78401524785442 15.8377774740148 0 0
-43.3701185041348 12.56115049597 0.884847114674669 0 0
187.979490299346 -24.9882109548894 -17.6981995931622 0 0
177.338557866047 -34.2221986949246 -4.56438914096325 0 0
173.268795918317 -20.426482905491 3.85124693845852 0 0
182.172368349284 31.7395243213744 -6.613538329711 0 0
159.901343875663 -10.3503816698358 2.34347210061539 0 0
-28.180792315531 -5.73771172585452 16.5357290501424 0 0
53.0032917033247 1.96655073216221 -5.61352708099739 0 0
130.707104695482 -4.50918702420214 3.66946849310666 0 0
49.8567401374828 4.60650880179489 17.988523513232 0 0
171.843268958365 -18.9124507752124 -1.98310956809028 0 0
-41.035174896394 14.386550639313 11.5983759663542 0 0
170.495844026762 3.74473955816441 10.0893253367165 0 0
193.0094010485 -41.4343495551595 -8.26475394287461 0 0
122.648065597139 20.5483472759895 3.58119619518965 0 0
155.466920300622 -2.91536240398783 7.46984185385863 0 0
170.776295653066 26.7049874468768 5.16323414537785 0 0
30.851036345911 13.9762661185465 16.7813177709988 0 0
138.834531327401 9.52725627959187 -19.3885916955232 0 0
-64.3125774119147 -9.19327460455971 11.4307497695131 0 0
198.27805856001 -8.26595005252271 -4.80833155174342 0 0
179.464833808488 -16.0797351823902 14.5660727164307 0 0
5.24585001256042 16.1989631023835 8.92570230693483 0 0
117.225371181804 14.5209652414783 -13.5257780286493 0 0
183.06833198333 -2.23261135253417 -10.0677705338846 0 0
69.7947747300764 -0.411025394541026 12.9743983644879 0 0
74.9399626752634 -3.48257471265572 0.36366744987762 0 0
181.094137403111 4.39230941288796 -10.0734363660609 0 0
4.43961074130934 -2.75328541767423 2.07041305053127 0 0
116.291367267042 -2.54570172698843 -7.96535738048857 0 0
140.905777923167 -9.60304063235986 -11.5806180572133 0 0
156.490549721052 2.66464324343626 9.35194913244519 0 0
175.864579958376 5.62351724727528 -14.1238159405895 0 0
127.070986621058 19.7756246674745 -11.8940377961517 0 0
109.334262468752 14.9448464720656 -11.9463394543206 0 0
136.560353493419 -4.85967602992951 1.48626620471158 0 0
-60.4865855399953 -1.60633656442412 -3.23544899476037 0 0
161.555280662218 -2.06919663620614 -15.6848316795158 0 0
151.966019517442 -11.1447774389808 -12.5836016475458 0 0
-36.444752825688 9.60496855782729 19.2519814691366 0 0
12.4401688665299 2.60248252386197 -5.61939199155887 0 0
44.2171831160045 7.13947997039516 -6.96200561543715 0 0
-43.1156404348937 -7.84750256252191 11.1835875868862 0 0
148.136572060205 -5.94844754157311 -20.3964306324751 0 0
-78.149287233838 12.6323032578504 14.0415989450176 0 0
-62.2775653236746 4.00001690558253 20.0568795934787 0 0
-37.563607854116 1.55664489618568 -4.70167249734223 0 0
14.7433470430185 9.73142726778041 -2.75213722762753 0 0
123.744832484165 -3.34640470736239 -8.26382818769801 0 0
86.3154969489671 -3.78942234408518 4.54102323770109 0 0
145.763570337555 -8.32573315113153 -8.34544666649649 0 0
122.480470986467 -3.53990494621537 1.72865209480317 0 0
185.011544337906 21.0363165398981 -23.1986737468523 0 0
-46.4385394522506 -5.14179283424637 17.570070861943 0 0
185.377200374525 6.67217128071318 -4.61413988753612 0 0
86.5651131263799 19.4139375919337 -0.234054249175199 0 0
170.942289814777 8.54742036233873 -27.2673501340109 0 0
-44.843289732054 2.30046701391496 -4.68930826850254 0 0
110.575264266242 -1.35838891932514 -8.33405924679146 0 0
175.743345979826 -5.70588725979177 10.5863214978158 0 0
193.988190489148 -42.2431147673594 -5.66239225779084 0 0
165.365690469187 4.43980404425947 -24.9668545328192 0 0
195.89781985288 14.867177194309 -6.14152824112895 0 0
91.4907803924228 17.6423288564562 -7.17779690077244 0 0
-47.8855659213694 -4.10504182171706 1.67592329211496 0 0
22.380569991889 0.486901759918967 18.8189280699983 0 0
34.2566005055901 12.8955503061952 -0.97053181849446 0 0
106.890738537022 -2.71611676059657 -6.05284640508594 0 0
119.980715450239 9.42919655369549 9.28320433417737 0 0
160.30067119293 18.4554907990272 6.53631511060339 0 0
19.6734525615882 12.3400448128053 18.3062963017457 0 0
-47.107274896502 4.98961749703705 20.2752474371943 0 0
38.5270630693825 8.6677933775907 -5.80932204022527 0 0
47.5144215142558 15.0127528312965 -0.289231542196776 0 0
138.470363260077 22.4873495316112 -10.4626325161576 0 0
-43.763359513979 -1.26517013106415 -3.46573440290603 0 0
177.927986639836 10.1841630625058 12.9867990131092 0 0
2.63692494886703 10.8614472874537 19.3233806903506 0 0
65.907460368844 -2.36340845371711 -1.17960820251295 0 0
175.628816048533 -32.6625956239258 1.51885353814855 0 0
-74.9319492566193 4.61547835335672 19.7193856140753 0 0
144.331818738617 -5.55202269416667 -1.25572820758415 0 0
169.788703569946 33.0238215774343 -4.04543274643173 0 0
123.96406695087 18.1237559938624 -12.9615010306583 0 0
113.194325721914 16.5391056655318 -11.8868064518453 0 0
23.6333281974766 -0.644066742427707 -1.84548850559962 0 0
174.891947901245 -22.4670146061787 -0.958376604937546 0 0
-81.3561949342107 -3.28145650710389 18.5054007600867 1 0
141.355080762714 8.26036267390162 -20.202225632769 0 0
194.786303200763 16.0396207919307 -3.11550414346077 0 0
198.333072203261 -9.76060386838288 16.8228479768797 0 0
177.4263132172 -35.3412272282619 -1.61793411985582 0 0
165.739218936799 2.95077972114369 -21.6571691362428 0 0
36.0636965535628 -4.39628303574499 7.01814333102714 0 0
2.31611516018407 -1.24778967013988 -1.13089059456216 0 0
166.830985150404 2.43678244701255 -17.9959837313879 0 0
-66.7860846766147 6.26676081683908 -4.75197965500937 0 0
43.2813382170142 4.99700150167415 -6.67869250721554 0 0
209.490987757829 -18.4780552132558 -10.6555440103012 0 0
170.368523712639 -1.63480273147478 -12.6482430637439 0 0
144.749160639799 -0.212282643182565 -20.1585080591425 0 0
174.541991603833 3.20029490335929 10.3445615117389 0 0
190.187008181193 -36.4756331127406 18.1473867332884 0 0
-44.7228409531939 -2.32241396407383 -1.57162489527753 0 0
55.7741892424211 10.0209931418709 -6.59106401962313 0 0
198.645199040335 -40.1342550324583 -1.76946644732973 0 0
-63.5051194889189 -7.97632200286331 6.59314737141572 0 0
158.099991626875 6.52176950501787 9.12245668948165 0 0
21.2475681409776 4.20452439987813 19.6379489602686 0 0
141.426166172924 21.3591476123374 -13.6545557647017 0 0
-24.716001480912 14.5316025934115 5.79138192300543 0 0
156.044702776276 19.7658555282576 5.74954042725895 0 0
212.49125872852 -31.1374195305644 7.64818506979616 0 0
177.059930114649 -18.4621640052194 12.5963818179087 0 0
93.3571974256865 -0.993431058417125 -6.24803951633697 0 0
-82.2031588320939 6.43967361979918 19.1991908820277 1 0
-50.741400385433 5.85044118470278 -4.21427903326736 0 0
178.39973516132 -35.8051819303906 -3.70998861502188 0 0
142.905427779339 -2.00258011426064 -19.9876619002535 0 0
184.056197767601 11.4271368277015 -24.295195247487 0 0
66.3242347988381 3.11175557220286 -7.0853803382391 0 0
-70.4477265130584 -1.73027195983015 19.2201489457786 0 0
52.2089934195994 14.0315524711117 -2.26386237330026 0 0
106.085549242057 13.9023869843695 10.3703181536081 0 0
-79.8492732649344 -9.32816828999124 14.2413706540474 1 0
16.6437176616064 16.7138748097934 9.82875752454455 0 0
168.012698845148 28.6652937349044 3.15837282285503 0 0
49.7296622814415 7.38155643684231 18.0830810203514 0 0
156.312964641024 -9.42538952452753 -1.19482554211181 0 0
-23.4011864231114 12.1774149695554 17.8764693316246 0 0
90.7964323514804 19.4473965807984 -1.73843466691223 0 0
62.2119927836055 -3.40558812442323 9.25247516459039 0 0
-49.4190912944767 -3.6031322549326 0.562408525333439 0 0
199.022040432994 14.8721710349258 -8.85775194210616 0 0
41.0280209804048 6.79064099021392 -6.88415895776217 0 0
188.121152481007 -2.57408102525515 12.4185225475989 0 0
181.996340950982 -11.2051212418925 -11.643164895764 0 0
-24.1164257168893 -1.51783986511139 -1.82312025297302 0 0
186.291194797078 -33.3742793010741 -14.7110110413561 0 0
94.7211196073889 13.6086903658161 11.739207161512 0 0
183.306755763824 -35.465150198981 15.5675407570943 0 0
161.035440871026 29.2833814213601 -8.68257130361592 0 0
20.1813666012296 3.34032173925949 -5.98984246051161 0 0
98.3844976752494 7.32533887543604 12.3826805506832 0 0
154.141094068019 15.2690333644361 -23.4920660385215 0 0
186.11777750193 -0.675455667315294 -7.28127196861409 0 0
59.680851172837 -4.13115412687654 5.63471568132273 0 0
211.087296224341 -12.1065223590794 -1.47257759719341 0 0
155.342319130472 -4.39032229786642 -17.7339439790431 0 0
115.548066158896 17.1546011497396 -11.9484553090065 0 0
29.4649053624304 -4.2885830195745 5.75386390273978 0 0
70.1227142178464 8.08414256559089 -8.88581428789152 0 0
118.463930055294 10.48718606793 -14.3843650604658 0 0
206.514123027311 -37.8580051029313 8.60818782949635 0 0
-77.2637522300791 10.6214121808876 16.9233794210396 0 0
2.47101229414669 -1.08489256177435 19.1116332582096 0 0
-5.55443397905808 12.5555948888985 18.2215956752008 0 0
211.098988246345 -34.5856026007642 2.68891331234754 0 0
45.4361891129845 17.0848452594938 3.34009526704508 0 0
177.558294242244 21.1755062220768 -23.4338782793985 0 0
76.4819769479581 1.3474809466362 -6.66917074067313 0 0
-60.6445021474104 9.05041479370914 18.8553134485308 0 0
168.974749971899 27.0735908405392 4.71775453275824 0 0
186.619263567694 -28.4078020866491 21.3847480470476 0 0
53.7220465767626 -3.77648963527041 9.07792505978832 0 0
157.77400776781 4.19484870978858 -23.3538330173134 0 0
19.7182042894735 15.8800477405376 14.2969154169258 0 0
90.6944217782936 18.9399108407909 -3.70814818866099 0 0
127.330825721952 19.6749828038629 4.926909702847 0 0
118.195718819775 21.3793695815935 0.845056150278067 0 0
-30.528771225462 7.65846703453584 -2.94854773572034 0 0
21.8435245725429 -4.55395924427633 12.7001279633172 0 0
-9.07515268937532 -5.9608928511178 13.0927985333232 0 0
113.70676832088 -2.98544284666697 -7.02675078874695 0 0
-24.8971973534499 4.88504888034445 20.4435799065203 0 0
193.860328054924 -7.346129993144 -4.66009918617638 0 0
-75.7799610940616 13.8802467023166 1.60292648036022 0 0
178.051315985164 23.0506366110343 -22.0191025117304 0 0
103.790141005087 20.6771489391891 0.609320848650692 0 0
195.207459474586 7.84267429176514 -20.0742080433647 0 0
181.773633344466 18.2480592410307 -24.521206746553 0 0
175.731515452105 -29.0932715265479 7.07932811511195 0 0
88.4828857070175 6.43674913605216 -10.1817231869689 0 0
-71.8966945092175 -9.42357503560002 8.48590483285697 0 0
142.653831037273 22.5123600082358 -12.0724600615095 0 0
175.646971447476 -21.7614393144003 -4.12525506365935 0 0
192.831312394705 19.0634772045484 -21.6154451504469 0 0
170.206821211679 -17.7766636318576 -2.08512674761943 0 0
-5.20817640065616 -1.61224495234394 -0.531837020419039 0 0
-2.30804219389352 -3.02373745064673 18.1106413368315 0 0
-78.1134968494902 13.6434507393435 11.743868326774 0 0
168.522435299198 14.3287319095329 10.4289966109509 0 0
-16.8700138472744 15.1748126427397 7.98416672718438 0 0
-13.7777783779055 12.1768902935919 0.963087843333698 0 0
31.1652260024646 11.0607385257723 18.4512038820346 0 0
-33.4242813162586 -3.02929606141919 1.13874079361383 0 0
39.1850419529739 -4.2505204307758 5.74340809471728 0 0
194.853806903361 -29.834151867148 -17.5123839838003 0 0
200.03834118561 -9.5243232252571 -8.83353050222163 0 0
90.7836672940699 -2.75145455781162 6.50612463828221 0 0
103.771816706109 -3.42092414985038 -3.34181012861274 0 0
192.730191243894 -5.31255024724659 -3.61287499201735 0 0
100.958848115461 5.96790971804477 -11.3523628187515 0 0
179.30540947389 24.6465905394183 -20.7977373100744 0 0
81.9336589379631 11.7653236779216 13.937183961453 0 0
140.743041819933 -9.83234819189957 -15.7996066962907 0 0
17.3033983496156 -0.62957877597098 -1.87920629320169 0 0
171.840895606656 -8.7366904271041 8.34793095661811 0 0
146.237624781833 14.115372400998 6.50293768620789 0 0
106.143114350784 20.4772896328314 3.27908341878446 0 0
175.001385725558 23.2883992662879 8.15236237098012 0 0
200.985889569945 10.6154988515848 -20.727534075432 0 0
82.0550111639803 4.22060241218046 14.2515537387108 0 0
200.392921878311 -30.2272946764733 -16.0372460967096 0 0
-54.3383685323814 -8.35045353312038 9.9713203534315 0 0
-82.6465221228122 10.8432216887405 16.4903557741919 1 0
-52.1409542853634 1.2184151963508 -4.51204165561445 0 0
3.32358373093732 5.76213596369034 -5.20019398158767 0 0
209.667678386688 -12.2756285894871 -5.66871648265161 0 0
193.056956209819 -40.0000071864958 14.759891823506 0 0
195.423579741904 10.558359450209 -11.3417897893851 0 0
30.7679217161955 1.14847374417385 -4.60123157183394 0 0
103.101577240533 17.2070693479323 -10.0263850072466 0 0
-36.4156991599522 -6.89572791550059 15.1398080833193 0 0
-3.37817832674826 5.47549310612238 -4.9303289386266 0 0
200.405481642664 -24.7328356651644 -17.324679675358 0 0
145.175340067616 23.33844798483 1.6130005443727 0 0
196.455195512154 12.0450360327683 -10.4251461051381 0 0
201.97455458909 -15.6926682551633 -15.3481567539367 0 0
58.6086415771876 0.954312541288755 15.5718915737808 0 0
159.466988678455 4.43183140365512 -23.7825666074487 0 0
121.029133037426 18.128651035856 6.6283963100041 0 0
74.5021452459902 2.09300819429438 -7.01793559603596 0 0
190.825983207415 18.6268637028187 -22.8923115748385 0 0
176.063115721732 11.3931727670297 12.9668564873745 0 0
-49.6688146913204 -4.79494840150161 17.8873533344084 0 0
57.7767268557196 17.9045332669268 2.78220150025206 0 0
189.405760215014 -14.4895491225251 -15.8930193847358 0 0
185.447871886748 24.161343319432 -20.5625083243562 0 0
117.049493619868 21.2623482711085 -6.10574497644547 0 0
126.667807406343 7.9003784449487 8.24349285953676 0 0
162.893343326767 1.74760136387655 7.98540571297576 0 0
-54.4347964018688 13.7930435372488 3.25501964509339 0 0
177.670617509612 -34.8003134949677 8.7453186270015 0 0
209.568894683623 -36.1540199807319 4.39055662033536 0 0
5.25460272306761 11.4122057860258 -0.361363732248466 0 0
52.7186160303122 16.9747921563734 1.79771820231608 0 0
160.932822384331 0.187751415582667 -18.1323112216883 0 0
192.948696419173 17.1958908282793 4.19145403798336 0 0
140.374082050788 18.1392996073102 5.88912827153766 0 0
189.39200592491 -40.9908006990489 -8.2520842272684 0 0
191.773129055993 23.2348429910175 -18.5106685910193 0 0
86.625262016856 18.7408130723086 -2.913185056932 0 0
167.493040327713 -2.85809509437703 8.16211673968931 0 0
36.1664292820716 -1.19211198669493 16.6672991249511 0 0
97.9766404760132 19.2872638350913 -5.66788965698503 0 0
208.682734810572 -12.2727749005641 11.7490547146908 0 0
98.1858215189976 15.8047350720389 10.0838819855168 0 0
157.261044370992 4.44089778941513 9.63247470276741 0 0
-1.46359906427575 6.16181668106536 -4.63995477365677 0 0
54.3929279703824 -1.7314296970328 13.5790642310512 0 0
46.1933659681765 0.0308185961262892 16.4431467707371 0 0
200.843963257416 -39.7961116676565 12.1908020143645 0 0
95.8818684029638 19.8506963077511 -2.34784048615271 0 0
-7.91751490759639 -4.04717762835397 17.4437960874228 0 0
85.9242553608086 -3.07424396685947 6.75692288993871 0 0
186.622625249517 -22.8173286010807 21.770218874877 0 0
62.2073093312559 9.1301340148288 -7.99167714207451 0 0
-62.9000247600056 -2.55267143126473 -2.63806504427998 0 0
71.6386386417406 8.33732981491775 15.8962148172889 0 0
155.876668169173 -6.39922138684769 4.18316936890289 0 0
108.395456892498 13.5675079108346 -12.3034745501359 0 0
186.829132475031 -5.65184624411153 -9.28874735083954 0 0
191.975347503999 -21.3263010396764 23.2079089070678 0 0
166.129714159359 3.12099961602664 -19.3916509197021 0 0
205.677371638757 -38.8020920095203 5.62538448517281 0 0
4.69621765392675 7.04247336046591 -4.50707866450898 0 0
200.9116342959 -34.835893552328 18.2908135771313 0 0
198.967820645104 22.9906871646376 -12.0263003820881 0 0
17.6811423403717 15.2476433723675 15.4618369715521 0 0
58.985626942161 6.37038863748862 17.3166578312969 0 0
-0.15674199862475 15.2347508179811 14.9229324521547 0 0
33.8921037658503 1.65423243619382 18.5325070466741 0 0
-6.85279321247357 13.654203670744 3.08850139686738 0 0
137.912414477067 -4.16055458238489 3.88335889191441 0 0
26.2560067929407 14.0818738531125 1.36133862204734 0 0
-33.9767773287991 -5.04195862518698 17.3465743494105 0 0
-16.3927877388994 -3.79100595619922 3.9112304301345 0 0
168.544657303144 -16.5784709850163 -2.37944647984011 0 0
148.529052748402 24.8279863615175 -9.55886006919184 0 0
69.0881323437012 2.23971700994041 -6.6898063580913 0 0
188.560013078349 -24.157336437073 22.6421847726944 0 0
176.251805903471 -22.9374268322688 -4.6889191983321 0 0
164.658020941855 27.2042861382314 -16.4945117286559 0 0
173.32746467476 31.6464794017303 -1.81490213830322 0 0
159.403939547647 -7.55898577990476 -11.0964436607952 0 0
107.627060602114 16.2123813476647 -11.1528708906438 0 0
184.925897315501 -5.81138400902218 -10.0793030245879 0 0
180.091983691575 22.1147808583049 8.28369310007443 0 0
186.221499334425 10.3697588408432 -5.1459125826621 0 0
-20.4263491948405 3.98632594093623 20.4532383767127 0 0
17.1980393117444 -3.91494734565769 4.44735219792268 0 0
-38.7125956994909 8.13084263477526 19.8180042037993 0 0
44.4117013063521 12.4829528869344 17.1350120712015 0 0
190.654045795845 8.5534378986458 -0.268462125803857 0 0
5.82561707111358 -5.10930264761399 13.8034827014703 0 0
60.2463255154744 10.0116120493666 -7.22861316135857 0 0
147.502525704374 21.9170254960748 -15.3863015337284 0 0
124.118420854074 11.2973232396776 8.64050442367543 0 0
197.687077485628 -39.6689134752338 2.38889980438583 0 0
-59.7797360208324 -7.33238589504849 5.85249659293757 0 0
-50.1624892622438 -8.20584561480651 12.8547152994946 0 0
155.606549320278 0.707634459010823 8.61721213264358 0 0
179.305222981782 29.7428690478582 0.412355022117777 0 0
-46.5175136086723 5.09677987534376 -4.35076995605067 0 0
202.562745748173 14.4124036562603 -14.1267110490238 0 0
23.7466755116714 17.075842110105 8.98928399396281 0 0
129.768947184526 19.8469338352223 4.77143259237485 0 0
213.552187986798 -30.1215428901885 3.11097786371548 0 0
-37.8028635120318 11.5139692161987 17.8442757903926 0 0
17.3415283565631 13.2944989449203 17.7184642498962 0 0
45.9589301909585 10.8704011694999 -4.64295276715089 0 0
-19.2073095921508 6.61837470655043 20.3388187687934 0 0
62.3898079728902 0.16330039347763 -4.42740418022595 0 0
11.0221528199936 -1.77704415119259 0.16766223920149 0 0
21.0177706703011 6.55889948386739 -5.98229216094 0 0
137.013593953009 -3.76785176592031 5.17676442842843 0 0
168.725665159709 3.38800857405699 9.95305931238181 0 0
176.656157751369 -31.8715543277877 10.1049827616653 0 0
180.519009032483 10.3483973704705 -10.5396459145726 0 0
-79.5316352740856 13.9905525906712 10.5129034671546 1 0
-46.216007605574 -2.4243361891478 -1.5617634399437 0 0
209.591194532495 -14.6043265256721 -8.21658849829949 0 0
122.055822248683 20.0355726501518 -10.6620031942294 0 0
28.4825901724618 -4.62267253455943 8.45556773692037 0 0
186.323181610579 8.74154119004521 9.95459056082852 0 0
185.843661901533 -7.59698432741217 -10.3634917083592 0 0
182.842598111568 10.0847575121423 -18.8689103384188 0 0
74.633367805618 -4.05512465140023 2.79623839211064 0 0
175.410606042336 -24.5127885013452 2.62960004713149 0 0
114.833345731084 20.2490966971078 3.95805283598966 0 0
62.6133918125211 4.19932136913594 -7.22188596854946 0 0
212.691589251207 -18.9907200862331 -5.78419683782868 0 0
180.064296959996 7.35001038285922 12.2557049869156 0 0
119.832632713667 -3.28284205846565 1.79915904039824 0 0
118.742515074708 5.73212399031897 -14.0665761666 0 0
-52.3385649074297 1.34157591989714 20.1842733159795 0 0
135.445171286995 9.46740794031289 7.28279346003296 0 0
-74.6755978182625 -1.72611414300375 19.1601232231631 0 0
51.5200905639251 -3.82741128778831 9.10562739761989 0 0
57.4803667710319 14.4324378342702 -2.80699822356996 0 0
-2.07734271390472 8.72346353818316 19.9702362541483 0 0
-44.9589673890503 -4.31630405693766 18.1103974470859 0 0
170.694649591057 3.96053959182155 -21.2034028959146 0 0
-75.5256722165228 -2.86153832913679 -2.8650711136987 0 0
-58.1106273986021 8.0385018538366 -3.64953983513231 0 0
143.650278182963 18.8398553854081 -17.7739980653054 0 0
109.616201359263 10.5857643270619 -13.199394343478 0 0
9.82524674019584 2.07635916535947 19.793217451594 0 0
194.884995475985 -41.1798681205351 1.98856436211408 0 0
175.788030507622 20.4279962045826 -24.1170820657781 0 0
214.094121563841 -22.6782282297294 7.62593245558807 0 0
124.621457235677 1.61847570885226 7.27133720364075 0 0
182.28413911252 -16.9952868079559 -13.7642588372105 0 0
57.9668646622495 15.7241067629007 -1.03269195430686 0 0
188.966016585304 -16.7297670029329 -17.2124324483347 0 0
182.485317042743 -11.1817316723121 14.7597021021325 0 0
175.242193984183 -13.109364230009 -9.6530014059728 0 0
171.983377075586 -15.6290811391154 -6.28085333730159 0 0
202.235237566551 12.1157523867119 -14.7954170422456 0 0
158.387585405419 18.5734827882955 6.28220653842213 0 0
84.5671229763961 19.1461742959936 -0.748338668814318 0 0
16.3217348666255 14.3151536104421 2.63089139909576 0 0
179.335848156819 31.0477039816541 -0.851506530263127 0 0
28.2265638801007 -3.51560157879406 3.30320909707386 0 0
-25.0890568774214 1.55313588857762 20.2098868102867 0 0
186.861134603726 30.3425904290702 -3.38583598091886 0 0
167.59327067838 27.4020139120917 -17.348013687699 0 0
132.818138007856 23.1591553727058 -4.42893852847483 0 0
124.58561630149 19.919311260416 -11.2627174217393 0 0
-41.0731462112861 8.18481930806661 19.7573044512304 0 0
212.398917135515 -32.0013585350375 5.9752830738976 0 0
32.0276741259236 -4.03715992011102 4.72198183064076 0 0
-35.4909719543831 10.8728792434871 -0.937376736533604 0 0
169.814324380049 20.1029916856682 7.70842000861513 0 0
-56.5740695727476 14.1880398269422 5.17197602077548 0 0
90.219732605475 6.4754702278375 -10.4450372287894 0 0
-10.4205089869861 4.35602321990425 20.4005851706029 0 0
105.140546845131 12.2070008171972 10.9592692303869 0 0
153.643209995178 24.3407363790008 -14.2731490635188 0 0
-68.1520636736817 -2.02521553451763 19.1837512902253 0 0
193.900394541489 -9.46470693343009 17.4028237681694 0 0
-1.25193975443375 -1.1719028950782 -1.52718472367978 0 0
-56.6039563798751 14.0986951441223 10.9639262779856 0 0
194.863034724565 -41.7058393520131 -7.52129323469494 0 0
83.0100209304752 15.1163662307882 -7.7497616395218 0 0
189.027289832123 5.5268831926287 7.69434891180039 0 0
-74.0450494807323 2.72123108576257 -5.03186227408097 0 0
175.297710414158 -25.9163162621028 5.56588301311771 0 0
142.558785337725 -4.22613680740854 5.25784323279838 0 0
25.0060385879927 2.89399791087305 -5.76343867360654 0 0
186.482809222152 -42.5234008455105 -0.151511291970578 0 0
177.809988585643 -31.204583741666 13.07490884289 0 0
127.58398351527 22.0791810288761 0.344967629259292 0 0
4.19979921591289 0.902599244960087 -4.62023712815597 0 0
-51.4185352035198 -3.78565216853227 0.661936468917434 0 0
-36.185875112095 14.5342554425824 11.4217261213411 0 0
203.070765213184 -39.9853274400368 7.22994605578844 0 0
139.83871245513 21.07922289689 3.83398824196986 0 0
-13.056906616705 -5.21150931319477 6.96970799134072 0 0
-27.7285699026226 -1.78173587116395 -1.4923088897921 0 0
78.0298458595915 5.89722450600891 15.1899193196986 0 0
210.019386933782 -27.4337115373758 -9.93127473104621 0 0
32.0485382796558 13.7193669512752 0.266541352007556 0 0
189.774706491604 -12.3583648103668 -14.2489910276141 0 0
196.373025849509 -6.92399675446732 -0.207613228469428 0 0
181.831414447706 -37.2826723635314 11.7146616895777 0 0
175.448290023634 33.1641093401785 -5.26649144098946 0 0
191.291801390087 16.2309954677072 -23.6946973927147 0 0
86.684621764951 17.4340660751376 9.59222125818961 0 0
-43.0407500490966 11.1339783841761 -0.944109798732773 0 0
-50.3800736518245 -0.882867387943379 19.6679022084223 0 0
184.786479289723 2.62794659506122 11.4604841514111 0 0
108.544313451585 20.6756236476479 2.54779983960754 0 0
-29.7101948678668 -2.46705617442715 0.128325964937247 0 0
44.6864644292844 -4.21576879302047 5.51002959368531 0 0
162.237468485369 -10.497075254358 3.74679101938578 0 0
-53.1291602803895 9.43890816106305 -2.71371967093336 0 0
128.454169085561 4.79015162525079 7.70828632655086 0 0
194.508903293426 -21.956889032456 23.3721690172757 0 0
208.200246086065 -8.47769453068714 -1.34911024321996 0 0
180.132955805433 -37.4198793622951 -4.78738070233039 0 0
41.8620237756345 3.5475693155658 -6.27086114778966 0 0
212.154730686284 -18.3458861663307 11.1833740148643 0 0
-73.6555830519598 8.78897229794383 18.5784029766677 0 0
184.793064799825 4.37820137172183 -6.03482379329941 0 0
196.992687009939 11.6758682427309 -23.4160409662692 0 0
93.6314995594683 5.66863037003719 -10.3990220626027 0 0
181.578829892999 -38.1724295986595 9.73359096766764 0 0
-20.4800262324498 4.39880313041848 -4.73784347608477 0 0
88.9595313187779 -0.153589194412964 -6.69363939005606 0 0
180.956461417048 8.36747026900176 -20.0634051639709 0 0
198.795990214925 -40.4690564876387 -8.56082320161561 0 0
95.3017653528594 20.0782884478614 0.0694109554449768 0 0
120.585852576924 7.28471935411316 9.12500167924459 0 0
208.488178881756 -9.12810671765735 6.86608784556273 0 0
193.727660793694 -0.104133838442659 5.81859279154958 0 0
12.6598051248894 8.0347636494589 19.84551986322 0 0
175.958347344819 -11.9471393522795 9.59149547771402 0 0
168.586198251503 16.1969324704393 -25.8925260457472 0 0
183.047054647118 -41.0092164093966 4.2456853767882 0 0
-29.4862456971515 -7.00207366980334 11.0893967238013 0 0
-23.0428682904855 0.324041527898677 19.9215962826807 0 0
16.5543695823917 6.46290116147939 -5.79516929938165 0 0
200.738325685632 -5.20711536228963 6.14208913784469 0 0
150.949443362921 -11.0967237317774 -15.0892454215519 0 0
155.73333804215 23.6120950783087 3.63492130101413 0 0
-32.7275907600567 -3.64868436854108 2.44411710518041 0 0
195.49185378552 -22.7700129988486 -18.3328593961984 0 0
139.529121659519 21.7265469252849 -12.3363341652818 0 0
170.87357343252 -17.7034909423223 3.70754296333377 0 0
-33.0573035234671 0.697710538894449 -4.64220128193441 0 0
-59.5484881445548 -2.92537947050395 -2.03147136185899 0 0
202.15335868717 -7.34226432532423 -2.26916931811711 0 0
177.461348293623 -31.2671514508938 -6.64673007290051 0 0
-3.72441404688648 15.3778568198179 6.84888225225249 0 0
167.051413933292 10.8323960304499 10.460532966906 0 0
-54.6099868902147 -5.15863622605992 2.44168697800402 0 0
11.9561347463142 -4.83326272297967 7.22859609495997 0 0
-62.7422802851323 -8.45950806653356 8.03169845685467 0 0
155.74134311861 26.4170825794074 0.241446557653857 0 0
6.77687760754157 13.2992355450106 17.7730629133821 0 0
80.5449156464041 14.5820561774577 -7.60433616124461 0 0
-45.4559935908965 13.7158554123058 3.47482976899033 0 0
63.9960162128718 14.0276900802297 -4.70095447018674 0 0
182.425040194383 -22.1540885997413 -14.9338971516245 0 0
183.774697014557 21.3883898027127 6.85302266253605 0 0
167.942620929777 15.9443830367311 9.16884782543499 0 0
0.64333074322391 -3.4103629843413 3.37135397756331 0 0
136.214996632391 -5.80288396689571 -8.42623990045904 0 0
99.4403798761101 16.4961887191109 9.43786709133014 0 0
9.68211377432817 16.0234447638108 6.98407000428702 0 0
170.713627980782 29.2166574159187 2.21605529340732 0 0
117.934328963607 21.625499228457 -3.81080489671266 0 0
101.404246769409 3.7928093648483 11.1680688581185 0 0
24.1213271391697 -3.62826232727878 3.65001027748232 0 0
22.9564514317501 7.90780488679661 19.4722803332335 0 0
203.021655932679 -8.1954684852427 -4.77119511935091 0 0
136.033483773363 -6.36310473209153 -10.1554073113842 0 0
178.882262521464 -36.5964149058219 6.58173683305298 0 0
118.983844597534 -2.72624812239808 -8.11216669435348 0 0
159.107242771324 5.93370676034398 -24.7786764960742 0 0
182.159264261346 8.31020250020666 -5.90081594530508 0 0
130.297629603174 -4.18679702610438 -10.7519720239815 0 0
-43.8714876809477 14.3185792191792 11.4654446797473 0 0
-8.61979496062803 -1.2459521953265 19.2763593607038 0 0
207.021416714016 -37.8202521315151 6.62318882691581 0 0
163.659459768432 4.67998352139304 -24.7628456026031 0 0
110.923402030451 21.0350229934859 0.798829071191926 0 0
-67.730947665276 -0.927634778048235 -3.82433173232006 0 0
-29.582237020737 -1.54903219240283 -2.32933883120194 0 0
-40.6995782283628 -1.04738622753756 -3.65745045836445 0 0
142.351158418734 21.4594552686555 3.62476883460938 0 0
-72.1895810824622 -1.89761648644728 -3.47925394374694 0 0
190.715847991848 16.8480739728142 6.5241443485265 0 0
125.335700473591 9.69083084319422 8.55316223334201 0 0
3.66435800476076 -5.54232890397577 11.2351193198595 0 0
160.899577363241 5.49330589026551 -24.9266681029376 0 0
162.636546140098 -12.1174161497635 2.59128647708179 0 0
118.47227936 10.5506098578017 9.43703395159411 0 0
173.059026971798 4.79274514652189 -16.2312302760866 0 0
-37.994258644065 0.222519524458794 -4.44623494062616 0 0
20.6550282419958 7.92278864318909 -4.8824149122749 0 0
80.3318813251777 9.31760210697309 -9.81313068558533 0 0
177.389962661325 -26.8021637211148 -6.87369965203513 0 0
79.8840168033035 18.1489302750335 -2.29839263769162 0 0
-83.3339134592584 7.7024623450981 -5.06047965854969 1 0
164.377412655526 20.9768360832559 -22.7601085782487 0 0
-43.0462075217653 3.51814601416112 20.3989262494276 0 0
204.486416651701 -18.5771138837597 -14.9100440096559 0 0
-33.9927559112559 -3.22374525375952 18.6409231512977 0 0
144.734757620103 20.9294444238044 4.26820911156687 0 0
-56.6741707256367 -8.0723239168577 8.35096973211301 0 0
44.9907090688803 -2.57061944132853 13.6355537276019 0 0
166.791340425514 -5.53797825531011 -11.4802528513959 0 0
174.676551061041 32.224256861727 -11.4711469262758 0 0
152.545607484401 22.5870952829101 3.86540843940551 0 0
39.1986484963501 11.7116647204069 17.7849807983459 0 0
55.2188607700529 11.2601005665282 -5.49465123579507 0 0
115.758443062736 2.53452482953301 -12.6122307776631 0 0
165.428081324494 -4.20995550080552 -12.5177505514388 0 0
186.581650079893 -25.1773943091022 21.8302310308821 0 0
40.7327035765649 -1.70296214711087 15.4667541063896 0 0
-23.4980933278021 -3.91586296679409 3.55622127900721 0 0
199.013886964404 18.882083841086 -17.764902980333 0 0
186.374393359558 11.9294914733424 10.4350201291962 0 0
190.176157553952 -24.7363064849447 -18.1560763153574 0 0
176.871730846758 -30.486213271606 11.8394689588619 0 0
-9.41321503805069 -2.55508757306283 1.45102413132446 0 0
190.927652975111 24.4524615261418 4.30005231173895 0 0
-43.317302436884 -3.0511577584273 0.394238773063676 0 0
197.67043470301 -20.0966013893571 -17.8641915122565 0 0
26.0947337196012 -1.53465979898412 -0.437310638080005 0 0
80.6587972900745 6.56255182331817 14.8853639982266 0 0
19.00074320766 0.13209097169384 18.8412637303104 0 0
191.947722335425 13.1540958217802 -24.1258780605191 0 0
72.2574230289763 -1.87421193061949 -2.63588946527698 0 0
152.809395117486 21.3245331115592 -18.4623626549124 0 0
197.952338382512 -41.1311570523356 -4.05580074010913 0 0
-37.2245608259985 -7.00057396008977 9.16951032054206 0 0
207.79747374535 -8.88796378827678 -3.63270285259971 0 0
175.835468935992 -7.74120437704282 10.2330014308248 0 0
122.24456195554 15.9666032531084 -14.004406317579 0 0
-75.422988113407 8.84039473146134 18.4810111649653 0 0
-72.6079963007046 4.3458410598392 19.8037611227308 0 0
200.958868528073 -37.187561983779 16.2450382655623 0 0
77.1406921507956 0.995820100452161 13.2151463931816 0 0
-32.7687959243325 7.66668861273496 -2.95941279564452 0 0
109.113814239531 19.9335682703528 4.6810135257805 0 0
185.490806608188 30.8092038668901 -1.3207191574495 0 0
91.0039694288623 2.57149649877589 -9.28247405425654 0 0
214.036924631455 -19.262472203415 6.20582954879821 0 0
110.91915351216 -2.36009267564648 4.35699680209244 0 0
