"x" "y" "z" "f" "a"
-252.10351794829 3.47894886940462 -5.65857012194029 0 0
-91.7343207443894 5.35795498798243 -11.491619734372 0 0
-142.647013368913 -15.6167032027376 -11.0004965163538 0 0
-236.967021341061 -22.9758266043321 16.2079048566032 0 0
-6.66516194123601 -3.22570607807226 6.8440148027859 0 0
-193.220510674242 -47.4271734947376 8.71915380795431 0 0
-119.269535969577 4.42915771467672 1.76855508541784 0 0
34.7461080759012 -13.7181424455326 -11.0709115675185 0 0
49.9457210935512 -4.92968066045067 5.17565476388313 0 0
80.5317402636041 -14.349487844287 -4.26433102324702 0 0
-232.737949647516 -7.68236459598113 -6.52208365695778 0 0
-236.812198677309 -23.7328309334688 14.5106047682534 0 0
-181.990412629979 -17.097028751865 -8.99546759165331 0 0
-192.846409941425 -42.258123742192 18.23425579391 0 0
-63.1491744073571 6.2931594511689 -6.64137711037033 0 0
-80.5311253932473 6.13722546157439 -7.37079304339611 0 0
-256.971606523234 25.0674397785939 6.60292808330585 0 0
-107.510429334721 -17.1292160588534 11.1997006569525 0 0
-228.007222474777 3.56859172866654 12.3695310194658 0 0
-225.364070129447 -17.2580981492505 31.3706531701741 0 0
-237.951686020383 28.7188093581419 -29.3840938671257 0 0
8.30768827369992 -13.2763108061579 -8.5242313593407 0 0
-0.350551901350105 4.92374996745115 -23.4489329560823 0 0
-48.1247967868792 -1.00857860443887 6.02019147957662 0 0
22.3042681496634 -10.3941448860079 -2.22492051353548 0 0
-232.667757198173 45.5504302917299 -9.73222100132863 0 0
-255.850778613266 35.2559090985368 -6.33377576192389 0 0
-226.486325562947 -21.1519232283318 -8.89312601508921 0 0
-222.148133890778 -16.1294487499156 22.8104812398978 0 0
-148.870173223672 -26.0159722544189 8.42951257012977 0 0
-201.478854636883 -7.68911050064197 26.2188939178912 0 0
-95.9132921531613 3.71079958850192 -14.9735533355051 0 0
-224.807526882011 47.0990402826324 -7.0277856041224 0 0
-218.701216811842 -31.5151730996913 -8.70736715252876 0 0
-226.89949199724 -40.6298709486774 2.50600834240704 0 0
-224.571570992155 -38.836603461895 19.3814807721036 0 0
-221.346758954076 42.3198760063667 -16.5308055282217 0 0
-237.24316409548 38.072084214643 -24.674926038956 0 0
50.5492002062798 -14.096553518376 -10.9425627668064 0 0
-201.070587179523 -45.0130744103855 16.8566404382463 0 0
-248.364077104699 39.2678550665659 8.65320934971929 0 0
-218.972783292645 -39.5590447324893 -1.05571289859935 0 0
-239.164610873771 42.6331275618187 -7.74183938776414 0 0
-36.8992153102284 2.19680039080747 -23.2852523355103 0 0
-162.544171080507 -22.9234993536374 -5.8123925349479 0 0
-213.126490562008 15.6373904591602 -17.3448094934873 0 0
-224.066559243255 -13.9178222146049 26.4448632720368 0 0
-40.9874372496091 -15.8723064622837 -13.3866396379807 0 0
-154.30683239922 -22.0005116013774 18.3652926755549 0 0
50.0341665389031 4.07050089230273 -0.00345682961645791 0 0
-74.3051621605883 -17.6871070312916 -7.57363434404226 0 0
3.38574414056068 -13.9520075203963 -12.8637959491434 0 0
44.2186469654517 3.15077520683596 0.595802378775768 0 0
-15.5148679785503 10.5436089767857 -15.6474717182242 0 0
-198.571302274302 -45.9454518491552 14.3746187840395 0 0
-242.064011821441 7.25314512191998 14.2570406660328 0 0
-232.637190910697 43.0360083038371 -5.69688222911616 0 0
65.0224138373388 -2.97867238882388 -25.0770186868822 0 0
-36.9898971737209 -7.71173590279514 5.6604033063695 0 0
-241.469387653129 16.3587701441746 20.3103768035567 0 0
-184.120130286934 1.77692388168957 22.3654290764081 0 0
-253.054506214718 19.0380795842237 -21.1998336046904 0 0
-216.716922476107 17.4304886613286 14.5958951728217 0 0
71.8874988405978 -13.4576704502973 -15.8836762174838 0 0
0.049819233479874 -11.3025005529184 -3.73307141764482 0 0
1.84344253028482 2.12358658036387 3.60113423633475 0 0
33.157120686093 5.8394239555196 -2.17900616267857 0 0
-215.777381474328 -2.05988958110766 -15.8550441773762 0 0
-135.057640267529 -23.5035564182229 0.275308519927646 0 0
-212.618008410057 34.6611975629023 -2.86878115954461 0 0
91.0769773706788 -14.0159639856648 -1.60817142328646 0 0
-243.601617544989 19.5450249052627 -28.3442747100866 0 0
-141.003693185787 -21.3628267751073 -5.23621293846357 0 0
-198.077134786347 -24.9766674495162 -8.07077524545547 0 0
-231.627581705469 -12.9584817446824 -0.360045751699275 0 0
-105.090380003619 -19.8873463598141 -4.84848595864229 0 0
2.12084639808906 5.78070008203348 -3.20164398272462 0 0
-230.114818886467 16.7948909604282 21.2206875093476 0 0
-51.3472866742418 -10.5014761137888 -20.7749986236876 0 0
-119.992487617543 3.60256647224335 4.43333653869098 0 0
-199.375236662932 -5.36980449121255 -13.3857826489984 0 0
-102.856460037063 2.8147226565783 -14.9107085374143 0 0
-92.9233519517841 4.29993553679868 -14.4815704054483 0 0
-8.09166366966622 7.80124620845758 -6.53583070946365 0 0
3.74089704935308 -0.505361860928278 5.37917439041299 0 0
-13.0550380119313 10.3407669533557 -11.4733914913264 0 0
76.9053762328554 -14.9060955666095 -6.35374514826207 0 0
22.4514154348349 -4.59956255500904 5.55617894427925 0 0
-167.252755275352 -19.0947291567167 20.8807447384096 0 0
-157.017198843468 -9.49792595858349 -12.0681901299301 0 0
89.3725350615708 13.871651600743 -17.2306073571778 0 0
79.4383360448795 14.594391446492 -16.0510417316668 0 0
-172.347484810741 -19.5680610625686 21.6455895116686 0 0
49.4373103227112 14.4409685495418 -12.5425614770639 0 0
-31.1919480491815 -11.7901453574784 -19.7952667009634 0 0
-167.510617540783 13.9886252424615 19.737292573742 0 0
93.9719061351947 0.317426734660386 -25.387767085581 0 0
-209.232846159485 -0.831037199889324 -14.3682114939555 0 0
-185.556223669551 -37.5588598482012 15.6952363407667 0 0
-229.895733662837 11.362483931268 18.6798747299405 0 0
-122.051029119969 -6.09929795057075 -16.5349423200014 0 0
-114.64266334201 3.46509052482574 3.83154125218392 0 0
-89.1014861813406 -19.2641184301204 3.94516601565455 0 0
-31.639425784018 -3.75197053127966 -24.1256719649504 0 0
-237.366910160781 35.6210348339605 -26.5243594389217 0 0
-231.667858754103 44.6153080952209 -5.27203399020274 0 0
-233.922274955781 43.366827876465 10.7265512123585 0 0
-241.70613988631 -1.04278646734253 -13.5474592641978 0 0
32.2978460742324 -10.1842330640046 -20.8176918030487 0 0
35.934703046153 8.84730536731439 -21.6906951051846 0 0
-105.893010743203 -19.7489724115233 9.18137760886695 0 0
-124.746175413511 -21.5546830467023 -2.68036728833988 0 0
-201.886434234589 8.28954457252861 11.7690862811399 0 0
19.5835792319299 4.60381279659153 -23.9227313262376 0 0
-186.398398069926 -38.1399065071989 1.39197084731696 0 0
-232.33839843297 -2.01761991892654 4.35936790735955 0 0
-212.395120652288 -13.9796858190212 19.1868689148832 0 0
30.4926308008621 12.4791497570098 -10.0544254429437 0 0
-185.861228791374 13.1122008437606 13.617549058328 0 0
31.2622051955349 -0.226942664556571 -25.2434508205516 0 0
-200.342871795139 -27.3575110393053 -8.00179600390926 0 0
-239.184382447138 4.54822359674772 -22.9064181334235 0 0
-192.589249381204 -11.3933879473503 -11.839149594915 0 0
-110.168297922468 4.78095019390777 -5.99523581260419 0 0
-242.625881429664 21.3382785967347 20.2308587130006 0 0
93.6934095786713 15.9497735037808 -14.3890246482479 0 0
35.8688684408789 -6.26716048909437 -23.7612433312005 0 0
-233.794706571853 -22.5159771349885 11.3296157149626 0 0
-219.16644575801 42.0747544534906 -14.3042557614039 0 0
-0.410067019237524 4.14797027165466 -0.657808425218005 0 0
-225.465991513677 -10.0035559018822 -13.1163533136707 0 0
-257.334776434371 28.8569066304563 -12.3559526257552 0 0
-163.358110677259 -23.5546304992655 19.6219524864037 0 0
-156.139001959349 -15.4813923975315 18.7786057950063 0 0
-240.353549273038 -2.22542262361668 -4.93369652593527 0 0
49.25034379629 -6.54420699239792 3.45139093536827 0 0
-146.97762908467 5.95030806201396 -1.39799169012971 0 0
52.5854513552981 8.79017435212739 -3.36221117816692 0 0
-218.205499435709 -32.3072381806014 30.475105309184 0 0
-138.169922325049 -23.024648577103 -1.80449944324875 0 0
-52.1395395308265 -12.2513057449755 2.20370802657602 0 0
-234.062115561167 25.8697338913751 21.7270303126427 0 0
-244.79378495152 3.18740230221964 7.5301883907804 0 0
-71.625731608529 -1.2460128420049 6.4052310495839 0 0
-231.744359834328 -19.6982786893304 7.85768434428874 0 0
-85.3441637234625 4.94066175137379 -2.71028868884832 0 0
-217.15768816252 33.4932460836743 12.992834531452 0 0
-229.561877777103 -18.573105392691 10.889711037885 0 0
-202.484250291351 12.6959447452935 -9.68008867580916 0 0
-62.2601007088197 -10.0085796223911 -20.7820619377104 0 0
-186.881871349525 -16.4370532921757 26.9747243824997 0 0
32.7006435329169 3.41100454335755 -24.5231524032194 0 0
-88.0288507722003 0.299300513003067 5.79241796152201 0 0
-53.119174818082 -11.9538742421707 -19.3387927219165 0 0
-196.585973191003 -44.3295780612709 -3.62194486798864 0 0
-212.775737575084 36.6878299563079 -9.07341006393896 0 0
-232.301503070944 -7.70823614694896 -4.37388010385875 0 0
25.1230465934688 -1.83808837964092 5.51150240632511 0 0
-146.434088305844 -22.3759473317464 -4.32182663640197 0 0
-188.062550379201 -9.49728758721389 -12.2077775917029 0 0
-129.818924459385 3.99532695895364 -6.48095064920926 0 0
-248.327972134899 19.4602100630066 -25.6009239248652 0 0
-220.077906501121 1.69176006830454 -17.6384824197202 0 0
-256.660309244411 10.4946857573003 -7.4901884866516 0 0
-199.659327262371 -8.19789145230044 -13.3659947225726 0 0
-24.8942615302328 -15.3592640833207 -11.318600040467 0 0
-243.228879620898 23.7289527359822 -28.5582674828437 0 0
82.528320679118 -11.1087321519317 0.612199359674828 0 0
-6.81120044871647 -14.0270646177926 -14.7434216141553 0 0
-254.774087506067 36.5260230585899 -8.13965527006921 0 0
-214.56086184321 -21.9968613545966 32.1897238227944 0 0
-218.758428015839 5.90259615444144 14.5524947217122 0 0
-153.999327733887 -14.0277789112834 18.2255748649126 0 0
69.9831702902223 -14.4249360158053 -13.4759794342785 0 0
-103.963853229815 -7.11870110675928 -18.5701701778588 0 0
-168.751410393722 13.5399779076161 5.73888847085726 0 0
-2.9235450280121 -13.7426844952127 -15.1928817136746 0 0
-117.477859001192 4.70687991083526 -2.76905055149695 0 0
-68.6479723410238 -0.200560223654068 5.46391659105039 0 0
-98.072466201301 -6.37928175803464 -19.3789572354698 0 0
-228.820531663899 29.115874187881 -29.415972163484 0 0
-231.920892351552 -22.5623687376085 30.308942685062 0 0
-33.4843558446475 9.40302171126312 -14.2980005989446 0 0
-240.004928324599 31.2801840648249 -28.0310554304738 0 0
-252.457476883401 17.2788140802117 -21.5128172563638 0 0
-190.868322046686 1.05582356610072 21.3216153884878 0 0
-48.5202958086521 -7.24273853197203 7.40070841081113 0 0
-248.454161091106 7.44445901334107 11.9092181964455 0 0
-87.8860278443507 -9.55503068229568 -19.3967575648548 0 0
-174.852976575364 9.51077457150487 0.178098045485597 0 0
-42.7530583703583 -13.2069233538528 -18.1739896681704 0 0
-235.943246799497 -28.5911892441961 9.55015244612023 0 0
-146.97438545342 6.98446684098586 3.4526180232447 0 0
-232.174627123459 -5.40427567494932 2.64428863021415 0 0
-40.7552735463953 1.92358452554838 2.93177474187423 0 0
-253.837870154498 18.0036959422656 -19.997363528637 0 0
-16.5654430216592 -13.3470658951351 -5.83234054380012 0 0
-233.283478006917 46.1520098632119 -14.0426875163675 0 0
-213.276468878444 -6.50458460100987 -13.9494954765414 0 0
-223.424486824891 -37.5014930803975 -1.79357427929758 0 0
94.8754891743974 -14.7653441460583 -15.123018566178 1 0
-234.242932398302 0.504019399273017 5.56993478274188 0 0
-191.371441892607 7.82748811878653 14.0800811758905 0 0
-210.53601860164 -11.2364583544349 19.3421692791435 0 0
-50.258350861252 -1.02387781193291 6.02895514849843 0 0
66.9875722563423 13.7532736899012 -6.71080763718576 0 0
-78.5734322602247 -0.315307124974555 -20.9925675279255 0 0
-219.724718626993 -9.86681967068445 11.4175243229608 0 0
-57.1632659971484 7.7748002520398 -11.4951855262903 0 0
-228.305434115716 -18.8209027022498 32.6742664390891 0 0
-183.718442753514 -8.09605681519027 -12.1753161527278 0 0
-241.222142936037 0.795788604787789 2.45410488441799 0 0
-198.764572566254 7.76696182691521 12.281202882325 0 0
-201.129960915558 7.89014770016373 -11.3599744273273 0 0
-122.826649463036 4.85192960979723 0.120078205615134 0 0
-120.374341252559 -20.8339396338023 -4.14200024369273 0 0
-190.486545584464 -1.12529748385737 -13.2244024678993 0 0
-252.261474783821 5.88795609917627 -13.2361159166694 0 0
-3.09938764473639 -10.6077873431761 -2.48667874734403 0 0
-77.734436805746 -9.4036290238514 9.52942505361248 0 0
-82.2986211451802 2.08166875085158 3.24363901479196 0 0
-194.735367896547 -8.98737208544228 28.0419004585282 0 0
92.9398017423269 -15.8926014589712 -12.0474587028411 0 0
-49.1382741014814 6.44597496880761 -5.94781201581885 0 0
11.6465735224701 -10.2024615657849 -1.93053229071325 0 0
-193.762272665191 -4.6198803812167 -13.4525090095698 0 0
-129.677425539456 -4.38071541793959 -15.6728811647995 0 0
65.3960155789152 1.92578777484071 -25.205033035495 0 0
-176.156641137633 9.06549781430835 21.9399996344147 0 0
-180.191743311788 21.3497323695871 8.88326204448872 0 0
-162.07718330631 5.52837701037779 -3.03220347856148 0 0
-31.1338766088913 -15.7495212586274 -10.1556854251862 0 0
44.4056550309587 13.5955163374425 -10.3038716915969 0 0
-234.701681591441 -35.4440082937136 12.1376040407798 0 0
80.4007232988432 -14.1184488206553 -15.1838953801444 0 0
-234.114857460793 -14.3216097412168 26.4728423033587 0 0
-8.53705117040089 0.907148351016382 4.73381721622926 0 0
-203.177987280714 -8.48840992042113 22.581314132664 0 0
-216.901633430728 -43.7933970058768 2.41629857832474 0 0
77.7201879560862 -9.80821876443755 -21.0885983375951 0 0
-210.728327636895 26.4499583565818 -3.9953196497435 0 0
98.0072492572477 -12.2694404486173 -19.1334194784296 1 0
-253.078944033867 4.83592763945429 -1.62186791322581 0 0
-228.767503695204 41.416033914967 -21.9187717086227 0 0
-188.502290837298 -37.2279049929028 -2.19856911204595 0 0
-58.7677080164994 -6.34900407533222 -22.6401039737105 0 0
-220.064570416616 -24.1148798576147 33.1208855832902 0 0
-236.999808702157 -26.8892674874897 21.1392667864498 0 0
-133.056595690106 -6.42013854234188 -15.2014196715446 0 0
82.9393784978639 -10.2004684921552 -20.764173729824 0 0
-124.454415854173 0.56892780455468 -14.2826009152269 0 0
52.4664547874612 -12.8284889490934 -5.22280763776553 0 0
-202.974836830484 -12.7754403663795 30.342666829393 0 0
89.6233415168549 -16.0633887250911 -6.75322228267492 0 0
-150.84022627713 -9.24328805707607 -12.6742650645474 0 0
-53.7626244944444 -16.8822031288471 -6.39748615400184 0 0
-213.66316169669 39.2578408945397 -7.7315378736992 0 0
-45.4372276562661 -9.28388663927635 -21.8077946261747 0 0
-237.341566583168 24.6929933139935 21.5172252637926 0 0
-186.617977922799 -26.9273717080399 -6.76351413531185 0 0
-256.76252992934 31.142169411748 -11.3939612475751 0 0
-215.327671319967 -31.5026713664893 30.6555178320442 0 0
-247.819158493426 14.3687537159814 16.2621474465334 0 0
-220.634521820598 -17.58898044893 20.3663613674379 0 0
-227.66453952297 -37.5487460475562 17.2079147082832 0 0
-179.654564117336 -17.506503838956 23.8384620084922 0 0
-121.184882050115 -0.707196105918131 9.75017276339398 0 0
-101.808782430211 4.9923917758538 -3.98908793068033 0 0
-18.4706515931775 9.57898278871933 -10.4040861006712 0 0
-237.973132593467 17.5341142474595 21.4561319924026 0 0
-144.034773779584 -20.8093557396706 -6.25202060363244 0 0
-73.3436095313381 6.65781366954704 -10.0489546106916 0 0
-104.807210020988 0.597665136014823 6.71756905781937 0 0
-91.5752959295674 -10.5354791927747 -18.5763704740149 0 0
-33.4460266354309 -15.9171081773296 -12.3598689056512 0 0
-206.199071257351 -5.58497819537471 17.3360787025771 0 0
-249.857036735149 42.0679781851443 -6.50144376667004 0 0
-228.610881559962 4.58075179559208 -23.4000741244693 0 0
10.6121819826503 -12.353363239166 -5.96181923583132 0 0
21.3664670928218 2.48149172857762 -24.6721739757059 0 0
-94.1553402635747 -13.3917219439405 11.378521404596 0 0
-0.594636037999061 10.2330771456752 -18.7506074437836 0 0
-155.110475057662 -25.3873860178772 13.8258146562648 0 0
84.1969484798585 -15.9280247781503 -8.66878643656956 0 0
-119.404948625764 4.7435982062161 -0.758771011082954 0 0
-185.460103553103 -39.2494051390674 7.2163638382541 0 0
-192.45131164243 -46.868600733513 11.2081144034081 0 0
-129.899593943229 -10.7794126647177 14.0362423756434 0 0
-231.413286249046 -12.1745556330949 2.70327384330477 0 0
0.619946434685944 -13.3822399379036 -8.59619047734515 0 0
-14.3676394035988 7.42277597158258 -21.2576819737219 0 0
-217.481923353486 11.3553358613707 14.7923775981866 0 0
-230.112976705052 -12.7962317951207 25.7034340479426 0 0
-255.867238812327 16.717739987848 7.96038218158584 0 0
-112.346135272376 3.58321053977669 3.14226318503562 0 0
60.6924355897531 2.53273097229172 1.73940764601001 0 0
-0.56638845587559 -8.39389722234255 -22.6516763139348 0 0
-186.783780792184 7.32237868818199 -6.97270774249331 0 0
-87.8372253973655 -9.49669366832438 10.0965538763481 0 0
-83.3904524652342 -12.6369109778234 9.51125073347005 0 0
85.941718544456 15.5396027068113 -6.08676234911329 0 0
-248.124497360585 43.6847860889961 -6.72699979539289 0 0
-253.175647826117 5.47743894624641 0.744501887932514 0 0
65.847042204951 -14.0846894104387 -14.1147746088738 0 0
-106.416942285015 -19.5413642594726 -6.18508518579162 0 0
-258.403109922875 14.6398187259844 -2.72611599505589 0 0
-52.1551673362257 7.95783252193618 -10.6690041722753 0 0
-150.248265236936 -15.7940389709185 -10.4378736382597 0 0
-195.654960367748 -25.6645733921902 28.488206162326 0 0
-189.430042729847 4.39432664786316 19.526126834494 0 0
-113.970880898184 1.63669965674419 6.58542072490426 0 0
4.89602854015453 -7.67087423127633 2.44547388445052 0 0
-160.199634219017 -12.8384165706971 -10.9019149057925 0 0
-197.699447196707 -47.1399380841071 12.4056828972043 0 0
-232.030865843191 -8.65414882022091 -0.452309705724522 0 0
-240.797393804434 25.5076737648272 20.6113119456482 0 0
38.9513682053863 -13.8273350076039 -11.9195560525269 0 0
-251.672306617193 6.57975192122252 6.54455375304351 0 0
83.9832185084841 7.0838519823137 -22.8177945911307 0 0
-90.6031252444231 4.30267166880659 -15.0139157768661 0 0
-226.52622164326 -16.4173522436098 -8.88795620805333 0 0
-219.484851347599 43.228495392057 -12.0933583211252 0 0
-153.946509971683 -26.3690044787083 10.8803202580321 0 0
-151.539152391869 6.65429815533133 -0.657538924849479 0 0
-242.315922323063 44.6796312813342 4.02779449579828 0 0
-87.8913667257557 -15.074335830837 -14.4187801963284 0 0
-24.9584007470028 -6.95868915117285 -23.2792469336085 0 0
-256.832790223862 25.4176132837252 -15.4615961097106 0 0
-170.713286810708 23.1628667250835 13.1983676258301 0 0
-171.719064937019 -1.67705023510426 21.1304216352312 0 0
-237.505375294066 42.4851749705711 -2.65072524528549 0 0
-241.856252655347 10.8986216187648 17.2106756122121 0 0
-108.346742800798 -19.604999007281 -6.17689132856691 0 0
-191.067946021553 -27.4368258501587 25.7209749221447 0 0
-58.3572371458875 -16.2834823058791 -12.4262998958757 0 0
-220.378690455755 -17.0636966216149 22.6058597444211 0 0
-147.262589981078 -25.9480298087612 5.02281001102997 0 0
-237.513331985037 42.8451672206694 -8.48893145383947 0 0
-111.886837126505 -19.2790924612746 -7.48445827641843 0 0
-180.123650637258 11.5893804732054 0.844917313237444 0 0
-118.423341216986 -22.153512960045 0.394405328481231 0 0
-240.06789416007 7.64565755107495 -25.2347976248297 0 0
-123.212351299901 -7.19067270917485 12.3449262212695 0 0
-136.332500586784 -15.2713997354756 15.8503945901773 0 0
34.4687379831881 -12.9046476873219 -6.88185607268947 0 0
-184.9457677952 -11.8699627785542 -10.5861548539865 0 0
-77.0910207410811 6.03203277932046 -14.3888215055043 0 0
-246.243187755728 15.3722434409239 17.6078544245853 0 0
-36.1954997589394 5.31033784058068 -3.61959396443098 0 0
-195.305205470407 0.5088394397034 -12.7173446800722 0 0
-164.658487306259 16.1527923058323 7.97661144962811 0 0
-46.3488303468992 8.02123991938938 -10.0387297959925 0 0
9.19691112470016 -13.4466923442823 -16.47608022599 0 0
-12.7768236722791 2.42594795591495 -24.1800228894816 0 0
-240.532651191244 42.9982800077886 -0.253405424222746 0 0
-217.392963930212 36.0979538840138 -19.4418753794752 0 0
-217.945675757061 18.772685785038 15.7500984048276 0 0
-221.436396158314 -17.9635908527198 14.5417875110425 0 0
46.7091879756297 6.42911010541922 -23.1891918985435 0 0
-201.029662670274 -0.0178072215593615 -13.312959751165 0 0
69.0773305842769 -8.27686377417941 -22.3808881901713 0 0
9.15112138881896 -0.857653314659741 5.42591261708474 0 0
-125.039315971362 -19.1267835471813 12.8057825825178 0 0
-169.818674999121 -31.0628135429437 9.30700250882813 0 0
-251.045803198661 29.8584278457607 13.1833403643364 0 0
-223.331964251148 9.27024976544743 -24.5437211479272 0 0
85.7511936403484 -12.0965666658852 -0.118722469240084 0 0
-182.427040358599 -25.2857665361993 -6.74772994089342 0 0
-243.3304498662 2.19112693880587 4.16613613463158 0 0
-235.186314406758 45.4067837164153 -16.5108830101347 0 0
-12.667782180602 8.80200012319284 -8.37300191565811 0 0
-227.099605421342 -38.3890334382168 9.98851138165563 0 0
-208.994804764534 12.8538101942363 11.0286280799049 0 0
-37.5015930910794 8.21332673164822 -9.49517898733839 0 0
-234.884983966914 1.75971949056815 -21.3249486356722 0 0
-230.702512643118 -3.2192400800871 5.55995488152141 0 0
-231.064437202133 -35.0095182015245 -0.0116923982103127 0 0
10.8412841341036 -4.84151802460753 -24.4129465980018 0 0
-228.639720892179 -36.9578843035274 15.7771253658165 0 0
-248.251659749931 6.02503086001478 -19.1521223629012 0 0
-212.720288292566 -19.7974112041522 -13.594844465699 0 0
-122.564284988056 -19.3829887582281 -7.95927487852728 0 0
-238.111500620094 0.535519263856605 -19.0581967735586 0 0
-206.225533530451 -36.8043180960297 -8.00485230773389 0 0
-211.546701754074 -12.7952537213225 21.023562017121 0 0
-211.87030807705 31.1281807373946 -10.9992003872167 0 0
-8.12519494814466 -6.72593524742619 4.59345550577212 0 0
-17.2071421510482 6.66041897992484 -5.33861921475682 0 0
-198.904282099635 -13.2064104722026 -12.1443627266564 0 0
-245.361912021151 37.2507191710928 13.2837517384875 0 0
-224.796538723015 -14.5729576817719 8.84049988400739 0 0
-136.864650642394 -18.8539534262161 16.0467683981137 0 0
7.28395906034813 1.05510900711119 4.58540339258728 0 0
-171.715720816859 -17.1444232026493 21.7197618649883 0 0
-187.519430013412 -2.5364596783915 24.2130690602386 0 0
-236.632339383473 43.5237291533261 6.49991431785193 0 0
-170.577137366022 6.8900962543639 -3.41959826585468 0 0
-213.300593188916 -13.9567474995689 -14.4922008915344 0 0
32.3282670170391 -5.49451497142552 4.52576258328908 0 0
-215.354578725552 35.9538585338966 -17.3410834619885 0 0
-237.738082802297 -1.70289403093515 -0.134226798746761 0 0
-113.491691770837 -21.0215192751482 -2.68445588352788 0 0
-211.358638944647 5.39781433772361 13.7696299763383 0 0
34.4241222191986 -8.68182392057081 0.478617255320782 0 0
-240.715408353947 8.64812391806073 16.0248030479175 0 0
-100.26934217433 4.91763860827615 -10.5213564721631 0 0
-133.60189412922 -8.14048614549519 13.9000071721821 0 0
-235.150933135845 28.5160223567551 21.1756980884537 0 0
-250.28772390699 33.6739571780188 -20.1709171734428 0 0
-240.544188703612 33.9604540570206 -26.4875185379982 0 0
-228.515927448255 15.2435550467533 20.6232593233811 0 0
-198.647428124796 -34.890997064696 -8.07912596812721 0 0
-174.507867266739 18.4645975877947 20.1218268932277 0 0
-96.1817782156125 -18.3165893486496 -8.6909621224945 0 0
-199.042544678849 -40.3446061834975 21.5474837687198 0 0
-234.685580555094 45.7506473843027 -13.4888081081667 0 0
-257.813840568709 26.9761578571112 3.54492060855941 0 0
22.2971967776295 -10.7951938941445 -20.4624718278064 0 0
-232.94280276331 -24.6423515611407 -1.27632215806138 0 0
-201.441991380456 -41.0447744660948 21.0427395144692 0 0
-199.851767305233 -7.28478704697798 26.755275679039 0 0
-224.305771466257 -15.5136826822947 22.1093254433507 0 0
41.6162223676194 12.7543590916471 -17.6531151852783 0 0
-66.5302406068871 1.11794640202024 -21.6117673014428 0 0
-217.502234982248 -40.9821027834642 22.4691423245948 0 0
-233.837554058422 41.83200364204 3.53148872965201 0 0
-50.4635990447407 -12.6957970081255 -18.5563017865552 0 0
-215.464660055469 41.0789810679384 -7.93111912802661 0 0
-224.939834611072 19.179090320454 19.7368863704152 0 0
-210.973285335458 -5.02775284177889 -14.2494726908385 0 0
-241.31214683155 37.9607226994955 -23.4019238120932 0 0
-247.329785671851 34.6525765747503 13.8159781304403 0 0
-108.198327851992 -13.160952952338 -15.089803026807 0 0
-220.507723710465 -27.3071287810944 -11.620299524907 0 0
77.0357184259562 -9.63026799797495 1.7083759047647 0 0
-249.841089838752 41.538782151692 -8.86154585542386 0 0
-225.623546567148 26.6392449541139 19.7628645681146 0 0
-244.476253666517 1.65383397137067 -16.8963093799658 0 0
-209.127954122637 -3.43313725782725 -14.2194581278345 0 0
4.74046964088179 8.64249857171332 -21.0384282615402 0 0
-175.60318789015 22.9297678599131 13.4976078605298 0 0
-202.81396997347 -40.8650224359067 -5.51661830087544 0 0
-176.775279411905 18.2246637884726 6.30540216887769 0 0
-185.723622261869 3.37458107567543 21.4484013828587 0 0
-200.909490451673 10.3414430067757 -10.0728540265914 0 0
0.489631948975145 8.96441507993985 -7.52113164006915 0 0
-141.499912402509 -4.67098324342924 14.3319222703514 0 0
-247.009286918353 3.36092256337496 7.25844318507376 0 0
43.5697383873218 6.854024724423 -22.9544655137239 0 0
-246.06731015163 42.9917015736308 -5.48840380829851 0 0
-217.333726426485 25.922818941817 15.3841162235198 0 0
9.47974093456159 -11.1280119580651 -3.56574985496551 0 0
-217.805688570292 -23.6646150223731 -13.4067447271471 0 0
-227.848217814141 -35.3193057975095 -1.70018644760078 0 0
-252.98321664896 11.8751258057229 9.97703193725099 0 0
-132.229528729485 5.14680534707139 0.917094023998039 0 0
-91.7535631090933 1.39562923550722 -18.4558566426449 0 0
-258.94746272499 20.6628722995818 0.34671943057803 0 0
-258.908266648611 17.3338452043366 -1.26006810330761 0 0
-59.5442861298501 -17.0853187343431 -8.87581385316484 0 0
73.4278060960617 -14.4575369178614 -13.7162861876065 0 0
-236.892976681911 -21.0764270000466 23.5968901485428 0 0
-222.736075811722 -33.4880699403634 -3.78786240207863 0 0
-225.797733338455 -37.600773038547 21.0399312806064 0 0
-58.9265651156895 7.32864920867077 -15.7464989007117 0 0
-8.42130772362868 3.49237681594703 0.964110938699878 0 0
58.2713856017816 5.36168188797594 -0.557723900940254 0 0
-186.377146032122 -37.0310380853722 17.7477636588989 0 0
-241.773658555658 -1.7934119139197 -6.74348421167138 0 0
-231.048937470477 3.1824755541663 -22.7653782699573 0 0
3.1315311470583 -7.9750962786988 -22.8508273256594 0 0
-200.049395833341 -6.77322130037581 21.1367781755115 0 0
-161.878021974562 -24.7044885375429 18.3578958294779 0 0
-235.151133636862 11.9415431901462 -28.5542633797413 0 0
-114.079570393895 -19.497511888347 -7.06663121767384 0 0
-96.2748770605122 5.29423842481419 -9.94652906947638 0 0
-204.556098439547 -10.2854806776679 28.003289921195 0 0
-187.628564566041 -41.4175251785891 11.739084640633 0 0
-54.5056231110472 -13.9464607011882 0.342099554573813 0 0
-231.737670218171 -20.9888193356217 8.68193102519933 0 0
-251.941101284246 33.0346737309078 -18.8721649164788 0 0
-187.368531118896 11.7886375396115 12.9120602945024 0 0
-226.501239562444 44.1942121517785 -0.0238490808933699 0 0
94.2206101056299 13.7808102549515 -17.3727061281815 0 0
-100.158418374494 -2.59616035512526 -19.2214139920478 0 0
-236.666169588037 25.957411382617 -30.1207436180885 0 0
-212.862007174182 -14.6665326167127 21.0542644316837 0 0
32.6908759726478 3.47465382519899 0.165286974925898 0 0
-215.501447856008 23.0759838405344 -22.0687499936148 0 0
-176.078824682888 -21.390894414454 -7.70538215622065 0 0
23.0915182734403 0.144076297204043 -25.1378808692915 0 0
-84.7682803797388 -4.90116226123989 8.67819090312222 0 0
-244.515777534174 -0.753264092315272 -4.90332279529663 0 0
-251.672846274242 39.2757316428346 3.03527294279619 0 0
-32.4113474797863 3.62329388795294 -0.315593227448695 0 0
-11.8358194744588 7.38713742260745 -6.18239072277748 0 0
-47.3602394734712 -13.1431028103391 -18.0880079461445 0 0
-59.8392294111395 -16.1610418551959 -2.52733378502589 0 0
-211.650210365263 21.8908225813892 6.90711851341283 0 0
-187.276984532842 -28.8891510153093 23.4305774325847 0 0
-156.377974251 -27.5619258143988 6.04213454858736 0 0
-136.271474038495 3.55515367619055 8.89388895413136 0 0
-57.9432903345519 2.72142888967744 -21.5761639525787 0 0
-248.641206582158 42.8373509654832 -8.7291163778139 0 0
-232.187040631276 46.7173729698717 -10.451858411256 0 0
-64.6201553712622 7.04210310843558 -9.27672822648323 0 0
-146.203553867702 -24.5275995612075 12.1388307808058 0 0
-195.820676189939 -4.51491387404271 -13.5779330467165 0 0
-159.445264280486 -7.91331337997598 18.1409101141637 0 0
39.5774980948857 13.5658189381555 -15.6241558656184 0 0
-159.809696571341 -25.4777203198777 15.8842062427198 0 0
-12.7507844040112 -0.470765056177486 -24.7062033388701 0 0
-198.048429857764 -26.6581324370833 29.2620956771852 0 0
-154.928329700841 5.06900124911706 -4.04284650359493 0 0
-187.569718451902 5.40836343835488 20.0122447756624 0 0
-203.885450579899 2.7966739089698 14.4864464380894 0 0
40.3791958956997 0.305343431114769 4.2563916837729 0 0
-138.463392731882 -19.3828604717806 -7.88695312538135 0 0
-40.8401487401035 7.48667044525129 -18.584331805656 0 0
-240.443210457367 -2.33693973928677 -6.95156568815169 0 0
20.4595085356094 -11.7263355891505 -4.58751591490579 0 0
-215.292094706864 -18.8370847958021 20.4150685561074 0 0
-250.610788342662 2.32988484504961 -0.654353168554342 0 0
61.116833450063 -14.2230499803162 -13.1316353827221 0 0
-255.907827312007 28.6785739029859 -15.9152996731188 0 0
-22.8915863439943 4.74539846084054 -2.34620883452075 0 0
-186.93128630946 -11.4389245131978 -10.8785195904505 0 0
-229.417439367123 -15.3084193676079 20.3170221892421 0 0
-37.8920598224664 -1.88012314568891 6.60302454256462 0 0
-105.661952857865 4.61736329775077 -1.10692317940795 0 0
-213.4695572865 -29.4103383382073 -10.0676909544055 0 0
-213.422411058392 -5.90782147931073 15.4263818667758 0 0
-242.903004947457 -1.18137343418207 -10.7590620624489 0 0
-195.441748425015 -37.7638309582436 -7.33311116709466 0 0
-199.409047707136 -3.29385008933995 18.9614137781833 0 0
69.2125399900101 15.2761803990263 -9.50637945447336 0 0
-25.6606995377153 -0.788324038963394 -24.3776961224733 0 0
-204.831552887343 12.0910425743321 -11.5128991320544 0 0
77.9718250377656 10.0640127208469 -20.6206111908174 0 0
-248.383940023269 2.50635599723731 -13.9159815937405 0 0
-38.7964495388122 -11.6615576002147 -19.9440172415559 0 0
-249.503590772318 14.8479880117117 -23.690885885616 0 0
-145.946932646326 3.63495634086775 -7.38551785321734 0 0
-25.2205201074496 -6.65391735072245 5.88213634035276 0 0
-192.147165295583 9.70933501872647 12.1695455277317 0 0
-243.126193690999 4.62611856920482 10.5860309223468 0 0
-153.204325137484 -19.4091762861652 19.0027900408963 0 0
-35.9999177296595 -11.4111220233999 -20.198742110532 0 0
-9.53995640798374 -0.969222959828494 -24.7730098647538 0 0
-177.649521449265 -18.7324053395112 23.0068801927976 0 0
-256.933639489747 13.2791739075694 2.99481500091073 0 0
-238.931913880673 39.1443880064985 -23.2249444675965 0 0
72.3863805972826 8.43823406932977 -1.37611969442859 0 0
-183.765652893044 3.70162280235346 21.7227811435991 0 0
-235.705968841324 43.0654540947517 -3.34315455768854 0 0
-92.8093564195207 -5.11830502376565 9.21984040909885 0 0
-227.170838758211 -26.0810993664915 -7.98605604840324 0 0
-216.96672815439 13.8852888790855 -21.3954423453711 0 0
-224.528052970442 42.7329070169915 2.98965195221098 0 0
-166.118021271375 9.39128794881485 19.3866042189457 0 0
-224.328851778453 36.3681650120323 16.0918308540463 0 0
-218.835161277859 18.3786646479503 -25.0681494144164 0 0
-207.945205591008 10.3256587581551 11.7950201783966 0 0
-46.8550829943329 3.54833301734023 -0.441894968654361 0 0
-81.6600592795999 -15.0946738294638 7.33679187316559 0 0
24.4300553322668 8.7582877044535 -21.5191926566631 0 0
-5.72260660796119 -10.3190234476602 -1.86111485365293 0 0
-8.09218300118824 -14.2600182294828 -10.989052774075 0 0
-214.496278569748 -16.6183960515656 21.8847996499934 0 0
-45.8059106146882 -1.85085526445995 6.30445877073158 0 0
-1.03421081565504 -1.49800865766039 5.92384591468883 0 0
-249.547455200568 2.7896678368349 3.56009408891773 0 0
-223.510627842188 42.2014842487563 3.62650689907561 0 0
-176.258713364454 -4.71915957112274 -12.7455821287589 0 0
-135.223187016688 -10.2882998403171 14.6735392844155 0 0
-222.719521499549 46.0962837895823 -8.11676899273318 0 0
-242.60539679784 42.4282799775538 -6.59656840986421 0 0
-168.553274943884 6.99692463649461 -2.67172489331545 0 0
29.9501209768695 10.4108320486296 -6.97346463112638 0 0
-214.703017162909 25.3665532986534 9.93778107023331 0 0
-256.643448996798 33.6686256289534 -1.08513817608297 0 0
-222.75294484127 -34.7901278416776 27.7253922749059 0 0
-231.879229538044 43.3595003233856 -4.1791854827911 0 0
-211.053247654798 -38.3312303153419 26.1373160228064 0 0
-225.715879550614 -17.810950785917 -8.86971193634386 0 0
-190.62389327933 2.50749569710833 -11.9831745425361 0 0
-199.388116086263 4.54528062346739 14.2659231903308 0 0
96.4213239161528 1.5714337207954 -25.2105575437028 1 0
-159.542760639097 -11.1462616562258 18.6282963955647 0 0
-216.807276720812 -14.708781978599 -14.5405768042544 0 0
-218.726945914523 -17.7705371063332 18.9974944984016 0 0
-155.844212263874 7.91193423335818 4.1801292171144 0 0
-113.535075444369 1.20649206703974 -15.2011430414613 0 0
-238.614431379097 44.3007606997449 6.62082450896832 0 0
-138.999363407922 4.63718271117183 8.03267326661908 0 0
-245.854614209746 1.14253872534392 1.47321809681596 0 0
-60.3924275127157 -15.7981712214983 -13.7229819837314 0 0
-64.8211059980739 -13.4901892142401 -17.2531048726863 0 0
-202.189885413733 16.6134102749981 5.27460887451331 0 0
-237.636971088648 -25.5969699153241 14.9630977445658 0 0
-17.6854662568045 3.96576693224321 -0.598548687330782 0 0
-175.035189513332 23.2072168272587 11.4336531346822 0 0
-51.0004554861889 -8.57943679452538 6.64619128242219 0 0
-231.750052621628 18.1135244699026 -30.3574994674417 0 0
-213.220175322402 27.1103808892454 -17.3854828290265 0 0
-48.3833009480513 -9.38271773718156 5.0669348065119 0 0
-27.3515801426569 2.22751694900029 -23.6900049560836 0 0
-221.127366568818 -42.9999965494277 11.2438386988123 0 0
-254.150671490894 6.85368419692047 -10.0371102710827 0 0
-250.405426032972 1.90476803697362 -4.32270627402709 0 0
-5.05587991359134 -7.00980853442593 3.92219868970684 0 0
51.6988909408268 -0.505105967164808 -25.3377184745608 0 0
-105.787778564025 -14.5553981567787 12.0704561876745 0 0
-85.9651239984991 5.98944742919054 -9.72910278761285 0 0
-182.76510883711 17.8809117510208 15.6128528771742 0 0
67.0289194047454 -10.813004162054 -0.763437786920651 0 0
-70.5339860939951 6.49471228342958 -8.08976175230852 0 0
58.0974887099386 -6.73608150750939 3.7063922029824 0 0
-183.486065024724 18.217111082318 10.7811387244342 0 0
-184.945200504597 16.3103909826271 9.34081675788196 0 0
-176.794530664074 19.4302198447212 18.9451866577246 0 0
-225.646811383523 -8.6772286171806 8.71217053496073 0 0
93.4852130626135 -7.73844821289297 -23.0736566027296 0 0
-149.168951517848 3.67977213107576 -7.10086853647618 0 0
-197.117169908812 -3.49263198150963 -13.0956953408152 0 0
-253.344753564058 38.535875842606 -7.20772270616176 0 0
-185.846293791849 -23.4378901346179 -7.64304397691324 0 0
48.5055641507735 6.69751771846688 -2.08616254583432 0 0
-95.6672998104187 -12.4336371667584 -16.7433457694542 0 0
-18.3354096650702 -14.9650015958223 -13.1109921217497 0 0
-203.776677396153 -24.7698650316161 31.3928249928733 0 0
-241.739863905284 3.79540747862644 -21.22935135239 0 0
-198.467863294594 10.8113156238812 10.116555364909 0 0
-157.164418733968 8.14565101218732 15.1455689891026 0 0
-218.959477566191 33.5285184792667 14.823462204109 0 0
-227.784331840085 34.690085905128 18.2440802365525 0 0
-220.730354443656 18.5632439740532 -26.5841456208091 0 0
-232.84773193949 -22.1854477502307 8.33159945837051 0 0
-176.359552579343 -15.3490376249854 22.9613401476162 0 0
-231.880925520449 -6.45623591882308 -0.550479638052776 0 0
8.84795614634567 -4.27044652885101 6.48551170987312 0 0
-210.652080707233 -33.127237239495 -9.93310715926297 0 0
-220.469919144071 -36.0511695956167 27.7633583778774 0 0
-97.5549737617653 -11.4371587860912 -17.3851088590411 0 0
48.3175913855128 -9.79389146197446 -0.77599106461488 0 0
-235.387508160095 10.6385871469397 18.5236402833285 0 0
53.2758129680381 -10.3972214903841 -20.4701961646558 0 0
-0.309162132115678 -10.124977097382 -1.77313352998808 0 0
20.3316272430758 -13.8706712188785 -14.010991673737 0 0
-230.757143125412 45.0043631439838 -17.1951606175582 0 0
-180.674473102638 -9.95684045593942 24.4673365866333 0 0
30.2983321951668 -13.5531743545819 -15.2427236486782 0 0
-208.543282938656 -26.2654388365381 31.6339165069624 0 0
-222.701555662171 25.3037620781287 19.524000599636 0 0
-233.808609821389 43.0542736633848 -5.68639176462755 0 0
-19.9981681123886 4.63920443741913 -2.04773930156407 0 0
41.3724746680762 -13.8188074419266 -9.97486445351734 0 0
33.072359280521 10.6418452975765 -20.0018661645886 0 0
53.9672787585047 -14.0908070482058 -9.07559110489349 0 0
-234.248555741446 43.084950310513 9.01941758830875 0 0
53.3220626075718 -8.10738807908686 -22.5463622262142 0 0
-230.325150087224 37.3427015610788 16.9992368327762 0 0
-12.558868149995 -3.37109528383108 -24.5335165885388 0 0
-94.3530643832987 1.72222999347701 4.55545101131985 0 0
-243.71583751022 39.5935696043243 -20.4938590710187 0 0
-172.73432611846 -26.4751909718113 -4.773079158345 0 0
-188.779474350046 -7.55335600531737 26.3572405620886 0 0
-1.42282990870122 -6.27358066185596 5.64696406335963 0 0
-48.3529966462112 -16.5838489819958 -10.7058598552225 0 0
-170.286602954893 -27.5722557071005 18.5191541133098 0 0
81.1260719816057 2.48619092037708 -25.1724430865681 0 0
-215.853795627332 41.736737320367 -1.22890642169383 0 0
-2.15167338586107 1.08158441296662 -24.7400688908677 0 0
-179.914798710492 -6.96795367654632 23.9832157549759 0 0
53.1342853920746 14.1364924061246 -9.99274595411518 0 0
-217.296133833245 -13.3869339539681 12.7860881375097 0 0
-237.117085209369 1.85678045914146 6.45445563473411 0 0
-55.6024536672969 1.6692825612087 -22.3318901702272 0 0
-13.7198834747141 -2.26293760976271 6.61351504765977 0 0
-193.317298260932 -19.7129184885679 -8.94223966668764 0 0
97.2672952738254 8.49477927876993 1.29166142542285 1 0
-186.321344187418 1.63397941336451 21.9495963572086 0 0
-191.717569403064 -9.10668048448541 -12.9586355502036 0 0
-212.611185518781 33.7361053748294 -5.25867026231488 0 0
50.1315754923425 -13.6572300430237 -7.56058391842619 0 0
-21.2627348721485 3.30803489772308 0.778838920091652 0 0
-35.5744211509529 8.92314009544875 -15.9146712404162 0 0
-235.468916075468 -0.679297777104724 -18.0571186755515 0 0
-49.6668065837372 5.43238455745585 -3.94196144451213 0 0
-222.670956280151 0.529435463368429 13.1706387924335 0 0
-76.3092020462159 6.54015689254785 -10.0997548503912 0 0
-216.251454987844 10.1054492866153 14.3205586818752 0 0
-122.318672988083 3.28562375947201 5.60956207401035 0 0
-223.395855825905 -21.0214152271805 -11.7932324587388 0 0
-146.461395901781 6.60497311311161 1.01248654018101 0 0
-231.27691810465 41.5198470874647 6.82537403254944 0 0
-257.570030281263 31.6270928699594 -1.7493132022627 0 0
-221.847976292053 17.7396687643964 18.7338375205122 0 0
-215.936543540244 32.4497268129415 10.9920844037825 0 0
-14.6238294713082 3.02489305553267 1.73559429595599 0 0
-141.927253069969 -11.3958689615237 -12.8944049729462 0 0
-141.513318641428 5.9942784894044 4.36056851177188 0 0
-237.399849564019 45.1807105721924 -16.774442238833 0 0
-60.9036018609464 -2.18888470551864 6.90432415165821 0 0
10.0245208296886 -7.53859349309291 -23.1383386662691 0 0
-123.348139222559 -20.5235176996338 -5.24547798801425 0 0
-208.946111642906 1.85395093489078 14.3458469238617 0 0
-148.471512126183 -19.1146761589136 -8.30846608735511 0 0
-186.794017723771 -0.846445825271618 23.3016333008968 0 0
-236.506037096947 -4.04182169163971 -4.62812979856895 0 0
-70.1708615675852 -17.6440067777843 -6.39895870083336 0 0
-256.151379485574 23.5529197675641 -17.1118380033723 0 0
-240.527854115236 37.9714194319111 15.2985505156869 0 0
-62.5015675523172 -12.3034811243458 -18.8021488750131 0 0
-166.524360857563 1.37875380895746 -11.6586823959196 0 0
-171.635250960106 -12.2101571984065 21.6975169658114 0 0
-221.486137299413 -40.2821931146367 -0.28815819622966 0 0
23.7865723552599 2.37535103563279 1.93020466706332 0 0
32.7331502205247 -5.99522187252444 -23.9027702472493 0 0
27.3099503857335 3.11933912938418 0.67773377108189 0 0
16.7582913032832 8.55090585449478 -21.5644340438787 0 0
-130.265670060697 -19.621572812686 14.1468936304678 0 0
-217.429735400011 -17.1664495530445 -14.4477315038231 0 0
-247.534527194983 18.2602430171857 17.4356441668731 0 0
-252.339078131801 39.1618775659379 -9.19474806275552 0 0
-226.924314614595 1.15201564478954 -18.7223728332863 0 0
-185.266305258315 -19.2841782426676 25.8529662346499 0 0
-109.537461289423 -19.0711397908732 -7.84398474945886 0 0
-176.302115158802 14.5916633099326 21.4257765663575 0 0
-230.980259029543 -13.3168007238843 -3.17512175090339 0 0
-224.140666054541 44.1091966659846 0.945399865691037 0 0
-201.84601610405 -39.2064876349093 22.7432083969911 0 0
-219.785115328703 -14.2808114589296 -14.0062793285733 0 0
-126.164180899643 -10.9604922269968 -14.6949756665826 0 0
-189.361372038749 14.5201189837407 1.99978421941542 0 0
-233.109696541471 -27.7018795916393 26.0572351680233 0 0
-15.1414865526387 0.12189138552439 5.338786958107 0 0
-184.550334896038 -37.4965050650988 3.07355199610745 0 0
-174.081768383911 2.84262660057705 21.5341854929153 0 0
-229.774528151647 -6.83379914265634 -13.0978506309042 0 0
-225.381424402235 -17.8848101734485 14.6643191508481 0 0
-76.4256892337966 -15.1838317886282 -14.3792624137654 0 0
-140.341232045925 -1.99733773048447 -14.2403920240979 0 0
-211.600716490273 -12.1299725271974 17.8869254088742 0 0
-213.876903581776 33.3589766005529 -17.6652645341166 0 0
-236.159124415176 -22.7643728422005 25.5290012199794 0 0
-221.017344707369 21.9259859823612 -27.200210705805 0 0
-29.57285970496 -10.3099670252863 -21.2164896142804 0 0
-133.88403124624 -2.47020298684475 -14.8475651402731 0 0
-134.673982668806 5.2592254436783 1.70712867942759 0 0
-224.557192407337 -4.69906171274024 10.7128406045797 0 0
-240.076421346589 -0.869931185987592 -15.648797717057 0 0
-109.286841570165 -21.780296152838 1.87412645980591 0 0
-172.843190595654 -0.332709790974454 -12.9820077296506 0 0
-99.642120145091 4.3152772981379 0.0577880575457684 0 0
-214.472939947438 -16.0067728564041 -14.5109310748256 0 0
-181.701286254163 8.15102582210978 -3.69393243847688 0 0
-165.579991372443 -13.6043563915792 20.3219458319099 0 0
79.3049823365275 3.23001768230795 2.443234262792 0 0
-37.5039104233065 1.70175469522591 3.80538210487405 0 0
-231.157909511271 -32.485067218593 23.7488979661503 0 0
-228.861698412266 26.3637099705194 -30.0293135747718 0 0
-211.648496120956 -12.1998709819301 23.5259774408859 0 0
-221.269651621529 13.343848923858 -25.2490870641434 0 0
-100.540377531244 -18.4065638008059 -8.89469439248928 0 0
-186.240622848869 10.9613447314715 15.4270453190017 0 0
79.9221920218837 13.8024067868186 -4.81828670272802 0 0
-197.806352471234 -4.85544149509541 23.0878922362654 0 0
-206.433569640763 -33.0114287735014 -9.86963221203994 0 0
-160.984228540485 15.6642756246469 14.5202329155193 0 0
-195.88777124553 -46.6559185221751 0.36738162509383 0 0
-230.410601779834 -2.2317314124525 -16.2229562818494 0 0
-180.998451571787 -12.9307957363719 24.666730438397 0 0
-257.693905466715 26.5907321473783 -13.021215364241 0 0
-191.691682834853 -1.02012562975629 22.5124241860304 0 0
-249.75368501339 4.70349676649284 7.27277300956982 0 0
-165.597387782871 6.93745138040684 -0.790065073289412 0 0
-152.209638732735 -26.6655657516417 4.6895811008312 0 0
-161.330813593557 4.03635867144129 17.2219877401894 0 0
-249.55610469053 31.2036856142929 14.0003041736435 0 0
-93.1801281501451 -16.8160325509769 8.81746284085846 0 0
-161.420386893979 -21.6346290160822 19.8995122729312 0 0
-236.009114313752 44.3702426714906 -15.2724084638793 0 0
-73.3326488244466 -9.34063023793872 9.16921851649289 0 0
-242.372945207577 43.2625416202068 -12.7311329281181 0 0
-115.496181877637 3.97540957348758 -9.42381246046569 0 0
-248.386397045966 0.740920732421479 -6.19765934524177 0 0
-226.01227363799 25.7550061782045 20.5077714145915 0 0
46.4742088939623 -8.09111989598773 1.27181470952044 0 0
35.1435848836095 2.21587105935312 2.17367483840417 0 0
-211.174127028384 -5.67840728004031 15.8996311350602 0 0
-231.239864866583 3.17059482020283 10.7094389910158 0 0
-251.350849964 2.76189059811159 -2.4586427743519 0 0
-237.525060969369 10.5103737404536 18.1429971050142 0 0
-231.722579320573 0.143312858523359 -18.6326521372763 0 0
-131.792082901485 -17.2718616734151 15.1895971911808 0 0
68.9478336143591 5.2072957315128 0.204673919968208 0 0
69.9532311379821 7.21892839087197 -0.882565564674373 0 0
-2.45676265202779 -13.5557250932055 -8.71051773339006 0 0
-206.185794804243 -44.8055957397847 -0.217305320082429 0 0
-172.232998256757 -31.353979886138 12.2682840315855 0 0
-85.7207694660112 -12.4513688504952 -17.4558410862111 0 0
-224.520635858017 -21.9435746227271 33.3044516453807 0 0
-138.303205618229 -17.1659791820298 16.1363626071307 0 0
-217.867677785986 38.1855664414569 -18.062093419448 0 0
-151.675605313541 -4.64947291761441 16.1572942859587 0 0
-161.703210608982 10.6907841856161 17.6630892154232 0 0
-165.063851984372 14.3547627700139 7.0069876826661 0 0
-177.09110224921 -23.5983521936263 -6.83983533563718 0 0
-6.5113927963007 10.0119874795092 -18.5404467510952 0 0
-169.507169017006 -10.7404759347911 -10.892555769543 0 0
-27.3946291432446 6.58982127884402 -5.71907636172096 0 0
-247.955288278678 3.33772077571824 -16.1094656607125 0 0
-152.540843090312 -18.3516879931888 -9.01045794267764 0 0
-131.196521399824 -1.50950095713736 11.6682826563241 0 0
-90.9998602875853 -7.67072187425126 9.8557818823307 0 0
-236.453862492798 43.1790315017378 -7.73610909526677 0 0
40.8972291648573 -12.4005032265014 -17.6161984596065 0 0
-189.564313198216 0.214207656407481 22.1144784226589 0 0
-54.1900735960446 -1.25457658345054 -23.2007317043765 0 0
-209.592373933826 -11.3559723182438 25.9100014141744 0 0
-240.244877801523 40.0958234656625 -21.8322934506553 0 0
-222.827805364055 39.8472994265186 10.7498636907184 0 0
-196.592020662031 15.9125714428323 -0.904355953398028 0 0
-258.657572566517 19.4626558096147 -10.460370646525 0 0
-222.338294373986 46.2333971631274 -5.14778295415939 0 0
71.0220016084163 -2.37830370782971 4.54714414277228 0 0
95.9953658109826 -9.95305291532287 -21.4336364417299 1 0
85.6898022452686 -10.11877649929 -20.8946723922895 0 0
-241.190890865611 20.9578763816194 -29.3983185463805 0 0
-29.3329449801529 8.87214986255212 -17.8248091826078 0 0
