"x" "y" "z" "f" "a"
-202.32665845141 -33.875675555933 3.11349141472413 0 0
-182.09229608871 1.44086478318818 22.0283112435489 0 0
5.22116653528382 15.6414808555705 -7.93833922403627 0 0
-200.137295506847 36.9517833061855 2.03017791207298 0 0
-203.752714571447 -30.5767806289396 -15.3960638980004 0 0
36.8251412918077 13.0921501417304 -17.8011797699494 0 0
-216.224514116561 15.5581128963975 13.2625190435807 0 0
-230.49552215449 -40.8684459727497 10.8578803924567 0 0
30.0872737085094 6.77708331450947 -22.1946759827539 0 0
-41.4405527294007 -3.64545836520794 -4.92339254457732 0 0
-43.1128197785349 16.7246005576247 -3.72741755031559 0 0
-118.340905821239 13.1062121889104 12.3344850218252 0 0
-22.3672742827843 11.145826270119 -20.792231067797 0 0
88.5426456608946 5.9842305765006 6.33051658959355 0 0
-134.228896595839 -4.41161182868728 -0.869940932150183 0 0
-142.435778663737 23.3935598576822 -1.55703017347764 0 0
-106.871066529014 16.6731260246222 -12.1915079283379 0 0
-195.818891428576 -5.14504766517615 -9.84201267437409 0 0
-36.2329316848884 6.797949969689 5.35734736652419 0 0
-85.0753174210964 -3.46410482347948 -4.20556489446912 0 0
-177.037526805718 11.2450588417104 27.6112404734149 0 0
-200.797018364217 2.5572798534604 11.7041101685617 0 0
-215.806551935215 -40.3347673057088 15.0061034157927 0 0
-138.644361695706 18.6686675320598 -7.07157053403257 0 0
-199.618058224568 -36.2346986959881 -1.26946651216808 0 0
-81.8519678970465 6.47667561334386 -18.7497315070411 0 0
-87.3707828812662 0.863304688862781 6.34863100923577 0 0
25.3063177192953 -4.01509055822653 -1.9658896720602 0 0
-120.863922335656 1.57780733676805 9.33158732007003 0 0
-109.917576594548 22.2230989587211 1.23564582831838 0 0
-110.933891127548 12.1654818625199 -14.3210622898676 0 0
-197.754854186734 37.4981989785433 12.2817119962631 0 0
86.5623433278905 3.57673655429604 5.72886223024255 0 0
133.284323840754 -12.9752309495717 -17.4640357912305 1 0
43.7208544889709 -9.90817863829271 -17.553633949361 0 0
-223.766723017122 -13.5292353326039 10.8290828629594 0 0
-211.511444173915 -3.09582445356793 4.58364224750081 0 0
102.406329292955 -16.1610034066095 -7.4877175495021 0 0
115.662309553473 -4.325745392534 -21.38147443943 0 0
-186.526887518027 5.58205472709178 23.5226754702243 0 0
-207.098775022621 10.1338916842554 -8.79307702833595 0 0
123.23942955018 -13.947490950509 -16.5967508382532 0 0
-205.19527423657 -35.7078503525597 -16.5378827537363 0 0
126.07779868305 16.7757016905813 -6.61469102786744 0 0
-215.458927168668 -47.1883184336144 4.3788776330462 0 0
-174.662094452097 -7.13564829430073 -9.90741200590575 0 0
-147.841417470014 9.83787458814325 17.1723347105034 0 0
-217.743505957639 -18.3541886678398 -22.9615855224757 0 0
-237.425708942797 -38.7388168368708 -0.944186060696854 0 0
-58.5012463207969 -2.99378204271944 -3.03752468927679 0 0
-217.422583164567 14.6143013746925 22.5046225392425 0 0
-53.7360576344536 14.5644729554124 0.870179411484385 0 0
-123.283870823614 21.7900967716529 -3.34175187356372 0 0
-145.938492354163 -3.31674207050828 -4.00004566090549 0 0
-206.020287824037 -36.7879836242613 12.1351306905847 0 0
-25.4519915353331 4.73554597162439 5.77456545786865 0 0
95.5463959055868 -11.5701592509465 -3.35688605882773 0 0
-76.6529772397715 9.33524090766092 -18.9140237447013 0 0
-171.462759498907 -1.66575770807369 -10.3181691054631 0 0
-239.940187347908 -17.4852912045976 -3.80750388720183 0 0
-236.521282134526 -30.2745895840918 -16.4513228390106 0 0
-177.234804626685 -7.04839507731173 -10.3763883348898 0 0
-199.12794450992 -25.5513490784026 -3.48219084068998 0 0
91.5113939624425 15.0888752538689 -6.41437939058691 0 0
-120.40682384786 17.0971814193902 -10.1068800091608 0 0
-183.920295529744 -14.4121993996348 0.335774088715921 0 0
-72.1111060036001 20.0708432891268 -5.61660024712692 0 0
-218.74419968393 -8.00052239112865 -15.0782495344398 0 0
-187.387525468951 -7.40342494905592 13.0323115252525 0 0
26.1706095492031 12.2504383512507 -19.2464866172482 0 0
-225.61466916729 -45.0878017652904 4.98618234133443 0 0
27.539267049362 -8.44645602375518 -9.89316988380708 0 0
-9.06004146632267 1.76489751125151 -22.4208532892165 0 0
-196.89102822691 -12.1703510342659 -10.0749454873729 0 0
-171.421978614641 -8.45416136785552 22.9059651061508 0 0
4.64437019587132 -4.72169009419611 -5.05874005031646 0 0
-198.839200326337 8.15208659797188 -11.6940386064552 0 0
-17.4006710037613 4.19611106515685 -22.4162346603903 0 0
59.7155479616456 -12.4472975617881 -12.9971929335648 0 0
123.203704876554 -16.2813259326047 -2.51614942373304 0 0
64.9848433361114 -11.3627541670953 -17.320494674263 0 0
84.3126043921572 9.69520188580213 -20.0464432693221 0 0
94.4495926373305 -1.63453234415293 4.21468003333518 0 0
70.4031796639516 -7.60591805417316 -20.3201946045824 0 0
86.1997751404929 1.45075240349194 5.01356948281183 0 0
-97.7119565615398 1.38141423208417 7.42482733212321 0 0
-87.3187988983909 19.8972486814068 1.59876117444721 0 0
-30.8669198812506 -4.3484083128549 -6.49608006830432 0 0
-85.2346687789922 19.4863201381571 -10.3402051388719 0 0
39.8087472335511 1.90332656903656 -22.8347893947732 0 0
128.396281311281 5.40649258635828 6.82531429042231 0 0
-220.61266319717 -46.2209786461163 0.96192242972187 0 0
-89.8100876378353 20.8048446778845 -3.69258641179139 0 0
-210.642302362508 -46.8115206219316 1.41065883386901 0 0
91.2564626268989 -15.5961819420339 -11.216101070332 0 0
-158.438809478808 23.7548020360338 -3.34779318575356 0 0
-195.043315748042 30.9673940085262 -2.82186439806482 0 0
-223.683755421379 -9.78537603767011 5.02456708533411 0 0
-212.440305045637 -2.05978510023369 2.9776208629502 0 0
-119.428477573961 22.6167697232981 -0.0821840742431496 0 0
-204.861674634585 -33.030092353257 11.7562303385354 0 0
-162.868204146062 -6.42114466566767 0.00425615955513424 0 0
94.6047442220362 -8.36760583904467 -20.1643041181487 0 0
-198.2931916073 -1.62311568461722 -10.1375855723146 0 0
-113.218984115321 20.558812920047 -6.18479041541926 0 0
-214.870132039555 -15.2896987040033 14.0313586970008 0 0
-124.364338981262 -3.9880973568686 -0.237238082779144 0 0
-210.283126055844 -42.689088249282 10.2790750893192 0 0
125.891173329928 -16.007649855468 -1.29025092753938 0 0
-210.735476994116 -39.8198450531029 -18.5594955886834 0 0
-57.1959165041327 8.09770649796884 6.75628468188755 0 0
-215.671742850438 -48.2497597951516 -7.26485092437445 0 0
-79.2964244764365 0.571737797578908 5.55039968111371 0 0
-106.827546679424 13.4804839752504 10.8402130309517 0 0
-238.984960172516 -36.7860343687333 -0.0614577605907013 0 0
-10.0144082129311 10.8205227656207 -21.0013297732097 0 0
-79.0457753315161 20.2240111045072 -4.07378728242154 0 0
-29.7529921006866 6.56731891383981 5.15626150103734 0 0
42.0633198966751 14.8410893384308 -11.518384278854 0 0
-9.55377175491429 -7.16299613687908 -13.2106105114965 0 0
128.428717797267 7.76473631177187 -21.5638899312008 0 0
5.76797518160251 -6.85406531709778 -18.5180057875641 0 0
80.9345225349767 2.00546282546091 -22.7706392583871 0 0
-9.38984306577052 2.20483293289106 4.60505572597994 0 0
-176.414008833341 -9.808726959251 17.8712181793565 0 0
37.1448591206284 7.72591797816886 -21.7768406175059 0 0
-177.268810069701 15.5392594834454 27.6715991025054 0 0
-203.523479470874 4.93509679198505 7.90710791682299 0 0
-204.625263428244 34.462548355658 11.5342077917154 0 0
-5.60909931727513 14.0159225565865 -4.31817077574978 0 0
-200.189325594059 13.4917824147744 23.192486345565 0 0
-200.823507976015 -33.2170080607563 -10.8781607044023 0 0
-195.929751211006 -21.449362865622 -1.08689786564451 0 0
-37.8198426026272 5.5406796996279 5.89292428340379 0 0
-103.140116198291 12.9753301274778 10.42404145388 0 0
98.6899396164931 13.0162797353186 2.67445424976074 0 0
-217.939028757411 -11.1494260797772 -17.8776564737461 0 0
-60.6002834304151 -0.571879073544658 -17.8530617929616 0 0
62.4647464733045 -4.8424274680952 -21.592788429871 0 0
-208.262348275922 1.35514386771037 4.42336302824627 0 0
-212.144949223953 -0.618586765014605 2.3341790910582 0 0
-65.0502307174098 19.5636764249462 -5.38436011443814 0 0
-226.266680734498 -10.0712835170589 5.21362764024005 0 0
11.2540904737635 -7.80003768124519 -10.8444571381337 0 0
-217.389989438892 -16.3162578117006 -22.3082157753605 0 0
-40.2776044018615 18.3109270343914 -7.76579113546134 0 0
-116.554064210201 14.3325267631602 11.6183962630817 0 0
47.8103870825752 12.4377751338734 -2.52353326064514 0 0
-121.910771711512 14.1819260538061 12.7790334037797 0 0
-126.604825984906 22.8783079640917 8.02116438498827 0 0
-111.282615732194 3.09603784941888 -13.7425250672912 0 0
-117.294451399633 18.7090584858331 10.0929984190251 0 0
-202.336403073214 -36.3648591334116 -12.9779446469093 0 0
-213.688460803364 -25.6685099780259 18.7991661766702 0 0
-174.483042243751 3.43102422397738 24.867477215227 0 0
-212.075310969428 -39.693063114453 -19.3986606365385 0 0
-71.2505861385117 -3.30014622231812 -10.0587695541793 0 0
-191.94566325171 0.665838347781996 -9.65871272463918 0 0
-65.4139986991653 19.0488648898215 -3.37275193215389 0 0
57.6943298248488 12.7415561954059 -17.0967979195968 0 0
-211.360871196529 3.37103654497539 -6.40894889529567 0 0
-232.969340289151 -37.5885511085367 -15.1094901832425 0 0
-202.935059705809 -40.3687835496528 4.28478447369135 0 0
-214.552461260851 -16.6255731191343 15.3733107231536 0 0
22.5636701668081 14.6908695607943 -7.0524540663039 0 0
-12.0035991987537 -6.49276213179434 -16.6412654370364 0 0
34.9157525947243 -8.48240610258642 -18.7270701375842 0 0
-158.157054195724 -10.751390208147 13.6880945260627 0 0
-123.798428662471 22.9231276709696 0.125331314729469 0 0
-170.172126834268 26.0386768933804 -3.33328972495473 0 0
-110.991646293556 18.9391572982698 -9.25025860493255 0 0
10.1702861053867 11.954412485854 -2.61659564041957 0 0
-162.496313585304 -2.31433337964677 -7.21013918103391 0 0
83.0711313604817 14.4389944976789 -2.92997326350724 0 0
-50.0234623367699 11.0767209211832 -20.1397460161975 0 0
-116.391241782014 -3.22258300198555 2.49465017272418 0 0
-155.852059003158 5.00592661515392 19.0616518129264 0 0
-71.7361381464904 3.10995602347338 -19.0775809109771 0 0
-180.742548178937 4.44749333612161 -8.78809105353088 0 0
109.029611058421 -12.4127556655666 -1.74926861182269 0 0
-115.73834354804 21.7703122388273 -2.71317107033356 0 0
-211.550846321891 -4.68826769602678 6.03713381592848 0 0
-86.9956697318492 20.6239969937449 -2.11200987524505 0 0
128.973391374847 -13.4339460957075 2.2852478562081 0 0
-241.700275348113 -30.4511051872588 -2.60846239059918 0 0
-81.1423553399463 14.7754184648586 6.49732699451013 0 0
24.1538119560225 14.4892956274767 -16.5959565287236 0 0
85.8748803026057 -4.84445727223084 -21.624407836633 0 0
76.2246753197359 14.7029364681937 -7.35008418347836 0 0
-11.5868400764908 5.2107985253317 5.40519142024419 0 0
-197.134367738749 16.8267822725232 10.9533723338672 0 0
-218.439001563184 -14.8722572825292 -21.6095747721196 0 0
107.438152097149 4.77407434261605 -22.3580667969098 0 0
-58.9586275615267 -3.7850799140161 -5.77758914579391 0 0
-186.784560127651 6.40446545290958 25.2292835993922 0 0
120.576978996505 -2.60042040604116 4.92836679334924 0 0
-14.0423279999974 -6.91740265803169 -13.8455639520495 0 0
-80.5657994456415 5.67812991175519 7.47650855119776 0 0
21.1097398111843 3.2585448537295 -22.8734031492666 0 0
-120.032619087124 11.6909507896995 -13.1229078468908 0 0
120.69369353057 7.59174223414002 7.06764308770819 0 0
-185.317434956159 30.5768404304865 22.7407063823156 0 0
-85.4660695139696 9.59393649572152 8.84292294479588 0 0
-217.096271133404 -3.07414149436992 -2.10331837828908 0 0
-109.058573635644 13.3146795144438 11.2471308059531 0 0
-50.4266263316884 7.80695702865202 -20.9991562208767 0 0
104.510472011997 -4.40068644270787 -21.5740063575945 0 0
115.438282968094 14.825439530206 3.30716756293935 0 0
-69.0840032957246 15.0543790024602 -16.6983505994037 0 0
62.8307130049629 11.5387471288197 -18.5928550473929 0 0
-92.2246661585485 11.8024862985257 -16.6227835647411 0 0
-210.427467579147 0.630427673253254 -11.1249767030083 0 0
-184.219838955546 32.3679843609809 -4.25539381383104 0 0
71.3289849751783 4.44023869891759 -22.4932436350726 0 0
71.7846381218707 -6.61881744577586 -1.51344827020683 0 0
-186.366631561403 39.8754545213989 8.71266586643298 0 0
-29.19625329346 -0.11323034301824 2.74610902488407 0 0
-132.120072468414 -1.07959287084764 9.63577189921094 0 0
-124.772271540514 22.3923188817395 -1.85385159623299 0 0
-238.077528182946 -37.7270314299104 1.79469108888424 0 0
-173.572361264495 -9.40037621725172 -4.21476377048125 0 0
-203.117239214426 -39.6235961614735 -9.59434994435988 0 0
-6.70133433125775 16.765259962087 -15.0276094406038 0 0
-80.8961750563096 8.81059364324949 -18.6354976316849 0 0
-39.9932014123653 -2.04616911384226 -0.866033844633276 0 0
-183.588388907521 3.67159514715725 23.8108243040823 0 0
-216.768793748507 -30.8248435361686 -24.432262673821 0 0
59.6193548252151 2.50842943949985 -22.7463552863584 0 0
73.4930765276214 -13.4533701508267 -10.1256475199911 0 0
19.0256183819573 -7.4992558927956 -9.13411777716439 0 0
-240.091043773638 -35.1131980204249 -0.459820262828747 0 0
73.3584634734158 14.4250450530823 -11.5022302952768 0 0
-208.709305940769 5.05485872646833 -9.02106263798575 0 0
-128.907592071151 14.6468001352769 -10.3828592937346 0 0
-214.640262415726 27.7883692210819 10.1207401767891 0 0
27.8382152455467 -5.14124511882201 -3.57127118861663 0 0
1.16902633969652 -7.90500201431129 -13.2026252863803 0 0
-206.584063055809 -44.8992787178421 -4.01655825008126 0 0
-144.352894798827 8.9800367365669 16.3467381835624 0 0
-183.535305945314 -2.09844584796033 17.805784734818 0 0
64.5672811321873 -8.00709736517995 -20.0967137342488 0 0
86.2529852991519 -14.0274106201185 -7.61243198020211 0 0
63.4137301415371 5.50005416469386 -22.2586731250688 0 0
-218.673708025289 -8.78782489283549 4.72341885502045 0 0
-54.9904500476942 -4.07566535703755 -11.11061585378 0 0
-211.050799317939 -25.6706484483991 -21.8133604287673 0 0
96.8163234100843 -13.9316777001465 -5.39257446200034 0 0
-236.207363414365 -11.6845402248481 -1.77376685035928 0 0
-206.899711302579 -15.2548541682029 12.1593232036047 0 0
-143.456933775173 24.3880071625121 1.17957586218784 0 0
-101.174021815546 0.570171866550227 7.21189233542213 0 0
-202.754786565862 -41.1342555185234 -1.70389210788055 0 0
108.132503187968 -1.1747019012204 4.83070425574724 0 0
-239.519561217989 -27.9865366227546 -12.5369321884011 0 0
-102.617298055594 20.080445834801 -7.8826752579898 0 0
-30.6163461974934 13.5613092342263 -19.3573154428055 0 0
-9.16109799342367 14.8761771087306 -5.19253456444697 0 0
-183.368336266149 4.78809017016754 25.2480775245841 0 0
-137.562434283551 10.4934261393613 15.4722534521723 0 0
-98.0787663058015 21.3464169603356 0.00356183281680598 0 0
-63.4071563203857 -3.51975610968861 -4.68664288178889 0 0
-181.893174050076 2.80352576335183 -9.10705599700136 0 0
-93.1070052713515 18.9336904781467 5.31920131136441 0 0
61.7420442023642 -9.22816809128978 -5.68436291666718 0 0
34.7568521183477 1.84562305992092 4.66564136742838 0 0
-217.662387756947 -48.6483159213319 -5.52676862923946 0 0
-213.050226878497 0.731778238770729 -3.77428491469591 0 0
107.140911801403 14.9618095671291 -10.9245933985555 0 0
-193.295474221541 -15.4754296981122 7.34475706051175 0 0
94.4762127316028 -13.678124234056 -5.51960216115285 0 0
-173.06614537463 -15.5570470796419 15.6741601897504 0 0
-9.60560516395172 9.31498955577979 1.17149808833645 0 0
-23.5957276135315 16.6386030670409 -16.4388647761574 0 0
-209.715296070881 5.74646492094823 -6.57606658470319 0 0
38.6173029066968 5.52967966221441 3.90206876208219 0 0
-17.8743889082687 -0.405169581303667 -21.6524288797382 0 0
-111.196125233296 20.206728151233 -7.03823422960035 0 0
-203.623299204095 17.6398005542316 15.0182427479193 0 0
-183.100274953617 1.11268335861085 19.9438620878521 0 0
-142.193273399909 -0.823104225746166 13.4584133674792 0 0
-2.6441638809143 -0.158467837992177 -22.1219211054835 0 0
14.1832142754292 14.3154169983086 -17.6151990897444 0 0
-202.324889286772 17.4717535024882 -11.5596419026433 0 0
104.344986408101 -5.491619091102 2.94857573086878 0 0
60.459760158935 12.233846411787 -17.7822293932619 0 0
-191.780497617056 8.86940124162488 25.4781141644171 0 0
-22.9153020636279 -1.43376186333039 0.195872137378207 0 0
-234.634962050838 -15.1733057449805 -14.3253800208022 0 0
-195.249501182303 10.2919966769044 18.1999832653462 0 0
98.5526835419434 15.3160556211745 -5.95095835739893 0 0
131.12919577481 9.19874476878681 7.69797025248465 0 0
114.453634864157 16.0352977473329 -1.23883307520944 0 0
-128.430865107535 11.6321367447595 14.1580784884375 0 0
115.972024155292 -12.0149824768925 0.241423204847626 0 0
-206.579341490511 -23.7793820356264 -17.3928605342832 0 0
70.0212640639371 12.0417526328299 -17.8541354112959 0 0
-164.032746137776 8.82542895607671 22.54151674073 0 0
114.525944647883 13.51341227144 4.90293553423413 0 0
-56.3191761579836 -0.441152440780764 3.2259913735367 0 0
11.9318602768607 -6.51455581153716 -8.04143688603696 0 0
-210.300435873656 -45.5228941638712 -11.1221272543767 0 0
14.0934235046747 12.209739161368 -19.7529994941018 0 0
-64.025060359139 -3.21991717815457 -12.3474647566728 0 0
39.711529131694 14.6335471689036 -7.95057884720823 0 0
-66.1120327209973 4.95223379063895 -20.0367737835683 0 0
-166.755192014369 2.56420364088662 -7.98669757213168 0 0
-199.752675429676 19.7975375962958 16.8696896516166 0 0
-225.955176306193 -11.2018658314226 7.32196173635278 0 0
20.0462661616671 -1.30498209065493 2.39973346913096 0 0
-113.450491423933 21.8903547163111 -2.09812154629619 0 0
-102.07485906487 5.7915579153469 9.2183731892882 0 0
-91.9234036801065 5.42612427565643 8.26114377461762 0 0
-106.083497473532 -2.01785829577724 3.8166354101433 0 0
-226.252841599579 -20.7945799760458 17.8395814504621 0 0
115.698887775264 16.2225382460309 -3.68751680705077 0 0
29.9090367000469 4.2127327458831 4.86262200102227 0 0
-155.169554067583 -6.91170591530177 7.89805579521177 0 0
-212.214448083325 22.2800036069322 -1.03578158731589 0 0
38.9246802776581 11.6285239735 -19.2707740520838 0 0
101.156125257339 5.53799759904433 6.42434726578454 0 0
-161.607939838417 27.3042002990025 1.22776638866153 0 0
-162.694149440944 -5.78074616871208 22.2456645282588 0 0
32.2709549819684 -0.388536664899547 3.58719207348205 0 0
-76.5282649205018 -3.33923968230007 -3.6303402085371 0 0
-71.461558630769 -3.36536446156363 -3.86913173763785 0 0
-56.4847041861677 11.0839483804917 -19.7472919894089 0 0
27.3154869952072 1.61399099930899 -22.824570101004 0 0
-38.793850872222 10.7400987011677 1.97764040021131 0 0
135.142089183813 -7.16989526423068 5.02098052984938 1 0
45.2374452854486 2.72735713733647 -22.7880161355365 0 0
-126.77667183356 3.14612493428726 11.3255557520584 0 0
-158.292224475795 1.17081449850938 -7.85092422227541 0 0
-94.3632368612 5.17490493824983 8.30685806665464 0 0
-133.773849683482 8.56759956930468 -11.7555940357685 0 0
-210.434949617537 -16.5440545484947 14.2565885437518 0 0
88.2924245190022 13.5883601784567 0.153647660584161 0 0
-75.1200625203763 2.61811893274608 6.51823476960825 0 0
-105.564801012413 0.356666231900175 -12.1633919151886 0 0
-33.1886894362964 13.153659908572 -19.6026058288663 0 0
56.6868683148458 14.5865257167058 -8.54429883541322 0 0
-66.451892812054 17.9865209026139 -0.968924389881876 0 0
-70.805527774671 16.0064788086761 2.86436827327733 0 0
32.7467636559128 15.13885385438 -12.507818600373 0 0
-156.441958350473 26.1117699988992 10.9865455635395 0 0
57.8232677046141 13.9685046128926 -14.2807328060045 0 0
-225.186163136521 -8.36043147329764 -14.5585574507617 0 0
-131.683224719033 0.564644908000501 10.8333849467423 0 0
119.838317988505 14.3593820475631 5.0362681217553 0 0
128.206540109683 -5.18584832573973 4.71158342599111 0 0
-227.293220172648 -5.90059574704892 -6.57361142215492 0 0
-35.2677157287826 17.6352482262584 -6.89246892702062 0 0
-223.775674045391 -16.5147042562652 15.3245104194037 0 0
-86.257978711223 0.813681759568893 -15.5646370041091 0 0
-100.321468783301 16.7739658419934 -12.7626417660636 0 0
-191.549549686835 -18.1440004380693 2.18941925571386 0 0
-118.973969851377 1.98831930485041 -11.6899859119078 0 0
-7.7580870664771 6.26114790365008 4.76087018727599 0 0
106.14884408932 -11.4856452933769 -1.43850709721548 0 0
-166.842453993492 -8.44956534713961 3.74450141530252 0 0
-240.355515114546 -20.8076363192645 3.70759726750085 0 0
-238.497924829997 -17.4425421989853 4.91574759780386 0 0
-133.228018842452 23.4191561491885 0.755130058035341 0 0
0.7032052426528 -7.25104392286324 -11.0895734241909 0 0
107.13032487127 15.4300504326907 -0.782474132084067 0 0
100.713677422231 -7.81023865867588 -20.3870844677022 0 0
-188.979534705368 39.5945727334096 6.30412429638457 0 0
66.807603017156 -1.08447948179876 -22.5146972919834 0 0
-6.9321294183399 14.7738820308539 -5.19654285087888 0 0
-225.335051499899 -43.4095513796012 -15.9907250934986 0 0
-12.7216573832984 2.14849297972317 -22.4272368961725 0 0
-32.1266951126199 18.6048189513022 -10.6377313395172 0 0
130.21486248626 -19.0280635123694 -5.47788258351507 0 0
-236.048907921909 -26.9605200139739 12.7479886117055 0 0
114.274181383648 -5.75590124091435 -20.9671910179466 0 0
-183.912894704405 35.8063132195892 17.1811354007083 0 0
-67.7447779821554 7.21679904796242 -19.9453135232131 0 0
30.6166399707235 -3.1383235783608 -21.9826619686853 0 0
-192.273060980324 -1.99090629389479 -9.41758647237728 0 0
-26.2076308165668 -4.9935394967925 -17.3060601230206 0 0
-183.286682505872 30.1867951954056 -4.87740392995133 0 0
-164.197099800195 28.9738421951193 9.21875351066899 0 0
-202.278062684995 -22.7272030062344 7.71800155180816 0 0
-188.37523839704 18.3923819341227 -7.82546966824651 0 0
98.201124065927 3.61140047806633 -22.587515941003 0 0
-220.909920681996 -46.402433427658 5.28120076295134 0 0
-139.252934111804 -4.83767608918242 0.585659991696862 0 0
-165.22353330417 -8.09731817882938 23.3779358888172 0 0
14.0206031610695 15.6518776276395 -9.00081651152424 0 0
-109.171973923468 -1.55364576017617 -9.00543055343729 0 0
-0.841628675576464 4.54727973240043 5.16766282361872 0 0
-190.720902158231 -15.1565596116284 6.99080201160117 0 0
-219.621932718984 -3.60175467129128 -4.71606192607262 0 0
-75.1326975738532 19.8311580186304 -10.2863832144411 0 0
79.8810557632552 14.4561117273966 -11.345834316428 0 0
-55.9946743780299 19.5102432506203 -8.9230164636014 0 0
-234.909338090074 -17.5502665575916 -15.92886282599 0 0
-219.247073878644 -16.9566635158349 -22.4601782374212 0 0
-32.7626844993403 10.8167704248855 -20.843799026187 0 0
-155.169664502426 9.54808602053174 19.2108597889405 0 0
-120.834676411875 -0.0451526066402282 -9.49566547051399 0 0
-201.46434724877 12.8130926258579 -12.4132268014409 0 0
16.0149876317132 12.6000151564428 -3.5523441193592 0 0
-160.312003359513 9.79535166292431 -7.96810362336908 0 0
-195.855288380703 8.76315851106493 15.0338650457183 0 0
-192.906342585759 39.6742774805071 8.71980696382795 0 0
-57.557989807789 19.1382936568845 -6.11999443657113 0 0
41.5419285070839 11.4506753708602 -19.3545987841408 0 0
117.14537817794 -2.40662153855992 -21.9711791100574 0 0
-209.771270752207 15.7567359686717 11.2059843816494 0 0
-1.87679896359313 -5.01908554726692 -19.6229120890022 0 0
-228.019480566455 -39.0752677535432 -18.4901358356406 0 0
-30.7140065793275 1.32111124218483 -21.6698466587941 0 0
-19.8857821982699 3.4778717080053 5.46889234735275 0 0
-213.934685124396 -21.5794768875094 -22.9871057808808 0 0
-27.1581204606829 -0.712807849769541 1.36049626405189 0 0
-137.298116715804 4.40345392957257 14.0233560182239 0 0
-200.343879939852 -30.6184852977988 -8.69556614545383 0 0
38.8965133771334 -9.11812833834102 -9.28730844300846 0 0
34.3728281372633 -10.0634892538211 -12.4974828946003 0 0
-219.227122252113 -3.90099942742341 -9.87608107190287 0 0
-240.027557824627 -29.9391017834593 6.1967936128707 0 0
-52.5045946204273 18.9743483348582 -7.22078696698994 0 0
24.9195726072663 4.59247731514572 4.5706566237161 0 0
-104.902853768872 -3.60627391909287 -2.42798677568003 0 0
-151.593840187961 4.68490051242886 17.4755387686999 0 0
-197.800526623983 27.5076958390202 -4.70465647404828 0 0
-200.345362303038 -25.5816843348027 0.942601735802488 0 0
-125.054663717358 -3.72651583549494 -2.79667934656476 0 0
-189.071583918735 7.81154201603742 26.3926225350469 0 0
53.1811355601491 10.1809158149396 -20.0690707008628 0 0
-85.958724239704 2.6804380452185 -17.1622447593451 0 0
-78.9358114661706 8.79534260818901 -18.8322030682166 0 0
-160.287010296316 17.5799420076968 20.4485823953097 0 0
-131.814534485017 22.7851039733331 -1.39890359808248 0 0
-201.216236016041 -38.1055286669238 1.82376589178823 0 0
-168.980329310119 30.7991629003133 5.43835699802123 0 0
-213.761482635021 -2.02654459566943 1.44340666401855 0 0
5.87869239628962 6.35500725810935 -22.4610719253881 0 0
-182.083379175802 31.9122320463117 20.8850770681582 0 0
-204.412159914711 3.51792700030207 8.00365612068736 0 0
70.1946571952572 -9.17475328067221 -19.4007339714576 0 0
21.5964959655559 -8.80731767836251 -11.6904409315337 0 0
-57.6176951044347 13.3915870791274 2.91327865471663 0 0
-225.961557656608 -5.83697247107331 -7.35520206908436 0 0
-173.067093914918 -7.26229495730351 22.3808023905072 0 0
-143.389151921329 24.1735336795541 9.86348667872102 0 0
-188.938472328528 34.5064116694726 -1.00585549590507 0 0
-199.96447987197 -28.4715752436107 -6.79842862454905 0 0
-144.295107651001 11.8463562507751 -9.39490286585254 0 0
-187.085176351858 4.79267621829818 21.7969807885305 0 0
-108.99859133097 -3.46993755531706 -0.253081634124033 0 0
-198.216475991428 -24.0469292772564 -3.25985839969482 0 0
-146.277957183096 -2.80776459028488 13.8096130722841 0 0
94.8073750209249 -3.96599002407574 -21.8537175547099 0 0
-69.1353521917461 -3.63250718110989 -5.53392019144225 0 0
-174.576997541671 11.7559469171511 26.8787540965168 0 0
-3.51233892537613 -3.59955525114376 -3.36705491729283 0 0
-47.7848946454321 -4.65550930731002 -10.7274016173385 0 0
-137.217318160278 -0.671707863527328 11.524600588488 0 0
-158.288332294366 -11.257985958127 16.7128659447972 0 0
-177.712542098534 23.0421865044956 25.5438586604341 0 0
-164.328440035448 27.2790588219378 14.4793718734674 0 0
-64.3105000628763 -3.83263816992669 -7.43856939929203 0 0
-48.5412582769526 8.1923114663935 5.61370282399108 0 0
105.967052459628 -16.180296737104 -6.6538978126976 0 0
-184.470997941649 6.97906215795424 27.1153087862402 0 0
27.5608214256451 -0.678055603448091 3.48222730632911 0 0
-48.3819896741732 -0.821241600416327 1.79311832996329 0 0
-67.9414123174268 -0.614525574697893 -16.7433819092694 0 0
52.4648985698314 13.4339647332336 -16.0430135750627 0 0
-203.977419928481 -23.1350649817372 -14.3660708615461 0 0
-48.113572836766 10.1398833553782 4.09987845403278 0 0
-2.40123747345694 -5.01843624548882 -6.25963305874838 0 0
-235.003010273741 -25.2208091911838 -18.7124286034358 0 0
-156.703454875748 -6.83308311558872 4.90507363177702 0 0
-197.599591997082 -5.35691190086616 -10.1442826109857 0 0
75.6217522547256 13.9538422460345 -13.5629784211131 0 0
-128.465837364201 5.22573426117726 -12.1127631328085 0 0
-199.893451174394 -14.6681617304016 -10.6198469220298 0 0
77.9524961883209 3.19452380487305 5.48202864420611 0 0
-119.893897092987 4.68565711535661 10.8562554809888 0 0
-60.7370324576083 4.28488742768489 6.23130324429192 0 0
121.264184137904 10.2714410741231 7.53000955437166 0 0
-10.0682349604225 6.23464046114185 4.76640264319867 0 0
79.7621462682205 -0.181846102888421 -22.728745121972 0 0
-172.08084950498 -10.1100715597519 0.308137916958569 0 0
-123.091707835214 19.7947809988156 -7.07351648458497 0 0
-109.763244370988 -0.484704616147369 6.32855656414062 0 0
-184.654578634456 24.6348674246854 -5.57672881362839 0 0
56.0006007515175 13.7781179873347 -14.9950529316904 0 0
104.573820625802 -1.62756448078326 -22.2902391303982 0 0
-111.131144810989 -3.61615828128353 -1.15592400533537 0 0
-221.72048973327 -35.1142029340193 -23.4591246090563 0 0
102.98222171218 7.94830985216363 6.73317685218552 0 0
55.4924096555836 -4.18416007972536 0.53233586251849 0 0
-215.435226885371 18.3320822671385 7.31311109639183 0 0
-209.327133239914 2.37331934327576 3.60635823477747 0 0
42.4785284254222 -10.8192389772789 -13.754617610964 0 0
-207.797054787317 -17.99681382296 -16.1998261152385 0 0
-160.957219371 -12.5130067314566 20.1189066008547 0 0
40.4337515190352 2.36252551081754 4.81085145451471 0 0
-203.601639650087 -28.7873487626326 7.95575739041098 0 0
72.9539614347457 -2.26230113034953 3.22102997013643 0 0
-74.6322544940685 -3.42223885538495 -8.6326180681399 0 0
-239.389291287921 -21.5199964049516 6.6919551793195 0 0
-241.85049004631 -23.8723513193322 -4.06696823348715 0 0
-148.505963457132 -2.93447724524099 -4.54741535340441 0 0
-227.289705352059 -23.488190802016 18.0439213352497 0 0
-9.94559212617232 17.3160785748391 -13.0512537752644 0 0
-194.916127365176 8.77056951432661 16.7153536604257 0 0
-218.029667839541 15.1279411248829 14.9525000588816 0 0
-201.518621706253 -4.85951122316865 -10.5243798603695 0 0
50.4614504991908 6.50180240324496 3.30793910509893 0 0
-203.806608146761 -25.1771160254362 -14.5269480079355 0 0
-156.362240890034 23.390961806108 15.2647286705681 0 0
78.1734463518808 -5.4936986334774 -21.3419720292684 0 0
-201.608305356559 -21.2132175636237 -11.7435106808593 0 0
-41.2229731867454 10.1152338254709 2.89413387611122 0 0
-184.13542205208 2.79996770213444 21.6890214338661 0 0
-94.9546283293996 16.6388455209841 -13.4373333014013 0 0
-13.9957036408191 7.56319259373673 3.4470692309441 0 0
-188.942959168032 -16.6942388784859 3.06386788006399 0 0
-21.3729133521744 1.97143055122038 -22.2002251823677 0 0
1.15507337259879 -3.26290776345654 -20.9655993856126 0 0
-176.314498115104 20.471722611201 -5.6583968444632 0 0
19.0019209401826 0.838019643720645 -22.7640182290574 0 0
-228.528299620705 -6.2089920871939 -7.51647838253356 0 0
28.6593565148094 -8.90853387298812 -17.6036388825742 0 0
-46.2795444399376 -4.56183255449541 -8.29481097833419 0 0
111.906909910045 15.1135502035024 1.83508503882653 0 0
-196.277451792458 29.6019164409654 -3.67335609601492 0 0
-32.4810762314788 -5.57596195502998 -11.2677478203231 0 0
-197.000468649599 18.7692853289363 28.7004911359723 0 0
-171.468385537352 -13.9231938341493 10.4276554174526 0 0
-198.112728407357 -13.7232657096602 -10.0907459375442 0 0
136.583603514208 13.2063081786343 8.42628933809359 1 0
-40.6309021700931 17.107394494001 -4.86080033068688 0 0
-181.706920975261 15.4610485297354 29.2919048624344 0 0
-151.760278517886 -6.02409209637454 6.62449212473209 0 0
-175.114902501151 1.094393260375 -9.36217408850244 0 0
67.2841783769344 -3.38049156880961 -22.0439264368508 0 0
73.8138334120174 -4.22738536143648 -21.7968793284795 0 0
-104.896670480658 3.17103179599837 8.51417984694278 0 0
-175.264488525056 -11.1282351827592 18.6679150641075 0 0
-166.593642869519 15.4826850442494 -6.56227503002742 0 0
135.025731539166 -17.5009265172935 0.655623261009154 1 0
-208.614891882904 -45.2432499989545 -9.28306354439511 0 0
-200.152410776339 -32.4453289279303 -8.85035307491837 0 0
-47.7814860426945 8.86812661353277 -20.9277259513419 0 0
-190.946332109651 3.1017400636919 -9.87317462007671 0 0
-15.950144715307 3.67846270732551 5.49219353792032 0 0
-194.467285997749 1.28997168612422 -9.97917495622063 0 0
-101.59900539244 6.19742252920426 -16.3580265044967 0 0
-227.151639180462 -7.98767868028631 2.47260315475525 0 0
-177.105236837911 8.62393791339798 27.1002660642829 0 0
-77.749996876817 -0.955880637632524 3.66383696835969 0 0
48.2306853943007 -11.3494901514082 -13.5953171190086 0 0
-138.514599772279 -4.29357797716947 6.63347922491621 0 0
-159.756176838737 3.60726156788456 -8.41211832073027 0 0
-83.5898474472167 -0.59898262703301 -14.2351896310609 0 0
-168.279521994795 4.02397040707479 23.6365629922279 0 0
-115.379924179552 16.0817387196336 10.4709202908005 0 0
-201.513866878129 -30.7654269465105 -0.3288711160274 0 0
44.4208383347547 10.7843867843021 -19.8446843814372 0 0
-184.163652016571 -10.3931631244138 -7.16924093134127 0 0
130.096637069379 16.3606649271552 -10.5242227087986 0 0
-176.919985361925 -5.1921024291204 -11.3908525171778 0 0
94.1424136329344 -7.57460214333255 0.114539433183733 0 0
104.54197379567 4.62389350583493 -22.409529777119 0 0
-201.476580447747 -31.9117364511806 0.288032267159274 0 0
-204.422525497354 16.8134865966686 26.8857947579956 0 0
103.283466256685 14.1289510833402 -13.5535752267268 0 0
70.1122145024269 14.6385455775608 -9.23651553571083 0 0
79.0824871283955 9.28138741629024 3.22964397463472 0 0
-213.158849428538 -11.7470637090243 10.7794364886588 0 0
-204.150662745466 33.7436807640038 -0.636209427479847 0 0
-182.136645532786 36.2527064877915 15.9784426142891 0 0
-205.260507261932 30.9709218265576 20.9099251239181 0 0
-234.216291789713 -25.9127872002785 14.3791065634044 0 0
-135.789646601306 4.77615083672788 13.7346364206163 0 0
136.762601876673 16.2525823848197 -12.9080583364594 1 0
-66.8082570049037 14.5306002161198 -17.2106077038514 0 0
-185.59511857419 4.86657185449924 -10.0940578880805 0 0
-132.774202084431 23.8321357569518 7.34970768622953 0 0
107.384106386028 13.0355336983847 -16.1583582771452 0 0
-202.481597840451 -26.0042434658275 -12.9713642587817 0 0
-96.8776857526732 -2.90851355771162 -7.33722030618546 0 0
92.5462615899452 -15.1278504672537 -8.03633464246854 0 0
-145.963324772885 -5.30927246862969 1.26089709795103 0 0
-181.196094814499 10.3596376110644 -7.90939566142204 0 0
93.0516855895281 -5.64764471383218 1.67105113992228 0 0
-204.026992374138 -39.8772723987729 -11.1935930218875 0 0
-64.946473887829 -1.31630135573506 2.27411564700988 0 0
-111.228879215251 9.66225227772414 11.3501401364856 0 0
-214.779346031711 -2.34884111298484 -0.108076474620317 0 0
-216.018232832503 25.3596840938862 6.90223277960103 0 0
-211.259406677051 18.1791280039435 3.01974882662518 0 0
-215.06773219406 -14.9370926241742 -20.3610680454147 0 0
32.5389321044371 -0.967865230189286 -22.5625310725482 0 0
-201.715163729559 19.2020980911888 16.5211672644935 0 0
-172.528760007926 -9.92875198460943 21.8359339755566 0 0
-47.3856897476652 -0.723858781362709 -19.4607905282848 0 0
-224.65417065221 -43.9574384006681 -6.64192788355618 0 0
-180.780899625572 -11.3984652998462 11.5769516879895 0 0
-212.00862056101 -2.6165779661704 -11.9553758131579 0 0
-13.4826089744131 10.7472311426633 -21.0478334621011 0 0
33.0668865055046 14.6409581783871 -15.1816203217802 0 0
-192.13199965615 -11.1135944996147 -9.54638086091597 0 0
-11.2845894156922 0.509327195956936 -22.1427743086143 0 0
103.927803082102 15.5137184416787 -4.61460647737689 0 0
-189.597003754239 23.7139757739968 28.0316277587054 0 0
-212.353293155652 -4.31263544713085 4.76398361384343 0 0
134.603261178523 4.43069315431987 7.00244345585658 1 0
82.9827554689943 -11.1389950469448 -18.3064399391003 0 0
-159.116557122553 13.000113336186 -7.41605099837178 0 0
-241.036558227705 -25.2872522172434 4.19849241308783 0 0
-153.902601967853 24.7015631742163 -1.50648970013168 0 0
102.626772916122 2.64577649110814 5.60606877005688 0 0
-215.652730225174 -1.90191849430587 -2.00329395399975 0 0
77.5622479819391 11.7123827005154 -18.1085864643092 0 0
106.707944281546 -8.79692428730475 -19.8944929043006 0 0
62.8272200917939 -2.92456832320004 2.47850481684405 0 0
60.1772052023539 -10.717284162477 -8.05317145313773 0 0
118.886944587866 -7.3807164982081 -20.305402801323 0 0
-224.407713320926 -7.82693790607909 1.78974155955328 0 0
-236.490767985432 -17.3912908897214 -13.8016209718021 0 0
-210.952717545885 13.8386868196398 16.3643144289528 0 0
-212.906651716704 14.7206423915307 25.3807190322424 0 0
-113.105616730128 -3.63585509828929 -2.86676270069654 0 0
-226.614529353803 -42.2320942406018 -16.4925664408237 0 0
-185.662034885729 2.80313638024547 -9.2053767738273 0 0
6.22006410024484 -8.29563218165095 -15.5129148382408 0 0
-208.35335739624 -36.0033000039716 -19.3019997432011 0 0
-23.6566574914686 3.08353015253111 -22.2538254879925 0 0
59.1413680053259 3.29452417741792 5.07017180929946 0 0
-198.241714769195 -20.3853370932522 5.36831475337 0 0
-212.534570592922 27.3686631656305 18.9985010055533 0 0
-207.155863767863 32.0570012490098 15.9395419977082 0 0
-131.220698751084 -3.25814701188519 6.94252172798474 0 0
-196.237444497155 14.4225772561848 -11.6067656741542 0 0
-201.437465372674 -29.4124491104313 -0.622824751789743 0 0
87.6168267280217 14.9313673545957 -6.71451567759609 0 0
-164.947521003036 -5.60561641521111 -5.37191666338454 0 0
-65.7317870438284 -1.6003108774097 -15.7840192090576 0 0
-206.890395559914 -9.69453172115471 11.1779275642833 0 0
-204.513943809699 -10.1441887850148 11.6221148618746 0 0
-230.171303565758 -26.7112026078296 17.0444404772453 0 0
-187.660165184437 25.5497003824118 26.8879462291645 0 0
-149.137071021056 -5.50428327973764 0.899330213596194 0 0
-209.604702640539 -24.9125659355064 -20.0636417851242 0 0
121.265354773079 16.5179246031785 -0.122469447447904 0 0
-226.015255555716 -25.4721854431156 -23.9531605928476 0 0
87.8409805911012 -10.0475270173569 -19.1270224415182 0 0
131.133611051501 8.50862478679818 -21.3004896487499 0 0
74.0098849902314 7.09573096477005 -21.6678909427615 0 0
-89.3605359766705 -3.43706340873528 -2.71191634049248 0 0
-138.481640565567 1.10009777307736 13.2896331187699 0 0
-114.257996630893 -1.81813494616511 -7.87104392601876 0 0
-135.542329161177 -1.82830306249021 9.90243266822892 0 0
-100.402692300404 9.59331162018893 10.154362691076 0 0
33.1189904454577 8.35479718046941 -21.5522554424978 0 0
-46.9903843718396 -1.37898516113367 0.792682248373914 0 0
91.5137568819763 -13.5866643426822 -5.94452494415744 0 0
-191.715135568408 0.316839907946071 14.8359263738975 0 0
-125.172490151613 18.9056034504451 -7.97402176569244 0 0
-180.661529176268 -7.41261973445266 15.6970178503399 0 0
-152.652570335177 9.37527513935983 -8.96029401580471 0 0
-208.425590500606 11.9416539627213 1.81448663175524 0 0
-113.462485695521 17.3762102044304 9.85460179937387 0 0
120.659215274653 -13.6669821769055 -16.811979350595 0 0
46.6889796984505 -6.99291150941832 -4.51796777646314 0 0
-199.356742518363 -25.5395851602415 -7.17115636281013 0 0
-159.248110215203 -7.78958556245449 7.13632113270868 0 0
-121.488209799893 6.99191556130001 11.8529113729581 0 0
-4.86365905614866 17.0656987187992 -12.9666865525278 0 0
-179.832223258045 38.6603958867358 4.48510624603884 0 0
80.9447788753708 -6.78963844490552 -20.8313402068289 0 0
-208.845636423134 8.60758605291245 -5.15450677618338 0 0
-72.3164888108772 7.7609163373281 -19.5480437419694 0 0
-94.2433375031413 2.57068272663573 -15.9705547058524 0 0
-220.095860291728 -3.53566652915283 -6.7378400643004 0 0
136.310491816371 18.3278979081702 -3.23221202566217 1 0
-136.651096010986 14.9580047290958 14.7473628802966 0 0
-173.442571628242 19.8587568218539 24.8268585788012 0 0
-212.442564965298 0.464773759463702 -10.35026915722 0 0
71.2156056930765 12.4295719991145 -0.56506510845283 0 0
-221.609770331186 -43.227394434962 12.5611395859483 0 0
-160.527917314943 25.5851479781722 14.5434067991051 0 0
85.5024001889094 14.0512818135813 -13.1096603716143 0 0
-144.406631645937 14.7366486835528 16.8200143999536 0 0
23.3387945858242 -1.68524025555549 2.02729662518254 0 0
-219.116011302216 18.9183351696378 16.544724427941 0 0
-125.979413977825 16.9650950974828 11.8238962971614 0 0
-178.779445404612 -5.10455567061748 19.2415865043514 0 0
22.3567167860667 -2.52970998311816 0.188776081028374 0 0
-173.457877039026 33.4012954551389 9.01667422317931 0 0
70.4395569987829 -1.63116907103318 3.57211702544157 0 0
-225.240582427999 -39.149497971842 -20.1698176295361 0 0
-221.704959727569 -10.3025397631612 -17.6030415750521 0 0
-184.297657112638 0.401534174142465 -9.63086867628563 0 0
-186.149074353307 16.4341485042066 -8.11688301239667 0 0
-113.571322994518 -2.70698955569324 3.43163983506449 0 0
95.3519813172708 -15.3426754203581 -7.63565080382735 0 0
129.245238355969 -17.119203893679 -13.3806194090476 0 0
-227.770274835319 -12.1710016117971 10.1807487000302 0 0
-182.402439901393 -11.5319749642943 -4.17605327618308 0 0
-55.7712844657126 -1.61183395664659 0.832365055859169 0 0
-208.781449927692 -0.699192690369688 -11.4143846909175 0 0
-28.4142532307401 -4.81364372879458 -7.61380893969856 0 0
-204.90227567323 28.0969048756889 24.4681984980449 0 0
127.891944972987 11.6121796907611 -18.9084299180569 0 0
-209.011013295788 -41.5428280674292 -15.7600012378189 0 0
-78.1339730255161 14.3853441356541 -16.5234474373306 0 0
-34.439264520894 -5.02943723934413 -15.1277382729029 0 0
113.893319558193 7.22751503502567 6.84248927972762 0 0
-233.547694218786 -41.9572579814196 -7.69810853483755 0 0
-63.3268339107151 -0.653149649285646 -17.3657717630082 0 0
93.5215799063433 -15.2399129026501 -13.7697593696483 0 0
-111.53292233514 13.6843346192404 11.0146316620778 0 0
40.13005502257 -0.238244238191139 3.81996504646355 0 0
-142.833664190743 3.52661637779308 15.0040848462472 0 0
-180.607808346474 -13.0217866072456 0.282854149577506 0 0
-56.3815705825905 -2.83213147350087 -15.3246551433549 0 0
-183.018545901077 0.324783132585391 18.7856845651275 0 0
102.53744892335 0.0766641187555576 -22.5566497184236 0 0
11.769567934707 0.165765094107458 -22.5179215558823 0 0
-58.081970566295 5.54136054113946 -20.7050786226388 0 0
-10.5308438882458 5.18001522881351 -22.4872593074839 0 0
-152.222927234069 -4.30528979163846 -2.78558719431832 0 0
-216.759351577174 19.2921844402775 8.61599203338955 0 0
-157.031487486761 15.833280160177 -6.7471413467725 0 0
-173.308808725569 -2.80427548716984 23.370846750231 0 0
79.4696999944533 8.58705717536666 -20.8326697728116 0 0
-50.2513571315475 8.25241332074298 5.93346796386113 0 0
40.0755726879387 14.8943863250048 -10.0185441600676 0 0
-221.076846679186 -15.9828151597601 -21.9588522241991 0 0
-167.382535397629 -14.0475126549075 22.4871050006761 0 0
133.86746598197 0.801191951598393 6.34044224028272 1 0
-49.629745133207 -0.766545167977015 -19.1823800923558 0 0
-13.523014084418 8.53204646020518 -21.8548348468199 0 0
-190.776210127345 30.6543991796281 23.2810020643716 0 0
-86.2278575459666 12.6004579992711 -16.8829087817472 0 0
-128.17512159131 13.6370767020921 13.7471801055081 0 0
-167.005530224005 30.0015503898134 9.6709392359772 0 0
-216.542921152884 -16.6979155134402 15.3715811229618 0 0
86.1205167331238 -2.11575909143872 -22.3638970268908 0 0
-113.313579086454 11.8440213867078 -14.0952509225442 0 0
-233.773210937979 -21.2287229615083 -18.8181291212223 0 0
-142.609646651509 -3.93928069464045 9.4860388534163 0 0
-43.5831724168243 -0.147445113898299 3.01820240349433 0 0
66.2066676892793 -9.5817300755913 -19.1249903440536 0 0
132.216199395554 -18.3214720042475 -11.4770112295408 0 0
-204.39782610191 -35.5058187302247 10.8833269731558 0 0
-181.883312186121 0.109495428372842 20.3370875741328 0 0
-201.386122211902 -0.232486008610417 -9.94726663364641 0 0
-97.2929120863793 20.3828371396489 -7.17973048673545 0 0
-67.8933840930831 19.1345317217893 -2.94297878184455 0 0
117.684895900957 4.77383408447052 -22.3977172394633 0 0
126.493588049534 3.03602533732267 -22.437319227149 0 0
-211.17486543336 13.1967707774389 19.1997059416907 0 0
-28.9896299187754 5.37130478761675 -22.0625677319682 0 0
-165.794455138275 11.3291048882454 -7.43581574633084 0 0
-169.455290596307 -11.8105107369023 23.5761077631318 0 0
-123.662348912462 14.8313653099735 -11.0608113889026 0 0
-207.868775188731 -0.143629070292414 6.42317074834293 0 0
-180.119061715101 26.9084730262002 -4.42868860418981 0 0
133.289115640342 -3.63112094421615 -21.1865359967081 1 0
-171.108428312668 14.8307727991962 -6.73174374331658 0 0
-69.6964371416053 -3.69787283315746 -7.69830818498623 0 0
-151.240307649765 24.4926265992232 -1.14542530278545 0 0
-43.0806544569058 19.0688011691816 -11.8261341546038 0 0
82.7649686928144 -14.7675206499742 -11.380318400482 0 0
-153.907854022565 4.10367918812876 18.1555848899233 0 0
-195.959492734396 -17.436131561517 -8.33842916778289 0 0
-236.755222215296 -16.9249353382886 7.91072357111228 0 0
49.0378595160856 -0.547420270372985 -22.6080667656208 0 0
-196.460799977751 10.1733562976582 -11.7846469337142 0 0
-182.791117876421 5.71010897087783 -9.02343529131338 0 0
-212.473403283847 20.616016926146 0.046365781299096 0 0
-50.8132757839781 14.2861441068385 0.624276275504177 0 0
-156.707112644228 -4.81834206503174 -2.48738466966716 0 0
-3.79488628396109 2.18436498592016 4.5430153212522 0 0
127.479203689068 1.68287456248218 6.11756675712014 0 0
-109.088217679035 10.5603462516201 11.2506042638297 0 0
-57.6958726303558 -0.290396043672223 3.58972630271979 0 0
88.011381185854 10.2539534976756 3.59490634216178 0 0
-81.2571840107799 -1.1437796430303 -13.7255759117272 0 0
-15.2603487120256 9.01504999604146 1.85644328274588 0 0
-223.875652395739 -35.4148846724547 -22.9793606427586 0 0
-215.591491681406 14.1765232699762 15.3735178335113 0 0
-196.348574153072 39.198975397759 4.86563049551381 0 0
-194.391284405144 28.8310756940703 -4.87447436335758 0 0
-178.424969067332 -11.4315452060954 12.8843422651603 0 0
-142.562279143265 -5.06552922128828 1.34912984019608 0 0
18.0228517752188 3.36172694245917 -22.889459266098 0 0
-227.730324101298 -18.8286953099102 16.4878378929809 0 0
36.3991168868205 -8.00189995795368 -7.55758471468797 0 0
-34.8139344825848 0.834631890357308 3.94896635931898 0 0
-240.621604830583 -24.6636927911367 -9.9781957011193 0 0
-233.53606522373 -18.7062990340641 -17.9501989729814 0 0
62.5159884399762 -6.85535353526123 -20.7138875493665 0 0
94.2793462233252 4.76622026329385 6.20439584483926 0 0
-139.589481024923 17.6205337926324 14.2603069083709 0 0
-209.540766074778 7.40034781472352 -0.485038475169479 0 0
-208.348362724976 7.78738799403716 -7.553958956329 0 0
-113.747521473872 -3.3401391797028 1.40348451459914 0 0
-215.133093225297 -47.4612371866612 -10.1384283801782 0 0
-112.081838572389 9.76931418632104 -14.835736953274 0 0
-92.4381695302233 0.324586393512268 5.88237137945845 0 0
47.8422278341932 -10.8786269230033 -16.1797888737748 0 0
-225.266425242598 -45.4753907617097 6.94404242208276 0 0
-230.478091251067 -8.12415480033627 3.18103859470471 0 0
81.2155178506614 -9.31417242510362 -19.4476418336412 0 0
21.5697434954641 11.5157877233711 -2.33472534630163 0 0
-225.977794170621 -6.79738152012858 -1.5880749277568 0 0
-225.443680693646 -36.6936295621998 16.5698778344743 0 0
-226.877479829127 -44.1500214689998 -9.60453562311143 0 0
-228.214929563855 -44.6627264497899 4.31019386357255 0 0
-219.05159237563 -25.9535240898496 -24.8920294607666 0 0
135.375611978248 -13.6871753087867 -17.0340837016539 1 0
-156.673485690417 -9.40926908417356 16.0823750823633 0 0
66.7301990366755 -12.5142276270755 -9.71145190212399 0 0
60.1969582277402 14.001685485413 -4.76406372074192 0 0
-196.693595522588 0.294043136907722 -9.99923777665798 0 0
-206.952844456269 -33.5035267809091 -18.265787585408 0 0
-112.856048645599 15.3382363087652 10.2679263454207 0 0
-159.610811623368 26.7360246041577 11.833645509269 0 0
-82.9784315754245 8.31089409912207 -18.5237532165954 0 0
-85.9328080395135 7.10952239518892 8.07002049918744 0 0
-204.997278039384 13.5489780445701 -11.1188212739785 0 0
-214.846663273098 -48.267945536687 -0.817379992900433 0 0
-205.060416258611 -29.9815133120531 11.6853195106137 0 0
