"x" "y" "z" "f" "a"
-220.292791145081 -29.4384206178177 -13.7269347068573 0 0
37.9755025614272 -7.2011467923733 -11.9004804542397 0 0
10.6562432154416 9.53835051169113 -3.8370885847947 0 0
-187.114423192269 -10.8466792687501 -14.127224544469 0 0
-116.127305220248 -4.49908784243193 9.00026563803373 0 0
-185.021501489045 0.496090730961619 -8.95420158299413 0 0
-165.251546697089 5.40493169308062 30.5302329335742 0 0
76.7664880422192 17.9410680385868 -6.90784925684875 0 0
-96.5073949079695 -2.8404907244254 4.18741482886931 0 0
-207.036756073999 -40.9160076670686 -8.73215147764301 0 0
-124.700605231514 -5.60803198482619 4.82148606844093 0 0
56.0411928411082 -5.57234503290515 -4.78042040736704 0 0
84.3386178319185 19.2257166460234 -13.9769626963057 0 0
74.6819771082857 -10.3977892497235 -9.8799733854743 0 0
64.0928319072217 6.80900894354236 1.53579303945913 0 0
-7.54282424482005 -1.07345686163637 2.79025436302505 0 0
-171.576018928392 -3.03131963853889 27.9763993035242 0 0
-97.3539860870557 -1.76988627836576 -0.443435453162939 0 0
-73.9073158877447 -1.6624274114103 4.97620595932109 0 0
55.0570660856034 7.58260288945301 -28.2223642091975 0 0
36.7764997721189 9.11502285506119 -2.27512109028057 0 0
-65.0154591439449 2.50874689015446 6.9783098540323 0 0
-194.374975929225 22.5502003041376 11.8709464287573 0 0
-36.1961676073411 4.26188940462637 2.34531309300914 0 0
-213.613285467372 -26.0814443952505 -24.8049772877165 0 0
44.3753629017628 3.41244828872494 1.8791727134443 0 0
-177.940328248673 4.03018555623568 -7.06141733521862 0 0
-175.900333887795 -2.03385025841526 -7.55011379053774 0 0
-78.1347903056577 20.4876759421325 -0.599598349351431 0 0
-171.612411357122 4.91872949586807 32.7668853842121 0 0
18.2006373922743 -2.69330837267649 0.729400051651702 0 0
38.4426210212524 4.30503253598209 -28.8782070471136 0 0
-204.482916687375 -8.3571246602139 -24.2879951544713 0 0
-123.747016623355 12.1428268907502 -9.0680911024673 0 0
49.3679130850378 -2.01994777585395 -28.1378050646013 0 0
-181.700698887775 -18.0856376699328 -9.50718384406107 0 0
-201.714002282373 -15.2331051698906 -28.1815917165828 0 0
102.307050008285 18.5784744016945 -3.31037622994904 0 0
-64.3663111993357 10.9572157457052 2.15815882776786 0 0
-95.4914829569714 15.3973106727961 9.57580055087269 0 0
83.3777004608815 -8.57637728727772 -3.7410909897799 0 0
-207.786945484398 -42.3218799735062 -6.44189890762632 0 0
-139.676767994351 4.10544916994133 -7.20361507183167 0 0
-188.637281424226 3.43311955181131 30.6396575020856 0 0
-49.9830397247766 -0.39823919443814 -10.1830493966512 0 0
-208.532299275903 -2.61039664794339 -10.3839587433805 0 0
-90.7287354282454 21.6385063134356 -3.69520695776135 0 0
-94.2748500373972 -2.29341609107011 6.4788833446063 0 0
-169.009431702053 6.26054630740366 31.942662940883 0 0
-153.278810172856 17.6821828028266 2.44705342413472 0 0
112.991343913651 6.84793875799788 -24.3474826644258 0 0
-129.338529167997 16.4164799040458 -4.08143822725729 0 0
90.239796700978 15.3368029644444 -22.4926693027807 0 0
-200.149431243062 16.6537572524774 2.45340478482516 0 0
87.1788717428329 4.77998013561613 4.18039420444976 0 0
-216.396478985964 -21.366083853259 -22.7896433476395 0 0
31.1380184037476 -7.65569509140695 -20.7243906458284 0 0
-184.741663114864 26.6431717368138 15.2450007455884 0 0
-179.333357304401 -6.88104784236543 -8.82963898070006 0 0
-218.715093353218 -9.63504251477226 -8.78589327454984 0 0
-121.105079106701 18.2666406154675 -4.0887412041355 0 0
-158.91103607657 -19.135022856502 18.2963923171102 0 0
0.0793266916832765 19.6322281074477 -18.9856014735635 0 0
-52.6263579849149 2.98864586593516 -22.6043312048736 0 0
-153.812789650378 7.61168429450872 -4.43327418164773 0 0
3.04468197747534 11.5800517258465 -26.4798714109456 0 0
103.557942374048 19.0365405339307 -16.4324130344903 0 0
-137.746796193967 13.572849210162 20.6653417720449 0 0
30.5405411249042 19.353962977359 -14.1427694336 0 0
79.4327877395269 14.666573024995 -1.10234500790384 0 0
-19.7502569226534 14.9951398875829 -5.93780131257733 0 0
6.45422078271995 20.3692795893058 -14.7027483433447 0 0
-31.1500420164446 17.2615123836877 -6.0238847316588 0 0
-89.0143084430562 19.2782302732657 3.96424079207981 0 0
-125.777999119639 -6.32738961331002 6.72424290198156 0 0
-135.65429671766 11.4288946137984 -6.17191195797272 0 0
-21.3646476969086 -2.53635182059745 -10.6174894732991 0 0
-184.143238785758 -0.520385691724191 29.4530008171116 0 0
38.2456392366401 13.84688504049 -5.04806670575419 0 0
-125.525407632847 -0.135513230060334 -7.11152985214617 0 0
-35.0050298107874 -1.97895713998298 1.9315358142958 0 0
89.9753077571752 18.4100329833897 -5.67193069361805 0 0
-186.560867227796 26.4260796623873 15.9095277529265 0 0
-45.8501306911892 6.05150241482868 -24.8137800701073 0 0
-30.815218180419 -1.5035238985919 -7.64678424185122 0 0
-199.892300431967 4.72757596721144 3.51074875394494 0 0
-190.07813570292 -19.0222310359464 -24.6099234163541 0 0
-50.6698212625913 -2.15431735078808 0.539983413815734 0 0
-33.9051898397478 13.8399597957151 -4.12260007197421 0 0
-157.771874078043 7.64808393257926 -4.09760621239602 0 0
-203.102632604992 15.0065937101379 3.44116444600343 0 0
-62.7376787681851 -0.706866318871074 -3.36007298955653 0 0
-10.3100172566256 -1.16632048561804 2.81926204474196 0 0
-177.637723958213 4.25747486737661 33.5766301307517 0 0
-190.607833784617 -6.31109481143901 -14.6883485150777 0 0
-158.967756615079 12.0699039362844 27.4591747681413 0 0
77.579335658084 -0.361439741266933 1.32482877451948 0 0
80.849609756841 4.88620621424985 3.74097189241155 0 0
-201.395916782957 -15.4738120950429 9.43220770929142 0 0
-59.0547836614674 17.4186437949162 -1.59793848601192 0 0
119.982220770722 12.5608052085012 -22.5270670771192 1 0
70.4652055665312 17.3665042711796 -19.9602480631976 0 0
12.5974712084158 19.4538947215227 -11.7105524361756 0 0
-21.1629969466119 15.2378035190493 -23.8895181719418 0 0
84.8622576955741 -5.67976052123651 -25.6555057408125 0 0
-179.828210453396 -7.39523140487362 15.6428544395216 0 0
-200.027309518396 5.30835323343327 14.5404097264637 0 0
-198.118775453449 -7.0088674716883 4.87476682780847 0 0
-173.459448757669 20.1445887047817 27.0773905237132 0 0
70.8839896203808 1.69347813170702 1.89958484366917 0 0
-140.95353764511 8.91382697792268 -6.08430234163201 0 0
-31.8776657684533 -1.43505969106377 -20.4856567024226 0 0
-154.122800237034 -11.0232968814787 4.19902235774927 0 0
-79.1354062688633 -1.31723300764264 -0.34506476267091 0 0
94.9327176354738 19.4868852666776 -13.7863211695671 0 0
-87.5279907648821 14.5596733896659 7.6258747465813 0 0
-27.9679741293986 16.5081728773925 -22.8137395584197 0 0
-151.043797415049 -6.35229658444417 -0.0143323333957382 0 0
-126.477292800955 16.6150274820074 15.2872493067618 0 0
-56.4935838681046 20.9921541466079 -16.4830099553114 0 0
-214.965590359673 -5.764525341759 -12.0825171840351 0 0
-105.200500700013 16.6993488028778 11.1831334860306 0 0
14.6273593282585 -6.20241653349109 -16.98410764788 0 0
-126.870590744881 3.60373450886617 -9.22627979499106 0 0
-188.218019625404 -37.01268707425 -10.4283823678959 0 0
88.7405290177112 16.5091557267891 -1.85112884220595 0 0
83.3504213219969 -10.1530254904033 -6.12973074391701 0 0
-44.1346152787765 -1.05710857282699 -17.9515577798245 0 0
23.5280604573592 6.6539393446168 -1.57474037246836 0 0
-204.042516411296 -3.36419546283355 -9.4070394635155 0 0
-186.50324926607 13.1875069345955 30.9897309181406 0 0
-193.408074905223 -0.0104019500438294 24.023313992303 0 0
90.5858353402337 16.8967659748033 -20.5433304998774 0 0
-32.6638839230488 -1.87741375012587 -13.8649510570248 0 0
-104.639560391851 -1.93389693160119 -1.96152826647915 0 0
-114.825776328654 7.93300079137293 16.7394042939867 0 0
-59.4577932720098 3.69695113164333 -22.0466661703226 0 0
72.6211546332246 -5.71029294245829 -2.58875642180521 0 0
-161.004519836641 19.8787391626591 6.03364016793822 0 0
16.8413938076885 2.33908675779124 2.17342820342615 0 0
114.455231328328 -3.47610228094843 4.37367528785452 0 0
-136.173602133083 15.606521517947 -3.10007281166785 0 0
-201.472663719994 19.4595877311476 9.1927853606024 0 0
-36.6837954041953 21.8592986205595 -14.6284003577466 0 0
-206.585954300936 -37.960123416676 -19.9803125027474 0 0
95.729432904443 5.23894467511205 -26.4549966612147 0 0
22.1081774771871 -3.45149851276156 -1.49824883709155 0 0
-127.847689237478 -3.83352167373464 14.4586755853237 0 0
-71.6151816176263 -1.96374928499925 4.01501283150421 0 0
-26.7320559674412 14.5029501689208 -5.13536086299547 0 0
-40.624305093183 11.2061098021095 -1.89075870391982 0 0
48.333553623569 -4.44493149837012 -3.56848811959428 0 0
34.1902188513572 5.95867104294896 -28.6759413612157 0 0
-137.747435623102 9.40970638498191 -6.61812234142464 0 0
-197.547785200934 7.12830978281161 -2.54411802225161 0 0
-181.152860874223 27.2901992201652 16.1248195756013 0 2
-25.5718530890259 -2.66808267144511 -1.56489655148301 0 0
-154.38940041661 -7.26583727526805 22.9904673035486 0 0
116.422960011563 2.18822817262233 -23.774488781003 0 0
96.7194920675348 -13.2742927966752 -8.35044695911549 0 0
4.87931263622653 19.5149182506877 -18.7865293767775 0 0
93.2049318989398 -12.2761534949056 -7.05600816098271 0 0
-199.754615620103 8.37698816946127 0.569669453227845 0 0
-38.106222981217 10.3895680254279 -25.3901136608248 0 0
-118.211808120031 -4.26893390207323 2.96688617691534 0 0
-12.7000495173311 19.0129313814311 -9.0211978604475 0 0
-90.6668524431673 4.84127022031806 11.2850133893407 0 0
85.6232749667896 6.6796346159619 4.52287805471561 0 0
-149.426968383073 12.6986046504613 -2.33051615793531 0 0
112.39872004852 13.5537529380534 7.83773120627087 0 0
5.3132775546029 0.969550633677556 2.98379556304832 0 0
11.4931160753045 -2.93454605189206 0.697040356865289 0 0
-207.11536279645 -2.78968453202021 -14.7225500017244 0 0
-0.237328710470366 20.6553873004987 -13.8353956400278 0 0
64.0109965428101 -9.49477459469609 -21.0300062132305 0 0
92.3322668451916 5.44158794818546 4.70939617666941 0 0
93.3862979000848 18.855952048029 -6.28109860500518 0 0
-186.787248014457 13.3519804417852 -7.07624420922589 0 0
-149.230893311968 17.674833843457 17.8242131829961 0 0
-167.584517919325 22.7670420790271 10.4190037143138 0 0
-208.033394786451 -37.3525407827374 -15.7753232747553 0 0
-79.2149781529577 18.7207261274657 -16.517782644892 0 0
94.5927102447895 -13.3159428494172 -11.2781018925324 0 0
-109.766178520774 -3.60472144036386 2.74761853718377 0 0
-208.510711040895 -15.1069857824586 8.99394713742468 0 0
-56.8184104647574 -1.99876701818157 0.775603478731121 0 0
-123.046551937802 2.07857002156132 17.6350030342344 0 0
-203.091497345958 -2.92456284538961 -12.6929672234434 0 0
15.2542032636532 18.6590220595946 -10.348798831309 0 0
96.5690977465652 -13.604373216086 -11.8600395592802 0 0
-35.2893199333011 0.809288615224778 -23.354254415723 0 0
-53.9443676324116 21.9601962067282 -7.9405510750042 0 0
-176.865569181247 12.7603054689198 32.6990069389413 0 0
-96.6107668688359 20.4518027903429 3.74827916944691 0 0
-168.825116474725 23.4633448531052 14.5191649898465 0 0
-185.759127492403 -7.78473776592087 -11.7309741184782 0 0
-206.468026426441 -7.51081353803073 -1.68433392120761 0 0
-205.007809892721 -6.78860789867862 -2.125183201347 0 0
-189.813361155265 -11.5647014242424 -19.985754781473 0 0
-151.267622043259 -14.5556147127243 20.3930625650155 0 0
-187.940763875842 -26.7869398012188 0.0612401170843146 0 0
106.142095404187 15.0663249643472 4.46168592357527 0 0
-78.5756380092889 21.8040832484571 -9.63490332426455 0 0
-52.2937786761384 12.9857698878851 -23.3417638271265 0 0
16.9408366727101 17.6366399852184 -9.08927479487139 0 0
-18.4794940213994 -1.70007744306683 2.3665494359401 0 0
-92.9968655148765 -1.37253462814733 -1.33832110401066 0 0
-52.5501464062067 1.84696247418888 5.49153955455975 0 0
-166.813805443252 13.8039441206638 28.8610955425703 0 0
-133.609498177643 19.8778060807207 11.0479802249821 0 0
-192.239227486555 6.79345000731848 16.0476000762812 0 0
71.6123595731087 6.62455769415951 2.56573614012328 0 0
-184.17548629916 -1.8488286462624 19.6409753203086 0 0
18.3156553034181 1.02440520917987 -28.3674714181703 0 0
-206.013704761818 -6.92971452290569 -22.6309043692141 0 0
92.7519886148244 6.38654370574405 -26.630850604789 0 0
-14.7570522839215 -3.63785997093055 -16.8725007981628 0 0
-191.806357005512 21.6706745556689 8.28624260198366 0 0
-201.071268343503 9.9253739961895 27.0057770070829 0 0
77.689839492372 1.33859032602656 -27.8741691987089 0 0
6.13010276602793 -4.41824309744934 -11.6247873952371 0 0
-194.22755742754 -5.42774498986004 8.67116841562294 0 0
-186.823975016239 24.2040869036224 22.296967909875 0 0
-135.554784949506 12.452521541411 21.0978118141442 0 0
-203.153139874847 -34.4395063116229 -25.2361085666862 0 0
98.9747781271005 10.3861874592875 6.22263085218757 0 0
45.2774210144145 9.56812148294916 -1.93179040349181 0 0
106.046285542458 8.18030010281411 -25.0579576712186 0 0
-23.6994875757179 10.2234583815161 -3.15009694244504 0 0
-205.741883876666 -31.8375302143011 -26.4201040814514 0 0
122.294700241673 0.346072384481925 6.62716241867286 1 0
-115.091685808208 19.9425977549355 -2.10101532000894 0 0
-211.656945492172 -36.3600299172441 -18.0598894341382 0 0
-199.51720108379 -41.9481774087149 -15.2123406509811 0 0
108.65463089528 -8.91884020226614 -22.3821924841003 0 0
64.9101684808868 -2.76317446394559 -0.218384626789269 0 0
-98.7175526174804 13.3769000279896 11.8639088645802 0 0
-36.0949905104789 18.286216316961 -6.11572102686533 0 0
-179.915288327588 13.9134566063742 31.9108614023729 0 0
-176.63754492905 21.0124889738884 4.45471537035708 0 0
51.2324795477744 18.7986978344194 -12.2264216728526 0 0
-82.9117508866177 21.7570037273636 -3.33811869848963 0 0
-216.361816098214 -11.5986818515023 2.48519510730562 0 0
74.268240787581 1.44997367563491 1.99233054020401 0 0
-42.3914918789162 16.2424001872255 -22.3816687755037 0 0
-1.14073592149078 -4.83620313136001 -20.47194871398 0 0
-158.296865110311 12.7270049672329 -1.64976828226888 0 0
116.151902062615 19.1759648974907 -0.893948145093093 0 0
-100.601593598731 18.7840202517492 -10.7395145152076 0 0
121.448326354814 16.4199852285729 -20.1474645255483 1 0
-50.6660461631225 -0.69362965231487 -12.2903232625418 0 0
-214.012794939269 -14.1973853968678 -23.1094161538181 0 0
-194.21805728257 4.6341997524666 20.061490464825 0 0
-191.898742204769 -27.2007671925899 -25.9133829063958 0 0
100.87166634488 -13.0510463758918 -16.7798583900211 0 0
-167.308192838851 -1.40227760818139 28.4997887930509 0 0
-169.2534887308 -3.10428372581609 27.6191778376156 0 0
110.94713074782 13.5098750484799 -22.9197694371952 0 0
-171.787837760695 18.7251443816166 3.29765057069299 0 0
-107.326290407522 16.5170338059006 11.9464812138896 0 0
66.3065905870053 18.6493891373643 -10.63773259146 0 0
100.775952290124 -12.3249262958328 -18.4652932591686 0 0
-131.827689200172 3.0626644601108 20.6758073016106 0 0
-189.481494855864 16.815913284394 -4.11659271247837 0 0
-187.695968107576 11.6993651635699 -8.46854854123623 0 0
-158.853216013468 -21.3385814653388 13.2847426785503 0 0
-53.5990175786457 7.75602166344266 1.70693018166469 0 0
84.8255491850405 2.8163849630037 3.11956335535518 0 0
-186.14236881532 25.7357185627275 13.7427826569703 0 0
-4.57006294032682 20.8091878993875 -13.4883546431476 0 0
-73.7038866179763 19.74074270095 -16.3435549155673 0 0
-80.134937257216 16.3336747521073 -18.244687910781 0 0
-197.056786408736 -19.71106240134 -28.3160203249977 0 0
-192.781355196946 6.5799856884878 13.9916678901425 0 0
-204.768141763762 -32.3877407416629 9.59968201289064 0 0
-191.580057112277 -37.7161387960735 2.22578200504269 0 0
-149.265906316826 4.94342169714301 -5.77181275909258 0 0
20.5511227403032 16.0300776520139 -23.2468771454334 0 0
-190.344327495097 -29.3628165983495 6.25615529514812 0 0
-117.358379327188 15.9286170103728 14.7527366704523 0 0
45.2924838809551 12.4489123098702 -26.2167338750893 0 0
100.97437953435 13.0991532736278 -23.7835312676657 0 0
-211.358290547787 -39.256064839672 -1.70966486286611 0 0
46.2669675424376 2.20065304091932 2.31208382209995 0 0
-110.500955571706 7.84830587644774 15.5057833194728 0 0
-178.818853212564 14.9792817847188 31.2893615612517 0 0
-178.26404266547 -1.88371874779823 -8.02008308405834 0 0
123.472465526716 -11.4583551573724 3.43439971093615 1 0
29.9310932939282 -7.74318822438826 -18.5062978649164 0 0
12.9797074587977 19.951845337493 -13.8079599268248 0 0
-14.2520347627697 17.7585984417197 -22.0028352549346 0 0
-90.8774867562944 19.5863430975373 3.9294122348659 0 0
-95.3304371535997 21.371955238811 -4.72638541252997 0 0
118.626039810764 19.8932541067271 -2.81159741768332 1 0
-23.8492122226596 21.2679205098414 -16.585604749938 0 0
37.3177973461667 -4.29619668676095 -3.85060483888628 0 0
44.4465268185892 18.2521285629573 -10.3447852814532 0 0
-210.42892862663 -21.4280294927461 -27.1548593563017 0 0
120.225469732785 3.50473325509944 7.39647149931956 1 0
-157.487893150488 -21.4045349128196 9.06419446541858 0 0
-47.2320797231849 3.23073061043975 4.27851196050969 0 0
-210.575052337674 -5.9802402181902 -3.66832689018759 0 0
-127.732967397478 8.97199744089322 20.3989186663305 0 0
37.1909677779508 19.2181523928869 -14.6499214380261 0 0
-179.374894481547 24.2085150218635 7.4653099303782 0 0
-194.287424626479 -10.3150414372251 9.57872427440829 0 0
-141.255105082776 -11.8169731378545 12.9914618062654 0 0
-25.9788535688626 0.309315637624136 3.60149651670138 0 0
-180.168674892785 -20.8715002039988 -4.31099668782671 0 0
-135.968607686193 10.7247431911405 22.1402095332587 0 0
65.6785022443126 -8.14004219179527 -23.8721340696293 0 0
-125.083346659898 11.8512289769109 18.991509653443 0 0
-190.66596578109 -16.8621862179849 -24.7479450012049 0 0
66.2585080589393 -10.3326868744365 -17.9098367795795 0 0
-198.981651929667 15.4273089715365 -0.210425043009757 0 0
49.0480551813642 3.34567743255669 -28.8731152942452 0 0
-17.8226843192791 20.086195825318 -19.0616827723951 0 0
-194.414849904182 6.40134560036223 15.5396160738971 0 0
-32.6079046195193 8.26600810195603 -26.2563113266156 0 0
114.978854578964 -16.3142058633843 -3.28452664501423 0 0
-189.113822798492 23.6901627431848 21.07197352071 0 0
-197.79179189834 20.3735382087564 19.3021516112567 0 0
-212.637309848376 -37.7839545083619 -0.306042377543991 0 0
-186.122875296476 -27.6091026430137 -5.46212361801904 0 0
45.9374344552632 14.3029310184998 -24.7512981696321 0 0
0.499991920422769 13.1107578131122 -25.6214332591007 0 0
76.6642206226015 -7.53334077724706 -24.6410290414873 0 0
-197.627279696714 0.992127256608794 5.70142866502555 0 0
110.658009756612 2.01585744262904 5.58259549297205 0 0
-26.4164609838671 11.4229796815468 -3.54890041385662 0 0
-98.2727849149403 19.5461081495136 -10.1057124336759 0 0
-218.462311908044 -14.2814983319095 1.76422660894299 0 0
-1.03103905516592 -4.52918244943057 -13.7286557993217 0 0
-143.5811392223 -3.87209139285856 -2.27364571510289 0 0
-14.6346680207552 2.9372400526726 2.2720908630681 0 0
84.5900612343968 18.7031408930516 -16.5155237550376 0 0
-93.7106712396868 7.17074543619874 -17.3408196346702 0 0
-2.54812086154916 -4.71651978086348 -15.562666071089 0 0
79.4552181653448 -5.91607770451227 -25.7917729945098 0 0
80.0070629185824 -5.96060420799032 -1.76304526674312 0 0
-94.2053930052605 -1.21035328432657 -5.66969155359517 0 0
-105.618532086833 20.6023631427772 -4.00192819107303 0 0
-199.58484903466 9.75271826555682 28.0242574965127 0 0
-11.1481992189761 -0.715327768459755 -25.3750121714239 0 0
-215.89158992933 -13.3466083723163 -20.7977987129025 0 0
91.3416780164043 12.3975707382682 3.3229299127514 0 0
-17.5589308320698 18.6057399125266 -21.0807262153608 0 0
72.4847381536772 16.1630503053042 -21.8562043049921 0 0
-125.245564078069 19.7468443068476 1.45747185756736 0 0
-132.438790534357 -7.70025591230901 8.75673422876591 0 0
-210.642472076039 -8.40841482449779 -0.152072765808452 0 0
83.6466627374479 -8.87706841586203 -23.158386522534 0 0
117.357126485583 -17.4941855507915 -9.09005756226681 0 0
109.639935616401 20.2576016577749 -9.7996049973001 0 0
-188.442691986005 -25.5983772010103 2.89261868198505 0 0
-149.41381817293 -4.0456052777145 22.4848229450265 0 0
-189.976437950401 -32.840160957572 5.27042108851755 0 0
-37.5380315884674 8.0210851141785 -0.704571800527334 0 0
86.4313482515242 18.9516802696731 -15.6949427254909 0 0
-19.0549519075328 -2.33513648355515 -7.45630035945017 0 0
-120.258400083063 -4.43341992334325 10.7396611322129 0 0
-204.008559894349 18.1040567764966 16.9349792271192 0 0
4.52477031465742 20.3963296851379 -13.7563578338782 0 0
48.8407357795849 -8.93946761312259 -19.9227195464844 0 0
-145.610163086551 -19.0092505346679 13.1383835862543 0 0
-191.405742316516 10.9149226107822 -7.96416694291729 0 0
-175.005368568747 4.94797288282227 33.5273738650023 0 0
82.5810946320465 17.4957013718738 -4.89860514532786 0 0
-172.202502973305 11.0638843798451 32.471380341769 0 0
-86.9436598168776 5.63657587099978 -18.2763102130424 0 0
-100.630027303127 3.12604268168639 12.9168001219238 0 0
-106.66880458279 -3.01685115482604 1.84234588201281 0 0
-187.784149520006 -19.5953585939127 -19.2465670251065 0 0
-188.650650307604 -10.8060802634692 -15.9617848794357 0 0
-184.199708959036 18.3061209217369 28.4237883641071 0 0
111.928540311223 -5.44245781043706 3.42820240608591 0 0
-41.8625440189747 0.684848062533641 -22.1950134233112 0 0
-88.5212057768738 21.3619808113186 -0.614982636422686 0 0
78.2331047618679 18.4822197592184 -8.29214172778133 0 0
23.785113985951 3.20411173539638 1.39097424292769 0 0
80.641945455956 -11.2406604877676 -10.4026512535408 0 0
-25.1896818697317 -2.64187417390933 -17.7043254726373 0 0
-191.035987856593 24.3840042153608 14.6731385105732 0 0
-116.179415361373 -2.62316073429179 11.7793121038831 0 0
-202.103642663274 -3.15257319721035 -10.4789744757681 0 0
122.317094936667 10.508279363722 9.60468169360334 1 0
-169.261910678797 14.5064165719602 -0.90972782508487 0 0
-73.7042150355397 -2.03868604110307 3.36814140646183 0 0
-153.845992105358 -4.64289260138593 -2.43472848748419 0 0
-23.8385840198421 -1.97334122575703 -4.47358620450494 0 0
-93.8229022615696 20.4964971208227 2.99151341584628 0 0
-214.088586433153 -17.8532133905771 7.97076586387118 0 0
-190.455183569297 -21.6970895158613 -25.0271406877266 0 0
-178.516083427534 21.8668245708534 25.6908679479507 0 0
-93.7320524305441 15.743351318796 -15.6535649118836 0 0
-2.96772409315476 -4.29897053116841 -21.8086949445387 0 0
30.927988786471 -6.76755409883361 -23.2471491903761 0 0
49.8871553044729 -9.13997494563102 -16.1605332321286 0 0
-209.805812792505 -10.1443273200098 -23.480040495035 0 0
-121.458448122318 -2.13238871440552 -4.8339036676649 0 0
-182.822349198298 -1.61098596726066 28.626371773106 0 0
88.3602590923179 -11.6823245223934 -18.1300293795821 0 0
-189.602013770986 22.9326668058113 10.6377644415515 0 0
-199.780648577721 -29.5057944864257 11.2482587135931 0 0
-129.397080187403 -1.34428765085991 16.9361767865092 0 0
-107.018492038781 9.08844413873763 14.7754295552891 0 0
-170.65371698447 12.1932298569902 31.645196089536 0 0
-185.515303145719 -27.5696381606478 -7.06149390054747 0 0
-131.227109248144 -5.58125990093441 14.216647129178 0 0
-145.483274041395 3.31395098100464 26.0734646495555 0 0
-55.9250794196384 13.7414760146524 -0.467988645287132 0 0
-132.384675857771 6.10381735685776 22.0131156663262 0 0
95.970236920489 -13.4227969008663 -9.98752562942843 0 0
-163.85712692282 -5.44524121042217 -4.00332088791163 0 0
-192.37887495604 14.0666369641124 30.1929123723899 0 0
-173.690501986609 25.7795253795961 14.1655473164076 0 0
-131.014750566531 11.384197100968 20.5997882933422 0 0
-123.78742661113 3.80246840892107 18.998371341452 0 0
-21.8489674178682 -2.10285338033302 -6.2564314510134 0 0
-55.1354006170227 2.62204489834315 -21.9289652030322 0 0
-181.060446893465 26.8065345588601 13.4693366447387 0 0
-187.540504436126 -15.0002466110795 -16.3926741869646 0 0
30.6024631626583 5.6361040256845 -0.527410351425077 0 0
-39.9534971000583 -0.988049479404861 -10.5035604846713 0 0
-153.352563812956 17.8075000630025 18.7822367380639 0 0
-180.314221446219 5.68915572678963 -7.12784627126135 0 0
-19.9506364285824 -2.98265554199152 -0.618854486241839 0 0
-97.7416365513619 13.6727811183939 -15.6495639573748 0 0
-69.2790113564946 -0.775561048026114 -3.15718369410702 0 0
-166.129686019882 -5.59580086842171 25.2989502115816 0 0
63.9732281054514 -5.9978291746002 -4.22445871456589 0 0
-156.997985143792 -19.2041753548956 19.7707949392875 0 0
-153.848823578594 -6.34247086790748 -0.630673461085524 0 0
60.2171618392825 11.990616429689 -26.2526754658498 0 0
-24.7874882020827 -1.98143551810475 -7.70096194006556 0 0
-131.385985670461 18.2801618845848 13.8401489528981 0 0
72.8996001088789 -10.0848268717686 -9.55011730491001 0 0
47.1298093908914 -8.15751256807455 -22.3907741962416 0 0
84.4499466636367 -2.49275931802219 1.13328641515248 0 0
-11.2413290582616 -2.55865470667325 -5.57231268718985 0 0
-161.720363083187 -15.979535418872 5.92513848186474 0 0
-209.846279926355 -30.0075854605774 9.1026899307465 0 0
-83.5932249242177 10.3700471784641 -19.6251709234218 0 0
-136.743226506561 -6.35234027169324 16.4038467101187 0 0
10.7435347850356 20.1305675839082 -14.802714175322 0 0
-205.151313368224 -34.2660283333632 8.26648061793836 0 0
-217.827886618316 -32.8040977039698 -14.7961401405517 0 0
-96.7862636153957 -1.8356561848327 8.06078356955193 0 0
-172.450169491903 -2.84550190125047 -6.81810682239434 0 0
85.0807506701312 -4.25703888426371 0.480049050611368 0 0
72.0344138458073 -0.537970639838581 -27.9550360913902 0 0
53.4837929221138 -9.05740031097521 -20.6815103791031 0 0
67.1851102953202 -5.83682339302352 -3.53951849994938 0 0
-2.68397303242226 -2.98030596713998 -4.57596742045339 0 0
-11.699665516528 -3.14753966027753 0.708342500403592 0 0
-143.909455832862 1.20979383422875 23.8943963070883 0 0
49.3490434416853 13.234969195984 -3.74583813800824 0 0
-217.083439134647 -34.4949007285143 -2.37935886123757 0 0
-94.0530685226259 9.23606991721257 -17.4572348633825 0 0
-76.4327077835728 -0.855482623656987 -2.86933352227115 0 0
-144.562601082873 -13.1528647852183 17.2673191756927 0 0
-47.9400264564922 -0.991517758189193 -16.8706797835127 0 0
-170.230374460932 -11.6842507705915 14.142948759997 0 0
53.6082102607138 1.54061156473269 -28.7954881144935 0 0
-136.326778482787 17.0676793418138 16.1869632641178 0 0
-132.369414040388 -0.476824214778638 -6.05102900762293 0 0
-77.7057863322422 -1.45608035862566 5.64867926718912 0 0
-175.05589741424 11.1969295215748 32.819273769898 0 0
-142.39231166839 -11.9655565447326 11.1431151962096 0 0
108.459276798458 -15.5858160600043 -9.02208049131344 0 0
-218.056568286027 -24.3592760434596 4.38096099474521 0 0
44.9212929210627 7.77157936723502 -28.2468207844223 0 0
-42.9353264157878 18.1813469045759 -20.9180920044956 0 0
-186.787706383717 -17.4839686452971 -15.6372724087011 0 0
-220.018580297916 -15.9643985475601 -16.1667417596547 0 0
-198.612317624355 -1.86888425173077 1.87756313157163 0 0
26.3021860762838 -3.4250178589551 -3.74903766931816 0 0
-77.9677651937633 -2.01651408703339 3.28061617068974 0 0
-217.445999715548 -35.0123198477889 -7.97927242267854 0 0
-193.245344187068 17.7521186690254 -2.17145591296239 0 0
-45.9039729373567 -0.749362294599692 -11.8521335686774 0 0
-60.8685524482889 20.530030268586 -16.8911303506218 0 0
-205.62749313651 -10.3475714083459 0.983219092182687 0 0
-112.399253233292 -0.983709572037304 -7.52884905117029 0 0
60.9894726467209 3.45497311930037 2.58919010532779 0 0
-34.878870900362 21.9512189388214 -13.0729271127349 0 0
73.8428436995801 18.9968991635571 -11.809043199163 0 0
-196.413463203902 7.60425497277697 -4.08051745040866 0 0
-165.204256005284 7.18405414162278 -4.14443390408666 0 0
-194.257246879253 10.2440537485328 -6.39529957455455 0 0
-88.2122326993461 1.84016015702139 9.75758906978184 0 0
-56.7368695490416 15.5929529893889 -1.03830006479069 0 0
-178.977409606532 26.890931210869 12.5732469513146 0 0
-84.3256211567235 3.40997350594209 -17.5582582901521 0 0
-78.1233211338677 -0.757909309850233 -9.41054892652293 0 0
-173.150138670569 -4.9578792125581 23.3827281049313 0 0
-200.179017128541 -35.6662085494227 7.76941909094775 0 0
-128.596016559021 -6.20596473111437 11.5331829814048 0 0
28.3676347222939 9.23616894981827 -27.7788395569786 0 0
-160.689972738513 -8.41591604127858 -0.520591709332 0 0
-91.1854087188428 -0.267256500233112 -11.7606603583611 0 0
-175.887021338864 -5.89219216344544 19.9552943155572 0 0
-70.4522103350796 8.50211818013288 5.15273103563966 0 0
80.6164695977105 3.40365635366878 -27.7131768792907 0 0
-184.72891898522 20.682670998043 2.04319101416527 0 0
-205.677052676673 9.38165103451436 22.9289653885571 0 0
47.6096283960467 13.3330682736795 -3.9860085731333 0 0
19.9672811074333 -3.37063593290612 -26.4234071756242 0 0
-183.381586640959 25.8206064406861 12.4747175774458 0 0
97.2859065539442 -9.68128320088926 -1.61277984177139 0 0
-197.371128840709 -9.31059769953655 -24.4155713818442 0 0
-102.762367591747 -1.07839704963407 10.0715081641376 0 0
-39.6478259595149 12.7581883783863 -24.4054538507485 0 0
82.7359648875461 18.8937583237836 -15.7578084495574 0 0
-60.222945146297 -1.98744112849076 3.39307811341622 0 0
-207.106924171958 -12.8227541148281 5.63016615274045 0 0
68.5991516852582 -0.43261267729218 0.843571533974872 0 0
-190.792956728025 23.8081209370466 18.6805573722568 0 0
68.5549540393415 3.05018644076641 2.61758357684686 0 0
-123.700585596047 7.86878298963756 19.32648241401 0 0
-188.566755677103 0.821997641057584 -9.73090816027182 0 0
-50.5187790130503 -0.913323089511286 -16.0958961660693 0 0
76.4613926627546 8.51198194945298 2.52383563055552 0 0
-71.8811992313971 16.3519569234847 -19.6103943708497 0 0
-205.128800222397 15.9663847395251 6.73872292528524 0 0
-150.53800201441 14.4976932392817 -1.04260786110583 0 0
-41.8986295314603 21.7628431360703 -15.3932627529175 0 0
-198.361103050064 -37.9704596007753 -21.7675631324101 0 0
60.5220876615163 -6.21570733501607 -5.04488352234223 0 0
-109.86864828366 1.69398566461607 13.7611121773016 0 0
73.0328118665954 17.6199750135989 -6.69438857655456 0 0
-193.763725583153 -41.8290906555343 -5.62597675378404 0 0
-17.4291332685605 12.9359026309636 -5.09413930419152 0 0
18.5020727211033 -5.11272997447083 -10.806536283046 0 0
26.29621677398 10.5942027677873 -27.1847537732488 0 0
-32.1291133428462 21.8885602647911 -13.7488761461074 0 0
-130.409136354202 -1.64954425307403 -5.07383907602234 0 0
-73.2771091149486 5.68441718605064 7.44769702665931 0 0
-109.815244103422 -1.83455072716623 -5.15424897210424 0 0
-94.8260716138282 6.28506096995398 11.7036513847893 0 0
79.998275388173 18.8460416501928 -15.7963157552384 0 0
-188.572305825103 -31.5460406267606 -0.831359737752757 0 0
41.6310909320546 -5.19032478340989 -6.07734654514256 0 0
-192.245456115398 21.5980606637426 23.259234001963 0 0
-207.085758765317 -5.39641887486544 -5.33120926454948 0 0
91.1206483664607 14.1431718735686 1.76890326947464 0 0
-14.2372809812358 -2.40651847826931 -6.17667839220647 0 0
-222.176281544809 -18.0067471052657 -9.16619681610153 0 0
96.6592471595606 9.56353575595753 -25.647681313243 0 0
-71.2408896733381 -0.637045708959962 -11.0668187043604 0 0
-133.340797103699 20.3055769688666 9.15234567110646 0 0
-137.351824857853 20.1945810854482 9.75312396169018 0 0
-35.0456603983179 -1.70935347825904 -14.228087573191 0 0
-85.94866660552 13.2088545501107 7.76520888573192 0 0
-139.877307233622 13.5035878094457 21.2099627800947 0 0
75.8049795049929 -11.0473543221482 -17.2097603134404 0 0
-144.974984697333 -16.0926971679623 17.0116217760338 0 0
84.6306742122928 17.0511511063456 -20.3218577955031 0 0
-29.9181731879883 -0.0247956932401294 3.59787561434327 0 0
74.1399917636582 -9.65873688037497 -21.5482289790387 0 0
-42.6267067508999 6.42218701867142 1.1878153546495 0 0
18.223060852892 -3.61992002049529 -4.58121180897096 0 0
-189.518277037176 -30.6775641790821 2.8911833553932 0 0
-185.174674154924 -4.61352010133977 -10.6516754577898 0 0
-168.990801382576 23.6497961336774 12.8731667697898 0 0
-209.386224683295 -41.5922409524466 -5.67766753702093 0 0
-103.701422529967 -3.44765057208995 6.40026464747174 0 0
-55.5146360312359 7.2867356379232 2.40399847268564 0 0
-220.448073123837 -13.2809196108296 -11.1172950085307 0 0
-155.771087975089 2.28421330701933 -5.39825900998947 0 0
29.9839764693883 17.6038812457157 -20.8965702605848 0 0
-205.042261145696 -40.0579318162847 -14.0976023349755 0 0
62.5329750706792 -6.82788631761638 -5.55447048275262 0 0
-187.882500287677 -37.5278957536516 -5.93170647919513 0 0
-87.7760608199824 19.815072303336 -13.0221307882926 0 0
-183.159383516907 -8.6791559038351 12.792071469566 0 0
-74.9825308235236 6.83334634084703 7.16882855395766 0 0
-198.65516137583 1.54561924138886 -3.23600938914175 0 0
65.3589513410901 3.71316794911662 2.72588432724334 0 0
-218.403064219708 -9.56885863116819 -4.45049994427744 0 0
-20.4277393051329 -2.43024447291875 1.53000987902961 0 0
-140.503887876203 -7.23123804795073 2.66733408247407 0 0
-197.762402479798 -42.271575271497 -2.13858536968168 0 0
0.643543654615468 2.91651713697809 1.8092699990873 0 0
-212.78106976817 -14.4107335971312 7.5181371962418 0 0
86.1974095359486 -9.40092269183128 -4.05524361981662 0 0
-126.21947616341 9.92282553297361 19.8694802259502 0 0
-139.307018260989 -4.13748687815805 18.6908992951016 0 0
-119.650130230007 -2.74281647014613 12.6009308468545 0 0
-100.110892018031 9.62667654060897 -16.0031541774129 0 0
-121.715886379259 20.6192730654055 4.37145454092654 0 0
-60.6229265618815 17.2284664129781 -20.3813630890826 0 0
-194.892029418516 18.1303496429784 2.7296326661579 0 0
10.1041164616963 1.00802229020621 2.86097523589523 0 0
-56.7100160007898 -2.00322108501598 3.07586286540477 0 0
108.880610174652 -3.61265882855401 -24.2389633585643 0 0
-158.483182056242 -7.05571248864003 -1.10422435773615 0 0
-160.762997847846 18.5410874316603 20.4514012203104 0 0
-8.4508152136274 19.9238359972183 -10.5654337470166 0 0
-191.113096542429 12.6736994303072 -7.85375442633967 0 0
91.7684721656543 18.5935017240072 -5.79666919899174 0 0
91.6220243658138 17.7157864310848 -3.59710382758615 0 0
89.7043573087091 -12.4831919159444 -10.4038235718474 0 0
-157.278809337835 16.7147053584868 1.62204906370406 0 0
67.8215805435761 5.95722966022354 2.38781038671588 0 0
-35.4502343397202 11.0021712644566 -2.52657433758849 0 0
-129.984243203431 -6.06273470812355 12.7509214591844 0 0
-17.0267680288256 20.6648300112541 -11.2048562402984 0 0
108.739536256457 -14.5782836286253 -3.78988704119766 0 0
99.5277303500678 10.1419449043579 -25.2238337156542 0 0
4.5316081775035 3.87014473049461 0.690740608073726 0 0
-35.2781354542608 17.0652208887334 -22.1524501375008 0 0
-164.572020163396 -8.70655683211577 -2.12126374904769 0 0
-189.512425945233 -35.6023247663005 2.9830883232174 0 0
35.2644453829502 -4.34414054807117 -4.43764294625982 0 0
-93.5211753312229 13.6299330091068 -16.6811110501136 0 0
-186.404380750179 7.77931914939941 32.1123580160824 0 0
22.4430561047639 -4.01160171965379 -6.33288774487269 0 0
-141.996726975975 12.3467808682604 22.636793311819 0 0
110.091710145754 8.44230975429395 -24.5623361139884 0 0
-203.747289986075 11.4484921025252 3.69463580372858 0 0
55.3173303360775 0.287949661728369 1.19348683519081 0 0
-184.312226487758 -24.6156063472965 -4.29183326362542 0 0
-15.2998739022083 18.8509570119029 -8.69393595731807 0 0
-184.659764899556 -23.4960257258016 -11.8595123311905 0 0
-198.245418705948 -41.5073526645917 -0.184145485040095 0 0
-190.553388809347 4.94664767022993 30.9433272676829 0 0
53.7815226086469 17.089294738191 -7.57974382049641 0 0
-194.611375739155 -36.3273284243799 -21.9848866555599 0 0
20.1231014880345 9.62906670700555 -27.5860862138614 0 0
-150.149095950538 -12.7126303370223 6.95711048379862 0 0
-207.689888531073 -35.8897399710098 6.07796013030886 0 0
12.665477703519 11.5521023753308 -4.81677125843406 0 0
-194.834524269886 4.2513157434629 30.0060377527943 0 0
-184.261875199251 -22.2852022204116 1.61194153966932 0 0
-151.697881934753 1.02150595252626 25.7345871067 0 0
-30.146477700337 18.6264754506532 -20.9730874544383 0 0
-218.205763304561 -19.9748507081562 -20.6966284433703 0 0
-71.2453135000608 22.0231241398809 -6.27406616668025 0 0
-181.187081772523 25.8597737457549 11.2365158633104 0 0
78.9605736031083 -10.0022562143103 -21.174911500099 0 0
-192.672845667766 -25.0990518506413 -26.7608290734128 0 0
14.9779925154478 9.89570508891214 -3.90148928989559 0 0
-81.8286024595736 20.6238040316869 -12.9857768791863 0 0
-104.72543761547 -0.116406913022035 -9.91277563127256 0 0
-43.0021271258883 -0.331466807496724 -20.3259391005482 0 0
101.947075401966 19.8347531914806 -8.72911565688193 0 0
-142.18730229899 -8.25549091410953 3.75328891088084 0 0
25.1229072912983 -7.03268030446365 -21.3005295214206 0 0
68.2500719062381 2.93428930151432 -28.3896518132809 0 0
50.1788268749819 -8.51184572548741 -21.9394227594802 0 0
-206.465003207296 9.69374368126395 21.4506557536863 0 0
79.8032292974311 -9.21713997899442 -5.47382109447588 0 0
-180.496007084401 -14.1589612258774 9.01784120979079 0 0
-172.468712907767 25.0300574345205 15.2302371640235 0 0
15.8385251180263 3.37569114704905 -28.6068757161986 0 0
-167.39634034999 12.0847408256808 30.4304988828813 0 0
67.5692949512821 5.39184698818817 -28.2827818209039 0 0
-4.42461032048442 14.3233471191206 -6.20853920735185 0 0
-155.612329601277 4.11257615307302 -5.27282077191204 0 0
-172.721460804413 25.368430427977 12.6695196381029 0 0
-220.219770052014 -12.4340729137317 -9.915071372764 0 0
-152.963876816102 16.5890626861958 20.6568618861464 0 0
-99.3174099002893 18.0934529965442 8.10134291983245 0 0
-185.562515959895 11.0670305117437 -7.72759110244401 0 0
-99.4335168809239 -2.81019894493282 6.76818888287236 0 0
24.8589793406067 -7.0358999936871 -16.0823594348851 0 0
-192.68931806415 23.1356945580929 16.5218433140805 0 0
-61.5905363503015 12.833417965655 0.872258972960213 0 0
-194.302193769235 -10.4146676617334 -23.5390481720924 0 0
59.6464417666099 0.235746109176886 -28.5285493747788 0 0
-119.074958720907 -5.1927833023446 6.14264510041006 0 0
45.5796243179801 12.5184709385844 -3.60654772814134 0 0
-210.260505007738 -23.5818500124374 -27.2062538063981 0 0
-186.555333774115 -33.627388421081 -16.1742108842098 0 0
-156.770664023391 -15.3634569630139 6.65638268579699 0 0
-149.938368713189 -22.2632544079132 14.6610904716815 0 0
27.8790080905757 7.18697537487737 -28.421745388783 0 0
-187.113128033868 -21.1400108848775 -18.9450648995921 0 0
-188.401028861369 -1.34555989705984 -10.5291314850734 0 0
-219.156366485606 -31.7017026684995 -13.3678788063235 0 0
53.7221668948622 -5.522871809167 -5.04612451321494 0 0
-183.18557927195 16.732486228247 29.7353135979592 0 0
-26.3179316960612 -1.80660560795329 -4.77652890583162 0 0
0.0630425141681419 -5.05894280381001 -17.1985042330692 0 0
-95.1344281594721 17.3727581595119 -14.19022861376 0 0
-192.969831565655 1.50455737837058 -10.1853136297484 0 0
-191.302368257138 -27.0874090382586 7.95182227921176 0 0
115.867039212117 20.3269632819887 -6.42202260667901 0 0
-51.8881183617786 6.36447284386234 2.54171241296799 0 0
8.98013115775484 6.75652206602361 -2.09032176639266 0 0
103.325388438973 -2.30862434940072 3.2220038759839 0 0
-220.438232972719 -25.2167040655144 -16.8431865749949 0 0
-54.8882058722471 -0.776628861217535 -15.215593597707 0 0
93.7661510689437 -10.3741002772375 -3.22060662425669 0 0
-190.508195593652 -31.5864931498221 6.62570141148867 0 0
25.5896240556349 -4.68846516802584 -8.11794442499571 0 0
20.6590585163499 -3.63857242092396 -4.25006632565616 0 0
-198.540062726691 -18.0746036936631 -28.5539696990078 0 0
45.4950300687347 -4.02418536602265 -2.61680378858749 0 0
-170.575708508275 -8.24806028988717 19.7653817166483 0 0
-201.948974343408 -43.0608994189433 -4.49670060771292 0 0
-202.02437220845 -42.7575582794318 -11.6174349484199 0 0
-170.360649866304 -1.64874285248829 29.0226506003222 0 0
-138.113752119037 -9.65861899456887 10.9349074993367 0 0
-213.209161329744 -36.3932426001845 -14.4049609881245 0 0
-193.098173957702 18.1267093335255 -0.510268835019379 0 0
-39.1004254954801 -1.371751363591 -13.623108223518 0 0
28.8170333026475 18.6585524926936 -11.0250665250268 0 0
-184.068797366387 -3.1828362454002 16.5796668643367 0 0
123.010038259043 20.8504558796001 -10.5242014680343 1 0
-195.721536034347 9.98533205544259 30.3526248108962 0 0
73.2142253419652 6.21257245261152 2.92970431712155 0 0
92.8363937115748 -4.94931841931369 -25.475474689419 0 0
65.5121084972036 18.1896726012189 -18.2103605161246 0 0
-0.0132790024447524 0.502631740056456 3.09941013134347 0 0
-90.6226282850813 -2.12344757865967 1.53315041593585 0 0
-194.60315471798 16.3567248248241 -3.70006391861902 0 0
92.9876109683511 -7.11256647494199 -0.44325767658101 0 0
37.3729003741627 -8.21936082030473 -16.3926139409503 0 0
34.8614523144421 1.72107999371826 2.1133612773548 0 0
34.5565903060897 12.3846857340068 -26.2451386126534 0 0
15.2416259656529 12.3660480638154 -5.16046384283549 0 0
-119.051204171998 17.4291314384583 -6.13091727437414 0 0
98.4532812273269 -11.9624958263353 -3.85534450333579 0 0
77.639730348616 17.0893025340084 -4.95530045259858 0 0
114.26796606045 -10.2213217332908 1.87894057957364 0 0
-192.644629085168 -18.6278935509415 9.37707335645132 0 0
-218.589382549804 -21.8938340408871 3.91659638775963 0 0
-87.9776366038161 -0.875101764628859 7.6689514585091 0 0
-22.0840596895982 -2.21667346104514 -3.58768390537057 0 0
-165.358537490796 -3.01891782301637 27.0772055410812 0 0
116.877032635852 19.0149143203679 -16.8902269281054 0 0
-174.561986154766 -14.8353658991495 -4.9430682615952 0 0
29.1851145835788 0.810897712911475 2.26705784488897 0 0
85.0412639183026 -12.1647066347571 -13.245260852593 0 0
90.314129828341 13.1253963895322 -24.344117354453 0 0
-166.339207418075 3.66640928781188 -5.49662869479156 0 0
-166.071341485331 -4.92375137092063 -4.9132866366169 0 0
90.8124117886176 -12.0198064133722 -17.6339273285431 0 0
-123.995766540031 -1.94405437083161 14.7883155636656 0 0
-48.2034001811497 21.9899526754969 -9.83957809542809 0 0
10.1004398811799 -3.37845627275249 -4.93544497277168 0 0
-83.4172672495938 -0.320901389121995 -12.4782077954431 0 0
122.778767630569 3.25433884469869 -22.703216413448 1 0
-167.16709097953 7.77053192788536 31.1920425449259 0 0
-38.6867667144531 -1.8031999285136 -3.04213081907982 0 0
-206.925640732025 -29.7323935808125 -27.0729532098896 0 0
-51.4108348280001 -0.430443151433102 -18.2023555524039 0 0
-198.160377655097 5.71073889883465 -1.93550435276732 0 0
-131.551939998018 11.9394259353871 -7.00174609108667 0 0
64.9610537449364 -1.53042148820554 0.27674180719863 0 0
-210.209796348649 -33.6098583188651 -23.4134994395005 0 0
-206.191640846536 -42.9743524026867 -5.66128691904048 0 0
-63.8120169610856 5.30443654255695 5.78095613409147 0 0
82.1085734899818 16.4093472481497 -21.3629193722718 0 0
82.7135248647766 -0.810634862826147 -27.2874767942409 0 0
-53.0922505369037 19.4723849785913 -19.074670038722 0 0
-188.232538551157 20.0603160653032 1.74753406511122 0 0
104.957412963329 -13.9310178394868 -15.416412452044 0 0
-63.1295726675867 -1.29113930690193 -1.14160278563236 0 0
-196.138399313376 -27.6276903062852 -27.8297029572749 0 0
105.757873991154 17.0676493509189 0.894277468801439 0 0
-133.060519670159 1.43710104143723 -7.29844012265649 0 0
-153.514183801447 19.4799167375591 5.57830714587708 0 0
105.165413353692 17.9062296332789 -18.9089365209614 0 0
-176.971990282689 10.9610669579994 33.0315893096304 0 0
29.5363368469081 -5.39145105129934 -9.13661505397281 0 0
-73.5883748705151 -0.229637982731273 -14.3889111330862 0 0
-57.468366728406 5.78969266463179 4.1241396246505 0 0
-77.661794738073 2.88099472253989 -18.4002056089898 0 0
-74.4947169508032 10.2174942257082 -21.3136030934743 0 0
34.9164732361959 -7.14061797612825 -23.0369367213446 0 0
-144.524229606868 15.3137460435926 20.2781341413781 0 0
-76.3604771936036 1.49022202389125 8.08947446586117 0 0
-212.933686668079 -3.85103639362644 -9.50348365122093 0 0
-133.120235043392 -6.50345454133076 3.7284268882327 0 0
-52.7034562587794 10.1315114866955 -24.1647217710255 0 0
72.4197067170944 1.61332498014083 1.90953399883548 0 0
-89.985686784833 -1.69280002843186 6.89597925074763 0 0
-161.213009846985 19.8031812129072 17.9143215344121 0 0
4.72424984296946 18.5350630951419 -9.52080975295385 0 0
-162.442890832686 4.33047540109728 -5.09772790737463 0 0
-94.869941546051 2.86184950395525 -15.1471680554975 0 0
-203.253266780105 -3.51163939426149 -17.34726724471 0 0
-214.746182901586 -20.4574095763099 7.97759921959117 0 0
-202.575253375157 2.42677759702076 27.7044938632801 0 0
-61.1331944648737 -1.97378553421564 1.36512072832517 0 0
-192.492299373536 4.02340703462241 -8.95358917585925 0 0
-37.6715623346531 -2.36832697327239 1.21501230829764 0 0
-91.0363241229989 1.69996117369978 -14.8158985404191 0 0
-139.49346959224 -2.77340101575084 -3.56703772184091 0 0
-47.9618363368044 11.2126138898051 -24.3510635196751 0 0
-35.6344470067635 21.0212431952305 -17.3875635671114 0 0
-192.586853160276 7.77109449979731 -7.84204768113019 0 0
-46.4361567717925 19.9224754489711 -18.909626523712 0 0
110.199483239012 -4.63794838748015 3.4315263560787 0 0
-199.681956507112 -2.81605615389219 -2.26582946297238 0 0
-143.90969088475 -16.4659472518486 13.789930556504 0 0
120.622308803308 -8.38535393812374 3.90114740828313 1 0
-98.4198272137601 18.1520080466813 -12.3902958864261 0 0
-74.1023741966246 17.1811700705156 2.2329827287703 0 0
-128.309994517864 16.6705173870692 15.4306462490265 0 0
-157.206619710146 -13.144317125029 21.3098859805309 0 0
41.7225917407072 0.201132334015596 -28.6330811649406 0 0
-161.236405855951 -12.1270158043433 21.0940796025685 0 0
-183.668952709698 -22.215496615022 -9.72481758504687 0 0
-49.6730241616838 9.34647320191685 -24.6073320331331 0 0
11.5751021374661 -6.07707464317617 -19.0112512042542 0 0
-192.135532871209 15.4207579411664 29.5197165581025 0 0
-108.378979691448 -1.89697156667307 -4.64672520194289 0 0
-38.7998241723338 10.7008417143247 -1.99477842593062 0 0
28.409051981253 -2.71974285076634 -27.316039621681 0 0
-181.417280046524 16.8612526737096 29.82946802533 0 0
-116.592172388196 6.92709672576335 -12.0574970352743 0 0
28.8373165242271 16.5017492540266 -22.5373091337816 0 0
95.9624790556929 -0.170848509061376 -26.2745462346537 0 0
-93.0213394604363 -2.02867512884143 1.12896882454454 0 0
-75.9236452161606 22.015039043027 -8.845225898975 0 0
113.384308813178 -15.2918742704176 -2.27205847672205 0 0
-169.73981089317 22.7857656571906 18.259560472826 0 0
-100.359338561875 19.527167309523 6.36917506001092 0 0
-3.53603518669391 3.85917460180187 -27.7827603785557 0 0
-171.382319554285 -9.81446215392175 16.8847515253948 0 0
-158.734521453986 19.8011171726125 6.07782647909131 0 0
-174.85276642666 21.3082938384378 26.3150829892446 0 0
-72.5683344011561 1.3569857399873 7.5278538077131 0 0
-61.3061562677001 19.0388233798629 -18.7927943612004 0 0
-144.107296255243 -8.26592780971284 18.5767961555139 0 0
-178.298324005051 -7.10453333770507 16.9052695980851 0 0
-180.1189168232 25.1854759792707 9.3505220684434 0 0
120.544732667512 14.9127737643556 -21.3685791723701 1 0
-27.2335894834785 21.1267464133395 -10.9193686628137 0 0
-208.397890027462 -20.1738607546469 11.3507724341919 0 0
