"x" "y" "z" "f" "a"
-151.841671259544 -1.95855078242286 20.1547949468563 0 0
-182.632009355391 -7.46692993031984 -10.305334028784 0 0
-134.692190499682 -21.7583703984215 9.43235163166066 0 0
-80.4235207661969 2.58131862070055 -0.767537871164981 0 0
113.687854686427 4.01164840710787 7.00880613557959 0 0
-182.74126170041 -3.53725114153352 4.97551928023673 0 0
-186.923922521799 27.2691888271994 -30.8087971095444 0 0
-160.012921392895 -4.42102141899842 21.7285002620115 0 0
117.087111532871 -16.4601599405611 8.70777604821823 0 0
-143.384758312924 28.90819023464 -2.47894275673564 0 0
-168.071552994617 -34.9764535343887 -30.5979203478953 0 0
-169.853504507684 -35.239112724443 -6.48982350710168 0 0
-22.5229324508801 2.60907905081154 3.02246154239633 0 0
-39.8200033188147 -11.7730475674344 1.91896146512888 0 0
-158.428252948724 -29.0253248574704 6.73561066055434 0 0
41.6191292031868 3.86396438246173 19.6752001277149 0 0
-163.83302266859 37.3588736522774 -31.3187514491878 0 0
76.8293113488501 -4.58366473111284 19.3249617723801 0 0
-98.4256434032399 1.31507973117058 26.8604005033235 0 0
-45.6608999925054 -0.0749290137956265 -1.53621132123721 0 0
-20.3991625066274 6.14845238346457 7.01985003339554 0 0
-63.9796939241584 4.07728984260784 27.2222241561956 0 0
-29.8851397298112 4.84640642409734 5.34694990187537 0 0
-184.77907874762 35.4021533928168 -5.50669402978386 0 0
-164.726449055209 -26.711358106761 15.4408270404366 0 0
-126.030296590402 20.5095131911097 14.1001117331028 0 0
-177.295151691054 39.9181503706243 -6.07339531314846 0 0
-131.086345172646 -4.91701328639826 -7.82738050064106 0 0
-93.2479456360906 0.250213882231961 -2.86779663662105 0 0
48.6870511685916 0.0347889449207698 -2.01270801313994 0 0
-122.341073226868 21.1152309596082 9.52970898320863 0 0
-170.228903011855 -22.7671948777926 23.3751339060214 0 0
-171.83475698819 39.3230180616075 -19.0451639073693 0 0
-106.758317316382 -3.02762858612438 26.0863448200179 0 0
-3.29979032401595 2.84094531887058 3.49455557465088 0 0
-176.266049914506 11.0126293739365 -17.1614176067304 0 0
-34.5444690587647 -11.4806853733539 2.04658528131458 0 0
-167.514575603168 -28.1756057234406 11.1087496649404 0 0
-139.121905491708 -17.6082766243525 -12.6153996583956 0 0
-10.3213055942329 8.66534367897614 21.2880188335624 0 0
-80.5233037374006 -17.9409935939025 14.3572408651657 0 0
-131.387812998788 11.8570694409992 21.7232366870328 0 0
-130.185175933311 21.8575644713659 11.4134047192017 0 0
-79.149962956684 -16.2983980823967 19.2695838887822 0 0
-159.620022654799 11.9173726488879 -28.1834321916483 0 0
32.1142230236257 -13.1868792094881 1.80489097173572 0 0
-155.838355478288 9.86467849741426 -15.5017694813552 0 0
17.2300176961473 -10.8676175939998 22.9111855782476 0 0
-168.648793082446 2.13725667132872 16.9424418408849 0 0
80.8448128648542 -2.90170644280092 -6.83122033588275 0 0
-163.618377888744 4.58044993513 -17.5428037159228 0 0
76.6508829599642 -22.3176551410593 3.39455727075903 0 0
-152.673952571995 10.4364040605443 -13.157076637576 0 0
-93.1574427768926 -6.3012564527417 26.0431016560285 0 0
-175.38059101409 37.1432175523928 -31.5411880570977 0 0
75.7360705586928 -16.1908121492103 -4.43073440116952 0 0
76.05157531661 5.94856579157475 9.25694296828974 0 0
-76.2192909084807 -13.4548158294756 0.400751032793269 0 0
-24.2366726341181 -9.65650664028236 24.800949793117 0 0
-50.3641994821096 -15.5712860536121 20.4571667911843 0 0
-142.596776745544 -26.228712217785 -4.08911087392698 0 0
-148.008072615206 14.0767263463733 -11.8341529515151 0 0
-115.445223967855 -10.2874921247933 -6.37700201729469 0 0
-156.784919055902 -8.49806360414259 -23.3120604580116 0 0
-118.52303626315 -18.2828659360261 15.8558451201866 0 0
-180.583146302164 37.9355500632247 -19.7273856668393 0 0
96.5521936200035 -0.763146875632398 15.1628711180706 0 0
13.5369631131757 -13.4835849910144 3.2553959475823 0 0
-175.168801603165 10.7905020639347 -16.7085920029987 0 0
-187.382212195334 12.4845043345573 4.39640696495541 0 0
-157.523950839939 33.9114931210329 -21.1328713959166 0 0
-167.512940946159 -0.0744809482028138 17.9434263271363 0 0
103.57362328043 -19.3376827434136 -8.55713985855952 0 0
-114.463805516322 19.3223368685364 8.36452074027998 0 0
-0.288649793218563 8.31293009316878 20.3246521292996 0 0
113.108714000238 -18.4667522122826 7.48802740818526 0 0
-155.252760950217 -13.6766421211316 -28.0128027690279 0 0
-131.795611437658 19.001716509205 -3.92630015017863 0 0
26.3773348588245 7.53807689232397 9.8274667628901 0 0
-176.406368061293 -19.8863833875398 -32.0731056972196 0 0
-172.429557380674 -20.7099803962134 -34.282720374242 0 0
15.6813996251496 -11.9521818156094 1.80837898980443 0 0
-141.667216375588 -17.4899474208559 19.011513139627 0 0
2.20089089100906 -6.3087217799899 -2.32929907925335 0 0
99.9900060083759 -23.4342519830392 2.91528585201445 0 0
-175.188557507069 7.40045919374436 -14.1057633345483 0 0
6.65411260333569 -17.9667132577732 17.8242345203973 0 0
118.586414846474 -1.24648080203886 -11.1604367019543 1 0
-190.223211284617 22.7060035544195 -25.055979443545 0 0
-155.544161677079 -16.8154769993203 -30.0207856744747 0 0
-136.346439481479 23.2599253946062 -6.02265294337435 0 0
14.6857700793427 0.874083563082725 0.0243142466659225 0 0
55.016616958749 5.68019753517277 15.4277803655097 0 0
-159.839877594967 8.99151986027275 -19.4466777388791 0 0
27.1450350439477 5.52754361763999 19.8906449016124 0 0
-177.256629049124 -13.4656382783875 -27.9539839233738 0 0
-69.8488177818427 10.6598996771551 8.48168175510724 0 0
-186.906385791859 17.0109663372176 -26.8982069864171 0 0
99.1648683002998 -15.7597724204695 12.2823675128827 0 0
-93.57420088597 3.58422326373009 -1.43890596523356 0 0
-109.397217140864 -19.3419306067745 2.8554598769348 0 0
-53.0559956836442 -15.7414447249149 4.6882729186156 0 0
-55.8738020107132 -3.59959191847609 27.4864957543713 0 0
-154.338126496906 26.5191570567791 -19.1686260302033 0 0
-107.812207379404 4.04538615807411 25.9402085456052 0 0
52.324975469774 -20.5477629265869 11.653468749509 0 0
114.332653888165 -18.0075080897486 -11.8396231747951 0 0
-13.989778803687 8.22616720778552 9.49832087354788 0 0
-180.70532123042 -31.2263195018767 -29.2026110796367 0 0
62.1088135971314 -21.3385705814206 8.80435868893133 0 0
-127.660936345112 20.3996781547834 -2.42792684895222 0 0
-45.3334363543276 -0.398170613367506 27.395769816876 0 0
-182.293072341723 -29.7207414561864 -3.11909573546137 0 0
-168.821711292385 42.1600678378272 -7.25904421194749 0 0
-140.140863691917 16.2243000551508 -7.46986436206444 0 0
-188.023634967276 10.5545984348339 -8.50968308774544 0 0
-141.305728041043 -7.55189567772914 22.8058742779016 0 0
-108.644291960619 18.432702735114 9.70688156409451 0 0
-156.451148938411 -30.666121537741 2.65817934736109 0 0
-179.594807655375 -16.509061259699 -27.9240511461463 0 0
72.4508255895943 -20.2190741196621 10.6832574130607 0 0
-47.6594639782179 -14.5604512713262 21.7587003589038 0 0
-31.1523611104568 -17.8883581488597 13.728298315927 0 0
-159.947552749653 -5.77392426884976 -20.6899608422918 0 0
-65.770986222092 -10.7669232638959 -0.490370422707825 0 0
64.6937338489073 -20.3720160898048 11.2243685860548 0 0
-165.813017412981 -11.5146903261244 -27.3439855284061 0 0
-173.79447215848 -1.97940015610971 15.5004396024455 0 0
-120.192272283388 -4.96847945837517 -6.5698941848972 0 0
-174.6669330725 31.5394861976647 -38.7111891925429 0 0
-96.2586694843901 2.62170354678863 26.8220858536381 0 0
-117.900765828799 16.7581163221839 -0.153031211692601 0 0
53.3468200933109 -18.1871770765334 15.5707424548016 0 0
-144.51671243861 7.40451607821327 20.256346841292 0 0
-124.410614647302 1.56138404110054 24.307188679814 0 0
-170.566596633847 -18.9501091310295 -34.2516771347552 0 0
-179.577251285058 -33.7382668097707 -15.2932201774019 0 0
-32.3258591136404 -8.76401771930171 25.4845676068183 0 0
-172.012132754266 39.2959603508864 -21.1780564805452 0 0
-106.89879533141 9.68384062810023 24.6103017728127 0 0
-61.0158742817895 -3.09505273207664 -2.42967551872293 0 0
-146.271919562282 4.88691883440838 20.0886749455572 0 0
-129.320288222811 1.56797855937454 23.5427470230076 0 0
-142.05332548766 13.2251149730391 19.784538900672 0 0
69.5723919482263 -8.5626848642647 20.1161632267411 0 0
82.7412608569482 4.92810525083595 2.43432423661911 0 0
-129.548637850175 13.7703748562414 -3.8008632900812 0 0
-110.397110088128 7.407049094131 25.1475306540746 0 0
23.3238391628452 -0.366473652926808 -1.79040463478227 0 0
-116.268001137172 16.0853267245704 20.5986984134324 0 0
-170.644423739465 13.6921113979345 19.9631963307648 0 0
-146.422276180518 19.6984957170343 -11.2359574304876 0 0
47.3214624173991 -5.91401003661317 -5.25775021545944 0 0
-48.6300428477871 7.26838529397632 25.7049154129621 0 0
-174.211243250829 -8.11519893220114 19.0518401590867 0 0
-184.678046601595 -21.6255960309474 -22.6748238359411 0 0
-22.2870825330804 -13.9044079174287 4.25394353833403 0 0
-145.485379309264 17.8559512419403 -10.5962923625186 0 0
-22.4264528531879 4.21270744400132 25.1300101398665 0 0
75.0214942175027 -2.06588743428988 19.2590043157993 0 0
50.4039899779295 6.15120285741991 14.770958778928 0 0
117.919405836374 -22.4047364983074 -8.26568433393163 0 0
-173.555101447241 -12.8026013974918 -29.4850170857916 0 0
-159.538707960476 -22.6044261620717 20.6904953637117 0 0
-12.6592727203493 -8.93209196331987 24.5703153973655 0 0
-162.055788218961 7.20907793845865 -18.3742134327014 0 0
-147.581656774588 10.965298997333 19.6849280137586 0 0
-193.538752485948 24.5104773984072 -8.25091864574387 0 0
107.92865018309 -12.8210654887913 12.4765694231876 0 0
-141.54072320236 -16.9076526346617 -13.6396788660012 0 0
-169.055370863334 28.064645945594 12.0522155309894 0 0
-183.014501899401 36.9176660627342 -6.59334372136306 0 0
-136.50541747553 -8.69014194547608 23.2551868407345 0 0
-95.2874481481432 10.4624909609615 2.4427621468334 0 0
-3.24056564051291 8.20528449840773 20.8741145237 0 0
-44.5905200359554 2.56045076774246 27.1308860429253 0 0
-179.725708002254 33.3765374930102 -36.7324603082763 0 0
-133.633165753233 -22.3623907603224 6.46205815517404 0 0
-130.284250889434 14.0579617131169 20.9686620344212 0 0
-189.802553623876 35.2565433277766 -16.3865258218444 0 0
-173.200410668386 -23.4556353582633 -34.4042088418269 0 0
-99.9987906394234 16.2558181956209 8.993500895169 0 0
-141.336410068054 7.11148946982201 -7.63038164774661 0 0
-63.8377049244558 -4.39833533792335 27.3402073450269 0 0
-107.043897771707 -18.1866695943859 15.2905173178689 0 0
-91.0107419692101 3.0359039827297 -1.47665190416084 0 0
-136.606885912463 -17.9627104199864 -11.1009835161349 0 0
-171.501885900813 -20.4299543006154 23.8557847722001 0 0
45.5207323532908 2.64012921723105 20.1923645457751 0 0
-187.522660737495 -19.8191496041147 -7.75484530897627 0 0
-62.425550983457 -10.0852434809437 25.3942907807346 0 0
-61.2368778610721 -18.0683179303301 10.8167417768036 0 0
115.3788101808 -0.468211602864357 -10.0364557767325 0 0
-58.2206632182425 5.30003817332751 26.9339574083493 0 0
-187.782261531857 -27.4329490436314 -8.20681570140371 0 0
-179.042153473353 -27.5769629683548 10.5302649419944 0 0
-151.924198531935 -12.3105348783529 -23.5189432635372 0 0
-133.259539612517 24.137347264413 0.892885570558309 0 0
-130.522834297745 16.0726903646753 -3.73585710104118 0 0
-53.1842727761283 1.00074673039269 -0.788759322724328 0 0
-40.2247904688889 -5.96839924457008 26.8159239690778 0 0
-104.532438887606 -0.402128125288151 -3.96496079754544 0 0
-11.7020759704497 0.623786853189577 -0.798920656607387 0 0
-85.6607276789112 3.0064242072976 26.9634654665953 0 0
-21.9909993629057 8.06054828739616 22.9869776818394 0 0
-94.6485948789852 -15.2131163609503 -0.426241093878627 0 0
-181.853756925086 8.24510026493048 -13.7000304579067 0 0
-24.9546333265386 2.0557733869888 2.13406712111944 0 0
2.09321960141981 7.43146340528134 21.1032252641219 0 0
63.6023131251656 -9.27099491913529 -6.805150113617 0 0
66.1046454984964 -13.0331533238067 18.8385452870049 0 0
-7.79672726425996 7.77084076454832 21.8287862382165 0 0
-140.717813421095 -24.8960928065737 1.27515970191324 0 0
-67.9287866399601 -16.3787208063242 4.11456061810575 0 0
-174.434865975701 -21.0440357282486 -33.4802474697758 0 0
17.1572889733781 -17.4935011218219 8.03884223228716 0 0
42.6371276010213 -20.5510580389909 10.5661179832786 0 0
-168.675681831068 38.4205910955391 -24.278295541525 0 0
-188.75350291607 36.1180681315565 -20.7538891288036 0 0
-81.3151149286245 14.2835814575077 11.0497388157494 0 0
-118.037276155605 14.9377205642364 -0.767974843797958 0 0
-156.369128688395 -14.3362462830338 23.6510884194596 0 0
88.2382196871153 -6.14989012460745 17.6246003261944 0 0
-193.568088359818 24.7796494527006 -12.6531332125005 0 0
114.577480182813 -10.0976444301181 12.5127575353573 0 0
-28.5911154506034 -7.74466518872737 25.7350101697512 0 0
-93.3720862155443 11.1991998115109 24.4106632013464 0 0
-117.951548283241 2.68347928034575 -4.3666506795723 0 0
-73.6852426302231 13.6775710435923 20.9164616336158 0 0
40.8598126767579 1.6036712948411 0.00882759457865784 0 0
-175.250803987452 15.9673540683167 -36.9783207012135 0 0
-89.7711342867463 11.5655555429727 5.73236547990334 0 0
21.9206396958533 -15.3725822998797 4.69606973474138 0 0
-15.1846801994661 1.99602346193395 25.5263867545719 0 0
-64.7048088123079 1.2136972700102 27.5307333329793 0 0
49.7092328808871 -12.9510097691084 -0.774689993868747 0 0
-188.253276775294 13.0223275329812 0.834531347506877 0 0
-73.8028879143401 -5.70509911362698 -2.91742661671488 0 0
40.1850902094774 -19.4216127382848 7.39726518417955 0 0
-156.40871283097 -20.3939938375925 21.284597265358 0 0
-44.5896232734389 2.44631221771124 1.08031232059711 0 0
-69.2561031868556 -14.0328461734134 1.30524855928926 0 0
119.745719153701 -19.7810745864125 5.24672073674027 1 0
-142.568890698531 17.3860780644287 17.6600808805699 0 0
-177.676549791793 -21.8845717985777 -31.5626657625855 0 0
101.393354145562 -19.5883000274005 -7.95896756943966 0 0
108.339848440711 -24.1624331754265 1.10818593169262 0 0
-148.96845720493 23.7683850212067 -12.9765548552963 0 0
107.684576946394 -2.19405735677294 -9.7930359634848 0 0
77.0266412325335 -21.8168558500153 1.4675171978019 0 0
33.8494503565655 -6.80483125073659 -4.73690366527917 0 0
-182.231455111464 6.72323060346509 -12.7542839505182 0 0
-45.9180099541714 11.8616701606449 13.3294132957425 0 0
-121.213537337469 9.36288513947949 23.72509456022 0 0
84.3632706557574 -14.5564543313261 -6.59745752401738 0 0
-83.1975584044318 -18.3924020267916 11.8157698562716 0 0
1.26781289523546 -4.57429182562969 25.0141307791679 0 0
-50.3787307482076 -17.7750051932855 15.7958446706526 0 0
-75.5464139386673 -12.290733190017 23.63023095069 0 0
-152.348743570261 35.7971109219782 -15.7739778131887 0 0
-132.615529386636 -6.71805177566395 23.685755817988 0 0
-168.619843120783 -24.4051847180483 -35.7040513878516 0 0
115.277998262041 -24.5576404661125 -3.71709066382834 0 0
62.9068968921128 -17.1075461632128 15.7147291725372 0 0
-184.361160300167 -5.92616720820481 -3.00042926630959 0 0
-127.666559708053 -8.31425013016256 -7.95698535656913 0 0
-156.301946704022 23.1611019538306 15.5825202535804 0 0
25.1008413613386 2.15446792009289 1.63208068167657 0 0
48.8791952102233 -20.6988743266554 8.60067025521043 0 0
-109.989274420487 -7.17722737167181 25.2326540265022 0 0
-170.17425574797 -14.0476310482895 -30.8141375539681 0 0
-177.562546052128 38.1016482928463 -21.5914629153804 0 0
-60.7291232103876 -17.6191157665123 8.28221685551529 0 0
-153.70934305664 -8.09264338222959 -19.1490489163001 0 0
91.8260748498326 -20.4700874713233 8.25741171212142 0 0
-101.484309543715 1.23070926601254 -3.19595321698984 0 0
-63.1509255738014 -8.70224216640317 -1.71422100337377 0 0
-165.620088675257 -23.6245404452031 -35.6184250957172 0 0
-188.005745647393 35.3293603093433 -15.3866743569215 0 0
-162.888230060377 24.3564980198215 15.7517857558274 0 0
-50.4543634479904 -16.5740669466037 6.51774219571691 0 0
-25.8958482943253 -11.4517845236597 23.8547111907042 0 0
96.5685331935082 -10.9303196248942 -10.9552807305986 0 0
-146.133698234453 -19.5405473106854 17.5409879656187 0 0
42.8361872299879 -15.8490012056182 2.84715378075988 0 0
-185.9426781401 -31.9960973428614 -19.604758812256 0 0
15.5677555178455 -6.7548703448488 24.1017051166043 0 0
29.9274895319868 -3.62206644729089 23.7235834509872 0 0
-124.265688496255 -19.3893743524877 13.6891307829654 0 0
-157.83011424423 23.1971210447907 -31.8538122456814 0 0
33.0092806951111 7.11499283978443 14.8421809591645 0 0
-182.906836895051 27.9364309593125 7.27621542206501 0 0
-118.130506615829 -20.5174794789957 2.14882948121011 0 0
-186.170361979442 35.0381873040664 -6.74023431773215 0 0
-73.9948803049523 14.6937768632905 13.330077995387 0 0
109.668938328908 1.58632550572464 11.3193454160446 0 0
-165.85675259289 -28.0340967279949 11.7856590129429 0 0
122.510466857637 -10.3999883641744 10.9781475507838 1 0
-152.236142361908 39.5931922319881 -12.7895899117987 0 0
-176.759402773128 -17.9517993804004 20.2181953005398 0 0
-144.632485362289 -5.38017864188289 -10.8183562596985 0 0
-184.824451528367 -14.3900718385004 -15.1348638271506 0 0
-131.279393643303 -1.36936392469351 23.4486292941692 0 0
-143.355108045559 17.9424043522402 -9.63648717446755 0 0
-165.032805067977 13.8544690307036 19.5837937242403 0 0
-152.508085580903 38.1517125403648 -7.97895128347131 0 0
-124.675450631845 11.0308068198212 22.8662605698462 0 0
-183.710005427557 5.95253866005778 -11.6302003296996 0 0
-79.1370769853675 -1.77798211248378 -2.48249690697381 0 0
74.9549472331738 -6.75499355586451 19.6359316106756 0 0
-168.017857531808 -27.7342809613854 12.7692772514755 0 0
-176.953717944628 -33.5533147882823 -21.3772218419052 0 0
-154.861387128399 -25.343960899328 -30.9364205285709 0 0
-120.077816972212 -20.415140175121 8.08407609253032 0 0
-81.4715953382495 -0.815529836918348 27.3903809584455 0 0
-6.09497858335285 0.370048723546406 -1.78449005558424 0 0
-68.871346707016 -14.2129285686107 22.0932101256587 0 0
-121.495577556666 -18.2036069238218 -4.5324993448628 0 0
-93.8693089545225 15.0897333997549 20.5677186890494 0 0
-183.645845181134 -19.7765595613231 -24.2311599562174 0 0
-108.485992824286 17.4895511332389 18.1253020416792 0 0
-147.752909742574 -1.52533576209327 -11.5984774368932 0 0
48.6430650524312 -17.2790287831711 17.0778159966032 0 0
18.1595751599791 -13.7879406868247 3.4009618790709 0 0
-165.995332526579 -2.44932595464626 -17.5359589981402 0 0
60.3621011231717 -17.7716762770735 15.264820843394 0 0
-86.6075176765317 -15.011336008784 0.548839205309168 0 0
-28.0958585019626 -12.675936930989 23.0286599522668 0 0
-15.3974435886876 -15.8313614369377 19.5339867380258 0 0
-149.227323024857 -12.1944511449459 -16.7075299270469 0 0
-89.0929737281707 -18.3880034656362 13.1221591211443 0 0
-137.599114133747 -24.3832755828098 -2.10434417118594 0 0
-150.853926577937 -29.9522194817383 -17.2005178101088 0 0
-34.4237403405671 11.6137884303912 14.4181620628166 0 0
57.178687190622 -1.33386471372371 20.9814020237364 0 0
93.89214441619 3.7159397499195 -1.18014356020096 0 0
-183.300020556413 -24.3946944301344 12.000556782031 0 0
-181.402283228659 26.3003218328204 9.32904141831037 0 0
-45.2785260845887 -17.6304274649016 16.3485306558202 0 0
20.9417379310734 -12.4189856489018 1.97255569519414 0 0
-185.760357515048 6.66888861940276 -3.63255552502216 0 0
-152.068448390239 5.5174886550825 18.9642541334864 0 0
-93.178265615519 -4.68142904683822 -4.2613295651911 0 0
-146.724286429634 0.333034931474448 -10.6127915383228 0 0
-150.680593060007 2.96426773550796 -11.8029577242409 0 0
97.6702723058386 -13.1432374688191 -10.4417706876197 0 0
85.5126558879637 1.56972736761945 -3.69362144487842 0 0
77.6455367552976 -8.02460861034644 19.1756523833609 0 0
82.6797212340358 -0.132201264319189 -5.0781945208764 0 0
-68.8367604558051 -4.20180364782924 -2.57695233900457 0 0
-170.691918589318 -35.233447864669 -31.4474228926483 0 0
-183.956694905134 8.64264019584909 -13.5098106891367 0 0
-162.471416200375 20.6202380080442 18.3988732274002 0 0
-176.442918586497 1.90763485419355 12.3612961735182 0 0
74.9544177049801 -21.3520609497915 8.49910552435041 0 0
-50.111148163996 -0.261036399999786 27.4943785237798 0 0
54.9333168448438 -19.1433631346711 3.88081344944419 0 0
24.9137016554121 -11.5086392264233 22.493492781555 0 0
-54.3555015532962 9.77851471522188 9.51673307360263 0 0
87.4825389972198 5.60777860966433 5.12447164471092 0 0
-33.0720138880123 -6.36846713364134 -1.50511455533603 0 0
-183.518928516466 14.3481712678525 -28.70012506681 0 0
89.2072392571787 -10.743627097721 16.7176976226037 0 0
-86.5336205691038 7.23427343808181 26.1954686531851 0 0
-58.5502516852145 -10.4206180370409 -0.0843078860681875 0 0
-27.6974746631636 -4.09587997013129 26.5486996732657 0 0
-124.91591824995 -10.2494620432717 -7.73195389893049 0 0
-161.566776750674 -5.36667279763975 -20.0626504431186 0 0
61.1671669596412 -3.15221178157857 -5.24649529887256 0 0
-70.3344476349155 8.9938372164574 6.38832226093984 0 0
-99.9052485233331 -16.1701689475783 18.9729722238769 0 0
-151.409860297395 -20.6574392669226 -28.0166236162921 0 0
-183.265390918752 -27.0175619612867 7.64841831944516 0 0
-108.716065045205 -9.75436114427616 24.370812225669 0 0
-186.614264951349 12.9661801109522 -18.6917692926888 0 0
-185.080184117426 -26.5658342888466 5.55736802495343 0 0
-155.217330620347 17.4225903410997 -20.8764192057479 0 0
-48.2588536276224 -16.1409969659705 19.6054176217686 0 0
108.6223621286 -22.5200542925487 -6.19388706927046 0 0
-160.70131159684 24.7692126936993 -34.9929734939893 0 0
-181.335449996595 -0.46589593329207 7.04785619914138 0 0
-164.631848353309 18.486752386475 -37.1407983763815 0 0
-141.663324470752 -12.2791777220349 22.3955065710078 0 0
-12.7849284194209 -9.98713940733012 1.38758911038224 0 0
-151.415407115167 -5.14355279052195 -14.5561497829527 0 0
79.6665953148246 -12.8815650012511 -7.00984782051715 0 0
96.2217153367301 -9.85402599979238 15.8566108829157 0 0
93.9774974790511 -9.67207069153003 -10.0934944070865 0 0
64.9146053119247 -2.2799825621378 20.3930982093776 0 0
-154.799681023185 6.38818787315863 -14.9452798601009 0 0
-172.406785396352 -11.0653579941128 -24.8578926514869 0 0
64.014547722688 -19.3553080261398 12.8331742202795 0 0
-166.194148782214 -33.0971178832525 -32.9213625755657 0 0
-192.299286440533 19.0212678392609 -3.84423387540478 0 0
31.8816851609432 -18.5244980405603 7.40353261186826 0 0
25.0824283160513 0.421957440540756 -0.647557367195863 0 0
-7.48268906823946 -17.6718541737597 17.397297465704 0 0
-26.8519171584256 -16.2754691205601 7.30017649636953 0 0
-105.292792893047 17.0649998786504 8.2586342329223 0 0
-138.845832544748 6.66242155785208 21.5098028022101 0 0
-18.9180395678737 -0.852502409354765 -3.44805330647766 0 0
-150.785882237163 -14.4311201578992 -24.0140574043856 0 0
-47.2745985026808 5.60942534575696 26.447357994067 0 0
-109.620001444155 -18.7932667837944 13.7545960608521 0 0
48.6518125009831 -5.9506357958766 22.5093644994699 0 0
-173.88207583132 10.5498309064498 17.397217302491 0 0
-192.132442012242 26.3855698128531 2.17229278398661 0 0
-161.881970751462 36.8379966890746 -31.3639200903781 0 0
-83.9934941799576 -12.8355764630547 23.0230800568613 0 0
-169.372432052632 35.8376540712139 4.39088213284081 0 0
-186.896907258446 -30.1780668604425 -16.9891603825512 0 0
27.7709200642586 -15.4541393315719 4.3288356352149 0 0
-171.504964966359 30.4501903268976 9.65995893186683 0 0
19.173228287355 -3.41662782326124 24.210748682561 0 0
-130.763911284257 20.9451328806851 13.6150515545806 0 0
-127.057703715012 13.1926169660551 -3.25090142759279 0 0
-140.208719182185 1.10239859780097 -7.59609606722356 0 0
-126.298616311933 14.9994228211447 20.9589244900208 0 0
-163.264821196028 37.1653396472342 -32.9744705126456 0 0
-162.162245410397 28.2335808845852 11.641378382221 0 0
83.3890142433296 -6.39422058468376 18.3842340139107 0 0
-187.876695211813 -27.4932207126912 -4.84891795267408 0 0
-186.672225091743 23.2048817134002 8.98044036017564 0 0
-165.475301788684 39.8767983403676 -0.989365569829154 0 0
-165.736886256704 35.9098015879248 -35.3565864224754 0 0
-119.060591311868 13.7359301740149 22.2059843493552 0 0
120.21427992726 -11.9325898999578 -15.9873275261551 1 0
-161.692649239922 -16.689505557342 -32.4861175184533 0 0
-93.3274480881059 -18.3819979921442 5.01607200825841 0 0
-71.2977108657332 -14.9144630108154 21.267588858545 0 0
59.2745739235324 -1.95614398581547 20.8891223397968 0 0
-183.750860112868 37.3029397441265 -25.0233202515534 0 0
-14.571776251385 -13.8107691920062 21.6427663923905 0 0
-156.810208768188 -36.0877777153649 -9.71605722938197 0 0
27.4473602476515 -12.9238707330958 21.5930217712066 0 0
-137.149406691718 5.98878079282566 21.8667371219056 0 0
54.1712779222876 6.2823331294847 6.91743362236417 0 0
-121.853347402138 13.1143428705071 -2.11856423172336 0 0
-173.790271615024 12.950799393031 19.3073122934366 0 0
-110.75913230647 4.96472989918517 -2.93831945189855 0 0
80.1975493846225 -22.1262082827698 6.72901017457086 0 0
-173.19043475073 -6.8209562397296 -18.9190772116425 0 0
-10.967073970869 -10.9575223496135 23.4919902857891 0 0
60.2606942438531 -18.2015669139063 1.25401519322286 0 0
39.1841580040786 -3.12485324789993 22.9702232978679 0 0
-100.28566414704 13.44558615244 22.7212822613455 0 0
-156.742502371288 35.34902332277 1.04557604179546 0 0
-68.3829604786283 1.97465661413954 27.4666125529053 0 0
85.7716576559586 -16.0528971534266 -6.46978456929527 0 0
-32.4573847953753 8.18856046293023 9.15620494334707 0 0
-35.4891855804107 -13.1474167010057 3.03544393753706 0 0
-132.401348592266 7.95631924811135 22.4915541120198 0 0
-173.868853366098 -10.3264344530457 20.1104652295776 0 0
122.31291647306 -15.3512591139454 -16.1734743603218 1 0
-37.8974019813611 -9.49151525243619 0.595551497186883 0 0
-187.648858471418 -20.0938936359231 0.431118288678644 0 0
-107.433122233785 16.8611715127142 6.93225527237808 0 0
-185.236552038839 -11.2332333309794 -9.35588341031487 0 0
38.4670887380313 -19.7031940752637 14.0600328725608 0 0
-154.184573098772 22.0506859002193 -19.5510816764526 0 0
2.05395702652917 -2.9377609897581 -4.30495232864637 0 0
116.166380137223 -11.4466140491215 11.8643707471271 0 0
-168.95581787541 17.9824212177019 18.3720405077334 0 0
49.100356320455 2.08151437098232 20.1180415419524 0 0
-168.921055930772 -26.5916491592318 -35.5826083770268 0 0
77.488694646091 2.60037911539607 -0.837865322136075 0 0
-10.3802384307107 -18.3868946854379 12.4833818448056 0 0
-136.118780149453 19.5560084197812 -6.26391102401662 0 0
-92.812916511393 16.8258385351587 13.2268078554187 0 0
-145.524155693148 -13.301209520416 22.2820122909229 0 0
-67.4259567016256 -17.099311162264 17.6010994204758 0 0
115.031513665142 -13.3378718321063 -14.5806050508421 0 0
-32.8332596358807 -12.4152111918218 2.64813405727322 0 0
89.6301852622582 5.27898094116016 3.36543124822204 0 0
-84.1835866297714 11.9729477509972 7.45422319800752 0 0
96.0863521739214 -13.567499013354 -9.35825637492939 0 0
-124.352331823378 -0.863720857820141 24.4454484010693 0 0
-146.710259802332 15.8880793778973 -11.2962281667759 0 0
-38.1211264571117 -11.3394677300264 1.78952932421661 0 0
-112.396574020298 -19.2699263431217 12.4703510827995 0 0
-177.179170902231 30.7274732931345 6.72543340790205 0 0
-132.49397797277 -20.4973923028432 -7.32386373680629 0 0
74.7295317176834 -11.8458507755411 -7.31808539517854 0 0
46.441299565293 -11.2455900004059 21.4692805340549 0 0
-14.6427492924129 0.642999167841193 -0.830311666599052 0 0
66.4300267791939 2.46409901701284 17.7529826539667 0 0
-2.27488064800441 -14.7508065865353 5.20179714893826 0 0
32.7608475763051 5.61447221852798 5.85426195310146 0 0
-161.305239908069 2.49920705408644 18.7066326632964 0 0
53.2017220448318 1.93971230341179 19.896465637106 0 0
-157.244658551422 41.0799270102621 -14.4901625429721 0 0
-184.493013244689 -7.91172366586839 -6.17706249150187 0 0
-165.13703611957 0.561486586984698 -17.2082482081776 0 0
-79.8766452791256 15.1627472056564 18.61095652453 0 0
-131.155443541548 9.53121450925801 -4.77513336468689 0 0
30.071842557941 1.40409060288376 22.3000929762478 0 0
-170.133226442218 38.2556086345489 0.724352103849743 0 0
50.4552097948319 -20.3348767099638 12.2361217338547 0 0
-21.1658194298197 7.86386496434268 9.0178327664319 0 0
66.1796962691812 -17.1681756812333 -1.36049243191615 0 0
-83.8650020914066 -17.1296509946017 17.3601826394488 0 0
-145.377989985153 -27.2253877625552 -12.4054321883216 0 0
-158.001665006337 12.1604995400975 -19.5934042073998 0 0
54.7770140662628 -14.1767725980971 -0.77166151994878 0 0
44.4257405745998 -4.11066409091516 22.7580050056736 0 0
-183.261386528437 -18.4703024700592 14.0637854002217 0 0
-174.338332955077 23.3530073670096 13.7425491308803 0 0
-158.419932111393 -8.94676022315881 -24.6597822418616 0 0
-56.2673674890379 -17.6186861640298 8.73658458059051 0 0
-146.092219403744 30.1063799040713 -10.1718238348049 0 0
-142.356183781117 26.3016277581472 -8.63362751320984 0 0
-163.900814566934 -34.8418271230598 -19.3869384482804 0 0
61.7410042032209 -21.4448873690112 6.99927614237591 0 0
-188.309301290559 10.473527152194 -5.69227245755334 0 0
-161.341018045747 27.4060498509407 -35.2333911011405 0 0
-170.574284068269 37.366708502184 -32.0871116508795 0 0
-176.09608983617 -3.64480525278062 -13.5847842362925 0 0
100.729625380967 -3.1751941722482 -9.17611350954526 0 0
-144.931082264177 2.60221252469166 -9.18112463717221 0 0
18.6227945033354 8.35040942012166 13.2201254095679 0 0
105.546280526113 -16.4939089927329 10.6544644637709 0 0
-46.475070163472 -14.3352969052042 3.54419475315461 0 0
-136.789245972511 2.28595504903902 -6.87285213264107 0 0
-144.618017016324 30.6722382218265 -8.34383897427674 0 0
-128.94811038758 11.7109448024594 22.0932550390532 0 0
-79.044823226792 4.4065440779196 26.9266060378345 0 0
-52.9671397304189 -15.9738641729365 19.8712659307986 0 0
44.4470824138172 -12.7141155257309 20.8490481198078 0 0
-193.333421828352 25.9107874787851 -15.2423745447741 0 0
-175.35025874477 -14.4124213681144 -29.8692638807567 0 0
104.788624516521 -14.6435550483363 12.1592877482862 0 0
72.7594921116347 -14.6989209082893 -4.66173927384404 0 0
-113.314183193634 17.0701308523157 3.48547974305664 0 0
49.7364753399848 3.39848002939943 19.0575329968692 0 0
-25.5125789640382 11.394171774694 17.4925319767707 0 0
-144.484534057564 28.4853906394495 1.14130037275049 0 0
-88.0637121750326 -18.6048376383527 8.96168976493167 0 0
-172.220024204484 -2.00865310978985 -14.2094524561058 0 0
-148.161178427577 19.7673181931136 -11.9460025964943 0 0
46.8885664571331 -19.8660009962239 6.82158811136329 0 0
-164.324182674177 42.4517664469444 -10.7723511099623 0 0
-138.178768593068 -12.577214198653 22.2488389117277 0 0
58.9477379934807 -2.4128220236176 -4.76529671022144 0 0
-145.094698904934 11.4426262905906 -10.0000772074736 0 0
-164.020921618763 42.2964084952933 -8.21677371244321 0 0
52.3927855921489 -2.47751420303408 21.7946402344415 0 0
-187.512084553486 36.7896206121672 -22.5435151130304 0 0
88.7831784227906 -22.9181091783941 4.12931041934655 0 0
-112.450123254447 2.42204604953634 -3.85074832664649 0 0
-82.335080565658 -12.1046751794344 -1.00576473319045 0 0
-0.71403493291577 9.41525927350485 13.3322784997468 0 0
-176.725685649117 -5.30177308302228 -14.4667230067385 0 0
122.314064986393 3.21844827085914 7.51652622948222 1 0
-182.483054739247 -22.5359125783164 -26.9198987745754 0 0
-20.1540775884103 0.746880418445644 -0.695478015707982 0 0
-58.327638836277 -5.68596087253727 27.1409741213369 0 0
-171.098370298539 41.0125478414867 -12.963931486642 0 0
-178.004167197134 -35.9687896092168 -26.9807870840547 0 0
-176.148298916425 -24.9358218366779 18.6074458826182 0 0
-170.390304407372 22.4066916290979 -39.4893319611061 0 0
-180.881669241115 36.4975488946028 -2.14761948049535 0 0
-67.1390684737788 -9.24639364572156 -1.64412214559235 0 0
-99.9970811874648 -19.1381773440937 9.89813190805757 0 0
-142.085370261859 -19.0122550487708 -13.7657534045548 0 0
-14.7016794819502 -18.0695106320916 11.4938292629471 0 0
-170.243360517401 -27.5686963290624 13.3695362350452 0 0
-36.3971022987671 0.971165684260845 27.0167209102641 0 0
96.7547766529398 -21.5530627916047 6.31758632622587 0 0
-158.555055619116 32.4537536707633 -28.0830753372563 0 0
-106.639615363977 2.17321201041185 -3.32817727529775 0 0
-143.998041630521 3.75355349143318 -8.6319747326862 0 0
-155.981984752107 24.3430452463859 14.4877146147159 0 0
-179.669620401356 39.504366830519 -7.67409015705194 0 0
-168.111304260524 -24.5268334569568 20.0947736706497 0 0
-187.255639984164 -18.6645598026688 -6.18682130649894 0 0
11.1516207141991 -12.8230065941442 2.73255606740812 0 0
-85.4669289987841 3.78619645802785 -0.4302187530672 0 0
-165.53436554436 -37.4663516836035 -13.5988604058861 0 0
-29.5573827499037 8.98027491539736 22.9125321818656 0 0
-162.533343079827 28.9961446452872 -35.8503349785904 0 0
-186.432503530557 -32.5748338199526 -13.5498354486145 0 0
13.3924132447683 -5.60811377393952 24.3716773499692 0 0
-167.789923750542 42.3368512994052 -9.2492193984199 0 0
-185.384294281294 -28.4228350454252 -1.78497756534736 0 0
-153.00004478726 -33.7638563541854 -7.9384790150394 0 0
-178.274141139704 29.3786386138949 6.84491334715761 0 0
-167.326293562057 37.3946954665497 2.22530706045935 0 0
-181.388303315307 -14.1240227380346 14.9382780833652 0 0
-77.0511657844097 15.437516186608 15.5111615966808 0 0
-178.861324832041 -30.1563746089184 0.000530517566088374 0 0
-188.985510092887 35.9820846431071 -24.3521359518459 0 0
-175.816520707148 -33.984513442593 -17.3020489886924 0 0
-147.091335675997 -18.3845930238818 -17.2445309501928 0 0
65.2339836638924 0.491803081479888 19.3963100824342 0 0
90.9640210691912 -18.8301945051881 -6.43649733028971 0 0
-156.379804250252 -1.77561068390257 20.2738658113564 0 0
-148.416741518529 12.102633807174 19.5182709901314 0 0
-187.093968704733 -13.9918043396917 -1.69784091729506 0 0
-175.616179699672 -5.50867584266725 16.3369046649687 0 0
-105.177033259708 -14.0156056585178 21.5929346891904 0 0
43.277071690211 -13.9697882411941 1.22683199411093 0 0
13.4196975316349 -3.62627428457693 24.5017869529968 0 0
79.1582267183947 -22.6088788722938 3.88107883723019 0 0
-155.973309577778 -32.6849259237644 -19.1069418092232 0 0
110.941420297955 -17.45653175211 -11.3200758358366 0 0
-81.1977380233099 -17.753364593273 5.37345683227974 0 0
-160.784263270743 -31.1793230484177 -26.8769323024538 0 0
-174.029297958772 -36.1458217172065 -26.2738961796446 0 0
104.662366401447 -11.6186274837091 13.7768584496362 0 0
117.431409248994 -5.10597601247242 -12.7048986283754 0 0
-132.815969192407 16.9935119028271 -4.552387950973 0 0
58.6734816013756 -4.71514980737184 21.5023328007362 0 0
-193.073318001329 20.5603590942338 -10.7466893896443 0 0
-160.025892557892 -37.0939397777679 -10.655892102922 0 0
-179.517347879121 30.6209958054991 -37.1340782069333 0 0
-16.4307710877288 8.44936383490393 9.780164815689 0 0
112.665522958266 -19.0425056903513 -10.6483640226284 0 0
-95.5407098983752 17.262510836915 15.3505152080053 0 0
-69.0111463590233 4.82747289049829 27.0468152956224 0 0
54.4270482993955 -7.44115726996338 21.9740965826137 0 0
71.3998650995289 -1.0973031020689 -4.60823781462899 0 0
79.9225778129152 -12.6456808031016 17.2184974592841 0 0
-91.6399304683498 -6.53156812315824 -4.36639551787443 0 0
-110.100784374151 -15.4031872388067 -3.92957026756657 0 0
-166.138025935083 42.0713446495916 -11.621582641128 0 0
-183.216735765108 -29.6839552373984 -4.06623100889383 0 0
95.149330559692 2.79114464623057 12.6068414785915 0 0
-189.442567107082 16.4899325131547 2.40196832530654 0 0
-169.109940187164 -11.0700465735004 -24.7097915763328 0 0
-65.7822807698645 12.4840977261784 22.3569757027093 0 0
-185.817602197929 13.2252495816957 -22.4199435138422 0 0
-159.841596305245 6.92942244334714 18.3505344878154 0 0
65.4360840786142 -4.87821105727635 20.8196135326533 0 0
-159.057583958353 2.27820008299844 -17.7476374698678 0 0
43.4083614258063 -7.55789454991304 22.6559520043776 0 0
-95.8732838421303 -12.5690490029058 22.9965772504016 0 0
79.6795610512673 1.05544993766353 16.7273237630435 0 0
-179.278378283702 5.09789745843005 -12.8070192839974 0 0
-21.236193390569 -0.633056673567893 -3.2066897145525 0 0
-153.676813935152 -6.46382509661627 -17.2727867526707 0 0
89.7779318640222 -4.42949026889018 17.3846284243142 0 0
-163.106345788376 15.6818534745439 -35.0765496133146 0 0
-126.41549717448 -20.3441651484792 -3.92369556437258 0 0
-163.683061255503 -0.499023536498228 19.4588613643123 0 0
-163.063315865178 12.6870846897994 -26.3965701147437 0 0
-71.6686113000697 -16.6529088728902 4.20350820708879 0 0
-118.423311418593 -3.31355941661007 -6.0303985241779 0 0
59.2840378764883 -12.3797696182621 -3.4605313802541 0 0
15.9565401582655 6.07875869113198 20.9303677952153 0 0
-182.494301742415 -2.66602719434582 -6.14882297363788 0 0
56.8203631342431 -9.00069378129699 -5.89912216064 0 0
-98.3806192962499 -13.7055435275254 22.0097887974019 0 0
-178.332493279417 22.1575378696844 13.3472102104713 0 0
-161.819918648795 -31.4057057492953 -28.4061152669324 0 0
43.0310881801236 -10.6414514958941 21.8900831682418 0 0
-27.6323604437469 -12.3834155988227 2.80167541505701 0 0
-172.678978249341 -26.8472016910782 15.2071174353214 0 0
106.794427291871 -20.7710337749573 6.06069942760514 0 0
-169.821569823158 41.2137987451678 -4.95803783159927 0 0
6.32942547504681 -13.9465661872025 4.03758583597778 0 0
-18.8077073518773 -17.3180860667138 9.53451843759802 0 0
-27.2653770828324 -16.3988181381169 19.0275936811137 0 0
33.7611612759518 -1.07344445930141 22.9123548229113 0 0
110.440778850151 0.747775982782046 -8.44973395935312 0 0
-177.081063272837 4.49734077291012 12.6197011460688 0 0
-26.7107522503872 0.506076213862972 -1.74083619345955 0 0
-163.242535525014 -29.5342174077316 6.41699157818377 0 0
57.8481299730961 -17.1908211958526 0.966549417522989 0 0
-59.1987656464202 9.3211194578308 25.1932671511645 0 0
-121.399354810996 -15.7819482608989 19.9696432488023 0 0
55.5787413648593 -9.91055334635519 -5.07504872771455 0 0
-108.910503717554 -16.6342479635181 18.4072382952595 0 0
-180.996659681502 21.2815256950002 12.8792214804523 0 0
16.4751790768601 -15.5904864258427 20.2703852648405 0 0
-59.2643699791891 -17.89417817903 14.8219815203567 0 0
-175.410448918956 23.9683998104769 -39.094877596716 0 0
-98.0312787842116 -18.8367777970442 11.9848615826773 0 0
97.2245859932181 5.25181610999438 5.66666607407575 0 0
-168.54350016862 -12.7699937066657 -30.2896999028903 0 0
96.0763140717309 -23.6622507543763 -1.05460298985092 0 0
43.9647429159684 -11.5683876738334 -0.887664118139131 0 0
-155.814471166428 36.3766844316399 -18.3542047583059 0 0
-60.9215973417474 -11.634152462931 24.3886313449008 0 0
-70.0787932564316 6.60501578277144 26.6967764350535 0 0
87.1701820373661 -21.4755259462324 -2.88337707309264 0 0
22.2432969774265 -8.71889858749204 -1.26918705642402 0 0
-151.762442251107 12.1361884646334 -13.6093810834682 0 0
-136.450101935052 3.9153680181669 22.2406134673986 0 0
117.186550365822 1.96238573604675 9.76719564721352 0 0
-131.009657326899 -0.581455891775604 -6.72777131445272 0 0
-80.5784226492351 8.32342336999513 26.0213566316243 0 0
-29.7508849566186 -17.0151447359562 8.94759465750751 0 0
-161.432960901407 33.6817742769986 -33.3711153741578 0 0
-149.918096597074 4.58466625149349 -11.3354650698892 0 0
65.5476797867756 -12.9934569978781 -4.46759437615457 0 0
-166.021248541272 38.4240328664821 -24.7134956033549 0 0
-32.7239779223745 -16.7405874287786 18.598574456065 0 0
-149.617480745656 -8.71909423936928 22.5943682071364 0 0
-188.061922750443 12.0422782770184 -12.8525451006173 0 0
-164.060731754369 32.8966962827919 7.00613487665252 0 0
117.372922731528 -10.2520533937605 -14.8409343351147 0 0
77.6157982682498 1.03646533231629 -2.95268514231985 0 0
-3.97311294616208 -16.1212933294948 7.04155386096364 0 0
-163.485901493212 -36.2044414502418 -7.52638556651464 0 0
12.7186788639208 0.649414193959236 24.0298268736446 0 0
-65.9703454127307 -14.6552976669876 2.10464945909002 0 0
-161.122461506935 -35.9857144907121 -6.82238742664078 0 0
-159.964503673663 -21.3869309583829 21.9145746863899 0 0
84.6459030270668 -3.86474299622307 18.0493743812173 0 0
83.3720800610472 5.65143871278432 9.13279743493938 0 0
-153.328452755009 -10.2510443339367 -20.1558279699691 0 0
-154.751213861633 22.2450475882524 -21.7252130134288 0 0
-187.308427303789 -15.45183020107 -0.439186980705213 0 0
-105.602524063264 -9.68443118418351 -5.32617219691512 0 0
-157.45256935724 -32.8457631277402 -23.9532649711185 0 0
103.118552791723 -5.52841812888095 -10.2648407041151 0 0
-121.676217848821 -9.45628790435223 23.9831574260314 0 0
-84.4600017994264 -3.14989497181941 -3.39290517864432 0 0
45.5163006985442 4.04184274214798 18.8570761293276 0 0
-174.470902777332 -34.8426594110684 -10.0974922008137 0 0
19.7516117442521 -14.7417326122327 4.19971093780472 0 0
-60.3461216721119 -3.46080129496858 27.5053770546682 0 0
-184.649219424883 -34.2775674803211 -16.5743442824781 0 0
24.6077993486744 -12.5498453627244 1.83714763872154 0 0
92.3525138230289 1.10087747370196 -4.99112776367177 0 0
48.1549387904347 -9.56644462861531 -4.03759838250682 0 0
-79.6035829602302 9.8038691227185 5.88755203784113 0 0
-138.382673793217 -9.74972061630126 23.0511328323599 0 0
-177.451500497854 -5.76487244833642 14.8688963217603 0 0
-174.408507906656 -18.1560829200025 21.8489129777808 0 0
-170.800579390744 -23.6776780571662 -35.2467349893265 0 0
-154.040512296462 4.63345162973303 -14.1441268102337 0 0
-183.389380587707 -11.6206300754894 10.8984523818112 0 0
3.72803257638717 -5.62244279141322 -3.37640640831454 0 0
-169.954270684823 37.1079328979469 -34.0840153848342 0 0
54.9939358104436 -20.9796464066352 7.62268891015473 0 0
-119.812714192916 -0.255392849805032 -5.33672967871876 0 0
26.3794336537907 4.95179626788963 5.21532310355135 0 0
-180.19542396133 28.0596933267318 -37.074582217765 0 0
-167.677409080847 -22.9204257084037 22.7450233808957 0 0
-21.3668168824414 10.1564571815085 12.438390678318 0 0
-174.428796060506 13.4352488449434 -23.1658399095764 0 0
-146.383046041445 -7.66721052770998 -12.6161635227461 0 0
-74.680022681252 4.56601954648916 1.40721146556132 0 0
-148.682289281346 -3.14414830653588 -12.4654900304754 0 0
121.105846580601 -17.3902691322507 -14.2472758195497 1 0
-161.892543619495 -21.6146665633897 22.1733852507481 0 0
-126.741459353199 -10.5730304513526 -8.04722907067375 0 0
14.9814751763692 -18.7750895371979 15.9615087856513 0 0
-175.857033722577 9.62713856622267 -15.5901092083291 0 0
-111.898771372144 -9.97796966993094 -5.99184381742976 0 0
-184.246978982187 -5.812733518857 0.673089129526277 0 0
-119.528258775301 18.3280369575624 0.488503028277445 0 0
-67.9514492966502 -1.44228334118506 -1.78324116979089 0 0
-163.694066156629 -25.4312426701814 -35.3800408663504 0 0
-132.213457348508 -18.5297223210529 -8.51968248187686 0 0
-193.349260413474 31.4050636572719 -7.45698417496098 0 0
-183.589113604806 19.5656349909253 12.3824930029723 0 0
-150.941324933333 -16.1568219102632 -26.3200834217663 0 0
-4.88199394623201 -4.59325673465587 25.3537687681062 0 0
-93.4865635098205 16.1754843692956 10.9804752291169 0 0
-141.047358021546 8.82165695350642 -7.50909190446765 0 0
-169.386387701363 4.06494252915808 -15.0688646292064 0 0
26.6037856659931 -19.1397948559846 10.0026772646085 0 0
-99.6092570201312 -16.8873608408966 0.395101509245824 0 0
-144.180467645736 -6.92983275017967 -11.0725503041032 0 0
-128.805105536958 -19.6332079652426 13.5567527102548 0 0
73.3827242472858 2.7801614648563 16.1565894721338 0 0
-159.681232056377 27.9881288038576 11.5097582159857 0 0
42.4888557922345 -16.9837992134426 17.9447073843172 0 0
-183.172421799128 -1.59693708982149 -0.961653632049742 0 0
90.0739065056375 1.8477533423721 -3.80377241596335 0 0
-191.464780775428 18.8474985152734 -19.8978058537574 0 0
-186.190411610377 35.9872006241561 -17.0733638482714 0 0
-12.4001646658132 0.894112941427469 25.6438463655072 0 0
33.1319210335347 -19.6237024415798 9.76806191829334 0 0
0.7389953743089 1.12487334867921 0.904458980280863 0 0
-158.700771062073 -31.2422058106798 2.22245202814314 0 0
-44.145924513833 -7.425222985356 -1.13552786923597 0 0
-8.13720962307243 -5.33079677495318 25.4239212373128 0 0
-142.209735952148 19.8462713099395 -9.6411212203288 0 0
-117.760429987229 -1.76310494274106 25.253139972795 0 0
-144.106138405736 9.65365306319563 -9.46475319456951 0 0
-165.43040142145 11.3549322095142 18.9050649413698 0 0
-72.1186401898898 7.37706465623859 26.5023465008276 0 0
-151.688121882892 7.57953906240357 19.1945078838138 0 0
-157.762316716393 -33.3351234173004 -3.06549845102852 0 0
80.8400402532557 -22.6459690451838 3.05111252968187 0 0
-172.068320393702 22.0594097597496 15.5750336840619 0 0
-170.015222548241 29.6069526309047 -39.0689385838211 0 0
45.5873065210159 -14.1074825422135 0.980202120742187 0 0
-79.5130511228146 5.88334959480471 2.02027704510473 0 0
-36.9534540691162 5.9648508249513 25.5603251214275 0 0
-179.989217058607 -32.6035049400688 -10.1863627369946 0 0
-110.623359583401 16.9374302495989 5.27877527590525 0 0
-46.7600540017995 -3.32890081287772 27.3899337498514 0 0
-171.467616263002 -10.447166763103 21.3963528796988 0 0
-180.123871914747 -7.26119123375734 -16.3066644426707 0 0
-57.152860539684 10.6467075880565 10.2891373167965 0 0
-166.166660001444 -37.0623372595091 -10.2643270183591 0 0
3.28756556460736 1.6108076323491 24.365754829864 0 0
105.861995899219 -0.249567239312041 13.1638449253399 0 0
35.9505368830804 -20.0067056834591 12.7321218770933 0 0
36.8612598793415 -16.9450880149743 18.3585893272237 0 0
76.5821995058215 0.352295732493335 17.8790476539458 0 0
-12.3130316433724 0.0970891502994366 -2.65157533872783 0 0
96.060390671579 -23.7308264753006 1.35083455223104 0 0
-29.5555979120237 6.5672927177025 7.32750110597352 0 0
-193.856893994478 30.0901363397732 -13.6188906215302 0 0
-184.930162313213 -31.4891623781995 -9.66984256404534 0 0
29.2595096369202 -18.7044023239326 16.9957327818117 0 0
6.09149889339625 2.06975168984109 2.21332672172802 0 0
-186.514583205526 -29.3113806248931 -18.7206233750503 0 0
106.754348883824 -22.3656538207862 4.30431228315599 0 0
-135.049283793665 6.63541906256957 22.1862796103125 0 0
-42.1259206102936 8.43388530438831 9.0313008261135 0 0
-0.866375810905849 -16.8243131187197 7.92950741147237 0 0
-189.741006618599 28.3786305801655 -26.4080315729367 0 0
-166.247778405973 37.1194865206438 -28.3576412336753 0 0
-181.895935526455 1.98920094200366 -8.35303330175119 0 0
-148.312059498444 8.97496192823915 -9.30956742073085 0 0
-170.693448507164 17.6658742136967 -38.514820787186 0 0
15.5978684827299 8.45872125226177 12.8377933162651 0 0
-75.5684560129836 -18.2165768568237 10.6736762782696 0 0
15.3454817580657 5.3445870466854 5.96646739013999 0 0
-184.609753834168 33.891037823295 -1.29243016922975 0 0
-187.382369187967 9.94616830355074 -9.77801065679977 0 0
-155.582221397185 28.8447511726732 8.90928667735106 0 0
-86.7958395232497 14.1636297076077 21.3623741616452 0 0
-6.5914498223428 7.48893625371569 8.64900388655956 0 0
-153.875500327834 23.3304059822451 14.7045603411471 0 0
93.573613575187 4.47885065095866 0.728489977319849 0 0
-45.7405107704746 -16.0916594722906 6.00541250278262 0 0
-122.512233747562 7.94044333903906 23.9433735892362 0 0
