"x" "y" "z" "f" "a"
-215.812907097469 0.0986941432285629 -12.1041044296789 0 0
-52.630778594135 17.4241253466292 2.98740005397558 0 0
-200.738724128385 -32.8580379879426 -22.5882438646796 0 0
-222.061655807529 -13.9550845605662 -24.1784162639984 0 0
-128.132863135369 17.0337175048171 -6.68337319920459 0 0
-131.108443877714 4.0142192406743 15.5387363707726 0 0
-205.547070354894 11.9425915973993 -17.8813000432992 0 0
-200.465961007289 32.3402031496125 -5.00192823555846 0 0
-201.937464012264 18.9926797136057 -18.1099062622907 0 0
-144.780201141257 -6.96092344675029 -0.799701947804699 0 0
-192.287018504236 2.40012746710174 -14.8355155205231 0 0
-167.893705368597 -11.4363372658631 10.5901648318618 0 0
-223.689932279388 -11.9881601560835 3.60404978305911 0 0
-189.869879702321 21.5381023171405 22.7984207148205 0 0
-196.480001828236 -41.5236423529796 -5.20830712590736 0 0
-192.279944220265 -15.0074164673142 -14.0211374550994 0 0
-106.680968775831 12.2737037400438 -12.1824878908842 0 0
-148.332170627713 -6.21978719133397 2.14101451543623 0 0
-103.105428324338 8.70700524860408 -13.7696654215548 0 0
-150.016526815092 -7.13232137865389 0.306617991978387 0 0
-196.525779000191 31.2729384589428 -6.83667137738728 0 0
-170.74306258493 -12.6025281953961 5.6330453185456 0 0
-194.921390985845 33.6048967646859 -3.66807221817124 0 0
-125.622413518395 4.05035589941639 -11.4921301548822 0 0
-92.8079754532184 21.8991445123802 6.26554019782824 0 0
-198.109028226625 -34.1568100260555 -16.144939712862 0 0
-144.723668735237 10.4215562151664 -8.49776178846413 0 0
-50.1515292012655 17.2225445535711 2.63335861400343 0 0
-214.623595209744 11.8792645167911 -2.61324441137899 0 0
-202.534110796514 7.7509655115252 13.7198199112732 0 0
-219.065696579963 -17.0219505750106 13.8256320130041 0 0
-87.8594295258988 20.705356249109 -8.24104732322711 0 0
-119.971151379188 10.4605010969012 -11.052515470149 0 0
-198.271124262978 -25.96556332259 3.96632026226905 0 0
-131.074250845161 -4.91162194602681 -5.80227038959542 0 0
-121.066838636942 8.4993136241799 -11.4755184941048 0 0
-41.2258008114988 9.17921861870156 8.18310443596999 0 0
-140.54033489453 6.97347213616924 -9.73639774045984 0 0
-60.7423171710596 21.6334904183863 -9.33192670940089 0 0
-222.733878384297 -50.7253551648081 2.55442367774336 0 0
-177.348332686078 -1.79151083179459 24.0949097610052 0 0
-219.068616706028 15.6105534536824 20.3094980707906 0 0
-197.548669944373 2.90252890071697 -16.1608807614709 0 0
-220.363775222575 -38.8783021809299 15.8235077550051 0 0
-175.924990353593 -2.15124095225356 -12.9642723248816 0 0
-121.439707992946 12.1698398240049 -10.3662726946484 0 0
-123.990750822589 -5.04050098741815 -2.37463183786781 0 0
-158.289908956452 22.4838383565813 -2.04387795055701 0 0
-171.719878373572 18.9973387158072 20.8623623288386 0 0
-141.691288347083 3.91752490775102 -10.2050321025724 0 0
-202.481456315863 -25.3263186753016 -24.0221356917185 0 0
-81.0243591339969 6.30835152062838 10.9322814081791 0 0
-141.613813015527 -0.539663508075601 15.9447827503794 0 0
-212.207171290515 -29.9536327366472 -28.9074631544062 0 0
-140.855626531826 1.57719092508451 16.8177724586322 0 0
-59.4367575961629 17.0448020598223 -15.1707028974698 0 0
-192.958570555834 37.7459470861992 6.39917381824822 0 0
-145.477214955724 -4.00423465094364 14.1816715889576 0 0
-71.3242608712447 22.1820044539832 0.553724775513292 0 0
-111.863186688967 3.64384788228221 12.0733416695054 0 0
-154.608161196879 -7.71559453909215 -5.0247436792348 0 0
-232.084292565401 -47.2174154793693 -10.2415719372642 0 0
-222.774773167049 -50.6296767731282 -13.4591089010128 0 0
-221.352202817456 -15.1053963853093 10.0598352990062 0 0
-39.3128941954069 -4.01935710078013 -14.2007459735768 0 0
-207.790351774169 8.28809575657636 6.02833799484013 0 0
-223.490646836001 -50.1039226724068 -14.5139095755878 0 0
-151.83030644051 -5.58604147814217 -8.72644847042656 0 0
-217.426668657011 11.7803845653859 23.0402315452336 0 0
-194.420798085396 0.303171861159623 14.8346266547977 0 0
-86.9298706525497 11.3432069316867 -15.1131284496253 0 0
-138.584796208669 1.85982110681905 16.2166595231093 0 0
-127.248093239821 -5.02839913581352 3.33925254058549 0 0
-208.32149694093 -42.8896768460464 -22.8050374080073 0 0
-191.777575084529 1.98373224358944 17.9566703857248 0 0
-67.6377694378897 17.2525472528305 6.64604099745923 0 0
-198.472015321332 28.5730535158524 18.1235743518472 0 0
-210.580026169415 21.6824639597132 22.2154678223358 0 0
-54.9863973444097 22.226063111472 -6.97816389110414 0 0
-180.173862048656 1.50734721209743 -13.1553392278206 0 0
-173.830746259373 -0.0196888202912748 -12.9555720400006 0 0
-113.956842363281 7.54703525647312 14.5586549527031 0 0
-237.898205405285 -39.6089349623578 -1.08408512148976 0 0
-206.449042930295 -7.70887871869483 -20.5124855252023 0 0
-179.212293918977 -15.2392573712296 -5.31155393585222 0 0
-230.060956790071 -49.7135806963942 -5.01787020667486 0 0
-187.466474304192 -19.7550649464022 -6.11629664560895 0 0
-76.5685255347443 -4.38272341922485 -7.13179816035739 0 0
-171.305491876522 -8.55924931680406 -11.2291886936432 0 0
-74.8873218737032 19.0882161128407 6.33171604162752 0 0
-187.121153814455 -9.95465193238084 -14.0907232791576 0 0
-62.7484813065577 10.5259775812391 10.3154156667213 0 0
-95.7948756784152 23.4406911566705 2.91605959580686 0 0
-158.452618542934 25.3068292021036 6.48179821087368 0 0
-141.201288847509 21.214212750155 12.919893727932 0 0
-181.396783482673 3.33173651956871 25.7046039302462 0 0
-240.070084560317 -29.3325329805498 -10.9529099535109 0 0
-231.82168181995 -41.2928540999491 8.47126012919235 0 0
-212.353143093259 11.1961021051319 9.05400383353866 0 0
-196.480357039389 -38.5644739451195 -6.33219363160571 0 0
-235.390449647534 -44.5236940491827 -4.91883774557147 0 0
-234.625569412128 -26.6141347996674 -21.2815199589318 0 0
-171.546084543069 -13.2065917251246 3.54817806050251 0 0
-205.210244196834 32.7894156582597 12.3050641211343 0 0
-80.6439785787256 2.17752736633378 -14.8975829825794 0 0
-202.762653499702 4.58731667751028 11.5813977336533 0 0
-126.813791304611 -4.35777204879536 -6.51739458564722 0 0
-211.095453005974 -51.9205226911758 -6.28974868627359 0 0
-180.799790413963 31.5025396893796 -2.07954724978685 0 0
-127.932729510817 23.6094628432506 6.51089357949817 0 0
-190.21191947575 -6.34823345043938 12.6517729651931 0 0
-195.056641077182 3.20642954595709 19.6615128112978 0 0
-212.709830587222 -52.3264285133486 -1.02034619841749 0 0
-205.577232696228 4.5878253104914 9.11227476874956 0 0
-213.772552355962 -35.7416700316721 17.0411203257497 0 0
-201.87970085741 -23.4328139702967 8.54042065109842 0 0
-197.079480289081 -18.0054864110513 -15.9314482296934 0 0
-219.608368970591 7.47802748631765 20.4331959572881 0 0
-192.237230215479 2.19218709222471 20.4314074060592 0 0
-57.1386724455722 -5.2351600555149 -6.64147969365533 0 0
-29.8206570335294 -5.70462926265651 -11.8590512934062 0 0
-87.9990145922593 8.67163837952779 11.9661143140251 0 0
-225.967087011295 -11.7421504314419 0.909978598648227 0 0
-37.0027823704521 -1.60400526783361 -0.431107645275458 0 0
-76.8019805991546 22.6627214667804 0.607276332809618 0 0
-219.190778011168 -37.9661189709333 -27.7477483009017 0 0
-237.859338882479 -38.6357567440484 0.667865491609056 0 0
-179.513243834331 -16.3437971074211 -0.11620666707135 0 0
-184.961215686043 -10.1913511616698 -13.9075760410046 0 0
-198.438136965674 8.63968004201378 -18.2621682356636 0 0
-237.297352188407 -17.3944788610267 -8.46074281849546 0 0
-44.4419403819172 14.9325844725788 3.6533185808799 0 0
-209.282902416832 -45.2038588394028 10.589534635342 0 0
-171.508358003618 25.4032046380823 13.9243218978996 0 0
-181.816231971981 0.594249791603255 23.2392024093172 0 0
-221.271474988443 26.2135221470687 4.68095057183805 0 0
-132.470150157396 23.8854634835698 1.88220590943288 0 0
-183.746363843954 32.5379694045864 9.96721663435859 0 0
-31.7651677467425 17.5732192859049 -1.01162988692557 0 0
-100.468734630949 -0.247468256813998 -11.1989845539776 0 0
-216.205346463461 -17.6407238831345 14.3530748011849 0 0
-180.607652983349 3.57748755977713 -13.4749819460846 0 0
-215.427494506753 -10.7325125015618 9.13111722714723 0 0
-154.362725478527 18.0947009004797 18.495208775702 0 0
-100.193359080318 -1.24000263170806 5.56766195835956 0 0
-152.289083135532 -7.4856577098301 -1.13127912860085 0 0
-91.1841964187666 22.4597567406606 -5.25254462002394 0 0
-189.84396342296 36.368103433048 9.47314032321164 0 0
-203.052419473051 -10.4405560854664 10.3795587864688 0 0
-94.0618253331243 10.267337306718 13.5725913915524 0 0
-166.367035663186 -11.0940564029963 0.636215184921787 0 0
-79.9344752483651 1.97788194390455 6.683578208917 0 0
-119.294365598929 7.01774242706023 -11.9683578000101 0 0
-16.9186450855673 1.80662950647822 3.57499876879931 0 0
-101.65885728561 -2.69795262595718 -8.4636409772792 0 0
-93.2919859816959 2.66676115091951 9.06831441244534 0 0
-117.661293627001 0.124683342555306 10.3663649916089 0 0
-185.373658129565 -14.7455514349913 -10.7722420168632 0 0
-34.6733501718642 16.1437232090379 -17.9608131192693 0 0
-107.638798633647 18.9514966281019 -7.64788627877781 0 0
-174.411163921748 11.2748669162691 -9.86246659304602 0 0
-208.13958338475 33.3348497417919 6.24771663243896 0 0
-198.673323714846 -27.2591405216591 -17.9160820195607 0 0
-23.9404456186295 19.6204267898439 -14.6426005907704 0 0
-77.4515081936661 6.16095752686053 10.8367018639893 0 0
-170.622843839915 -12.0028998423497 -6.75176695846178 0 0
-148.326177657533 1.49508814026209 18.5457737547603 0 0
-65.8222236493149 22.2406370090053 -7.58320042213208 0 0
-123.638166467302 10.8475798989098 16.8112909171584 0 0
-142.270033854593 11.4176299970117 19.4007341384057 0 0
-196.322669765355 32.1221487942423 15.5682846271993 0 0
-11.0791370085802 16.2874476105627 -18.3378478540142 0 0
-194.98132025456 3.3233883594304 16.9022724028087 0 0
-32.4991727046932 -5.36905371037247 -6.62427338001574 0 0
-213.176856494224 1.31419848466016 -14.3003799919943 0 0
-203.318135722804 10.1788499158225 -17.6749795569804 0 0
-155.113937241833 16.894172208391 -5.91641562276693 0 0
-105.336495925815 13.0529280895229 14.2283811111365 0 0
-122.925367402298 15.047006711709 15.9973120180065 0 0
-202.285479477639 -35.9923058047069 -23.5700997244731 0 0
-25.4650268172903 -5.25739329360723 -6.07877729562886 0 0
-219.954618873211 -48.5435594614471 -5.83282138481587 0 0
-215.878451233676 -43.7025937608465 13.4490838964518 0 0
-223.725205353736 19.7044253673728 6.79850607192352 0 0
-33.789006834733 -5.79162149905541 -10.2503484180999 0 0
-157.814116860521 3.89294035173443 21.0624819453247 0 0
-208.559401393328 -30.1969478944779 16.5447845835996 0 0
-183.706739295505 8.57883108652462 26.2955701772499 0 0
-15.7361634720456 13.1065693801302 -20.1689165034877 0 0
-175.326256087286 29.4257138976828 8.79965242970684 0 0
-128.644494561506 -1.00186847839648 -9.82919613334014 0 0
-68.8637303937681 -1.39324865229681 -13.100243674418 0 0
-54.5781172038518 4.2580191905188 7.84995526593874 0 0
-15.8404134482519 11.0384976874068 3.17468605776625 0 0
-196.202213401844 -6.74429560762228 11.2475859010245 0 0
-173.586304522038 2.07374992748184 -12.8701701369576 0 0
-223.425848349249 13.4010459507985 6.481306303545 0 0
-7.2291822525339 11.3922610008378 2.26026922427395 0 0
-152.878355812751 -5.91197763199751 10.3563479791671 0 0
-123.19129486188 20.4025304033903 12.0958495421891 0 0
-61.7742945608682 12.6535044904727 8.87758775474659 0 0
-47.5936280868501 20.1016137369046 -1.36348780491268 0 0
-208.490550775372 20.079917696519 -15.2383376570063 0 0
-213.127339526058 22.5075436214713 -14.1850737501467 0 0
-41.5982790173671 18.4004039916616 -15.3126403383524 0 0
-124.380307785493 16.8882385810972 -7.22424062435626 0 0
-122.776679599252 -4.11401212603499 5.63757817929228 0 0
-154.613348294026 -4.40495347237273 -10.0997259706982 0 0
-178.082326979561 19.7809167282911 -6.78498258199505 0 0
-203.491501020474 6.09981428959073 22.5417794886196 0 0
-197.13460897448 22.9875680702646 -11.8628366447535 0 0
-219.078097372565 -47.5180668859049 -2.46867110952239 0 0
-164.362858290223 -8.78108208718692 6.60197584630451 0 0
-179.077578684403 -15.9866093950122 4.61881626624786 0 0
-207.828989659212 29.5718202498901 -5.99472845605459 0 0
-155.415827426227 2.62599441582006 -10.4123494440496 0 0
-198.603890899778 35.1047703819288 10.8129922453566 0 0
-207.227022343172 18.7519201034941 -17.9316722891798 0 0
-197.078850621168 33.1821733197424 13.6158024669429 0 0
-178.247968650227 25.5071781173288 16.7081152586179 0 0
-86.4220240340693 7.84335325196025 11.4375650466111 0 0
-145.061890721476 3.60899475136115 17.9951698492895 0 0
-207.911115402907 0.609191236609493 8.43856290621027 0 0
-209.205360279637 -0.0815502669916957 -17.1250017154518 0 0
-97.8319589516484 12.9588612582388 -13.0572970641715 0 0
-203.046978825259 33.0491002509645 12.7534943791594 0 0
-137.456303231527 2.79202440235863 -10.6553870315959 0 0
-196.757551923479 35.584889611546 10.2831771778292 0 0
-149.058599418144 20.4866682966279 -3.15052447112572 0 0
-109.287687062509 12.7086093835977 14.8035396990945 0 0
-208.346841499326 -11.4035556231624 -22.1297414935348 0 0
-221.805458176886 -49.1395785405542 -0.320462295795043 0 0
-195.662273520986 34.4737606018512 12.2023185324239 0 0
-167.878435047057 -4.43357278573026 -12.1147101980317 0 0
-221.52244532343 -5.80941474130983 -7.02098047549736 0 0
-104.970470331853 20.7950108374682 -6.28230518816458 0 0
-25.8262033318417 6.84120018193181 8.25311621943124 0 0
-17.0391544161275 -2.10336679268072 -1.05169213538868 0 0
-87.9541704074263 -2.97371365586132 1.34298076817396 0 0
-228.436241311748 -49.5788008625477 -11.7314573062625 0 0
-223.225881412637 19.8331629339033 10.6162836092321 0 0
-212.936014407473 -39.3130058755541 15.7420195642572 0 0
-176.331236618109 -11.7400291281434 19.6235138130931 0 0
-218.671014231605 -50.4733583355826 1.36718286444963 0 0
-237.034374204354 -40.6951033282055 0.262721818478831 0 0
-208.080220566067 14.854330720885 -18.0702357973463 0 0
-81.1279863662292 -1.9135884893672 2.07455172978726 0 0
-144.226865245481 23.7432622544093 8.19289210086258 0 0
-142.879347698932 13.5240716930409 19.0646273066838 0 0
-211.853565425753 -25.0789289779419 17.441039423147 0 0
-176.08760824871 9.83430755231458 24.2659539536556 0 0
-136.194529782836 -3.78290607224137 7.23629854394544 0 0
-68.7209079766562 7.75613497131664 -18.0849052344741 0 0
-98.5692469508605 22.2459215169213 6.52142376859458 0 0
-171.264509599277 -12.747211245741 -4.07122039172317 0 0
-211.375415770701 22.0489349205772 -15.5971651727479 0 0
-180.489562386386 21.9394006120909 -6.5041174422633 0 0
-172.743587598806 28.805034690706 4.74206682850638 0 0
-55.2021201645664 -4.01213588565501 -2.95951829568266 0 0
-195.500920591335 32.0942015162489 -5.38557141301744 0 0
-198.485542267731 31.3299661742868 -5.7122012330944 0 0
-70.474278788433 18.3913330852174 6.07150835295846 0 0
-227.215735854896 -18.167491305293 -24.1196123381493 0 0
-148.107097934804 16.6096667256196 18.5948253394437 0 0
-50.0901012662276 1.15707620595923 2.95620415204193 0 0
-215.052430790933 8.99218666267593 24.4080898549019 0 0
-215.980065219701 1.09073675909108 -4.71284511891325 0 0
-180.909193582239 30.2041690679839 -4.38469075769498 0 0
-167.445639250047 15.8887101788822 21.5815764887952 0 0
-192.985978589332 9.52174133442188 -18.0122621047793 0 0
-93.0962311356961 2.64164125462027 -13.7190756914805 0 0
-213.011342234101 10.0590840278144 12.8562235324866 0 0
-75.9582900155325 21.3913614453678 3.41813044556374 0 0
-234.453332184497 -45.244882130406 -1.97959861667125 0 0
-38.3555508513741 21.1011726207605 -5.42208715144572 0 0
-194.758962077924 31.3617600112895 16.5394926961899 0 0
-201.82257795642 -38.6590201524529 10.2762124408022 0 0
-205.069911477336 -49.9507517740511 -5.36113233188968 0 0
-236.115906183828 -15.7053918642743 -9.57547816339219 0 0
-159.748159639158 14.2154994518494 20.9863770335922 0 0
-195.851351591455 -27.2980183015551 -11.1013991257466 0 0
-182.714476322286 -10.5960838645624 -13.2806507309833 0 0
-213.473443073951 12.7331586332799 4.40251266573004 0 0
-216.976280698445 19.6770093231617 20.0892313556498 0 0
-122.2726100292 21.1141693884792 -3.47942248093154 0 0
-204.701475293002 15.6774730045339 25.8784615457208 0 0
-25.0843688927837 20.8505875737206 -11.1914793129013 0 0
-234.564569728029 -16.0689656482061 3.6295213443481 0 0
-223.987103454171 -8.25118829273014 -3.62345714423539 0 0
-188.706835814606 13.4964050021131 26.2475664043024 0 0
-62.784511814522 -2.87725088999996 -12.2620961323657 0 0
-198.706322222763 -5.96097593708681 10.8720997994832 0 0
-23.8077721920139 10.9201631596564 4.03055291519457 0 0
-201.110986115284 -30.8175052703156 -23.2067008099471 0 0
-208.870375550785 -6.56595484819979 -20.5652501331914 0 0
-162.115170894893 14.1254959128288 21.3409951994113 0 0
-146.998221706772 4.50344305052242 18.4730542606642 0 0
-170.502004461449 8.58501934722636 23.5775101341542 0 0
-212.206781638974 27.6006672562435 -8.83548237016031 0 0
-179.495660200722 25.3342389128634 -5.42104144900684 0 0
-230.272051289389 -37.194634893709 12.229672787091 0 0
-218.728503561008 -51.2544935937146 -12.7219834351348 0 0
-223.238677773503 -49.1567314706027 -4.82418151809574 0 0
-206.14157268584 36.8431734674182 3.23085890646784 0 0
-78.1272827693467 13.1133201451509 -15.429008809988 0 0
-204.926601628325 -34.1413898441634 14.1891277792665 0 0
-143.748456627142 -6.73408123761686 -3.58872524806553 0 0
-105.422553238105 -0.630521112031567 -10.4634309366797 0 0
-203.448687347399 -28.3339909504508 9.96307883581138 0 0
-112.957822921357 22.3885832861102 -2.88646606535099 0 0
-207.275873947187 -42.4067928249168 12.025641770564 0 0
-100.666756233754 23.6331970161218 -0.325025828343948 0 0
-191.599627110506 -24.1032401925113 -3.91870167606486 0 0
-147.522724192508 -4.64530061039179 6.27647073273657 0 0
-114.639864584213 -4.21429896385947 1.71109928776123 0 0
-49.8297527467816 -5.11656497237803 -10.102855018996 0 0
-119.886015080651 -4.71195495854902 0.301972214472078 0 0
-190.255627908624 -16.6992353441452 -12.1225583718398 0 0
-198.248925273471 -24.5527524416739 -16.9848933009823 0 0
-10.6629592910914 14.1381905655767 -0.0369954539128017 0 0
-192.591463007945 13.975211835449 -18.1589332093955 0 0
-193.282530498018 -1.98797263639684 13.9603246627238 0 0
-111.31091391247 12.7121356121758 -11.4409233666125 0 0
-187.586193874887 28.4388438764495 18.0305231685517 0 0
-212.387343604477 9.97640450786099 1.14522084821833 0 0
-201.288259095771 -35.4127508129048 8.1196283490821 0 0
-214.31559990145 7.86890214158005 -10.5512292001123 0 0
-178.753264207941 -5.40849012604463 -12.9611826562805 0 0
-209.97760642307 11.1451210289945 25.5257520648736 0 0
-178.939507972561 6.76643173818877 25.3182434655581 0 0
-99.2296108944877 8.83899135420946 13.2576684232904 0 0
-214.378473022136 -1.214097033273 -0.903065612760428 0 0
-115.169528983111 23.9224827652593 3.37438685056544 0 0
-46.3752993909527 -5.25933705385248 -6.23840088482033 0 0
-198.539263360826 4.72282492678631 20.6773422574501 0 0
-219.818564286454 16.4570919111002 18.9372461839414 0 0
-161.760566179588 25.7037171761295 7.03492762546352 0 0
-162.408572245105 -10.347825434902 -6.03948226601693 0 0
-240.636425202073 -28.4719944094292 -4.60774912680502 0 0
-81.5413165489297 18.6925683275686 8.37114551639693 0 0
-65.6957551268987 2.74002166309142 5.86911868313886 0 0
-207.395677968401 7.46615189532767 4.89988952593167 0 0
-72.6847825793773 13.4206241285271 -15.9582686037394 0 0
-223.987417554361 17.6621195485079 9.70581252279907 0 0
-218.342967245441 -48.8213575699744 -5.08668879863856 0 0
-215.516778561564 -3.4507262810251 -18.4932349707343 0 0
-15.2193094575418 7.00036900266031 7.59617483454854 0 0
-46.9465699440274 0.223087472575955 -17.4041143161177 0 0
-206.604694840582 31.8200582526685 -5.00769669453064 0 0
-127.713524028722 -5.05557091379678 0.477119775651225 0 0
-61.7560637102284 18.6877362562969 3.72804391677711 0 0
-152.031455640455 21.1501533980719 -2.71740862292771 0 0
-221.768114606551 -52.6751767187359 -7.36755578332778 0 0
-195.996993901741 12.2121954795781 27.8653676752795 0 0
-212.365185214591 13.0674482816459 -12.5958267423679 0 0
-82.8630289254647 7.79730601805579 11.1974824890787 0 0
-189.776944981881 -7.03940836792182 -13.5900328565014 0 0
-207.757291949006 32.9333647142329 9.0302883163771 0 0
-224.485077738029 -40.481126802178 13.8434451548302 0 0
-216.091937000441 17.6031685768109 -11.3804515063678 0 0
-200.927678894468 -38.8581321485753 8.36162397139147 0 0
-181.387089992304 29.9572689042304 12.4171165291077 0 0
-191.773950898144 15.2341261102621 -15.5857523161756 0 0
-115.991869688348 12.1038432667266 -11.1444328117701 0 0
-148.009511062635 -4.95221728243744 11.4536076703739 0 0
-150.179710345792 22.3026051669495 -1.47704802060147 0 0
-76.0075058066639 -4.60000315776461 -4.13413134348698 0 0
-235.301800311569 -20.7257430647975 -18.0537616865768 0 0
-15.4841885825345 20.5535211795693 -10.1700880752515 0 0
-221.711177851485 6.63332346958791 16.2405083573402 0 0
-48.8194720870324 -5.46874928467174 -8.12802967298601 0 0
-187.136780887067 -14.0530160722794 7.93793604511025 0 0
-157.262138546909 -4.19965357998985 -10.346614477771 0 0
-199.095244632776 16.4580697871634 -19.5083616901388 0 0
-236.181579507146 -27.5108390422312 8.00171043135856 0 0
-97.0334629055612 7.24385267046921 12.1290820496765 0 0
-179.691407100278 11.8734932990009 -12.4373814522327 0 0
-177.400472091366 -15.6257208484413 3.05758831126636 0 0
-237.245992745285 -31.6968414398365 6.34347449175638 0 0
-222.545274916363 15.5527830335886 15.0313991181809 0 0
-66.7407598568643 0.89815884194139 3.82992328709422 0 0
-18.2231624260269 -3.99090359458341 -3.45045383447307 0 0
-195.078388677019 3.53935767256384 23.2375534164732 0 0
-213.318796015768 -41.9839294782383 14.3785462024518 0 0
-213.299734595798 1.15611500118002 -0.774565446876061 0 0
-220.256000398913 -9.93208720910833 2.50585292981073 0 0
-101.245262419826 17.6497009959944 11.7314050174809 0 0
-187.405488120402 36.8132751186241 3.79289110478671 0 0
-238.240272315294 -34.573125192854 3.26960996438724 0 0
-205.114118789658 6.11124048647609 21.5623583174936 0 0
-197.050725177375 -35.5495220931751 -6.45692289175586 0 0
-170.011618769021 21.1376245560244 18.2773248884344 0 0
-206.400894606567 10.065906268281 9.27811375775737 0 0
-80.1164217627439 4.82397014195775 -16.3064021700241 0 0
-201.29959879917 -6.50752146623532 -17.5039748790685 0 0
-116.849376749861 16.1154187564344 -8.77654225438428 0 0
-27.0013213123819 -3.79895995444334 -3.35084728837681 0 0
-115.939648490337 8.01753884047805 -12.2167234304039 0 0
-92.3492181677729 4.25897088427962 10.455149029713 0 0
-72.6759903458176 5.0372947205842 8.76950069266164 0 0
-64.9280150575674 7.57424054380007 10.728723595675 0 0
-13.4218818098117 8.28396694497433 5.93133802953372 0 0
-180.447822064887 -8.19380768992417 14.9360560825873 0 0
-176.526571118463 -8.32222915603072 20.948588660315 0 0
-14.9948603110018 18.428730750427 -16.24680907897 0 0
-215.600622700868 -9.03749561054039 -21.4759893951447 0 0
-190.403938371244 9.43076811693714 -17.2038065576347 0 0
-208.827619114353 13.4534544379401 -16.4979528308675 0 0
-224.561261332471 -51.3660376722793 -10.2516812149395 0 0
-210.372560144502 -45.9217537995216 -20.9405248139928 0 0
-50.373879663884 -3.58180578155144 -2.59731447995385 0 0
-166.482874272206 -14.5487524568496 14.3627258681081 0 0
-79.7242821282558 9.91528052973515 11.6983958264756 0 0
-218.854938251882 -14.8808458255173 -25.474338874591 0 0
-217.248952110969 -2.28678692361094 -14.2180230522077 0 0
-93.112048572445 16.9905875724788 -11.0533601226168 0 0
-27.4933342852591 -3.32172288782805 -16.661275006886 0 0
-122.465339092508 -2.41186447800486 8.49128212006282 0 0
-214.740619495837 20.0265053652762 -14.1890060380832 0 0
-209.204342071406 31.5618363407515 10.990715644651 0 0
-219.691344733665 -50.7094803984401 -8.63660231762131 0 0
-187.198562681014 1.61195547172538 -13.8867047611517 0 0
-158.165423788811 -8.73441078329216 -4.32862424820184 0 0
-81.9189716663779 15.5753765138675 10.3289659228776 0 0
-134.914720398715 -2.6563471038931 9.58862509159312 0 0
-197.875560171449 -30.9804394541378 -15.640938573943 0 0
-89.2314076052643 4.11545880348776 9.55456439701565 0 0
-130.266967235226 10.9764853053431 18.0618225274655 0 0
-43.7080836723613 -3.26323443558213 -2.37354701735881 0 0
-152.660649682589 24.2608611210747 8.45081624310289 0 0
-194.415922414961 -11.1491705882039 9.65774901436653 0 0
-220.667022252775 25.5094499742658 7.06034860262262 0 0
-208.441017733679 21.2549784903677 -16.4164499198644 0 0
-153.262771542693 24.6785181109842 2.67132377366068 0 0
-180.786901791644 -0.0984035525995877 23.2044827075708 0 0
-226.464107046431 -51.2627055748878 -9.73981476564843 0 0
-185.730343433956 24.7246678995819 20.7544978500882 0 0
-119.765988990386 -4.61103988245931 -4.88222208523391 0 0
-196.635512688453 -36.8083112819827 -11.3905737057733 0 0
-105.034677061478 9.47762630069059 13.8177800847528 0 0
-210.194468725998 12.5114506876534 -13.5567282463007 0 0
-192.103178595913 33.2797379246063 13.8604843243216 0 0
-238.182734525399 -39.303168962019 -9.7906548914059 0 0
-186.63085557598 37.045591931433 5.35675144875088 0 0
-204.644195676437 15.0270238531113 -19.1650406638333 0 0
-222.591476435021 -42.5474891515694 13.3298466109099 0 0
-227.023490964454 -50.2439215260685 -12.9852294532176 0 0
-211.648010642064 -3.35637140556111 6.7083216999994 0 0
-105.017824556896 -4.12697436248275 0.537376531130101 0 0
-198.430613805028 -3.67635823469441 11.4190247246681 0 0
-78.6720157900108 0.850077188147923 -14.1584067602577 0 0
-144.109675490046 15.0108672637523 18.798392778424 0 0
-234.070117323062 -14.7590936130289 -13.8296313099929 0 0
-207.777662676613 -35.1468652204654 15.666236019406 0 0
-176.669392673671 21.8725092783837 -5.88428477927572 0 0
-105.553236280781 14.4027700371662 -11.229957423413 0 0
-76.6345685126947 -3.0273118259212 -9.99993111094555 0 0
-91.6839557812706 5.91997874959861 -15.1376117515772 0 0
-226.834510349128 -45.1714087229528 9.09684220615991 0 0
-183.208326095484 12.3019221460123 -13.3780473491532 0 0
-94.1866503865585 19.5186538764738 9.73427134364539 0 0
-149.636670783124 -6.10594691258813 12.6414622816091 0 0
-154.260573091823 -7.02273318654177 11.5545100309712 0 0
-7.11699509034016 -6.79476663447249 -11.483901258015 0 0
-84.6782628672397 0.242891270473242 -13.1320497877059 0 0
-175.592729466854 -9.63629802812396 22.1836676440121 0 0
-182.285113346381 -15.3794780612639 6.7469401350166 0 0
-23.5882663100185 10.5215630715551 -20.7481127096859 0 0
-217.603588099046 28.9588043095182 -0.244711456692362 0 0
-226.240111984987 -41.7103645892366 12.387315134382 0 0
-200.604158682088 6.24184964169436 25.2554611690623 0 0
-210.277147525183 -7.55021018822435 9.47014518481295 0 0
-216.176455285375 -9.19250348942179 6.19870363177646 0 0
-7.46937538218907 17.9467494994395 -4.79017055384287 0 0
-28.8506053206135 -1.89819633872997 -0.758112238691107 0 0
-209.983081108576 -51.1456939217624 -1.13063746267833 0 0
-144.231206116356 1.88549803598448 -10.3354713640903 0 0
-56.1998217913597 8.18145633432474 9.85505306901657 0 0
-174.744860798927 23.694588493131 -4.48602807101343 0 0
-200.16120422673 5.26599979651636 20.1343116176153 0 0
-91.9212077583102 1.33853806645773 7.38773593649698 0 0
-197.720532970795 -37.6275944598561 -1.43181548200847 0 0
-165.945166724873 -8.63897089005854 -10.8541183837703 0 0
-211.801240568461 3.4998835490979 0.636834282893839 0 0
-189.880431943688 17.9317737634087 24.4425892648199 0 0
-216.468530828028 -2.62943987105461 -2.69107596326705 0 0
-157.475416522233 16.1066740092114 20.1383503996964 0 0
-96.124209124435 11.1028230140116 14.3430582205036 0 0
-105.326221302123 -1.77719927254743 5.59126774270827 0 0
-234.540542545764 -13.2606173384018 -4.49594652764339 0 0
-224.798346526537 -28.3367212133842 -27.9648052800491 0 0
-185.665026659905 36.1667119495361 1.4707074640728 0 0
-222.477590819836 7.71466346827414 16.8717914768509 0 0
-194.34142885264 19.2127193394661 -12.1487979918144 0 0
-56.855230842178 -2.8898435801136 -1.27798189892536 0 0
-210.935760491369 3.39650328174243 -14.722899272934 0 0
-144.852975652531 20.4917810071403 -2.98764145747596 0 0
-209.07090474126 1.58015956050518 4.81508131655592 0 0
-218.069789259025 -51.4008394331401 3.33447092136789 0 0
-176.303999372442 9.69054153421134 -11.9752189448039 0 0
-163.563117290504 17.4273163760232 20.4070265030224 0 0
-183.948294635659 34.6310484214396 4.7261120645624 0 0
-179.800144308066 -14.5766177865634 7.38670873535329 0 0
-60.9744967931226 7.03225857496822 10.0990093633016 0 0
-6.30536959179408 20.1383315528767 -11.8877248535712 0 0
-41.179428040691 12.8510529100495 4.77745106825302 0 0
-156.359972086901 8.71370840199735 20.8056343285719 0 0
-170.206019122866 26.1604314789937 12.3490566161815 0 0
-164.802391653329 14.3825196520553 -6.88554580562413 0 0
-193.502352699258 5.3902711417547 27.2571028495687 0 0
-190.595210193505 6.12261021868767 -15.4312494554211 0 0
-57.2540709782637 6.50058734203677 -19.1337451255287 0 0
-157.397003115118 24.1645707026861 10.4019181518537 0 0
-238.460440335553 -39.2573802253475 -7.41099526601767 0 0
-147.889784854252 6.92880645852309 19.1258837782958 0 0
-164.308937757301 26.3353774316524 5.01081951181374 0 0
-185.121545549631 3.36841972567056 -13.9060470508741 0 0
-103.407660857924 2.93585711200787 11.6861284539424 0 0
-127.075812137748 10.3393517582735 -10.3171893361787 0 0
-18.5026924519047 -2.3167993737135 -18.7778489677368 0 0
-222.289175756675 -45.2120606166185 -22.6104225472243 0 0
-118.525181364196 19.0307559063545 12.7465084928426 0 0
-216.736482363629 26.9937505211205 -7.05455978849085 0 0
-128.545181406053 23.4888546956468 0.734082882809836 0 0
-206.275769461455 -47.2250607610246 -16.5472703324433 0 0
-188.716194174579 -9.2035140788658 -13.4569047147009 0 0
-220.035297813194 -3.97506867346993 -11.4112497964068 0 0
-50.5865935361285 10.0052384302131 8.51753980209709 0 0
-54.8300139070022 11.6711567757235 7.93504032022735 0 0
-216.686057609809 17.6434792474304 -5.36149788776142 0 0
-125.472625607899 -2.79772124037048 -8.4384954471927 0 0
-69.8882788863536 22.7161644445098 -1.7716383783572 0 0
-197.616269298785 16.8603728558419 -18.3648848784201 0 0
-176.943696640402 5.09606250112549 -12.2513675910329 0 0
-221.281226880716 7.12561725412695 18.8191035137533 0 0
-236.740167761356 -18.6845859874782 -13.2095436743802 0 0
-113.568437471287 16.8287924167254 13.3730628478268 0 0
-187.141847870703 -20.4186371326606 -2.41086456846235 0 0
-226.368690578503 -18.7432968138935 13.6631360736022 0 0
-138.717426763161 5.0303409024465 -10.2861937520141 0 0
-204.853745942305 21.0348861810924 -16.0789495763708 0 0
-168.367226732713 24.799623550887 13.7803752564821 0 0
-178.79586347973 29.2682847509417 -3.1194323723605 0 0
-168.709962324941 0.266294733125714 24.6741060044673 0 0
-218.80490303643 -49.3606231795484 -7.21818736598766 0 0
-132.741241824387 -5.41961130977177 0.63471273847606 0 0
-119.363021787589 21.330205312519 -3.46155869037835 0 0
-209.323754294256 9.76238450323471 5.3285581652473 0 0
-231.56482462298 -48.5257610275001 -5.22548853403585 0 0
-216.843433608823 27.3602299986738 10.7289201553365 0 0
-204.525371656063 -5.2183622123745 -18.9202700517072 0 0
-201.257543179487 12.9513617203043 -19.239140756229 0 0
-199.954405145876 17.9076417808981 -18.2662360686961 0 0
-220.131639871684 -48.4656364613314 -4.15173865225258 0 0
-160.20334635782 24.9148036435766 9.46060005784352 0 0
-114.763416742273 21.3611532017679 -4.10702462191018 0 0
-2.08323561204955 5.17913465156097 7.60011363263436 1 0
-211.725503514896 30.8381328391892 9.79720725669493 0 0
-77.0311256456506 18.0270629334867 7.99472952516872 0 0
-180.510384831862 5.08661274574118 25.8364392815207 0 0
-188.95716714879 34.5862565441757 -3.04241799392711 0 0
-178.545033452184 -15.3513231718765 -3.31826474572527 0 0
-229.403540330882 -42.6742460356482 9.53970960955497 0 0
-149.023748263097 3.78021058943557 18.779840081797 0 0
-59.4991728017764 22.090800792454 -2.68313052684928 0 0
-212.218805892511 5.88091786595662 -0.129477024784947 0 0
-221.285508149193 -7.85502185383562 -19.3152687801657 0 0
-54.2033657095861 -1.5459134231329 0.208133831217392 0 0
-206.101623321505 14.2490020648043 -18.6647827316146 0 0
-231.123214314493 -30.2066044037479 13.1664595072224 0 0
-110.697651847659 20.1096843372872 11.0551554279057 0 0
-122.952245127698 3.81113523057924 -11.6275246908219 0 0
-213.802105258262 25.9297835926874 -10.1232252639767 0 0
-177.780657314896 1.04718630093704 24.5379541535136 0 0
-200.679771459976 31.8763276953355 13.750276205842 0 0
-91.6821226552008 8.78060199658619 -15.2409906980449 0 0
-134.371898426303 13.092493047556 18.0500823286908 0 0
-221.656853552716 -16.8729485662537 -25.7767787281611 0 0
-55.4266455844435 19.5045721841359 1.23885739015073 0 0
-160.68492842319 -13.4604219245257 16.3022029980901 0 0
-210.885186645629 25.562432753583 19.017205984586 0 0
-140.909239285919 -6.03819608103452 -4.93061322019051 0 0
-94.7915998200015 -1.16850454896293 -10.9418623025233 0 0
-199.596673502609 38.1474417880029 3.73559671751076 0 0
-164.865518399694 -9.33277069885249 24.8905659618309 0 0
-28.978747449855 14.4239170162707 -19.1285417070351 0 0
-230.502874570135 -48.413761235631 -1.47022310843974 0 0
-200.754919423562 -31.5904229834412 5.24403289255372 0 0
-155.68238197224 -5.97044152185797 6.86791556080361 0 0
-131.764170494601 17.1786774415752 -6.3453070464606 0 0
-216.441355699397 28.6095362056639 5.65859535106788 0 0
-196.170086932043 -1.02373044674234 12.8835363769406 0 0
-203.694134903844 12.0864109661418 -18.7403439771093 0 0
-199.61117829406 -3.68477259150243 -16.1971914635172 0 0
-158.77632038522 19.7743706571505 -4.49991648639217 0 0
-229.964143689119 -22.9596961404722 -24.3571720708171 0 0
-221.678730467029 -52.0174828359026 -12.2863845442703 0 0
-143.305485457193 0.463900615276453 17.2590304225265 0 0
-178.454841419386 -12.3693025891484 10.3068620337672 0 0
-205.862863430071 28.4999312256083 -7.83240569268449 0 0
-195.851808268721 1.30993537292898 14.7404935494999 0 0
-146.791445210639 9.95032454128548 19.6395088771151 0 0
-150.873805199349 -3.153055551425 -9.9199889002577 0 0
-24.4513794243326 1.6953605882782 -20.5140646886798 0 0
-207.119354327528 22.3030467233853 22.8299405254472 0 0
-164.32702555496 8.36679288095457 22.3304061129516 0 0
-199.20933692647 -42.2762051882439 -15.3679446678105 0 0
-214.874130203448 -50.2456295284295 -2.93175087873662 0 0
-75.0459847213038 22.8391876290678 -5.03475564570428 0 0
-223.064222820871 -49.5507955875729 -1.3977645337281 0 0
-156.685093690207 24.9658683888709 3.05021124292309 0 0
-193.164167265558 12.3463817119494 27.5879635838962 0 0
-205.831004047809 9.86798565834859 -16.7799787954861 0 0
-7.31562895451288 5.94057550181501 -22.1451946145224 0 0
-79.0598686771715 23.1701468327945 -2.2814578760585 0 0
-84.6452533003593 8.26036605608871 11.4705660337468 0 0
-15.5167067725713 9.07634232923796 5.17188470198168 0 0
-173.565772063352 24.8913635922261 15.4232370553703 0 0
-17.0818576179 7.7655635757854 7.03567713935564 0 0
-199.567362767669 -32.630228744734 3.01939160249752 0 0
-206.440566947643 3.41472277764042 -16.5641904456142 0 0
-33.2628496185567 -3.6183339108604 -15.6896159641169 0 0
-132.766747784075 10.1314199926395 17.7170189130885 0 0
-62.6478877906478 22.2648499787692 -2.28869210887751 0 0
-187.871145766794 15.5081085813863 -13.5667304184506 0 0
-17.7856798639563 3.62450431769813 5.56881414460005 0 0
-135.317200631754 23.464436019017 7.87537178987759 0 0
-222.050837414299 11.4398980471896 6.70747271324751 0 0
-160.889771267944 -8.62829669372381 10.3524771672089 0 0
-68.4632105631129 2.40183828689895 5.75631094911155 0 0
-143.423187405185 -6.43076295150381 1.68992685694583 0 0
-116.063110634842 17.0283249341473 13.4650643194012 0 0
-212.195737983038 -1.07973600496495 -17.3721675295652 0 0
-6.60824384292038 4.59953526301031 6.69386411512362 0 0
-80.7222664397952 16.6371146717407 -13.0340030635469 0 0
-187.465313065471 22.9834354480213 22.1944707259408 0 0
-219.903413189362 -36.5148939372268 16.7179948687266 0 0
-104.738036350285 -4.57960709177954 -2.16422073118895 0 0
-219.939668016983 6.21342770756961 15.2194769411603 0 0
-197.899170148157 4.21154052534288 17.9419165819167 0 0
-54.0958863900382 -4.91592596252464 -4.97645242607605 0 0
-187.53720155185 3.58575580036641 -14.4300311007666 0 0
-197.226730524477 15.1053038412739 -19.031349551003 0 0
-169.839804915917 -1.78963388072188 -12.5596613989731 0 0
-212.405177180483 21.2037327187981 22.2717828689281 0 0
-16.2354262157075 2.40340807790435 -21.2949867320073 0 0
-103.260903716822 13.4728642263342 -12.0426083255335 0 0
-200.035961285928 -42.8531162179757 4.58444534897647 0 0
-234.827141138014 -24.71702694051 -20.6153740107763 0 0
-203.839091125402 -17.2071486680969 10.9840538957036 0 0
-218.575687269044 -4.38274001258939 -2.94343674728799 0 0
-185.569437210228 17.2059863803916 23.4715421810535 0 0
-113.567834478898 3.60947933206795 12.1324084090197 0 0
-191.396589496693 29.9382984515715 -7.98735468980066 0 0
-199.750951433108 -45.8157946812986 -7.34054152347071 0 0
-209.642559482236 -39.1819541114649 -25.8751355812628 0 0
-181.311407600596 7.60470339266323 -13.5495512110517 0 0
-215.250347922227 -5.10018556730744 1.5994255614625 0 0
-196.041164082665 16.3224950759774 26.5649872554971 0 0
-187.580223468174 -18.4749619325028 -8.44307724260774 0 0
-147.051680118439 15.0970460875237 19.5408965177627 0 0
-180.417388472682 16.8974408846214 22.9121811933696 0 0
-129.686135521534 -4.96268266091065 4.8679526211198 0 0
-176.30189312422 -6.51898387885988 22.1661825751455 0 0
-52.4884839221923 7.70390948098621 9.58726268643742 0 0
-126.237082690651 16.8811379064865 15.2622552604487 0 0
-198.987832970619 20.3192092610536 24.5656703894634 0 0
-107.706721788631 -1.51333873860564 6.26719351569589 0 0
-237.036187698701 -42.0338838939256 -4.01890690260117 0 0
-209.932183084112 25.9506748137176 -11.7054531762987 0 0
-198.755847718566 -6.91018996994912 -16.2047375676069 0 0
-126.042762073989 1.4933835045453 -10.9329520560601 0 0
-131.98964995689 22.8540334459816 -0.417220237545402 0 0
-105.582747406391 7.60200398974149 -13.5403002047693 0 0
-205.197719297464 -16.1036037844714 11.472439240963 0 0
-158.880151404642 19.8791987315239 17.5637072872882 0 0
-214.445004044111 -43.0970213132791 -24.7099571852818 0 0
-212.70660696018 -48.7464984351979 -18.3584143007426 0 0
-104.743424721141 18.6563267064723 -8.23132338886196 0 0
-196.382573795719 -11.818955621991 -15.6707550359447 0 0
-173.807034026707 -14.1075136340631 3.4667216300973 0 0
-240.455580271326 -32.3100286234814 -5.58150578969392 0 0
-124.851031109329 -4.72975082720858 4.95264545812966 0 0
-198.829552301923 -22.4683871653812 -17.5572959296997 0 0
-109.558483735021 23.5505719331432 4.28668822615001 0 0
-229.632651347633 -8.72375581073392 -10.3372087813824 0 0
-214.285285253791 -7.22380084132361 -20.1607617724149 0 0
-206.438134696134 -32.0490907634671 -26.7723130828493 0 0
-214.278512408928 -3.78239632442508 0.792031420230824 0 0
-226.160433252223 -27.8856541665091 16.0259395263228 0 0
-213.705628957321 8.58668178344452 -2.29908843900711 0 0
-215.219762494918 -49.79974868882 -17.1761945162604 0 0
-172.11515317492 -4.42433608276671 -12.271675124901 0 0
-234.451203478045 -13.803931011637 0.800525317859091 0 0
-188.627626985047 11.601901598986 26.8859937083522 0 0
-183.855113378396 17.4463188850619 23.2601055564374 0 0
-214.787396663 10.2505227978694 -10.2475374812513 0 0
-113.722245256617 5.7615773347444 13.4785160363434 0 0
-13.1251941644673 -5.79470324342865 -6.7516413101831 0 0
-201.253336840633 6.34071211732738 15.0642620435483 0 0
-112.194924227199 15.0639858979278 14.1145965686062 0 0
-220.295779809291 -49.2182334098746 6.58502120060427 0 0
-193.776862180124 -18.5506958104874 6.14943857419363 0 0
-213.664500836861 11.74022799285 -11.8302906098597 0 0
-62.5597071821331 4.50003283981886 7.67618435810812 0 0
-207.228575065535 -25.3536650986323 -27.3964121529432 0 0
-129.885415163628 -3.4384589049247 -8.15886822942669 0 0
-130.724501687261 20.0923538536971 13.3382499274712 0 0
-107.010084189466 12.2172751450999 14.7331389618417 0 0
-26.5125545552661 14.6761367372733 1.2077240378074 0 0
-175.893356753637 -11.2475116268181 16.2130331921904 0 0
-205.206458431399 17.4847747246772 -19.0295714161678 0 0
-170.460554215261 -12.36205033553 -1.29951796792364 0 0
-176.840052510458 -7.08221004896062 -12.604127195229 0 0
-23.3577492346807 -3.55158297627082 -16.8500976237817 0 0
-181.957000134037 0.968447986030009 -13.2415543072485 0 0
-128.270540158468 17.1471738825781 15.4933379473721 0 0
-177.949394053668 29.5527498601292 10.503033930098 0 0
-217.521504940658 16.3619436412945 21.2807771920237 0 0
-224.457972085794 -17.8741654376121 14.0215661622996 0 0
-176.522729445231 -4.40162605937316 -12.5961433054602 0 0
-209.87111343448 11.2875982788252 9.37036709842394 0 0
-230.252258575503 -9.76477523144359 -3.57788892037786 0 0
-3.74225275818824 13.1392471736451 -20.5234717063715 1 0
-236.560084460981 -21.3216711598937 -16.3852363006899 0 0
-53.4364949509633 9.65369639730932 9.27775490021264 0 0
-145.281969163476 -4.18044954383099 10.8841243523786 0 0
-234.425342440664 -16.8873651697903 -15.9884116654811 0 0
-49.0074488222902 22.0037282640001 -6.07547053443565 0 0
-103.041025256719 8.15488652520076 13.3904489593736 0 0
-162.218853942116 18.921215358081 18.9433147602819 0 0
-14.3447645788637 0.404382397770021 2.05665065175072 0 0
-54.2349620410893 15.7551420370799 4.8936944420967 0 0
-20.3870770372532 -5.76189177173942 -7.27062125285615 0 0
-196.146641571282 -20.5942517204285 -14.8662977983092 0 0
-220.71754706084 17.3951373749659 16.9821764319196 0 0
-19.976582479553 20.1148024206605 -13.6172100818605 0 0
-207.654553287825 -29.2104389496827 -27.5394109915779 0 0
-231.912288205316 -43.5980338870426 -17.4396700975179 0 0
-195.632056328076 -29.1049469962141 -5.71935281210748 0 0
-173.792504465365 -7.07099582515308 -11.6831195999532 0 0
-76.066202188716 -2.52919945986757 0.661149696879112 0 0
-229.121895506472 -44.6335333216719 -19.2179430701586 0 0
-167.429317553787 -14.7019564643514 16.9166919821021 0 0
-207.381794497683 13.2404785962285 25.7344352480494 0 0
-98.7018325649156 15.8184921765841 -11.2315357625026 0 0
-77.0031380769481 0.908568208598326 5.06509678854891 0 0
-2.92109742482476 -4.31727469385257 -18.6616565939423 1 0
-206.080009300391 5.31458493785772 -16.4443102200205 0 0
-183.931455460756 -5.00034480480902 -13.1648602055424 0 0
-156.173204808275 -11.2213558778283 15.4398052141019 0 0
-199.481434480384 -45.0579887910032 -9.4969026658836 0 0
-28.1158175563336 17.9437017768096 -16.86421647683 0 0
-103.697009712873 16.5046154824424 12.4699321094649 0 0
-107.318415303118 4.32931748168302 -12.9916398416297 0 0
-157.090197057694 1.02082349310943 -10.7710616327228 0 0
-51.4111801769463 4.07776986171339 -18.9935484112911 0 0
-174.495349129811 -13.0193295602585 19.4139501894228 0 0
-35.4514150863501 8.39647339551207 8.24979785187336 0 0
-210.604046176366 -48.7802804417503 6.46916780296704 0 0
-178.32545382104 19.3881545541505 21.3578115550389 0 0
-81.8472907877428 -0.264982805256727 -12.8540930616509 0 0
-95.3565385539488 16.6861959746139 11.5349980147429 0 0
-149.272057873993 6.19207386311009 -9.3332285767679 0 0
-211.786821465401 11.9642816773918 25.6700075990943 0 0
-212.344178324845 8.90701972178874 24.6545319102751 0 0
-183.900908090268 23.1785357744139 -7.05610556667863 0 0
-215.370814142956 -51.8180610734326 2.53367274768012 0 0
-198.375572848081 -33.2266962904111 -18.1135499832202 0 0
-90.5630042572252 3.32687549183927 -14.3281035389865 0 0
-224.527604868608 -50.247774645395 -13.1132355671187 0 0
-209.414880873041 -27.6939074787899 16.9047179054841 0 0
-127.218087907945 -4.61396178213168 5.59074718282002 0 0
-93.0086793006162 -4.307515356158 -1.67318541020998 0 0
-167.913208500113 -13.849908920999 21.6089907667761 0 0
-133.18717603718 4.04847146321444 15.7804800319834 0 0
-198.023260310944 -2.56640467790052 -15.3257845506974 0 0
-65.8233905039864 -4.94341004302777 -5.96806372533969 0 0
-74.5693635413187 5.35462428671764 -17.1196681637066 0 0
-43.6210420254027 19.5089376307066 -13.8072746917035 0 0
-43.2742610461468 9.26326294744491 8.32358150558703 0 0
-211.031561781221 14.9060651784783 -15.419631695113 0 0
-60.8178361608871 4.95159669376963 9.80824427248917 0 0
-10.0595586508354 13.7983685950458 -19.9204028697111 0 0
-81.2501666883899 11.8199310558075 11.8473454511982 0 0
-185.723069534307 -17.8613581653772 -7.18746559375447 0 0
-218.055891591531 27.2365257604334 7.08591062445649 0 0
-196.482680489763 -39.5239514992655 -11.7111393758332 0 0
-214.614890145185 -52.3730237985382 -11.3460420493284 0 0
-203.382210045272 24.8736324880803 -14.2422027069035 0 0
-123.670449570841 16.9856660245578 14.7627376438163 0 0
-183.81233168421 25.6130212324923 18.7295517314871 0 0
-199.361974650565 -29.4420776477442 3.27171582562688 0 0
-121.159112753882 23.8722506496028 4.77297300945371 0 0
-62.2987208637744 5.66904015089226 9.97307523086836 0 0
-96.5376171744785 12.5725246476889 13.3214672159688 0 0
-191.160982764002 13.0579509051781 27.0690045561812 0 0
-186.058843397509 -5.00499750659795 -13.1918881696313 0 0
-93.9240254293641 23.5914121311201 1.37824610731914 0 0
-135.729022977653 19.1709951873442 -4.38346462032898 0 0
-71.7884179653912 14.8328403037574 9.49732697444932 0 0
-237.449224791593 -38.9483347975784 -12.8320666083416 0 0
-54.2093196964816 1.81830736823382 -17.6130675658788 0 0
-188.936319165947 -11.4599744337113 -14.0848716225482 0 0
-187.65869068823 25.7461401603314 20.6104800500944 0 0
-178.657892000737 23.8687982919533 18.5805249453055 0 0
-201.692150428465 4.34263076561307 -16.9313076018474 0 0
-119.555029777252 18.2333768847742 -6.75945706263349 0 0
-202.01861632006 34.4076907655234 11.1610207846931 0 0
-8.55940395715355 6.90905045090641 7.45667271978967 0 0
-24.1256260525588 -3.14136845474728 -2.33400628288248 0 0
-205.574309687026 27.0199821191175 -11.8159383467952 0 0
-22.235087975542 -4.09948064544655 -3.73899324811864 0 0
-171.628364112908 17.4224835768606 -6.59719433745497 0 0
-126.753397440263 13.2826859115125 17.835868604431 0 0
-79.3696369676278 21.488783491978 4.0688824092247 0 0
-120.492546538616 -3.31602130997867 6.11936067505284 0 0
-94.0838100755771 10.2935579938851 -14.5717569239073 0 0
-219.876859756385 -12.2972214847436 -23.4011440557362 0 0
-32.5130088687535 -1.44537363331878 -17.8411569880517 0 0
-75.3592541170411 4.03745926266381 8.1785169812438 0 0
-224.302412286862 -50.5780851242493 -1.80793833577454 0 0
-189.852014589382 3.87187416780262 -14.9699078819493 0 0
-151.243727367985 6.91630265345081 19.6349319244041 0 0
-205.451786514639 -3.0681916749714 -18.2688298209065 0 0
-126.958607007368 11.3800112950828 17.7695207172667 0 0
-160.157390486287 4.98090321162906 21.6586822134591 0 0
-122.543792638672 9.63297431255737 16.2882835135016 0 0
-11.9069744089304 -2.91537409666578 -1.86069729955737 0 0
-134.38000073755 -1.29930416427009 11.6373309868697 0 0
-30.0209400525371 6.75951883482623 8.36415770829797 0 0
