"x" "y" "z" "f" "a"
183.044472906155 -4.61830351702139 -11.2599925094949 0 0
60.633687932723 14.4271291019053 16.8947722249783 0 0
198.13297010848 33.1921112811832 -9.4475861000517 0 0
159.460775911901 8.74189211838668 -11.2131172799281 0 0
165.279529328792 -19.0016730788326 12.3868250627612 0 0
-38.8998172692706 -4.48804304681868 11.613353837684 0 0
162.736496471425 19.7241621730346 9.74067099865925 0 0
68.6570901356799 -9.44730618360875 7.22411445565831 0 0
4.20962918610442 -5.61532525829391 6.27551772343497 0 0
-85.9318020244526 20.313391599448 10.3928676608625 0 0
-43.6811875133309 -2.60052809717824 2.7469530650408 0 0
194.840691688643 -17.0546551195014 -20.0343456968642 0 0
196.103204274312 -15.1270799100754 -18.1206139367628 0 0
187.163535065089 -6.7153196708698 20.8232003173048 0 0
152.08647759846 -15.9632056713282 14.8674160935441 0 0
89.837817716204 1.3861800383161 -6.1437925940481 0 0
-113.951811239418 -2.38585714540368 -6.82055188356765 0 0
22.949745093225 5.17114959069056 20.6285603493534 0 0
-7.27379177486754 -2.01862298458717 0.693767875659133 0 0
-15.7676964680839 4.66815007515984 -6.88315729923859 0 0
-52.5386052743353 13.7762455304336 -5.043610667883 0 0
196.135598744851 30.3433572855508 1.75052856187318 0 0
189.560312095247 -34.9303915821787 -10.8309510269201 0 0
224.432785346182 -10.4553519079125 11.6329265037509 0 0
-136.059084387327 23.141834196917 -1.0000632248979 1 0
112.969350708301 18.1235879625426 9.15466855702905 0 0
-113.513249856155 7.08221673478953 -14.2186969411888 0 0
130.802906214397 14.3322804656905 17.8288179598876 0 0
182.628314084275 -11.7235823744653 -13.1028065262987 0 0
-97.8004625913244 16.5074371995696 12.0518423136283 0 0
-48.4965523164935 -3.15009316978324 3.84746435216068 0 0
41.4771300023195 5.63686937989961 -5.76392439956578 0 0
102.238320214967 -13.1434752594445 12.2433260791798 0 0
186.847973415367 29.1470005852539 -13.1651343963084 0 0
225.283418290545 -19.6717741961592 14.1621056650873 0 0
223.085863776133 -30.8777103036461 -30.0866218655841 0 0
127.017472762955 16.646217803211 14.7174621860381 0 0
191.68115028665 9.34985630311592 -20.6599545664154 0 0
21.909747593983 7.78400633604362 20.550183970281 0 0
-75.3702438671719 19.0049703743076 13.1466395131749 0 0
194.767766787566 -35.9998193289003 -17.9784161903308 0 0
-20.2371826274613 -4.16325040321989 13.4887259041545 0 0
200.212794865896 -12.3349844876803 23.1933827627316 0 0
69.417619404288 12.9380847809725 18.0884564949866 0 0
192.479741021736 -20.3793972541352 19.7451695462736 0 0
225.428372830988 14.7393816142207 -11.9045556730567 0 0
224.855721776035 18.7803975171414 6.28674953097036 0 0
132.841378137463 -2.35425375025677 21.566358542737 0 0
-78.211719539855 9.43843685749993 16.5680413649018 0 0
-63.9693100555846 16.1991910771623 16.2320263252827 0 0
188.405834457381 -27.1813219451704 10.7239071186237 0 0
220.121581233244 10.9889550504287 -26.9307442248674 0 0
203.809303816591 -30.1984862450723 -32.2201320370663 0 0
201.581251308151 -27.9053342585397 -31.2123308305672 0 0
88.3065286813993 -4.87602123721605 18.5546516635391 0 0
-59.8492573610874 -3.47561499161677 3.94110029437026 0 0
116.122534998396 -11.3161500211642 16.3169356150834 0 0
-109.790142927553 12.8590571966747 -13.4791514922165 0 0
46.1195707285602 2.65288194301789 20.4285449159724 0 0
-125.486522725132 17.4526511691595 -12.6225296660252 0 0
47.1114265255662 -7.69983272040619 13.1536258924386 0 0
215.570540926841 8.90019529308252 -29.7057584786658 0 0
-60.2112826354217 17.9435537145709 15.4981858992355 0 0
201.378233577165 29.7526528749412 7.68083140281136 0 0
-26.6819820106025 -3.51599964538277 4.38372769325352 0 0
195.027100851603 -41.5916891016407 -4.56912026322082 0 0
220.353267517766 -26.0940843404244 -32.0618356588434 0 0
174.034347131919 -5.44056100647937 -8.8223288145834 0 0
201.343203262439 -42.4818801646954 -17.7587978701924 0 0
197.300314292279 -28.1681381024953 -27.4975798323433 0 0
188.29932760736 -29.6108141679591 6.88515937625927 0 0
161.186745766769 2.48109670508565 -9.31632542647464 0 0
-23.9256120988081 -4.92093476525657 8.02679078601303 0 0
-19.6124152354361 11.2661062257908 -3.23470613366291 0 0
-53.6469355634487 12.4142953994934 -6.44277296348772 0 0
122.044262986628 -14.2331215248395 5.29720482260505 0 0
-77.0107721964404 4.16813509548548 -8.56109576638815 0 0
126.729592453944 -6.36389083658841 -3.59913605508935 0 0
62.0397205617183 1.58859940548024 20.4876594842169 0 0
200.584631203942 26.8708601544433 19.5086503877961 0 0
68.0421090554511 7.06354955947304 -5.43523837913636 0 0
48.7795239014411 9.78674534878189 -2.80893006821875 0 0
110.557524483311 0.949075908461942 -6.40127290321575 0 0
212.982649859019 27.6183355487211 14.5575508823682 0 0
-37.6836361668869 2.77252639171078 -4.98187527446162 0 0
214.248360874672 15.5352648307457 22.4575176967423 0 0
-93.1817048017626 19.1299977252605 10.7998917272192 0 0
108.36584848556 -7.70282161660516 17.9750892274214 0 0
114.66488945079 -3.61875373753846 -3.98306179461753 0 0
164.672908154121 16.2097797520259 -11.3214118201567 0 0
-86.8094200726694 1.34752392092256 -6.31289898741171 0 0
167.44145316608 -21.1941764303961 8.57436032615262 0 0
-88.448218579843 20.9402918064259 9.16534631252779 0 0
203.070454818325 -36.7552728611668 -26.3379083307894 0 0
36.6969409366799 18.4395373721554 12.0315537308899 0 0
223.245308411969 -37.2052719169891 -19.8513730535145 0 0
172.503588049237 20.4145609525026 9.58407359108112 0 0
-9.12077594344749 -5.5330098918483 8.85764407514299 0 0
128.11139813494 17.2514861453144 -0.912158305300693 0 0
201.615493776892 -34.3636265706884 8.05556796143306 0 0
220.023145515137 -36.4750003219016 -29.7266473325665 0 0
113.19691450662 4.48019320826757 -8.34557316211452 0 0
167.543597721824 -13.9728530024371 17.1348438817645 0 0
177.13531409509 -20.4891917113056 -11.220484314795 0 0
147.942781612356 3.72300595673737 22.1094471527315 0 0
117.706802467461 -13.6546123934082 14.239211802836 0 0
-11.8902124446844 19.0013726567778 15.6964965567448 0 0
-11.449458346701 -3.91700343085321 4.11952373382242 0 0
192.753854139293 -14.6586533735844 21.9120046282852 0 0
-35.0640614304521 18.8715799419296 15.992043296678 0 0
188.51294359539 -26.7727219220518 -13.6453907208093 0 0
212.990790714445 4.7040853766342 -19.1030767625497 0 0
77.6549011740314 9.34881753591356 20.3018278771313 0 0
-90.6293433570029 -1.20515531987111 12.0035544364901 0 0
195.776542824116 -24.6962559509093 -25.2758152827971 0 0
-60.35945840626 -1.23506466792562 0.0847409055968637 0 0
232.974705336218 -21.1253636255574 -10.2745471179428 0 0
-139.868981360619 -7.30994153095892 -4.52487834072406 1 0
217.613898887492 -13.3272561085415 -27.1520302977785 0 0
-25.5128953414185 10.1353508263924 -5.02204474429183 0 0
126.43876614379 -2.36242218173628 -5.58524019007918 0 0
108.444303899664 17.3274166720815 11.9885273656502 0 0
210.136099222621 26.4380038998418 21.1504418387877 0 0
131.098427315347 0.12169141476925 -6.61563580726706 0 0
186.472295497215 -26.8248386207118 9.97630759123055 0 0
-22.4902944000152 -2.97637042535393 3.07017578618591 0 0
221.250966889584 18.5055125408343 -30.9821022028918 0 0
-119.272511564084 -4.83375616276607 -2.28922740862534 0 0
9.2417665535598 8.92943065645076 20.3217107832262 0 0
-42.8220428653906 -4.64872573993423 8.99333984409077 0 0
80.5215973412588 -9.29507935581088 4.23259068510693 0 0
-133.457565134782 19.2558153414734 -11.6051652129148 0 0
205.150245874403 -17.5679945562642 -32.1492166050722 0 0
211.805278364365 -38.6092068127819 -20.9678118159793 0 0
-100.73548906254 12.3834109474331 -13.0387455878631 0 0
123.548078384165 -7.73311958834584 18.7095412092996 0 0
217.815519063545 -35.3827233479771 0.902876453025525 0 0
177.770540693679 -26.2423159400758 0.544543214721245 0 0
0.0925749193409083 16.4126568479968 2.5278567847957 0 0
120.285849973778 1.73870186485151 -7.42652917464719 0 0
199.287770721142 -43.2981581049371 -7.71737717927081 0 0
209.007683216191 -0.978377995371256 -13.8523514520362 0 0
-129.945031947923 12.1590967034416 -17.584350864041 0 0
-43.3399007129145 16.5361980680119 17.2558341583891 0 0
-49.507460995302 11.6227501337059 -6.54807304314603 0 0
67.164016607204 -2.67044824802841 -3.23443465216731 0 0
-119.800026853209 15.5613044142 9.3865860410527 0 0
197.329296456949 19.8708405151091 25.9333559327015 0 0
103.140463885428 5.65726186787028 -8.23407157698399 0 0
203.651966354668 11.3272206650921 25.4814251260392 0 0
-95.0127227514667 16.0859076057524 -10.4740324547077 0 0
204.485563024522 -9.87502455525781 23.3193942373611 0 0
147.066346250175 19.3525913021956 4.20701534142826 0 0
189.035285886353 11.2433764715776 -19.2890683677362 0 0
158.62948434184 13.6014098503959 19.324249675373 0 0
22.0405780914006 0.694527122691974 19.539895027705 0 0
-104.157954381672 4.986449116838 -12.0032120562454 0 0
164.843544246314 -1.46756418449483 -8.03347446779359 0 0
198.936671798461 -14.4553135001369 -22.0091036714963 0 0
-15.7582846994511 0.632208561616163 -2.55397974536705 0 0
-39.9980486573312 2.75911624647836 -4.61346720547515 0 0
210.937625859031 -2.41735569043544 -7.29401559105567 0 0
206.534829658166 6.62612299453296 -29.3068568092725 0 0
-98.7443179647003 12.5629268791355 -12.71611742765 0 0
170.626459639274 17.6199376449176 15.8323985958084 0 0
223.698110325531 -5.295471986952 -2.27237518842175 0 0
-129.499759392748 14.7904853129142 -16.3821665193864 0 0
-66.7484877460092 11.03798909999 -9.99090787433764 0 0
182.113372625916 -19.0048139448926 -14.5168399012579 0 0
166.542094089169 20.5769470936693 5.69583004270532 0 0
-139.588614485013 -7.4626923035898 -1.56659480114079 1 0
-131.544273812122 7.44790089961309 -16.41112775201 0 0
96.1351141370559 7.33025038159361 -6.96752671546592 0 0
186.476698443218 15.2393273058237 -19.5717336836906 0 0
51.3413025835551 14.4464325740252 17.2760611089334 0 0
200.992199241511 -5.82808898476181 21.4917360810171 0 0
-53.9241654402225 14.7631514648786 17.4040914364989 0 0
186.310164293573 -21.658105308309 15.5847252955424 0 0
15.4479854523354 -0.688147812680497 -2.99202193140271 0 0
-20.0154611623858 8.9084366201208 -5.89224019297345 0 0
173.892761306739 13.4941413728007 -15.0010404435112 0 0
100.034478965463 -1.37796132433468 20.3286186617528 0 0
-65.8112353772941 16.1930521906743 16.0438404240893 0 0
-112.893625462108 -3.60989005570412 7.83746167687563 0 0
206.194692540754 31.1098771864811 -2.61696089016011 0 0
160.894111884514 17.0273321381285 -9.55235666596979 0 0
207.83874706839 -12.3324856625177 -17.7064774498534 0 0
-22.3241294444908 20.260649715244 6.26549838593399 0 0
209.928596295896 -0.919769107063224 -11.4923766640274 0 0
3.62416698015909 2.2010311070807 19.7784795834311 0 0
100.993291978597 17.5627863213635 10.9553424575373 0 0
-37.1086692472264 11.1519083753585 -5.34635449397074 0 0
180.488958570107 -11.156434554289 19.6534081015865 0 0
215.713637307634 31.0658961347878 -8.89561978129392 0 0
-131.798049227472 13.6710709185071 -17.4362584922543 0 0
210.807646478763 28.7659826407825 -24.4718267411983 0 0
194.184725279417 -39.9330880108823 -5.46900283510613 0 0
205.020491507405 -1.40586762642606 21.6834714254965 0 0
-73.8885893999604 0.39780828056299 -3.40190939811685 0 0
147.893128099163 2.59864554237397 -8.00976294032076 0 0
95.7040512535807 4.94294436387448 -7.90771868591578 0 0
191.516279421576 -15.8051951075704 -14.4277073238526 0 0
232.193837932054 -25.4173921533829 -17.3127590114234 0 0
225.078189629983 31.2196924991038 -15.2390404404282 0 0
208.681776014284 33.2465934285744 -10.9071724377144 0 0
0.51218742096033 19.3510217154768 7.06430310369762 0 0
-83.6740458309287 -3.02756663504613 1.27885211794292 0 0
-57.8293828866019 -2.93529567204854 3.01128985825061 0 0
-97.5081634424199 18.8261227677518 -7.94715662310693 0 0
189.086302897683 -32.9628066537733 -10.9895330306565 0 0
-19.9764145639677 1.8841320332904 18.9768510047248 0 0
206.658583913167 28.4639199567755 13.4141375768831 0 0
-119.867973894372 5.37776857946387 11.8379636351489 0 0
188.395601243727 14.2760228335275 -20.5465872832952 0 0
215.295494279962 30.5568751940693 -30.1436115789423 0 0
224.956324992687 13.4137085345618 -15.5459005610191 0 0
164.333090763839 -11.1859393276049 18.4762579462586 0 0
40.5509073890115 1.04223972393044 19.8839288194484 0 0
163.132414859092 8.92473769081415 -11.4687250464449 0 0
-137.625734107 15.5199336789774 7.47351203213827 1 0
185.761384861701 -22.9163739913426 -13.9237366226137 0 0
204.176032429464 6.87376323553491 -30.7758636249137 0 0
230.484502107803 -33.6459847443948 -7.05014324845225 0 0
82.5106153054185 -3.93658935155042 18.9661534427408 0 0
174.512318459311 -22.7308755664463 9.30940952945435 0 0
-107.921238504153 8.31174259135402 13.3399676727095 0 0
44.0118078617552 18.1296830043056 7.42391423044193 0 0
223.246200447957 9.64096052527639 -1.43109967665825 0 0
-68.2750138654991 14.2449525805508 16.5432500531961 0 0
132.089386487001 6.48616973773044 22.233928548461 0 0
171.827464526653 -4.16885078865964 -8.51158118862549 0 0
171.703237541627 5.29883968552308 -10.665191326841 0 0
31.6051934123388 16.9670015482881 15.6521390422083 0 0
-18.4448058086122 13.7779361681393 -1.12166097379549 0 0
15.0289567265641 14.6392679054795 18.1065731303675 0 0
201.101566708983 -39.5577194688228 -21.5088686865375 0 0
-14.0494361263272 -4.12744069134876 4.77967665020367 0 0
177.318889097256 -24.0048307488151 -8.198371069068 0 0
121.786704690863 9.29933106103543 -8.68717450452245 0 0
-51.6740444884736 -2.85213137444156 3.10748343517837 0 0
206.63135752926 33.2629179252499 -19.9436118825803 0 0
-104.000346588152 2.61712384321014 13.1011812771172 0 0
180.75802695838 21.4003070220158 12.878664731421 0 0
-43.1779669603643 20.4382970003153 4.1011839592322 0 0
10.9812979435777 -3.63165311547098 1.74441652206332 0 0
20.7877594678842 -4.81853061111467 15.6681422994633 0 0
-66.0136769100687 19.8785349889483 -0.414604156487395 0 0
180.536207387133 -25.0564238074865 8.88375006791041 0 0
215.168326200162 -39.8820192570407 -5.03714085388604 0 0
174.018473214237 -19.1545614293033 13.7243696044637 0 0
-35.6995232979245 -4.59162452374821 8.15653767203166 0 0
221.569531541978 -11.144003356033 -15.6762013513084 0 0
215.61220695537 13.2399841619473 -33.2989206974183 0 0
136.643056660842 -4.76141999478003 -5.16290391970904 0 0
-129.088545129255 0.231056953068026 9.94719394568397 0 0
170.444240587865 -10.9417359958881 18.7861884707998 0 0
12.5297307156155 12.6903640292727 -0.702496488923808 0 0
117.994037698339 0.236304937597447 21.3566143221413 0 0
134.831351200326 10.0882138447626 21.0225605163352 0 0
195.072380153861 28.3181007658973 -23.1024988343172 0 0
186.620086689803 -11.712095479692 -13.0595070327308 0 0
223.755993480851 19.5125320450867 -27.9293115579104 0 0
78.5356505891679 15.4896911133981 0.86637124107446 0 0
199.462358005554 -12.5444309145904 -19.3078976992134 0 0
123.306816327647 10.6713949202218 -7.79080355997068 0 0
48.6882881407875 -8.36437650635204 10.8376647833865 0 0
-93.5995061657166 -2.35881573506201 10.5720889950802 0 0
225.013537222157 -6.59411746966948 0.644391515892137 0 0
-104.694253265158 -0.753980958019468 -7.03043123007025 0 0
178.787284535393 6.12828164866305 20.5822115363805 0 0
58.0674980950505 -4.70930598520958 0.0147028098384249 0 0
224.551976656522 27.3282736783085 -3.57149445462274 0 0
172.768674065897 -1.46086555154413 20.8523096873506 0 0
-3.00788464167144 17.635522252817 16.6821470992345 0 0
108.754757069719 -3.37316577382743 -3.69657882689624 0 0
213.781357244688 30.8296722444572 -7.18800479968725 0 0
219.606274203307 -37.4497231091614 -21.5802049075231 0 0
202.406602279592 -42.0180370336733 -19.1850034112558 0 0
196.311870792255 6.66459530829835 21.7404115068213 0 0
189.265682145554 -10.7602309780781 21.1078388709384 0 0
164.675424375811 -20.9496627432655 7.4045036982344 0 0
144.077493130804 13.5974977403524 -8.50585310396235 0 0
-96.1587387002726 11.5516209555453 14.3846315395256 0 0
69.6816771153647 -9.91192800610114 9.37710563576155 0 0
-112.038849579723 0.101043547112627 11.2576261822967 0 0
-41.3750942425923 21.6217092311628 10.6122037615558 0 0
159.890138555243 19.63144120551 9.75782091990698 0 0
-107.285483313633 19.6845108452342 8.29939393982717 0 0
182.809618288852 -14.8470767191171 18.6829840669072 0 0
214.949417997276 10.7333741699651 -31.7914106784927 0 0
-25.8990045246212 6.48788074333298 19.99339535082 0 0
169.776390117046 20.8787404959191 -1.17359832246666 0 0
-106.485548446706 11.581556721654 13.0274246753556 0 0
203.3246977673 -42.7629498029197 -4.83870344092598 0 0
216.185112195496 -24.510040637082 15.8836365827964 0 0
201.827988130435 -36.8007773174792 -23.9921433794706 0 0
226.637279385488 27.0873898876689 -17.9393186007837 0 0
160.557652434617 11.9319084646825 20.4272107527775 0 0
-4.92700388369225 19.5410312515259 14.3872729014827 0 0
220.630977027845 -3.72259809839632 11.2165082016822 0 0
193.695603127467 12.429898883748 -30.68060322922 0 0
44.8786445895085 -8.13139209114943 10.6544691939351 0 0
175.43621161376 -0.397649270523333 -9.72114053128628 0 0
27.0383801878833 18.0650778711008 14.1134899269477 0 0
-44.4938487081036 1.14474810014104 17.0989339032263 0 0
-80.8722446260774 -0.172893682877065 -3.29717883686692 0 0
-31.9659274659781 -2.70233166573265 14.8811988318421 0 0
203.59243740434 12.8890264530531 -34.9062111935154 0 0
159.346864932198 -19.7886925489086 3.23289866475088 0 0
-21.3929231358018 3.98236393514306 -6.38984759975742 0 0
203.594992320452 -32.9849730113174 -31.6169514447859 0 0
-12.3626215283846 -5.46345357174799 9.69773008477218 0 0
197.817483398328 -38.9651364193933 -19.1201458374593 0 0
-11.0943154385296 20.2604340458371 13.5499740797043 0 0
226.615508411636 22.6701428218869 -9.6134923924993 0 0
225.489411781289 -23.8860626571837 -28.1322607043758 0 0
144.074157260697 3.53985146358213 22.1779251597546 0 0
52.6696973844696 -6.46228792991067 16.2086864190318 0 0
185.811429241685 -6.96492817675411 -12.0887763708273 0 0
131.001594292753 -10.7472680710635 17.5687689809035 0 0
147.623687962816 0.820857185606301 21.9470396884835 0 0
-21.2324605054777 7.61983764724183 20.0857246353537 0 0
-57.587808319002 -4.46976794090622 9.83648722161177 0 0
64.9517343144593 -3.55308063623619 -1.84326770088284 0 0
182.856141709422 -28.8474083283427 0.352294459010771 0 0
222.980940153108 -35.9868271395045 -10.4942063038122 0 0
222.113496858746 28.9840115447179 -4.21939690942519 0 0
21.1477173684302 0.011315043274512 -4.95495089786197 0 0
183.980290271866 23.6857617209592 9.66709049286737 0 0
-67.7678934756171 6.69543696563706 -9.32664092529228 0 0
191.586044627438 -33.2990386321034 -15.3895967956477 0 0
180.759863920899 17.0174985826206 19.9205927568469 0 0
-91.158179260655 -4.2116277444389 4.48573889101166 0 0
35.4798127268291 18.572789284457 8.97706161773308 0 0
157.037477095799 19.1443776129699 -2.59659722686305 0 0
171.30359326724 -15.97553146941 -8.56579164695204 0 0
197.203991741956 -32.1181877118395 9.59847275998004 0 0
113.708729194332 -11.1110790979232 2.84451311780363 0 0
188.000437049672 -9.01373560412241 -12.9715170324833 0 0
108.668961352741 7.53705255939769 -7.8136500602774 0 0
-113.383006724478 16.844001476991 9.49166173827916 0 0
200.063949471102 -8.74003713421009 -17.3527282699249 0 0
-8.58044439081954 5.80778388478163 20.3687220791689 0 0
16.7836600199456 -3.21308100506057 0.837217278688406 0 0
203.69728532996 31.2847330203433 -0.971530682696928 0 0
200.028459795513 35.0409924001107 -15.5600780647495 0 0
219.928689173179 19.018943713855 16.8769816669747 0 0
38.5882368158791 2.43627576885983 -6.45421172175223 0 0
-16.9082841462504 20.3138081058943 13.814996108489 0 0
64.3528725528157 -6.16316229790431 17.3638486575621 0 0
89.1951526257526 -11.5703794826708 8.31340600627984 0 0
-43.1344634322145 -4.27112253894025 11.9387177924571 0 0
-66.5895302388891 11.2197886109932 17.3690816091159 0 0
103.691016066605 -10.3914262112356 3.03285215845604 0 0
223.07990809958 -11.5732085300987 -18.895364932885 0 0
180.884500381405 -11.8870626062196 -12.6215506749214 0 0
-126.453616094947 -5.01319012644214 -5.74996478563156 0 0
196.048659435033 -24.1145867284547 18.1004775018609 0 0
181.215492485165 24.486199071996 -11.5677336358644 0 0
-107.053991154874 -4.14153366441253 6.16299781461613 0 0
-63.5599463865562 3.54320143049825 -6.60444195986659 0 0
0.346202040682347 0.208565110167485 -2.91088030026537 0 0
220.25322895163 -29.079548366285 -32.1665988206417 0 0
117.280220812656 12.0027573239863 -5.72756050386993 0 0
49.8441621071103 17.36558104884 5.27300478749138 0 0
115.761612286204 0.996725075320243 21.4374081917132 0 0
220.891987293301 31.0862340421251 -12.221881654304 0 0
222.099009681413 20.5581321865001 -30.3501313642605 0 0
-70.1311302354605 11.4790890793916 -10.2008479726598 0 0
189.992650755083 -35.9645045586324 -9.40177896077244 0 0
-124.214503457685 10.1891941100759 11.0620241989033 0 0
-129.980447092794 21.8411933962266 3.5817826782933 0 0
57.7433178782515 -2.23965967957703 -2.73280860242008 0 0
166.132949011544 2.68782508185144 -9.51281791407076 0 0
177.878604817646 22.7369250107888 0.281826089900814 0 0
68.5163707102722 11.1120650024026 -2.63655860724002 0 0
160.093185698114 14.8574811198485 -11.3122958997755 0 0
186.168905728146 -26.3137802850112 -12.5730070644874 0 0
125.838849068678 9.37924508296017 -9.03112832512446 0 0
42.6830295918114 -4.70958087835106 1.0092329441135 0 0
222.843289415611 7.92817570750639 -4.12861820632266 0 0
-96.3130172583714 -2.46318019115426 10.2495862314964 0 0
209.326139539412 -40.017612473575 -15.3843880814787 0 0
142.410065237985 9.64882371760337 21.3168224191476 0 0
74.737138852559 1.7892763734365 20.8737398469038 0 0
16.1194948274271 1.18383469119194 19.599007361665 0 0
221.827400858517 32.0541420734359 -15.200363048423 0 0
-130.680181710635 3.50449816899545 -15.5930085558826 0 0
45.7259703835222 11.1983919794676 19.5608953170752 0 0
-102.535838451405 22.7590806465429 2.30163611916594 0 0
-25.0788287946245 -3.02311880227726 3.31522694907102 0 0
-2.53268997649021 0.0853568954007111 -2.52528658177552 0 0
-9.86204713583094 9.93789957347085 -3.76680734210698 0 0
207.745657770082 -27.4628578446735 -33.9121562225069 0 0
16.3411028853479 8.75000566950466 20.4312132849953 0 0
184.287453815382 15.3754329197663 -18.7131894021254 0 0
68.5384505569709 -8.02677045131822 3.62029404600051 0 0
149.997079525974 -12.5662777117972 17.1228531080309 0 0
191.969414515413 11.3744589056578 -25.4802507974126 0 0
-78.727621675633 3.90918673601795 -8.38177872249957 0 0
0.107585161583272 8.77774683317953 -4.18623471226607 0 0
222.953244526865 -36.7273683975516 -17.9135863542502 0 0
135.857692345765 -12.2287913931996 16.6339234549961 0 0
101.616233813657 4.3880905293598 -8.00141739563969 0 0
63.9949717775428 -9.35609683638236 8.47292257753196 0 0
191.212974229273 -26.16854636085 -16.1129924378056 0 0
203.689660293116 -10.0401648533757 -17.0436726981875 0 0
211.249507373212 10.0638481987484 -32.8300911060528 0 0
218.676034485593 30.8359111539293 -12.5976617533686 0 0
-82.0402357519146 16.0604632577803 14.3809751674305 0 0
225.922518018141 19.2391310245215 -3.14032728942558 0 0
227.590151339661 -33.9264826822475 -6.84880686082713 0 0
159.166748884958 5.66844288067842 -10.45350480628 0 0
211.206025914474 -34.6338230827769 6.85029617242129 0 0
192.648822272473 31.2113428650929 -17.4967183257737 0 0
-11.2004450245693 -2.54281431098808 1.64920344293936 0 0
189.270087227788 26.9093852117189 4.87671386194269 0 0
34.5875028638119 0.975950811948624 -5.95081761752933 0 0
118.93396734722 15.1193879590962 16.4602983717429 0 0
114.770987432012 -14.2636406855999 7.15811620739069 0 0
109.324904561262 12.4079568886687 -4.73870220348665 0 0
100.310416304068 7.46396327517059 -7.14614209470924 0 0
175.053052484392 -15.087683896892 -10.9617270011788 0 0
178.07981474979 22.1132808268186 -13.3552787058212 0 0
30.5951550304991 -7.39392985507939 8.6095380743689 0 0
199.293074527895 -2.92034091945772 20.6828045181858 0 0
228.333000973441 -13.2191787670898 -14.0752457824982 0 0
222.369927334854 26.7158521749646 2.52813155229267 0 0
92.3269460206896 -11.2789397814712 14.1324551805824 0 0
131.225136995045 -15.2367536740068 13.8720642192306 0 0
203.169661283925 -3.74287713943506 22.0688507665832 0 0
219.078293460769 16.6707631270062 -32.6050249775763 0 0
190.390947172054 -0.377394737883844 -13.4719477890282 0 0
-42.1295922243621 -1.7189544015121 1.26431763529895 0 0
5.40719653650516 -3.75556478501228 15.9128474465375 0 0
55.5723440177021 14.1399053791884 17.3357457281648 0 0
165.70412543753 -12.0690582585625 -6.95154276340525 0 0
-32.5675392942771 16.2495844882407 0.00255135765707349 0 0
138.289658150493 7.18975621735551 -9.30854749163395 0 0
1.69590220759629 -5.78488590161384 7.15870573885059 0 0
91.8596288037839 -12.1027191061117 9.83648402464332 0 0
-117.338581296396 11.4672359568562 -16.229693656111 0 0
222.453555702457 10.0536991382191 -18.6684037815009 0 0
50.8829191899376 12.0064636441705 19.0353801624191 0 0
-95.1378653189851 22.754815695044 2.45722277661055 0 0
105.890731932294 -1.39193651485447 -5.05248896993808 0 0
-73.9744097869011 -4.13356553769316 8.79934520274356 0 0
188.860907820902 26.34445151787 10.4692993811221 0 0
60.0624151441662 13.5393166021206 -0.403739756627497 0 0
139.133096442072 19.1894263460645 2.61080884496535 0 0
211.634844429135 -26.6062745496269 15.6341549253665 0 0
-121.836378987416 10.9881362222691 -17.1836094873795 0 0
-94.8538944990503 8.04319066462515 -12.4199474366628 0 0
193.752618469642 -18.8088532668773 21.1045187644249 0 0
168.641350221386 -15.3750682169807 16.3255870339092 0 0
157.556187191983 -19.479730838771 9.17935752828405 0 0
198.569886946291 31.984677925708 -20.8042418185108 0 0
48.0819606501293 7.4866535466927 -4.41106057126502 0 0
-95.3993624752983 9.49618806519961 -13.5952660735389 0 0
86.8124126281038 16.0446641652269 1.32999460799607 0 0
196.692143275449 -16.3153487173481 -25.3335452802531 0 0
-72.5139844237263 3.24495447930514 16.3458552365272 0 0
207.725236518272 -11.8837303389571 25.2888169810374 0 0
-72.6819335459081 10.693059356017 -10.8656000514236 0 0
233.306134937044 -24.0689454242284 -5.76119476800884 0 5
-87.151443386885 -4.12430061676436 3.93513751606654 0 0
114.137345958559 -6.72745154284635 -1.30996228260403 0 0
221.149701006053 26.215199307839 10.5758319694858 0 0
-96.8447625240137 17.4841746484905 -9.5508961493889 0 0
210.571042939872 17.6896530900477 -36.4234751501297 0 0
-134.975276150813 6.83183028175956 10.0590202554939 0 0
137.065198724918 -16.4348478928756 4.99975365229316 0 0
215.652658799764 30.8925971299018 -16.6271817321945 0 0
-44.3098768963808 -3.91543991980643 5.73927450752995 0 0
12.8918259197621 14.9827375293488 1.29333769345362 0 0
-9.41278304071578 20.3499857567567 8.50228441034066 0 0
44.6232721600538 6.83569916618569 20.837272754044 0 0
-76.0309785465447 3.31829490887471 16.0008463711764 0 0
-89.6665499939985 4.04465327181151 15.0160679876209 0 0
193.80508585171 -38.6323840656648 -1.07194925068767 0 0
77.4398478182919 17.4973083611546 6.06058529143726 0 0
-88.5203981125485 12.6550837881611 -11.5980320282171 0 0
-28.6361307080107 14.3725251591404 18.5516935926118 0 0
165.708346103449 -9.72507408944397 -7.24017173579711 0 0
212.326985483251 20.1210570346192 24.5657281232714 0 0
166.303766242438 2.51758479282761 21.4254409071166 0 0
225.709469957227 -34.5916079335085 -8.42671594298744 0 0
-74.678093062976 6.36923066021809 -9.47291456936334 0 0
173.243813988225 1.27398720416153 20.9300469953145 0 0
-60.6019057151198 -1.57846802995885 14.1035114806717 0 0
-114.457672518543 4.00280712994627 -12.9105308678967 0 0
34.9229626727522 0.260911428889658 19.6075886872217 0 0
-34.6207191357549 -4.05037149889173 5.93338125200877 0 0
163.392573690006 18.1682569907495 13.8807096157602 0 0
185.238460696522 26.5502514248338 -8.44050345394721 0 0
206.288718866493 29.4311912950071 -25.4632953046097 0 0
-113.771626334083 20.9876062165643 6.45786620415937 0 0
146.287515371172 -14.7449717984251 15.4729588481701 0 0
224.201313993628 12.76341877692 -10.2999937893917 0 0
219.989380149059 -38.0389257769953 -23.8059006493601 0 0
-133.9361094041 21.6054465440793 -7.90734717906184 0 0
-129.283729690919 -6.21643406236426 1.31790964321999 0 0
155.587999647311 0.0426984469501456 21.6042772139648 0 0
180.764910366341 8.71178744070099 -14.3042548963158 0 0
204.314653194767 -7.3004590033014 22.6243814751664 0 0
173.523510247687 7.231250548698 -11.4975291336719 0 0
104.729741172857 -0.762782864659479 20.5612408393086 0 0
-80.3735524287655 8.93146310333794 -11.5005294328988 0 0
-48.1738122242836 10.3740514558992 -7.75541974915082 0 0
141.502433607023 -12.7898379942478 -0.390630713225195 0 0
-82.3652878319536 -4.21118182402189 4.64822563031339 0 0
201.308098098832 3.25797367048437 22.0375044947501 0 0
219.707277160362 29.2875779545181 -6.23526377580272 0 0
205.602223821064 -44.4349733040103 -1.7264093211298 0 0
-20.3426999919735 -3.9722437130981 4.89420013349781 0 0
120.391399944609 -14.4518066605859 13.5519480727364 0 0
82.2800090282488 -7.64235504962486 1.66965979055862 0 0
34.3022422448379 13.2702450794661 -0.127223756051847 0 0
-37.7880466194207 -0.89014202935881 16.0598926463607 0 0
99.8153174868526 -11.3548684355016 5.09965512017621 0 0
-105.232266827592 -2.81335190498973 9.24474224655417 0 0
195.863387204708 -33.503084319166 7.24684882214707 0 0
-59.5339718166317 21.7322532875813 5.20796022221978 0 0
72.4418462640661 11.8027647573571 -2.38791514399011 0 0
205.75875428358 -40.7231680286419 1.89760343148928 0 0
187.450947040939 15.6943909300538 22.2469147220895 0 0
209.353793038384 33.6083185215485 -13.1088907775066 0 0
-111.032492588233 2.4773387502749 12.2804455464191 0 0
-79.004097383515 -1.80908899698967 -0.567280636145013 0 0
219.21522471681 4.04316037214946 -9.52933817164366 0 0
197.581038018231 -40.7658771855955 -17.9169531376145 0 0
-78.2252310302471 -4.13888322022688 8.460674232772 0 0
-52.2582669547653 9.57393182799253 18.7173037016834 0 0
133.655188131993 7.29606455579831 -9.50162075082915 0 0
-9.2029531138833 -0.508946129245567 17.981498208663 0 0
-126.517325585919 13.221228655202 -16.2522179446719 0 0
180.6658170471 -5.83852893413414 -10.6265159940181 0 0
56.726739050078 0.620409614183187 -5.88982291388788 0 0
194.081256706357 -22.280924643256 18.913316551542 0 0
189.900735063673 -33.8481025292923 -1.18634401163517 0 0
-135.358684495227 14.3012989435721 8.28084756727388 0 0
183.532109145906 8.02872301437188 20.2525741905984 0 0
204.657474166717 -44.1894332093765 -3.06613817385805 0 0
-40.0661235888225 12.9835277489771 18.5857590675094 0 0
135.329102017001 9.09940546592576 -9.82395944066384 0 0
130.786933279167 -12.3844442916343 1.18021523588757 0 0
221.706203832289 22.8223027568865 12.5633231636802 0 0
214.911771937661 29.2579145318584 -28.1886217708137 0 0
212.323742500895 28.8733847248989 5.18248261069705 0 0
196.364076029562 -37.9359772960958 3.13405807629173 0 0
83.4772546676799 11.5147937233232 19.0007437819069 0 0
-93.3212130232335 22.4401540094535 0.506067801217512 0 0
-107.128420112987 3.77361669778337 -11.68399188662 0 0
-110.684796160949 8.23669568481086 -15.4666673813952 0 0
115.028070420174 -1.51041886873021 20.7449289496538 0 0
-65.4390030444024 20.3959851594451 12.6033140822937 0 0
-52.1828986113092 5.06808507554919 18.480533239509 0 0
-122.868267478021 -0.978523129826447 10.0117166343916 0 0
-125.583444406155 1.3777921515569 -13.5017533883899 0 0
215.193525604493 -20.2354818398585 -33.4799150515873 0 0
-111.740356052931 -2.62591161949705 -5.50472197982006 0 0
224.473662818481 -33.1158031612247 -28.038829795345 0 0
192.684887452671 -29.6277412271723 10.0610856815383 0 0
109.961925885863 -3.64813662799912 19.7160306718045 0 0
-98.1494811522602 0.370326429132924 12.7174804631219 0 0
-131.231277686979 15.4108411919357 -15.9693368339035 0 0
64.130084538945 -5.61683834828209 0.515350268602971 0 0
200.243895202276 26.5686018289423 -30.0466349375416 0 0
201.440186769814 -14.3832186700396 -28.7364520081424 0 0
-111.910107600325 5.94233915944191 -13.5236349056955 0 0
229.22260016892 -32.2670942841991 -22.356168826661 0 0
18.131063776482 -6.37296148253433 12.165416721973 0 0
189.167614406939 -34.0510366671363 -7.48329444399446 0 0
167.790876514053 -1.43836043764158 20.9418057228034 0 0
-27.6828430687045 21.2458174631027 11.3164902099417 0 0
-70.4620614950791 22.1537639783127 4.69053115319536 0 0
-14.0640008139585 9.92267079362746 20.0310014766004 0 0
-73.6479325955776 17.0550338499941 -5.71556177151313 0 0
-123.114942590218 8.2894827612235 -15.7398829733415 0 0
223.611124113863 -34.7528517684059 -5.58320035879246 0 0
182.960312166256 -9.11247739964046 -9.81056359414609 0 0
221.636293176174 -34.0988716345271 0.911865915057956 0 0
-79.3163509344041 14.9446427459162 -9.11439162178335 0 0
194.823043565307 -23.5216278435847 -22.8923736266642 0 0
155.857077761427 17.2416647450605 -7.38549032976313 0 0
71.1953563385481 -7.42916326993874 2.48477481035269 0 0
-135.036046920755 19.4618995905278 5.54634329272441 0 0
182.044216558156 -27.867585716282 -5.0886505405948 0 0
-57.2514447373899 -4.53517623059582 7.81480451575677 0 0
166.947841096009 -3.77921491632696 -8.04193871979762 0 0
179.429866740079 -14.1939995607963 -13.0355114646612 0 0
147.252388475859 -8.0400031080709 19.5534223406576 0 0
-55.1480256683987 10.6534330469021 -8.42478599468631 0 0
62.5318145838143 14.22557895624 0.197937084784536 0 0
173.429331666142 17.3432004372815 16.7804767300786 0 0
-43.1370330904772 21.722859169645 7.77735942990237 0 0
224.911868326142 -28.3115466125215 -28.9588577760316 0 0
-117.135451803027 22.2767111044882 3.89572959084127 0 0
216.796000763713 -33.8055977236481 4.3971911965889 0 0
200.836475864315 -1.85741937016861 21.3954318142638 0 0
-47.4636635299223 -3.37195176068758 13.072217277746 0 0
-33.9583773269648 15.2346688089825 18.1010112560456 0 0
-80.5335976205663 10.1058580770719 16.2894064068385 0 0
212.536332834286 23.1857059915642 -36.2779513965286 0 0
-87.7710874606005 -2.78313523061876 10.345339754731 0 0
173.281636424051 -3.74438044074461 20.5228933397418 0 0
213.170472034473 12.1875969913097 -33.825772143164 0 0
202.150519408373 28.3821720293443 14.8680539998705 0 0
180.954747786931 18.1806557326335 -17.844639737138 0 0
192.606479325839 8.8664098854107 -23.5485493002785 0 0
-35.4604210058269 8.21956817183216 -7.81384496259874 0 0
-61.624189512501 21.9086899892768 6.06944564025939 0 0
56.3017962901194 4.3919007857859 21.0147414255463 0 0
59.6920978880297 -8.70059590580899 12.8966665103708 0 0
186.412474122663 -13.7967358284619 -13.965519029311 0 0
215.998549607946 4.72828249136206 -23.2250203002848 0 0
202.806084646638 -26.7247650007781 16.6927078062605 0 0
-17.2755876804969 -1.95583246811972 1.05098351235341 0 0
191.316885865327 2.34896658162015 -15.0906045159212 0 0
197.476621132244 -41.4456354943932 -11.118233163784 0 0
221.307083711586 14.0219571271499 12.8427542147539 0 0
39.8199648716512 -5.19456451579948 1.83474914413176 0 0
38.490148412173 -0.50192929596305 -4.93459535027055 0 0
60.5570517067485 -7.18044700200038 16.0492136869732 0 0
213.198627205709 0.540284238621492 -8.72758690952619 0 0
89.3732343811724 6.69893222352403 21.2525852864754 0 0
-51.0537979179657 15.4591074420334 -3.12481937604915 0 0
202.265396443765 25.1076056494361 -33.204405943224 0 0
224.119696355596 -32.617394713003 1.23025941490886 0 0
209.511215222061 -9.64489641682821 23.8298869556463 0 0
165.16458069523 -7.76662803469402 -7.33707600708966 0 0
198.560025294929 0.495349449850649 20.2724648798143 0 0
-19.4996855240906 -2.5467472518977 2.1755017425584 0 0
214.477728260621 5.13490012467998 -25.1725984972319 0 0
109.10110203429 -5.79140515250627 18.7796987938934 0 0
121.578879035434 18.0474972600445 10.7302948871049 0 0
165.090131657672 7.2738107286087 -11.2193299180537 0 0
206.093415158575 27.4235177956944 17.0295238083096 0 0
155.252189302251 19.6353811102574 2.11348633741379 0 0
75.0671101676928 15.6899721026822 15.248023146173 0 0
131.422179287508 17.8033822389407 -0.0459787930455409 0 0
32.7523421556292 17.7743771987085 5.61076839005521 0 0
195.614324022033 -11.2360659464734 22.1926738908399 0 0
191.958250312802 -22.192890705549 18.0864205553009 0 0
179.657779125796 23.4672508371861 -10.5814658011723 0 0
-122.550669812537 20.057084225393 -8.93969475220408 0 0
194.460382124379 -13.3680684826901 22.2908058392114 0 0
-140.241595010086 16.7807043933229 -15.4362656096914 1 0
31.375668806848 -2.12282406285076 -1.22705509744145 0 0
199.7417748975 -22.4442048114854 -30.1583484054903 0 0
180.820126254926 0.329339203837913 20.6073709574761 0 0
90.2926951093395 15.8758177433216 0.677049380330461 0 0
17.400868775019 6.19886011336887 20.5774594088811 0 0
215.185313887866 -39.5834901045004 -6.99629702879793 0 0
-129.302673522686 5.77294987138765 -15.684080873908 0 0
-92.3865792284045 7.22464845409981 -11.5602978154301 0 0
70.3789255995102 -4.45563219887995 -1.06654728994774 0 0
211.199484449975 -0.30361572396066 -9.12067184010805 0 0
115.680942697524 13.9502608404866 -4.13304074153549 0 0
-137.808157613704 5.74786634875426 9.72248115449929 1 0
150.017490174808 3.63890285928519 22.0471910230311 0 0
220.832699565306 26.1991977907619 -31.5402763309145 0 0
51.4759225352392 0.869690658961633 -5.98135952986302 0 0
60.1266049491619 -1.92836128500533 -3.35681772599044 0 0
30.6502781375147 -0.87884887466394 -3.39011731416399 0 0
160.257774972669 18.8402608824214 12.1279716120678 0 0
196.794828642662 -6.95390000428464 -16.6928905976208 0 0
213.845147288067 27.5666327816885 12.5706757309434 0 0
224.247862725609 -34.1557732428447 -3.29206064425479 0 0
-115.027635014409 15.2166786441663 10.2561787120887 0 0
-51.6512399205104 11.4848153369813 -6.99211580538458 0 0
-125.61818939084 -1.13864336666719 -11.5825963506694 0 0
-120.177655277684 2.32772110699369 11.2942040354671 0 0
192.630666861929 -19.5376999121106 -17.4817019385783 0 0
191.821828086285 7.76537758058342 -18.6011775077126 0 0
-92.4741064792342 -3.40010906920105 8.81825894157157 0 0
-79.4828225139148 7.66378741256662 16.4703923376508 0 0
196.805201858244 -43.092111001889 -5.39538270817992 0 0
190.36220175451 11.8069547813592 -20.4793284859975 0 0
52.3359346529125 -0.692221928760886 -5.24105639526877 0 0
142.49162244798 18.5539910916528 11.9691751670362 0 0
-63.122555108134 19.3371028720582 -0.659325550861801 0 0
10.2887065861523 1.50638148148446 -5.93985020751673 0 0
-73.9428374258222 12.6112874423464 16.4558334776662 0 0
156.145410274094 -6.30992583002827 -6.14125796641737 0 0
-1.93724961622468 5.78992430125178 -6.52602213094302 0 0
130.229321775416 17.9731341280967 12.2304766822364 0 0
184.604448138944 -27.1801846912266 7.96132283110451 0 0
165.457135741593 19.3076695506382 11.5596259479029 0 0
195.099899297842 8.71376986683091 -29.0874427798668 0 0
-60.9373710311683 4.82196222280184 17.8195819590106 0 0
19.6254803774541 -3.0820932921334 0.518083943133349 0 0
230.441650113155 -13.1141048244673 -4.29477263253766 0 0
30.3133652478606 17.6206236729666 5.20146955998419 0 0
156.12729001121 -9.34419234769712 -5.67129979448362 0 0
-114.044744512573 -4.85058987072747 3.4787170681074 0 0
200.149967895653 -35.4530617070153 -23.7532438964102 0 0
184.103758256913 -29.897042546563 -1.89107214390582 0 0
-104.049334760611 8.89668326666962 -15.1041134581108 0 0
176.619133515188 -9.06209422617433 -9.70483211425991 0 0
184.178006855152 -22.747461326479 -13.9968385631634 0 0
211.677071090568 27.7536359671421 11.5128751605496 0 0
-128.525112497352 -6.17493483405391 -1.34872988454493 0 0
-15.1185719764748 12.8216699031222 19.2134366441859 0 0
-83.1929434999669 10.7038744172967 -12.1309615236702 0 0
105.850697558695 -6.51696123980953 18.3146482544705 0 0
86.3709913771926 7.86766920144137 -6.02072367926691 0 0
114.204847706996 11.4334382571192 -5.81840773747323 0 0
200.825076609525 9.60559822971901 -32.024070769586 0 0
150.644178121846 -1.7153425441334 21.5077763809701 0 0
136.075147843813 -6.51360580943485 20.0225621363262 0 0
81.1665907681786 17.4521258941334 11.0063801907533 0 0
-5.42711418853146 4.85938354386659 -6.99134303116272 0 0
35.947968330397 -0.646978516653226 -4.33914390589431 0 0
116.897441085865 17.831959463122 2.97781246802409 0 0
204.370440153672 -34.8474875564135 -31.4338488229936 0 0
42.4087475369058 8.61324590844388 20.5153604462707 0 0
-124.745552576519 10.5566904103789 -17.4354453505228 0 0
-72.4961730974647 22.1284690167671 3.61124498617821 0 0
220.144234431825 31.5424958898691 -21.2821264553068 0 0
177.644095023787 -13.550567821027 -11.9608771256071 0 0
202.379709850004 -40.7797356123332 -20.830159285844 0 0
-3.61048676032987 -5.64244242112471 10.8898225626228 0 0
198.245270125849 32.2612968893002 -4.52129213672771 0 0
-94.9863416743925 -0.587277251152933 -5.04399908305494 0 0
-27.5413390573715 21.1569861090918 8.18182338822802 0 0
137.184711738899 -1.26657905738396 21.9587904909481 0 0
141.762397781366 14.0863802952739 18.6937885602058 0 0
23.881360630028 -0.464887484376564 -4.38401905973838 0 0
213.33516229079 29.2560953158094 -1.54769922437971 0 0
92.1137309716472 8.6620828707617 -5.98753060518514 0 0
229.828216898238 -17.73979521999 -17.9909659632535 0 0
197.853442705482 30.4828427382973 -22.7308846346218 0 0
214.661605955701 -38.2714093818314 -17.9548120717164 0 0
165.546799892116 -13.3329997260347 17.3974029681916 0 0
164.267094744132 -3.52232314216431 20.6194124818734 0 0
209.253699230256 -35.719696710615 5.57067932435796 0 0
-41.8921980630949 16.5611914597071 -0.666414822223301 0 0
52.0991456149009 14.9094842140732 1.20957700018292 0 0
48.2881674688178 17.965975275362 12.053986033784 0 0
179.752378699574 23.2785445264922 -1.11151152539973 0 0
5.47853004665474 19.6686699002615 8.54978056517609 0 0
-43.202086091126 17.7130884317664 0.527026979083415 0 0
108.252805047197 -13.8287986744736 8.32768011805159 0 0
163.528721820591 0.588382533306231 -8.8302302175231 0 0
176.891773671195 2.52595780563621 -10.7226079963052 0 0
-70.777353355336 12.8036590902877 16.6980037958433 0 0
185.739258342489 11.323299904748 -17.5393044403232 0 0
-50.4010066669583 18.0766781127422 16.055299908243 0 0
207.704833154782 27.7427619942628 14.7866529460572 0 0
200.14225543146 6.39321599798717 -27.6716157420629 0 0
198.558741228639 13.6210123588605 -33.718439843737 0 0
-62.2152279203507 9.55162161075275 17.9636945318361 0 0
-45.7432478039125 -1.4608331101092 15.1794564070205 0 0
199.09394624726 21.3754759181558 26.4421404240663 0 0
129.825800368329 -4.66983646854422 -4.82752819918325 0 0
35.4779421674511 11.6998672430141 19.3528765680779 0 0
-13.4640756699017 15.8175873919471 18.0909511510088 0 0
110.710850944742 18.123558721207 7.45174487557721 0 0
140.347402169804 19.5192147533929 5.82209418099958 0 0
-47.0947581690755 -3.29099180429733 4.15888597473353 0 0
231.516012609025 -27.5777992254801 -19.506301560714 0 0
2.77501021132741 0.177056129650377 18.9118560653231 0 0
221.36243380799 10.6840178423797 -23.6529115260146 0 0
129.38189304003 -13.8797600180128 15.0509182229581 0 0
-38.9231960179776 13.5944306792595 -3.18988608585842 0 0
213.148831743754 -3.30568424143552 -7.60700402549229 0 0
-97.8467996062532 22.6089225813652 1.21659309424352 0 0
203.782001745279 -41.9943214478229 -18.2075977764722 0 0
104.666537630433 7.12894165161267 21.2623196710713 0 0
196.58400369658 -5.96442961424858 20.7271573088429 0 0
171.576830730262 -9.06349043508511 19.2762353882318 0 0
-50.9244237445494 0.0669274203607546 -1.46038829548565 0 0
152.890479609532 10.5410520499811 21.0288837740104 0 0
219.647399715102 30.7196477489148 -28.7128983977695 0 0
143.390813716355 2.30011959118104 -7.50359011007706 0 0
-106.902575319395 4.85777290758387 13.30068847736 0 0
217.434573722742 4.35971199321843 -21.3610089457853 0 0
-13.2615990290935 2.54895486219474 19.5634694619416 0 0
12.3086343845022 19.3515347194252 13.0898906153224 0 0
164.85115943143 10.1480834337729 -11.7643314267441 0 0
80.738440304401 -7.63164244837745 17.1461682230456 0 0
136.072184120093 2.76181712398526 22.5698981467275 0 0
-94.7264099877467 12.0664531712142 -12.4990587260296 0 0
-51.6634167632727 18.2364295216208 -0.231952136815415 0 0
195.346162281178 -27.0927366123389 -23.9522439832357 0 0
-18.735652141767 0.529643630612 -2.34064912304581 0 0
-62.8253601425624 6.40424879138364 -8.75180526687029 0 0
174.971560914724 -5.07101180674065 20.3374833233381 0 0
188.897321418387 16.5683163992761 22.7155139156465 0 0
167.349360567943 18.2511217982742 14.1373367412535 0 0
213.375616676741 29.2632862516232 1.14164852113455 0 0
-109.475161636276 11.2253090031046 -15.6795075947033 0 0
34.5417092447164 18.110031378989 6.59429190003465 0 0
182.054584805716 -28.4136681475346 -2.48224673659904 0 0
92.8814522265126 6.58889624794969 21.2753738814088 0 0
-1.65914392348042 10.1126137501638 -3.14153410129809 0 0
110.965838665557 -10.5640452017969 16.5247556478771 0 0
195.515894798468 22.7196901606915 -32.709576385153 0 0
206.99105074229 -30.9834188140714 12.2167571653157 0 0
-115.226016098982 6.42015760856699 12.4667729551345 0 0
112.707773649311 -12.6171581245795 4.94967359934419 0 0
-83.1613505206371 13.9516806151208 15.2284336641718 0 0
202.376187733466 -42.1580831218831 -11.6181895963133 0 0
1.20150942504082 -5.93909277283379 9.92296211566987 0 0
78.7086266860615 10.8654062494206 -3.48896730598744 0 0
-134.1793439597 -4.95632540084929 -9.6135864423644 0 0
72.1391523399 2.15337459475043 -6.40901768279385 0 0
204.201826590137 27.8099043474722 16.4883733148272 0 0
190.490723684423 -30.9808451128921 -14.0726382856879 0 0
-0.53059538154216 12.2835725219384 -1.39293630677077 0 0
184.40435537503 19.6908936913117 19.8040940200029 0 0
148.978878905083 -13.2193893926475 -1.9863173772025 0 0
59.5282992395527 -8.47817989751311 5.70290132069935 0 0
208.196015828781 34.1720901858779 -16.42036780037 0 0
220.281723437571 25.4376569612711 12.3565433172071 0 0
22.5845792217452 18.8072398885517 12.8716781136748 0 0
176.689239263317 2.89949518250072 20.9846275753201 0 0
131.76472619089 14.7392566817149 -5.34072010714035 0 0
196.072653619252 18.3527998904499 25.0326890483458 0 0
-33.6016652280666 4.9176772634861 19.5172052929444 0 0
85.1679683828172 13.0246202645557 17.9086769983527 0 0
183.842576275077 5.14946810963312 20.1649587783529 0 0
-21.2960143216428 -2.66554107983185 15.406497239345 0 0
-85.4636965272226 18.1295762121706 12.6203404499137 0 0
-135.88876609067 14.2827220394672 -17.0546886466282 1 0
-122.550730072697 -3.0806586684446 8.74668990197218 0 0
183.401528565634 -9.11555722387014 -11.3974401155754 0 0
218.052619340299 -28.530185346629 11.5178212441171 0 0
-77.483682029047 -4.28771373327192 5.53505355689334 0 0
41.1364327089198 13.225780968991 18.5694138633971 0 0
215.618324583432 23.818073818809 20.2918323094565 0 0
142.12010794196 3.9774611675041 -8.0206084619643 0 0
-31.7278446371134 18.3011059462705 16.5355754026302 0 0
226.75289529288 -27.1854058641558 8.50981873004207 0 0
71.4504778265998 -5.88353553253887 17.8774064034513 0 0
149.931006430715 1.74097948414487 21.9486311305952 0 0
-122.247329787461 4.75941454766781 11.513963154782 0 0
149.466158230115 16.1564997814528 -6.65656883205447 0 0
-39.8637253873594 8.75731545626059 19.451476113621 0 0
-55.9475418947943 -4.15266943036483 5.96669974548829 0 0
-52.9694890594197 -0.301382594904124 -0.982052298977498 0 0
