"x" "y" "z" "f" "a"
205.654929004167 9.78827750676944 -18.4616842412172 0 0
198.3570315083 21.807999935516 -38.7493928951794 0 0
21.719010113354 2.17005032703669 -0.759844892709145 0 0
198.957299180269 29.193492457439 -38.2365213701393 0 0
55.7452763611616 -8.82017485695249 23.3373202335993 0 0
215.413965642767 -17.7544373942668 -19.9426619043846 0 0
207.072906248792 -24.8615130692545 -30.8255898155734 0 0
168.214218579497 2.93030503167079 18.7953530173309 0 0
180.881477009563 0.954093766522931 17.7385590775047 0 0
131.492947876828 4.60050976603855 21.7779059275325 0 0
192.258948473087 3.71665714791105 15.9015025546052 0 0
91.0037883922989 -12.1790027277478 5.59691859586828 0 0
175.969757597479 -19.835510637867 -13.9053279776976 0 0
193.135229444829 37.4496651608868 -2.66007933444514 0 0
58.5454583060122 -14.4353865686445 15.3192594568426 0 0
106.278893036527 -14.299175206422 10.4334104370946 0 0
186.661258234114 35.9236369347827 -14.6795619064841 0 0
165.057253655281 4.82329340555737 18.678802845083 0 0
116.212168940259 -12.6321781564704 18.1117719771319 0 0
191.932261531343 -28.4253562139273 10.1132320033485 0 0
114.064413023774 7.64797259698963 21.6390876980554 0 0
185.586044581095 -23.0956259618803 16.3835638200529 0 0
19.9644655748218 5.94883109247817 3.097219413649 0 0
182.375790478966 -15.9298116953105 22.0156341005251 0 0
210.941482834225 -32.3832186282556 -7.63880606704436 0 0
4.96005163880316 -14.9689123507333 10.0388298237036 1 0
56.74652531646 -4.4888335013157 -2.45224720383949 0 0
212.052519756721 -32.7068551131178 -9.00956863312271 0 0
4.39667624124266 10.3373238912925 9.13784852145933 1 0
155.746886535287 -3.6123341443939 -6.5395916044584 0 0
186.752230201589 -29.5792859659623 -19.4730642561524 0 0
167.537681057694 -20.2593847343062 8.43172521823831 0 0
211.095192741942 -0.353343817018966 -7.30641339038938 0 0
216.583002878182 -28.5798702539266 -16.6528976555981 0 0
28.9855113944411 1.18450555448322 -2.13731956840437 0 0
187.79780995818 36.4524783390098 -7.68897842450548 0 0
225.731654220861 15.3772424570881 -8.39158252658617 0 0
153.68095367489 3.02256768957958 -5.59830771784219 0 0
76.0858552263625 -10.1608944287284 4.10414411497362 0 0
192.987009024643 -7.75751885746152 -22.2797691485387 0 0
64.9810662553529 -14.1135649614952 14.168033154777 0 0
94.3046370861033 -14.0728637268534 12.4117413986127 0 0
19.6996150392236 -16.1270532029504 18.8775782763756 0 0
128.014371342317 0.456060563584559 22.9587926564844 0 0
147.847340156673 10.122894128793 18.9332452732728 0 0
182.144668484948 -28.3918822445233 -11.7977581068931 0 0
10.5037451127301 1.39484007725039 -2.27986939403709 0 0
185.591676208005 -20.1711303422803 -27.5852408076616 0 0
191.080854325612 37.9972850460555 -6.72635466481199 0 0
84.4793663310113 -13.8118245424892 14.0627821238126 0 0
150.701569637613 2.54506330487378 20.816084046332 0 0
183.17900282132 -4.56910472320946 20.4478325909325 0 0
101.032384820769 12.9078525838385 18.5617689959902 0 0
18.2828079680119 11.0135054669943 11.0465327670159 0 0
221.430739107937 30.3676960719009 -25.2807496420778 0 0
163.80760661891 -18.8605289834125 -6.34832978257653 0 0
211.117690779414 28.7018457447715 -39.4026032461107 0 0
198.706619387668 -6.82163478938178 23.6682221563058 0 0
167.586745872479 17.649479213579 14.5408569927838 0 0
148.73715298855 -10.8641183532506 -6.02775751735746 0 0
38.5472837675213 -8.2775077882196 4.11975772202053 0 0
160.728501492088 22.492636167485 2.41520831812942 0 0
201.637859656194 -22.3158398800744 19.7773422545055 0 0
196.789881460335 7.04595604607483 16.7929059739156 0 0
196.220633064018 31.4163768873924 -31.9541410829002 0 0
113.012132116861 -13.1918807598616 3.14297280308744 0 0
167.857445361885 17.3174683218745 -9.48607061199558 0 0
83.5857901351795 9.40629354734801 21.4608131836521 0 0
153.773462605778 -12.5796070073777 19.2999127259008 0 0
115.638888629049 7.93244955549146 0.457510960239153 0 0
213.847745732028 7.16078159993258 -11.8419486658817 0 0
92.7769372140468 -4.54262284743647 24.1596942846408 0 0
138.448099074276 -15.563860690035 13.4542742713242 0 0
204.739626429444 -15.6799982407637 -30.9591337323892 0 0
75.6022142665701 13.1063053085546 9.03768937486092 0 0
13.5647123096206 9.52214095016106 7.39678166445669 0 0
183.673112716192 33.7261122705407 -12.6470350802424 0 0
181.322981514788 31.0784909595337 -6.1008169012727 0 0
118.898313992924 1.68602246957977 23.2932371883164 0 0
110.330289165638 6.8948150486688 -0.112924231057284 0 0
193.840251563188 29.9434746413185 9.90148424711703 0 0
181.319185420858 -17.2550180960101 -18.5413173377942 0 0
206.23658722393 11.3606284233035 17.9761390847737 0 0
202.708385858886 7.80381245281815 -15.8395427962789 0 0
222.945799970666 19.8833535488125 4.55502791145308 0 0
182.712135608834 31.5072990860941 -12.359711981568 0 0
210.115237252732 4.5948042673882 -9.74162831560277 0 0
183.355225729672 12.7612712584849 16.3229045072441 0 0
160.139727480166 -11.0510961310936 20.6260356599682 0 0
186.823965494678 30.9112798247935 6.93628540886034 0 0
28.6407387038924 -8.64464397702213 23.7203615079306 0 0
163.634076823557 -20.7987883239056 0.182232665358708 0 0
156.831865112841 19.6725342156988 11.7045857875804 0 0
21.073908251772 -16.5169230725585 16.4648968836921 0 0
185.514348834953 -32.945340166703 -7.98150056075881 0 0
196.841034318816 -0.288609657354011 -16.4848170206738 0 0
12.1572212307082 -6.7734525499032 23.9980041667351 0 0
217.858725084196 21.4851046923537 9.75124787543582 0 0
188.556551749735 23.7129612741499 14.4278037419737 0 0
168.592786933306 22.3030084110449 -5.28935122927504 0 0
185.390757828524 -3.8483954988304 20.0587862874382 0 0
194.239742383049 -0.284485793670932 19.1278452055627 0 0
64.3129185589399 13.5032390746531 12.3305358315136 0 0
145.300827286652 -16.3463556755813 -0.73041842516493 0 0
180.206473699239 -24.1753311710456 -16.0509136460028 0 0
218.587223444186 31.4171646721161 -14.7493660040531 0 0
157.026284377131 -19.0640687835336 -1.76790496141745 0 0
210.783906039368 -24.3373907705749 13.5719809240151 0 0
225.695751340628 26.1263577649602 -4.67539405688072 0 0
158.693873924316 11.6861219793043 -6.05855960830269 0 0
223.312891324485 14.9010500755931 0.98592354018391 0 0
216.098848737464 7.57672813298224 -13.3297412911346 0 0
145.945981121581 -13.4690797406497 -4.48930386490334 0 0
191.53179174955 24.2286235603102 14.8130820098898 0 0
45.2852062502763 -14.9434044270397 17.1427171952385 0 0
184.463693143278 -24.746776152735 -24.1083937293078 0 0
160.320905887497 8.25745217318662 18.4580584010177 0 0
77.4944000464901 -7.78106128370642 23.3024294142665 0 0
222.785366002329 12.7528217229522 -22.7044377967429 0 0
194.654910074059 -20.4661748069051 22.3675001982669 0 0
52.5617530061414 -5.10116779078396 -0.598806407441131 0 0
186.435761375979 3.4001368051753 -16.1316390458444 0 0
217.763548369896 22.8052098517272 -36.5924491163881 0 0
41.5589309284228 -4.3598421468616 -1.01855074236378 0 0
178.868048660817 -23.7867366612607 -13.7175253383662 0 0
217.36248817648 -20.6955523133581 -14.0262474781704 0 0
38.1732686647995 3.59168351505828 24.1227111130929 0 0
183.629650527683 32.4294560611604 -13.5947278181653 0 0
166.905972843294 -4.82798168530645 21.0390718523554 0 0
122.992449671574 -15.1788428133792 5.98380913764765 0 0
199.292213289939 -0.676560935450598 -15.815790570256 0 0
151.339756815945 -1.06266068444585 -5.55813443693672 0 0
132.403098511173 16.9067089856012 5.12932254641535 0 0
145.234631864328 19.4813649217933 8.47598912269636 0 0
50.9179266696593 13.0368451096529 11.9790320563526 0 0
162.7656782546 22.1729103058982 7.90787126184067 0 0
196.190440156469 -33.3977894560472 -11.7391151274563 0 0
217.00931719792 -12.8118995968241 -4.70840091412842 0 0
195.324406341242 37.2931803976663 -1.36984917635294 0 0
212.077193564132 6.04061993202538 -10.5580658365691 0 0
208.237610193138 -3.72380370525812 -13.0153161816396 0 0
180.841277977421 30.4478081445999 0.542716619549975 0 0
183.645055135693 -1.28666394131456 18.4813347478732 0 0
196.379429841488 11.908837720633 -24.4012952056662 0 0
199.549496040526 13.2993183912631 17.4891268405351 0 0
40.2707178839588 1.72411180921888 24.5098163579432 0 0
4.38123124249474 3.70932246666439 1.29803701750502 1 0
189.748191978195 23.316949567948 -30.1894820209647 0 0
110.941015821094 15.1952719378692 15.5929294256565 0 0
72.4100847253925 13.883815978524 12.9900894774189 0 0
112.139007728729 15.9551294662373 13.3465741918018 0 0
161.38675520558 -17.7848363493033 12.2280020301717 0 0
2.3871467181986 -4.82852681047343 -2.99809670127471 1 0
208.183345654464 34.3241891837043 -25.4899247846592 0 0
50.6618267540574 4.44712994044907 23.9042889580268 0 0
186.765577165686 17.9866223221368 16.0577167649496 0 0
125.071351007431 -13.6640931907761 16.6733285187452 0 0
102.292175940741 6.74960195981063 0.526788109043122 0 0
76.3612064039282 -12.4932113057676 7.87547169296688 0 0
166.887533044739 -5.04048539336527 -9.05665675021219 0 0
203.084324605904 -3.74770713204753 -16.2628405993625 0 0
193.824319703691 -15.3139430071912 -31.3808107883818 0 0
78.0470273840244 9.17570554555529 21.603008695739 0 0
212.794515962869 -23.5709046378575 13.1491623029211 0 0
35.5125058871673 -2.61050998040395 -2.91291121197134 0 0
138.070995788976 2.72557228209887 -3.50052760536419 0 0
183.454989010975 -23.0923827427615 -22.6824972198034 0 0
223.719916117805 11.6146374215884 -16.0280109430852 0 0
36.0351901423264 -3.88323712783598 -1.68179526793436 0 0
25.7687980879253 6.07081327932424 3.1147130872536 0 0
79.467788501075 -11.6111652707503 20.4272786087332 0 0
2.50752727353239 -14.0744574502844 8.83147493165673 1 0
32.8374099821224 2.17618095653626 -1.04570743310615 0 0
212.58769142328 -31.3963420594455 -3.76845516793417 0 0
16.7009070870073 -15.4405012494034 20.2069046561 0 0
168.485057426793 -22.1290514174665 -0.95616930827225 0 0
74.2089907336889 -6.75670499305355 0.607345877323725 0 0
204.101371066464 15.1090320814623 -39.1523473152885 0 0
12.1930314520093 -16.2302985442586 19.3659031034515 0 0
215.865049067342 1.57476757337349 0.016505605036859 0 0
208.010264842999 17.2342927641657 17.4312493016183 0 0
204.204313357377 -6.32608086437379 -19.3032931923319 0 0
218.374115308261 29.4800517359878 -3.53705424741938 0 0
210.764240627687 36.3343387869497 -15.8751634441982 0 0
199.67206418892 26.5868141132344 -39.2323512098413 0 0
187.759871944272 -34.7145470579825 -4.18280715500213 0 0
215.610495881763 -20.690018122782 -20.7403561998278 0 0
197.150090350077 -32.8967150448114 -13.673107859788 0 0
7.84239537602358 -7.89134454651452 23.6275623941444 0 0
187.834967108003 -20.8069530648911 -29.6899282812859 0 0
227.185207821634 21.572396452686 -10.2017320125538 0 0
212.8856858524 8.4405438817359 -14.2596984944111 0 0
58.435437294231 11.9974503490874 19.4957106773499 0 0
71.1166493744276 7.58287122077319 3.09247876657717 0 0
177.110884974015 -5.1977297674435 -11.9575095256838 0 0
191.42531504681 27.178436110662 12.0768494020976 0 0
137.019209831729 -4.49916939840457 22.7648299109329 0 0
204.058524572606 -32.2939614081547 -10.8001236909566 0 0
32.4593050603635 -6.446338153779 2.12286314731815 0 0
222.688716371608 29.7482915427871 -19.608287410378 0 0
203.968205677803 10.7221541880753 -21.6726817767649 0 0
2.25201703441066 10.8504055241499 15.0237976671334 1 0
156.981774889692 -16.4896088767358 -5.23770122932092 0 0
209.363331245852 -22.5528105386361 17.8312475174863 0 0
95.8248744491074 -8.92313894525947 1.0426525481649 0 0
34.3454006701801 -11.0891073755636 6.64009282927799 0 0
123.14825740881 -11.8656026108181 19.2071633365243 0 0
105.109280501255 13.9799716043178 17.4135357232823 0 0
17.8878437400213 -0.999069888932137 -3.16181003144607 0 0
187.442265543079 -4.03693620699815 20.3530810891392 0 0
186.290375330265 12.3972424424496 -17.0171435528007 0 0
18.636415558314 8.56400800425315 21.3221372727536 0 0
36.2171886911481 -5.02911667501869 0.460866899326729 0 0
65.0545251111515 7.59651287980063 22.5861159723105 0 0
150.218109815597 17.5099844464305 14.3727879307975 0 0
206.898189897537 -25.8071521121113 11.7082994054684 0 0
200.980740993836 -2.27564198880543 -16.0063854334368 0 0
217.342000046587 -13.351782027346 -0.825730233443955 0 0
218.398272748364 31.5589740323286 -17.3475334798405 0 0
19.9312588627942 -6.47437912694405 1.20259973063583 0 0
196.532120789902 -10.8695951212577 26.1414367506285 0 0
217.25555256202 -16.8124461138514 -4.99044125616781 0 0
148.066780581076 -17.6106843690293 1.17102318483694 0 0
214.082510749624 9.72708098445818 -19.8036964445598 0 0
50.3209260179017 2.6989972191987 -1.37488092469714 0 0
154.918237923657 -14.1065712896964 17.7174722045082 0 0
156.967918330002 10.7226562242671 -5.715572479897 0 0
193.473307012529 -35.9022650595179 -7.304406926302 0 0
99.7323095187036 -13.3027682668801 6.38762457339013 0 0
3.62178598815506 1.74475013665238 -0.41191569229904 1 0
216.601623997546 -16.098749578364 -10.7124577513793 0 0
216.523479004724 -25.6153946433137 2.07116614108056 0 0
199.859371487918 11.4641081698779 -24.65198291817 0 0
91.9262444965863 -6.6099563616081 -1.49031313895357 0 0
190.195946264759 -11.3203854082306 25.1292471048503 0 0
48.3953481476391 -14.8233608325445 17.1504286310859 0 0
36.1728455653293 -9.72893548459629 5.2378619194081 0 0
190.816689651042 -27.8307620767825 -28.8361731640994 0 0
152.406400368013 -18.3585998958295 0.646475161526337 0 0
195.280040792738 40.389387463463 -15.8042747009102 0 0
23.6161188770141 -10.4247943378561 22.7900257120929 0 0
130.060626726269 1.9240859469474 22.5429326074305 0 0
211.338364756299 24.3771841669095 9.93623671608609 0 0
192.143022405992 6.68925100441437 -18.2490229142017 0 0
60.8312070233741 2.13318744368914 24.4180842021665 0 0
190.518866294115 38.4469833988519 -12.5208732478683 0 0
14.6313554812104 -7.05279069834764 1.26625888875579 0 0
224.502507182334 15.4403271123274 -2.44589136708169 0 0
179.944890822678 -14.5718927904783 21.6839245730147 0 0
196.507410249962 40.7851063175815 -10.2070507333115 0 0
191.12993705436 -15.4479780518981 25.8902280133592 0 0
110.52987800389 -0.957206728656003 23.8791611897374 0 0
193.984034709289 -35.7148826595559 -3.1542556586766 0 0
104.243555355292 10.1725596381547 3.47650186588849 0 0
201.033072329516 11.6437856617906 18.2589143771474 0 0
190.724669797556 35.0644396290263 1.43519048832855 0 0
182.469119818253 -26.9951999819902 -19.1846194313211 0 0
192.576929739373 -32.8238754459062 -13.1769413719306 0 0
212.909504268237 -28.9982701234661 1.76973839161534 0 0
123.457724481934 10.6363714967573 0.832535331500508 0 0
150.10386992901 4.84534857088967 20.2388137580853 0 0
29.4437164129609 9.48463340018724 6.51055185629956 0 0
21.6559371154384 0.685175109671227 24.4943276239859 0 0
182.669297927989 -10.3199691728654 -16.5319621623269 0 0
188.31510857406 11.74822223096 16.398143221672 0 0
8.80469621675872 -16.8042996744679 18.4133062598776 0 0
2.16166835719653 -17.4997625433515 17.2864249940277 1 0
23.693091432753 10.578965440122 8.93526090841244 0 0
128.005571540544 16.0818942972231 5.01186246299523 0 0
68.6007724019464 -13.389620343507 18.8062565155169 0 0
207.278989116468 -21.7510874128023 20.0648395762545 0 0
222.497930119857 29.7713508524062 -17.131788950657 0 0
55.2746693661987 -12.4619758450958 9.26276844880119 0 0
11.8108535026276 10.0335501334116 8.38216752706836 0 0
172.420335387651 16.1064243578244 15.4043570007546 0 0
16.9559573162231 -1.0926288617855 24.5565953618866 0 0
202.697074882766 26.4443146260125 12.1542457343271 0 0
197.29018296989 32.5976936571356 -29.9971651190939 0 0
206.136116194258 -7.81268818847792 -21.9716286291544 0 0
213.588370820847 -33.4472127635785 -19.7011999412489 0 0
213.09121287636 -19.6358447766974 -25.2395176572883 0 0
181.078694126408 -8.0828214788529 -14.5467352011594 0 0
160.100867939648 0.717649545935322 20.2805162242052 0 0
188.472691014937 -4.61822467094312 -17.5377872897573 0 0
71.764375943652 -12.4274125360845 20.1564985138336 0 0
30.6741030770475 -15.6948341496423 17.4950148230356 0 0
88.8882856254637 -13.4911363859682 8.8016752502492 0 0
79.4235631352983 -3.12346819019589 -2.48233057646884 0 0
117.075073580656 2.47750652888781 -1.67411831594303 0 0
153.070100296693 -13.7914364273611 -6.3746672260858 0 0
182.001205186543 29.6329099386808 -12.7138716326415 0 0
194.068697769412 -34.7379693138538 -8.94739505364604 0 0
14.864234119707 -10.3911725659023 5.09957796882509 0 0
214.923501864862 2.90100093117122 6.34676031560614 0 0
225.041566688216 14.5207414898981 -17.6621952667462 0 0
113.613514776164 15.8216174398251 14.3228332011656 0 0
108.276139477087 -5.99719883808963 23.3710180618024 0 0
0.541365716924263 -6.638698270956 -0.614020602988105 1 0
201.217797746572 20.0221930350029 16.3091955329724 0 0
201.814797706362 25.2501061896565 -40.2683259812845 0 0
132.636546884717 12.889154267377 0.386805658074819 0 0
221.824851479522 29.8163866149006 -15.2250715044783 0 0
124.966374728797 15.2706796284533 4.6610628414997 0 0
224.694613155369 18.0308758196793 -23.825239875125 0 0
190.83052303199 5.20032317102393 -17.7964724746749 0 0
37.9316957026758 6.00588457336942 2.88652760885387 0 0
175.016234008602 10.6572881592466 -12.5830428696275 0 0
149.070277465578 15.3164002032642 16.4071562192438 0 0
184.681811780096 -28.4990109921468 -16.4364975609369 0 0
225.698774116902 27.9207015813668 -13.7102575493522 0 0
221.732971979313 8.58164074210091 -5.79634328328446 0 0
222.073410696619 27.214966017932 -31.0840911691322 0 0
95.7358576296702 7.71630417364695 22.2483766344493 0 0
219.703599443192 29.2643140202259 -5.60128082354094 0 0
135.799810573682 -15.9454124172084 11.5949385801362 0 0
197.372150842601 15.6484952161392 -36.7775647586318 0 0
124.779051777984 15.4979133565758 15.9672085514428 0 0
97.220637333576 -14.0006896493534 9.37323507671251 0 0
123.190271164767 -9.03738773562688 21.6595233187368 0 0
106.501879658533 11.4531462707437 4.20834025336677 0 0
188.492893994302 15.9981617857057 -26.2313917352635 0 0
39.7955137992537 -3.97662372396171 -1.71412119005963 0 0
84.8606102175397 -7.35505541808533 23.4225381216833 0 0
118.125346037578 -7.90521144724985 -3.38329705228621 0 0
110.90374857401 4.918508690576 -0.250965082926072 0 0
197.430184276014 38.1480269023635 -22.7564751194205 0 0
188.603346526736 21.5441921635385 -27.7766649233843 0 0
35.4840861254213 4.67445519811175 1.83440197470799 0 0
195.402412355742 17.719972069416 -36.1151485926702 0 0
192.450619989503 20.046033652778 16.7851066536203 0 0
224.789588640137 16.4250183220935 -22.0027526179673 0 0
211.395979616983 -3.68422501372724 11.8502810586974 0 0
51.493540700379 -11.2758489231294 22.517745001833 0 0
35.2522016389239 7.37031533144359 4.08952281726366 0 0
174.762919411789 -15.0424226192862 -13.9153299044567 0 0
70.7907418858745 -13.1277429770496 9.91805658007916 0 0
208.459320798882 12.7772912917576 17.9146661431151 0 0
193.47784397807 -29.6686512388279 8.24974703284865 0 0
66.8553718407944 -0.856768339048873 24.6678846543062 0 0
79.6399991632471 -8.7010202880004 2.15044690665195 0 0
163.416022494212 19.1724203269288 13.1048062829707 0 0
41.450479817454 -11.1223044733423 6.74231965657322 0 0
181.16052449838 7.97994404708438 16.6628772170891 0 0
18.2776605433476 -5.36781559833625 -0.373782684545679 0 0
167.658380065143 19.3784084249138 13.1612148764134 0 0
224.995729729582 21.2633299821163 -0.312757484287073 0 0
216.015724822697 -30.3931205574206 -3.62239027887139 0 0
178.630432634381 29.4041909918705 -0.589583177965308 0 0
205.042351220425 -32.6762441638368 -8.96312618599234 0 0
178.533110127403 2.9102751227288 17.554518028546 0 0
26.3117572741937 12.2991493525207 14.4396593047742 0 0
148.943579127933 -15.3853661661185 15.2244240979003 0 0
71.0634518141364 -7.35692230278558 1.47228827624269 0 0
124.984139774228 13.315156545094 18.1675457957614 0 0
179.282300946232 -11.1841741318166 -14.7379610169511 0 0
196.629836026608 3.79901202761216 -17.0783524712651 0 0
154.136247484001 20.3237843880099 9.75223210522879 0 0
157.310388002362 1.13818519789007 -6.32420383232242 0 0
182.634175292696 13.8575232030076 -15.760987932232 0 0
88.9528564448813 13.3145701325524 17.8326420453312 0 0
205.545337095876 -32.0939755624875 -11.9735188178011 0 0
208.992250498905 -19.0948111053413 -29.4065678925506 0 0
205.576137937175 -31.8040607479593 -14.0865682812082 0 0
191.668060147872 -8.55216212936883 -23.8198016028284 0 0
215.734704557682 19.1768619095449 12.9917526495397 0 0
31.8702643173856 -1.21837820510968 -2.80454443813801 0 0
207.444802551608 -32.2909880005684 -12.9104072857116 0 0
199.530166046839 10.3761893304356 -29.1043704338215 0 0
225.657228697933 20.3842064402293 -22.6116323052583 0 0
25.9659518967558 -8.25573423235407 23.7963114604613 0 0
153.925892904053 7.79347539632636 -5.35529018465186 0 0
212.671628815604 -7.03146694741985 -15.9729821028451 0 0
16.2190897931276 -0.800943319546037 -3.33080920128332 0 0
205.867293302037 10.2655998343978 -20.770534572207 0 0
211.797826669162 34.8978131044018 -6.22064231472537 0 0
29.9050053245532 7.91077209332423 4.74008638224529 0 0
211.83778498029 32.9727630565922 -28.5336530651129 0 0
176.271518605245 -22.2753996674831 9.96402719634602 0 0
197.653643640189 11.1835842433607 -27.9591689120496 0 0
66.8455028889248 12.4249217192009 19.2625711157157 0 0
206.416156083784 10.5134538702623 -35.6099891351255 0 0
76.4106592059004 3.09230949392305 24.1115578664829 0 0
213.325128799042 -1.30147198423951 -4.92726935728469 0 0
192.583760602547 39.0450053504205 -16.6018281133896 0 0
150.788991046002 -8.91859551686398 21.5045580249228 0 0
53.791518638407 -4.62115262056686 24.514416664572 0 0
193.363653448588 -5.44061018230529 -19.3719625048776 0 0
76.8698157038858 3.74153332133276 0.15908863780631 0 0
217.046845049969 31.0125902537831 -5.28632680651493 0 0
165.420232765062 -10.2149913398938 -9.82422383536899 0 0
47.8015382033483 0.674930769672676 -2.54430843817074 0 0
187.735574532084 20.8843189851847 -20.4362891188207 0 0
107.775421941072 7.80175191148765 21.7566495326664 0 0
117.161279089213 -5.26307159368917 -3.53080944694643 0 0
51.8922812736389 -14.1265607502458 19.0259801201193 0 0
183.93497809699 2.53063276833227 -14.1161359856448 0 0
65.9306036006107 -0.196588389760002 -2.5307873201816 0 0
28.1147543940627 -3.53363566190062 -2.35113319239672 0 0
14.2040430506108 1.88860939845473 -2.40354595293403 0 0
70.5162750061149 -13.8221836886596 12.6643067183696 0 0
7.57729161921755 2.05552881112982 -2.73394771155309 0 0
178.337518939531 -1.44946540866622 18.8929899229241 0 0
84.1928665948076 -9.69607360749249 21.90453708321 0 0
190.142778005815 -32.2286144196054 1.21425349770929 0 0
97.1359873839456 3.51251194258657 -0.374079302683221 0 0
7.77176310998047 -0.0789347908174812 -3.64184077312489 0 0
190.45917808102 6.59775733712519 15.8445372091855 0 0
180.40380286649 -10.6069072341167 -15.2385315988877 0 0
194.081863516465 12.1474088540929 -23.1262341809385 0 0
184.214602638579 -2.98493363998368 19.436140960795 0 0
68.2476944202315 4.06644251068573 0.340817055910871 0 0
201.511959526999 -35.4091735614414 -6.90440951430576 0 0
209.187765617736 -29.9871906282225 1.67381446051294 0 0
182.663679045817 18.2811203605442 15.3025562812315 0 0
201.940193752198 -34.344209736963 -3.34440236871305 0 0
70.587712126694 -0.538291064424929 -2.38846509834707 0 0
202.268810340106 5.76024219468171 -14.3951667422048 0 0
34.8684023326735 -13.7323519827751 20.3784876262263 0 0
213.035402997868 19.8595399138081 13.3884958401679 0 0
209.56204931026 7.81689005792711 -30.1578222976878 0 0
138.056673581518 -9.82223445453643 21.095130738744 0 0
213.838752569976 -7.70770533161249 -13.2708225541978 0 0
105.452019190239 -3.0882583492311 -2.60206401222273 0 0
54.4250185115073 -14.2500761359618 18.3328645484958 0 0
46.514920473305 -3.46030236262812 -2.72515546767791 0 0
224.648637723724 12.6589387084321 -9.70087482515884 0 0
211.696388017403 28.675059437002 5.39133159124526 0 0
195.098791150868 -32.9800212862332 1.99449022092644 0 0
221.116841518572 19.591566524166 -32.3450671014619 0 0
188.847980768414 -14.7638644300821 25.5201162386479 0 0
142.856406258257 11.8308502960382 -2.36528453632726 0 0
57.5352919530572 -8.97823451516929 23.209973585295 0 0
42.8961843381937 8.18204931719848 4.54479933026552 0 0
180.728997195575 -25.647466462946 -14.0799570762183 0 0
210.611562384706 3.16417432484729 -8.23732900711598 0 0
196.800068993614 34.9787471804213 2.99856407462036 0 0
72.6608138004913 -13.4179603342132 10.7189989287706 0 0
158.46669023049 -10.2272756923416 -7.84000313157488 0 0
165.9920459244 -15.0887330381924 17.612350526319 0 0
30.3681733666643 -14.2931323816472 10.9244405865055 0 0
207.728873134873 -1.07178838622169 -9.96940550410757 0 0
194.9416777533 8.17044202767571 -18.9362735507259 0 0
150.974806601641 -6.18321813683118 -6.04371878325987 0 0
7.88108897308408 6.90628344152569 4.30489463424514 0 0
199.07010263697 -4.52781386433766 22.0463610114238 0 0
53.9285431055041 -11.5548738693025 22.1846974343037 0 0
197.873599229689 -35.5418395430282 -3.35820523657315 0 0
213.337811818272 10.6911988005118 -33.9899085835906 0 0
173.218239138952 18.1681641455967 14.3055547357408 0 0
27.0251943761387 -2.86561583858322 24.7897135787598 0 0
31.2404908262814 2.51116785913841 24.3203256419596 0 0
139.356370050427 10.4954935996856 -2.17572744691353 0 0
203.97827425491 39.7397583463471 -11.5720939104794 0 0
176.10763402739 28.2034720890566 -2.28659519213037 0 0
192.693358270568 2.76328221801625 16.2006805726702 0 0
202.226583679337 32.1136702508773 6.40823792744277 0 0
207.334037615626 -19.1848675249921 21.9977527586337 0 0
182.581186456378 28.6536637122655 7.71920166684197 0 0
186.041188097916 36.1778147670107 -12.7777217129811 0 0
157.797099493277 8.303898322643 -6.12903040925557 0 0
215.123027845558 -7.65598936439841 4.96551193357357 0 0
85.3836963834616 14.5523838688866 11.4420660154492 0 0
208.26202261374 -32.3278924251823 -14.4853940690641 0 0
24.050401510376 3.95845010622629 1.37144274170188 0 0
179.368282107319 -8.95198283692435 -14.2234806614789 0 0
156.429142932333 16.8751671630849 15.0792956690372 0 0
191.274035945403 -31.6042667901833 -16.925197403372 0 0
6.81948984056193 11.123089245409 14.3321686438083 0 0
220.454628536137 7.05498352657611 -4.09007533961102 0 0
182.686002048105 -20.4473773757196 17.7234035868078 0 0
202.687839729765 -31.4698642130063 -29.857519153947 0 0
182.551565796428 -20.7991016391555 -21.211272012582 0 0
136.944465025986 -1.28287268717379 -3.98620907230273 0 0
15.589835983101 -3.73028476556052 -2.94494789631707 0 0
211.596430659043 -19.148254766981 -27.0093635423739 0 0
26.9545019731673 2.64117474060292 24.254674071353 0 0
109.064510391759 15.8631132597022 10.6019595703168 0 0
181.142162142429 -11.8315833931864 -16.4703444731959 0 0
27.5984159780318 2.19086413057381 -0.360862180563507 0 0
63.9417119538627 -2.38479108417294 -2.62693136882555 0 0
214.853302733059 -12.402632592135 -14.4507607246161 0 0
50.6741281990009 3.44018311017162 0.368116922703145 0 0
182.881141776436 -5.13205048289616 -14.5268402154464 0 0
212.916798595865 -30.1431627652879 -0.561721615543469 0 0
192.778975604519 -33.5192353792053 -11.1340442913195 0 0
102.324430692168 14.4161505450104 16.5713929893676 0 0
3.85731179756044 -16.3672147388842 19.551621484463 1 0
198.589308559624 36.0869834086583 -25.8010591621214 0 0
212.852091974622 -10.4240966619185 -19.0778706368491 0 0
212.206809995945 -5.48111505845577 -13.7106204471985 0 0
190.688445478121 0.798847539046153 17.5280766816275 0 0
144.192616643277 -9.83890611408643 21.0952579541142 0 0
194.627197395761 -25.487588728916 15.5717336997015 0 0
175.892430319983 -18.1896879316219 16.6174232707027 0 0
193.475770320267 7.6485324949067 -18.6188226002798 0 0
204.11972093873 17.8980216203015 -40.1312078181628 0 0
134.220304380717 16.9008106026732 14.1037555335083 0 0
175.023724801877 -25.0876631398073 -1.71640555971053 0 0
90.6150619424425 13.2166460622716 7.30165415229995 0 0
182.96863399218 8.04610901326374 16.4769923519362 0 0
128.670758021291 13.6385829429712 17.8772178548108 0 0
194.564653637303 -24.3383373150327 17.3329492057275 0 0
160.577033930929 11.0168855171192 17.8100326520807 0 0
190.346678557129 12.6148288017852 -27.6461215457861 0 0
138.26408921225 13.2057969959495 -0.699015978152217 0 0
126.270846234603 -8.19913546115777 22.0783067361379 0 0
202.289275530905 -8.036946785352 -24.46264446972 0 0
162.151926074197 -20.1090779615488 -2.48936658442736 0 0
126.490774408754 10.8497008878651 0.397824805623805 0 0
208.23645473763 -9.05095220566936 -25.1788932622994 0 0
186.018299217363 29.8785576969813 8.07599612991433 0 0
172.499963100285 -23.0899245316464 3.33419720025381 0 0
16.1107724633039 -5.28389075562159 -0.972080011504182 0 0
184.357202324305 -16.0025696852817 23.0224797694671 0 0
71.3327756607061 3.23138239833383 -0.573106180525683 0 0
211.772032134861 9.15814238820882 -16.2630230623734 0 0
82.173001803568 14.0625665343607 10.4309854157991 0 0
193.538460878238 -11.8727993602882 -29.3454676099863 0 0
215.766110385322 -15.276338206723 10.172077940641 0 0
201.001604313908 -0.10399869663039 -15.2192731489798 0 0
124.558850926413 -10.447409481121 -2.25141071871843 0 0
21.6687510681588 11.2459259088512 11.0885802970655 0 0
201.092051571884 -29.8002803124461 -31.0628531517583 0 0
43.1043137833209 -12.2229262610078 21.8071385997324 0 0
22.7079758534772 -15.5301063228457 19.5297372793638 0 0
214.646011479139 -15.4658632129837 13.0675329821591 0 0
91.4773387869664 5.17687110695304 0.831160051993496 0 0
82.8965033611719 -5.75681709230557 -1.48933975642572 0 0
181.62656554638 -25.7664888411655 7.82522373012657 0 0
54.6404203348081 -8.7056734312145 4.22590256257745 0 0
1.01367484598252 10.7387414897453 17.1064626387918 1 0
37.2264139194634 0.771378338705502 24.6681733261708 0 0
197.201363670829 -31.7405246308485 4.34539800651802 0 0
116.180793207422 15.9172042397978 14.4400948113431 0 0
186.109379481805 33.7522622068417 0.376407803533806 0 0
96.6034449821698 14.2938476382011 8.16154364570255 0 0
108.970833067149 -12.3720458482321 2.62341730579939 0 0
221.000366698536 14.8703470068573 7.18715239239383 0 0
173.105089259689 7.74121284779569 -10.8879975179245 0 0
55.7547627086882 -14.6187118513895 16.2641168031095 0 0
211.141919787678 -20.5735349476988 17.6655206780921 0 0
226.751544686372 18.3051817995035 -15.2929963305966 0 0
54.5229517862856 12.8053799111637 18.1467447387533 0 0
177.926927097716 23.9240752594086 10.9209612409184 0 0
108.141366702898 -10.3836476092773 20.8166240632654 0 0
135.562418603459 5.83513293431065 21.0809589391608 0 0
184.578888124019 32.7308821901843 0.502936223904904 0 0
93.8526728913159 -6.03813741181875 -2.93661000441447 0 0
178.367807884527 18.2326336230201 -14.1893212610681 0 0
195.142515356503 -4.25688443005192 -18.1792745137446 0 0
197.75038115284 32.5053031387876 6.80704415006281 0 0
208.264168152739 35.8435115914672 -20.2224365481312 0 0
54.4099188882734 9.30053123619589 21.591975268438 0 0
70.018097860368 -13.9916371285998 15.7547227408344 0 0
181.869426897189 2.59532302908418 -13.3103658606304 0 0
212.880870846208 -13.0364165555337 15.0076995259919 0 0
184.284363609197 -14.2555213929782 -23.370022557896 0 0
55.8580779203885 3.92969506785904 0.384547488811627 0 0
113.350463382536 -9.92256622838029 -0.732119798517979 0 0
90.4074169225868 0.285007960800239 -1.55251428393143 0 0
216.865529647755 14.9825964462548 -35.0360276505878 0 0
36.0444330679347 2.97784520606496 24.2883987113118 0 0
81.0750078683777 12.5167454085636 7.35622705107172 0 0
217.516601359076 -29.0255977708623 -7.88242150495845 0 0
215.863495134 2.36048680631415 -3.67081510781321 0 0
43.0148623540905 -4.04308473371248 -2.17808196038118 0 0
152.611560358449 -16.1386085380363 -3.87931889756242 0 0
211.007954346948 -31.9815446250469 -5.31501420779602 0 0
23.4318240400056 -5.45472534338891 0.543830381152698 0 0
209.658681240176 18.6006473728532 15.8939305380767 0 0
81.9455445709898 -2.07390830917508 24.6672869849174 0 0
181.263404834846 -29.4323638361213 -7.78408907193571 0 0
17.0264094844029 2.37317761988253 -0.224790959518546 0 0
176.389748254262 8.72739891001483 -13.0584263451089 0 0
188.089599533232 15.1188324727681 16.4203943393315 0 0
60.1462714491852 2.96894328409001 -0.228121394994689 0 0
85.1376874154845 -0.792193740518106 -1.86173047860235 0 0
192.189595925145 6.69184604621141 15.7782454473714 0 0
203.768411678397 -17.4134428479607 -31.8052733538769 0 0
200.058099924248 -17.0521720043745 26.7076767842035 0 0
210.574242758489 -26.0880369902798 -27.9564113796462 0 0
196.184337744298 -19.1983511955945 23.8918310502715 0 0
1.07187781410897 1.83423241411471 -0.68096168706095 1 0
190.373538583732 37.9966049007 -15.4498325870112 0 0
10.0457859252429 10.5839397469628 9.73961760415306 0 0
196.401761615828 37.9828793226853 -3.29094006855471 0 0
107.668667949542 -7.90180091138819 -1.47359783240348 0 0
185.16020916894 19.849267271113 -17.2569298943517 0 0
13.1854447761551 3.67484807184109 1.26399330264657 0 0
217.065619234016 -14.6847636886138 5.43327648092882 0 0
197.052317204693 11.000812621118 17.1462767925694 0 0
188.846946692227 -30.5322750567657 -15.0614239884517 0 0
217.535237239379 -24.7072075905955 -0.822231305392463 0 0
201.266538498974 14.1994616666026 18.0390631598804 0 0
116.376234211989 13.8628816287605 17.7396463957726 0 0
221.574345808733 30.3558848849968 -21.1652877518431 0 0
13.054511778281 -8.58696707821821 2.89051683923474 0 0
72.0505857952201 -13.5951687037403 17.9810629979917 0 0
103.114896023478 -4.67635380476409 -2.99080341056215 0 0
140.044239949329 -5.14135585074016 22.6021231767226 0 0
111.141818275916 7.20546964315309 21.9042504628679 0 0
40.2468689908121 -12.5485345206069 21.5266238481766 0 0
181.673913247654 10.1131092107265 -14.1398780049921 0 0
65.6867107514564 8.90705904886707 4.13247119818161 0 0
192.675311917756 -30.7183958114199 -21.1531264993888 0 0
40.9138225482518 -12.2174270688445 8.08631934863365 0 0
177.18642791662 17.1485054204544 -14.049061445514 0 0
216.909690503053 -23.3116511361019 2.87172389375307 0 0
217.175500658259 -30.4717125032443 -10.6860052690667 0 0
176.685430447432 11.9743500822687 -13.8407499087754 0 0
20.1491144621516 2.21130000400332 -0.32455335218328 0 0
207.02671701886 -30.6608098429886 1.5661023281083 0 0
9.70840484264249 3.64688491351577 1.28382156371999 0 0
88.3541195741405 5.36943993943154 1.07758302210162 0 0
199.485994827513 14.064592065883 -37.103976913675 0 0
185.006152219312 -30.4234585114938 0.354957167047748 0 0
119.999971499413 -7.23193543072261 -3.73611395561358 0 0
204.884630558457 -0.326777854150446 -10.3358767505581 0 0
27.2141729042489 0.0217577360963073 24.7002909896076 0 0
151.240352367545 3.60952060631409 -5.12883021192461 0 0
209.771567953535 32.9980192193227 0.528887404159202 0 0
81.6587113621086 8.8934225745516 3.6939472630448 0 0
183.269344174519 -8.53684335877599 22.5457315866771 0 0
189.872020995959 8.64936453414391 16.1055261975276 0 0
186.48807541409 -31.3355788117803 -10.5180958771335 0 0
133.175166051395 -0.367752945019961 22.8032248056752 0 0
214.039649218329 9.47456762933034 -17.0158596988804 0 0
43.8779970799058 13.0255369880377 14.0276453841369 0 0
183.101818166044 32.508757760671 -6.90347604877537 0 0
76.9769204774154 14.0702832449911 12.3315902517252 0 0
215.853655124315 -14.8815032364528 -13.5387110329514 0 0
108.768586562811 6.48253973596184 -0.200347174774735 0 0
203.503724100581 15.6771991446538 18.0794275618944 0 0
205.497660116513 32.7827687672896 -35.8248902040918 0 0
144.573229204457 -17.5705449769722 5.35010956238767 0 0
215.353352207662 -33.277249504641 -10.8842326802885 0 0
190.739731516861 -31.9886621389007 -12.4150100116039 0 0
217.527235837738 10.7315958452102 -30.149914017672 0 0
178.756146095389 12.7671661805934 -14.5911029743905 0 0
114.140993685131 11.7151156119819 3.11614286524716 0 0
34.537867112399 -5.69432893200689 1.34519680110126 0 0
68.4836541067062 -8.79185829670551 23.027753783668 0 0
20.0858642774565 -15.7735228031688 12.9529468773766 0 0
119.185807980077 12.0841318641615 2.66733325348054 0 0
183.706208852151 -1.47042446578752 -14.1626876249447 0 0
191.627644774287 -4.0082703207038 -18.1107807231509 0 0
197.468650905746 -31.4993598841675 -20.7427864110478 0 0
105.811826669563 -5.84579004353936 23.4451649962726 0 0
138.306203396431 11.55707982528 18.8298815928814 0 0
179.822775931792 12.2898905609226 16.4015245704895 0 0
173.038973797627 7.84874762288363 17.3576610064098 0 0
25.0044143413748 -2.37890640877124 -2.84233449246387 0 0
45.4646176180233 6.97516351990417 3.40477240559419 0 0
191.729454124529 -30.7503695795647 5.55604647331259 0 0
219.282102337372 10.422811192962 7.0113005786161 0 0
190.494762564927 -20.2142103644713 21.9615021375733 0 0
189.964417452881 14.1381205955344 16.6016354846723 0 0
182.483113112128 3.96791746317403 16.9600291567806 0 0
116.704663069995 5.82996924079333 -0.329831290207604 0 0
147.196741770015 -15.4784577494181 -2.80317341834877 0 0
9.36796451487675 -12.9516059576651 21.9539197732299 0 0
187.830486853595 -27.5799025337931 10.4604900302925 0 0
119.258942270218 12.6289864912228 18.7844158130431 0 0
106.821322797743 6.64053967678442 -0.321731310976001 0 0
179.422689258251 -11.9143337278628 22.454326854146 0 0
84.3693660684368 -13.1830798751009 17.6023805646314 0 0
177.60166612484 28.1124662046725 -7.04661559844817 0 0
175.655319040932 12.6263347751083 -12.2961881217024 0 0
118.565933520428 16.5599733417193 9.80709846793879 0 0
152.378850326028 20.5176346950568 4.3102871485591 0 0
198.31114793539 -31.553658522009 -17.9214749425774 0 0
181.284872472095 -9.51246694943388 -15.2977839982395 0 0
175.058640278364 21.7676996371827 -10.4930335303469 0 0
0.218328650421449 10.8304482960139 12.1769357548216 1 0
212.366905177048 31.5379328946632 -35.7270657772724 0 0
195.313120045685 25.4088988961249 -36.4169394441078 0 0
225.915277436191 18.680923808831 -4.67053355297271 0 0
139.631785474808 -8.29687494824115 21.8346000626961 0 0
206.887491699453 -15.5114992995122 -29.7713944970038 0 0
95.2655541860285 15.1624325355759 12.0261738088968 0 0
177.228759835424 -12.0314215998313 -13.7303626561213 0 0
23.9577069535328 3.06175315715238 24.0674356320572 0 0
84.5265919736139 14.0557276422936 15.3957825332788 0 0
215.292431251326 8.66102982558865 -15.1064222309495 0 0
102.47023160206 -10.1695560870231 21.2062644220223 0 0
157.955724875986 20.2627938025804 -1.36309604583838 0 0
198.105072428797 -20.5530510757096 22.4840815652621 0 0
57.0989760362503 -1.37592481888283 -2.95453735497737 0 0
124.624843172762 -6.31519527012342 -4.05729272661126 0 0
194.445988402904 39.9914046601151 -9.81310692973435 0 0
24.722965631421 0.808828645543559 24.5872774679369 0 0
176.534272279819 -16.8997807228776 18.3386447995133 0 0
6.33042803064194 -2.33480950762572 -3.36955479842792 0 0
3.14162316288775 1.46949175328012 23.7807432214981 1 0
188.087380579065 21.6654463599547 -22.2868971966415 0 0
4.2705633326577 1.23923725467069 -3.71796240114925 1 0
207.734444687897 -6.82821224894596 -19.3672331102375 0 0
148.225985098315 11.7806825499259 -3.64289551892929 0 0
187.626480993566 17.3682099161971 -19.5852137458798 0 0
112.51400018513 -4.7567978514745 -3.2000092974043 0 0
155.725181391189 4.23779119409761 19.8510964159886 0 0
95.4448094730657 -11.8198275218821 4.37575243676912 0 0
174.701744077465 -3.50477255384103 19.9691637089718 0 0
214.627765877249 -15.3006383088253 -19.4350601137096 0 0
17.8392441200156 -10.7729452096166 5.75077350176773 0 0
95.8212065015982 5.24897408773142 23.1856985907403 0 0
225.961098756725 22.1556527828742 -3.31752698808367 0 0
98.0276010802592 5.76903133145707 0.698485585926028 0 0
186.514229713891 -1.77683241424725 18.9294062627161 0 0
75.0040903231088 8.23024072400853 22.1683491096048 0 0
141.405419856137 10.4733544970207 19.1447307354198 0 0
206.618422579526 36.3478589822623 -18.7832719891724 0 0
88.5328779590792 14.373995151497 14.6043531586411 0 0
139.313180383996 -14.040977003765 -2.26296784010671 0 0
27.6982960826792 12.3614998458996 17.1934043889412 0 0
172.419588542018 23.4545480622893 -7.39629063532021 0 0
119.84060306257 0.94357429916319 -2.25648984977419 0 0
215.726336966473 8.04706265834533 10.4622819890968 0 0
216.213652010392 17.6984658851205 13.6209584934969 0 0
181.928663030679 5.30013799368847 -13.532265565787 0 0
104.485462086121 9.25526903467602 21.238881623755 0 0
227.031651549153 25.3806643880819 -17.8939360647484 0 5
176.612044239996 23.3019756481355 -10.7676029308226 0 0
193.724107804722 -28.5334770038156 10.3375718110247 0 0
212.225012317743 9.65910300295093 -18.6998895300015 0 0
139.090833631061 7.49469714404846 -2.85205964948494 0 0
139.211851326798 -16.3605194444521 11.0250476534341 0 0
186.762418813195 -23.0636028702774 -28.0755009099479 0 0
141.242710128938 13.3027890012301 -1.33670185457126 0 0
61.6921672662241 1.70580986083499 -1.38375886922682 0 0
188.501384293733 -30.7227880716809 -12.9015582727707 0 0
195.942668598752 23.5555861156505 15.4019304353195 0 0
59.3989853421133 -13.8818488364559 12.0446596908844 0 0
105.245336832896 -9.17974268037108 21.8561373620358 0 0
55.6040044027372 -3.45793741020405 -2.77300040497056 0 0
89.5106477504499 -10.8291214125381 20.73647836764 0 0
171.424112161181 25.7343342958226 -1.88768687876569 0 0
92.174611387226 8.19742945790213 22.0718079321116 0 0
212.760245797372 -4.14950296856539 9.82862680685373 0 0
109.577551213541 0.966482857124473 23.720890619934 0 0
204.860792135716 -23.9007384550638 16.3216765067231 0 0
182.960353642803 -8.29405906735277 -15.3610520991562 0 0
198.237347381025 -31.7725375750872 -22.7310854204102 0 0
186.608202183729 18.9007980278727 -18.4304623743265 0 0
27.0491243859081 7.93549278779787 4.82024834668807 0 0
2.96928209098911 -11.3237381795849 5.39988841075682 1 0
106.425886213116 15.7327262162479 12.8397144636499 0 0
202.384548315839 -33.62484232647 -7.87459261253413 0 0
168.280194317381 -16.0874513815357 16.7503411973171 0 0
195.135052201172 -31.1047116017062 -21.4579071477304 0 0
178.047437216063 12.8534697689368 16.3395494784563 0 0
171.156210119255 5.74480231263627 -9.57765918130273 0 0
100.432058415622 14.9025766608537 15.3199530805796 0 0
92.0134215227203 -11.6836058407566 19.6079175323495 0 0
112.84070504508 13.8978909423315 5.44962445041794 0 0
81.4172944092162 5.59197482020249 1.61142192905902 0 0
224.490226980392 28.6745714337076 -23.9929309054852 0 0
6.60777193305391 -16.331400350502 12.3358833504564 0 0
110.791485136451 -13.4192971945807 4.14986648602827 0 0
206.273528194321 -32.7170667959621 -3.31337754172822 0 0
86.0768871050053 14.4641798971297 13.6304201382463 0 0
161.835375400864 19.8091081046462 -3.78295353699571 0 0
169.322795112244 -14.6060098986486 18.6777309318822 0 0
220.688397407459 12.6204634954835 5.85066853773563 0 0
200.392241495095 37.1026141290491 -23.4463280837476 0 0
164.050046051588 12.7863428154351 -7.696236206796 0 0
78.8319846741069 5.47432439873126 23.4625324585308 0 0
200.124191066773 -24.1465882764459 17.3325764796298 0 0
204.554837412385 10.0312445493009 -34.6916649766858 0 0
176.804164153196 25.9607567789573 7.93287075632096 0 0
204.312333644107 2.30323588063112 -11.148612328873 0 0
122.315107632012 1.46395126389995 23.086335444882 0 0
208.710596764025 2.92541787385395 -8.49773036911486 0 0
8.84434805721948 10.9571960053756 11.48951255676 0 0
215.30841347421 -18.1767425909999 12.0461062591389 0 0
78.4352374088817 11.5685310979685 19.8114768977015 0 0
195.860273128329 22.6746948396779 -37.0517402019377 0 0
206.394734973367 10.0053708131975 -27.6391613060151 0 0
43.6013559386683 -9.47367263253306 23.655341370258 0 0
59.1890142920573 -2.82114048506633 24.7427307759402 0 0
212.965487004872 8.2070110207417 -27.3319243540758 0 0
88.6489177469765 -4.43519945354311 24.2789728254559 0 0
96.626727175139 -6.61056830360169 -2.75072506919715 0 0
76.9939588872351 14.2631906841067 14.9163393597714 0 0
196.389276525308 13.8211225103209 -34.8970469135797 0 0
197.371959029329 -23.5063206482783 -33.0470657778136 0 0
208.719349861968 -16.5227199897193 -28.9419454270938 0 0
33.2371992615127 2.57679636730882 24.3470119570418 0 0
117.108227545754 0.111839339951891 -2.31675213334259 0 0
173.701336060582 22.519929305292 -9.06562224569563 0 0
152.967944589284 -10.7604731847602 20.6641266616861 0 0
184.349155965243 21.5967553223943 14.2600397774384 0 0
3.63165421930867 -13.6230101096932 21.6476906250565 1 0
214.844709547922 15.8653145387054 -37.1582065095169 0 0
137.508777964563 -12.7049174074107 18.5585389839825 0 0
84.8317350425683 -8.42807494985654 1.50891482666978 0 0
191.2718261957 -29.8632092363728 7.44360497805449 0 0
169.554484508942 -11.3333962694551 20.933711367115 0 0
223.932344605979 12.874919729899 -4.3371352832305 0 0
187.211219675274 12.6717929858776 16.40110569343 0 0
192.968466341019 -12.0336055798489 26.6391374256535 0 0
22.5030669906655 -15.902030364068 13.6288562763273 0 0
50.302115738378 13.2951100837425 14.6253302093544 0 0
54.0016559590384 -9.53230583670873 23.15360040508 0 0
52.344971450164 -14.1387202069457 12.8415499380141 0 0
176.249496776662 -19.6483760622793 14.7749100839869 0 0
195.43337867666 -28.9837205585335 -30.4271281603076 0 0
185.151595994763 -1.0074266799433 -15.1776876537822 0 0
190.044989447023 -24.593867890599 16.3503823433557 0 0
184.02166598377 31.1768927109754 3.9272804705219 0 0
2.89949889109599 1.14354243706456 -3.68629596878106 1 0
156.987992283183 13.6968641954432 -5.17085954136527 0 0
55.7747751710441 -6.54309072494753 1.83119316831727 0 0
116.888839203275 12.7530449733474 3.56972494240151 0 0
203.144880059146 5.89142318963446 17.5183654202983 0 0
172.885142073039 10.9632178067716 16.6306895850928 0 0
205.130116030241 37.8580192017423 -8.11322292956962 0 0
202.438595920945 9.1261289613501 -17.7528749126918 0 0
195.170482041286 -8.61264544397074 -25.3888339960187 0 0
83.3026249982872 -11.742761764197 20.0694670241029 0 0
103.723214031009 -3.80669076264204 23.9398061429774 0 0
188.593413010952 -17.2147655537662 -29.951775169252 0 0
189.030967956004 13.8398890570228 -20.3447873646885 0 0
204.911398560024 -3.26135237502578 -15.0548760502299 0 0
25.1781902060047 11.6310519219974 18.7824743686819 0 0
218.168263752856 -23.8656350318247 -6.20224373615453 0 0
112.413095248642 -2.38682457509105 23.8171374418486 0 0
145.924301305907 -17.2459794894237 1.23582765933519 0 0
192.156737519306 -21.4226467010774 21.0324963248662 0 0
200.876008531608 0.106882793646436 18.8986260368401 0 0
195.165610167054 1.80744718446636 -17.0769408439657 0 0
182.375695797507 -27.1171435272355 -14.759096320761 0 0
184.659455266333 -22.2218040060731 -25.6958108320714 0 0
210.368842276962 -12.2496017173664 -24.976621934813 0 0
181.075950033719 17.3236980135688 15.4521197196749 0 0
54.6717259103859 -5.3134867756075 -0.15678464778655 0 0
107.216124704522 15.8011227543483 10.9113514094699 0 0
192.009829423684 -18.5756303324431 23.4949692314079 0 0
175.465026366958 -15.0690828495155 19.7306017451464 0 0
195.581323218426 4.42869463053717 17.3374568744951 0 0
1.58807547509244 -17.4484979938248 14.0498492042793 1 3
47.9474853932204 -11.3666274977099 22.4827854098741 0 0
180.657083377869 -8.25019604308008 22.1573874178532 0 0
174.366843501272 1.07898446741021 18.1331114270047 0 0
214.445681418411 -13.1972213939242 12.2543729299131 0 0
108.54297531163 4.01448680512429 -0.610861482800698 0 0
