"x" "y" "z" "f" "a"
142.731620121666 19.1759701145689 -3.6375313766375 0 0
111.691220923566 -15.4721158324611 14.0632815444913 0 0
132.362285500076 5.99445396092827 20.874261957116 0 0
202.070504499919 31.8115079453859 -12.6767496152598 0 0
96.045915531468 3.9937495254647 21.4560590708661 0 0
149.948182564582 20.1989251683417 -7.02530010458773 0 0
195.216513267014 -28.1950462121151 -2.2317654022527 0 0
-79.9472425169083 4.9442772054837 7.58357859492599 1 0
-26.7513037908266 -3.39856936639606 18.7378039149982 0 0
-17.5153717268148 -10.9994071961553 17.1561770106197 0 0
163.099038559391 -0.388157285937809 -8.47192927989507 0 0
46.3350395045832 -1.71740333098297 21.185827713629 0 0
18.5632755822179 -5.13467660814865 -5.59757723215916 0 0
153.808952431137 12.9541702455911 17.274413263516 0 0
58.3832111160711 -13.2629218620928 17.2599235492567 0 0
189.584366753051 26.085657968884 11.9473497176839 0 0
105.336686610867 13.3245968849347 15.2192298519452 0 0
187.728982498649 30.4460771044867 -24.800712272994 0 0
-32.9650353492139 5.8601734696853 13.3634427088288 0 0
181.705729795972 15.1046818326532 21.3328196463063 0 0
108.969360822474 5.66791168122642 20.9909032875638 0 0
-7.54755280385224 2.17464053414803 -3.05904842317949 0 0
102.65070709427 -1.62599343052281 -3.42001195522193 0 0
-65.4293120749745 -13.0408024286211 -9.76171967194317 0 0
42.9391952642025 -9.32585077134432 -0.46613209204082 0 0
-77.7298744330763 2.78217799466994 10.4320193477979 1 0
173.841701594567 -30.9184173996974 -19.505860689849 0 0
-81.9331789461381 -14.9220213655788 -10.6779449886216 1 0
173.230529866424 31.6611801191714 5.06737068700747 0 0
-27.7438904958724 -10.9006510496394 16.8032254018461 0 0
193.805654381578 1.99030164882314 10.1352132863562 0 0
37.5697687759137 1.64246316668174 -4.23819832563961 0 0
100.805341148077 8.59953465905925 19.3083011566271 0 0
25.3624334446416 -15.4746135624758 8.75618496772021 0 0
116.402890118827 6.1801385806074 20.8568981744906 0 0
124.804669601286 17.6920115859689 8.01466489368557 0 0
173.620197803569 21.2401662180943 -24.4041316644584 0 0
182.528764547665 11.5369919696605 -24.322704818619 0 0
196.311128436532 33.2309806547913 -6.21119247244051 0 0
176.713848101918 -5.76670342009681 -16.576821752543 0 0
133.302342609042 -17.7387610127284 11.036886902021 0 0
-24.941294271092 5.82008067422842 14.970720631349 0 0
11.3110209012975 -5.24564525996619 19.9998191411583 0 0
179.951830754502 20.9072032708458 18.155260134658 0 0
188.905632904546 -24.3702811185326 13.304480569313 0 0
136.608616863521 -10.4240879264931 -5.24768621146321 0 0
-49.5997730004913 -15.4796275034738 -3.67723981796655 0 0
187.127548012639 37.0156351119469 -7.48119417412687 0 0
89.9476668520178 10.8526236948033 16.7554006822693 0 0
187.125843366695 16.0376874752854 -31.9811399639598 0 0
193.626976117811 18.5269324689255 -30.9478859862994 0 0
73.0672789206161 -3.32469321762521 22.1580242825654 0 0
128.692630730456 8.03575015976831 20.097158551568 0 0
153.336216550419 -8.26734969605163 23.1301354430101 0 0
146.280543941961 -10.1345812935863 22.8855217292184 0 0
161.719008775988 11.0641095798387 -12.0543476316194 0 0
125.088156619203 -10.381213405653 21.8568761953694 0 0
167.941486058182 9.83416699977515 -11.7206892524663 0 0
168.885093457625 -27.3602471062716 6.48403415748416 0 0
66.6129113651119 11.7705767619332 13.4290658819405 0 0
191.532026685813 -26.0013743247748 6.12553957558968 0 0
-59.2832796854221 -2.9742243176461 -9.48615006158211 0 0
-9.57913481350428 -10.6112772654553 17.7673828501731 0 0
-18.055706880022 8.19606566881695 10.8261579201775 0 0
166.99415665195 8.75223217640861 -11.1290063542979 0 0
-81.9303407422866 -10.9872178835728 -12.567735077095 1 0
7.30847502475914 5.73035193748259 1.11712973707155 0 0
65.8529594151638 -3.09172013683391 21.9158053483754 0 0
8.45617331756846 -16.694554904111 12.8170835673875 0 0
172.526593358013 14.0546132058264 -16.9643625997929 0 0
104.406639920482 14.6013216800151 7.1034526374111 0 0
24.7488882086737 -8.92321908778696 -0.75805239774839 0 0
200.218699359288 15.8146373872762 8.13984334665913 0 0
-66.6302678146271 -6.85050176892931 -10.4643702374373 0 0
171.867250224576 -8.07996452508527 -18.0106626551537 0 0
26.9514955014769 -15.7029751076452 13.058111394636 0 0
154.544423051006 -0.535328555240456 21.1141644748127 0 0
177.33139300292 -10.595182664839 -23.3107610631919 0 0
-63.1470101647096 -2.64845501512816 -9.53500115048917 0 0
173.76599081216 15.2119711084887 -20.7573132957127 0 0
-57.9233718269207 -5.4455626018589 -9.56616661662141 0 0
63.8836931889065 3.31251142864728 -2.38532693758167 0 0
165.009415757762 -28.4460105468951 -3.94251248709935 0 0
134.150745410409 -9.89773901287652 -5.05026608923606 0 0
38.6592273467603 -14.6409153133639 7.32838596164524 0 0
-2.11715585522766 -13.8544650266394 2.50047975970709 0 0
175.808691889122 31.7735368247316 -24.6596019748839 0 0
136.057559453057 10.3564856199606 -3.28370353233682 0 0
173.884615472556 37.8922407502381 -11.3841948232172 0 0
30.2492209552024 -6.39455085163702 -4.24129066002421 0 0
118.759501320371 -6.62149768275231 23.012728212483 0 0
2.52655820342529 9.29888746543265 10.4765602592427 0 0
-49.7951161531765 7.54431396911297 2.50190982654122 0 0
165.376781860271 27.216200883165 -15.043263830509 0 0
-74.6009219342424 -4.6088501476035 -10.3564730530256 0 0
153.323311728256 24.4748316363015 -1.43654906011656 0 0
-17.8728884862732 6.27512592902804 1.34402160291977 0 0
-14.4445555884367 -13.9785686942408 15.4622848251707 0 0
159.662783021528 -23.5835439380625 5.86204033414792 0 0
193.089861429983 -14.269217430775 17.7934193146502 0 0
74.7401236269016 -9.46983271749089 -1.8528134332302 0 0
-75.8938079605308 -19.901018616717 -3.43616398596676 0 0
180.852361484873 29.6820463972413 9.57655044361846 0 0
17.5648059695447 0.770856285631087 -4.62377533048417 0 0
186.307973307651 -1.68228114620019 -10.4334106500847 0 0
115.894282741013 -4.68685686208336 23.2481322233746 0 0
176.779404079598 36.071656303723 -0.379443863476416 0 0
191.887976306812 -32.2611147264067 -19.4843345976939 0 0
80.959702305868 4.36983520908623 -1.22135109790832 0 0
191.822370255886 29.625229729765 -32.125003536232 0 0
-27.471664581914 1.1938945502903 -5.19078717895355 0 0
139.052980267444 -1.83152625821139 22.8562034013017 0 0
158.233949261855 26.5934286108009 -6.74830722660149 0 0
63.1932177261061 11.6557670299385 11.0403099182008 0 0
-67.9494700883296 -12.5419303918411 13.22142259678 0 0
196.072365165485 28.0692373869086 5.41377988574386 0 0
175.102783976523 -22.684884873777 20.5235623443221 0 0
160.852258258341 0.931248818312486 19.1008003188709 0 0
200.171864000747 -28.6915379432402 -14.413859555916 0 0
57.4933311422945 8.68601621777923 17.2878215097156 0 0
171.967435951987 -17.1031193377289 25.9998941611234 0 0
144.914274187379 0.88607365584179 -4.78866652315652 0 0
198.202884628013 -29.8762321568615 -7.80610105110842 0 0
171.184120307156 -24.7618423498597 15.3910605520375 0 0
110.121174785628 -16.2837380613635 10.7915227425417 0 0
192.530327700163 31.5776836257028 -30.0002486384478 0 0
164.470146216971 30.836108809555 -15.0758230482767 0 0
172.141650046272 0.203212073705509 -13.2517172909551 0 0
-10.0817641632274 -17.6322084595739 10.0183715858938 0 0
195.103559605395 4.55078305763903 -5.69946685460174 0 0
174.180860058028 32.6946175202454 -20.5896573168023 0 0
90.079266260374 -2.53273108954914 22.6085728044587 0 0
-16.0216352055636 -15.4970270913042 2.79981377929625 0 0
-19.3600704012068 7.38632351540881 3.22183361112318 0 0
160.885066614778 2.39627942574183 19.9017569904423 0 0
118.452598406086 11.4383579536393 0.127764664996494 0 0
168.706662747622 -20.132854516913 -22.7066163424467 0 0
108.097849400694 -13.2949689542455 18.0875852358464 0 0
-12.009099107111 -9.97658988870276 17.9264788854146 0 0
35.4501388249448 10.1741557348527 10.5252126833225 0 0
27.2547527796321 2.01226133405722 19.937156325248 0 0
178.848040020442 34.3021639581469 2.89807329321791 0 0
130.675878825251 -14.7727970056407 -3.65814213476408 0 0
200.025508299966 -19.231553787565 -5.68928449699666 0 0
203.117919488423 15.7432772928772 -2.89181425486662 0 0
144.347663078039 -0.497880187594954 22.1609668451444 0 0
-75.4107065906523 1.16847423729287 -8.27356842986127 0 0
136.095150137026 6.44248227512473 -3.60855442300147 0 0
194.439451290342 30.3478624224917 -30.6688381660646 0 0
95.6820182561951 8.72446968067999 19.0304826887939 0 0
62.433117834734 -5.77315030461126 21.3895944092245 0 0
179.331158938574 -34.0680410920633 -12.5000990569708 0 0
168.085192461405 -16.410822947223 -20.9527407549621 0 0
173.619976174808 23.0739276854754 -20.5200647572474 0 0
58.2713220559622 10.505869995073 14.9143662419077 0 0
-63.6528690075524 6.72096911402592 -0.804509178409222 0 0
143.125390148719 -8.53268969644663 -5.65485776050094 0 0
165.118654230576 10.0325691072569 19.3649038076503 0 0
150.099499603659 -1.17052927893846 -5.45978175589772 0 0
46.4421496695175 -12.6791292132175 3.4423684158607 0 0
34.134167706122 9.4612225008182 14.9642538119137 0 0
137.980813555858 -18.6355781809573 8.5362649058571 0 0
-60.2476648781205 -11.8628596460725 14.3140300881609 0 0
69.9778759067408 8.75085316552214 3.83336155863512 0 0
167.921992599259 -23.3019699995797 -18.6362579376714 0 0
122.49735123275 16.0270570796344 13.2716055452046 0 0
-65.3463657830737 -15.9316596505507 10.2710918930156 0 0
158.498853116066 -22.2471231681527 10.6546529967538 0 0
184.715186414561 -23.8100548687409 16.379165651367 0 0
133.54609872323 -9.11521610898147 22.8130977611048 0 0
165.243853711753 6.04223762052067 19.7514146369648 0 0
-31.2427914924224 -12.7664079478283 -2.267873148107 0 0
160.64640033982 23.8187900121036 -12.2875730700609 0 0
152.136802992298 5.75856584701776 -6.47079626055513 0 0
109.847916616799 9.0289468361017 -0.0891726365375079 0 0
204.740419662477 27.9723410395702 -13.5335811316832 0 0
148.113024147586 -0.665279882397716 -5.11118473030734 0 0
81.2277618330009 -11.9343524187486 -0.0462436050543933 0 0
185.295417515036 -27.6495947077106 7.08703703334413 0 0
36.2948056837288 -7.20188435478508 -2.7665308709153 0 0
104.882405546923 0.865174786730939 22.5161143309879 0 0
180.442502642519 -20.6215069645744 22.9260391743231 0 0
28.9822568034765 -2.33226588032187 20.7263332350044 0 0
160.038809740559 11.275820041796 -11.625550366196 0 0
177.238332147194 -22.3959827733847 20.9039333623755 0 0
-20.4769667564089 -3.49639607877804 -7.8119768666917 0 0
179.001562285134 32.5029370552789 5.79438440539031 0 0
183.243958611485 36.8226780873194 -2.6888691450989 0 0
163.097853328373 29.7485909942444 -8.15479996567838 0 0
109.179790816311 1.57003482780677 22.4485668468328 0 0
120.115425556404 -4.06239790243593 23.3547444096854 0 0
118.104465332925 -17.2091500569519 5.37858963345244 0 0
88.0322719468145 -14.7809071940839 4.24559718252493 0 0
146.804843242638 -20.2153713866394 6.02978552188333 0 0
135.074389286504 -16.8315999438473 14.5984696462359 0 0
84.4403218473597 3.34126718390461 21.3472564937431 0 0
147.37990791439 14.1558229965876 -6.70056812299374 0 0
157.182728219442 -22.1322878011073 9.5342590402103 0 0
-38.2728147746712 -18.3888029203938 8.28689827680641 0 0
151.379544188417 21.9142951162568 8.65681602538975 0 0
161.560935846559 26.3374774632723 7.10344516735944 0 0
112.474905701721 12.695885111211 16.6740815875067 0 0
53.9159921211965 3.73297003207084 -2.59927055723274 0 0
173.227701657972 -31.9062508697625 -0.254902251527724 0 0
-50.029028132249 2.93029314695057 -5.08091227251372 0 0
155.850850275005 -10.1076259721106 -8.26741743419752 0 0
145.498497814229 -17.9211241906986 14.4426760903385 0 0
179.077727203727 38.3568843015983 -6.97801867340461 0 0
-63.4098472615236 5.58769290790917 -2.95046636765984 0 0
-35.1991836469848 -18.5296037654983 6.10248448061886 0 0
205.067293187913 28.4238743820767 -10.7238880462174 0 0
175.993497357477 25.9035417837924 13.5916330339846 0 0
62.3302255100058 -14.1638220290507 15.7806189051209 0 0
86.0904772663354 -8.14806780039082 -3.7173635012168 0 0
131.748419123517 -12.7974635753383 -4.46513204563301 0 0
184.831314157656 -25.5886764275464 12.9595775627361 0 0
183.83377980508 -5.46529283107649 -14.8466208653839 0 0
32.2303544683538 -11.1781244770258 1.37725315090107 0 0
116.744000638179 -16.9550273857765 3.76560119837741 0 0
113.006761426766 -16.8862858068875 6.21508291414024 0 0
8.45054964338927 -14.3078364670048 15.8082248948917 0 0
-34.8044270800041 -17.8187306732893 10.1609840352802 0 0
129.870692000744 -1.88958836803889 -3.80016586680326 0 0
196.970467673069 -10.7928511164125 8.91192138606444 0 0
186.605589876788 5.16298329769078 18.86572331501 0 0
43.6634892045685 2.21921700445317 -3.64048673677652 0 0
1.7925744919421 -5.25837495237556 19.6084254869413 0 0
103.037568668804 -5.5643259522103 22.8664931179109 0 0
135.44580257151 2.7919736970137 21.8591260904828 0 0
172.971391082395 -11.2857647256231 -22.9530616123669 0 0
28.5147425268795 9.74909879815941 8.17893226514667 0 0
57.5833260671289 -8.63568014252766 -1.62065217244199 0 0
18.3633652962896 -8.16749720700794 -1.88076540648054 0 0
160.744057800946 -21.2178537744198 15.661638626188 0 0
91.9818011261501 12.5890908850255 6.2595540284471 0 0
-56.9545291937515 -11.2315424424717 14.9095634399017 0 0
167.711136330878 -26.0751167418605 9.5439623402788 0 0
149.221209954595 -20.0260269688562 9.71119712107229 0 0
173.59927668124 -33.3752042229504 -2.68872261415396 0 0
198.205917922863 -18.1591782419682 -16.4863971834135 0 0
175.917171760576 14.5685179371651 20.9045859121194 0 0
7.00494198798508 5.65053677358932 17.1140992868014 0 0
104.850846950091 -16.3431367131587 7.61676536706803 0 0
-59.0259008932423 -6.74447509267001 -9.82637735284981 0 0
-63.4177925311214 1.54452324765531 13.4128598726939 0 0
82.8737063917331 -8.41788543063601 -3.36988002773387 0 0
160.55309588062 5.94148646519932 -7.57646052218366 0 0
95.6848965889804 12.0378063540981 15.8411409868139 0 0
3.37171612119025 7.77153726201375 14.8966710762594 0 0
175.667119181248 21.4268354060281 17.8948226667602 0 0
189.643182881548 10.0680563037143 19.4752207846361 0 0
164.444379994045 -23.4313363617022 13.8107180619061 0 0
201.270151121214 32.5225152839885 -16.7061688984117 0 0
202.152589660215 18.6896041661956 3.95309745964557 0 0
189.588943791039 4.31157721921394 -8.13634878743544 0 0
190.091609585556 34.754352675334 -3.28532133271842 0 0
185.159658168195 30.7054750618151 7.96352367303981 0 0
57.4032225637584 -10.191389443858 -0.121712294727035 0 0
107.967959555931 3.73064014270486 -2.38463525332763 0 0
51.9561518328537 -9.61190239379989 19.6460109582249 0 0
141.748066239787 -9.26292436615946 -5.68956076373713 0 0
200.863087806411 26.8564946145855 4.32203545676609 0 0
129.806670006681 -5.11430641321982 -4.21205971100028 0 0
52.41011950172 10.0177243597212 15.5021712528924 0 0
24.5199483347393 4.54096309032252 18.5812322333238 0 0
148.086761603667 -18.2989258684982 14.4685578365148 0 0
156.946750641449 -11.8224303955623 23.5955952313124 0 0
192.552638652841 17.9069625057888 17.5552653489368 0 0
84.8369652549128 6.75704422000581 0.428875142991356 0 0
118.574596627926 13.292567293268 1.45898262720276 0 0
194.19129800561 6.30247987792994 -7.51626524110948 0 0
20.7796463556418 9.31258353971747 7.281358630956 0 0
165.398935859198 30.8931778958241 -2.40252937350818 0 0
-80.8208288440111 -12.3241266490417 12.2003044225309 1 0
99.7359162103814 -3.75131839217974 -3.721667981855 0 0
192.613934772421 12.9683343526808 -27.7102338354971 0 0
-49.9119030770432 -18.6515133428679 7.71956933683394 0 0
114.521985124995 15.9274982860899 11.5969524820784 0 0
165.803870311118 -22.9332495325515 16.0143310935983 0 0
-0.641065971992494 -16.3685708013169 6.76495741590275 0 0
29.3822867769046 -13.883056013504 16.8282338647533 0 0
22.1140469824623 5.13225341774317 0.607299735608778 0 0
181.410411110514 5.35260465212528 21.1138982892576 0 0
187.597254449362 33.7280411567153 -19.9947629603472 0 0
192.738532990952 26.0116587975166 -32.1697828332448 0 0
157.084791106559 17.8495891557704 -11.050457483133 0 0
-17.2165667163242 -14.462145910255 1.40906402183491 0 0
66.9363993750162 8.05335546719177 3.19677273588892 0 0
90.5121029860077 -6.4223477951503 22.1506759493277 0 0
166.510336313209 18.1351455803296 -13.7404776918598 0 0
59.4557204648283 4.7818635443433 19.8711561249596 0 0
192.875028820456 -25.7342100167225 5.03131340287552 0 0
162.06261149598 15.7768964162692 -12.4350745889036 0 0
130.211236348354 -13.7709366549754 19.3738879936868 0 0
175.368024235359 -19.5611481875575 24.3557083092755 0 0
108.702917516999 -0.3137064603691 22.915885278676 0 0
141.664137569322 -17.699783960219 13.9056671560293 0 0
185.763351127123 14.3091854153777 22.2607430123701 0 0
-77.3053321731525 -18.5304592414813 -7.23781159552356 0 0
72.7091015524939 12.0238103513398 13.9700318145693 0 0
204.831860350542 24.9253849607066 -7.05262609317817 0 0
182.660600749504 21.9692516071502 -33.0823627091297 0 0
17.5257722086567 -15.69387789598 7.83377049558513 0 0
-46.1694890938781 7.27612340872048 8.20500546516153 0 0
186.998666047906 1.67118007034395 -8.19357476861564 0 0
151.268204142891 -0.274631389913185 21.4205308990227 0 0
183.807443203879 -30.7108339701371 2.5426321631079 0 0
174.373825846083 -27.459179696842 10.0760028675272 0 0
191.773055691857 4.92332540839296 -7.72878440134214 0 0
-53.6348237768085 -1.91651288448537 16.7717514426591 0 0
1.46412571929694 -1.80284825423156 19.815966132094 0 0
49.646361090756 10.1800966355496 14.9721538719085 0 0
49.1051439044314 -14.8785424397586 8.70669757754489 0 0
6.8994968399694 -11.3475405787124 17.8350345154838 0 0
174.478910484265 -25.3408377474939 -26.9369623292685 0 0
83.1344778678606 12.2822766781634 14.2760488514528 0 0
188.085214254883 31.8009772241417 -30.048175267408 0 0
186.125996564771 11.4866962906305 -25.3043622505314 0 0
146.429871167189 -17.1410355694763 16.3541166115567 0 0
59.9998337614972 5.91276694176029 1.05433508738885 0 0
160.391265123279 -9.71308391047969 -9.42317667887835 0 0
59.2595457114475 -14.9095318473342 9.41147022747363 0 0
199.41245537543 -17.856411755356 -11.3517208124777 0 0
144.208266447279 -15.6858341355529 18.3687833692908 0 0
84.8829641266347 1.87079849940966 -2.56143000761895 0 0
197.23347275558 30.338181369115 -27.562825184949 0 0
67.9323435622993 11.4701715654818 14.6553059433375 0 0
7.18540673757819 -13.5176102782696 3.1321919779178 0 0
31.7522720071622 -14.6171096588216 6.53079240383724 0 0
189.59679383335 -20.0253919355923 -28.3908968047749 0 0
177.170424818653 37.362484479623 -19.9724952287272 0 0
60.7839005397744 8.68720448743025 4.61833896722587 0 0
26.1068882108096 3.18442910408217 -2.34878468551952 0 0
48.8864654644634 -15.1864356895053 11.3756085013044 0 0
190.496423356785 -3.12312338763927 -7.28986895281947 0 0
194.894782323398 -30.6258155404676 -10.5529182800941 0 0
175.155580520257 27.5047275367215 11.4286104257239 0 0
200.599650383472 -26.4714583408043 -12.5499817770592 0 0
196.540902946863 -21.974481592451 -22.0513165550294 0 0
45.4540392117162 5.6133496957206 18.7380469666386 0 0
139.538406550328 17.702785011442 12.5030315828047 0 0
23.5670417895719 -10.8533866555672 0.925080525074789 0 0
-37.6304319014796 2.7648688906703 -4.41290736309396 0 0
96.2098432034749 -6.25040291622138 -3.94707951594805 0 0
160.151040756354 8.09283541759655 19.342005336675 0 0
168.863771732209 -33.3814212094952 -9.24383335738807 0 0
180.310998500757 3.633369702835 20.9419575002199 0 0
163.055263082148 21.5528330213689 13.4532838815434 0 0
25.0939680294726 7.79437003877692 16.3761037502538 0 0
-27.2867543015015 -13.6582522201909 -0.74199024547342 0 0
148.151754348736 -0.681818995019513 21.9405014055099 0 0
60.7817204889708 8.43362921379055 17.7124074524308 0 0
179.252309524372 11.5589812904825 -22.9995260276927 0 0
-14.8002583805119 -2.24230595572891 -7.18648757408035 0 0
118.506805232804 15.0753617723505 3.36111530105501 0 0
164.495310837653 30.5649277433495 -6.2115541914971 0 0
-26.9893867958557 8.09510588403205 5.5592488409678 0 0
17.7025124233002 -15.9518178872912 13.3138361422389 0 0
77.3167334707874 10.4671824467902 16.3502722605684 0 0
192.260447234889 -15.759820933536 -23.6282489113365 0 0
187.835018625022 36.1087649510659 -7.92278849016892 0 0
108.231523449496 -16.1555444700859 3.09627187739652 0 0
-81.928829829424 5.16637374364547 7.12707500644874 1 0
204.176325653661 18.9590951546469 -8.83085096941647 0 0
30.0416209241644 9.95272410644085 12.7344186881749 0 0
195.340694791415 33.6314631006753 -20.7361707616434 0 0
152.511320831096 -4.46704891582292 22.0191652143387 0 0
-55.4383733895691 -7.11533598263608 -10.1634140613363 0 0
-63.9750839088259 7.54461163599291 3.83689823523166 0 0
3.01431627640723 -9.50443732756537 -1.38431301286633 0 0
178.444077057995 -35.1098646451761 -9.88558640317368 0 0
-41.5347699853959 -5.0508238878213 -8.73327629259594 0 0
67.7316759103542 -1.57551499423698 21.9355771520846 0 0
163.033107563009 13.4110672893774 18.2438112517146 0 0
195.513536569459 -24.2111794860566 -24.3817015759787 0 0
182.303492913399 -28.7448360338258 -28.7429153922174 0 0
-17.1402725763944 0.107651626620458 -5.84906685628741 0 0
189.148755809545 35.7454599199945 -15.8367237282954 0 0
172.974520448353 -32.2631330631217 -11.897186389654 0 0
-57.8144350656811 -18.7540859031473 -1.05156644180649 0 0
-36.1426043650332 -18.4249544174802 8.13977873421167 0 0
178.327018336657 22.2532104986139 -31.3623965954865 0 0
113.604304957762 -15.7275887437897 0.486897358383229 0 0
166.649532964763 -22.6618257283186 -16.4146630287979 0 0
113.441484910191 -13.2330217521518 18.5355487287994 0 0
191.079145127151 28.4632064398698 8.35323218953537 0 0
48.37337152571 4.47343456281045 -0.286818940052784 0 0
189.174789671616 30.9445632435294 -22.6695151158874 0 0
191.59244219165 1.61071713656485 -6.45860416056655 0 0
161.559646176011 7.82449152809553 -10.8009419418683 0 0
71.7481353820934 -0.790295290149198 21.9860996439411 0 0
167.279942259958 -26.5513403851661 -16.1251204028598 0 0
158.949006700643 17.3722408795048 -11.5622673607357 0 0
89.1106169638892 -13.8878443588766 1.67532408332812 0 0
197.703404550838 -25.0766676638766 0.647975949973785 0 0
183.139237269533 12.0817492490806 -19.0485060946538 0 0
188.542275227242 -0.225963495187896 -7.72184961395475 0 0
8.69670400898997 -12.1661390012008 1.62671259616426 0 0
-64.9853469548251 3.02066132212124 11.6641437442163 0 0
170.470832854031 17.9878069498449 -16.2184347207796 0 0
125.693026078524 -16.4527516939786 -1.51016204447971 0 0
-77.4033348838985 -9.62902383458083 -12.1294580883395 0 0
167.814475741638 34.1007197361289 -16.2272545250494 0 0
157.769522918913 -3.3869712855939 21.2436496824807 0 0
20.8172956043423 3.36887284074816 -1.50062808335427 0 0
177.297786790583 20.67808000233 -30.4765176754883 0 0
160.744552213602 -23.5783285008834 8.79210090616466 0 0
189.343668790477 31.3537090184006 -27.904598720035 0 0
-29.6712307655282 5.34792220990218 14.9018528444885 0 0
179.848886574772 -11.2688173823915 25.7537769412932 0 0
109.386218926612 -16.5308585569945 8.60478369148132 0 0
-42.9395734170582 -18.8908432499536 5.54889615393524 0 0
11.0857433002676 0.899164833584647 -4.72977630868533 0 0
4.77182139240658 9.1947048661799 8.18851167679133 0 0
117.436597360536 -2.2006069727002 23.2330473012422 0 0
-78.9522629459397 -1.12052168106671 13.4100490003581 1 0
184.469563729251 11.1666789829232 -25.4256802701347 0 0
54.732245457368 10.9816436691985 10.0833073953233 0 0
167.1979784542 -21.8314216723342 19.3391379868621 0 0
197.546190053421 -20.6556728929061 -19.5611946504006 0 0
-37.1082733771011 7.75646621380011 7.69015512328367 0 0
188.729319095105 -31.081569672134 -11.1376065794538 0 0
116.659071218678 15.492618313987 4.64067494702316 0 0
130.441430300845 -3.64459851919342 23.4328162567541 0 0
163.299244692144 -15.7079193971792 -12.5483602277619 0 0
30.7007649736243 -9.71789370580034 0.100082119437357 0 0
-69.0260710260181 -9.24432190466186 -11.4237811554072 0 0
167.910993863508 -30.8243989451115 -3.19335452626058 0 0
168.812945053098 -6.41639161918629 -12.6659207107457 0 0
150.802526983222 -14.0250051745827 -7.8879362199104 0 0
112.623304495557 5.82807143643247 -1.95433424117786 0 0
119.014736388362 -9.87752083216747 21.7529205334161 0 0
-65.3623335425428 -17.0010642562751 -6.01491944428373 0 0
174.700340100097 -25.8915312313764 13.8179158537334 0 0
117.866821304798 16.2058615837421 5.60797401781649 0 0
200.419309414303 -23.005165309047 -5.5721665491891 0 0
-0.572006910942882 6.56693586939403 2.22724451283728 0 0
-19.4159667047551 -6.51774950810348 -6.8158047621103 0 0
173.938162421435 -6.77213523614591 -17.5098723542043 0 0
137.182451748481 12.8069556748643 17.2539447460851 0 0
63.3986240281385 -8.03357244805159 20.6715605493303 0 0
177.251513877958 38.2342486818787 -9.82297254493774 0 0
177.529785116662 36.0124577647294 -22.415135715791 0 0
21.1771676078008 -16.0509979754635 9.85068171370141 0 0
86.6926604531343 -5.35656705534755 22.2772104216 0 0
192.06547451172 11.5952935667729 -25.810988714691 0 0
182.302699765761 11.2309330786013 -17.9808376105121 0 0
96.2497285293347 -15.2215220859689 12.2607037124808 0 0
165.588418235157 -26.9432542959989 -12.1170899429396 0 0
29.4059038739692 5.93336726022019 18.0219660607722 0 0
-34.5450250455158 0.607508180078394 17.592304769047 0 0
186.202348443077 -34.1573214589528 -7.05740515627839 0 0
197.335021605746 -17.8113575626459 11.3969915170993 0 0
192.993682785894 32.357206352009 -23.8525550428477 0 0
75.1763864395758 -13.5261500117474 16.4533513924942 0 0
192.524531185427 -32.6595237077842 -23.5202288479435 0 0
130.504387308823 15.1164438566753 15.184055760123 0 0
171.26034101614 30.6914579377205 5.55151704386165 0 0
-58.099931517935 -8.23710359295217 -10.3303328255888 0 0
172.040292945475 -29.345268788155 -21.0441858715352 0 0
198.728081659785 -12.5403885073535 1.3951920532564 0 0
73.7520848483777 7.23640485437062 1.79479808654729 0 0
187.233783899345 -30.7483474747338 -27.6923372289439 0 0
143.359975840456 -19.9621366551812 0.407865940324525 0 0
3.05175199963987 -6.27760441479162 -5.49221480477967 0 0
-20.2056778670808 -12.4123710318175 16.2342733719877 0 0
194.574283679698 -31.8184461038668 -17.203246710776 0 0
114.6976104909 5.61103456472109 -2.15032387244493 0 0
156.671635588428 -20.210089424915 -8.70718864250756 0 0
106.492186783908 15.0837676422394 7.67416695070409 0 0
-70.5856462601551 7.17839877381888 0.182684015850837 0 0
134.130687992993 0.623336845862685 22.5128467700906 0 0
92.5479402408853 13.7180254754933 11.0482499696713 0 0
166.330604722749 -6.49313499748395 22.0792050465871 0 0
-18.4403155019019 -11.7184960936913 -1.39449399094618 0 0
-63.156376436568 -5.75737644297907 16.1320873938518 0 0
168.608622804467 17.0566690290743 -14.6649240025635 0 0
193.955690788325 31.610150940499 -29.1315452786708 0 0
-36.1397179998102 -12.1729877823908 15.5718878811016 0 0
185.726102284751 -1.67484406819134 17.9679868372794 0 0
161.981729240278 -6.70938170427782 -8.86313575234123 0 0
-76.4970689757654 2.69163947816293 -7.09140165560633 0 0
-67.3265148825075 -14.9134252136002 -8.31651871492533 0 0
36.6821992307513 -11.7200639132514 2.01248259265452 0 0
149.692110491672 -15.661181694658 19.6527689907946 0 0
187.97495267352 -23.4377334110874 15.888734754264 0 0
103.470257456644 0.300194251426229 -3.12627827041702 0 0
108.850709585831 9.36394472215812 19.0856045377332 0 0
200.114140767347 -21.1181533131881 -4.37425558943883 0 0
95.8955773304829 3.99777885341415 -1.79712627579369 0 0
171.599821729351 -31.9958559393394 -12.9450138490708 0 0
133.481325762969 -11.5574438759477 -4.81415085526027 0 0
191.36871175241 -19.2986878519691 -26.7955880177809 0 0
187.188890976961 23.5304217243712 15.1469779891377 0 0
-15.0503715315141 1.33771667240633 18.4683230877338 0 0
182.712264799332 3.42364750330181 -12.926096635636 0 0
101.590386051917 -5.35730176668462 -3.90062306157 0 0
113.710081552407 6.50848551762872 20.6795067761166 0 0
11.5824754646011 -1.47312768638383 -5.87951581722655 0 0
15.4617601275374 -13.5045485734278 3.46969222603596 0 0
137.305793250421 19.3839834283252 8.9656239209347 0 0
51.4183638431356 -6.25587738565775 -3.94375992631443 0 0
3.73449465139539 -11.3629241328424 0.429111700115617 0 0
194.175733183555 -8.15476252446709 -14.4254909786146 0 0
196.196500399755 -11.7649690613817 -13.1547615521078 0 0
160.988048411595 -25.1492919303023 0.105713402927062 0 0
132.145933158707 9.35561916365219 -2.81078896589896 0 0
174.877186159746 33.097571380829 -23.2192777845042 0 0
147.89075691941 -20.9531443129825 1.74268405768515 0 0
68.7953359260061 -6.97765179989305 -3.55043173593928 0 0
-37.1736467549227 6.42601634621687 11.5189902371791 0 0
-49.919646938353 -8.63897053275875 16.4709813771889 0 0
168.502860717376 -28.1632409478586 -17.5467356579177 0 0
160.512171097359 -20.154941215253 17.6273154455165 0 0
158.373808487179 14.1078272623644 17.1256869040565 0 0
169.657233279365 5.31659558640987 -11.555185275877 0 0
-25.7425226165867 -0.0523889888983139 -6.42489444660739 0 0
62.6987589693918 -1.7946453435145 -3.831184431198 0 0
16.2410463995143 -5.48340256361951 20.0742083951312 0 0
171.801866518132 -31.4757775297564 -14.3981734351616 0 0
82.5343770790566 0.703456838108879 21.9771797685958 0 0
63.6126507021577 -14.6850802500983 13.733690718913 0 0
167.533595353204 -12.3698859002076 25.0083661197247 0 0
190.806019714434 13.4075388958399 -29.1589468752552 0 0
114.391503759302 -14.5416148059089 -1.68563559590955 0 0
73.9169179005887 -13.1796893117287 2.4604248220669 0 0
184.666111844873 -34.4102095523881 -5.26802762434623 0 0
-81.3467005525945 3.54132885785708 9.23558538174525 1 0
192.733164354087 -2.89949604673453 -6.48698598375673 0 0
-49.6840884605845 -13.0539401593322 -5.52295428415333 0 0
-61.3843714122895 -6.59212170651593 -9.52074721473953 0 0
168.970926050892 -2.4399457081881 -11.2505717181577 0 0
98.904092145422 -0.186292161829473 22.5778100587188 0 0
175.601565643097 -13.4161260161108 -25.551723656243 0 0
112.03495792354 -14.1488744224597 -1.78616625690497 0 0
93.2914024270029 12.4672940793425 14.9088518696226 0 0
195.513900904257 29.5335621015321 3.689492681442 0 0
78.4921472875327 3.73089006593322 20.9972130437991 0 0
82.9996952745648 13.1295945220639 9.43768144650862 0 0
20.6030137655401 1.25490511467832 19.9583106213874 0 0
-74.0558227085097 6.26850255734167 5.43744710405915 0 0
151.461070160458 -21.8339839143494 2.12636527398552 0 0
190.840625708235 -13.1731619459227 20.0357734808197 0 0
13.450279739635 -0.627985737186011 -5.41036527635803 0 0
68.5913273720942 7.70982619354804 18.3869318023383 0 0
155.604716464805 3.63997683175927 -6.31468912970064 0 0
-38.077795259823 1.13135839833425 -6.07620340143597 0 0
124.910054613826 16.7287505177352 3.52671105535321 0 0
204.592861151598 25.7655747939472 -14.0537622119011 0 0
189.401410787759 -31.5744536186528 -8.75277376352156 0 0
186.091231200279 -17.8069228591293 24.5570762563425 0 0
161.457853413537 5.55046813253025 -8.45410001499797 0 0
-60.9601685916973 -14.493078890508 12.1429082869005 0 0
155.22256074835 -19.0923687037237 16.2637273760597 0 0
167.610454976675 -16.1337294792916 -18.3252547166524 0 0
67.3020151486579 11.9687008276451 11.4170997276087 0 0
195.089583411234 23.942546384189 11.1015980219257 0 0
-59.8924139926991 -1.27237084671348 -8.9678866778358 0 0
-25.3167263454445 -18.0938729339968 9.79853483869496 0 0
193.813998691317 32.9844355181229 -20.2259300904597 0 0
151.490248973644 -17.6256574460847 17.1560325026051 0 0
168.472724142273 5.91964851608611 19.844827057874 0 0
154.694499230907 17.2697032324715 -10.2307179652558 0 0
202.994232232282 23.3931334703053 4.14042527651172 0 0
-22.4094907268996 -8.89181150007779 -4.52330190337309 0 0
188.147111557007 21.178467810711 -33.3172487791946 0 0
-35.813114494553 1.0780553692297 -6.01618609020879 0 0
182.645164657342 -30.4490503294573 -26.9224317600293 0 0
202.818989458657 21.0763706238836 -19.3486440352472 0 0
15.5835333055241 2.12722339850467 -3.39811377881707 0 0
195.061804182374 -13.7434209854224 -18.806792617148 0 0
-26.4124481500663 7.00557989752138 2.12045489981639 0 0
-53.7604531553652 -7.46698526358872 -10.1028409378782 0 0
197.306069831036 -29.6857468942149 -22.0135313329431 0 0
41.1623357086404 3.67936754237166 -2.02253811272603 0 0
-13.5778745986102 2.54765673815937 -2.92187481919404 0 0
136.047302566349 19.6208435181962 6.62185121266946 0 0
180.603564403377 21.8720997953138 -32.3863537257539 0 0
156.187741569479 0.695006769301967 20.525372184688 0 0
44.9430585775993 -10.7854737869485 0.933470563202302 0 0
193.64725481698 -18.0245713083986 -23.5702907438079 0 0
133.81331535504 12.9043510134762 17.1955045553587 0 0
185.89468200142 8.7946744812773 -14.4663349236201 0 0
36.0005993198105 -15.4548679643024 12.7284004650863 0 0
-29.1929973481457 -14.2367917032806 14.4643136691101 0 0
148.378359407014 -20.0603850414903 -3.31399936870048 0 0
178.916008066374 2.06935186194865 20.7994653410463 0 0
183.553305993455 -3.96276086667901 20.3532032903157 0 0
171.643797478561 34.099657519087 -17.6144501376625 0 0
41.8251206577088 -13.8112741582185 5.68883180622605 0 0
-58.8712218957388 -9.3701664994857 15.6493098134315 0 0
160.662925461945 27.5027686426425 2.7694526782772 0 0
-65.5158009917465 -12.1985082985434 13.6590689668437 0 0
199.315612065947 -30.91169242635 -13.0700040221511 0 0
92.0429165982087 13.027621317997 13.6775497707395 0 0
68.6075058312168 4.17488246402984 -1.6690276160199 0 0
143.819975846317 9.19190354943829 -4.96190216857028 0 0
-2.24643939028719 -15.198131289902 4.47925092020151 0 0
104.274224611736 -16.0251334653615 10.2001336062672 0 0
137.969796462971 -3.89748216291761 -4.4642392331121 0 0
86.7661311133486 -10.4583121693592 -2.03417729771412 0 0
201.704266335069 29.3381364627652 -23.4647566345966 0 0
-73.3098272760669 -12.0488174152699 -11.6908621083408 0 0
191.196375903949 -1.64817130918981 -6.33377110579617 0 0
-4.38370380280103 -9.44418312334624 -2.03099161724294 0 0
119.873627511728 -9.7172100580032 -4.21337612910423 0 0
-80.1838343061657 7.07398594041827 3.50425452913653 1 0
187.77880210879 -7.05603489387506 -16.377043483296 0 0
156.179146635081 7.03709048555017 19.6709670014839 0 0
193.144963753555 -27.547418312699 -26.8394593212533 0 0
88.4535133739057 -12.2602786993404 -0.510380113964273 0 0
77.3209208440147 2.33956672516778 -2.44135620406584 0 0
133.340442315413 13.0663363012094 -2.55789501333913 0 0
147.902221258492 -19.4645567187759 11.0714511483405 0 0
193.352781633064 -6.09294812433151 12.3015268438094 0 0
96.5364602765383 -2.08180547156557 22.761229471191 0 0
-27.4692364700973 -6.16650207632977 -7.83386468931877 0 0
41.473677325471 9.4986110859441 15.5958751085617 0 0
4.86180955484258 -7.97425276011529 -2.92179360592651 0 0
161.897780591855 -23.2573917513612 -10.6092622856833 0 0
191.004596574321 8.17204951020078 17.3895094651806 0 0
-54.4323326884998 5.68135796009929 9.62857807660736 0 0
87.6637256133229 -15.2426702156868 8.70173265417913 0 0
169.359965430661 26.3417791792682 -16.9536921272697 0 0
167.678899782302 19.8292446700032 -14.6784822425062 0 0
160.460860595746 -24.6184268720066 -4.89304583167592 0 0
-60.4615133606553 -11.2463853324952 -10.1809574446634 0 0
-55.1522375506161 -18.2689461169859 7.92718517687449 0 0
181.379029746655 24.5731305636386 -32.8070021537056 0 0
137.419780651096 -15.491138833766 17.7603270151881 0 0
-43.9514328469214 6.40766939019019 0.151582273109189 0 0
174.89761478087 -24.4204670471383 17.1876185853191 0 0
167.066936456004 -12.7321536746611 -14.9482275805783 0 0
100.398808502567 8.99127795285772 0.944180625914472 0 0
172.62984330781 -18.9338989013226 -26.4778561339474 0 0
-30.2804708863885 4.57531939728522 -1.60678562125089 0 0
190.661215161991 31.3542233898245 -24.3445416626006 0 0
157.902585383405 -19.6106528897489 -10.1905231880387 0 0
127.769859938452 -17.5163793667286 10.0430333119236 0 0
-0.103617954191654 -3.82022106100888 -6.82069296656324 0 0
124.179182364328 -15.830807007851 15.1901857677878 0 0
170.93706444972 -8.46714804567696 23.8382027237994 0 0
40.0930588046202 -4.01807399405579 -4.9142602869115 0 0
195.979295483477 26.5113958324318 7.36055285344908 0 0
-60.6395346658984 0.387295263743636 -8.39303817222568 0 0
-75.8896038966828 -14.1833817084556 -10.8828307587779 0 0
40.7395272275733 -1.77847944297384 -4.69903923810842 0 0
194.302807269347 32.6702013919452 -21.5056156998031 0 0
197.744801934072 33.2707156228089 -12.0922088026593 0 0
177.141227287892 -15.4155100243158 -27.4323414621286 0 0
50.8441972242254 -8.99856518254832 -1.04845021593666 0 0
-73.8793607823458 -8.87618062331389 14.4883240279651 0 0
79.8345007199032 11.0868067868363 5.76875432944239 0 0
-37.4930580878303 -4.12724412171625 18.1919998817387 0 0
204.752824843588 23.7013032396629 -11.8332010853262 0 0
65.8384237746085 10.1276706993918 6.04461306979618 0 0
182.277945105956 -32.6989599342083 -16.139513518235 0 0
33.165323781017 -9.47644097249129 -0.186131220356278 0 0
-46.619671763933 7.81635188023545 6.27932027337568 0 0
168.964406505126 10.1107135554968 19.9298960780782 0 0
-11.0384334115244 8.94960702086627 9.44956820679301 0 0
126.996341732567 6.28561912692911 -2.64832898819353 0 0
192.994608061928 23.708442511702 -31.9766181440041 0 0
195.956068803893 -13.6347932941183 -16.8300312946323 0 0
155.884713824857 -15.6365358424497 -9.83269868023621 0 0
120.10580138216 8.26000518150272 19.9094242744463 0 0
135.627888456612 8.18977142983376 -3.40660973645066 0 0
87.7791001056638 -15.0808544373533 11.0609101012106 0 0
38.3509810962579 -7.41695597934927 -2.50768051658926 0 0
155.718597447437 -21.6045676213667 9.85760605107699 0 0
-5.98708845594479 -6.46290672712057 -5.90291451079205 0 0
125.998205265357 1.98452065793153 22.4138332792432 0 0
106.534104951338 -8.89198115909623 -4.09808005343122 0 0
-68.0291326228919 -8.17685893447661 -11.0692663086534 0 0
180.094345768012 36.8195659103863 -2.19580252537985 0 0
108.355281275448 15.1707390134113 11.9458647237955 0 0
172.831163838194 19.8200489568272 -18.9311346616153 0 0
197.910178404916 7.79739262928235 7.71863574714371 0 0
37.1916190711179 -13.2850246941206 4.42387582865433 0 0
-38.5190378031796 -14.4649344268187 13.6726076554517 0 0
-49.9728766964158 5.79068282860811 10.2833923985464 0 0
159.082569226062 8.03906080366485 -10.1541532249036 0 0
51.8861192901167 -13.3594427186391 4.61661489035915 0 0
-4.73352936873345 1.94596871906271 -3.25805757162746 0 0
-40.6199565408178 6.37843993420645 0.352781011943853 0 0
-1.08767907743751 -6.58349368136898 19.2780385446196 0 0
102.170449884272 -15.66525045571 11.6177949945151 0 0
196.482142023764 -25.920376848515 -23.4565821124851 0 0
87.8888242219738 0.973365278371813 22.0594988060703 0 0
190.917632767536 34.6296893524851 -4.70195202413516 0 0
180.716201992539 -29.677160275627 -27.1099043618632 0 0
136.682221432485 -5.31981269160814 -4.56999299920197 0 0
16.123075666876 7.72974509748215 4.04794873990298 0 0
-21.041510988656 -17.9380001307577 7.3411557367913 0 0
164.527974074182 -23.1625754112589 -13.2616545626805 0 0
32.560678730677 10.0676130699721 12.3163438376355 0 0
45.0619394283862 0.936093168032053 20.8040418671347 0 0
140.352152957748 2.28502406524316 -4.25828455191178 0 0
96.8246158083323 -14.1206358393975 0.807453340801198 0 0
99.3298833375682 -6.4125575213048 22.5153307229035 0 0
164.475370276249 16.4381445410391 -12.9570462471483 0 0
191.735511311733 -29.5562845168608 -1.21519463271881 0 0
-3.59863671752163 2.77460206375112 18.3057332365729 0 0
5.73459631248066 -10.0766456638848 -0.622929631018673 0 0
14.1811059859814 -13.4744793406521 16.5130223223358 0 0
179.428431660819 37.1172470148805 -18.499397804283 0 0
155.274604670817 -7.63227523029041 22.871317297112 0 0
184.276103139099 -29.552574588097 4.55758615135203 0 0
111.013598259246 13.9701568819609 15.023826607135 0 0
171.857350748865 35.611797223692 -3.63069329055086 0 0
192.82087247847 -3.04031629378101 11.1415344921077 0 0
-43.9109643267076 -5.5399919955481 17.6407313107466 0 0
185.139257450982 17.5713594388714 19.9406967629647 0 0
142.435989755938 16.6760942643553 -4.15826693056983 0 0
-14.7629477656719 8.60620786172889 10.1789101292657 0 0
145.564077579549 -12.3110476706179 21.9072852190169 0 0
169.533371269173 20.6957639629339 16.7538416833975 0 0
11.60741696756 8.96215326595601 14.0769565639605 0 0
184.993207480969 26.5435813861447 -33.4149233560686 0 0
-44.7801283513384 -18.9911992089982 5.42979591287186 0 0
78.6775731882475 -14.0613177636232 15.1084450628431 0 0
-56.8664604358362 -1.34952575594068 16.276081561972 0 0
-22.9110271292618 -5.10444739604455 -7.8715029652918 0 0
70.7124778717303 9.95728499479521 5.27560461620289 0 0
155.499967709435 10.5360101721776 -8.26039422372207 0 0
195.123708677005 31.3676809144189 0.245933443329498 0 0
162.721647700042 18.4752596080264 15.699110325779 0 0
20.3266863218464 1.86642604559092 -4.00165734118536 0 0
-74.8370790540944 -6.59739182166597 14.9204774687038 0 0
-43.2205729808197 7.26469383264729 2.0912396881897 0 0
74.5694561428661 0.848790735114131 21.7692905650106 0 0
-56.9608220902609 -16.8329971944462 9.78172136412197 0 0
-36.6132545102337 7.21923529571569 9.82897547250388 0 0
143.164155597911 7.10496928880269 -4.71011494890131 0 0
32.9706406546956 -12.4766079531134 18.0316121178863 0 0
-64.5851874883921 -6.71245891055711 -10.349959858884 0 0
47.624611171449 4.00105539966579 19.7808430928491 0 0
166.476594561376 -29.1419126771135 -2.01370345124189 0 0
128.709723192772 -0.403439194536032 -3.60758754546248 0 0
145.997613325848 -19.5608964474003 -3.09674085539545 0 0
138.939644551183 0.928239224318001 -4.24012226977807 0 0
-36.8033729141862 -15.2625141296497 13.1142218160343 0 0
-67.0965987301852 -5.01453808963229 -9.90037214354297 0 0
175.179654197005 28.7429468026952 -26.0894943781236 0 0
-57.9142118921377 -6.74152317812609 16.4467273545987 0 0
46.8948429155387 1.95603181143976 -3.6006411413425 0 0
181.925999668966 22.1750205065127 17.1923067237239 0 0
-28.5392856716093 -12.5321156229409 15.862077816726 0 0
53.7409552058645 -6.77251258154955 -3.5298042946894 0 0
114.640864554936 15.405128765719 5.15131434712618 0 0
50.6883563712738 -3.8514135950193 -4.524058320183 0 0
-14.6662621827686 0.147077913901347 -5.70141390801181 0 0
165.547365829656 33.5924947119655 -15.1915533834576 0 0
-77.7150372131648 -19.5801519428843 -5.18694072649628 1 0
-63.0559443628011 -19.0596670793361 -1.81387042014568 0 0
174.774549565945 12.4780189698179 -23.0704958064796 0 0
195.424426083226 6.26276881964955 10.6260650153734 0 0
-56.2383876019418 -15.4927243391655 -5.14403314321421 0 0
-41.8145735252357 5.40859505198964 12.4050035994741 0 0
183.150894572039 -32.2338123601314 0.063690565555828 0 0
112.272028647241 -3.5414482412375 -3.7229853363861 0 0
151.798424110043 -3.65631901336308 -5.85369442487923 0 0
21.3865492437255 -15.4631389562398 7.66042015918108 0 0
1.70533001162193 -16.8199069574032 12.8147203584993 0 0
187.508851554805 33.6347938188328 1.93309203228442 0 0
177.004576397001 -20.8052154671737 22.6370346870002 0 0
-68.9861382619677 6.39704276136119 -1.88592584343428 0 0
170.919806491056 -19.1184633197599 24.5695964446651 0 0
204.837311769424 25.2586074630493 -12.0574317278621 0 0
-61.8764605663023 -3.00139723002334 -9.54397757598891 0 0
149.910560525558 -6.30509650177621 -6.05836668123969 0 0
198.989198100864 30.1201848516883 -0.403979125601011 0 0
-22.1509185775526 -13.7824425421229 15.2212262130855 0 0
70.645590471514 3.71048711436238 -2.02108781783673 0 0
187.518865466994 12.6264730571337 21.3823467170423 0 0
62.7046570434364 10.928908446639 8.10885737132401 0 0
85.2897892023581 -14.3702756973867 3.50259368275615 0 0
140.987095455549 -18.6006894992673 -3.15775198192412 0 0
-76.2600711150608 -15.5675373090155 9.96365681896327 0 0
128.724166882803 5.63068585058515 -2.89965509517324 0 0
-10.3903302108302 7.51617536724487 13.9314559978353 0 0
190.386626986594 31.4949783537461 -23.0822195176872 0 0
197.313708104615 -22.5380705415573 7.66173554331168 0 0
158.683028659279 -17.9522917390436 20.2690645153694 0 0
168.554539737888 3.30800746510585 19.6956463646539 0 0
63.7473569178128 7.73841991589673 18.2040619068744 0 0
18.9680208344572 4.90702737561395 0.236494174973122 0 0
165.687880913827 10.1469994650453 -11.6469969230742 0 0
115.153498442884 -12.427924187526 -3.93492782840649 0 0
111.918206898887 -16.1394168352443 11.8901607721281 0 0
151.550349523659 15.787812162435 -9.10362456730516 0 0
169.978699452949 -29.5647925747686 -18.0035255672848 0 0
61.364893245965 -14.9725785312577 11.9628134703606 0 0
180.642856771394 36.3685151334934 -0.533175344310099 0 0
-74.4896972751703 6.70897270469643 -1.35392769079711 0 0
26.8177173540819 -13.7619457980797 4.40988367578018 0 0
170.256099582502 12.2818736854243 -13.4765801610014 0 0
80.2264791547363 -14.9831787000994 8.98221317752327 0 0
117.036981320949 -4.25087626289525 -3.82535951825066 0 0
183.42446688645 34.3506322838948 1.5487659221281 0 0
196.394103542912 -29.430714001849 -6.11508595783541 0 0
186.166128620699 4.50887689509438 -10.4930334900734 0 0
196.067299435176 -32.0891304372437 -19.4367586651809 0 0
192.124032370473 14.0587577358371 19.1043878431421 0 0
131.368283765978 -18.0394370192353 8.6256307189916 0 0
146.494588323895 20.9189978266869 8.61467702463807 0 0
145.095375690228 -8.20393074929699 23.21627014679 0 0
183.699579870929 24.3145573284796 -33.3924179306296 0 0
190.402421714413 -14.9663824381867 -25.3791958897924 0 0
188.407802152498 30.6558546881916 6.80053002343166 0 0
-79.5601290903234 -1.15169843933785 -9.8752435177275 1 0
38.478956979978 -15.2054836855935 9.31583771431546 0 0
67.3133902230094 6.17253306827208 0.778446459903052 0 0
24.5661071275439 8.79636549494202 6.01045811284716 0 0
-50.4348503745773 -4.10609154879575 -8.87595810359979 0 0
145.962062322249 3.13244150859307 21.141744130775 0 0
176.807257412799 -21.9190471574789 -28.8188845397678 0 0
57.2640468879179 -13.5667597871121 4.84898317235884 0 0
160.299740559636 17.1948794299526 15.7978157243265 0 0
59.5122391904892 -13.778576839295 5.25263600142334 0 0
126.559626108766 -17.7621253799112 2.68185789354346 0 0
195.079861435141 -10.0659975594819 -14.4581038690453 0 0
177.301893456093 -34.7328464812839 -3.4596935635771 0 0
77.626421442505 -5.55274563842153 -3.87690617549683 0 0
195.158056832717 -31.8447654770687 -15.4993513628475 0 0
104.362348801455 -0.866017197222631 22.8569009422966 0 0
197.560976273769 -13.8646021157227 -11.4924188567645 0 0
189.257792219959 -4.03590567126189 -12.1057398946913 0 0
41.4984578603477 -11.6505199595751 1.97059370370929 0 0
72.5057355495898 2.59641573929669 -2.40879801495023 0 0
74.8999981484065 12.5631416980259 10.850244674741 0 0
99.3000900836588 -1.71146290422234 -3.4044066699071 0 0
183.377699487035 -27.1312796339141 -29.6527812824852 0 0
146.217146948766 -19.2226288130193 11.0245288848504 0 0
-21.7905795067718 -6.90049793656482 -6.59987581826449 0 0
-43.542920480721 -16.2974312705974 11.6172236551215 0 0
174.749124731802 12.5686411406834 -19.649729608082 0 0
156.351377335593 25.7408774085757 -0.382343864661939 0 0
-60.7692801517159 -13.1499156372212 -8.08287275174663 0 0
180.759954803863 10.4664514393255 -17.5394617121631 0 0
38.6089329103745 -2.71624000300621 21.0255995803582 0 0
180.895167572375 12.0283815473989 -21.335855842775 0 0
