"x" "y" "z" "f" "a"
-110.330216113863 -6.98504600606945 7.41384435102719 0 0
-108.253709936992 0.582888736767529 -7.68337732361306 0 0
-155.609419059621 -9.59362068989914 1.02500549077437 0 0
-40.5407832588803 3.91626011670634 -5.75688996105034 0 0
-166.774574723814 -13.5043488000564 -8.42794909209294 0 0
-224.078918332849 -16.1344584111097 19.1520779401043 0 0
42.4493562358953 13.980740020831 6.51269901548933 0 0
-174.365935021701 23.3016371979557 3.21651436340092 0 0
128.055419134183 16.1693919669137 14.3560076005484 0 0
120.502726437568 8.41033764944115 20.6603780125701 0 0
-170.357297278314 -14.1041986895593 -2.7951605601291 0 0
-13.5509100126158 -6.71583043885477 17.163341313083 0 0
112.810763940998 10.0148385199839 19.5395304262266 0 0
-84.1078481278782 10.5599147887734 -6.64286379604972 0 0
-51.9844687076018 14.5827375753005 1.39066592928698 0 0
-197.749602056763 -23.3820521201034 5.53241378598042 0 0
-20.5304159877482 1.16527130345897 -5.50089378484543 0 0
-114.71672489643 14.1288567284241 -9.56996971138717 0 0
66.1402971874031 14.4922090638322 4.40375821781608 0 0
-61.4079431545809 18.0646207382887 12.8407639823734 0 0
126.56048508329 17.5298500315391 7.80660814946854 0 0
-214.906544033272 -0.72573743692227 4.35458675432636 0 0
111.98239088698 16.6221602914949 5.82439492037096 0 0
-180.535095272266 19.8046394984687 -22.6692858267404 0 0
90.1123759930432 -13.975193655474 13.7745439438028 0 0
-219.068334475652 -14.0774107799942 -15.0670314491178 0 0
1.90651267410399 -8.26023709171411 7.40348356510323 0 0
-213.903100557782 -5.99990882869234 11.3387615805615 0 0
-196.42723881169 32.1911980073622 -16.1465297032095 0 0
-22.4562272325817 -6.08007581528172 17.0783883692318 0 0
129.366181721691 -4.52958001022286 -5.92049946394985 1 0
-209.541533690932 -32.5801734527938 16.8209273091289 0 0
-189.370253112499 6.17434784634839 -25.5896584791957 0 0
-119.719174347691 20.1426605938777 -0.123051197798997 0 0
-71.0953722546248 18.2145711995802 12.2264903639362 0 0
49.9183244685875 13.9902981773802 9.6607992592215 0 0
81.5474057551032 -10.0656690425115 -0.46237055983921 0 0
-134.034654430222 1.4081610501968 11.4679521692059 0 0
-163.932982249979 -16.9313910458533 -13.4622264416996 0 0
-140.601529388383 5.69133459098166 10.8544300592801 0 0
-28.3910550914772 10.6398083497699 20.2064812864033 0 0
-103.024246003872 9.0005191950963 -11.2338768984316 0 0
-149.609351594611 18.8275706675336 3.72497309678106 0 0
11.9445323479339 -6.87644612997909 18.0026468769203 0 0
94.8665964387242 -14.6380666251927 3.09878928684137 0 0
-160.513156666821 -0.947549499521074 8.289483184924 0 0
-26.3515663756184 10.6713719453521 20.1174990235503 0 0
99.5798499777576 -4.32765329077708 -4.00254938114553 0 0
-218.040237335388 -19.4684968574522 -19.8554905722369 0 0
11.5541624590862 4.76097726728492 21.9109779228671 0 0
-1.7419907419911 -6.17287173307138 2.33070400678219 0 0
-213.723868841331 -1.80814657878436 9.10930384569246 0 0
-107.338667196018 -3.70725836640233 -3.81993668058593 0 0
-77.2873109066341 19.051751788918 9.85932154117915 0 0
-192.307929926456 -7.60597656644395 7.81949984172236 0 0
-156.935073439755 -10.7865230687374 -17.5262778110703 0 0
-144.740419507668 19.7102792512061 1.52456085247618 0 0
-200.418289506652 -25.0859339731228 -7.3331724292134 0 0
-69.5724018249503 -2.77470039513759 16.8911374520805 0 0
-209.191368188322 10.5941593803348 5.77442456721485 0 0
-121.043901574752 14.5261701901735 -10.6024507543237 0 0
-172.24914204241 0.798658814390209 8.30578150006358 0 0
112.376116770073 -12.2328758015234 16.5355512384452 0 0
16.8112164558067 12.6882414434029 2.47668909889288 0 0
-237.916689543796 -21.9605539280716 -8.26631615445378 0 0
-115.474017417601 0.430549502998057 13.34139200597 0 0
22.7212409342202 -5.41015136212564 19.804490489259 0 0
75.7960208034294 -12.4805797827042 3.32592661580255 0 0
-126.295280843673 -2.23628580974783 10.7657494087627 0 0
-19.6893096270143 9.52765856140996 -1.1644389725642 0 0
102.810326695239 8.90349967733091 19.9114992153123 0 0
-139.053298710136 -0.741492643850913 10.0702309649128 0 0
25.7584476424111 11.4041302466843 17.8622904635102 0 0
70.4305607390532 -13.1105973390474 7.06321294952166 0 0
80.9789853078156 14.7472919200561 1.33759232961893 0 0
-99.2757323984112 6.6054777844206 17.1214042716538 0 0
-140.919579148824 -6.61866285339883 6.28637649988717 0 0
-185.745754324742 27.7545620245042 4.52931408735104 0 0
-176.109162471968 1.46338497550293 8.08190747398982 0 0
-234.272317382359 -13.6595751349501 -9.24251561118102 0 0
-124.060870385446 17.5576692242292 -7.87456250650832 0 0
-106.417165870333 15.6203460227825 11.6750450947284 0 0
-127.10190189382 14.1401680356884 9.90805285171618 0 0
-216.186252688712 -41.7664147043855 -8.75130948801133 0 0
-132.165153030314 18.539889012982 3.9952747692856 0 0
20.5424643855598 9.70499495071042 -1.16754876067115 0 0
-77.2475219359385 18.7291718966818 3.01695181208284 0 0
67.2821847998255 0.129957322919046 21.582555633802 0 0
-218.953661129635 -3.00937640779904 -0.00911581883380109 0 0
-27.1216023061826 12.7418624892413 1.8896890445625 0 0
-97.2498289518561 14.4542769228393 -6.14554378699202 0 0
-50.1707053354117 -8.50777698691743 8.37451216269553 0 0
64.5698347015995 9.18428668422009 19.0891090123059 0 0
47.8765707886768 7.40514351102278 20.3716693119929 0 0
-169.792595429763 -6.14810137770155 7.98626995519484 0 0
30.2409139195533 3.675558736203 21.8722453642888 0 0
-104.545240771083 15.9701982085083 11.6711753867426 0 0
-203.604632986564 5.26461017422186 8.41543680637122 0 0
-186.482809240374 28.9394325323395 -19.0328067545934 0 0
-81.7469227218738 7.01593848001862 19.0421494096897 0 0
-2.36234227775808 7.78913199921432 -2.17945592935609 0 0
19.5475123292513 5.27174987436218 21.7167468182709 0 0
32.4432038624149 13.0462249746823 15.284463876447 0 0
94.5148721662546 -14.6390356637084 13.1321547102499 0 0
76.6660650888737 13.4655366374861 13.2338958984045 0 0
-197.048859723515 -23.7715617712372 3.09215856118212 0 0
-226.086357888183 -19.6143968091691 -18.6663143486154 0 0
115.372838573657 -10.3889614173686 17.5189013680333 0 0
-210.857274592768 25.9924765423736 2.2043932068647 0 0
31.2073262542433 1.66598505640587 21.959690396382 0 0
76.5378771666385 2.11049318645904 -4.90741422779451 0 0
127.991894510233 0.867780613698894 -6.56969630598452 0 0
-67.917869185574 5.93351294984794 20.278118581427 0 0
61.6343524525399 4.20736426535006 -4.48216391008709 0 0
33.9023408453212 -8.51117880593854 2.90956198784643 0 0
-87.9475741043024 11.3231371811639 -6.66779385899239 0 0
-128.725508905915 -8.34508652059102 3.55358982447276 0 0
41.3873610181671 -6.66314879661327 -1.56426509237424 0 0
-151.013606210796 -9.67381595860935 -1.13308726170615 0 0
23.5254367048913 -9.97155431745101 9.84634024859811 0 0
13.3071341650715 -7.5210584799245 17.2961077678939 0 0
11.6961525999022 -8.87391815055713 14.1775243764227 0 0
-204.346423101075 -3.1374317364801 10.5391693745605 0 0
-149.996058718875 14.1710653595371 7.67423197043937 0 0
-221.635069292479 -12.6400171675352 17.7464859131173 0 0
-236.640221681066 -13.6579958373072 -3.89524332512461 0 0
-27.035720174291 0.621638229119596 21.5538707752899 0 0
-230.955514505517 -38.6999922596745 -8.15365521930119 0 0
-199.382624675643 17.8380507267288 7.71443337661886 0 0
21.2689820438117 6.50485844498968 21.3581634624137 0 0
105.023841405736 3.92848509156511 -6.41888652473485 0 0
68.8864843042086 -7.28337287583884 -2.55356340952036 0 0
-171.993813630809 -15.3399143710641 -18.8157147421608 0 0
1.43577724830531 -6.42845774539165 2.63643156399505 0 0
-88.0376506201471 4.48571915372178 -8.21855955983148 0 0
128.7537874151 12.0161655982501 19.43734851495 1 0
-132.86518603903 -4.31208032750116 -7.1828027820015 0 0
-218.485428722455 22.1175722395705 -9.17628968202288 0 0
-157.0908076614 3.34798131202223 -19.1221215778594 0 0
-106.273590518567 3.27960946740903 -8.86177431110528 0 0
-204.074730044089 3.04424300608533 8.34117478831195 0 0
-203.368502991459 -15.6979387448906 11.8239199221481 0 0
-120.51032707711 16.47396095969 -8.67322490267033 0 0
-13.8748088231601 13.1128577724695 2.79951191601113 0 0
109.710133645359 7.39293503735249 -7.52862989873496 0 0
132.179019132568 -19.980598861834 8.46399819108006 1 0
-215.583075850919 -41.9853415361447 9.94193507537631 0 0
-86.9427846950296 15.6335638740339 -3.28159932008025 0 0
-194.439937434796 34.7892302874962 -1.85162754061921 0 0
20.3624070828476 -9.82042667322797 10.3546621597391 0 0
-169.922742882541 -15.8900702331255 -10.7508470188492 0 0
87.4670477707197 -10.4301977307591 -0.683758903882973 0 0
-59.1893057342549 -1.24858730466463 -2.7059745014451 0 0
-152.79831335547 21.4895958302326 -1.76010263101706 0 0
104.331011523989 15.9809731266051 -0.113404556498235 0 0
73.4609986652904 -10.9849724683367 1.01990447893171 0 0
-5.18129307393702 -2.4677987378195 -4.44021329445835 0 0
-128.777277958845 6.80640641356046 12.5918262003329 0 0
48.6563657706439 -3.59868308061965 20.7593483020313 0 0
78.7083844086034 14.3890985810478 0.412695516604274 0 0
105.351507616026 7.67085770558906 20.5752892634821 0 0
-224.837494230252 -31.8708490889621 18.2592598411682 0 0
-195.787767369793 -23.7734876915468 0.33683213610372 0 0
-216.228101947417 -21.2605631836584 20.8864702418242 0 0
-120.225723616402 19.4885879882453 -3.39810356155355 0 0
-173.121570603199 26.9637635646298 -9.95220054246863 0 0
-135.932499097126 -3.48319292836543 9.05778552994851 0 0
-115.266640611527 7.87819293058852 -12.2743931790275 0 0
-193.770948460552 -9.07008666517599 -12.5700503731961 0 0
-213.618899219993 1.06709463209437 -0.0304394150274304 0 0
-226.934509034004 -39.1970747382499 10.4455971134414 0 0
-184.328540589487 -8.95650788946048 -13.2912894824099 0 0
23.887711268905 -6.60865355994828 0.817602370812707 0 0
-219.203478747897 -15.733199903903 -18.2709495408552 0 0
-38.827559037197 8.97529791850394 20.8751478826043 0 0
-206.567015341996 -23.0239439086413 -16.3006878972409 0 0
31.2830645458306 -4.77419894216089 -3.54142083917775 0 0
-108.98113012405 19.716578646655 5.46617671965421 0 0
46.6424280305538 9.48172703942471 18.917438223155 0 0
-92.8555153239536 -7.14180174204684 8.9276529298335 0 0
-211.988685537758 29.8697298968463 -2.64533622372443 0 0
-213.164557757312 0.264487142851207 -2.0294109678439 0 0
-24.6457405915959 -6.24887057482192 16.7714388982454 0 0
-126.214001566475 -6.99588853243225 5.74093124249342 0 0
-140.196665037587 -8.93183069777274 -1.64254267377924 0 0
15.0377769840904 -6.39544885907449 1.16745909176468 0 0
126.206907443041 -12.1905579938108 -4.58368349990867 0 0
-64.4199035442433 6.53329544338893 -6.71631018309295 0 0
-1.59492208185074 10.0778387463171 -0.685451339851933 0 0
-219.967833227417 -41.2608190159878 4.4096298862594 0 0
29.0224654120846 -9.1656465922251 4.84887826851264 0 0
55.1154475782832 2.84908930060993 21.750224121648 0 0
-44.3225591099738 6.07796830404321 21.3500175209682 0 0
-217.696270139625 -7.92917340072261 14.142356908811 0 0
-116.601758503726 3.05837959026585 14.3247693065424 0 0
93.3034652463547 -13.2995686843322 14.9679253016645 0 0
25.6629566000181 -2.33183106369692 -4.46486419594577 0 0
-148.027646695709 11.5748691032318 -18.0226415627774 0 0
-163.023840396273 8.06196457351562 -20.578921955751 0 0
-224.701045337093 -28.3041774108112 -18.883901643749 0 0
119.272422414669 16.8268594030305 -2.40426498388045 0 0
82.9329797163649 13.979724254087 12.4387735952626 0 0
-118.117757582603 0.633648487232253 -9.14870798553985 0 0
-213.216900058531 12.3378259353993 -15.0520174319257 0 0
-192.012874753931 -11.3079478009355 -11.8368978623595 0 0
-216.611578136982 -44.6314543332872 2.45877810115759 0 0
-170.477344953271 -12.5133799963875 -0.110555003035363 0 0
-96.3641680013615 19.1068348327606 -0.356812159839214 0 0
-220.625453073162 -3.32533916683594 5.0955581553506 0 0
-75.1394013372532 7.38610512177145 19.566236648212 0 0
-187.536468067091 -9.23523987477133 -12.8315046047429 0 0
53.1788232657531 9.01677161112472 -2.72270708457108 0 0
132.178968276982 -7.74555840234121 -6.01844054198622 1 0
-190.169843575533 34.3274940579274 -12.0298288395018 0 0
-211.515489983257 7.6651978800614 1.20145345756623 0 0
-166.313833601534 -3.51729292767689 9.21675877171747 0 0
23.0694962833037 9.9585670540515 -1.07219220357714 0 0
-84.1323369188617 15.6161855704808 -2.80056722707134 0 0
-209.786050076372 -5.69348830485168 11.477355477989 0 0
-178.257062376856 7.71287756015729 6.75728285199558 0 0
-29.893635790454 -2.37015271172602 -3.16542070411196 0 0
34.215731802208 -6.32694276918965 -1.21385447816184 0 0
-177.307726065223 -10.7485289065274 3.16307044180413 0 0
-237.450451437906 -28.7797428243138 8.19698011698989 0 0
-184.184245778911 -11.822526910712 4.60676471158247 0 0
-38.2700622697562 -7.68528416929503 6.42439960022392 0 0
-63.2233085038211 6.71283657840045 20.498018516732 0 0
-221.100128074185 -14.2114618207947 -15.8715952975988 0 0
-238.685820045452 -26.7424733006472 5.84879625295453 0 0
-98.0854530080913 20.141099525611 5.07900306863463 0 0
-170.582555528646 3.89084614137915 6.95270044965545 0 0
-143.019906537676 9.1111767951823 10.4420496331129 0 0
-4.70561551141294 9.28289339716946 20.544064452659 0 0
-0.28450007957454 -8.84798815315051 11.3580147445438 0 0
-233.292788608007 -14.6930088245935 12.6380565003291 0 0
-96.203871170163 -1.74017741416257 -4.09418171167028 0 0
-96.0807436379366 11.6197589050601 -7.53695918501175 0 0
-216.533042726578 -1.70735688473251 2.99473798902029 0 0
-209.604149201991 9.54026561714803 -20.298798659216 0 0
-168.976274056199 -4.92631580749334 8.64388411091849 0 0
-158.580767647316 -1.41765120045366 8.21285549750239 0 0
-187.939880575654 -18.8044890771363 -2.34135758219883 0 0
-36.0613691139606 -8.46667776394403 10.354605557956 0 0
-61.2930266061594 18.5761202212995 5.75111108909421 0 0
-134.697872128438 -3.11642443464438 -8.7425419838817 0 0
-183.967870952741 -1.04063968939863 -18.2349344947248 0 0
-221.617632710132 -41.0759465491386 7.09103390062998 0 0
-50.160383172352 15.8376704828669 2.98716863258544 0 0
-234.933675772443 -13.4495950991387 9.01823784058982 0 0
124.710542275172 12.4875577902226 18.7070716167914 0 0
-209.550450966536 -39.4459796407316 -9.28193474175389 0 0
-122.518746114366 12.2079559042074 11.9581779299095 0 0
-148.8053835777 6.65320379344881 -17.106635514055 0 0
-224.827734038214 -33.9041546753459 -16.6536101860292 0 0
1.14133135891936 -2.85868268239636 20.792174024457 0 0
58.5945266160721 9.46862639263727 -2.91059292680743 0 0
-179.745245678614 15.6417377428449 -23.771986485272 0 0
82.2517994382938 14.4637337706955 -0.160116991276698 0 0
46.3118897919459 12.0050560668868 -0.271485391573638 0 0
-238.024865956096 -31.9885067244668 1.01143476002725 0 0
-196.986520391593 -24.7332553769301 -1.0133217021598 0 0
-212.099348302366 17.2288703871335 -25.623621118713 0 0
-157.415226207096 -2.92072269069789 -20.1452932545645 0 0
112.487212427876 13.4105658822511 16.4838830664385 0 0
-199.585830892111 32.4069229908609 -14.7260578560441 0 0
-211.386408498859 -38.1677743053372 -12.366321169568 0 0
31.5888837088243 1.60395141466161 -4.86491161787769 0 0
-171.872558481301 1.56294940101278 -23.0944928746552 0 0
95.2066013445335 -8.69038771926223 18.310685096097 0 0
-226.680958196135 -40.8213141045349 -0.462315205375464 0 0
-159.024530359867 14.5887605857479 -18.8383410072954 0 0
18.2446025705075 -1.14862469988895 -4.73592852717506 0 0
-125.280516769191 -8.30454481399108 2.08389180143529 0 0
-132.820133570671 -7.80537458213953 -2.61753518760188 0 0
-59.1901983783239 18.6867107089607 11.1271878742653 0 0
-110.339463441265 6.61575644478604 -10.7405844565625 0 0
-71.9491080702087 19.4046627938471 7.33748326980123 0 0
87.9200155537354 -6.20478916188798 19.5741398933817 0 0
-157.060445902703 12.0413173414342 8.17812342391518 0 0
-146.333650637765 19.5897367637144 -10.5761639176674 0 0
-178.540275244347 -4.2527081432928 -19.9121108345387 0 0
-78.0498676176616 -7.24315252978778 3.74486354004459 0 0
58.0864207309598 2.68807141361338 -4.74731583287385 0 0
-4.38580732959215 -1.15257414702153 -5.04926973251622 0 0
125.017612746822 -13.373916699095 16.0809523027014 0 0
-180.765400663865 8.571763632976 -25.1107045618428 0 0
-183.367719212448 2.82176499164529 -24.32842045641 0 0
108.34024012889 -1.38587365745471 20.972180196682 0 0
-195.560439723415 10.5920850431935 9.55349309897113 0 0
-185.201209276886 -17.3752619144368 -0.909454871065052 0 0
-202.849592281903 12.1913235271917 -16.4123860057287 0 0
2.76601543470654 -1.22556082225172 -4.89930811331759 0 0
-122.571361832157 2.04960299897723 -10.1790188193538 0 0
40.9407000587547 1.18031790201931 -4.77735709521134 0 0
-4.03050168662664 -8.75808686066629 12.3664639354819 0 0
9.85885490699404 5.55478522969404 -3.03400377037085 0 0
-159.057481208715 14.8768024237555 7.05143493634313 0 0
-204.910922451536 -34.6367729654135 -10.342441901616 0 0
-138.229158320275 13.1872439162717 -16.0290035500235 0 0
-166.594646121795 -12.6606964132289 -4.04791376453905 0 0
7.4112510952421 1.64861172353101 21.9765898521791 0 0
-89.9126452204746 10.1104923947317 17.4573957895073 0 0
-213.987031383482 15.6104056213584 -2.65961914732435 0 0
-12.0262472257184 14.3098919305246 4.47262584953249 0 0
48.6898745967847 -11.2622874319493 7.40274435431621 0 0
-137.635600796139 -8.67894455921246 2.61466893445353 0 0
15.7361861189887 1.35524807720963 21.9927499477366 0 0
-234.61926195711 -37.5475965182481 2.17873612506385 0 0
126.631505901468 16.6321603453472 12.6250017752216 0 0
62.2982736278336 11.6759958202589 16.4743072417043 0 0
-218.423188367931 -41.495118165479 -10.0548349737234 0 0
28.1985619587101 -0.565678071740717 21.7172664072762 0 0
77.1004739395218 14.3345796242831 10.6845445993305 0 0
-106.555501104753 19.9760494719311 1.03579857120673 0 0
-213.901872946733 9.09970448171654 -20.7227371256835 0 0
-221.734613463578 -17.4712133416521 -19.0742705163894 0 0
-159.450177963925 -3.95946587929729 -21.5531644544369 0 0
-169.457638816104 -8.33597502461948 4.53590413751225 0 0
-144.153717735114 -5.78444324313076 6.78161709190045 0 0
33.8909452181457 -10.4666770504372 12.8349958654623 0 0
-149.149217785696 -9.21164200691261 -3.40565899059337 0 0
20.5840821469636 7.10695791521021 -2.34575387653042 0 0
-144.097669599504 4.49773616851136 10.6022233374213 0 0
86.4235848472675 4.18945919421708 -5.36638020236323 0 0
-10.686058170262 9.4042674109895 20.6475076280715 0 0
-86.9665410189727 19.6746160904533 4.45075895470946 0 0
67.7836863632026 -10.962959461768 16.2188707835292 0 0
-11.5727747046479 2.70062721544592 -5.30827359037827 0 0
5.25984705574159 1.71468183678286 -5.30411240145463 0 0
-138.291061239156 -8.40154659974341 -2.97961127444481 0 0
-202.593901661687 -35.4740958290463 5.59735911512706 0 0
-136.156135775747 2.17029495738441 11.3077144018852 0 0
130.609135729515 -19.9578239875459 1.78093168248508 1 0
-8.90308353922929 -6.04477355296753 17.8980816720499 0 0
-234.492560249202 -34.1511665165368 -8.98678864170259 0 0
-199.170069462741 23.4274593484097 6.58471381603088 0 0
-198.009359400874 5.76048354297771 -20.4552087790884 0 0
-139.079064338114 12.1829013884259 9.77673822247773 0 0
42.93362502908 6.06569224844878 21.1022466811284 0 0
-231.961396023508 -36.8350332069035 10.3405245617547 0 0
-198.609755726169 14.244487948122 -26.987275715113 0 0
-192.491719334989 34.2091071783426 -0.166635041427747 0 0
-122.120902994593 17.9662161174772 -6.72927504199231 0 0
-19.7723281080376 15.7947016258563 5.81482450241166 0 0
-199.600834468618 27.8619099982653 4.72905352077941 0 0
-202.739535082693 -33.3533280613629 -1.85910291278316 0 0
-174.968360504039 27.6102924841688 -5.06458871690391 0 0
-152.468605419439 20.0970912019393 -11.8873248349363 0 0
-76.4398703603361 9.65023183240939 -6.33612267335412 0 0
5.23000256273102 1.30382022985374 21.9392806177518 0 0
119.079166358756 12.3516611924157 -7.93757236125847 0 0
107.202262154404 -15.9164949597485 2.58699768450205 0 0
-77.1028859449306 19.4282560541085 6.45075386152789 0 0
-183.087732347695 27.9600561073341 -18.1990822176754 0 0
-233.829183795366 -10.1483080066958 -4.54715417878943 0 0
-191.185601491069 4.92370103375794 8.22293581238811 0 0
76.2450882783347 -0.572712073312172 -4.08787172060726 0 0
-171.050319971192 17.4309288118478 5.78715681132879 0 0
-7.9697543203975 6.75828445339464 21.5301734843729 0 0
73.1070460135331 -7.4630444953725 -2.20503086459563 0 0
-235.921590667023 -13.5163863264052 7.17259209050916 0 0
-216.869157761513 -12.7586345877643 18.1115303658379 0 0
-122.841214334407 19.2493804306027 -4.34016747524903 0 0
16.6332137905583 9.08825634416715 20.1423887244362 0 0
44.3897520342011 -3.4573464970275 -3.91978727039694 0 0
42.3036133195699 -1.32129766190005 -4.29509441147232 0 0
-128.619650952885 3.22659423896458 12.476271203188 0 0
-127.420832875187 -6.64576896388793 -3.32924060269671 0 0
-8.27729275521628 10.6618053329163 19.9457651398602 0 0
-224.67446192956 -18.7514100552585 19.8390353405832 0 0
72.8205576297427 12.7495385713381 -1.89954638104991 0 0
103.924814307976 15.6905609534198 9.95551175899715 0 0
1.44506367093644 1.48020128798747 -5.36278414683526 0 0
122.123532591114 5.27736234404616 -7.49260830667459 0 0
130.192886123558 -11.6822409672484 -5.44599889228472 1 0
-234.99612803277 -32.4318535965995 -9.80905115356082 0 0
-215.654181702094 10.776885771674 -24.4035484859754 0 0
-185.891037032555 8.89366959936907 7.6084454842182 0 0
-108.763609160152 14.7968538301767 12.0635530670649 0 0
77.3008300661615 -5.06886816599727 -3.29909456743037 0 0
37.7746928235349 7.35089571611618 20.6206633690474 0 0
-38.5195281626082 11.2437167111287 19.9347765279269 0 0
72.2500060151778 11.5438606799629 16.6521986925466 0 0
-128.861783238271 -0.745390841571139 -9.31693670867173 0 0
-207.267512740822 -30.6914495864898 -15.4163568345221 0 0
-213.479913965496 -1.33988145353017 -2.75968620262189 0 0
112.785022083422 12.1471549264706 17.8950395042869 0 0
127.193810365174 8.01044121901485 -8.6151080956025 0 0
-215.295597304998 -3.5738940104699 -3.17086309194013 0 0
-153.918864943725 21.7144624082609 -8.50614140421987 0 0
-195.642763828528 9.86321419737976 -26.7623108778853 0 0
91.8963975969957 -8.93817300227549 18.2060512943165 0 0
-174.834098137454 8.05571389534894 6.58456445179727 0 0
-203.994563073404 -14.884067787712 -14.1353446335602 0 0
-99.448077925901 18.3792604371242 9.75748000494365 0 0
-218.198510734012 -40.0932019798604 -12.3288372517029 0 0
132.189414687516 17.0793864610081 13.1535211774461 1 0
-212.71242973808 8.5497332180001 -24.628287542649 0 0
-81.0193938322192 14.9657328239216 -2.89771571145694 0 0
-207.915924406208 10.8451025427262 -7.57400327244789 0 0
-174.818717336365 7.79443334473236 -23.979667643903 0 0
-209.438615256521 14.9643854494545 5.58710833555142 0 0
-83.9379367071314 10.5257728558397 17.8611524171807 0 0
-232.18458654414 -19.9786797606409 15.7348898026986 0 0
-211.572869801114 5.13268699163692 1.50540395152362 0 0
-61.1254175585026 -7.09786354181231 4.18590624870306 0 0
-213.835726443167 -21.8985372349159 -19.5092656916472 0 0
-228.709509637729 -20.1048260154661 18.3711905420807 0 0
-88.3064368159878 7.30713171054995 18.3027258074182 0 0
-154.217185921534 -7.23288808870934 -16.4870106587322 0 0
-217.064270546093 -9.39462953579399 -10.1925076407171 0 0
-166.727398267937 -9.02728592673281 1.73051533700636 0 0
-71.8822166701847 11.9107769902258 -3.81345344516768 0 0
105.794873703639 -4.8998624437824 19.8765841013328 0 0
-207.31519122722 -32.9456143062261 -14.1687497346988 0 0
-180.723585587296 20.4065406366833 4.9631139091833 0 0
-183.565469381759 26.3359582656579 -20.0039000367741 0 0
-105.345101010444 10.2165838952221 15.5910639328378 0 0
-134.988417678126 15.6455869910116 7.83166801339435 0 0
76.6610653207416 14.539066223868 1.56209209563773 0 0
97.4895135111041 -11.2241223795527 16.9426080855169 0 0
-133.910242827239 19.3600228994607 -6.67463747052871 0 0
-114.282837245552 9.49742393664304 -12.7009893860536 0 0
-179.94455600632 25.4867044982385 -18.6317604431804 0 0
-30.3420954980379 4.01685629692387 -5.39965212221568 0 0
-64.3347092943866 -5.46985748225433 1.96059515694216 0 0
115.055189343995 16.8611702354524 4.33748287057265 0 0
59.5612156005254 11.8061404800311 -1.56952472776599 0 0
33.1558350179781 -9.67164232005522 5.48195857623164 0 0
-19.570035148125 3.93078069490355 21.8576027814271 0 0
-98.7638932966914 2.31584442901257 -7.65129937602908 0 0
-213.199788615363 -3.38614137597143 -5.72208903772404 0 0
-231.540411799159 -34.4515483595572 13.091071850986 0 0
-144.500660752602 -9.49565540262478 -1.92288089213127 0 0
20.3983201190633 -4.64733702482829 20.2628407749624 0 0
-49.1604954087075 13.7889356553901 1.03199273309843 0 0
99.3613185991206 14.4125337440262 13.3952638187389 0 0
-205.414097276899 12.3164842025598 -12.9523610998728 0 0
-178.657897551371 -1.6155299792099 -19.0126582719976 0 0
-134.74418137901 14.0009637788294 -14.6073459881854 0 0
-79.9667827549653 6.23404864022276 19.2962992971372 0 0
105.360605486555 -6.01127600081609 -4.03435683336785 0 0
-83.2938113086767 8.72193472286523 -7.90180739197328 0 0
-163.1653747948 -7.94189242702418 5.41890960984353 0 0
91.7982129449753 -3.95610312316626 -3.70945535520134 0 0
63.2804255079602 12.275200010248 -1.40157507966436 0 0
-204.958978151224 8.0747498135627 8.43009651111496 0 0
5.69016823359059 12.7785922887197 2.87326819953153 0 0
118.08819147776 3.93675146989086 21.4680069779904 0 0
-21.0635969811935 7.89307603702783 -2.26817400775679 0 0
-181.180921023597 31.1390856907925 -8.19461720586669 0 0
127.198164733557 16.8884640655466 -5.74817102904682 0 0
-29.0422210706555 13.0071234757382 18.7193192858839 0 0
-174.169959857257 -0.375004210522948 8.46152248167356 0 0
-237.272240732617 -17.6305152406564 -7.20221865110391 0 0
70.8290217041003 -11.100722844101 16.2312636026166 0 0
112.24366911309 -9.51656543456939 17.8694681667418 0 0
-200.66638794564 28.3510838801207 -20.0897418169193 0 0
-30.8903370500113 3.75369415830549 21.7594973761003 0 0
-160.526361415571 -10.962722222159 -2.14856478126534 0 0
-57.8096885923095 -5.12544289340271 15.0441535181134 0 0
54.1575301811767 11.8671410485337 15.9969393416707 0 0
2.25765358822059 -8.98557755231944 12.1371017184129 0 0
-65.7490797753168 19.2227320695266 7.21840804780407 0 0
-185.48537354037 5.79638793350139 7.72486971391302 0 0
-64.750841546164 2.00712950683523 -5.68341207250796 0 0
124.482281332053 16.9622887653799 -4.29651545690178 0 0
-130.580828338364 7.79466000608469 -13.7315976240174 0 0
-194.912325341481 -2.41049920289428 -13.5877873247077 0 0
-25.8502992710528 8.60462977860609 21.0687735591694 0 0
-178.283573877485 -0.896360441440076 -20.0049261462864 0 0
89.8019682184256 -7.43947665975778 18.9658039054812 0 0
-84.6095871781908 -7.80361282175335 4.88052343246214 0 0
-45.070106862925 6.6905016056933 -4.91291725032799 0 0
-25.0168415828124 16.3992785941547 6.15991352239529 0 0
-83.4304137302129 16.7326077966665 -1.33833261447747 0 0
97.5809386044952 -15.1491668882128 12.5543161489121 0 0
-12.7461528556971 16.5373244402362 8.9077353616929 0 0
83.3789040316791 15.0817078808881 7.27980325920547 0 0
-219.858031913145 -42.1256658584535 6.1895799051585 0 0
-154.74244755645 15.3502921256339 -18.0428392208597 0 0
106.022160041274 -16.3843143157746 11.0769800175003 0 0
-164.395188788007 -2.56298873868383 9.1105627376104 0 0
-200.65722364 4.31320252213047 -12.1879136189492 0 0
-3.9860121514535 12.8215632946858 2.92552650722656 0 0
-36.4976527733114 -4.21727391875489 18.4675052068124 0 0
-95.3457998336715 -4.45927182226412 11.6765960223495 0 0
-206.387383675268 5.82467490497543 -7.4616037046593 0 0
-104.70885518693 8.85429005825342 -11.4556980783973 0 0
-180.640018615425 27.9436942884506 -16.468329063545 0 0
6.31672926262757 -6.78418144758478 17.8218739034889 0 0
-134.855651409645 20.2448758731026 -1.88841856956709 0 0
126.102239594959 3.12262512990873 -7.03355097703055 0 0
121.496303359023 16.6664743441139 10.68085886276 0 0
37.9261932875249 9.50955848726719 19.1499416851711 0 0
-189.345269993701 -19.2650707200183 -0.419597029092689 0 0
-117.016554555052 5.51952494629516 14.623294087901 0 0
-187.018914556699 6.66658441252933 -25.7626614197211 0 0
2.2650819383428 -8.83182988047852 9.98712621015669 0 0
-62.2350174141976 8.80012620116453 -5.52642916908296 0 0
-227.017558564587 -15.0225442289905 -16.3849139421882 0 0
-53.4698489800022 -2.53372772628993 18.6454244777404 0 0
130.691181524448 -20.4236256664659 4.91638255344104 1 0
-170.181372840551 -0.043307637670131 8.46318678986505 0 0
130.755400849602 5.14131300289417 21.2399050529582 1 0
-14.575194813435 -8.72791309653027 9.54547359681542 0 0
-22.1688327646187 -3.15388784205732 -2.72868330836069 0 0
128.584170764466 15.9754259900314 -7.89289751920799 1 0
78.4257236233922 2.70032524001555 21.6564028218885 0 0
-210.990185366044 -9.21067504706433 13.3408169001492 0 0
-179.611679321892 6.11153394534482 7.47249891945843 0 0
-108.779647960948 17.3412765449122 -5.40570830998738 0 0
29.3009237951441 -3.63232172430981 -4.37636945055279 0 0
-74.7134597387818 -7.33588495917384 10.6716819923224 0 0
117.943080382133 3.92853078157865 -6.77678170294838 0 0
7.69979794944601 6.53221276892963 -2.57264316495704 0 0
33.1725412212963 -1.24395934283576 -4.61812739460854 0 0
-40.1215700454143 15.5133431971298 16.6653729595878 0 0
-77.7383078892247 -0.596592862979724 17.9147644606667 0 0
-202.682107363332 -21.9035811722623 -12.7244126418572 0 0
38.6484077089204 11.8384242228136 0.0678252039946007 0 0
-209.867378307205 28.3741858816545 -10.4261250880531 0 0
44.6239817729924 7.64484423642125 20.2965155480583 0 0
-148.67117997097 -8.0459637896727 -6.04121258484444 0 0
-220.105000722233 -35.9810797640539 16.8941421328571 0 0
-225.769099498053 -4.77033037726133 2.04707538143339 0 0
-234.100893485259 -24.160636309305 -13.7532836736452 0 0
-147.013796213116 10.1360415197499 9.62039096667802 0 0
95.8229062444519 -15.5734905723627 5.59615914985952 0 0
60.2615337817467 13.4069768585276 12.7726849589895 0 0
-82.5243962708382 13.9008262364769 15.9503001171938 0 0
27.1685958487578 7.63782377031541 -2.23442500922512 0 0
-195.096054592252 -15.2055481373559 7.41302232447221 0 0
-122.519826341466 8.40233410483217 -12.8258844605775 0 0
-135.551765315637 17.0946430827625 6.10675444798675 0 0
-207.708445336406 -25.3153645143432 -16.946416935419 0 0
120.547184135032 5.04383639349739 21.3865371815898 0 0
-186.924225497867 -5.08744751495987 7.24280331057702 0 0
-89.0659434313592 -1.13966845346273 15.8785693045151 0 0
-207.621041835998 -8.71190840060734 -13.0125719617683 0 0
118.429260312437 16.9528369644892 -0.549588398516428 0 0
-66.4607618587603 17.5833637728327 2.67659035853025 0 0
-23.0755166600733 14.5319762640856 16.9994057688773 0 0
96.473045407584 12.5648864739326 -4.92512320153167 0 0
108.751602700774 -17.1528845534302 9.35180151118606 0 0
-138.141017101722 2.98674383738494 11.155250561901 0 0
-24.6333878207002 -5.91553074868815 3.16573303608549 0 0
-146.861584531051 -8.44205015623657 -4.66850662886502 0 0
84.4749061851725 11.5928730390006 16.9344138739923 0 0
-209.653965584347 24.6020690873335 -21.5140696391447 0 0
-174.342288084766 16.6785548822799 -21.8707920079402 0 0
-38.5143950044596 15.1658032825616 3.46896814545988 0 0
-121.082076204596 -8.21699553263445 2.15137625501457 0 0
-128.167061883429 17.6805580057009 5.83609074781922 0 0
-216.664031982441 19.1120296221587 -2.18307404310101 0 0
-131.841254148205 -0.224895185802763 11.2144007498109 0 0
-157.520280827464 -11.5032840436637 -13.7938865069947 0 0
109.060846008991 -14.9982312634093 0.530144078315799 0 0
125.431823674366 -19.4164814492078 6.53551803497534 0 0
-50.8329369444393 8.2468272281309 20.7586489950229 0 0
128.009831036961 -2.15513161525396 20.3842799509967 0 0
-6.39847353928263 5.54378750997591 -3.29573735165392 0 0
36.4709300250798 -2.37971393545445 -4.46446452447536 0 0
118.08232218828 -17.510844969407 2.48929244631035 0 0
-210.458325294741 -1.13040597922144 -6.61367990216049 0 0
114.385719946502 13.8058501553396 16.1902294725832 0 0
-215.483933430337 -14.7038547667823 -15.9881224352969 0 0
-73.1600441289974 13.2237832023239 17.1062249878593 0 0
-208.935821986192 1.98143135849548 -6.33453097971661 0 0
-160.785265651688 -5.4835984357501 8.16987381293191 0 0
-221.516951258962 -6.41164662163554 12.325537785281 0 0
-123.019343104326 2.16185693081836 13.0798736131037 0 0
-233.317152091062 -38.0838790482599 -5.30616485736619 0 0
-211.525723086005 -0.746818468942786 -5.10506406431109 0 0
31.2663402657677 0.161410332991328 -4.68283363218691 0 0
76.4112237942698 -9.63517421213883 -0.490047848852313 0 0
-208.736149265345 -37.5671210777888 -11.1281937724121 0 0
-148.53005483111 -1.97599377730009 8.67858016742061 0 0
-214.417168345242 -7.17440433592245 12.2993196346975 0 0
32.6757836939298 6.05384540161166 -2.80873712929483 0 0
-175.297011220701 9.81579534802495 -23.7696992448238 0 0
64.0859271405316 14.3522277909456 9.40840862188851 0 0
-42.5250713082264 -3.90838666939966 18.4148112485305 0 0
-189.327322387197 2.91750236337543 -19.8569086026178 0 0
-200.090187091561 26.6646271010824 -21.5462141067412 0 0
-91.9883994838906 -1.60160762029174 14.927130997458 0 0
-124.117361546742 -2.45584920948367 10.6266509161448 0 0
49.6491963983648 -11.7870715026629 10.8631074977142 0 0
-198.443681217714 6.94398268277841 -19.4182006625864 0 0
-128.572695149769 -6.07741471192419 6.67996092402159 0 0
63.6537032126497 7.90141498952809 -3.74912916515551 0 0
-211.385596557248 -22.6446085599885 19.7531585877167 0 0
-160.371801006392 -5.96120563476502 -22.3441287750534 0 0
43.7243509300771 -10.6434563614261 14.7387735406634 0 0
-210.244106105253 3.67147411802589 -4.12618626543819 0 0
-203.927328091402 6.4477546122754 -7.62415111546892 0 0
7.0826474105388 -1.89036506423333 -4.65935893049642 0 0
-120.451438378055 -7.6889194725095 -0.165292958714013 0 0
-201.255130284759 9.39153870029282 9.98230380314926 0 0
-213.798137067464 -28.2465933362116 20.1438391174263 0 0
73.809228393672 -12.6205908922612 4.17276807630253 0 0
-34.5910268954332 6.47481761171957 21.4839020305226 0 0
-171.806334811187 -6.5991336612916 7.45001990336195 0 0
87.600908142464 15.2487172833567 2.46189300968175 0 0
122.479052586382 -14.6576001619639 -2.51669022238417 0 0
-22.0794288741519 -7.51503737677537 15.4466020761017 0 0
76.3676125848484 -13.0746984796281 13.814381435432 0 0
-169.803487656494 21.9599725992965 -16.7701545790862 0 0
-211.588444345962 -28.8296700924221 -18.1753297059618 0 0
18.8794562313404 12.7624532368111 16.3858539053101 0 0
120.875435461247 2.49416423493495 21.4010875908962 0 0
-182.275289827711 -16.532931125686 -5.56826906655208 0 0
-47.8496467772472 5.24600592288363 -6.167245057393 0 0
-210.807483330938 29.6225883472464 -7.73250651645494 0 0
-101.509350312683 -5.77771172959972 -1.09423452842134 0 0
114.399841558313 -14.4479852506368 14.7960979363439 0 0
101.46865342042 -11.3494477579866 16.9398911663529 0 0
-37.306648209664 -5.99515692014147 16.5613084365313 0 0
43.9541190930499 -10.0873558060294 4.89750306522603 0 0
-213.958082327998 10.2545325165935 -25.5051917194641 0 0
34.3632488628135 3.49661216090368 -4.13722845723622 0 0
-20.2156025317669 -2.53973765731566 -4.29223646344031 0 0
-176.290548088098 -13.9978616765899 -10.2373484389896 0 0
57.696862948466 -5.31438910890128 20.0607476051726 0 0
-44.3031394895561 11.8568065863618 19.4648655962175 0 0
-190.825773573618 -5.6032924431912 -13.7012147324184 0 0
-176.60583145763 -6.65362823065777 -20.0496744480953 0 0
15.8102068382118 -0.904450992627451 21.6869378409389 0 0
-0.624523688029431 2.35529657436033 -5.3806101850761 0 0
-223.660692941405 -4.29257389049579 7.34065998341984 0 0
-120.257684672247 -6.79281109686759 6.83268496618199 0 0
-144.553934545412 -8.5443150499691 1.92136881728831 0 0
-217.240689173116 -4.56300932820014 -4.50951457177667 0 0
-28.0283641285883 -1.48900734618572 20.8138351950894 0 0
-234.734220640248 -30.1479986615762 -11.735066112046 0 0
126.637846066098 -4.23640675121712 19.8065702171254 0 0
-23.4306853193534 -6.95567085309528 5.35068110489125 0 0
10.9423008991328 14.108579612935 15.6734489225012 0 0
-118.092428552369 -5.57495292186441 -3.26671349550532 0 0
-204.287985610866 12.0044889676113 -10.646293892253 0 0
-109.764579284298 1.83404731087256 -8.97446766078468 0 0
56.4953594396852 14.1596723961974 8.81049776183252 0 0
131.727843560692 17.8289244614652 -3.9913873677236 1 0
-166.019981024497 4.45186647976977 -21.9268763255492 0 0
-207.565408647205 -9.43965290275855 12.3338522506677 0 0
49.3856308203352 -6.15030267671754 -3.07718619347403 0 0
28.6041991621471 12.473804225123 16.5061780124174 0 0
-44.9108617237407 3.49529926501472 21.4902682950722 0 0
-186.16332078747 7.55166700828958 7.04318442020806 0 0
1.72734566821361 -7.56500569830365 5.25071858630563 0 0
103.484834147626 5.31123082890594 -6.8130773718189 0 0
-140.587743395732 11.4510980967428 -16.8967662870171 0 0
-195.007858140211 26.6782083798636 5.99303935454403 0 0
99.3857175882024 14.8902012373477 -2.49516777244224 0 0
-155.146775477679 1.12354659628965 8.3846881167536 0 0
-162.958891525595 14.5805641767052 -19.5271944615001 0 0
38.4077732658263 -3.08725747361679 20.9970264650204 0 0
112.875763721525 -2.82637156544664 20.4707666397221 0 0
-218.346007046365 -43.5938331051185 6.01550244723807 0 0
-130.286172251796 10.8162653241015 11.5117971396857 0 0
95.0005491336973 14.2102597995772 -2.96402083600919 0 0
-218.194529420242 -36.5330406774571 -15.8857527821673 0 0
109.756179768536 -8.25849575910154 18.3684837251773 0 0
-229.206068393909 -6.74008231982915 6.65654738750865 0 0
54.686664808812 -8.75901326552423 -0.149132971707154 0 0
-134.084080566452 19.0010142354705 2.93655137964935 0 0
-190.119720164392 -8.8310463294047 7.31096540778554 0 0
77.1004449167512 -14.1501723564662 9.44542082211598 0 0
-78.3804769803179 14.2832249666958 15.9511788332161 0 0
-194.994554482624 5.05112538974148 -22.1540344034277 0 0
-62.0944318161741 12.7478921808436 18.1406548762597 0 0
105.28623783583 16.2331276455381 5.32623030918917 0 0
-204.907054525817 -33.910073705277 11.3488835329132 0 0
-74.6905988240516 16.1939731578382 -0.565823966753292 0 0
-204.403758343782 30.147156049707 0.912523022948427 0 0
-153.34806056908 18.5934733413966 -14.2028509500029 0 0
107.902651838685 -12.4056707818559 16.3409012133963 0 0
-233.411338359886 -36.636431421646 8.75871337621947 0 0
-62.1893838169512 -4.90251237427522 1.42498393761401 0 0
34.9977349244854 0.0109133831874484 21.7372354379944 0 0
-167.570933045526 7.53836553709515 -22.1668784468542 0 0
11.950691512897 -3.56522829191713 20.6576649525529 0 0
77.6008130201929 -2.73292306047439 -3.66425045589581 0 0
-178.861066221978 29.6048952702186 -7.86377627040334 0 0
-215.573680953238 -16.6030136355698 -18.4966104975738 0 0
-23.5239864062094 16.1195322139533 14.82426519606 0 0
-110.920685375892 -6.41941482270682 -1.48979179704371 0 0
-51.8883430173025 18.3055339359999 11.7074351380982 0 0
-203.396445886351 -3.94852062242703 -12.4276161845676 0 0
-190.512640309771 0.988065691205107 7.40250068264766 0 0
-129.891781797985 11.7139268571969 -14.2195268795059 0 0
-187.286612832567 0.659743877422011 7.75443247576606 0 0
-9.3738751372592 6.68577720189402 -2.72930939967116 0 0
-113.25601532275 18.5798727925615 7.3725010141334 0 0
-172.15563197147 8.77590748894262 6.52635408749562 0 0
-203.755222997292 -32.8385675647268 -9.52738413036991 0 0
-175.623619243404 4.02430688121776 -24.0450219746845 0 0
90.8952828921916 15.3532072005571 7.95549874424819 0 0
99.4611835478117 -1.81641754737917 -4.27340051274015 0 0
-214.257860002238 -12.3821435023329 -14.639082544787 0 0
-190.491584984615 33.3012510135063 1.59483432974133 0 0
7.85681306736844 0.345526022876884 -5.18416430023897 0 0
-97.5425854076574 0.38127193497402 15.8698895257249 0 0
24.7460817828235 5.81497308791384 -2.82673183489445 0 0
-27.6679352750046 6.9758751538478 21.4753347298504 0 0
-204.07878836238 -34.6591100892706 -8.51738129426953 0 0
39.853028844172 3.30414599402621 -4.20142339047312 0 0
69.0865633287229 5.15564079290782 21.2154716206198 0 0
-220.243261789856 -2.99560955721409 3.52965335298454 0 0
-134.701712855019 -6.51088644168618 6.53169311421496 0 0
83.4641034307949 14.9940021709333 2.25642562752271 0 0
-61.670689096425 3.91695008938441 -6.56569742631925 0 0
-10.8695455073209 -2.81483571861945 -4.14304632781063 0 0
97.7915585757463 15.7375135520016 2.46510575930616 0 0
-198.91894482413 -10.7530554864895 9.72218942133888 0 0
-143.078385488568 -7.96420884249923 4.20700494500688 0 0
-162.839378383466 -11.6123935711826 -3.14676825341502 0 0
60.2199794834781 -1.9958913960989 21.2567836194779 0 0
-157.541114909644 6.62260794924317 -19.2854800915361 0 0
52.606680492576 -9.0038843606929 0.681158155233797 0 0
41.1867475733331 14.1807571678883 9.31846367967621 0 0
77.9601648713271 -13.3076685394725 4.95964846588833 0 0
-92.0831672327361 11.1082396900092 -7.35549155102722 0 0
-52.5692657935123 15.6687169988067 16.5293867061539 0 0
-161.320382931867 2.04120460927266 -20.8212325807847 0 0
-131.30534308766 4.96397357751741 -12.4382666964781 0 0
40.0962962361776 -5.64271248746842 -2.87843652977651 0 0
-48.0949960205739 9.03222201800533 -3.25149021420049 0 0
-210.789031218481 -16.1530262765097 -16.5999468530815 0 0
93.9790186330627 -2.06510568589555 21.0436980843866 0 0
-199.237423557645 30.7713268490502 -18.0420014135945 0 0
-161.678551390646 -3.78554386044093 -22.4739539573249 0 0
-190.408912041928 33.3047557702229 -14.2370688518865 0 0
24.0423263556229 0.409800762728039 21.8867193253519 0 0
-211.253737499232 14.1318553148044 -9.6721841449023 0 0
-124.703129672414 16.2873194606251 8.28088121743761 0 0
-210.078015283122 -17.758115021672 -17.4028532708176 0 0
-189.198124362272 24.4784177176516 -22.8392142602658 0 0
-198.645707433683 -0.0270603756429396 8.38235577528359 0 0
-212.514049709953 -14.514969091597 -16.5835081737445 0 0
-98.6830758747146 19.4496507363733 7.93397781220286 0 0
12.6672383783728 11.6170515959105 0.783128622819722 0 0
121.277973185223 10.249238793084 19.8756477114976 0 0
65.0359340056989 2.68603553205681 21.7082344562174 0 0
-114.485148084124 -4.43024387863448 -3.91790016883494 0 0
-76.4558083534696 12.3118937053529 17.511590973307 0 0
-211.058499772556 11.2540487035908 2.62599948805406 0 0
-198.162304278094 -23.4233582537268 -6.46587095137644 0 0
100.537855391618 9.68657088736558 19.381697840489 0 0
-176.214030875107 9.93340649811407 6.22264843207673 0 0
-67.2348231633721 -2.8700987127253 17.0331097127788 0 0
-196.129599354971 8.00671241497798 -25.6263233300026 0 0
-202.423674094262 10.3905996033138 -25.7661410686102 0 0
118.103561181609 8.40176715880266 20.5669605549355 0 0
127.581156447658 12.022200473113 -9.36406925301506 0 0
1.51099019791674 4.98122323366776 21.8327859751773 0 0
-218.976520212669 -13.2407698465941 18.4124529854174 0 0
-207.487554587814 -16.8051399862537 14.5740022539338 0 0
-30.4221803386833 11.3798256662513 0.144417769617618 0 0
-105.716075391155 1.29973939924759 -7.69911346909156 0 0
-215.640316070197 18.2870998169263 0.0136367487507616 0 0
-173.400870148083 12.5805871797485 6.37732568803572 0 0
-177.026426163194 8.79633035114335 6.55821430707112 0 0
-215.616816346433 -35.4863909721384 17.1706412026384 0 0
11.5675986959488 -7.59573462222254 3.88403153307954 0 0
46.7970053154697 -0.936949314558421 21.5097006759919 0 0
103.662132130642 -9.23640010752313 18.0138214975951 0 0
-40.0611539766559 13.0717327312114 1.30239452169982 0 0
-116.263696291564 -8.13898363364848 4.25639782945674 0 0
39.0714843636287 13.1818247345005 2.64239092471426 0 0
-163.045252757072 18.950057687888 4.91750722860849 0 0
-198.036128427002 9.85320125582077 -26.1353939015056 0 0
9.30143391233951 -8.01868147632776 5.2212383795367 0 0
-232.470213409273 -38.8531099310949 6.47048391355893 0 0
-105.281281426978 7.10579725551475 -10.4560629361886 0 0
-216.968885909969 -4.31521118813659 9.66413581841022 0 0
-186.992923623037 22.7692109787586 5.17234728971374 0 0
89.841266051966 -0.976510925844513 21.2998270084307 0 0
20.9577162482674 -9.52357411779761 13.8638497409047 0 0
-35.5724891468451 17.9041214780685 10.7411775958249 0 0
-129.515437057337 -3.17145665774092 -7.68922932136977 0 0
-72.610996653465 -8.13276904931043 8.6487568813013 0 0
-54.6148486324381 16.338631659506 3.00671635381005 0 0
-209.94023263241 10.5804343447335 -6.33439871902143 0 0
-225.202945240578 -41.5834325921188 -5.18713215549569 0 0
-112.96238890789 15.0898344812256 -8.52218646149376 0 0
80.8072577345677 7.08427588405358 -5.09224719021463 0 0
21.2358961097899 -9.54097754001083 8.11498351609845 0 0
-117.259908815079 12.1181762530311 -11.1865614934852 0 0
111.124810876293 3.16699248972516 -6.19941977204965 0 0
-102.413303154364 18.9337492098316 -1.76356366725556 0 0
-13.4895115252866 -0.27360758302284 -5.44068681670009 0 0
-48.8368446698164 11.5253022468408 -1.1850455154492 0 0
-110.936952066438 11.93084264624 -9.92958112826902 0 0
74.3366254435695 -13.7408483468578 7.91684288911747 0 0
-145.485228407936 -6.75565140861826 -7.11780048038763 0 0
-224.593409416016 -6.28747129129763 -1.3557935176093 0 0
-208.064126765253 12.8891245031419 7.04844035696248 0 0
-110.224949105589 -4.42363653708466 -3.45387630182962 0 0
-195.451103129674 -5.03529585850739 -13.1203489353375 0 0
-11.7307248636096 -4.14265894704506 -1.23689335238232 0 0
-102.431685906198 17.4624890811899 -4.09585607214094 0 0
21.5954053384802 -7.11210004122002 1.83021283465433 0 0
-179.546571149358 6.52697708947937 -24.7110683510409 0 0
-22.7673373781016 3.14623136678186 21.8755821978277 0 0
-202.910565714779 -6.69443759578438 10.6074155066096 0 0
-59.1773531154425 16.3995754084409 15.1670297474884 0 0
-180.818955837727 29.4420605692597 -14.6486881222538 0 0
-215.014052878308 -9.7121437065955 -11.3191977949152 0 0
-163.791233527056 12.7309453080029 -20.4332492060761 0 0
-78.9315620175065 10.400815101283 -6.13042404644925 0 0
34.8728607446906 12.7658982271499 1.94665689132882 0 0
-126.917298937003 14.1546460443857 -12.2151285654505 0 0
-14.9144170986174 4.99451236660243 21.8472259582522 0 0
-201.255039549114 -10.5864432606972 10.0846815928761 0 0
-157.564983833391 12.54379341709 -19.0637705453954 0 0
-132.745630213469 -1.47622068202292 10.6732123561406 0 0
-211.375172204881 -10.829439585431 14.0987999653587 0 0
-200.608699017636 -21.5848526506037 9.13426632508586 0 0
-117.602795145469 19.5576350374512 -2.7992288631511 0 0
-202.181471257149 8.09816364298047 -22.2471268814902 0 0
60.9193291577697 14.3560843968827 5.66609874892678 0 0
-117.202615988182 14.6775195906916 -9.66200256886111 0 0
60.6288593953849 -10.8939882891268 15.8953295331703 0 0
-230.217328884599 -8.07057727787826 -5.87663786451372 0 0
-90.4658984143972 18.7884433586218 0.246297765796559 0 0
130.162706321958 15.4166550211011 -8.86456572575936 1 0
-187.316690933092 4.89062278589466 7.83918964837492 0 0
-5.95924462362043 10.7885179794847 19.8542396321058 0 0
97.1066555929221 5.77398387604863 21.3044473644599 0 0
-156.105799119429 20.0775288651018 -13.115201468512 0 0
86.0062585450687 4.7271238164982 21.4052265795753 0 0
-197.990659030501 -13.5853722159263 9.2106468402142 0 0
94.1460732539426 -1.64217630033365 -4.13949464499862 0 0
-141.05035176825 7.52413164729109 10.794091261185 0 0
-107.079451826648 -0.782454152799318 13.6042175918941 0 0
