"x" "y" "z" "f" "a"
-50.2792557547543 26.1346331222365 19.3895982433731 0 0
-183.227930944609 32.874137703166 -9.99708584759242 0 0
36.2734217453866 -4.41102947169482 13.6843362819573 0 0
-163.392984424568 -4.96077556796331 -19.6058951568483 0 0
-194.914816390807 30.8730916426328 -21.6359758608638 0 0
-238.712111535358 -19.5453752839257 22.0064415815429 0 0
-73.0776515167571 -0.36125369086129 0.813699386633624 0 0
-223.682488363394 36.701848090224 -5.74092783235483 0 0
-11.5640401684686 12.8899227811874 -0.129293747550631 0 0
-227.831701760065 24.8136313190614 -24.9542046082943 0 0
-160.864028492807 -2.65265466679187 -18.1084398723238 0 0
-208.947372359293 -33.6782002813217 12.3471602857858 0 0
96.3412992112685 3.75837002480171 -5.0702002152384 1 0
-13.0489767775891 27.5293072466042 14.5081717985534 0 0
-213.653595825776 -34.8150860141436 19.3978781285141 0 0
-218.924870194866 5.54613004008006 -10.9943453341892 0 0
-205.205573095855 21.6473371006626 8.0917731942924 0 0
-36.1899788289298 -1.20750910014676 16.7609804624356 0 0
-17.1093170540417 6.48788454372168 25.8188565105296 0 0
-187.692089605099 14.0614448232013 -25.5093748683387 0 0
-220.189616536753 -41.846296539981 -16.5352875680529 0 0
-127.930345841265 9.99398898991625 -12.5820036421205 0 0
4.63403245151783 12.2568021532431 0.113421477206306 0 0
-128.584981135767 28.5276367202845 -2.82575654791555 0 0
-228.550238548311 -11.940370591397 -11.3281360342287 0 0
-34.4537344321903 -1.84912998763962 4.70580143868864 0 0
-222.044426556706 37.6952837295878 -4.94724281159717 0 0
-5.9005175351497 15.2793178543918 1.1530376698494 0 0
-20.0981335345982 -2.3091397465282 6.16273817104677 0 0
-193.804476757887 37.1048903327439 -11.3370593349273 0 0
-208.967655890789 -28.417100547516 11.6252909155322 0 0
-142.152103551237 27.5137757543124 6.17514072114981 0 0
-221.590034614934 -46.5632211160319 20.8758662470268 0 0
53.3259646566044 -2.26380947766056 -1.53188223003603 0 0
-230.475299872859 -4.57399255578379 -3.70349161036585 0 0
-250.476586731361 -51.3438065730803 3.79517019203052 0 0
-239.599435107947 -7.77867570240033 3.849824025615 0 0
-64.4437023875814 -3.33810764411956 6.65393677809033 0 0
-29.5122815707558 8.64611086676267 -3.37092575710387 0 0
54.9990919769572 20.9940725266636 5.74589312816547 0 0
-128.920249682562 19.2064111667907 -13.0641270549697 0 0
-235.730381548624 -10.7446887126843 18.0231292026036 0 0
-7.2072227167387 3.29150926322921 24.2901713924924 0 0
-209.77991056545 38.3049545097471 -16.5810688982906 0 0
-24.3142813780254 27.5098981466018 11.8274695128632 0 0
-77.9484902926859 12.6722822505851 -8.4759516401279 0 0
-164.316386094627 -6.68095941569063 -6.16589455660495 0 0
-184.675765250837 -5.11233433154547 10.1803186084329 0 0
-219.622420433533 -16.1403433059208 -13.2437910348933 0 0
-229.731490857999 27.5090818301094 0.972040943083369 0 0
-137.259556586293 28.9297690044204 3.32838737464846 0 0
-112.052913675178 11.3224956373782 -11.0570186337367 0 0
-196.350090453552 1.94450501766649 -21.6139479108915 0 0
91.3871480113103 -8.29360913448303 11.2352594549218 0 0
51.0518851497111 23.0617347629784 8.76610809537777 0 0
-169.744876605489 2.59556025026244 10.1868666311884 0 0
-108.245436107452 28.4580113192388 1.54303273053473 0 0
-232.539215800391 -2.34693739379225 9.2974148807398 0 0
-253.610409665053 -36.9160389023971 -8.04344394505335 0 0
-193.422555997491 -7.45541428362238 -15.6455341101859 0 0
-94.217009646565 -3.96508648307414 4.40901219173155 0 0
-139.431597724904 27.9311886218519 5.83554733004607 0 0
-156.302984433481 28.9784087403807 2.5818403875346 0 0
-110.751091100402 22.8076972572428 -8.63739924741419 0 0
3.28638465989946 14.9326379777967 1.234063450376 0 0
-236.608796256253 -45.2405563004096 23.9913592271361 0 0
-207.612925030556 -37.9447878881819 -0.565971642056192 0 0
-85.7403413552326 27.9556800718048 5.08244314578924 0 0
-207.250796829544 8.91294302372545 -24.9608032819095 0 0
9.46871308419428 1.3605519218279 -3.41754685384407 0 0
-231.230167367752 25.1542597460213 -0.167030654975646 0 0
-185.430297480686 7.93657028225475 8.96413592023267 0 0
71.7484531163359 -6.02687767835008 9.66652244283465 0 0
81.7873480968295 13.5523098032098 25.3422138473348 0 0
-213.520482440354 21.6554169316042 11.5394211296831 0 0
21.3364154845993 -3.77379017551403 14.5915595988783 0 0
-235.79959144939 -7.2866061475389 0.120829740498915 0 0
-148.440673537995 5.08331305795785 10.9587943373201 0 0
-219.73638203366 33.9369471359838 -19.6063228019909 0 0
-240.751676882277 -18.9511896859523 20.8008699568581 0 0
-107.678487169731 5.66893899964629 -7.71511326133639 0 0
-230.437880104681 18.7087648503988 -5.21102501261276 0 0
-2.88254960504059 22.8605304570838 6.28373543461071 0 0
-212.411926603149 -38.9484220981365 16.4018985159279 0 0
-152.827007166051 -5.05545085047643 -4.92095169186226 0 0
68.6895415533907 15.6544090772214 1.12026676591446 0 0
-239.295554603605 -11.6099204841115 17.0864622381207 0 0
-181.955632337731 3.31345588709554 -25.4091552483234 0 0
-160.86264427901 11.3540575253854 9.23366830788212 0 0
-9.38965595466315 12.0256715919838 27.0971616118688 0 0
-224.656340093992 33.3294198539644 -15.6635339039124 0 0
-244.975099321119 -8.73067225480157 0.0745382042198913 0 0
-117.765606435166 21.5948532620447 -10.5329425847948 0 0
-137.97915152412 -5.58790813782018 4.66846780049744 0 0
-164.180527936928 14.3745981818039 -19.5651846431652 0 0
-208.598342364367 -27.356232329554 -3.3360730448629 0 0
-231.650799169595 -11.908905758481 19.6040879772141 0 0
-222.578384738201 17.0595583835636 12.9362020056787 0 0
7.181235168675 -1.95685308627658 4.83085207915314 0 0
-149.400462790666 16.55044307563 10.2880725587502 0 0
-182.403542565095 -10.4941890970188 7.21541422057735 0 0
-186.07035883645 7.70765575576996 -25.8686297922676 0 0
-97.737144296407 -3.2484349781956 10.3256143198748 0 0
-234.055284460956 -56.4358163449318 -0.516902179617314 0 0
-190.17657877633 -9.70987267990344 -18.0354295808903 0 0
-192.526255765046 23.8411974284218 5.57527151980622 0 0
-207.370631848718 -0.610874331044787 -15.7418872354644 0 0
0.0223490670416875 16.6322298590759 1.95507978274256 0 0
-6.59509406091055 -1.70976742831833 4.5382214678671 0 0
-211.498168230132 -39.6421775114133 -9.84621953407324 0 0
-231.014653287262 -7.99968554567274 -6.34670630405341 0 0
-105.932658552721 4.11533309529981 -6.05074994784127 0 0
-213.377695136449 -44.7968176612077 13.5168276965689 0 0
91.7293602838144 20.7450494126358 18.0218383849063 0 0
-155.554406225029 20.2717089175493 -16.6610101939244 0 0
-189.991087833053 -16.7372691469554 -1.80765534926936 0 0
-184.351245016395 -10.083802129969 -24.6953273274446 0 0
13.6113239501821 9.58186231478398 27.3243493763214 0 0
-98.1805795007354 8.28714161524736 -8.01495042302119 0 0
-8.80183391991231 7.93764782382893 -2.3358019750585 0 0
-250.365952475511 -34.9460854148933 18.6725917551557 0 0
-216.722095858634 31.005465808967 1.58227529515386 0 0
-231.255826733198 27.382024694753 -1.47623414340372 0 0
1.57451564464955 11.3164231544787 -0.354400478095275 0 0
-182.067490480655 8.54972420356615 -24.7710379449648 0 0
43.1870945238804 -3.02973632810163 4.15001364973424 0 0
-210.673894980606 -25.9690740264647 14.0726973450507 0 0
-248.487852693798 -53.3161167059373 5.50447469155303 0 0
-212.867496257128 -46.3633335207691 10.572244848692 0 0
-232.349842686945 -6.00645728685605 -2.10694677524269 0 0
-172.388052752484 -15.7726825568745 -16.7570420680996 0 0
-216.040989590655 16.5972432505645 -18.7294485942985 0 0
-249.489024095339 -45.9845700351107 -8.78485208574633 0 0
-218.689907110918 -53.067410107068 -3.5807868742433 0 0
-193.005444266576 33.7376495567299 -16.1732994601232 0 0
-187.484838199575 -1.35643896888978 -24.6169007447518 0 0
-163.271709059724 16.213312265165 8.01811623117763 0 0
-203.289168543332 -19.5941479077377 -7.28378143032409 0 0
-212.018005320222 3.99681305075153 -15.9016720787226 0 0
-15.1729285068433 27.1306181633819 17.5737679894395 0 0
-158.8352555413 -5.77531826791335 -5.46944801647266 0 0
-189.078669503009 22.9698992124376 -23.2861674633157 0 0
-59.6573054448719 -2.12348551534229 4.3896263227644 0 0
-206.41308598369 40.2587920597093 -3.48869650612586 0 0
41.3281497519357 24.6018475675693 15.4251671747191 0 0
-124.982641317302 14.4778842593493 15.0792181710217 0 0
-240.244639887091 -55.6030521214234 -6.76823796067914 0 0
-9.45180833171726 19.2361641859966 3.04872698578969 0 0
-221.60734358415 -30.0867362206398 -18.6018949359016 0 0
17.0455174412783 1.07458358773219 -3.83003443830789 0 0
-245.485886068426 -55.5221807585377 -0.406595057002965 0 0
-208.301029033288 4.48283233354626 10.9527298993112 0 0
-143.783312269931 20.8015021574254 -14.5969519360183 0 0
-243.085213779209 -56.4106666525711 -1.99770098156752 0 0
-226.991725815478 7.53648389371936 -2.53995132275591 0 0
-16.6438718624674 27.6566385414578 14.4761998304404 0 0
22.605730488534 6.0173535876948 26.9344922707213 0 0
-139.531124390396 19.6699398351648 11.2638395918764 0 0
-57.9804772225082 25.037613353333 3.72712114596858 0 0
-225.064440660841 31.1505194702306 1.49355522533002 0 0
-173.570163243771 -10.7255202000262 -10.3271459515387 0 0
-239.655546565866 -33.2566448317522 25.9712353508349 0 0
-33.4413641757792 3.18150063963749 -2.46756030341191 0 0
-255.670746416695 -29.5857569576345 -1.27401480329289 0 0
-185.726102686042 10.1795427598724 8.30670760681416 0 0
41.1222143739902 10.3807643808998 27.1168549750968 0 0
-233.676946503725 25.6652769777068 -4.58347372284881 0 0
-167.868930743264 20.9538648158178 -18.1300184112526 0 0
-122.76957698833 1.90340709340091 -6.70125294112944 0 0
-223.650752230116 18.3469680810109 -31.3133035404664 0 0
-1.76935649728996 25.4892655597002 9.53234096501785 0 0
-58.22545352368 28.4244189848058 11.695703561613 0 0
-14.8587327030016 7.0955236059879 -3.06598562868395 0 0
-106.722576860566 26.3660543294183 -3.8602669998802 0 0
20.7513644542824 3.44859570290227 25.9584743049091 0 0
-87.4384655185616 28.4200202109986 8.24817921889531 0 0
59.0114858287322 -5.28594774216734 10.5721446626953 0 0
-115.78685617754 28.3625353081618 -1.02972649605002 0 0
-176.32950115149 3.61380097231355 9.8204503031376 0 0
-174.910977955756 -16.6271390111945 -16.4997617677097 0 0
45.9180953160357 17.6155556598544 25.1812013053606 0 0
28.2539383571368 -0.248012098279943 -2.53067721564855 0 0
-6.41162101823059 20.7046419641036 4.2934562494322 0 0
-237.46212758009 -16.52898877046 -8.96282650080619 0 0
-45.3110025251841 23.8332087458298 3.92514301180675 0 0
-144.300673262856 0.427096879488937 -10.5024826623987 0 0
-131.754616052492 -4.18378728392492 0.045198066366168 0 0
-118.938949816245 26.6331232648142 -5.81287187422098 0 0
-229.088672757987 19.3304861585518 5.21255294495798 0 0
86.6825943329546 17.1682072614057 1.32569750031281 0 0
-57.2084169401011 7.64099654433331 -5.44233856869756 0 0
-160.665531182443 -7.27065259637182 5.3518756346561 0 0
-90.5799651341753 6.34372368248169 -6.52611349206178 0 0
50.0845243140734 22.2776709440655 20.4011686760643 0 0
-249.580165035892 -50.6832918569599 9.85968577800803 0 0
-236.825675633568 -57.1953236005847 9.54514769030767 0 0
-213.501569464198 -22.9080195892031 -9.52046591327488 0 0
7.24701779916882 24.5338193551644 8.7301223333205 0 0
-142.948490024835 1.3825426624784 10.4617830748756 0 0
-182.056113306669 -2.03044696107561 -26.3474998192274 0 0
-214.11149834927 12.4889510960548 -21.0124442835213 0 0
-217.913232255754 -35.2931076038606 -16.8002903530213 0 0
31.7594119985491 0.674974401723278 -4.36795122268225 0 0
29.7027218639896 15.7919078635752 2.11977984110842 0 0
-167.569509936671 30.0540604009479 -6.93224915744515 0 0
-221.811714270701 -25.4766887207502 -18.1362587548103 0 0
-148.019783948748 7.64443252680359 -15.7568418338977 0 0
-173.804252959901 10.6767348576855 -21.7601050712037 0 0
-95.1950350516038 27.4200140863201 0.910512837717476 0 0
-193.2626023045 -4.55451220125956 -18.1251387099482 0 0
-113.29509392005 1.79575678546466 13.034573768355 0 0
-198.939439407558 -16.8747579907698 -8.86339373050874 0 0
-163.065100776488 -6.90025337511661 6.39998060016389 0 0
-191.730687283782 -13.5646397598419 8.04713995982482 0 0
-218.604563425415 11.361704062871 -26.2932963986202 0 0
-245.607175835197 -9.99804986540968 -1.43478288285143 0 0
10.6088345054612 26.0935404149725 17.4020212996143 0 0
19.9797783474979 17.8495125720733 3.25714010223329 0 0
-43.8418485712785 25.9008954864901 6.35785844244006 0 0
-190.604924260009 29.837364298748 -19.5695973247274 0 0
-3.0843259119968 12.5613905700955 27.1542817887319 0 0
6.18051466313442 12.0073908146615 27.206029210369 0 0
-183.598124397589 -16.2324886450001 -16.9179919450464 0 0
-248.265783761834 -48.6804189862889 14.7863988605486 0 0
-233.972888732828 -22.3833994921592 24.3027138552104 0 0
48.2626020411613 17.8663289803666 3.16118901885836 0 0
-171.566144867929 30.8039710541531 -4.87779396440849 0 0
-226.050379855271 -17.7392739394794 21.7473317035647 0 0
-233.697280501965 -43.8723800020776 -18.6309651103762 0 0
-243.778324122211 -55.3087416582875 -4.03976304732941 0 0
-222.329325589194 -15.4771984237863 -14.0559598587217 0 0
-201.880569949295 -20.7872940566665 8.387596125508 0 0
-219.458085641815 -31.1501803571798 24.1064927239445 0 0
-208.150737694189 13.4536200839299 10.1386743072147 0 0
-60.3711337567831 27.0764881096409 17.2855389016113 0 0
-255.908097915325 -39.3603764114541 3.627850437133 0 0
51.1182807336492 -3.95419723489493 20.9867225872978 0 0
-21.163754686109 19.3309412648758 2.54798810972025 0 0
36.0734763005 13.0255412154014 0.710591018135971 0 0
-171.088528918152 27.8295688820709 3.8118279845833 0 0
-200.411531496975 -7.08008171567066 11.6118516475106 0 0
-225.780318162445 -43.2305693788345 -18.4398990591384 0 0
-150.402030551563 6.57374784137261 10.9337963932708 0 0
-95.175203347854 18.3859024105613 -8.70862784538824 0 0
-228.912721631964 -47.5827617538649 22.8030741144785 0 0
-228.134411608252 -1.89008247553756 -5.77330249196008 0 0
-26.9925142817181 -3.45027356118602 11.1431596537054 0 0
-180.892751731933 -1.76682109155245 10.9586465934272 0 0
-209.533676261105 32.7492914816563 -22.0854290633702 0 0
-237.732950277952 -18.2594787981708 -12.1475635240032 0 0
-201.898777350622 -24.2246539694186 -1.24336066149967 0 0
-224.565969006125 28.4261609484111 -24.038881632475 0 0
-198.271214706803 38.5611429387143 0.155240934654081 0 0
-248.083072950378 -52.3361729278197 9.6559128317663 0 0
-216.954661854834 -49.7249718806105 -7.34797104617085 0 0
-26.0849575058082 6.20001625753894 -3.95849396344613 0 0
-176.296387548178 -16.6789868298249 -15.1728932904992 0 0
-232.927816890659 13.4409737637891 -28.8413812607363 0 0
-227.841342385224 -57.1002905022137 8.02202298218733 0 0
-227.400574837975 16.8163410339709 -31.228454891342 0 0
-249.460162611667 -52.6433473865139 1.86229617956516 0 0
20.1412952692295 20.8132663526028 5.17482908729414 0 0
-226.554322371888 33.4010642296238 -1.20384952077633 0 0
-102.697287007149 23.4895216765129 -6.71847810640326 0 0
24.8622832653796 8.34708060122807 27.2750451605552 0 0
-249.687695281875 -38.4061203173719 19.017255316688 0 0
-188.591566891235 35.124893946077 -8.49197636101511 0 0
-94.5556552169972 28.3338220584246 7.1535501040064 0 0
-192.992354259057 -14.8412913118806 -10.869899702122 0 0
-195.808903791954 29.8630354521461 -23.233553582048 0 0
-185.447257322868 -12.7965112943075 5.70647462645144 0 0
77.6378294231451 22.4292873759071 10.7780408936014 0 0
-62.0210683619355 8.27198457539332 -5.95885328182993 0 0
3.81451164978696 -3.31084952952194 10.204743793959 0 0
-255.153920448171 -33.624420340204 -4.96931537224412 0 0
-190.400330081616 2.43864968271796 -25.2988708047173 0 0
-213.364721433845 -23.5604420965597 17.5080224369036 0 0
-231.862979816084 17.2202904815627 -9.43733211118752 0 0
-23.2749273174689 -0.555312575801007 18.3160869213604 0 0
-119.458392455006 9.68128814218887 16.006217132331 0 0
44.086319933903 -4.57070357976217 10.4303728194683 0 0
-200.527944803302 1.27090714175468 10.5195754157047 0 0
-131.294895194826 -5.04670830289263 2.21130520381346 0 0
-200.650712807252 -22.25140886045 -3.12233870916332 0 0
-186.275997151895 17.4515338468092 -24.0110088491748 0 0
-217.779824062655 -46.042247437631 18.306193846455 0 0
-203.465459009761 19.4400033493708 8.54778507779443 0 0
-14.142336180514 -3.23634130460621 11.7131947461662 0 0
-210.943874072216 -27.2286640281355 -5.49553843069326 0 0
-3.92756844254186 0.300687402626455 0.321049833742288 0 0
-160.998525663915 -7.48587413633943 -1.03362742777009 0 0
-205.640878052014 -12.0037661648927 13.0461979882111 0 0
-160.488735270509 1.82042995266315 -19.0437420643318 0 0
-221.223161354658 -4.98887746854925 -12.5946132591864 0 0
-216.9516146155 38.4731757593847 -12.1809194008983 0 0
-63.6105032930481 13.449568277537 -5.88189193676399 0 0
12.7573755197315 -0.0483807624002806 22.4584657144456 0 0
-248.904089967059 -20.6265069347171 -10.8123479637373 0 0
-96.8764793786095 6.17802299984955 -6.88260007420204 0 0
-108.463015098558 -4.20339917754176 3.37423343200596 0 0
93.9596655200756 -9.02965018070301 14.9126888541114 0 0
-11.1884581339697 5.97097791293865 25.8348513058541 0 0
47.4155763809904 -1.33345284446423 -2.76192110946058 0 0
-8.87650826367367 -2.25081539253033 15.9554649359005 0 0
-75.270725479821 5.11993236879402 19.2291782990395 0 0
-205.792818913302 -18.7585522831354 11.9504424349449 0 0
-234.151007492746 9.4404654492255 -22.9264592143317 0 0
-192.421400761172 1.33392817229342 -22.8332084240798 0 0
-224.139083479704 -53.3934062013409 -9.0551900637944 0 0
-215.745215392832 -23.7154659775901 17.8211256331421 0 0
-122.933913418569 -0.61149835829955 -4.10995786374582 0 0
96.9609583041315 7.35120352087486 -3.97823652072253 1 0
96.7108433700575 18.8519097129613 2.66692499642451 1 0
-101.240283363386 17.1165269137595 -9.95946357688999 0 0
-234.551534025526 -25.4920889488482 25.4980645084788 0 0
-211.638706553927 5.64365802560538 -16.9419539336422 0 0
-214.801847405759 -47.3909501524179 -7.5108938298501 0 0
-253.811808925988 -43.4756869861434 -3.16864362913891 0 0
81.7731073908458 4.00724275754434 26.1086688577048 0 0
-35.2714173075802 17.8325052194289 25.6875252742885 0 0
-224.207248669824 36.2669230720476 -3.16588997439444 0 0
-101.706169431118 5.7318237624217 -7.10920572535148 0 0
-123.486119833563 23.5975279926977 12.1083922425557 0 0
-241.477326146621 -57.5448376414428 2.9134898201461 0 0
-226.176429876717 -36.4175095086386 -20.5394840212641 0 0
-155.029092800384 0.476608934107257 9.95969422443133 0 0
30.4137648331914 -2.77614377502799 4.99820633534503 0 0
-113.362082875371 7.32033307693367 16.1092752217123 0 0
-61.8905295985732 27.9669841431202 14.8784006117947 0 0
-221.355204426307 -36.4493993780496 -18.7700327257792 0 0
-43.5562634013691 23.6345052664758 22.4618097759263 0 0
-162.82199976454 20.9803961655796 -17.5674344557398 0 0
-47.3727827067404 2.8281764425666 -1.28212392056462 0 0
-80.1679132207207 -4.02049554773172 6.41576587450166 0 0
-186.782712351313 2.3382073085895 10.4065945892617 0 0
100.017068229882 -9.6842958543492 13.6147441766187 1 0
-209.62090304991 -40.9441052237227 9.82178449240117 0 0
-139.006078332516 -2.25091943423618 -5.99008147125224 0 0
-148.376655776707 19.93730125954 -15.9983392543232 0 0
49.5057027899473 12.919367153063 0.503924368283242 0 0
-205.3402580037 -2.29418216777997 -15.505891246592 0 0
-211.498774209216 10.9730118970228 -26.8768805874068 0 0
-148.439868032994 12.0515108010935 -16.8712814866821 0 0
-17.2031531233392 2.75452821658056 -3.08583934523815 0 0
-213.029148611544 11.0897712955306 -16.9202904167267 0 0
-231.051337426799 19.4206705059873 1.07737813697547 0 0
-222.900656622525 10.7408902676377 -24.4192082215941 0 0
-216.618036426145 37.1255160890015 -1.9569452404606 0 0
89.3681082663644 6.52236044089969 -3.75896997585683 0 0
-58.594159967562 26.5405880637402 5.67735157179071 0 0
-177.323884733864 9.55629045601978 -23.1807187767974 0 0
-90.5504449682844 2.28711370826576 -2.87610860979742 0 0
-2.12631674792706 11.1150219152464 -0.500405201365445 0 0
-232.192085083492 -14.4820947424019 20.5422235016875 0 0
-165.660386305488 4.31599289031239 9.62729339029595 0 0
-214.085977773635 12.7053527484297 -17.2832491959265 0 0
-231.190464714144 11.7955416542907 -17.7278854134512 0 0
-246.595798630078 -49.5820464294794 15.744101479562 0 0
-16.5679304511742 18.0063545918614 26.1601995089023 0 0
-7.37992368060056 10.0876286370139 -1.22542064101519 0 0
72.131943356277 21.4122602914727 6.92923439811261 0 0
32.7335975971401 17.2958272000849 2.99782158352285 0 0
-230.479024916626 -10.8233612924593 -8.16981488728754 0 0
-195.561695684522 35.6801853996878 -15.9906342955617 0 0
-5.39436395556246 16.8908659380398 26.3703939908694 0 0
-110.378810357824 1.56973114204673 13.2663506991633 0 0
-221.293570411904 -32.8935123400296 -18.787316877118 0 0
9.47423771883354 -0.877419339597798 21.1100910838087 0 0
-7.25022152433787 22.191768428297 5.38792324387008 0 0
-216.159314178796 -40.1726394774516 19.997692764978 0 0
83.9580668393177 10.7048351785963 -2.02864204983307 0 0
-212.827980058119 10.5904949110356 -21.5764516373222 0 0
44.5317211463243 21.0016307368497 5.53609205965675 0 0
-79.0922501989082 27.6670881731912 5.15122326891072 0 0
-240.13287845008 -16.5524987306393 19.7369443765716 0 0
-228.31858613831 -55.1364959347809 13.7019474511143 0 0
17.7045482059183 1.88581602657805 24.7901855848422 0 0
-51.473721433169 26.7486465067254 6.85850804660073 0 0
61.815058410292 14.1896992467591 26.0162950296954 0 0
-63.8276523811461 5.0906053001143 20.3636131340204 0 0
-210.716039918675 -42.8065782252416 -5.42970348913392 0 0
86.9984339916065 -7.87774897517695 17.9139597853334 0 0
-218.447822359456 -26.5379080492518 -14.004367907317 0 0
-225.680693708833 -21.9086996910129 -17.5356401235609 0 0
4.82821972411559 25.651880903094 10.5513517808811 0 0
-211.759292083708 -36.579091772202 -2.63202265583698 0 0
-209.669235098841 34.4943080163185 -20.6306237479677 0 0
-132.649799823173 28.9821841865329 2.42005647092732 0 0
-84.5415719913466 26.2439870179947 15.7352048217073 0 0
-162.127474658455 -5.71400952487804 -15.1000683992239 0 0
-136.469775199654 -1.05242151613649 9.57725633588817 0 0
-215.14982574115 23.9817013243752 9.04514157592656 0 0
-7.91326594358316 3.46459782308863 -3.82630649118179 0 0
-236.263182926865 -5.66174025836326 5.77042443120392 0 0
-204.64256091564 10.6391853777797 9.85528793263403 0 0
-216.515543503263 8.14154684712541 -13.299478649612 0 0
-192.985439748048 14.1394727345676 8.39522180010831 0 0
-214.678226017316 -28.5095183223699 -8.90372047178707 0 0
98.4492195446012 -8.1188437604199 6.87748196682584 1 0
-143.405349447056 -5.11857871401603 -0.193926325838921 0 0
-82.057087935632 18.097135016556 21.5437098077031 0 0
-212.931188795804 -14.7027325454008 -11.7780135430814 0 0
21.0355085398835 25.5582273018632 17.2930428185045 0 0
-178.977400066027 16.4371770092519 6.23191278913624 0 0
-30.0857472962981 23.3683048156658 4.8608134961366 0 0
-183.392011111796 33.4586754103991 -5.56129919780834 0 0
-210.012023805658 -19.0674765737171 16.4335198527058 0 0
-68.164384716205 28.3803112993662 9.38026342789251 0 0
-214.16594662347 -25.0670371202224 17.0476343775911 0 0
-75.2643175017519 8.26367426389679 -6.41498541889541 0 0
-228.204049106724 17.1337701117113 5.88217316564472 0 0
-172.159007174332 2.33270994235713 10.4224205843165 0 0
18.6993486248846 3.15223033966675 -4.32048272110564 0 0
-119.763615205778 19.7179458999798 -11.5609186135148 0 0
-116.075844784151 23.1513321994978 13.6414904873188 0 0
-124.265539104251 28.8076193843248 2.91520091608342 0 0
-114.372547285661 -4.74416890166651 6.46830446360861 0 0
-210.899124231739 -38.1578142020669 -4.9449548158029 0 0
-179.126121747296 -2.80143963958451 10.7646639284784 0 0
29.0289202118029 11.3048177286012 -0.0854907111694154 0 0
88.3356735420448 -4.53189313669698 0.114570875074217 0 0
-21.8121007650451 20.8393212383972 25.0911718406995 0 0
-25.2394372482598 13.9584274635245 -0.567196316490354 0 0
-141.37019089609 -3.04656043915239 8.60568309834058 0 0
-211.94912892209 -6.19965436705341 14.1024663832048 0 0
-96.7671479009135 17.9352852003612 19.4155247522561 0 0
-134.882033879342 28.3714415759364 5.45321950554226 0 0
-195.845716490887 17.4752825925339 8.15042798805715 0 0
-120.640071500903 24.0418744343699 12.2746857346774 0 0
-7.34420281782122 19.388265269343 3.22966371693589 0 0
-247.11041056749 -54.5003214976235 0.329151536281773 0 0
-199.291230718165 -12.2023688898296 -11.0702728038607 0 0
-26.3978914185308 -2.95210968180203 13.8642261559263 0 0
-213.510542014336 12.0854433632043 -28.7195663558616 0 0
-228.542918637542 15.5435241814142 -31.3973982231309 0 0
-198.21578151944 20.8960923419661 -27.9871968147183 0 0
-240.550017985027 -44.9984922284899 -16.4504317011537 0 0
42.3276662585702 2.22805563176823 -4.43497190273555 0 0
-240.426385465783 -24.5832893314249 -18.9049866882164 0 0
-13.9614140837633 1.02212020250641 -0.27007963358211 0 0
-226.623907148328 6.89374937267656 4.95267341507488 0 0
30.5047576467435 -0.656671482044543 -1.53197118404063 0 0
41.4280386450221 -4.16027766418398 8.63260731595527 0 0
66.8341443830779 8.52134260577088 -2.05606549333401 0 0
-109.734128794376 -3.97784617316165 8.75229671557502 0 0
-201.940999308962 14.6241318876334 8.76247291833474 0 0
-179.231339069138 29.8989355117504 2.19829392420454 0 0
-213.863555871657 11.1342212339633 -23.6969284251929 0 0
-131.073363138727 28.8567821123461 -1.88514893608265 0 0
-212.675915582269 -36.6065624937559 17.6972002001955 0 0
-209.897594978477 -3.95674809609793 -13.7159459873652 0 0
-211.997773617419 -11.9585255505653 -11.9846670897644 0 0
-118.239703166031 17.3503344594085 -12.0975991923425 0 0
-19.8102627744311 7.37240059948169 -3.11819823061465 0 0
99.5479323050729 -5.59888278036564 0.605793428286797 1 0
73.8184514945255 0.642785239284585 25.4814390579451 0 0
-212.64399204514 -41.8986683100589 -9.57980092655319 0 0
-254.316010468117 -43.7652459611909 6.84431672579246 0 0
-224.330672941509 16.832390504588 -31.3454019193146 0 0
-157.6119836019 15.7890361459301 9.01361665190813 0 0
-199.397512127319 -21.2437970916476 6.26751576603379 0 0
1.64269252713879 -2.86987344819912 7.74060867057072 0 0
-127.253783497486 16.0403251839599 -14.3397913304701 0 0
-232.703060893174 26.3452385687642 -11.5225956301161 0 0
-20.1402502595976 -1.87053513287092 16.2423425610259 0 0
16.5222954974547 23.4192781146645 21.8728330993834 0 0
25.1430066008554 3.15088109867921 -4.2028994456914 0 0
-78.1651623619806 8.54434374776203 -6.48690895338967 0 0
-167.299430879659 1.71540400262268 -21.2644482560013 0 0
-25.148433980468 10.1025028220075 26.4634916462044 0 0
59.7250815351954 18.3597874220323 3.2340108281747 0 0
-221.305225406304 -31.8752392433135 24.8556160151563 0 0
-156.6445907988 29.5021898195017 -0.883555001206606 0 0
-62.8154020026491 19.983868367822 -1.72503102496391 0 0
-183.245048599088 28.7315089641495 3.43926964810739 0 0
-238.594804590058 -30.656655130277 26.1408173148959 0 0
-176.180409255875 -13.8569004554218 -25.8423750847572 0 0
-254.37377950053 -40.6928459657098 -4.38524605055364 0 0
-55.9893866300706 27.8174492309656 15.9052388842667 0 0
-103.765323920053 22.0436613038988 16.537393127607 0 0
-192.332763919065 -16.6740219008184 -8.34854511385509 0 0
75.0483710958382 -1.8077196203816 -3.82789456760509 0 0
81.668543069118 -2.37850470257005 -3.13773061292321 0 0
-237.817271071301 -56.2947972670039 6.2074576412527 0 0
-236.88963771902 18.6129729170114 -15.4877942706964 0 0
12.8219625288446 10.0929610945984 -0.655864862654711 0 0
-251.994297888097 -18.7324300367589 4.50543961128811 0 0
-176.360665123415 17.8927792750567 6.22815639319388 0 0
-147.921438202644 9.61082934196999 11.4029359241644 0 0
55.4372275619167 13.6250658713567 26.4378105595354 0 0
-250.080111893406 -23.7162453757021 16.245449882732 0 0
-18.4299552003355 23.0817446158759 5.412407953655 0 0
-154.065173465691 -6.08175838128225 -3.08204378321775 0 0
-232.820845834026 -55.3326236117499 1.16255397425103 0 0
-187.322374948388 18.0050171710624 6.67707855556943 0 0
70.9856713787607 -1.76116051702701 24.3894735622707 0 0
-190.062268782931 -6.51950888172534 -20.4176770189317 0 0
-177.215194633698 20.8293968122811 6.11642153482937 0 0
-62.8714837946811 23.8350773527902 20.9889116262138 0 0
-197.31294285598 24.9150241959988 -26.1127997118606 0 0
-70.3366742864577 1.41202286720731 16.8096258389895 0 0
-144.073012749859 -4.12929718544552 -3.02962237654954 0 0
50.0415498482396 4.1015113738322 -3.30932226368703 0 0
-19.1303731060734 17.6334245729699 1.70349723000642 0 0
-0.835483555439761 0.451681212866331 -0.303538575513357 0 0
-202.09218211484 34.4585214749292 -20.9885748279185 0 0
-224.311071900149 13.2514040784305 -8.7869454458683 0 0
-217.107271085599 -27.1092293179489 -12.1890322324858 0 0
-153.268421965885 14.3933091817267 9.97466515154153 0 0
6.33146091818737 20.6987001268555 24.8029500368415 0 0
45.0533465718269 10.9548333754728 -0.253480576711614 0 0
-83.789367270812 10.4377277794703 -7.94163558512734 0 0
-211.717353575959 -38.6860402636497 -8.84120044323796 0 0
58.1091634046296 -3.10233654400501 1.70575887167553 0 0
-243.538860006774 -8.71086433987768 1.99613899555671 0 0
-175.235628974342 23.1293130717446 6.08702776342303 0 0
66.9718757626765 22.3873832777547 8.823665711664 0 0
-164.737883373535 -2.47566830126672 -21.0270687658482 0 0
96.7729605906874 5.9073781726436 25.8643579298838 1 0
-220.690391436415 -54.6580560694022 8.2982780469453 0 0
84.8979864044961 7.93119019196421 -3.12277835726229 0 0
-149.342389530814 25.9277205768105 7.02175677972417 0 0
-70.5381363091348 28.4668836633044 10.1955559042139 0 0
-256.095863135218 -30.4867234300909 1.03094733670441 0 0
70.7700788155783 -6.33289116398405 12.6454565612499 0 0
-205.744713731126 -0.0842707862916418 11.0337286155288 0 0
-69.7025130708436 9.76372854030351 -7.1727941665078 0 0
-219.083416079565 8.0026654362618 11.197466092773 0 0
-28.3017744838268 4.95186590689073 -4.01743686332232 0 0
-177.192876758161 -10.460250736646 -26.5820408654119 0 0
40.4676035377997 7.10133331509417 27.1197034117999 0 0
-215.857840731607 -5.34221985046828 14.3454515555721 0 0
-93.7259444702879 1.86133573324702 -2.67988153974057 0 0
34.6766115896138 -4.09533887461296 9.97143417674979 0 0
85.304211165178 3.26677009695319 -4.50854915827484 0 0
-60.1054765925038 27.3193133885577 6.90626675343037 0 0
-93.9283453104297 25.1718151932846 -2.86974259088261 0 0
-70.9963587570294 0.934927247848237 -0.433435018314173 0 0
-40.0453308634298 28.257974227953 12.1706173817532 0 0
-237.321746915134 -12.9078124964658 18.6222884405578 0 0
-198.442104824572 39.901050265289 -11.383753732596 0 0
-215.772156368323 -29.1322680222924 18.377953525394 0 0
78.155988820531 -4.32702153493946 1.31764296978144 0 0
-154.113966797029 23.7566628585373 7.86158794985212 0 0
-162.684344562541 9.59042036449832 9.22473400736245 0 0
-245.624573180885 -21.8894498106167 19.7604152584729 0 0
-16.7769208414081 22.0121811699435 24.373718404811 0 0
-52.684419685222 4.61921988268009 -3.27275757489128 0 0
-169.166716352352 -8.20738185756873 5.0485555057719 0 0
-67.5118766435804 -3.27489840426387 11.9364430999996 0 0
-212.702669324167 24.7317167401126 -28.4481443609407 0 0
-178.304496160819 31.3817596253889 -0.780308283061988 0 0
-41.0062266505402 2.3103969003631 -0.881187137987036 0 0
-237.403789521987 -50.9200350019956 -13.1931589985759 0 0
-64.1079086384973 27.3036943748052 16.5402754572286 0 0
-190.22278497569 35.7867348166834 -9.49091765016179 0 0
-179.135936505215 -10.821671098357 -26.5163914760543 0 0
-219.259344244611 -19.3937307211005 -13.574775151331 0 0
-110.85990286244 6.00729572076716 15.7632435237265 0 0
-98.1950948478089 -1.66487994497198 0.51282541264035 0 0
-203.475914736093 -3.84096512910109 -15.0812144750566 0 0
-86.9954600748012 -3.69759924427826 4.60595781739096 0 0
-88.0183118618715 3.71498534328046 -3.94653873387272 0 0
72.0280159728093 -6.62453685654604 16.7790415853453 0 0
-68.1928138877527 5.8098150957464 20.4887688677707 0 0
-153.470911256589 6.17314879954047 10.5464404511413 0 0
-132.669869849533 5.45137753760192 -11.6847535522285 0 0
-178.213566324354 -17.5377118786788 -18.2637951059516 0 0
-225.498611785045 -56.5886193035569 8.27132555004912 0 0
-242.851221057076 -10.2575438133549 0.789798475565049 0 0
-219.560471160037 35.3828520113078 -17.6295536006184 0 0
-132.180442722882 10.0464183969653 14.0307515910248 0 0
27.654979899603 9.69640473439656 27.2435383140137 0 0
-6.09602157319685 23.8356666390336 6.98607588634653 0 0
-179.316439748209 9.9093386025127 7.71248492644097 0 0
-252.16011551212 -25.3977372903785 13.9727048641796 0 0
99.8794587110877 21.4019159326429 11.5735561972821 1 0
-48.9855153887399 19.752232792189 0.163318739278675 0 0
-225.977956396462 -52.7170956839725 17.0039959834928 0 0
-116.492333369337 0.712535561917361 -4.5357637799233 0 0
-156.151828639469 25.7554121759421 6.49925940204025 0 0
-255.866261864921 -38.5239215767237 5.74689776835425 0 0
88.7553776477881 7.34947546319712 26.0949859420232 0 0
-103.455381231183 7.70746987806653 17.5471116748438 0 0
-253.729893225346 -22.3921821983397 0.438533971624485 0 0
-16.497582496454 -1.99189928729022 5.29722944777618 0 0
-159.779233908963 -7.17436761087509 1.33024758999422 0 0
-228.756005733475 -56.1976049841508 11.20295480979 0 0
-228.246641295183 16.8315136329349 -1.0370762374867 0 0
-155.482731834246 -6.02588157315203 6.54478251366254 0 0
-173.248717842317 29.7975254095955 -10.9569721701741 0 0
-229.281439053396 -52.0126534031299 19.0001209481053 0 0
-154.860529354074 15.8981866822022 -18.6568353425085 0 0
-207.90707888377 5.7034559631677 -19.0102979925931 0 0
-218.884799628672 -28.2387260782019 -16.4417586167194 0 0
-229.304504084387 -56.6477245675756 -5.78319335691181 0 0
-231.488805012028 -25.3040457306363 -20.5405302236579 0 0
-186.515864023007 -14.5491512591102 -7.07793573065417 0 0
-229.647702284548 -27.0109241948588 26.0664470802154 0 0
-226.583203484415 20.9920154130605 -29.1774217875193 0 0
2.43686124060884 0.220954967652442 21.7254367834102 0 0
-152.277605292412 -1.69969597311335 -10.6761216037295 0 0
-178.29530082126 23.4473325650804 -18.9128030695811 0 0
-24.938911596627 27.0809753481622 18.1786710096029 0 0
-7.7182023914466 1.66272946237526 22.4677549749436 0 0
-3.83959984434824 2.2913755110498 -3.57560441957102 0 0
-222.03336059657 34.3116558756598 -17.2589395152418 0 0
-229.515787508755 9.83006085156462 -20.7476031126102 0 0
-175.664768388099 -7.40229103295954 7.95363353272564 0 0
-42.9996030071946 -2.31145279171006 14.8718044917444 0 0
-232.073674938346 -4.56200444560622 2.5009100137943 0 0
64.0815723850922 23.2398900137376 11.267078862678 0 0
34.5638290822921 14.590925320653 26.5931638235745 0 0
-59.5507081380927 13.3404382479744 -5.40170813835061 0 0
-217.320531378073 -45.7094797968036 -12.2265940241251 0 0
-213.039254785688 10.995769723719 -25.8875794636922 0 0
-218.681728393135 -4.11112441198853 -13.0339752142508 0 0
-223.643515273776 30.9026047445195 -21.2506854427805 0 0
-13.8581365115815 2.99805261057641 23.3292805610312 0 0
-161.177849877396 -7.44666375676361 3.47625666763093 0 0
2.8803342303537 5.80261074188248 26.4744814089 0 0
-78.4838533713673 2.35610608436635 -2.0029140534253 0 0
82.4529293250194 -0.321020184826237 25.1484102276412 0 0
-131.956462116054 27.9631619950166 6.49036679150243 0 0
-12.6268378569934 11.3866731664164 26.9955200024011 0 0
-245.457532996549 -48.9704438888575 -10.6062278660906 0 0
-90.857444877281 -3.45703075040137 3.75693482476356 0 0
-119.211407882466 14.1344505769198 -14.0502866687292 0 0
-190.307089532648 -0.680912647005668 -21.9228466085596 0 0
-190.655889330287 0.281605126168848 -23.963923433607 0 0
-229.201784765398 -25.9726224067466 -20.4581614292675 0 0
-253.886126356827 -45.3835862990871 1.47556164858734 0 0
-208.346809949374 -30.622671285545 2.84497337621786 0 0
-196.382819209069 -11.7308542872342 10.8683172022334 0 0
-12.4264511957608 21.9082329579328 4.81194292913924 0 0
0.991730623831377 -3.30683317522222 11.7175706922969 0 0
-199.618805936885 14.4934646100966 8.47998140130654 0 0
-210.586659805606 -39.1886385163622 -8.1852306038046 0 0
81.1319127595044 7.84594187146558 -2.98701280305193 0 0
-107.151559346596 -3.08843003239887 1.37000212017901 0 0
79.8429803419552 -6.68178252011307 9.41400776945127 0 0
84.4081270681938 -6.70513758091705 20.3528168599073 0 0
65.9826894099593 -3.02291649680611 -0.541469017275643 0 0
-160.994406244231 8.38341533166733 9.54369913576563 0 0
-16.4045059566557 24.6479595662843 7.19400253889171 0 0
-213.438954700507 40.2235140459613 -11.4203773570354 0 0
-172.006092745271 -16.2071331302636 -18.2879366010218 0 0
-211.57345107749 31.4532769577405 3.58189512204051 0 0
-229.921468003531 30.5165589114931 -9.7044406871755 0 0
-227.096240584765 1.26929026224908 -2.34652705507271 0 0
-153.274626004804 -5.79529475531845 -1.2177265570115 0 0
-16.4238511826733 15.847670116645 0.97907808228333 0 0
-107.157367581015 23.6760365504122 14.8993702831726 0 0
-226.892973238774 4.3825742028769 5.29693652102809 0 0
-209.847590775373 29.2530293723154 5.7305524655359 0 0
-183.050690807668 6.33378028425889 -25.3447756657049 0 0
-213.532993371076 38.4875076311135 -3.3701669990267 0 0
-212.365936013954 26.004042942285 7.2943778118486 0 0
15.50508864212 12.9442103496808 27.0939060483748 0 0
-216.784104318018 6.45014122872509 11.5973418960875 0 0
-36.0687405493628 14.8275033843103 -1.13147002172731 0 0
-230.518164569954 -44.4609805251177 -18.5019860521389 0 0
38.6218145651608 23.0573862512945 8.12030588855855 0 0
-92.4726122892278 0.400203319361405 -1.22356573299481 0 0
-170.57162431952 -8.61219488356321 -5.57605688690137 0 0
-167.810974398108 -12.3004709845327 -15.9123346631202 0 0
-212.51410663968 8.58700625780506 -15.0096117726958 0 0
8.123934422034 6.62362066404726 -2.69192828482413 0 0
-252.03473633855 -30.7128423559083 -10.861834880469 0 0
-88.0490657005405 2.06219713788808 15.6888360135466 0 0
-72.5052173241862 18.3547775726404 -4.57922072705743 0 0
25.4374031407062 13.4949281818736 0.927364218509327 0 0
-216.554056859314 -51.3866337949086 9.79468394009833 0 0
20.154756555507 25.9025844073591 13.9701258334051 0 0
-168.994728630253 -14.162140761191 -17.0724353750236 0 0
-10.7139678608643 20.9823713313586 4.2539915717227 0 0
-235.034680510954 -50.0918247444714 21.2942762274133 0 0
-3.09531773155382 15.045851893958 1.1724728075161 0 0
-83.8790136265482 22.8849057768232 -3.25088876670534 0 0
83.6047933785072 6.31136503381408 26.2654176170136 0 0
-164.5022763896 9.95767549225358 -19.6984517728909 0 0
-51.3210667547139 23.492229280697 22.1046345515595 0 0
-96.1877409133063 13.6908629486864 20.0634069707867 0 0
-183.177681571743 -15.6978071460591 -23.1010621350219 0 0
-156.63961062941 25.3730014800659 -13.0841029924266 0 0
61.3039935129666 16.0242529540194 1.63773180116666 0 0
-107.015802950042 13.4114186811489 18.3023417624388 0 0
14.6483944340219 7.35773917199626 -2.06320752751397 0 0
-60.1586977421604 5.97555499017634 -4.43758020379579 0 0
-230.165244242393 29.9171576222812 -5.14222523564265 0 0
-233.014367468378 13.0571932963111 -16.8859159178691 0 0
-59.4088111161793 22.4642029618379 22.3185542295 0 0
-253.055034546847 -22.200758207827 -2.18263372593187 0 0
-85.7158424482075 24.7721426967795 -1.54718478940786 0 0
-208.872637913179 -8.30259889818886 13.899028296297 0 0
34.3743136825635 0.394768302698468 -4.23545050380586 0 0
-31.4023111187377 3.69939387972306 -3.27941674863117 0 0
-229.672216505846 -9.2404155054154 -8.37625804721194 0 0
-168.637464118441 -10.9653751763132 -13.581982085319 0 0
-219.613681135431 -38.9207584958132 23.1869520584279 0 0
-30.3936715412386 15.9529028889312 26.2131473275866 0 0
13.1954902751066 13.9042748997189 0.992593176776834 0 0
-250.018982057321 -48.7018368373921 12.2099385339827 0 0
-138.069087532358 26.9356887988879 7.16337612865014 0 0
-234.092567923241 -54.445165201902 15.0741292221049 0 0
-66.9444777386812 -1.23944033261869 2.38468900284839 0 0
-149.350570153486 0.188307524447864 9.92280528722452 0 0
-193.901298005003 19.5210347848778 -26.6178506969871 0 0
-190.888103466619 27.1248099034409 4.36204017673625 0 0
-203.168861705857 12.0039091418913 9.48907481457558 0 0
-220.629601063384 32.0513806446292 -21.5992382359174 0 0
-175.168309130947 -10.2583230730322 1.67237422623806 0 0
-203.815013327649 39.8563596662086 -1.65526309389119 0 0
-134.951105961676 19.2903836794858 12.182266867186 0 0
-208.395459968843 -41.3004861137868 -0.0346200087514606 0 0
-74.8166647346088 -3.25598253676564 5.13536139765731 0 0
22.9526445168345 11.4616601055843 0.0207620748960834 0 0
-205.305327448409 30.766082326631 5.03095808963545 0 0
65.7874929262021 -3.98336188871016 2.59131119828429 0 0
-209.391173126666 -13.4629996869247 14.7185442590188 0 0
25.1942357495402 -3.41112601942882 8.02636967116752 0 0
-72.4008317653699 -3.24220340297397 5.49786033229721 0 0
-231.509758950666 -56.1226627266651 -0.632499981570258 0 0
62.0378964784727 -5.1859035709895 20.0192002974161 0 0
-195.851721073287 38.0437768923954 -11.923867157276 0 0
-182.610156004698 -9.70771590374268 -25.4636169148457 0 0
-167.740409027448 13.4195840438102 -19.9474596273809 0 0
-196.541934207324 34.7338408807568 -18.2899841672032 0 0
-116.683131583908 17.8820345494807 15.883049043324 0 0
-66.9428424939074 -3.77112319642245 8.28383548503663 0 0
38.122234921448 12.720453357929 26.9246683902284 0 0
-174.676520827725 -10.341169892326 -0.931085829085901 0 0
84.5447158527235 12.7592919050426 25.4842310729322 0 0
-0.803425056769205 26.4519034177801 11.7840648586068 0 0
-255.296937540314 -38.8198712184073 -2.75178481881772 0 0
-191.566431449901 -12.8371403247177 -12.6338214674223 0 0
-220.275653086202 8.67678133112145 -9.53924797573151 0 0
-214.078963075143 15.5777781288689 11.9365198422422 0 0
-216.152829254127 -25.671219672024 -11.0887024488867 0 0
-245.165891024058 -24.1071433506719 -16.211122616576 0 0
-63.4308701822768 10.5384861485461 -7.05817521908595 0 0
-131.677268059683 -3.34396544803291 8.46215237600641 0 0
87.9031193146809 -6.70348778898571 6.36814898831722 0 0
-44.0871709427068 8.81970417228661 -4.10989334632125 0 0
-6.86833654615711 19.3061810939922 25.652436368103 0 0
-128.926709390609 -1.50584850898444 -3.93411947621045 0 0
-113.137248847292 18.1157737294252 16.5117430029636 0 0
-141.144449031904 -5.70471749897023 4.3843333525843 0 0
-205.166081784252 5.7224364931858 -20.4504123119028 0 0
-16.5137034686177 20.4143289021437 3.47791159635815 0 0
-61.799499310401 0.601890194869866 0.352361207799759 0 0
-226.328334796292 5.51540830944178 6.99166903579639 0 0
-168.623345633169 10.1555737172155 -20.4194458988215 0 0
-207.92283993104 9.88131104416102 -26.7645785683524 0 0
-236.898636949244 13.9026190642726 -21.2493879259682 0 0
-228.813057561645 -40.1413483196246 -20.0938359085001 0 0
-205.894362713683 4.5478207597628 -18.7456563905244 0 0
-250.400929854498 -17.9533857985654 10.1505682973965 0 0
-165.537106013146 1.24431199600838 10.311518359579 0 0
-139.277142155014 -5.51146499893136 2.57683508310394 0 0
34.4674009761151 15.3001918005929 1.85151557405159 0 0
59.3175983384257 9.13614484483148 26.8048013576893 0 0
-201.220402903168 32.8788356123907 4.63406756288455 0 0
-150.727719145543 4.65744462036753 -15.9593459710928 0 0
72.4420593429274 4.15244484671679 26.2752522863692 0 0
-165.681203697976 -11.0403227850483 -18.3935559735569 0 0
-209.032715242873 32.6310631610899 3.15028455495939 0 0
-176.999920220636 -4.71779128942187 10.3312087066802 0 0
-106.024064809652 -0.738479452169686 -1.29713635916137 0 0
59.8559805719015 15.5032623183052 25.5980943058407 0 0
-58.7262732514862 18.8315643834081 23.9225757464015 0 0
-162.647254464371 8.8323767431543 -19.3750153801562 0 0
-220.292141059963 24.5446242501841 6.54382782543566 0 0
-254.594320461708 -24.8067863620202 -0.210425206887057 0 0
-212.271373005636 -29.1324401018249 15.3929270806234 0 0
18.8892604799322 21.9864072563437 23.193499012431 0 0
-134.443001473615 17.8263686341379 -15.077616233355 0 0
-215.529902599118 6.99021065088583 -14.4354245309156 0 0
-156.418556513793 17.796268978353 -18.1578785201811 0 0
-227.443236365332 15.7184193060871 -2.68953484438415 0 0
8.46468255429182 3.53331550277349 25.4900013636011 0 0
57.4317124974118 23.3556266395221 10.3490355575102 0 0
42.1655948757744 22.5287816217655 7.52877088339783 0 0
-214.292725730267 -47.1457662310773 12.5612045939029 0 0
-242.439867474574 -26.8462865865266 -18.6195524170748 0 0
-226.848199516643 9.47481098681949 -26.5778649104277 0 0
-116.8869029355 -1.69771549873219 10.3361739557284 0 0
-225.744635366856 21.6642375382284 7.25469353173944 0 0
-224.045009971885 -35.0252817663116 -18.6264781233649 0 0
-97.353819689117 11.6039013145381 -9.75321331742289 0 0
-214.013963545384 2.15770789829749 -14.3615620451391 0 0
38.94753745106 21.7648170996291 22.2010701634186 0 0
-87.0499455402363 11.5356602691009 21.2565522269772 0 0
-64.8983412836397 8.65138502233715 -6.54351028025389 0 0
72.9384110520957 -3.02456479322439 0.901281543481307 0 0
-17.5519222713585 14.4232473320125 26.7180471402314 0 0
20.8367101882319 -3.75066604017096 11.4899614837134 0 0
-67.6932884460529 7.83552907348855 22.2186918943618 0 0
-201.648502403304 30.5789361657391 -24.2649369020678 0 0
-131.770753456734 16.6186488452788 -15.0708877928861 0 0
-63.2067228634753 10.1778519584424 23.8477812207136 0 0
-132.185949219381 25.9334647756366 -8.69431048198187 0 0
-231.928249878333 -50.8955285236282 20.7062642938768 0 0
-116.620415933588 1.38124582602879 12.3944969564974 0 0
-127.991044005152 6.30988650499394 13.8397764714582 0 0
-186.938266287451 33.3258846583239 -12.0195044598279 0 0
-236.037011997587 13.126004349248 -24.9387282418275 0 0
13.402147663456 22.7527790959276 22.8400852154852 0 0
-222.404510929005 28.741953154994 -24.7131136356587 0 0
-177.377459507687 -17.405935125595 -16.5858497760181 0 0
-38.1275965931556 -3.35598113334538 11.7138811987731 0 0
-120.472724699257 15.0761620807497 15.8824279651043 0 0
-222.77435492378 -3.21847000413861 -10.8146727027694 0 0
95.4706738667168 0.435741798235949 -4.38714348107084 0 0
-51.6792012139463 11.3427901186827 -5.50195574025445 0 0
-158.620316579018 27.6702177878421 4.72337385588617 0 0
-165.512422372824 -7.5875982079633 -13.2795174446385 0 0
84.9985434311063 22.0369951905977 15.2415937433954 0 0
-173.184101693918 4.91135601727344 9.34364510326762 0 0
-212.385057043793 -14.6702099777342 17.8410985553146 0 0
-146.201198072674 28.2639066201879 -6.439778574027 0 0
-163.29835478196 3.02773116543482 9.83457970579854 0 0
-214.751399025475 39.2572309936162 -12.9625950100313 0 0
-135.646959941026 25.1229343065936 -10.1277383857953 0 0
72.0897337741965 -4.91966614298806 4.19113375928797 0 0
-236.224739446968 -41.6866531441 25.5684028132221 0 0
-135.409858471868 29.1619054710002 1.24186607622443 0 0
-221.043242379754 -39.8796358852982 -17.7584423370058 0 0
-125.379699726962 0.743440933743638 11.0226013584617 0 0
-198.748951109592 8.95926385597812 -28.5717397140284 0 0
-200.547056824785 20.5192650097723 -29.2291275053289 0 0
-109.337144492758 -4.73849969107622 5.67999575991649 0 0
-247.373947030354 -15.6546298124803 13.644613153249 0 0
-28.5897582232313 20.1426633522431 2.55709539115407 0 0
-111.293078737104 3.59025423282771 14.4167373871626 0 0
