"x" "y" "z" "f" "a"
138.482899182088 14.5219406565948 -19.0710701689243 0 0
224.606425499953 -26.4786703661398 4.62076185770288 0 0
186.027822731365 -8.7552481352245 13.5574075910248 0 0
154.26491885398 8.73000037414962 10.3816521568221 0 0
-5.01410208889825 14.882350299373 -4.09586081942136 0 0
216.892687121523 22.6187389761991 -1.84994378764448 0 0
200.475335185993 -21.8483999299306 30.0331598638002 0 0
198.642341331018 30.6278113062091 25.2541038145776 0 0
93.2792869199916 7.21903063927231 -22.8030974867363 0 0
155.00555780139 -1.31857064075602 -20.1924549278279 0 0
169.509752079101 -21.9052191397241 -6.26694248783524 0 0
116.951823350818 18.6161641404806 -7.40312343046104 0 0
206.406779230386 18.58967255779 33.4108328867627 0 0
173.375980794748 -6.37168981716502 9.92579659053357 0 0
209.100024131084 -41.0442361751862 3.0231380639846 0 0
220.605574002234 -41.1829178367653 17.0944904776947 0 0
212.32105076614 -21.4744737174566 -16.460645000853 0 0
138.336430201965 19.1508897100871 -10.166143653489 0 0
69.4487388413849 10.578463550092 -23.0944680562587 0 0
207.245855716513 -25.7760088826353 -13.7922157077458 0 0
202.383745832214 33.6549949369987 10.4737792661018 0 0
12.6095168716871 1.12530895112953 -25.3049013697316 0 0
76.2802515799614 17.0164287548881 -18.5458628818048 0 0
93.7309771347319 -6.35351093705969 -5.89238658672721 0 0
132.854400824433 -10.264509429442 -3.73901288425147 0 0
60.9135978844125 18.8911344536531 -8.95869218550147 0 0
217.991861976432 -41.5532213287634 22.5509745651784 0 0
205.219392722733 -41.5553395081178 5.92390422818164 0 0
9.02572948529647 -5.03981559726628 -18.9017465380462 0 0
17.7576966098245 3.51884526224408 -25.6074643078445 0 0
150.424569125663 14.3710195259405 -19.3203526151686 0 0
201.751015045827 -0.810884449566474 16.9851095383848 0 0
157.06263059493 -14.6633183408351 1.80759537505112 0 0
210.383156658712 -20.4516380100975 -17.4268254889715 0 0
3.36662160215112 11.4946492775952 -1.95249452119592 0 0
204.258596119704 -18.0375660016028 28.1456954638842 0 0
183.506185868624 21.6389678797588 25.4665087451373 0 0
83.7536415922743 -5.29616180634695 -4.10635414290195 0 0
209.087671392898 16.0457100230973 -13.9867136409519 0 0
63.5084814221818 2.96411945603303 -24.7260323177548 0 0
184.172578015894 -33.7674894616991 9.59756151674942 0 0
38.7965778897843 8.57597364546504 0.590528474735906 0 0
-91.1616358875406 16.0331494095501 6.97999088893323 1 0
191.668637912943 -24.1078798839491 -15.2133959171671 0 0
168.831632999096 3.81185993451118 10.9483178511018 0 0
186.871244198297 23.0454979120591 31.911184095866 0 0
114.455543181667 4.10351640813234 6.92411458614997 0 0
-86.3672689509013 6.97162293082898 -19.1162833927346 1 0
-57.6734423357933 5.42437465051126 -22.5521724716272 0 0
-28.6485135895219 -5.01363883573597 -14.5807795021339 0 0
213.601529637216 5.72510940832661 -6.05902784204885 0 0
154.075561394277 16.4292014647965 5.22594442614119 0 0
166.546794640577 -16.7271079517497 5.69908432027279 0 0
-0.881031033205616 8.12537773905691 0.668502925942514 0 0
77.2473001673742 14.8747822089406 -20.334192876357 0 0
63.6715776225069 -0.944910851733318 2.20924688955895 0 0
96.7580550426037 -2.73151022302835 2.75946136688764 0 0
211.444199685447 -18.5268713733933 25.3305109400916 0 0
182.085327856558 26.5266050731969 2.08444546052916 0 0
-72.8459894303537 1.51609304077476 6.01308149936454 0 0
181.620631442042 26.3552076754974 4.16703518025186 0 0
189.212471678111 -4.06907473281054 -18.9043734403041 0 0
-8.87506460007188 3.26691695253206 4.74855702137453 0 0
176.087530272291 -25.5231932421571 -1.62340208314559 0 0
64.8860961164054 9.12652626595099 -23.7783187064901 0 0
132.143883973946 16.6319345543151 0.285994041787371 0 0
200.123215635365 -33.6932653150199 -9.1382290736473 0 0
92.5272475650895 15.1810919500262 -1.95655813596045 0 0
191.757404001372 -26.5041770201103 24.8993750762959 0 0
-39.7421034652092 8.76722662625397 -23.9047808668876 0 0
214.662920127661 -2.30847015553963 -6.73272476911576 0 0
-17.6009745363443 15.7405709882807 -3.93022396750525 0 0
47.6591480732901 -5.2769868797429 -21.7789957039536 0 0
19.4710933014988 0.154603619204692 3.13769897419108 0 0
167.554720555766 -20.6896292080039 -8.113141015928 0 0
99.1509393426047 18.7014179357401 -13.2088157962232 0 0
8.73338539162894 -4.07521048347399 -3.40916053949038 0 0
214.766041038367 13.6787834327247 19.7133713634371 0 0
85.6207042056171 -4.74059651614999 -1.83299810069077 0 0
66.4261054735772 4.29937772675443 -24.5257567448443 0 0
206.055327248825 -25.2727282833344 32.6016646873305 0 0
179.590914910967 23.6354366261515 -11.3952100382598 0 0
164.031080767462 -6.85556327809001 -18.7346168719017 0 0
184.498360350624 -21.2487928506921 -15.6945229266737 0 0
15.0169966506055 16.4999215090346 -21.7253421776547 0 0
109.640087689891 5.13646781679449 6.72423615540925 0 0
172.288820831279 -21.2614666988956 -10.2197180819527 0 0
84.3664042502009 9.3473770597079 -22.6751114878556 0 0
183.686872159395 -26.2308940577095 -10.7759271204706 0 0
143.997351065373 7.0845587873397 -21.4152881792032 0 0
210.83341430745 30.8870485290337 31.9754275818924 0 0
136.787297061366 11.8462795481427 -20.6086479490099 0 0
-91.0832868315211 -3.8868586690058 3.47234951230078 1 0
208.645211252526 -26.3496984533876 -13.0347230201807 0 0
192.273932068617 -17.3729694988904 -20.1590155405861 0 0
-47.5231246323373 -0.315045980106723 3.5167649093138 0 0
204.11265882562 -34.8031948632088 33.0293556489725 0 0
-44.5598398361447 16.9532545221126 -1.64986895173758 0 0
187.079731450137 25.8475967358448 29.6042074163758 0 0
-5.74044114547786 1.4127624255658 -25.0166210960669 0 0
202.635430823779 -13.8946565661319 -22.4535525407104 0 0
28.0683543234558 15.5725445605034 -21.7530746479194 0 0
-10.7270361303722 6.83357963126606 2.28931418311364 0 0
185.559562323401 17.3033991587434 31.7583207575019 0 0
198.959561270918 -40.1181354710728 30.3167955043884 0 0
158.148449997924 0.189974797670572 -20.0801221187597 0 0
218.423282310352 -20.4781388196341 -13.2566551326699 0 0
192.550921241502 31.039915494993 26.2102957128718 0 0
-77.7837519460912 -5.1780019244094 -0.878671986363923 0 0
207.289586293283 -18.7946060726545 -18.3324184900252 0 0
218.426989119144 26.2949874527759 8.50072925926554 0 0
203.824044456434 -1.5480121656231 -15.8822914507975 0 0
220.644881902007 -26.7740924018058 20.7054374606384 0 0
179.474434299574 -11.7820054924143 11.8009949769909 0 0
-57.1917747571376 -1.32664251138699 -17.8621791978824 0 0
-8.52293762927676 20.8995559920135 -9.75874024214831 0 0
210.710547667757 22.3913572914913 31.2316773978631 0 0
197.014407295754 -42.2066171102319 10.6428667694312 0 0
-36.3985955356089 8.44978555355361 -24.2216691907947 0 0
54.5552014280432 11.7021968797757 -23.1789748143653 0 0
-79.0313798881365 20.6184069461799 2.16731202973825 0 0
178.262391441294 10.6425740768238 -20.1063826126841 0 0
35.1004052598842 10.8318581977502 -1.15035386134874 0 0
218.680918388179 -11.6739053304912 3.77474586357789 0 0
130.893798809622 -3.77168991918773 5.24672853964334 0 0
168.500226773164 20.4864486055581 -9.44892726066237 0 0
196.213489270307 -41.0919521708684 20.1205650459644 0 0
189.70064057702 4.71647563219126 20.168394409715 0 0
178.184334871598 21.7522518877907 -15.7925021321822 0 0
91.6397518503619 1.24371807336073 5.44247815356276 0 0
180.862010798557 8.34819169361428 16.3706007667015 0 0
199.936206747851 -33.701689963317 32.2568186464908 0 0
117.338093715845 10.7670013308586 5.30735715179445 0 0
203.126245722753 0.268000292482982 17.6678222951171 0 0
182.988405093847 -21.4519031354373 -14.9688945963136 0 0
39.5923841823296 -1.55307889655986 1.57034611112523 0 0
200.921761207855 -16.9549453594569 26.1902068520848 0 0
-21.0759940602451 14.7025214379437 -2.93424207192728 0 0
119.020894857331 1.02984844616707 -22.3578126703775 0 0
175.810190497953 20.6513415157633 -15.741297299517 0 0
218.042111960054 29.1457330417136 15.1764574720517 0 0
195.607317757701 28.3501013716333 32.213612612678 0 0
182.995491763672 27.3544485420331 17.0302225323982 0 0
203.203831409094 5.15894985102292 -15.6390255631622 0 0
161.480421703866 -14.6608808540741 4.77823345806496 0 0
195.573607107593 33.6000623919919 21.4939086374292 0 0
193.90000681894 -36.73652512476 -5.3736860615986 0 0
224.547091534248 -35.6370904011671 11.6275862541582 0 0
91.1631455154845 9.46741048632555 -22.3625347172771 0 0
156.712214365134 -9.8868468085463 -18.0256119884212 0 0
208.997130657584 -36.1432987455639 -5.013514601837 0 0
-37.2014504747067 2.83358714910866 -23.7199142210397 0 0
-29.9992682866236 -1.68324147733901 0.64751087454982 0 0
148.584844236997 -2.38925110668704 -20.451525597286 0 0
206.901656792329 -21.4715350120879 -17.0254496106914 0 0
221.655137967203 -40.193493663094 12.8329758722285 0 0
-32.2753198683802 19.3763805322494 -19.2485952574302 0 0
79.8527123033339 19.2474592967482 -12.2353031134 0 0
196.290096404687 -32.8822143870459 -9.52192360491736 0 0
-74.6886729033661 12.9216080724596 -19.3113245329932 0 0
9.71832539883661 21.7578294110674 -13.829946255651 0 0
179.551486864856 4.78681375487955 -18.5044077005907 0 0
-50.6021820621203 18.1629046803078 -18.7599884104629 0 0
209.369847758303 -17.1165971884205 18.8364539866409 0 0
183.944707630162 -35.7386635653363 9.28536113509676 0 0
11.2201204632224 15.3183663390555 -4.84807556308756 0 0
174.76616449821 -8.16816880908825 10.7162039318038 0 0
126.790362412284 13.8917714503776 3.20788973760948 0 0
207.989129251316 29.8310179328245 -5.15899797238144 0 0
165.187014471232 -17.5253506908397 -12.7326804156092 0 0
202.790780214142 30.7533531769674 27.2274451531611 0 0
105.922179457375 14.3807240750849 -19.5115515093707 0 0
220.966748310353 -33.6872221611163 21.3459232890853 0 0
219.708154345118 -11.4678879244146 -3.45929095049559 0 0
13.9589551665444 19.2069634443486 -8.16427822777475 0 0
-81.4753881938423 4.8148009623684 -19.4891335692687 0 0
-25.2686275000715 19.637671176383 -19.208257572145 0 0
85.9272633281159 10.9320430188527 -22.1210776527555 0 0
201.184153384661 33.5879759404929 18.5758329729517 0 0
191.406627961676 28.5151633290758 -8.86275673243953 0 0
-38.4695564751102 1.00934914753708 3.80497332368637 0 0
198.303400452839 10.0123742540011 -19.1925965275287 0 0
-28.6341222700172 -0.476209887808848 2.08077890656361 0 0
194.683226842598 -35.3200903723552 -7.38337772614712 0 0
0.966420860459999 10.3825119323348 -1.06277838131842 0 0
188.988783836027 -12.6176800630764 -21.2507826077693 0 0
208.04190433373 -41.9157680045693 8.18937898624802 0 0
57.9881252490607 7.43697244018897 2.30944236283122 0 0
-13.6109649768913 -4.06365683663501 -18.2724641761806 0 0
185.517198617733 -25.4529139245195 -12.3073657082219 0 0
184.132203351819 -27.683085163131 11.1338531382461 0 0
176.323736821659 16.5428154284872 -20.253161277032 0 0
195.381826258989 -41.8145203179198 3.10515433205532 0 0
184.633122373282 27.1662448738052 -4.89652667287591 0 0
196.818671913096 -14.5319085683801 17.6040695837548 0 0
216.291032803828 -28.4587027857581 -10.2095870669269 0 0
185.789050985456 -20.983595080176 -16.5431680783435 0 0
22.348289944848 -3.13211009739855 -23.1403773442981 0 0
202.391697665526 -17.1442120557642 -20.181779972372 0 0
25.4242680409066 -3.21561541203206 -23.1724481793201 0 0
200.042590257565 1.05757507596469 -17.6163739301029 0 0
197.751966399066 -37.8129581651054 30.2808816046898 0 0
114.554812376828 -5.88925757056616 0.338682528961159 0 0
146.875657056846 -15.0529441254016 -12.0883850076175 0 0
130.081834225359 -2.13480078827549 -21.4823503567184 0 0
75.0604896405747 17.4101403849265 -6.0262644111539 0 0
199.858812638266 -3.98869326790838 16.0006631835126 0 0
211.232539769309 25.3642598008614 31.844466792034 0 0
102.689172186744 -3.75097311053759 2.03612909390992 0 0
-79.4424248677706 10.9541638005454 6.7866707173012 0 0
185.205249423166 26.2443297378411 -10.2351664653723 0 0
54.8727790604364 -7.04671084735305 -17.7598689843425 0 0
191.999640279767 30.4489458333057 -2.4026794704445 0 0
12.0408890497667 -5.51988987185197 -9.66154326340838 0 0
63.4023976967786 12.8417215629195 -1.49567444704178 0 0
196.29292248841 -21.997707530431 -17.1702869688324 0 0
-1.59250229341946 4.86292877966405 -25.5880849364412 0 0
199.004315002843 34.3613815784643 11.9928689919877 0 0
28.9266405332727 10.2475416488029 -0.929585412831541 0 0
199.90825206891 -8.02565448980495 -21.0149526031881 0 0
167.195876437358 17.508169757544 11.8496538680684 0 0
99.3080737717102 -7.84141477892032 -8.8582399785988 0 0
-67.2486083232486 5.90036137745122 -21.5500195868217 0 0
158.602625444828 0.729606923905391 8.96220313413497 0 0
218.903341095297 -37.0038263185898 0.727614695314898 0 0
143.409137711021 -12.5034362516214 -3.46652078135715 0 0
146.598199365255 -1.76103569120258 7.3562888458344 0 0
207.43131911137 -1.80806132733037 15.5972613756343 0 0
-56.4858547037108 8.55461855780154 -22.5374860521083 0 0
-13.8585830203483 20.7410765190595 -18.279876923611 0 0
176.415888023167 23.3414728210352 -0.319040044432102 0 0
193.11074710872 -36.8824971669388 25.3471018857621 0 0
94.077128579508 10.0351695549635 3.05190756501879 0 0
140.510432249996 18.2153837903706 -1.73347902059986 0 0
217.76724244832 -22.2980998272577 22.7843437852361 0 0
210.668242656604 -16.9430434888264 21.397836116484 0 0
-66.5750536698533 22.8669233928432 -6.57361387379047 0 0
175.367958536065 -19.2956840401284 8.11447891861812 0 0
205.3981055442 -30.3455438635655 -10.5504193325507 0 0
82.4902363619296 18.6392977548156 -15.4219049035959 0 0
183.896132354967 27.8010671741553 19.275636691322 0 0
-33.79367983031 20.9367487919618 -7.45053749746232 0 0
165.565988811636 20.170658634861 -3.43934653269653 0 0
162.706409724234 -10.9610858382902 6.31466183612059 0 0
142.365824529239 14.2032204461571 6.03775715847199 0 0
171.945970103993 -16.9305713304957 8.18161619602626 0 0
31.6705191593074 10.2349883298954 -24.2599604518832 0 0
-12.5361717178705 10.1349758511916 -0.349852665167129 0 0
210.819989055778 -11.7678573839001 -19.0595395554194 0 0
-52.6765216219013 17.7039033744729 -18.9927409584173 0 0
203.443268562095 -12.5636932892229 -23.2011948824392 0 0
135.953139290093 -5.74218116490553 4.30433016548257 0 0
-43.3210465344083 -4.6478915042829 -14.2310841018884 0 0
-24.5017708245983 17.6752557448024 -20.9913178728967 0 0
162.858410444949 -15.8531511247818 5.0671592830998 0 0
121.34050911674 -3.05918409535052 4.89907985312551 0 0
186.572225762865 -34.5345286515472 -1.40467382442107 0 0
177.473406398087 -26.4337460453366 -3.74849749836946 0 0
135.596695281701 19.1003434965123 -9.65751826487444 0 0
12.9018407849276 8.95038920473655 -24.9301513723383 0 0
57.4900597759596 -1.74282713047877 1.98848071501391 0 0
212.928610542565 -41.7642673819691 18.1629932635682 0 0
160.960121917161 18.3199522165722 -15.0083982649728 0 0
224.810170065041 -31.2622812309878 9.78258256648991 0 0
177.943340981849 -15.0093409572371 -17.7267015830722 0 0
60.6678344966046 11.5851026297693 -23.0204011475363 0 0
164.298140558245 -14.9006616592222 -15.1147761685725 0 0
211.086516405398 8.65976371096709 21.679671398708 0 0
57.2858420962124 -7.15494610268802 -16.8307208353959 0 0
175.520125801521 6.96971089149516 -18.9854980991265 0 0
187.603489372989 6.73687072036076 20.563200842965 0 0
221.323897691463 -28.7030126594223 -7.88202564692964 0 0
-87.0350519305371 17.6327737561071 -13.2817345840551 1 0
214.924177113141 1.90937776355825 -3.48955529264394 0 0
205.253934298974 -40.0835177350686 -1.46417887319282 0 0
186.674043786414 -18.0874681110402 14.1289600840364 0 0
186.371726850806 -14.4503289887994 -20.6530476061204 0 0
3.52308154369721 5.24892766705081 3.31340645303642 0 0
74.4292455863695 6.40389025398711 4.52785837554196 0 0
63.6449742214136 19.0468654171622 -15.6243917595653 0 0
8.34767368411524 3.79527973335551 -25.6282346650939 0 0
188.726330626196 26.690039398067 -13.8498249600092 0 0
-71.2283878430558 21.9787175689639 -1.31695851741385 0 0
180.10131236998 -28.5917086405222 3.23749534074023 0 0
-36.3228224687187 21.8445028045374 -9.12111956115346 0 0
21.3934173330805 20.8083543749545 -16.6860517684191 0 0
1.18594413539935 -3.11828546243839 -1.29424335201831 0 0
76.9789877526525 19.2512473686982 -12.0810574046377 0 0
180.969458964832 -30.4437627121902 2.73090867700088 0 0
178.283625215355 23.8428126854517 -7.178294791615 0 0
186.191507187027 -20.5686574655219 15.0132430392968 0 0
192.058283931045 -41.3707004079974 8.83374270286411 0 0
195.425536644734 12.1548329886114 33.5038365111648 0 0
180.938030001858 21.5100575859997 -19.9751980791341 0 0
61.9253682165022 -3.03618853163065 -0.170670845225978 0 0
182.307279897873 26.8990032128034 12.7499342974512 0 0
212.31583981282 5.20354194641567 17.2730636223251 0 0
73.2525727312952 -4.43372395348697 -1.17156154253674 0 0
188.161119732543 -14.2292536690446 -21.0418902350393 0 0
129.082479441104 14.7380402466414 2.54038550353889 0 0
132.27936682908 0.553860621490175 -21.6648515460667 0 0
215.985649484752 -39.5214036671264 7.58670006431911 0 0
67.762085601843 0.689191653705736 3.9399558037827 0 0
165.861485879115 18.8880387066256 6.13624115823513 0 0
100.051889124441 -4.61655809414583 -22.1888515296201 0 0
186.416003739756 7.92461372093222 22.7004490821402 0 0
185.209469121799 9.05754586810407 21.1395241331233 0 0
187.005399898542 -37.0027123536641 9.81176735744894 0 0
209.890061505162 32.5534569268 19.4527801256543 0 0
212.138925488991 -4.39587549540136 10.8455572206116 0 0
164.498059740173 -19.933880092231 -7.68619366897341 0 0
133.811362474249 10.9286123099334 -21.0256061853566 0 0
6.57653200982278 21.6862809630712 -12.7766410284544 0 0
199.147086300429 30.0674429848093 30.0406491750601 0 0
205.91255466005 -2.71964340629858 14.2715883826001 0 0
200.902992075545 -23.5424476776468 31.1605552342427 0 0
196.502987875722 -31.3990978813609 -10.6900608599668 0 0
161.673757877792 7.1081810240211 11.1809857718929 0 0
198.172742427722 -41.3533498463906 19.858448787238 0 0
191.543172984631 -22.1015430972915 -16.5944952597055 0 0
-28.2517102987579 0.173292795432221 -22.7837198090763 0 0
202.490302552745 -17.0726413723999 27.1400432518885 0 0
56.3343942209002 -5.66801956516457 -7.84829122535623 0 0
166.864875328174 -19.7118460728584 1.18279541248418 0 0
197.97775503465 5.15515235014318 26.4627970520928 0 0
196.390887769659 -42.0601449574469 12.2230682183809 0 0
-63.9402777997076 14.6052712561017 2.86325909023242 0 0
24.6930350083238 19.2496224742998 -18.9566285972657 0 0
-74.7184105673669 -5.86355879261157 -6.3776822363543 0 0
-26.6251356542557 4.51820998613502 4.49535876671047 0 0
200.589329024775 34.8203037076381 17.2525262453146 0 0
158.62268240863 12.664093160311 -20.0124909821939 0 0
193.945886766879 -41.2968173431086 14.4408631312506 0 0
211.619960513368 -13.8042514260069 11.7563720027818 0 0
-80.1050303030327 22.5040544109328 -0.116704948996335 0 0
189.498856922183 -6.85194936360879 -19.1835230181074 0 0
185.523998313155 -27.5729332467124 -10.2308854052171 0 0
9.98082427489218 6.77663371379484 1.65667752325309 0 0
199.869892231665 -18.5333531482374 27.1071141601875 0 0
46.8727896037669 -6.54398748375075 -13.5178337016413 0 0
-13.8238377102426 16.0611709106037 -4.44352525741393 0 0
-73.083016691021 22.8454324718398 -6.8558395219355 0 0
206.862506544239 29.5940426969124 -9.8775403105751 0 0
17.8994212950787 -5.22279287112485 -8.09364339444566 0 0
-51.0459585302206 12.7549253268547 -22.1194645251058 0 0
-51.1969871147046 -5.32853594956827 -11.7432254625081 0 0
157.3582416197 8.41093270747952 -20.764613653246 0 0
206.171461322883 18.8844031440695 -17.1290587768108 0 0
164.15227114552 19.5175079065232 2.43672519490412 0 0
169.723749724603 -8.71323351129615 -18.3631769456072 0 0
175.857189273754 -15.1919523419828 -17.0190286318841 0 0
195.529295748413 -19.151752396324 20.804454521019 0 0
212.282142223391 -42.909342838141 26.8223548014717 0 0
-60.262993264737 -5.81021251551721 -8.47163530372653 0 0
34.2558758909609 12.3528778380279 -23.3931644384867 0 0
171.345546630909 20.8854008401142 3.17063014219644 0 0
123.300991015875 10.1558313483558 6.33223775874954 0 0
-31.458771869549 -6.24651906664588 -8.52890407858058 0 0
118.562805723228 -7.19490916394148 -1.41898129474874 0 0
74.7967470915808 1.95090046627352 -24.248375511447 0 0
201.352045384146 -38.5161630325269 -4.80309989969806 0 0
191.297983250008 -18.6200477759625 -18.8204872221952 0 0
115.488781042722 -6.96817930255442 -1.84095676119818 0 0
200.572827358957 34.821178813723 15.1711988557781 0 0
80.0591194882218 8.86371981233733 2.90466678502319 0 0
198.370345555698 31.6959276021714 1.24628950804316 0 0
206.229795653326 -7.00493062154993 -17.6133196857203 0 0
203.138013735529 -42.4021714978161 1.7126226954732 0 0
-68.3254058902643 -1.75864813097113 3.00842026560633 0 0
108.097397933312 11.8566079782244 2.68319981108084 0 0
211.0422351492 14.4306584010193 -11.6467403399738 0 0
201.061681016979 23.6711140472941 -20.5650441064436 0 0
55.0772830042448 -0.879747753605656 2.85138275279535 0 0
-1.71637382351641 19.385948829814 -7.93775364824583 0 0
171.762301132721 8.01731625532751 13.3013435397886 0 0
-56.3202334418783 14.8657192010709 -20.6691660487215 0 0
174.439831669983 22.606062652845 -3.34834685997811 0 0
166.136314542014 7.10003508439368 -19.9815978240788 0 0
172.830138630952 -8.22583295735247 -18.4740734363498 0 0
12.4536721674982 0.474344768098893 3.55634275228437 0 0
37.4346987429029 3.40732020768371 -25.4215983152749 0 0
101.393186714595 5.81387071565707 -22.7496294902981 0 0
222.063975554739 -21.9790796686741 11.6506708048373 0 0
-30.4637786728805 8.77712568099311 1.94563320540257 0 0
-67.3449353200234 16.4936163155104 -17.8483979459948 0 0
73.4051634134124 7.68257756471887 -23.6805115701422 0 0
141.846725258217 7.34780010541393 8.6604270559855 0 0
182.362582015929 -28.9704976490624 7.11020066650215 0 0
94.3139827992232 3.34116003966802 5.96995170059638 0 0
202.428836942775 3.73063119026129 22.6564215212062 0 0
-64.8205300070984 -0.282480776503815 4.21667649908731 0 0
98.4375711863948 -5.93104705080075 -3.67072235142328 0 0
-59.470324011396 16.909069011967 0.900464820319809 0 0
-88.4416888954312 22.4012679602476 -6.75301353107226 1 0
207.838528558938 -23.9444773925683 31.9226380238357 0 0
-86.1371538229929 7.87409507366676 9.25780459594285 0 0
37.0196848061722 -6.39889681355033 -17.971648803636 0 0
138.461839698833 18.5825167983858 -3.16050114510871 0 0
189.204786996813 -2.2446362942574 17.4379826345032 0 0
201.913522836906 29.888756146357 24.0743925197872 0 0
199.443581263487 -42.1436187867753 1.91889653541731 0 0
97.6255814972763 3.56619760397982 6.21595271583975 0 0
121.999507508612 10.4378049860594 -21.4627129630351 0 0
-21.6409862435599 21.8319579685806 -15.4779127935175 0 0
78.9748829398836 12.8932832367165 -0.720291397807552 0 0
58.3894069655578 -2.92830849610612 -0.156963677336305 0 0
164.870081213292 17.0790863256512 10.6964360075728 0 0
205.368937873532 -25.4204628040259 -14.4498700485161 0 0
211.230757658649 -26.7093251404039 -12.5637858302126 0 0
195.22589055698 -23.2745675143637 -15.8903877239254 0 0
74.5317793431253 15.6985971767996 -3.78679342700602 0 0
-87.2881302707561 -3.49838709398205 -12.3072678675327 1 0
21.7697608218654 -0.577424444453804 -24.8414963949731 0 0
193.848912818603 1.89813623528725 20.73147279261 0 0
-42.3752587596402 4.93650371909239 -23.7195971077046 0 0
18.9007758989113 -1.83684355047472 0.35935939206429 0 0
213.618371641381 31.9786225090952 13.9960068925598 0 0
195.763799878267 21.5639181620003 37.5702299806073 0 0
219.69325681857 -33.0504432498756 23.3365673322017 0 0
99.5757130181983 17.2484009105489 -4.29632824692025 0 0
-20.9862563503941 10.4841427390554 -0.0855283378273114 0 0
223.714007861046 -25.3119388555521 9.13208930964719 0 0
68.4951625879553 10.6188839683758 0.66068444846334 0 0
2.92759865577149 4.05522788656134 -25.6182136849745 0 0
102.289576090933 14.082939450828 -19.8207412281624 0 0
-84.0978743821051 -6.00214133230362 -6.3681809781248 0 0
178.375891611141 -27.2199753419609 -1.44195389016554 0 0
222.888548868097 -25.5627371391475 12.9388252192663 0 0
194.073876074724 -39.4005283911489 25.7752705815753 0 0
163.338139278341 9.89263786328643 -20.2925263309823 0 0
181.677225674029 -19.5926639937668 -15.9437331267565 0 0
112.3784891123 -7.736284056562 -5.16946258874027 0 0
186.286361772618 31.1714563641063 10.8634013732342 0 0
-62.6056654191246 20.6372502910993 -13.3378694980306 0 0
151.664990771208 -13.8863042836518 -15.3171659193445 0 0
-80.0369296496653 4.70018999324724 8.45309236890224 0 0
185.457891445885 -7.15516613711546 13.4403350488409 0 0
208.551606771756 28.8285549052332 -11.5440518410386 0 0
205.051580212481 31.8744615826864 34.5045424138589 0 0
-60.0822720616622 3.991928338737 -21.950808680997 0 0
-71.7334327699207 14.0256842954907 -19.1475255876781 0 0
209.617780079731 32.6675398961532 31.3412218755586 0 0
184.836307594658 -14.8536905550267 11.8055410478933 0 0
96.1859833230602 7.16329105310943 -22.7087539736186 0 0
-82.0325347537932 1.58168577835987 -17.8611971485795 0 0
198.286239543257 8.19922859404422 28.876172686403 0 0
215.843434993877 8.54376709312992 1.54047651248464 0 0
85.981398927853 18.7487826852136 -9.12583876838727 0 0
224.702399701657 -27.144724447524 -1.30412408206634 0 0
114.128511472131 -7.33557116152044 -20.411722571316 0 0
-17.5205187978444 21.5808391364057 -16.4419324027191 0 0
37.0442536653484 4.41881538695803 4.09589276548594 0 0
195.93079880161 -42.3876666824436 8.71127816327807 0 0
65.8224617539662 18.550762601894 -16.608844690274 0 0
200.27604710476 -41.6015749398276 7.27917363356744 0 0
19.420427084863 -4.47930284240573 -4.73641925906191 0 0
37.4929711622278 -0.770247283756426 3.10702222343662 0 0
-75.1943658666877 -4.644981157055 -11.4359899601426 0 0
40.3452824187445 9.83525896278068 -24.1998640361211 0 0
217.602891518735 30.5474312702363 11.9352885878638 0 0
192.655481241782 -15.3832277796825 17.3772847290158 0 0
196.624045508572 -8.75479268778602 16.873469597099 0 0
201.375079514701 -40.319926285849 31.303911582101 0 0
209.445046095898 9.83029341545392 25.0021401255862 0 0
140.761432326401 2.15514076677245 8.26226262074808 0 0
155.892573653057 -0.146728713752599 8.46516870790627 0 0
216.875208359964 -30.3509754704043 -8.49472353748865 0 0
-28.4393185703471 20.8282359389346 -17.4862706408781 0 0
13.4257166380858 15.9299972099383 -5.29867693079886 0 0
-90.2716915793034 1.44525355336525 7.59001420739106 1 0
196.027200778054 29.0153348173784 34.0566399175445 0 0
75.9403046176456 -4.93802520458839 -3.1443257147603 0 0
202.432196837424 -8.24266319238262 -19.9188971272004 0 0
189.705889186352 -32.4945200200306 -7.3100671906021 0 0
-4.14887304320225 10.6953491291286 -1.06515455372082 0 0
37.1330379442848 8.14477466439128 -24.7445829672335 0 0
44.2270715184445 14.7817003617615 -21.8140228824169 0 0
180.945419491732 -28.1153848423118 5.50314463933552 0 0
152.156396695025 11.690634359558 -20.4432932253003 0 0
198.418198228337 -2.17496939230928 16.8598065725329 0 0
212.745032810131 -28.7890769568211 -10.4247339641151 0 0
159.682447765155 -14.7704203725201 3.44201479862963 0 0
117.551615443924 14.5631785148502 1.31896845355499 0 0
179.889554342631 18.4350134747987 -20.7634100864809 0 0
62.9031336652425 17.6025481393309 -6.64153945657835 0 0
145.757411636358 7.87424260851974 -21.2522091403006 0 0
28.8945844239887 11.7129215989956 -23.7837786554773 0 0
214.312884139486 -42.6917304003022 20.270552535181 0 0
200.523880632365 14.3428824334026 -19.2439721609559 0 0
150.860862114542 4.2121124566848 9.28937375537459 0 0
189.659239336399 32.2283416701123 6.23766361018914 0 0
43.6398360889858 3.21340160413047 -25.2985208349228 0 0
4.70195820701914 0.0861956300227075 3.47354734745479 0 0
-4.08337860466917 5.76670165286374 3.20583598153555 0 0
-47.4001460231748 15.4675849416129 -21.2677832761724 0 0
199.62037441738 -35.5708574377483 -7.78074105077479 0 0
95.8797709016451 0.970429294552757 5.56874764201365 0 0
174.815199840142 -23.2833216171152 4.37843265131174 0 0
222.132120428775 -38.2026104411863 18.8979949724491 0 0
210.605966313992 33.6755529467361 23.4648385941944 0 0
186.674066284089 -24.1813895811455 15.8406772357336 0 0
-35.8856808527267 6.04024491424584 4.27454561065578 0 0
191.094884813857 4.31280477073723 23.6208369562916 0 0
208.722110883727 32.5594799504363 23.6119556640223 0 0
-59.6086132626167 12.3360728039602 3.16095656527923 0 0
207.157707460029 -37.3587384411335 -4.42855930380913 0 0
51.9059137237793 9.64194574792724 -24.0015271501902 0 0
199.733837782552 -21.184511310446 -17.7728231568317 0 0
-1.80612798552926 17.4318008293674 -21.4383966214982 0 0
188.150161069842 15.961869028833 -22.1093965322617 0 0
218.002807626439 19.7551018777209 13.3317823220704 0 0
215.764408023741 9.90698750310154 7.98069747193424 0 0
198.356652441397 12.1322185314326 -19.6785562091911 0 0
219.162003985412 -22.3387206177376 20.4117915479205 0 0
-69.4735380777514 21.1322253270281 -11.6262345249784 0 0
19.1287763692877 6.02211025332381 -25.3801062505587 0 0
25.7204265069734 14.5250473985455 -22.4474955962856 0 0
7.00943832687404 16.2699920391601 -22.0242868797392 0 0
110.87900376339 11.6307673313681 3.22106652158362 0 0
159.546289342257 19.3913728831681 -1.54717247187244 0 0
194.481290275315 -40.3377100058597 0.0336924698122506 0 0
165.72562876058 18.1123603114114 8.71977944800914 0 0
72.2662630970861 -4.40534952545986 -23.0586242993174 0 0
190.584607717025 -9.89573724437604 -20.5081406256005 0 0
192.391701572881 3.43596315248936 23.8502861320462 0 0
-83.0169898728019 4.83288556941864 8.94942910735222 0 0
204.608318796261 -41.2078457329569 31.6431187686445 0 0
216.275776413009 -14.6606716163225 -17.0231564250915 0 0
142.027252475383 -8.13423630818155 -19.3644763966654 0 0
4.30280030348176 9.2973800389832 -24.9419828167222 0 0
215.417133084739 29.2741687987678 25.7583841956674 0 0
224.092514181898 -26.6941188810948 -5.34773590634515 0 0
-65.0891513480814 -2.26802939472959 2.22028567499735 0 0
189.845744515928 4.98663735000486 24.563828790758 0 0
187.46341928336 29.0653399422862 -2.39319435475293 0 0
-0.033401148399108 -5.7572937626873 -12.4757032832883 0 0
173.050770846216 -16.9673652669757 -15.0449008066442 0 0
16.7442988326505 -5.58088575113661 -18.3551587459765 0 0
180.602747541698 -8.28622654836559 -19.2249490745106 0 0
85.3045859715842 17.6287347016233 -5.95421246980083 0 0
217.369662425394 19.9587216574286 1.69011224395469 0 0
-57.7389951587628 20.8476987107018 -2.7999325499942 0 0
115.226366165247 16.0480266957394 -17.6711747945891 0 0
172.762456662649 12.5431254974109 15.844733836937 0 0
5.82924409146442 20.3236470482957 -18.6927728622177 0 0
-72.4068424973873 -5.61190945875905 -3.61371265495725 0 0
213.864107485857 26.4093752680122 28.7231103121331 0 0
88.3884614588165 -2.96366444715066 1.62680730651086 0 0
219.586107572769 -12.2567667082566 2.14399945210738 0 0
-27.9890131890639 -2.89373353404393 -0.866031816246907 0 0
121.933343086202 -10.8605506285472 -9.14013691193172 0 0
44.1480974151738 -1.46037104350685 -24.6071240929901 0 0
201.213803376973 -20.1391530593789 -18.5611849395984 0 0
149.498593181548 19.1529791059769 -11.900971150639 0 0
181.307746393052 -19.6374431129533 11.5528137588206 0 0
223.580058814172 -28.3025631851677 12.8241926417463 0 0
32.6887260594521 14.5235867790182 -22.3259254233447 0 0
214.285995195862 18.0270927808668 24.9379444450826 0 0
194.986964502839 3.70139553536008 25.0031513276861 0 0
143.02312980686 18.628070410768 -13.3637445800787 0 0
193.088832222626 -23.0027015331027 -16.0023749632794 0 0
119.745150925364 3.6360608469541 -22.4265075611501 0 0
217.297686608709 -13.6063624165007 -15.840102568717 0 0
41.2569262883094 19.1178219850408 -17.7950754887706 0 0
-40.7260467285109 14.9862624082966 -0.827592474710059 0 0
203.645411406318 -17.3626831845264 18.5987306981559 0 0
204.451756064471 -16.8839516451257 -20.393756118052 0 0
212.684179739696 11.0130425411719 -8.41835684901915 0 0
30.4746341155369 15.3399548344486 -21.8408588537257 0 0
77.1551186880861 14.1449861770654 -2.03595049645433 0 0
184.960449100194 24.3983765655242 27.8232801981425 0 0
185.248800451323 30.556638921225 12.9128081711582 0 0
10.2333754037052 -5.78207188247107 -13.3939427113524 0 0
-49.1717886561706 -5.87548098385528 -9.54512191963341 0 0
192.448461957571 19.049702983771 36.2129910542539 0 0
-8.94925707413844 18.6948831482843 -6.89056776464197 0 0
132.568729498843 -12.8741331865153 -13.0965531378101 0 0
212.654186915868 -23.2425802561142 -15.2601089477297 0 0
92.4170909378969 18.460848243664 -14.6878919389151 0 0
194.101052390702 -33.6753076913387 28.1501270410844 0 0
185.015638124904 4.71581559335348 -18.9642262133178 0 0
169.852108052317 -6.90828216346427 8.85615767253871 0 0
5.36998522694704 4.50650221776676 -25.6353622159832 0 0
88.5038036221531 -1.90454755691938 -23.3370906590171 0 0
42.0424689761286 17.7085298869984 -19.5654205398139 0 0
192.309575435251 -40.9446656181729 2.98109618151306 0 0
-4.85066100101593 16.3767050713782 -22.1214361446164 0 0
160.956543462485 -6.43696210249938 -18.966100514585 0 0
166.512712092893 1.62361933630899 10.0477674807986 0 0
178.135272648289 6.41520861064225 14.2094789464436 0 0
54.6464641393719 1.54811108000334 -24.9985610454518 0 0
190.646964975728 -8.34536978308991 -18.8233719054246 0 0
215.39001299819 15.892587116632 -4.41929414059912 0 0
-36.3827014160213 14.9000465076407 -22.1222617387445 0 0
189.302281549861 33.1946104752203 11.7872021599843 0 0
189.724470042847 26.3494670940645 -16.508020944759 0 0
203.869798158837 -20.111301583658 -18.2433650850497 0 0
180.566545183039 22.7797591791979 -16.8980533943999 0 0
192.883520811745 -17.722448075526 18.3945378446018 0 0
-33.4917548497237 -0.45360813722473 -21.6589051781087 0 0
176.534686905427 -20.9168542290279 7.67862728747287 0 0
182.578184347274 21.4902705324571 -20.7844427879732 0 0
-0.628336689979021 -2.28523952481083 0.924977794793018 0 0
202.209037801858 -42.2081897558713 0.282649960134852 0 0
32.2904941647828 5.43918617126282 2.94585202905746 0 0
162.081715488093 -19.3156753487131 -6.97596402710699 0 0
208.43932798169 -10.3234923528986 10.4871623187368 0 0
189.508107331328 30.356088903187 22.8895668817183 0 0
194.663670141144 -20.4523772547444 25.5479728634031 0 0
208.97696824007 29.8651521284166 -4.0164156548362 0 0
154.686214441997 6.37722220651025 -20.8611116204416 0 0
210.200011820031 -22.0814851844422 -16.2600711416092 0 0
162.003632552263 -13.198404432675 -16.1870082230191 0 0
178.758773538214 22.7606930998834 -13.2685528129077 0 0
197.676965125285 -11.3148022842197 -21.2624850283594 0 0
128.555315575786 -1.4639483192892 6.30066987916344 0 0
185.531316547905 23.0762980515847 30.8549023020866 0 0
99.5934070429842 11.0670940456732 -21.5258269905776 0 0
106.28515212092 4.92240538533769 -22.6916935376526 0 0
211.464229990475 20.7610282725497 29.7881096539534 0 0
217.00759616822 -17.9338477050095 15.6175228763712 0 0
152.187940032558 19.4771584382901 -10.4115628522549 0 0
203.126407479798 -4.68124607168259 -17.5149684650073 0 0
-73.2416260090683 22.8750543710226 -3.10548667999653 0 0
204.26768768106 8.84491613099104 25.8860229607074 0 0
195.468469787602 -41.4855700669596 16.2092215969914 0 0
6.92433195682116 -1.81898038048938 2.19839822837803 0 0
-74.325278901096 -4.94564866845016 -0.757275621168301 0 0
142.933835247406 19.3328403099657 -6.75983074826816 0 0
172.31643174056 -23.0284378515554 0.315407229339109 0 0
108.492115662653 14.2512254334445 -19.5505938823371 0 0
186.451464525747 1.96597718882581 16.4681214373205 0 0
210.69667128206 -34.9589364022531 -5.09561568245221 0 0
212.344184607134 -27.0483416779335 30.7479357270091 0 0
124.061059161715 -11.7031797821572 -10.390208359971 0 0
29.5171555364059 16.9999203524528 -20.6909373167484 0 0
200.934849537182 -21.6122823263433 -17.4309205057645 0 0
45.9713252731573 17.9659019397039 -7.04257648907352 0 0
123.039936226112 15.8297293057537 0.220783848733038 0 0
22.2708505325565 -4.97715765834514 -20.6622301469046 0 0
191.691377250766 19.1684614494921 -22.5020291581297 0 0
204.25474322558 29.6062907179574 -9.57613064815617 0 0
199.519346805689 -10.3909734521786 15.9573593631079 0 0
-30.768073511543 13.7859370494909 -1.32626176246208 0 0
46.0225039733523 3.52784295296579 -25.2318669105672 0 0
-2.65302109551782 -1.76766622175824 2.44398008971543 0 0
207.97293853749 32.9211473205485 25.5917880285228 0 0
209.451958387755 22.938865046969 -14.8199733441565 0 0
187.866174705315 32.1608398935364 9.86580024459329 0 0
193.19191171265 -39.086450082891 23.8904483598909 0 0
155.25687082503 -11.3416295796498 3.66760481112477 0 0
-31.62476896636 18.0816120408877 -4.22227185613433 0 0
90.5022446495125 -6.01963622154708 -5.5101122772935 0 0
-40.2796573078922 -6.18439066679064 -8.57171854961068 0 0
49.1717124868012 17.9035485323111 -18.9051997473037 0 0
44.0995521342199 19.5009632350558 -16.7699531042313 0 0
213.658518697603 -16.1833334018048 -18.8136078228857 0 0
196.817242721978 -42.4213223748142 6.88864493050515 0 0
177.448616190089 8.64938188864254 -19.5452093367943 0 0
-51.4576478343035 -0.689650474240106 3.0236072513054 0 0
25.170070212641 12.3738608422323 -23.5733364349864 0 0
167.170761547275 -6.18288700350368 -18.9164165573698 0 0
187.330920388188 -24.8496341605031 -13.4470128155191 0 0
223.721946493327 -38.4703624620898 11.1850658527849 0 0
207.636387569548 31.8917888803213 19.8398946492835 0 0
130.313223042953 18.9525064621233 -9.06406704011722 0 0
101.588560122477 0.289889206760877 5.49227462474171 0 0
214.728798005199 8.57673572217641 12.9249146499068 0 0
57.7009097429763 12.1092407598293 -1.08980351969934 0 0
-28.547155638524 7.02842858679105 -24.7440434069649 0 0
73.6749370448466 -5.02738287820815 -3.30913150081162 0 0
184.626388388797 -18.5278307972763 13.0172423593982 0 0
181.975805499585 -17.8381364432309 -17.2778542123851 0 0
72.0348311918342 -1.38429046337368 2.03637061212959 0 0
190.712973394133 -7.10539230262495 17.0594649950299 0 0
195.490820315391 -13.9920421346833 -21.3380521732388 0 0
-66.8750391367277 -4.15217297346099 -0.11153490318914 0 0
98.1793713830695 0.0508869339997153 -23.1345613235935 0 0
170.725560446325 8.99295745244927 -20.0334754253185 0 0
70.3662869643349 18.1705904651364 -17.2316503040155 0 0
214.585743373528 5.58913518032764 11.400293530534 0 0
223.026452404543 -37.9611405581745 7.90427368968991 0 0
199.61809873131 -20.243864223177 28.4168802202629 0 0
175.119977820985 20.1493788257349 14.7279097372444 0 0
184.946209725578 0.303012101756167 -18.283840845933 0 0
215.828173776127 6.40407562963725 3.31012662466124 0 0
188.375764137008 28.7687256665372 26.2254402963022 0 0
150.410128857384 19.1513358937505 -4.17183943337276 0 0
150.929083640506 -7.63597121755917 -19.2484518865085 0 0
177.579407519213 20.6155833551432 -18.0619424953557 0 0
-89.2661234903867 -2.19864423865091 4.87875905128541 1 0
181.715173257532 19.1680680188795 22.7895154270464 0 0
-55.5708049214046 19.6917525238136 -16.1098775365185 0 0
165.872141456816 -8.95786885766015 -18.1726493376871 0 0
-79.4180849803882 -3.72974490016802 2.15151683406267 0 0
-16.862020137249 5.31587844971354 4.06316066277769 0 0
127.920218114613 7.79523442893109 -21.8681936564425 0 0
203.40508582067 -24.2532257049112 32.2438254360034 0 0
106.65524988236 17.2899368759511 -3.86168770171968 0 0
113.838437467935 18.1168851878378 -14.1280786788153 0 0
10.9148802705185 -0.890677751893841 -24.4431648960027 0 0
200.902095636894 16.2075861112024 -19.5113067512521 0 0
-6.99655160831906 12.8761270385887 -2.57133495734024 0 0
159.873073942918 11.2176944969878 -20.3524297583346 0 0
-57.2102848873308 -2.08239816703217 1.74715797989935 0 0
136.619747731539 19.1570488536887 -7.42384262590332 0 0
205.59235167193 -18.7666551884276 -18.7417544975936 0 0
189.359326297403 10.243527985534 30.2448410964365 0 0
85.8212045173075 15.7387418019768 -3.1389817988394 0 0
-32.3497922708017 -5.20579094068454 -13.8133761712135 0 0
215.55213616576 15.5114769360469 19.4377775932504 0 0
117.64991225655 -4.57774690483581 3.02903276025802 0 0
207.910035719531 17.2696740088773 31.8278745763499 0 0
213.779036533089 -17.9558019324282 -17.7082361571722 0 0
173.765613330629 -15.1703459554583 -16.5152355257517 0 0
183.73549309507 -28.7913742892416 9.27281187708094 0 0
92.1784027385912 -4.51058247704088 -0.650102962064274 0 0
77.1107988732342 4.83402922277296 5.61792579842385 0 0
86.8348693565594 11.9911060338375 0.810197239436929 0 0
184.780714628382 21.2687416887798 30.8106555549141 0 0
-0.735967014427381 -1.54651419497984 2.80237094863189 0 0
49.7633264288713 15.3575583624186 -21.1647767907867 0 0
184.556936438594 29.9728383871448 17.6186545557723 0 0
216.654232702768 -18.4279900537666 17.8710708832219 0 0
171.697193399457 6.39297751280819 -19.2977206353489 0 0
64.5825952748452 -2.47201130869802 0.923151942152023 0 0
31.0367348613499 -1.06514946531729 -24.7395841621425 0 0
-42.5050075925315 -3.53642184688348 -16.2758660870448 0 0
217.548699761765 17.5302085943777 11.0436035024624 0 0
220.097036719038 -36.0038685263436 -0.994205059908386 0 0
186.504321787902 -26.8893543487656 15.1575934149632 0 0
195.460523901143 19.6471415929782 37.0790257777655 0 0
201.554531326861 -41.6810131676308 12.8612524551281 0 0
117.903457198296 7.89951833923279 -22.1457287184408 0 0
224.309421475292 -24.3189629194254 0.15483251980996 0 0
197.765162500185 -18.8929662770372 21.3378464840426 0 0
192.923739425308 -34.2596562884419 -7.61927757282558 0 0
76.379110627833 7.64456239207848 3.57742589066214 0 0
32.0899468161051 -2.34667255716386 -0.212164656362972 0 0
83.8400779606532 13.975875817502 -1.44642499503626 0 0
-25.2149982962894 21.5792679143897 -16.0982455063529 0 0
217.323708309956 -40.7155583868003 25.155050842586 0 0
224.224690680699 -34.5760044988041 13.6340164415425 0 0
131.471542693755 -9.06029766428087 -1.5519377209929 0 0
-59.702957143822 4.29867629546409 6.96410608783658 0 0
182.04926523469 -6.70709872560866 12.1397827145039 0 0
207.80946230439 14.6083063560049 30.5524878783231 0 0
178.447183770973 11.6120393185801 17.3555162329395 0 0
24.9831945302659 -4.29937176260681 -4.2674108269489 0 0
183.127236778293 5.67857265998117 15.8782251625119 0 0
37.1550415394428 -1.85986832324949 1.21083626617406 0 0
206.158021560628 20.7668026983482 -17.5651963146398 0 0
59.4861910330967 -4.195400223463 -3.48901584802899 0 0
218.602499961074 -9.66431609485049 -3.22226480929184 0 0
221.152974206097 -16.4242273837752 -8.33759976359101 0 0
66.8958597052997 5.38244017932764 4.94352971465936 0 0
188.173114796916 -36.3369727050959 -1.32906941273632 0 0
197.889390801645 -38.1056319982389 -5.33617242853654 0 0
188.63319403157 30.7971971793747 1.60049848546866 0 0
220.731555367282 -19.3205900599348 11.2344977273172 0 0
165.765342102801 -19.3107958354762 -10.1926973799414 0 0
183.562510536952 -34.4089285423001 3.47201478620059 0 0
-57.1867698374805 -5.64303241100287 -9.87818641301647 0 0
-37.2868436013803 -3.86855265057498 -2.05374739483347 0 0
204.592861847878 -11.2733831821478 -21.2914606734448 0 0
180.080566448219 2.07726517512302 -18.1007247427676 0 0
187.457886831947 -18.2036228095368 -18.9192236883568 0 0
129.171468595608 -5.70603105366711 3.37853801041826 0 0
-4.13211848963168 -2.36511141054969 -0.0507586252430881 0 0
172.160286103496 10.2590986688605 14.6528450023792 0 0
64.786006200058 1.29146440038141 4.53993806004728 0 0
217.95930129572 -40.4162525469745 11.0478809046835 0 0
-76.5674277841913 22.6869355483183 -7.43646493639187 0 0
-10.4924869143287 21.1412227525469 -17.6607523022201 0 0
118.963398300855 -8.38492969040881 -4.63559986010132 0 0
72.0740173190766 19.1239269676123 -14.75582391962 0 0
146.810358686614 -0.181591349989139 -20.7269436879267 0 0
-32.9896389116741 -4.22646901558519 -2.81648971701775 0 0
31.8174257417347 5.15042226635032 -25.3666989770795 0 0
-83.2111717044845 1.51075959940275 7.10607132909192 0 0
15.6273539566117 7.33589215189101 -25.2251492376059 0 0
204.840479563848 33.1426897658239 14.1876704830032 0 0
-72.9320502629183 6.78521683741547 7.39779817947769 0 0
210.845877443154 -5.03172851702297 10.6283744381033 0 0
-49.7832717726478 5.48114218350694 -23.2436784609395 0 0
186.779845208928 26.0741209756831 -13.5474608087224 0 0
198.08143028699 -9.73821739582544 -20.9942555635349 0 0
117.633559984313 13.791986112037 -19.7410954726176 0 0
191.541806563049 9.9174930072191 -20.1546899062756 0 0
-51.0853838107961 20.9430294273774 -14.6437147724335 0 0
214.917567022064 -24.9878707417211 28.0886046251619 0 0
35.1856725069037 14.533731905628 -22.2884873565728 0 0
-41.9672894033589 7.44979765604739 -23.8256010935517 0 0
222.992511334756 -24.4435306285947 11.3354386517865 0 0
196.299753988496 26.9179156919406 37.5401120208141 0 0
197.331240065884 5.41947921742372 -18.7843044988767 0 0
212.676448448303 -15.0089273782522 -20.5812002403514 0 0
-20.7313352156316 -2.8901599764622 -0.969584460094741 0 0
64.8635132658435 14.7435330926753 -3.25727493529659 0 0
-52.6101627594731 0.917156864659553 4.43421193671031 0 0
-83.5951609920178 8.54898706648907 -19.484863405367 0 0
103.523089168749 4.03076165591477 -22.8337458618093 0 0
79.2188998858957 16.8242142745765 -18.5114527662782 0 0
-88.9114584867484 -0.00235928823467847 6.41340836559566 1 0
182.665923306423 -10.8642766739773 12.2153487178973 0 0
202.529912214394 30.3054864869143 21.0052001019787 0 0
110.860591765038 13.8162413477308 1.25007604532385 0 0
158.983571322494 -2.03218386743217 8.16793873602803 0 0
214.637687617049 -40.3344756981898 5.62860454438013 0 0
155.334424455043 6.68438336109567 10.222499812397 0 0
-6.49390458695247 2.36242683281292 4.66319289066523 0 0
-62.3272957074137 16.2476206165365 -18.9068888063562 0 0
157.238834921236 -9.88449863197455 5.13931178210508 0 0
66.846570362069 6.60820531273088 -24.1522454013378 0 0
208.864381800525 -8.43012471190043 9.82685941961352 0 0
215.836501383889 -10.5078753823675 6.70887987241115 0 0
117.676077655572 18.5940578259095 -12.1169002861735 0 0
143.51517822534 2.963390205029 -21.1963223953033 0 0
141.694903972344 -14.3467410346205 -11.6411796542453 0 0
56.4656454843578 -6.78261434421637 -19.5672356281577 0 0
86.0328164003774 4.25006510815612 -23.4743797215707 0 0
-16.6079874673279 21.3814334495948 -10.0065697395268 0 0
21.0288499345344 -5.98615004624864 -15.2162694125183 0 0
-54.5631612674124 16.5099178414147 -19.7911339781453 0 0
160.287731308152 19.6872679749187 -9.03057596447671 0 0
33.5122914137339 20.5753009811306 -11.2202304310361 0 0
185.033988024933 -37.7304083350123 7.27374114628962 0 0
57.8530544148458 -6.36909832207367 -10.7936528572841 0 0
23.1424191449401 20.9472466487672 -11.3837200979674 0 0
-15.0131962541244 22.0897200456721 -12.8570907383118 0 3
220.222324615879 -30.5452804259609 -6.68995980684176 0 0
199.246631834435 20.3716757754275 37.3428062204203 0 0
49.8161850366955 19.9439794462371 -11.514713124409 0 0
-14.4442782621574 -5.95780135559526 -11.0729218790985 0 0
172.919027053884 -22.4968055008133 3.48314418464984 0 0
38.5922678481973 16.5009292349746 -5.35065183379505 0 0
202.493909525116 31.3524959097172 19.3991167732529 0 0
218.055129831736 20.3228956634309 8.37626326121479 0 0
-39.3339693784874 -3.99195947334492 -15.7595451912777 0 0
150.80476884895 18.3096486838724 -14.688165981072 0 0
108.679028327552 0.165065435150746 -22.6932668588678 0 0
35.3687495391892 16.3614698452217 -5.25847747796376 0 0
