"x" "y" "z" "f" "a"
-125.743227033395 1.85310832294967 11.6072791361048 0 0
-167.581969009298 14.4538403966934 7.26617373086183 0 0
-249.038379855538 -19.4622507698426 -1.7777513027721 0 0
-229.515107432797 -4.83536445166947 6.30555071826547 0 0
-91.0583629111521 17.3614094662668 -2.24597137303899 0 0
-118.72353504888 -10.0175174758233 3.44516472443121 0 0
17.5285556084907 -9.95193107605212 -0.628424590543907 0 0
-14.7591527571034 3.72151731176005 -4.98982997101369 0 0
25.1427808591599 8.27592215502535 1.29701345874249 0 0
-155.771161500261 -9.7683763377768 3.1250252663417 0 0
-68.5263460284284 6.48424184363746 -7.86864041929991 0 0
-65.3540693072798 16.3734430191516 6.93184287432538 0 0
-228.027418120559 -3.28526122033152 -2.16341885128679 0 0
-222.659532058627 31.7370623599421 -5.92381754230292 0 0
-32.7679253117603 5.33092325477139 18.6876377937338 0 0
-227.504264412729 -17.5656628515082 -15.1502734600302 0 0
-59.2747836933112 15.7089854266056 6.40277992200491 0 0
-177.481176406848 6.70844317156969 -21.2830221704721 0 0
-7.56874794518759 6.50768556723574 -0.964923366999852 0 0
-169.27753413826 23.6547888291329 -13.5917364417954 0 0
-244.113697219235 -11.9110205991731 -2.40785413354209 0 0
-207.349332243518 4.84396949053177 14.6592246846092 0 0
-129.023366456101 -8.74890298756169 -2.28868705908115 0 0
-209.918354916744 4.09022916735831 -17.3676990788243 0 0
-12.3701335883859 -0.287183348744523 -6.85126779406627 0 0
-194.364714468469 26.2405445329893 4.63203672932527 0 0
-26.5614459947254 1.64364809257516 -6.83087931676743 0 0
-193.413151367731 -0.777667743260708 12.7307780448588 0 0
-162.973573258187 21.6888369661505 -10.9045362951324 0 0
-154.371749542817 19.1663278267808 2.99055346629056 0 0
19.5050757304234 -7.8752153397465 18.3632870653676 0 0
-97.3462102037024 14.9214753879087 -8.1901972707351 0 0
-94.2196591529365 -9.49368804406222 8.4049869679906 0 0
-206.796050292944 33.2088820995587 5.66040950311267 0 0
-233.260709021352 -7.92429235442591 3.3082072338244 0 0
-234.661264323069 11.7709440581735 -8.28731790142904 0 0
-165.455198757148 -8.43525683559435 -11.6455698976253 0 0
-135.094793985029 -6.49895525157627 -7.70015535350336 0 0
19.7682266685305 7.50396722702456 19.8983098812506 0 0
-12.263188329457 -3.08836289311833 -6.75577405532771 0 0
38.6916980238652 -7.60747839065663 18.8861537107563 0 0
-188.306639654577 -13.869843271127 -10.2994356994977 0 0
-195.485784851438 14.4462957773264 -23.553078101343 0 0
-96.5947818285558 18.2435825424895 3.20717153177199 0 0
38.3568944496198 -12.4383175981735 15.0218018290225 0 0
4.40027935934662 -10.0984874783054 16.4899522645959 0 0
7.79306951351902 -14.6007746273879 11.4520129262298 0 0
13.154331041415 -8.20701627496291 -1.7642053935364 0 0
36.5465036057887 5.20436797826851 21.1647428821597 0 0
-5.17354794121145 -1.00335135361207 20.2903051295181 0 0
-250.322429029987 -20.2242070165524 4.97732666740526 0 0
-67.5614202851591 -8.85868858531176 11.8752649724691 0 0
41.7563876832476 4.81948737322986 -2.94314197523412 0 0
28.5615171346308 -7.38479809136626 18.8461052535302 0 0
-152.586904742767 12.4556707811937 -16.8329165142461 0 0
-54.8472977672659 5.93814346200737 -5.88118420307419 0 0
-244.602118261443 -24.3475182596055 19.9411058524427 0 0
-84.4450307618346 7.66113509133553 -9.36033156669297 0 0
-222.895926865642 30.2115276074279 -11.751297941382 0 0
44.6857065748792 -14.6142088856791 12.5329281134878 1 0
-228.700921194005 10.8152990614743 11.9513716215978 0 0
-162.009965852724 21.5992209766016 -0.325343736468851 0 0
-179.067715267032 4.59274774319071 -21.9203690734002 0 0
-236.231127036967 14.8405007016598 0.706820014545726 0 0
-191.077658412308 17.6547161632818 -21.1900288734718 0 0
-31.3885991438022 8.15690758303224 -0.307822162886058 0 0
-73.355968140825 -11.2148352476824 -1.16830108283299 0 0
-43.9496526306406 5.19601957871229 -5.34557237608469 0 0
-237.003657465573 10.2720682882753 -18.8899983593114 0 0
-175.834421079215 23.3544712055817 -1.35030415452013 0 0
-13.4365213739183 10.6742031624743 3.98541813218191 0 0
-208.313783725659 4.76947570654604 -18.9638059903697 0 0
-170.717202470668 22.8088630908483 -1.56950610521708 0 0
-19.832476135479 -14.0528019113083 10.3875504587904 0 0
-4.5187356686455 -15.2214465762062 7.96926245870171 0 0
-80.4764734945508 13.3410472115104 -4.27152654524103 0 0
-100.9906823418 13.1158382533648 -10.2336670364087 0 0
-202.121962656467 27.2787867861386 -18.5881371266393 0 0
-179.465903542259 14.130271881228 8.05367030112008 0 0
-210.622126322746 32.0794439537399 -13.8475072627649 0 0
-234.134012502207 -8.54881148405326 -0.354983707193704 0 0
-150.959069203034 -9.58691955262419 3.55847318630619 0 0
-121.461385186848 18.4385897528405 -9.85716127297489 0 0
-207.707862607694 -26.9225136969349 8.36470259838652 0 0
-162.851498082911 10.2081849932788 8.52429949831484 0 0
21.833177893408 8.99604200905266 19.0532925951387 0 0
0.0214398894720097 10.7892405135625 17.4441019028806 0 0
40.609477370179 -11.2292491895957 16.1539300859883 0 0
-185.995068039626 -2.73432065391339 12.5701618743518 0 0
-134.586963054916 8.10126805839456 10.5023097495867 0 0
-59.8429245074628 -10.4592522659636 11.3786763876543 0 0
-233.420693987396 21.0576586822322 -17.6201070521392 0 0
-221.102596363468 -30.8388557476473 -15.2542564585614 0 0
-92.8178211088398 18.1984054934555 -0.416351039597199 0 0
-213.024821113627 9.32446983215437 -22.3313475940068 0 0
-176.456587568204 -13.3233475368386 -11.9787732577027 0 0
-216.33626632752 -43.94707095023 10.3221497860712 0 0
-120.919047710254 20.3379984401018 -6.54436217061106 0 0
-204.239565181745 29.524880828147 -16.9056940416168 0 0
-36.7565158713395 -11.3197417517421 12.940029894801 0 0
-143.249231576236 -9.49669907149813 0.266169494756987 0 0
-223.775585673546 17.4415014920976 14.5788303438615 0 0
-248.457012104559 -37.1037016981499 -1.19747209106752 0 0
-235.229340134532 -45.0540900762386 14.7027834261323 0 0
-182.53644231032 -7.66583875706702 11.3695581369472 0 0
-10.5307915038159 12.3426282530836 15.1618158887154 0 0
-216.786353140764 -33.4978491623034 -9.07106430955585 0 0
-231.459925493145 11.2549955145312 4.48135034715186 0 0
-240.668934468228 -12.014737679118 -7.12373831813677 0 0
-231.950063667837 -46.0164724523518 8.42143200977815 0 0
-239.180719331875 17.0204703355552 -8.36259344477118 0 0
-124.054189402342 -5.03785908119057 -7.13234034409811 0 0
-107.272385303542 -2.40575235715091 12.3793669995372 0 0
-11.5218437369709 10.4468709273111 17.4643319020578 0 0
-168.586223320032 9.42554301252236 -18.8021024338379 0 0
-220.387771510223 -31.4637696196531 -13.9029292273326 0 0
-182.099842833027 25.0919357953144 -5.50317847210768 0 0
-235.344998078359 -36.9923029247044 22.9945572626211 0 0
-250.633997524767 -22.0103321837167 1.49338419439589 0 0
-72.5114132342984 11.4058835257034 -4.08245308268548 0 0
-204.033518331024 32.2227327023658 -12.7869894589561 0 0
-215.494525386716 32.8756418341984 -9.84197979810569 0 0
-196.496865240149 -19.3134225943367 -1.76459100478122 0 0
4.8898086788454 -4.17019467682558 19.8526863644396 0 0
-204.24780332351 28.0944932904481 -18.2607207777633 0 0
21.7105393631414 7.48456285871598 0.533271891792129 0 0
-57.8949581420082 0.320645264484945 -7.16094037419082 0 0
2.34487277669485 -5.98137720329923 -3.69519193658802 0 0
-209.723801412838 -31.7451891168367 9.37442346274932 0 0
-224.938650614054 27.5360313811064 -15.238393258553 0 0
-211.935808043495 -25.3845223327637 14.2186192246634 0 0
-9.20928713848407 -13.0072306335109 2.1039182359863 0 0
-230.586516362465 19.6564811668924 10.3553852813223 0 0
-177.90019251733 -12.6690436535338 4.02470600120612 0 0
-198.037741091181 1.26927063213602 -18.485679898529 0 0
-63.1172897976254 -8.86671581658734 -2.73883704523139 0 0
12.5728247032036 -14.9190450134671 5.3619398236844 0 0
-85.7783874011505 9.37015677055189 -9.29116786440862 0 0
-196.905825016445 -12.1721710187053 10.181635558303 0 0
-245.456390454664 -41.669974357565 -0.958685857392169 0 0
-195.336726830772 26.3226596027369 -16.4313022474284 0 0
-118.193835173196 16.6348936353857 -10.8995482424557 0 0
26.9072308161959 -14.5909311278668 4.24891817574385 0 0
-235.546810890155 8.73138935763003 -16.8075969445045 0 0
-205.608756472902 -25.8576141955087 0.343187645322582 0 0
-143.372321379221 16.8781252433159 5.32725329579835 0 0
-198.877547053234 7.05257221883579 11.6416074078475 0 0
1.27451935661218 -6.91983891850453 18.5273045320526 0 0
-227.856087651457 25.5742909040691 -16.3009064161433 0 0
-228.899784361633 19.2218060159315 12.5193802436919 0 0
-225.072997106706 30.0570977055632 -2.43323965854719 0 0
-229.905414747628 -4.94933008355455 3.59171497655462 0 0
-127.196341359328 18.6885172203945 3.65224447467379 0 0
-7.48653690862468 -6.93242107205909 18.1875750366165 0 0
-172.192136361278 22.6279250521908 -13.2764938529422 0 0
-133.110087115334 -5.35969309504744 -8.76966713413805 0 0
-238.93533446116 11.0105741829288 -9.47820897525783 0 0
-236.945683520387 -33.9646153174207 -15.2166501789563 0 0
-203.114598151851 0.424762014202538 -17.6334450563643 0 0
-121.692851496227 -8.22766480121588 -3.30347942478839 0 0
44.9353829966395 -5.51282582832244 20.2230954895839 1 0
-147.457062032542 2.79427747400194 -14.5767055979539 0 0
42.9130523776301 2.06651895241131 21.8989491409592 1 0
-224.907824456713 -43.4193003088057 -10.5820979810233 0 0
-119.17976400773 20.4606899133088 -1.97639561610396 0 0
-232.892179911604 -7.96388275385458 4.84425376294096 0 0
-145.510355456569 15.8640502345211 6.12255708655216 0 0
-218.255072022496 -29.0788674344852 -11.644572859531 0 0
26.8486300638902 -14.7260895304938 12.2319878509375 0 0
-14.2302013962672 0.800193708148664 20.0881796399424 0 0
-104.225745752178 15.1184657482748 8.84909327945721 0 0
-113.264508722105 9.33772185947941 11.8639020645895 0 0
-167.162453352083 22.756701033034 -15.2034327876207 0 0
-112.504342352804 13.7076033766736 9.43846517008728 0 0
22.1940486878049 2.38636107681132 -5.40200988883817 0 0
-229.851133859236 -47.7945822442116 9.51938289149374 0 0
-9.00377332826704 7.59302771292293 19.1484480528457 0 0
-209.173698063272 23.4323558216531 -22.0816064645386 0 0
-6.51790459687698 -9.49365772027625 16.7470376685705 0 0
-224.438995576609 -15.4815244697159 -13.5648085097169 0 0
22.9234687134897 -12.620978781116 14.6065361782023 0 0
14.0060112643611 -15.3660336416549 10.3095442727603 0 0
-238.868583130849 -10.0030861541463 13.8740153362122 0 0
-229.184181967498 11.3629722412419 -5.4062865040872 0 0
-211.362736403925 -29.5675029133334 -3.6303232326522 0 0
-70.2811100784201 15.8573087010347 9.8235969277449 0 0
-220.522536938811 2.66124962095964 -9.80580182391458 0 0
-178.10320126964 -14.8032462950064 -18.2211207464097 0 0
-202.483016258421 6.20800168922239 -23.3600216542247 0 0
-237.509885223851 -18.1005778099786 22.6468910148753 0 0
45.4095966166626 0.982046950056081 21.9803106281204 1 0
-190.336443819955 1.1195359486486 12.235121608599 0 0
-236.970916923765 21.9414413074605 -2.27668016437363 0 0
-181.194951502123 -15.3352785330098 -13.4484079114074 0 0
-201.862899079311 31.390852886969 4.2639696430351 0 0
-199.355736648765 0.417089533068645 -19.1960860593463 0 0
-185.702279088325 25.2744109996259 -0.603830807412532 0 0
-118.730983321832 7.98245980076941 11.8960594758204 0 0
-65.1171194683048 -3.42417378765453 16.2938969172403 0 0
-17.4968898103122 -13.1905110985204 12.0653020337767 0 0
-211.207624508195 6.75680106497791 -19.2631950124939 0 0
-167.888266821258 -4.42135630274983 -18.3011471167288 0 0
-76.5335651412131 -11.2952972516162 -1.00452830437799 0 0
-67.6520524224468 -12.0237216763435 -0.336834377359761 0 0
-136.742963124223 15.3611776594698 -14.7040809800422 0 0
-44.8949521318274 11.4256950894203 1.34908407414813 0 0
-20.7353926126595 -0.357355675376159 -7.14969133330239 0 0
-213.057505142799 -8.46410740638966 -12.0040097844549 0 0
-225.880628605033 18.8962011327808 -22.4964690927438 0 0
-124.008905636858 7.24877760127413 -12.6384789915008 0 0
-27.3479638565722 -12.2622807464955 0.802574559891548 0 0
-230.373620226753 9.99963568905958 -20.6484273019343 0 0
-192.076779332488 27.9834775457153 -8.20014733720651 0 0
-174.282642813367 -3.19899146457538 9.46441017239918 0 0
-152.684716326878 -6.30565754454978 8.18239815798988 0 0
-83.0400401604888 -12.3207032246581 5.5157344547541 0 0
-6.31256047202355 8.1657353249474 19.0073340770364 0 0
-192.933113887508 -3.40529683640096 12.4437060836078 0 0
-180.504398714141 -12.3044937315129 6.6854369516012 0 0
-226.808712912838 -2.69829709976013 9.00800763410243 0 0
-212.964223939243 -13.4473409234805 14.8371551857477 0 0
-158.456914935625 12.3847482232803 -17.3108513329089 0 0
-9.95912374465538 0.755392690968439 -6.706754477012 0 0
-209.13265484912 18.3620606832476 -25.1393708822422 0 0
-153.578785046227 17.6362630611149 4.64987422382829 0 0
-208.752141253203 10.2222955736709 13.7187457178571 0 0
18.8061598295748 -0.28143247537805 21.1706077672271 0 0
-237.245519640881 22.9403885061475 -10.815895662454 0 0
-141.523054416732 -5.4112763534516 -8.67771956063093 0 0
-54.9366556154647 12.459080856904 14.1532876796097 0 0
10.4733376957722 11.894805336586 8.3449377774216 0 0
-209.114607219671 -7.36645343014183 13.3950793425664 0 0
-216.276909323948 -35.6086496261373 -7.98161669112964 0 0
-211.848745264912 -30.2686806078261 15.414335562992 0 0
-213.675852195757 33.8657443269939 4.95128955157643 0 0
-101.643968121295 15.3318104979025 8.81776823304254 0 0
-84.7801983063514 15.7468511930167 9.17310064750885 0 0
-196.615871763771 22.4877763225533 8.84053259888254 0 0
-197.971671206932 19.7307441436592 -21.7332725148652 0 0
-194.366698950604 18.4159199795249 8.77621553524879 0 0
-201.049865685787 29.6461617012718 -14.5812142698287 0 0
-231.184420689422 -8.87728784540419 14.7424493741691 0 0
-63.4095907904338 -9.16439934026236 11.9939448889501 0 0
-221.316706603923 7.4607329471422 -7.18705784447189 0 0
-65.4036669886513 15.3808905296685 3.17285858026873 0 0
-180.476370384633 -14.9501413614466 -19.092735135488 0 0
-180.328323474303 7.30852597947355 -21.7961110473398 0 0
23.800927121363 6.25830502147171 -1.05790415659682 0 0
-125.644754015932 4.41735478294286 11.74703565823 0 0
-119.266894079358 -9.66466920109863 -0.145867352116861 0 0
-167.505107269543 -9.27425866932282 -13.5583749519405 0 0
-143.808680049491 14.5010205197949 -16.5088795262911 0 0
-81.9845423064141 -10.5789833988093 8.93954784814186 0 0
-116.766943459476 14.4991818812347 -12.5654255863607 0 0
7.61366056406671 -3.23762796947733 20.2804763011896 0 0
-197.080722021564 29.592419863517 0.42156303266083 0 0
-204.294160514857 2.4184303649505 13.6836172714411 0 0
-117.733409876449 10.6291366021187 10.8226773992473 0 0
-49.3700097037174 -7.46864450641306 15.5618511143695 0 0
-222.894674269082 5.41021878523991 13.0994246080843 0 0
-222.764199086782 -2.66139964169342 -9.93046832161905 0 0
-22.5894679731726 -14.2665268844096 9.73274039901867 0 0
-52.9454121511607 13.0984399471142 1.81311300640732 0 0
-202.120789314745 13.4568142696169 10.2508113747984 0 0
-204.462531821952 30.998309755827 7.15140547818485 0 0
-176.326792803083 19.5307448210931 -19.1275482108833 0 0
22.3948449941213 -0.619519382105635 21.307338847701 0 0
-165.751684795695 6.54391584826793 -18.3027803548938 0 0
-124.095015067594 20.6949530018995 -5.4157384342116 0 0
34.3560217708191 0.815114905956928 -4.49999873074182 0 0
-222.819600799907 29.7716405799425 -14.5776423091376 0 0
-182.905437718095 10.3186410637729 8.15403147923601 0 0
-212.636048406518 28.5966709210158 -17.1237943106099 0 0
38.391266518862 2.56145827205197 -4.35626656155024 0 0
-142.103146350072 9.42796184281908 -15.2698181671719 0 0
-28.0687990287748 13.0483755441846 14.0739577470015 0 0
-194.593414761599 0.691437546002018 -21.2358020358603 0 0
-3.86026047074828 -3.28617986113211 -6.08222048996273 0 0
-182.204254261042 5.17106810735689 -22.3739311880758 0 0
-219.828315543307 31.5923057749605 4.83039544822305 0 0
-61.601381285203 5.82398769792184 -6.92038178397179 0 0
-38.8786024587838 5.99212154828334 18.2063268162739 0 0
-219.86243660109 17.4172198624061 -23.5007400228866 0 0
-225.959943050956 -16.1427349199863 -14.1156297218839 0 0
-157.078888106217 -0.806292841566242 8.87722407157441 0 0
-210.670087233346 -35.6241693491859 1.58112960975236 0 0
-210.599329544464 2.87219317397101 -15.845708785263 0 0
-115.983162271624 16.6407058736362 6.40736866994416 0 0
-189.791904232802 26.8424826877883 -1.65100204431899 0 0
-128.185861952508 14.2835887085741 7.91938185400261 0 0
-137.407981866512 3.97229339529635 -13.317320337639 0 0
-112.003459568235 -6.58968646972621 8.58637607583124 0 0
-234.14931452313 10.9619795638031 -9.81657439680752 0 0
-220.893440534166 23.656153451034 -20.9722707236392 0 0
-5.46869113969948 7.1380221071764 -0.0734702010189747 0 0
-45.2337179324251 -0.825812018410375 18.3326712625819 0 0
-108.648026180362 -10.1202540659117 0.747370927617887 0 0
-226.384802215223 -21.4298212979263 -17.011644823332 0 0
-210.388987521256 -30.915065014907 11.0526426472279 0 0
-214.066485443938 0.406383722533578 -13.2145295015397 0 0
-108.146617230964 9.06323294053796 -11.2599419737473 0 0
-193.850246260955 -4.71931553790961 -18.695138345163 0 0
-239.700387606263 -44.9962030384223 8.45168571799696 0 0
-133.314261306426 0.712679761957956 10.7990968033256 0 0
-63.4870894671866 -12.6246261837854 0.553698232515502 0 0
-193.86971120752 20.1805413993502 -20.3558052799977 0 0
-54.1084370869374 1.73999197826933 17.9760938104136 0 0
-191.799067256039 4.50772630155024 -23.460474535423 0 0
-232.600293916865 24.3334021709637 1.02238025476511 0 0
-211.21810667262 -6.1707968780665 13.7948983896239 0 0
-236.973793676586 9.46000644894655 -11.0268978705066 0 0
-113.406121672625 2.54467942290418 -10.4068280169378 0 0
-57.663180103479 -0.083244184707411 17.6536566824391 0 0
-28.986432430632 -6.68568718903324 17.4007968955223 0 0
-147.704575929247 0.0100996488494238 -13.4214878098634 0 0
-126.967288668008 -2.16346969302993 10.6276287279152 0 0
-221.83432848733 -37.1140123415193 -14.0983821652321 0 0
-227.840530281984 -0.191468129374471 4.42812799601513 0 0
-209.180469840774 35.6336762693445 -2.66067541920368 0 0
-193.701008572862 6.07959983774461 9.92697309375719 0 0
-164.159789605471 -1.15241405828966 -17.4564144030247 0 0
-222.210555702572 -11.9847102481263 -12.6124714202234 0 0
-231.155834501309 -8.16352928269209 -6.92435760759959 0 0
-112.55147678772 -9.59256401513911 5.80994805404676 0 0
-58.4485836920608 -13.8844470322285 6.67005092497003 0 0
-110.247334069159 -10.5331305046817 3.20778709365397 0 0
-88.6744196569299 -5.13423211624054 -5.69616802128486 0 0
-211.330778082317 -10.2141148885346 14.9336009027342 0 0
-137.711358513997 -9.33221015195585 -0.517536057249048 0 0
-66.489715619901 -2.80866365962796 -5.80348515327315 0 0
-236.265759487799 -9.27536053897626 5.97025032325044 0 0
-218.839052531717 -5.02981486076663 15.7148413042933 0 0
-102.895297010529 -3.00214597768638 12.5143487563593 0 0
-189.947184131426 -7.73095806281654 -19.6025555977924 0 0
-171.318123861822 -9.5028603641135 8.99696264041857 0 0
-200.613532780251 27.3976927839504 -18.1645056770644 0 0
-202.639634027582 4.18079040208587 13.186015283697 0 0
-223.376482259323 29.286613787394 5.61007638579571 0 0
-246.872203074657 -14.2328420001949 1.12288225293422 0 0
-211.816445064664 -11.6275399854306 -11.4154744902611 0 0
-205.073654925671 33.2419730796656 4.80950116840523 0 0
-216.71082196446 -26.8305646928158 -10.3230340286472 0 0
-218.997985119922 -45.0107540045639 -4.257416549913 0 0
-220.764200502705 -40.6210034049707 19.4294055710327 0 0
44.7372545041919 9.53083481257828 1.82898283143805 1 0
-194.206920884897 28.9166893439856 -7.15200127576068 0 0
-21.5099389581366 3.31867181078193 19.5632892978586 0 0
-102.852883900576 -9.57727979984321 -1.64318940262366 0 0
-190.413852888733 15.6328955650295 -21.9635619204799 0 0
-243.70084060636 -39.1931160641614 16.5977858110516 0 0
-131.690097722016 20.345032178782 0.260939375890932 0 0
-61.7361235610473 14.9337887302402 11.199357416467 0 0
-111.899415919892 12.5769727311303 -12.0005848777319 0 0
-212.854503620391 -40.4579329138108 10.6289791013073 0 0
-220.969390415937 32.0694772586887 -7.44112423163384 0 0
0.170929914210571 -12.6158686683979 1.84260938813458 0 0
-165.961014639468 -11.0078796806849 4.76525744273506 0 0
-197.41723009356 4.16523235940805 -23.1310028795279 0 0
-185.395352534901 -14.509174681032 -15.011450675181 0 0
-157.946977655436 20.3904548476929 -13.1982887154506 0 0
-186.37250634272 -15.288988604577 1.10998523557985 0 0
-205.011251263868 -25.6211481792389 3.1018042116898 0 0
-152.856250666437 1.52789024101654 -15.0156937032239 0 0
-250.515673411212 -33.2465278428427 8.07841307001548 0 0
-162.414934381712 10.366606123527 -17.5535664822979 0 0
-229.153575255233 22.1445597557872 -21.9695029447514 0 0
-192.406055631162 -15.0351568230987 -8.28807254570753 0 0
-240.700637656549 -45.0392476804782 -1.85146393191813 0 0
8.15079973402675 -10.0427874253106 -0.556091434827059 0 0
-249.397274867753 -36.6964009159289 3.28335192048731 0 0
-213.736666142668 -2.27667392567821 -12.5554132843849 0 0
-125.558323811763 -0.77432395592642 -10.1308047926704 0 0
-93.5074703584741 -11.3737878562405 5.3122501852705 0 0
-215.553703508001 -9.90757342016306 16.5516029118142 0 0
-218.707234786731 -30.0573566095928 22.191660034539 0 0
-163.011919416322 -7.70851002602004 -11.1017731189328 0 0
-241.866791287233 -9.69697752822953 8.65782118083466 0 0
-197.922384490225 3.22657392440234 -19.5759679745421 0 0
-189.617948080024 -5.52619790881504 12.0830003668028 0 0
-55.3843885029099 3.89288832111761 -7.24162940251421 0 0
17.383702587325 2.22566352556531 -5.46507037636419 0 0
-232.544024464652 -27.9542518226652 26.0952738452427 0 0
-81.5262822556905 -7.18865058403202 11.4863923876054 0 0
-233.99177434271 8.57971825997366 -16.6554378740943 0 0
-190.537083897805 21.4608165493316 -19.2616563446345 0 0
-29.1615594917632 -4.47337949579384 -5.39373564238223 0 0
-14.2056218069261 -13.3335188489357 12.0604544513667 0 0
-37.4191035833117 14.5825986870587 10.0904119287389 0 0
-227.013914490934 -47.9851104570578 10.8608883795579 0 0
-218.594448502262 10.9267488656698 -15.3060092513984 0 0
-43.3080259586429 14.3449915039401 6.56912455797803 0 0
-65.4968135610476 -10.2961771327657 -1.86096313848923 0 0
-119.454493564663 -5.17216299853464 9.01647820239634 0 0
-221.062921877185 -45.2470865877207 13.9460727007158 0 0
-90.9850090913037 12.1477282467787 -8.5233227526925 0 0
-206.91399102232 -25.5963450758146 -2.37506563750487 0 0
-65.3945540206227 -12.7863709479424 8.2150000476408 0 0
-161.760603437941 -8.32749509069278 -8.93849585299372 0 0
-146.965351003676 15.8257676850842 -16.4779117070893 0 0
-229.937004477617 -13.1258277174911 20.532409761406 0 0
-1.24105212769293 -9.12720749931458 17.0771184799258 0 0
-152.112316534937 -1.98266950472485 8.94515443514072 0 0
19.0057899803171 -12.3761060545416 14.7792520890273 0 0
-166.189025104148 16.4179075518659 -18.9383101860998 0 0
33.7744740700283 4.40142646134405 -3.49138180501274 0 0
-219.324691643247 -4.72072596015881 -11.6197352005897 0 0
-225.371556887375 -44.4925429688204 17.4524268065263 0 0
-216.898593106416 -28.0947868952592 21.1683995333432 0 0
-44.793202448782 -13.050758206909 1.91702112856288 0 0
-216.50271170878 23.5766917134874 -21.5464919888956 0 0
-247.693396127286 -16.4754628207462 -1.20278911347614 0 0
-222.682116647174 22.0275802588628 -21.7083726425427 0 0
-216.163395500931 -39.2402995155744 17.1763092755368 0 0
-238.575407926099 -27.6240976893138 24.2367241334827 0 0
-210.377943844053 -1.64963578652594 -13.4680302873579 0 0
-195.805845733233 0.632849882470998 12.827680850301 0 0
-215.97895807298 30.9426759807219 6.49224099152602 0 0
-197.419107904438 26.648245241528 -17.667662220581 0 0
-249.427401778465 -32.3839859820198 -3.17423089011943 0 0
-187.90842886795 26.009322994658 -0.890994993518006 0 0
-83.2223747507869 -1.11196590945779 -7.12390145243021 0 0
-224.666970114597 -48.4249849396571 9.12162765536272 0 0
-138.219078098905 -8.47036386099932 -3.55756662573445 0 0
-0.866842874031534 7.23443749590201 0.294774510433886 0 0
-10.1653473923962 -5.49979160247555 18.7526494434236 0 0
39.1739147251279 5.5162227290047 -2.29542369485138 0 0
-30.1890761919996 -9.49929618845709 -2.17057096548228 0 0
-224.530221564903 28.0873416199803 0.115597821336852 0 0
-236.273572336511 -9.36209096388228 10.09839815064 0 0
-228.396618070267 -2.73542092452975 0.0767211771100288 0 0
-146.127782909123 9.14289587615816 -15.5974862790038 0 0
32.4768713438204 -9.71038769424912 17.34416882808 0 0
-199.875065536029 -3.19922772115988 12.2487972354277 0 0
-44.128249624447 3.08831407582873 -6.70667985506775 0 0
-131.305260668621 11.6490877273801 9.33864224048698 0 0
-234.757695283687 9.38647839883559 -11.6129206270306 0 0
-163.96021209027 8.38046235469633 -17.8938102157241 0 0
-215.017063740522 -0.205488052217327 14.2875559596449 0 0
2.51185912107976 12.1244500830611 15.4441155093483 0 0
-202.89645373719 24.7234277274149 10.312472095554 0 0
25.7163072941766 -7.22991646287989 -2.3840314562239 0 0
36.8148123636068 -0.768188948460105 21.6107276212037 0 0
-105.977056651741 -1.00778907157299 -8.57106842896222 0 0
-58.0082334832738 6.37598939898575 -5.9690848220801 0 0
-28.9042980653337 4.38149583806247 -5.0195400150906 0 0
-186.637197059002 -15.3827149633927 -2.47983218154831 0 0
-113.374555067033 -10.1568587329015 1.4061068765791 0 0
-229.166799702409 25.5512654547658 3.92184975091466 0 0
-209.00182384144 2.50214829474669 -16.4304226219017 0 0
-209.670122587106 5.3178388039479 15.3774394989117 0 0
22.2955209569394 -1.65166200527 -5.2587546741573 0 0
-169.029247083217 12.245582941992 -18.8020970992421 0 0
-219.906911818325 30.1372489685425 -0.567647796791941 0 0
-167.260287103235 11.6865506224638 8.36711086748431 0 0
-243.627024198001 -42.4810435455265 -3.48481553531537 0 0
-199.214931838721 26.5567867637676 -18.497071670246 0 0
-64.3321813432697 -2.31870674057043 -6.04765934283831 0 0
-139.272229436165 0.0479099550281069 10.0301860155782 0 0
-98.4226038960905 17.7334460167851 -4.58359019119548 0 0
-132.709520548772 -0.728365077367754 -10.9779836502346 0 0
-249.512439043091 -35.7791402116434 0.806814777761558 0 0
-46.5953362498565 2.10561709865215 -6.84331280389964 0 0
31.5665238850249 -3.77683364374779 -3.93522596921952 0 0
12.611540605084 -11.6290222642627 0.835061384772951 0 0
-175.760397629585 23.7294814142624 -17.4326272703409 0 0
-237.381392272611 17.1074764539281 -2.03222441260165 0 0
-97.357740063976 7.39279175141408 -10.2466277338099 0 0
-49.7995884607376 12.7094574045234 14.1240521713221 0 0
-218.075725854629 12.7086502651546 16.2349893654692 0 0
-222.847781677369 31.394954967548 -8.24984097645441 0 0
-225.215265469414 -18.3009709343812 -14.7281103861527 0 0
-200.420303519879 -3.98970814364328 -15.745136520259 0 0
-162.184175971485 20.7809888644733 -16.3043788053692 0 0
-248.149056137536 -24.4498687320291 15.6215600464089 0 0
-14.792452288485 -9.56691737881001 16.298398592875 0 0
-238.324401397213 22.5371372675728 -8.22675156664526 0 0
-187.671243293181 16.6259063031579 -20.9843011097965 0 0
-7.75784908104637 12.2785927844244 7.80333931477563 0 0
-90.1742074903117 18.0682781153934 1.3517504976272 0 0
-63.6282027634497 1.42426016491096 -7.57280484629287 0 0
-35.5299923361157 -9.65718676956578 14.8192577852914 0 0
-200.093434520249 31.8045659616626 -10.0368285155264 0 0
-209.217805492689 -28.3891591196371 9.36825002470648 0 0
-51.4816964811695 -13.3186522562634 2.2954229479426 0 0
-113.585360887793 16.6645427951583 6.54214622329309 0 0
-169.734566865787 20.7985469811531 2.44409240233079 0 0
-216.545138783401 18.0411675629832 -24.1989124807349 0 0
-226.127643272304 -13.8856676659414 21.2664105829949 0 0
-79.9663356374347 1.27329213590752 -8.29214292603427 0 0
-37.5076218522928 -14.2926719821753 6.20203416962924 0 0
41.5540139962697 -5.01460048043707 -3.43584946046705 0 0
-219.066859648061 32.7230635871775 -7.26509952037424 0 0
-154.422767578414 19.096133232015 -14.4768603585098 0 0
-184.816713393813 -10.7820910101377 9.08326975365014 0 0
-196.250345389891 16.9407028720951 -22.885999154925 0 0
-23.7613428823034 11.512489585738 4.55793058675658 0 0
-199.895151624074 11.4468030298644 -25.0804697716392 0 0
-27.2868465136844 -9.55712585229664 -1.90802583210765 0 0
-119.851555768092 15.7487816345155 -11.8716516341362 0 0
-153.613030062337 -8.35133678555685 6.5924862615056 0 0
-172.461766184564 -11.4955105888542 -11.1843809206423 0 0
-111.625104475993 -0.278856554234533 12.7491820065122 0 0
-206.12738023956 -4.11893651463665 12.5492533655578 0 0
-184.502041620545 2.15055404724277 10.2161205332286 0 0
-234.060569779163 8.69886664452164 -19.3549892028055 0 0
-220.952398705778 31.6638910253522 -2.28432183640931 0 0
-221.27548982719 20.3726623932656 -22.7212648277353 0 0
29.8066500246447 3.94594960808142 -4.21577926052916 0 0
-136.630628181702 13.864705942129 7.80633956949934 0 0
-144.297257035321 4.60775590558661 9.9488993032374 0 0
-213.955136320994 -6.3078229437763 15.1638854309484 0 0
-114.194807342284 15.005083768113 8.16191595367673 0 0
-85.8369754529202 6.8623858225233 14.8607352862629 0 0
-227.948523920104 -1.27559836758618 1.46159935020196 0 0
-235.784107592851 22.2454142335858 -13.7577648729691 0 0
-178.221365820342 -6.03974278091789 -23.6473001047764 0 0
-225.267559851812 -34.736532935328 -16.0150174689792 0 0
-114.458297867789 -3.06473299990319 -8.35292392563916 0 0
-216.968774064863 -20.5102131273583 -11.4742903900453 0 0
-222.318809384059 -8.00631331514233 -11.3214510947902 0 0
-223.768714473531 -32.1313678832707 -16.4204758906262 0 0
-96.0027483544345 -3.2265673958126 13.1960590982961 0 0
-91.7404499923262 12.3472018713765 11.7734540078856 0 0
-105.996722982929 3.12254733401925 -9.99139189445989 0 0
-58.5307977461236 11.360904331252 -1.43420968185181 0 0
-214.85028686056 -8.29550501981348 -12.078572152959 0 0
-20.0356650612973 -2.29473303870952 -7.73709971455492 0 0
-178.243210730351 -4.49563658727707 10.6686939482428 0 0
-235.215653697076 17.4643209044199 5.38816444138533 0 0
-154.448987806862 17.2443372984163 -16.5179312690366 0 0
-145.738013885013 -8.3668948241964 -4.74886878881713 0 0
-228.067751185382 5.05929776208507 6.44404127009713 0 0
-214.322651329618 16.6702517931257 14.0372310807743 0 0
-71.0951188467508 10.0331239575414 14.5522971523321 0 0
-152.40847056112 13.732599383107 7.31497869619405 0 0
-188.708220837685 27.0263721196804 -5.81714402549597 0 0
-230.736026489201 -46.3181927327908 -7.15060826889135 0 0
-234.541800604017 12.4387123668852 -6.23773373157422 0 0
-206.694597088112 -6.44155721849544 12.3984361477859 0 0
-245.333272992986 -22.7413497769078 -10.1205759544918 0 0
-195.732006177694 -4.99330617537743 11.5699972210059 0 0
-210.899505821781 -29.3282055514959 13.4314704953704 0 0
-174.675637449732 21.867896576406 2.07834665233882 0 0
-220.694902267288 -7.21083668515106 16.1859124085798 0 0
-216.02998380792 -43.457624618052 -3.32800402565418 0 0
-49.1833370686851 5.56494718050948 17.7215791368495 0 0
-212.969928591163 -10.8519256144335 -11.7189992641245 0 0
-225.804238984816 11.8976464235296 -16.3882250212827 0 0
27.4903387557912 -3.44732150015672 -4.32943341246889 0 0
-51.1960856618184 -6.89170815947572 -3.75175503360328 0 0
-94.1179394754839 11.9895728573822 11.8522759661044 0 0
-97.7853669878286 -4.8205190385687 11.7012121136028 0 0
-100.666567514057 -2.31069545452493 -7.7074715915047 0 0
-202.398221195648 33.9491204400882 -3.6540795378331 0 0
-54.6073741002458 9.73753485611003 -1.96301257771352 0 0
-186.354824345366 3.9747217834182 -22.8476526138914 0 0
-129.937599975766 21.1031215191053 -3.84383553458813 0 0
-173.028332464502 -12.2558506988045 5.42366480148282 0 0
-201.689094310531 -22.0898245397144 4.06284781265008 0 0
-107.74170523238 19.0621485498571 2.62285349365777 0 0
-148.470036950703 19.3732130238665 2.35639119121696 0 0
-212.312776334366 -0.159327259566919 13.9557663043632 0 0
-90.8096216081121 0.562543766254414 15.0750260315029 0 0
-184.244148111718 -14.372365443508 -18.821087791305 0 0
-160.527998153197 -7.28018666815099 -10.3461760798506 0 0
5.77386385551357 -13.6018325300783 2.96268773209091 0 0
-215.463860193175 -25.8084517554529 19.9953443071189 0 0
-148.426761309374 -9.50339476983697 2.94016604359801 0 0
44.2453992697434 -14.1269891557618 2.8353313249877 1 0
-69.1587454914497 5.40010744450538 16.5216770162592 0 0
-234.337610712627 -44.9855101578336 5.35726079000169 0 0
2.89918416514692 6.27843797625923 -0.654462441319106 0 0
-216.169862562287 -16.9577224753041 18.9846588211505 0 0
-177.879851866301 -11.8325357354 -7.45260463360953 0 0
-150.451999724616 13.5919935190763 7.42066719673495 0 0
43.3083679393632 -3.14711293636756 -3.81043729879764 1 0
-148.313665847583 16.8727104360264 -15.3863084635147 0 0
-3.49589761104111 10.9723585057475 5.23991745623107 0 0
-218.011954243658 -10.248178333683 -12.2244217308743 0 0
-70.5620773942496 -12.8027502497356 7.53414911615671 0 0
-235.016369526009 -9.07513877844164 13.0396616263133 0 0
-224.999506949434 12.6221031586231 -22.4537072093072 0 0
-114.33596157053 -1.00497924191435 -9.13319995838078 0 0
6.35750143957313 6.62411565650443 -0.159569198569813 0 0
-187.899219875255 20.5628045981986 -19.1012427666521 0 0
-31.4914891077161 13.7571259758641 12.9253197423838 0 0
10.2187965756016 -7.02305247161475 -2.64828655351015 0 0
15.760417033712 4.27220647012237 -3.37542358836114 0 0
-195.641516888347 -5.32364108727601 -16.9032814567872 0 0
-209.759423712799 -21.8891478120729 12.421865664012 0 0
-246.306809528258 -14.1175214834706 9.66196314689735 0 0
-193.874138738603 24.8771389081538 6.19785306417827 0 0
-206.771724615876 -16.3383160690213 12.0125325164868 0 0
-64.8242404997101 8.32197840078367 15.7573505758803 0 0
-134.442360020287 -9.40012476348833 -0.621611119772513 0 0
-227.823894345855 -18.3407393702811 23.9905312443566 0 0
-78.407425492332 11.5615087048732 -5.50055404734291 0 0
-230.862228735127 18.8711070829752 -21.4604600357282 0 0
-146.013438247284 21.5405220411048 -5.1578898420802 0 0
-193.379292914174 26.5276074551879 -14.7713789636452 0 0
-229.607222541725 10.9952780880629 -2.13487624651029 0 0
-185.609419073523 21.456945229371 -18.6215667128081 0 0
-212.618602887543 -31.4043555715502 17.2220069963503 0 0
-232.793607309909 23.6325195940779 6.22854153701748 0 0
-211.448220647047 34.1302291903469 5.00293689135267 0 0
-225.229602978479 5.14191546569916 11.1832296664836 0 0
-120.925497879534 12.2790771057671 9.60281035853476 0 0
-58.1029184415343 -5.66197822579771 15.8517176581643 0 0
-169.705420618346 19.0085323643174 -19.267647934207 0 0
18.7469879983946 9.23602342872073 18.8462094850446 0 0
-230.047689930465 -36.347541373527 24.3088771987526 0 0
-130.069023150668 -1.70790190976926 -10.2320226119417 0 0
-235.705097557823 -36.805838011886 -14.6044089391439 0 0
-33.041348146101 -11.2325241748709 -0.478995469092585 0 0
-241.885951623708 -43.6797646169112 12.0174474664234 0 0
-197.456899109411 -2.61856155982436 12.7692475157032 0 0
-223.87146265547 -9.75927471784369 -11.9151429725892 0 0
31.881702693507 -11.5466000803907 0.612650816798839 0 0
-229.429580087199 27.5230661914942 -3.1730490694434 0 0
-162.752094169287 6.01541046976591 -18.0139425215524 0 0
-235.718166833536 23.7414268819127 -2.45682146076337 0 0
-243.358605516836 -31.1774797473362 -12.1866356454638 0 0
-237.085371547727 -22.5812730311974 -15.6493625210138 0 0
-212.314085689296 -36.2043880270435 -2.94187766915395 0 0
-146.000245276063 -5.35176149141072 8.50943485478865 0 0
-79.3089278878244 5.32056823547126 -8.56633923809019 0 0
-168.0925182854 16.7707744789189 -19.1383703577928 0 0
-78.3592378053989 -11.744653175739 -0.242965001697828 0 0
-73.8887804794986 -12.7412871047419 7.06527608293157 0 0
-93.0324584463792 10.8230728805391 -9.85229162342165 0 0
-227.045920453859 29.0412665214217 -9.80099856500177 0 0
-1.20183485629463 -13.0420510390794 13.3625216553833 0 0
-210.585294459349 33.8482719049812 -11.09666500074 0 0
-233.188490337281 -13.3659758511149 -11.6024076533988 0 0
-51.963833117569 -9.01335463577899 -2.52801678029348 0 0
-180.005904955222 23.2756521519149 1.20400981788188 0 0
-215.095609071932 28.8254709263869 8.42413892992795 0 0
6.24283986227612 8.26876517779696 19.1118495619141 0 0
-117.573319698297 12.7076201795989 -13.0516212660301 0 0
-84.0333305017712 17.8157567569637 2.75691416286592 0 0
5.06488741676474 -4.38205936438797 -4.99010658031851 0 0
-65.4484277405794 -10.9490182147864 10.3603856649081 0 0
-113.800773965149 12.0947608048546 -12.4162258120006 0 0
-83.1546889536423 5.20176484698699 -9.01193330133024 0 0
-168.398858900548 16.4992161571961 6.1780472445951 0 0
-223.705848791913 -0.392383750749915 -8.49041300920525 0 0
-74.7826974062844 6.39942967857585 -8.43654795036234 0 0
-93.4978805752534 17.3496188905852 -3.25739299571612 0 0
-25.0642618654894 -13.5613802821909 10.7831966292794 0 0
-123.11020678469 -0.449637078500258 11.6371562919616 0 0
-190.944574216567 25.9639717781925 -13.7774415169732 0 0
-147.596108146403 19.4527383019013 -11.4830603107993 0 0
-205.286330255331 30.1972861005643 -17.0361331277925 0 0
-78.3025027907668 5.71023859607722 15.7061357984582 0 0
-138.472216856307 14.5760864631123 -15.6062512507908 0 0
-230.354964340358 -26.6185533933786 26.3661148120773 0 0
-174.692711442576 22.7018450657674 -12.9122667908657 0 0
-228.568481786548 -4.96603401595515 8.47493777557643 0 0
-22.5901934387849 8.45337915368438 0.52414295134511 0 0
-172.658440854566 9.59923447158614 8.1849570914354 0 0
-6.49096907284796 12.9372812306962 10.4825085780747 0 0
-150.58443428757 -7.330500549258 7.50491932617616 0 0
32.1486331203422 2.76990970626013 -4.7008748468217 0 0
-192.682533376845 -13.0170478510536 8.70942883581962 0 0
15.6836135639916 -12.4611613135233 14.6284080589423 0 0
-236.742669492679 -45.1963558821026 0.272492959574419 0 0
-244.70016179522 -28.1240338076672 -11.5675838929941 0 0
-209.008960677244 3.36795453423417 14.3133454400323 0 0
-221.256849523625 15.6248554756673 -23.4796229648557 0 0
-215.667180533493 7.69658153165996 16.4300527369425 0 0
-74.0399372609645 14.3269825131532 11.3799264995773 0 0
-238.415702778303 21.5960539550457 -5.92811317208748 0 0
22.8350820311442 9.56821248007476 3.38795997316974 0 0
-70.6006889263012 0.470062793705981 -7.79412752747634 0 0
-234.86803594199 -45.7921542041616 -6.57168100300103 0 0
-124.221767451163 8.62143730230715 11.1877949699451 0 0
-222.035216687999 -48.1369444452253 6.92744251292737 0 0
-143.560685778476 -3.93132703428421 -10.0514645669334 0 0
-136.802357652161 16.6860623169684 -13.3270934267135 0 0
-179.44601947039 -10.4576067002693 8.74457124166473 0 0
46.2746217327338 4.15677115247869 -3.90143185524517 1 0
-22.565953248508 -14.7921011295263 7.52490728812929 0 0
-228.031314843311 8.88829548283776 0.576115370989084 0 0
-31.4231007838969 -1.98904923870656 -7.53372968625364 0 0
40.2162203936767 -6.68337458413049 -2.44477881103252 0 0
-78.3563608448174 16.5066765244633 7.65239898515647 0 0
-189.365874035111 9.99017383876416 8.52327387958236 0 0
-242.698691483905 -27.0541266808157 21.8037197620164 0 0
-127.0131956745 8.26264289918488 11.0581845629022 0 0
-245.478902143911 -37.2899250685123 16.0860455641171 0 0
-228.195439777988 -20.0253261913825 -16.5541276316123 0 0
-213.202359320325 -40.7832214716609 -3.07722073659856 0 0
-238.312587388763 13.0852516964414 -7.91222673348289 0 0
-238.537865864065 -40.5389754164906 -10.907473087393 0 0
-225.466567340419 -37.5408627945252 23.3869032321753 0 0
-200.812287625976 30.8927406461368 -12.9805214113517 0 0
-211.259603616947 9.98440406880719 -23.8809214405554 0 0
-229.881984815454 22.0629032351442 -19.7775524439485 0 0
-36.5915645063116 9.57699629340703 0.719961455838245 0 0
-224.785964739887 -37.673163453552 -14.7585880116018 0 0
-234.222956986755 12.1862043980251 -4.14251697167662 0 0
-3.56118265314988 10.1939196702269 17.8835375868754 0 0
-224.70626658971 10.1534735327593 13.339339109578 0 0
-140.682969903384 -1.53482818369024 9.6350700067032 0 0
-194.030056719403 8.78740330857885 -24.2250397108863 0 0
-220.668283406876 -37.864301181876 21.4952158967425 0 0
-191.561027702464 9.00293721094429 -23.8227295056312 0 0
-220.218746789249 7.76335091172543 -8.04638806297933 0 0
-173.01351289543 -7.30120259163704 -21.1744690688393 0 0
-212.135216559355 34.9527066465856 2.50792455270944 0 0
-235.352691164813 -26.0749820600615 -16.8265309434254 0 0
-235.777343671651 -29.3146541340649 -16.5883361749174 0 0
-220.489999212275 30.1337074934742 5.86889132707925 0 0
46.2078851241594 6.34956956998866 -1.68376289533229 1 0
-29.9281330279163 7.10906621070543 -1.55277568957054 0 0
-182.147835400568 16.6693615204257 -19.7816859598936 0 0
-145.025070980378 12.8020525822887 -16.2890625007949 0 0
38.4216315120865 -6.65108388547989 -2.51948866352 0 0
-230.913939641706 22.9647224700911 -17.5655349571403 0 0
-226.888624286958 26.5855116589206 4.6708557440477 0 0
-66.3806572161683 -7.15766931443492 -3.9230916515863 0 0
-133.083192413709 2.82734721990811 10.9417910580333 0 0
-165.732273219141 13.3717279424636 7.73126513978837 0 0
-9.41694746943655 -0.610445744712553 20.199832277069 0 0
-215.661612174136 23.1532523089829 13.2011724033267 0 0
-215.965018519396 10.4918855929444 16.5164338936661 0 0
-188.760978945058 -14.9818647454154 -6.42532541686614 0 0
-219.92353419883 22.3344451902517 -21.9629072774635 0 0
-133.427137702977 10.0485167639824 9.86655550974799 0 0
-38.6182225318723 -3.37625457767902 18.1985914959648 0 0
-66.6458910385649 12.090758913338 -2.08969340985858 0 0
-153.855377433365 4.39105943009679 -15.9345360689293 0 0
-32.7347197547148 4.94493637014418 -4.39597727437862 0 0
-192.288805793124 13.3097141084238 8.84786731874382 0 0
-164.594593486077 22.2288992273881 -8.1368046224269 0 0
-153.994486182818 10.2224313153304 -16.5459467087755 0 0
-170.624564948787 -11.3002392455269 -10.5043214086411 0 0
-2.59981910937434 2.94390087502445 -5.29174347405276 0 0
26.5719214406479 -8.83265962290812 17.8780456585727 0 0
18.8816375745001 8.63954343534705 2.09992930048234 0 0
8.55361900684221 -10.5028814063388 16.2674338667554 0 0
-217.422246910974 4.55531321896314 -11.4047304180713 0 0
-214.311308066228 34.5246562994933 2.791763402767 0 0
-232.90232253697 -8.08799914892509 -3.42937177680624 0 0
-238.200524534988 -31.4222915246252 -15.3276578908296 0 0
-239.524500516637 -19.7154418886699 22.3575783053782 0 0
-141.846894730561 15.1337490778201 -15.8894063682083 0 0
-231.530943789151 11.8345972213549 -3.70352341361362 0 0
-198.533452735978 31.0895515806462 -3.21735697091844 0 0
-106.253967996944 19.3890215582858 -2.48478788201166 0 0
-238.140603985366 -10.7457558252904 3.51299122353731 0 0
-186.439764607349 -13.6160316951718 6.10796853570197 0 0
-233.756222890975 -35.3953875307164 24.1585934560027 0 0
-75.4151203234966 -3.77674889386206 -5.53317574490605 0 0
-226.54695976702 7.38479339321011 -0.943187128837234 0 0
-32.0625102506411 -11.109557906716 13.6179188902443 0 0
-108.925365658799 -9.35180778838592 6.75416025469899 0 0
-203.02213072666 -4.27076095067602 11.8607211882166 0 0
-204.005860663521 -14.9173123230233 11.400938492635 0 0
-92.767634637322 9.49610999525524 13.3439135142815 0 0
-243.375005453025 -36.7328657685502 18.6672844685022 0 0
46.1604606854844 -8.62722602527451 -1.35374654789592 1 0
-34.7241321936957 3.82233550660404 -6.28661793560817 0 0
-129.503621770048 -6.23414207898435 8.02733392882236 0 0
-171.619163606147 5.55939843209104 8.10292212180478 0 0
-138.91454969988 -2.09313240384449 -10.7946387282006 0 0
32.1383778324437 -15.8640506486323 8.82865525111996 0 0
-210.923208973693 -12.4155657030856 14.3938840816374 0 0
-71.2436609473663 16.7528951003323 6.28405338523445 0 0
-210.945177747924 -27.286575724174 13.5088958061165 0 0
-150.428329108461 -8.87741708999288 5.73202549061207 0 0
-78.3701968411214 -13.0163706712618 3.83362468542263 0 0
-210.67865309681 -38.287645311564 6.4465609817998 0 0
-153.557071554568 -9.38342226745429 4.69888225955478 0 0
-96.3262241936767 3.29959741623302 14.5500117517179 0 0
8.59455569063609 -6.21855262870001 19.069920609579 0 0
-123.536696074637 18.2115366906205 -10.3196922380126 0 0
-174.532300982507 14.2670385643086 7.73095321147118 0 0
1.38469962724919 -13.2631043593372 13.2114133375017 0 0
-152.275378266401 3.16778525710772 8.9563891810521 0 0
-18.3149181397976 -4.14309555787742 18.8699152287092 0 0
-225.134993982076 -26.3049768038113 25.4067835565188 0 0
-57.245193624976 14.7628094592845 11.134954054243 0 0
-147.206432169266 -5.70981765225435 -8.9513507397101 0 0
17.7822780529799 -6.09249802126155 -3.17827082953187 0 0
-27.8657140494472 -1.92241116815845 19.0559268281104 0 0
-131.485246567143 -8.30068076485674 -3.64664204862491 0 0
-143.067786496638 10.3224317545091 9.12202698557064 0 0
-208.160914146965 -11.7171778088679 13.5118277104017 0 0
-225.61671149945 0.663993914657474 -4.42325179492845 0 0
-126.853842893625 1.26951940862745 -11.0854738658418 0 0
22.4360678904303 12.2481098606456 13.3085093034727 0 0
-203.28809374964 18.3857021157631 10.4220919542937 0 0
-72.877760437132 -11.2640086117124 9.52460614774219 0 0
-50.8578153989221 2.22466399307206 18.1659758612231 0 0
-226.308682825591 12.8376680101807 -11.9330322725187 0 0
-235.066255164822 12.2423941294546 -22.0079658264909 0 0
-130.354797061468 7.07815062016774 -13.2809855543811 0 0
-230.387249798215 -7.32179679532869 10.8170459851522 0 0
-237.82278672393 15.9443224164148 -3.97464977756472 0 0
-42.5754046314401 -1.20766617395854 18.4167042240681 0 0
-158.929470239027 0.272820301758176 8.78656370698333 0 0
-232.469661146941 -46.0543093122106 -7.46003462455196 0 0
-191.371860170171 -10.0912055830441 10.251334074013 0 0
-171.546523193405 8.94824533934295 -19.5349696541683 0 0
-14.4568688885831 13.0406888095964 13.4305789740795 0 0
-199.858766255072 21.090164202408 -21.3405994049306 0 0
-229.590393319832 -4.74332251001623 -0.874449369987723 0 0
-159.6402480577 20.5679573842618 -14.6213032496301 0 0
-144.55977570052 -9.13590324470243 -2.06065665997337 0 0
-216.386055792526 19.9640917107595 13.1245986314632 0 0
-63.4126536408052 8.50561134730735 -5.04889888091523 0 0
-218.318734919164 -42.9891553100746 -7.29925112692614 0 0
-242.447973483425 -24.1599570012247 21.6795764173477 0 0
-213.864029075155 -24.9620073517622 17.7284361135379 0 0
36.450095441235 11.4164957617845 16.2014106166968 0 0
-160.956716967831 11.2682901185625 8.38476189204908 0 0
19.5491799285929 -15.6427483594895 10.0486103983187 0 0
-218.88553388208 -13.9910490626764 -12.3634730829958 0 0
-64.3368620339445 11.7438065478803 -2.06458051225074 0 0
-163.494218519856 -2.69361713105928 8.75023776079002 0 0
-113.152374385732 0.307950218626781 -9.93274485158731 0 0
-221.573183704682 -3.2413939562828 14.9477723066022 0 0
-121.654223623299 8.96992876082483 11.3522030151607 0 0
-40.1838979023159 9.42388790154239 0.061519066022682 0 0
-203.945254084646 -3.8298934107602 -14.8880680217549 0 0
-235.47096800959 9.53733696533237 -20.3168251705198 0 0
-194.339873811076 -9.75854684252814 -13.9947035488578 0 0
-143.295280634876 -9.41677655996814 2.88245507522073 0 0
-221.706969718514 -5.37149755241667 15.3921926901048 0 0
-238.004351116772 14.6630992447466 -5.76554222472282 0 0
1.64086026590394 12.5237613009738 10.3254205054254 0 0
