"x" "y" "z" "f" "a"
25.5459807108711 -15.898158150169 -18.6780010958737 0 0
158.812665126511 30.572890806743 14.3236760684315 0 0
193.207312708625 26.3355608820222 31.1319559728607 0 0
168.018720835475 -35.2068177360579 7.93220670865958 0 0
196.094573804469 13.6811853712075 20.1732963433309 0 0
172.199409138622 3.18976095712441 15.2623513909125 0 0
101.648352953681 -13.9196359486461 2.10913171575754 0 0
188.280547840737 -31.056873016743 7.61282658894214 0 0
73.626528262523 -7.32696153362511 1.7677203081261 0 0
-8.59386013406699 -11.9435964092307 -0.462363158810876 0 0
168.812038848425 -19.931186725099 -23.5167624370617 0 0
-17.6760799342363 6.04022191741648 -13.8063538489921 0 0
97.1156784410965 4.11130826020588 0.478005369897977 0 0
76.4313066852883 -7.42542716122687 -21.9028430273142 0 0
82.3475337408065 9.44412011483926 -14.5022057193995 0 0
76.6032559352004 -3.66784643835234 1.00479494212487 0 0
191.400127252425 -5.9455495872319 0.348280845505803 0 0
143.906404712819 17.3289221049938 8.26829348250143 0 0
192.252235628913 18.2416528695958 29.2700274351673 0 0
157.229991061252 5.7129112344747 9.56194933056953 0 0
6.3555403326014 2.20597074380581 -2.30402721792478 0 0
83.1198922274782 1.91724789629721 -20.4715010214555 0 0
147.214576912372 22.8623155088055 -8.04357580438269 0 0
159.095337749669 10.0406913126079 12.5916202156571 0 0
179.249521521001 36.2894750449224 30.5938299901235 0 0
166.447685649756 34.7462773408238 -2.6706068080643 0 0
41.9539192118868 7.49971274733165 -6.64334026664195 0 0
155.552575723735 27.7767199012325 -4.46307173450305 0 0
33.0982140465238 -12.36220468691 -1.86136453825761 0 0
156.969326884564 -27.4515728382564 2.43937025004479 0 0
-29.8448319085889 -5.92196273854122 2.95190249216535 0 0
92.0585466915202 4.61262275626072 -19.1334391436141 0 0
167.849139764929 -33.3261365621006 2.31867483356769 0 0
-33.2431728398642 -20.3508437710455 -12.1222671928103 0 0
187.912795760266 17.0753448500781 -18.5914299273576 0 0
-31.5436322777577 -18.6769742115524 -4.67778008187525 0 0
195.028808454867 -21.5122503507033 15.3441204721325 0 0
-14.3112388631624 6.50770071624752 -13.5185651457194 0 0
53.5689773527557 -2.7121934897432 0.703321966751412 0 0
14.2358684261768 0.982661427552166 -19.1593338460779 0 0
-37.6614668761666 4.02977052001426 -13.8593601283834 1 0
138.194232855828 7.29096324107758 5.59917587671705 0 0
121.954724040721 -7.7885701952156 4.66650953399652 0 0
72.559034505657 -11.9146327661978 0.0381223043010066 0 0
153.997127194732 -9.91355429071178 10.6142425933576 0 0
118.780470251492 12.6460394308942 -14.956295985203 0 0
-18.2470389571579 -4.83006521937187 -20.6812340328115 0 0
89.5232355233347 4.83099819261646 -18.8622032599738 0 0
17.1922054376472 5.15324550156893 -16.4112897136729 0 0
23.3641659982476 -1.88609098698961 -0.0417317464194008 0 0
156.911846988916 31.3365108665303 10.3033468975979 0 0
160.75930299545 0.931785589848518 10.7918566333109 0 0
146.992364306443 4.82315512772837 7.20980058076567 0 0
69.1897784946804 0.283290181023289 0.11580313490779 0 0
-35.0075043406608 -8.83325454799699 3.91912094293986 0 0
-14.7555711155739 -4.97742406618718 2.37399392046233 0 0
63.0580128846141 -15.6799767338632 -12.7471002063502 0 0
137.976427826087 16.1245119935334 -14.0730119574621 0 0
149.269607237034 5.25702087888047 8.04628032543719 0 0
177.90188392854 -23.4303990506349 -18.685498893146 0 0
17.7272256761864 -15.2399750734104 -4.96505586837625 0 0
163.021795311968 6.51056165232685 -20.2548916571201 0 0
-40.2241913357826 2.62429528864368 -14.6948228653084 1 0
198.409986214278 34.0294781353155 15.1727188224517 0 0
36.1499001532428 4.09444338028036 -3.29701427319258 0 0
176.260400872739 -30.6284559541975 25.0680707257995 0 0
36.45733527099 -13.4777858548833 -20.1583496652558 0 0
95.1575406445548 -13.1867734340357 1.83176376179169 0 0
182.340417345001 -33.4293285067386 23.8678070488998 0 0
186.153346615727 -33.7915712665706 22.6472864317042 0 0
160.451369629621 -20.5934190200367 -18.1616842963291 0 0
104.442752708913 2.89780590554418 1.63909903734916 0 0
154.165443216833 15.6591013234004 -16.6000681095839 0 0
172.010212341075 15.0046020802533 -19.790496895 0 0
159.372530091624 -16.9466296305939 14.3615957881634 0 0
188.039936236961 -31.5787423559421 13.6445160378763 0 0
194.880252367509 -16.7298923386125 5.03937171732527 0 0
-9.75593946451991 -19.3333272686361 -14.6050447686539 0 0
22.5754402603059 -9.51302156230716 0.580174481320477 0 0
144.467578622911 -12.315076207781 8.14226052431329 0 0
172.550650532928 27.3767661964209 -12.5615609862233 0 0
145.907524374223 -0.651677609928637 6.887556359643 0 0
116.848101548044 -16.5481815088721 -11.6295818029962 0 0
183.322693072845 0.639002454241106 6.59797629421268 0 0
-26.077520933868 -14.8858968350988 -1.20755846810774 0 0
114.862041220267 3.48925518686467 -20.1871755340703 0 0
125.935316205581 -14.647247692487 -16.6899955345295 0 0
56.5851767324021 -13.8150171754918 -2.85085586903382 0 0
198.496793940039 29.2653475510989 -1.46091267510315 0 0
153.484170721459 28.4764144853059 10.8612678930027 0 0
140.083913458999 -4.35427727504181 6.31032414613216 0 0
84.3370508961874 9.99415115908286 -13.9065799249639 0 0
174.662380576102 -20.8607159409789 -23.5634954067136 0 0
108.659268081349 -8.50936436033732 3.54372481776123 0 0
165.729102709327 34.9901607216008 18.2340034438884 0 0
42.081996118024 -16.7755592048862 -13.8546168334552 0 0
162.502673283403 -32.9184094151373 7.02781659124327 0 0
166.242899067518 33.0506116538817 19.6035871127297 0 0
65.0930949258627 4.61051656711471 -2.01000538801289 0 0
37.5396064259581 -6.95956006559389 1.68581653314066 0 0
157.985781963625 24.9291405745293 14.4582854751104 0 0
154.659073250894 3.37839538709153 -20.5381751908387 0 0
154.096860939104 -11.9937957429686 -22.3585718513059 0 0
153.787988787245 -22.3471512286331 -9.64023396138663 0 0
191.676186300097 -30.7700714740556 7.7424709783955 0 0
159.835425811895 -3.02208184680973 10.6160968738944 0 0
170.010904433446 -27.6864529608952 -9.84046716616556 0 0
7.02432530064179 -4.77406151618487 -21.4856793132351 0 0
20.2678320035533 2.3956851662804 -2.26091126559344 0 0
-13.7481518253683 7.13111745450717 -7.42466774353316 0 0
156.971565694578 -9.37844285043408 11.4191196197077 0 0
114.725995915651 -14.9957476557275 3.00216370466672 0 0
52.1431814470621 -3.68009759454898 0.855115556030402 0 0
189.949100684804 34.385083979001 30.5909631504157 0 0
180.960104251558 -15.9097317429717 -25.3077995097713 0 0
172.396283270442 -2.23418496265818 15.6065766413389 0 0
49.8284246990655 -1.03193672668546 -0.0554648234394678 0 0
152.420420881644 29.0717610806092 8.97628187854672 0 0
179.315594633875 11.9307077139716 17.676252753212 0 0
14.580156292247 -17.0283860363165 -8.53804130165457 0 0
121.670422016334 -3.12097493136559 4.1943708144161 0 0
139.724177384013 23.0246512794803 -2.82401744928398 0 0
187.286411167507 -30.8422626157045 11.9791202156417 0 0
45.8636447925991 -0.598525854295745 -0.407193498208389 0 0
-8.4340866537295 -0.590433111844171 -0.626818137214131 0 0
121.302421198127 3.41131627448109 3.29229374750601 0 0
192.980345265923 -31.1750319673071 8.35315961948884 0 0
20.1179106618647 -3.08072917436356 1.08085246336484 0 0
185.074468071153 35.9604638416697 23.4242688546028 0 0
47.1996563442184 -11.3710944596954 -0.932715525042347 0 0
179.291568262127 37.1355245325261 0.889674320381755 0 0
107.738621122838 10.2676489265202 -15.7136453532574 0 0
184.410413367162 -33.5318848245179 22.9321714512125 0 0
78.0489064533137 2.68309885274387 -19.9941083454757 0 0
146.314989735855 -12.2153280634623 -21.0114237486491 0 0
-31.0425645254435 -10.3081471849732 3.29160872135749 0 0
134.07736954185 0.0914200112473073 5.26584201184311 0 0
8.64424403864828 2.74673688213739 -2.72321726927373 0 0
161.089473657291 5.40145556602302 11.5376977431119 0 0
160.405532911591 -9.21768325506781 12.577966293006 0 0
131.154728893799 -19.119597357247 -6.09318313861062 0 0
-33.4265865499388 -12.3917158426748 1.57943764157085 0 0
161.324326651934 15.8516157688561 15.1475405801471 0 0
2.99730645309845 -9.56016635273479 -21.7416337444006 0 0
176.667887726897 38.8740474090253 3.49619202897928 0 0
-32.0834773472829 -3.76142020587268 1.65140444345397 0 0
124.026364704831 18.6003871766047 -6.84576261614104 0 0
-14.5531264072162 -10.328521493997 1.24714285427982 0 0
178.871108026502 -31.7594976627033 -3.55160453923267 0 0
186.077901220782 -16.3144271522493 26.6585512455477 0 0
35.5203608168906 6.52677588723433 -16.6019273745737 0 0
165.382845663266 15.1366231541366 18.9425081090895 0 0
-14.5556458344578 1.71299950890107 -2.0300472799235 0 0
176.527456170933 11.1514567628812 17.8978494294202 0 0
178.123720576379 -27.4550609583795 -11.5626237014951 0 0
189.073971365956 -2.50526726659719 -9.4513608115375 0 0
141.998112309768 -18.3296650919844 6.53110040105585 0 0
54.5620638498364 -13.1308020077054 -19.7023869772044 0 0
172.097775657291 5.77042599954298 15.6448473909616 0 0
-14.5153811319826 7.75066699126502 -9.71530609153585 0 0
166.95881192292 7.05777880189815 -20.8095273729818 0 0
90.730527935294 -0.996196125228133 -21.5567075787316 0 0
123.464547822458 9.40361408309985 -17.5688667147514 0 0
193.987688720689 -24.2696760259456 -2.52776144488641 0 0
176.345616116345 36.285977889381 30.9884598059201 0 0
-35.5170597514729 -12.5422024089069 1.68757834524802 0 0
60.3587828531094 -13.3725615626444 -2.29249399990092 0 0
198.893819640293 12.9044447532598 4.29939191992503 0 0
155.521986564702 15.7843720054828 13.0688992020364 0 0
162.098557427604 -12.3439529169069 14.9264480266464 0 0
174.614843814044 8.52224614795057 -22.1966935445612 0 0
167.281221486631 30.390026715768 21.4173143299202 0 0
130.773970503606 -12.9980558938288 -18.867804371144 0 0
158.019029718054 28.8987211385194 -4.72103886787768 0 0
199.718127143474 32.0298884258559 10.0119113545775 0 0
161.544235830691 -14.5953549296547 15.1052948173395 0 0
-39.0097481252642 -20.5650921112305 -7.69137338908809 1 0
181.661325808695 -34.4193234528256 8.15793878430799 0 0
100.552848442769 12.1840975747656 -2.46982965788387 0 0
97.2735415794893 -12.6080465477136 -17.707917373053 0 0
196.079338506838 31.4430791290323 27.9277246042676 0 0
180.355148336029 5.6043565049043 10.9786839838235 0 0
174.106379437798 24.1704570832426 -15.8161909409934 0 0
38.1672288065021 7.36299075083307 -15.5077079682956 0 0
129.518238574393 -18.556263575326 -7.97941061209895 0 0
185.454623864414 32.0677898759844 34.1231947634204 0 0
79.0716612727781 -3.33276457987686 -22.1899896719267 0 0
181.894974294627 39.4792929571461 8.48482804086085 0 0
173.61433161047 -10.8093052933839 25.5586713219861 0 0
201.99733031127 21.2422046312273 8.47211111251205 0 0
-13.5084058438144 -4.20643463107762 2.00717566671827 0 0
93.2137563301298 -5.53347670966317 2.10091525137144 0 0
176.270275482457 25.2462612011878 -14.8729127931012 0 0
156.060027275214 -22.9082958529916 -10.4621372788961 0 0
199.561345966773 19.5695316345299 -2.53416131297449 0 0
-1.82081193022878 -17.4441684569214 -17.9682711602496 0 0
189.897691529016 -34.1526043903377 19.0294212908807 0 0
157.79626330924 -21.4608920595402 12.4575965689532 0 0
-12.2129847279377 0.868735950400087 -17.8351727999435 0 0
20.3564583162716 3.66106745191784 -17.4833397212454 0 0
199.130900880855 34.0607691714367 16.82454132135 0 0
158.289178332715 26.8189362768164 14.6849248408731 0 0
138.295798299704 2.40657519416759 5.66622479032278 0 0
190.405361108228 -5.0963705127952 3.67117864294878 0 0
171.753708568732 29.204180202067 -10.6315591090191 0 0
24.1317367501208 -13.8100763813115 -3.23567776628747 0 0
148.666662815197 3.02931387801826 -20.3450288384848 0 0
-0.201809670041375 -6.43505073615445 2.66167564965444 0 0
20.5536523590371 8.26300150180831 -10.0869012916344 0 0
-21.3315700723081 2.70095487064283 -16.0601885293773 0 0
171.638355787099 -6.78256298034819 19.1894330608473 0 0
182.411670409111 34.7776928852593 -2.01451179691497 0 0
181.358310714262 1.96885972342002 8.47943271741486 0 0
181.203496855577 16.4422541815946 -20.188258173163 0 0
76.3847891373434 11.1097759101939 -7.8820021666803 0 0
32.8665860308768 -14.3030838972962 -3.81144788860669 0 0
-36.843082578657 -17.7264787799544 -2.44981041076093 1 0
155.617971345451 -23.7027034865659 -7.90513888126284 0 0
196.127050743299 34.1409688855171 16.1726216718882 0 0
190.499042975567 -4.61421382774258 -7.33770046077626 0 0
113.450835266547 -17.3721078099162 -1.14698360409828 0 0
-33.4341413361102 6.64249899640973 -11.8272301288945 0 0
166.616471804327 -16.9697600916935 -24.7778805188087 0 0
-12.4564557359806 7.30901912681323 -12.3439663676776 0 0
119.751371965313 16.4612647806724 -1.46720938806394 0 0
185.128778319992 -31.7525638742875 9.8936938216421 0 0
94.2305825699495 -10.3901458497315 2.75933430161839 0 0
141.356824717515 -0.832377952666535 -21.4290404996588 0 0
37.0499373387271 -16.5634167868953 -16.4176901911087 0 0
148.673699136926 -21.8009335448895 -6.64474029241626 0 0
95.9014040111974 7.53352614189851 -0.55548347046074 0 0
187.020146696649 -31.9986160920388 15.788928446438 0 0
165.966884806075 37.8664801891096 13.9049303547455 0 0
31.4599199409403 -16.7059299148342 -10.0669880832823 0 0
-34.2601796225874 4.72679677348687 -13.5628996660279 0 0
173.96323386649 -3.93965026235172 -23.8870533469544 0 0
100.978339559491 14.4655490436698 -8.19999705637872 0 0
7.62482587547096 -12.8085802702802 -21.0340874932128 0 0
191.326209619673 -23.8655947424105 22.6702891969346 0 0
183.431989220076 0.127571323079189 5.26133629423101 0 0
190.154540560393 -1.8856633394086 -2.29712822671449 0 0
-21.8738484708443 -20.3607810411608 -10.9738876112343 0 0
57.2051669911557 8.82685342734711 -13.6320649939937 0 0
118.402697336828 -18.1111073062986 -2.37935160006834 0 0
118.838510090011 -14.0893848313584 -16.6752371954295 0 0
147.571178086317 10.583827143142 -18.1579543653419 0 0
183.663355152909 -2.84081883366024 -17.7481867809296 0 0
125.537783523867 0.571152176064309 -21.2184151369126 0 0
95.0766947856012 -11.8103409258275 -18.5863462484059 0 0
-30.745324582981 7.35943548436818 -9.2658258795782 0 0
120.18365533122 13.8798280130437 -14.0325181168361 0 0
147.670884938668 19.4539402632568 -12.4465817571527 0 0
198.512053052855 32.7944902816451 9.60991831022305 0 0
167.544570458784 39.6158964045346 8.65406836027429 0 0
143.512126521654 -8.60972218532322 7.37216563906503 0 0
126.733661352086 19.2115292001617 -3.16880655222751 0 0
163.685109223483 37.240127408433 10.9952570311999 0 0
125.924672602419 19.1407135827713 -5.7348700758296 0 0
188.268657213841 36.3467386567618 12.6691626490613 0 0
160.291066759885 2.67466534732802 10.5128086264621 0 0
68.5372957445275 1.69548032293573 -0.469707889809022 0 0
187.850815731256 -18.8534097458275 26.1097279594897 0 0
183.069888360896 -12.3896747310757 26.0476966701954 0 0
189.806087550389 -25.7703249632151 -7.01756047709891 0 0
177.452671502484 35.6227069863476 26.9388348874434 0 0
182.685922862924 -0.871046326750313 7.82634374009949 0 0
63.6032737910689 5.38369986846345 -17.9821029755212 0 0
169.302020677851 18.3933700560143 -19.090621417889 0 0
73.5178729829367 -12.680738371986 -18.4917981315369 0 0
-21.7237923622832 -16.352783347291 -18.3178172095785 0 0
193.961108251323 -16.2983563534083 14.7259205879011 0 0
-37.3715960136696 7.13871557085409 -10.3328955800138 1 0
138.796321353356 -2.63151307134233 5.92247017105457 0 0
90.9144505155674 -14.0063337235407 -15.4274272437823 0 0
63.4996453708701 0.937295861269484 -20.7695366746669 0 0
156.278121860454 10.7369280735961 12.0388818305897 0 0
-16.3431659328163 -4.42160251942073 2.09223238902919 0 0
135.580818777764 21.1550214014193 1.02898658090967 0 0
156.216257322782 -16.6520546521737 -20.1992203932627 0 0
143.310605013574 -10.5586832315252 7.61615422363287 0 0
10.0050805271343 -11.8710519516219 -1.18333153946786 0 0
180.325660039984 13.1350475124345 21.6601013135577 0 0
7.79153383953338 -11.7305889121744 -1.03223647855025 0 0
131.837471823959 -16.3275267824682 -14.6637445132637 0 0
166.081909438868 17.5981945045926 23.1588304620092 0 0
172.995961389068 38.2395544196456 1.0573140393625 0 0
144.275089266753 22.7804148798585 -6.84428069735045 0 0
174.687698283543 38.797874080688 17.022418846831 0 0
174.459519431034 29.3128679323614 -10.8437791224632 0 0
102.317347136845 14.6260406856205 -6.10685533262833 0 0
73.997695771011 -14.0862368256704 -1.85137001969597 0 0
-14.0373774421068 -17.8680693515186 -6.28496852720338 0 0
158.331216817875 -20.1881263713091 -17.2826580438532 0 0
8.45697446521166 4.93832832165058 -16.460627119515 0 0
152.546997370944 -16.5669143650811 10.7624227824702 0 0
182.840210406933 15.2306788818144 -20.639643479881 0 0
26.9850153997259 -4.80362515974843 -21.9605788987625 0 0
15.084916625263 -0.888174622597239 -20.2837480967634 0 0
112.09630655312 -15.0213198280023 -14.521064405684 0 0
92.8522640827349 -8.34781036672522 2.51494192745685 0 0
107.51275762542 -16.6181035913174 -0.803577647434591 0 0
112.344532347017 14.7680682066955 -2.11220879654856 0 0
113.959198586885 -2.52776660710443 3.4418305807711 0 0
126.78006246078 -18.3685748734715 -7.56719452750072 0 0
171.461659437777 38.9111748920557 7.26189172147322 0 0
188.124786042186 -30.2412064997068 0.761172044703847 0 0
129.426658678081 7.30267175670559 3.93499617091368 0 0
46.9854506126739 7.28394401179627 -5.82886915620691 0 0
195.942777653481 11.3898288730983 12.4029517999776 0 0
-20.3335627228722 -14.3391999387694 -1.24827739816386 0 0
-40.8925123643164 1.96936117373271 -1.24527895636431 1 0
79.1299967534719 -4.01375307960195 1.15188933823203 0 0
194.729800421585 35.122905033899 22.7677058726919 0 0
14.116019864142 7.93303611422327 -8.97418157781374 0 0
86.3551019334931 -7.46178711900146 -21.5279643681257 0 0
125.685349497213 -17.5093953837238 -10.6910855858776 0 0
200.702952811939 32.5950502357877 17.4266343547837 0 0
191.79109014038 -32.5168551254029 13.5083521630159 0 0
160.88565620543 34.4658277669948 7.2722725251401 0 0
139.946016534046 11.7905691016164 6.03403555485831 0 0
114.119100830527 -12.8071632603948 3.92833635193258 0 0
184.80684685646 -32.6714744100649 7.50183782257507 0 0
188.779893243391 5.48676700165671 5.36665172244303 0 0
155.057324857921 -0.0303719804256117 9.22017176219006 0 0
161.096304821114 22.5365070896975 -13.4244147782306 0 0
104.348881632559 14.8770657242666 -5.28353213165531 0 0
182.368356291913 13.2465763802023 -21.2712814064911 0 0
173.031552224148 30.4073495467021 -9.66280337989512 0 0
93.4540131184839 -13.2396731092637 -16.7427648492982 0 0
179.398851434903 4.2380731443433 11.6162887699673 0 0
180.430204812646 -3.65056402133414 12.9554955079878 0 0
171.848313486708 19.6246224414258 -18.8842355115513 0 0
32.2059773612343 8.48556459900412 -10.9808408184411 0 0
155.439844069346 -8.93844593590629 10.2343104410578 0 0
181.558070230925 -3.331503064046 12.1718137260954 0 0
189.027954198544 -26.4306353865689 25.0557113958851 0 0
159.452585810871 13.194830271224 13.5918629379363 0 0
158.31825234704 23.2736576919766 -11.7156351318941 0 0
119.964108046714 7.80049183774644 2.63824249391935 0 0
170.388007336338 27.3406670061005 -12.2522181836849 0 0
18.4181397900655 -12.4150992251388 -21.0387623038068 0 0
129.410155750106 -1.01170238061063 -21.5223521920833 0 0
127.995614086312 10.0663218938571 3.48837788277835 0 0
123.594232592764 -17.3877646610957 -10.5133331562633 0 0
67.7592738900019 10.4067636767806 -9.09024724683067 0 0
166.913192790481 0.384266958176529 -23.7809809753756 0 0
188.108241150366 33.4355270167241 32.6153877873019 0 0
175.171139161914 -9.67297938652131 23.9527312609149 0 0
45.8005245101025 -3.31428014838135 -22.0981196592521 0 0
184.502348111504 38.212199645131 9.34556934632378 0 0
37.5993836412362 -5.10791850210836 1.3354869912012 0 0
175.796935815686 16.7551684233736 30.789137813094 0 0
165.890776101585 38.9759309319273 6.7061224332742 0 0
-25.4243329257093 -11.4426567415882 1.39908804225505 0 0
34.1532720828114 0.0231357552087087 -20.4869157094991 0 0
180.612319331143 -22.3417669910767 -20.9375914760626 0 0
-15.8335239477555 -14.0980222679535 -1.40935627061907 0 0
194.154562942104 -22.6616410477379 -3.5152631643749 0 0
68.1133620838322 -2.95024828724936 0.640148108282216 0 0
160.16030453531 -13.3932053926628 13.7864290673573 0 0
194.92620119165 -14.8816391238903 -4.4266703280445 0 0
164.358597795891 30.5358497401222 -6.66533374832721 0 0
164.454307300157 -13.6838753701562 20.0961871870141 0 0
96.7622680930077 8.04515497535614 -16.6549100177183 0 0
139.311247415358 -18.8022100109509 -10.8046574168958 0 0
148.605690754152 27.0024227181403 5.5288377822979 0 0
10.0184811096013 -9.43724294082391 -21.8423444071584 0 0
172.564364841226 -32.6248088517915 -1.46493001297367 0 0
164.922603618732 -3.54435486376467 12.49682265029 0 0
188.309613336091 29.0424007606249 -7.54145486063909 0 0
103.945510753038 -13.518230254312 -16.6865726534014 0 0
152.434822062709 7.7293918816186 -19.277458529496 0 0
148.243796784149 22.9735944105854 10.0548722942064 0 0
88.3197065940618 0.298273841531821 0.733689226636111 0 0
37.0587944348806 5.61798154041406 -4.39919340587216 0 0
68.0394227706469 -12.48749730307 -0.912876464146618 0 0
138.250220485625 -16.3875008771009 -15.3759110381141 0 0
55.6746707603521 -3.37438788950768 -22.2355151686742 0 0
121.667945109539 17.6329629153034 -2.46067004607458 0 0
11.1457511306411 5.53427834930244 -16.0155922007781 0 0
67.8565611749238 -0.945877010853953 -21.6513382774991 0 0
142.349351059135 18.6876267191314 -12.2672327052052 0 0
164.144695741499 9.96428545405318 13.8385389061214 0 0
3.27877714029133 -17.7679241815788 -8.57716237279848 0 0
163.994718737679 26.1992532290484 -11.2522006074833 0 0
24.4921413611721 -17.2029347802867 -10.9586324426232 0 0
84.6139302206425 -6.99352233221331 1.96103087800769 0 0
188.881468853222 -3.33742616478994 3.95949819854656 0 0
167.022577417425 34.6285465003589 19.5638152070565 0 0
-5.06257361921896 6.52526903810025 -6.27514033726295 0 0
108.398482686818 15.7288389465716 -7.4374245184325 0 0
55.737141143397 8.68297348769066 -6.78368713424224 0 0
195.700990523029 -27.6045947341025 9.18856019833887 0 0
191.213468266317 -28.4472987393714 22.2786567235415 0 0
151.809100433034 17.4268669944623 12.4659606092493 0 0
84.1667880290242 7.04516820278323 -16.9549343989743 0 0
121.022184285542 18.0769872009144 -4.99055990750221 0 0
113.505806809673 11.165305369843 -15.5833584890919 0 0
147.286875988545 26.2476089349678 4.74435981355065 0 0
179.095387593181 -33.1821535078841 -0.488469294546062 0 0
8.05986406152305 8.06047165144872 -11.0462120514621 0 0
59.9846640441829 9.36081023575461 -12.7760724435689 0 0
159.397097524754 -18.9583124497568 -19.4794732385127 0 0
-38.3697745720814 -20.632135722616 -10.7528057221107 1 0
161.082237241093 33.3672275206076 16.3924979704196 0 0
152.169409079733 -21.171646648203 9.3987151601269 0 0
182.872602186991 13.1398792167639 20.1409652743798 0 0
160.270196297761 -28.35172832279 10.9985022551046 0 0
173.037992756651 -9.39353261965877 23.5478433447756 0 0
102.034692900009 -11.2197200729961 -19.1994567313033 0 0
160.35562406879 -25.1461401142812 -9.10760661852813 0 0
-9.83258675825591 -16.3631385720644 -18.8978232171842 0 0
-17.8347784808957 -16.2681155349504 -18.4422260867832 0 0
114.860181921295 -17.7772403833494 -5.24471301994516 0 0
-35.1748452635784 6.63322349910798 -6.41872464241506 0 0
122.290931185756 -0.882961214626648 3.95379940194342 0 0
150.67829516361 1.09851486068408 -21.4305761648315 0 0
23.5223945910245 -15.0283581735403 -4.83557679867457 0 0
21.6644104200778 -14.4570284141329 -3.98881949908744 0 0
195.000074257733 9.49207528299336 -1.51776335652864 0 0
155.742645302728 14.7886748916807 12.2099566858459 0 0
-12.5480872808953 -9.25476451225392 -21.5901704688705 0 0
169.615788078005 -31.8419296552105 -1.77583144856212 0 0
183.864761021568 -6.40119149953635 17.4021857086589 0 0
192.423548800582 -32.5297641071288 14.133809146681 0 0
191.371002271493 -15.6662618078996 20.2234896116754 0 0
153.183792672981 -19.8010388660143 -14.5874277616563 0 0
155.250803752638 3.43082988339212 9.02817796499727 0 0
97.6376508358458 -13.0001031382136 2.26146241525394 0 0
189.895347067921 -3.96210137401904 1.73766514614537 0 0
72.1281288131127 -10.2815615542794 1.363437692602 0 0
142.908064990831 -21.531470597863 -4.4567511705575 0 0
38.5933290209827 1.26069112315423 -1.70865066726845 0 0
84.0584249514693 -5.97607805025433 -22.0094840050837 0 0
20.8745042735446 -17.6798642547222 -16.2427567570814 0 0
171.291253849721 -35.69110709704 9.11705735117294 0 0
-37.7362536495309 -15.7100253956165 -0.279728918813199 1 0
150.929063371488 9.48670345812032 8.5943204391912 0 0
103.341169822823 10.1641744910581 -15.4107612713092 0 0
158.606593806729 4.72030168436103 9.92134911587937 0 0
4.82173297059944 6.11220574830357 -5.5879766836778 0 0
175.162284605929 -12.6391262231204 27.1016412388641 0 0
177.096928449707 39.0436860632983 12.7254597246172 0 0
189.008549538358 35.3881863856401 22.9369037573784 0 0
82.8988765268914 11.9239698511164 -8.0178661877152 0 0
191.130499148137 -11.4130412886173 14.7497584608505 0 0
131.693867178365 -12.0569981157997 -19.7770889010618 0 0
188.016193089518 -19.4302025353809 -19.6125012865981 0 0
-7.52102763098612 -11.9039623139826 -21.1258306266382 0 0
177.72282698019 37.5055573839518 19.1681368052844 0 0
159.857251594828 -16.4476829743112 -22.1510535170463 0 0
2.7352854580582 -0.208715932449029 -0.835637526606068 0 0
136.972002595352 -18.8937367945419 -9.75272697643383 0 0
73.9497150392715 -3.64588402104788 -22.2883217598016 0 0
173.251557727343 -26.3597964150592 28.2841879272267 0 0
19.5736265772138 -9.45023106499726 0.690713333996576 0 0
-1.3509916472172 7.58300944803896 -8.35773591121967 0 0
158.232343336079 7.55093854677512 -19.2913912338763 0 0
108.285004866448 11.1632341853564 -15.0489551157194 0 0
127.243959928996 -13.9790397143948 -17.6115451379729 0 0
169.922311008139 5.89702000694601 15.7541641843822 0 0
-4.41213166819257 -7.41373122822326 2.64601182983241 0 0
159.691216062874 15.0279096344932 14.0785812888962 0 0
40.6027921596068 -15.866302209983 -7.51244718514706 0 0
145.222381194596 24.8498789340439 6.94037861151327 0 0
59.4065964247485 -10.0405123547423 0.464536198355796 0 0
177.286277061916 36.2938580817181 -0.699613921953055 0 0
6.68371362942273 3.6850121353992 -3.42971716741404 0 0
85.6107098690692 3.61767663246598 -19.5363127137226 0 0
87.0925931764015 -9.40102168959208 2.35999770544502 0 0
164.82092888211 37.9843954748458 11.6354192083164 0 0
39.6166836787293 -12.0428369909566 -1.58323233640864 0 0
162.107986261067 -1.03803837166546 -23.4861265058469 0 0
176.147892687607 34.9276449477 31.3449847235986 0 0
186.389824965209 -18.7305181348128 -21.4172537574517 0 0
-38.6765988581069 4.48351104802674 -3.46103402336155 1 0
181.364250091606 35.9254991146505 27.5100800283747 0 0
187.308747864656 -20.9157175540463 -19.6482314512724 0 0
193.002284454567 33.7520087217508 9.49810135699401 0 0
10.8744519313921 -11.9532719350396 -21.3496183414322 0 0
184.537932986992 -33.582903539057 24.4301975303936 0 0
188.153648000719 -31.918848489702 24.3787223931588 0 0
77.4661725243803 -6.5036196691295 1.64381700980574 0 0
91.214933832987 5.51274948173617 -0.468285086820192 0 0
27.0417475908669 -17.0788578200725 -10.7084140447127 0 0
98.5411987334099 -13.7615025482575 -16.0507715530621 0 0
176.782584300073 -9.9068658168377 25.4189315523376 0 0
36.4385271688284 7.93878057407391 -7.59399662269956 0 0
196.149374446455 34.6688097432235 21.8751234663276 0 0
198.8201462598 31.1733563201989 24.1930693086238 0 0
80.9112289450774 -8.94487083456548 -21.2064684182706 0 0
173.7489682278 26.6388983207531 33.0980503744032 0 0
157.735399024286 -24.1486631319815 -9.13093987284077 0 0
194.555592632797 -20.4158140585458 -5.39792766562501 0 0
106.184529750096 7.27628242238363 -17.7954110647757 0 0
197.982343802709 24.1637534097355 25.7132198795746 0 0
199.794978355822 31.3250385370899 6.76714374232329 0 0
-9.10316084899375 7.22481533161432 -12.9018364753608 0 0
-18.1461239102092 -14.6477105753 -1.75643249896755 0 0
167.659296574152 -13.2592513975893 24.0065598620073 0 0
177.822136478463 30.9260457002565 34.2171387120367 0 0
87.8838748196638 -16.0746631306871 -4.79391642279654 0 0
186.254868727797 1.5640229725549 -13.4212401423117 0 0
146.922171149925 -22.9297111945076 2.09974827256266 0 0
-0.553596238191825 -18.2367230232725 -16.5392911806399 0 0
85.3536038118562 -11.3243861983432 1.6950374995253 0 0
51.981348736984 -1.62653868384147 0.376993049368494 0 0
195.002099146195 18.8867091108277 -11.4574484832488 0 0
98.2467964960212 6.01941770895023 0.135214889485854 0 0
6.39588078223394 6.41008832391896 -15.0943686357966 0 0
182.630179731368 -32.8802315875398 22.0657676444452 0 0
117.147422837517 12.1525553057562 1.22059909574844 0 0
-27.610993808224 1.2171757228177 -1.23540602324549 0 0
185.088138949456 35.893651573768 2.25897333456668 0 0
96.0236433899718 0.481316117433741 1.34983526426916 0 0
134.867060449924 3.28693423789446 5.04198213342575 0 0
194.310613844654 -25.4103409131516 -1.14386615962492 0 0
201.560903123511 20.9064121721162 13.8408668720606 0 0
178.298891821148 34.6399548614004 31.2540615639913 0 0
148.15822444184 24.9953139104256 -4.42534104122172 0 0
183.964974204051 36.1512717291918 21.4705342385922 0 0
177.967850954306 -21.3681139212333 -23.1858171201995 0 0
170.003524641798 -34.7756102057157 3.55242540341479 0 0
142.42492690596 0.752722712255234 -21.0043687584323 0 0
-21.4679063073638 -10.7071131809782 1.94222878494219 0 0
1.97037253279574 -2.02330165153868 0.16320882310543 0 0
181.076116487913 -0.471092172986178 9.58607813892418 0 0
87.6253011273947 -0.0566109817936851 -21.3317498584564 0 0
156.083334680324 -4.75679442527943 -23.1365697347386 0 0
193.537014079994 8.04896397594813 2.46313797433626 0 0
90.8693651918949 -7.89614539825508 2.36739241829058 0 0
166.501949194933 18.3625331102151 -18.5254117660782 0 0
75.7915211479284 -6.16448418153474 1.54206369753117 0 0
144.521756206543 1.52910627418731 6.54125106510352 0 0
181.963469991681 32.5329066560381 34.2060869674204 0 0
89.4361865921568 -15.6167795460258 -2.23986296623035 0 0
194.572618357667 12.2668895420572 18.9573034710445 0 0
162.890191471974 30.0153137195571 18.3783548763293 0 0
145.242847353958 -18.0922535640845 7.80510984287601 0 0
18.9880299026755 -17.6043312326002 -16.6110009057461 0 0
157.07008119113 29.5048676982614 -2.41110515902523 0 0
151.76744987258 28.5880675159333 6.60582632973672 0 0
163.471404059406 -6.05198827488785 12.8330137242321 0 0
170.237080425274 -19.4443307964648 -25.0383728475905 0 0
181.361112297241 21.6864630827824 -16.6598725233016 0 0
168.478968648194 -32.1771172275507 11.6986612990234 0 0
183.021641208713 -28.1189403529499 -8.30178791741516 0 0
-22.7779002080959 -15.4508175612167 -2.16977499964601 0 0
180.742451434039 1.91440962408795 9.80956113883049 0 0
197.342108583638 34.2233476222337 15.9745945968106 0 0
85.2585390555398 -1.54715898002198 -21.7471774659216 0 0
121.54448126548 -10.0841947639859 4.74655179910482 0 0
140.001557759073 21.5581128174321 4.75543928358438 0 0
19.3597364018465 -11.0143950916572 -0.637488061984547 0 0
186.468048525846 36.159345900425 29.0173724457748 0 0
191.999249889842 -7.10470481108292 -1.38624459303547 0 0
202.210332663615 24.4432789091922 14.1218329265938 0 0
83.5353214398884 -13.4449800714906 -16.7165267665338 0 0
-2.39832140534726 -6.88743316416263 2.66430574518537 0 0
69.45013478995 -10.1673284932226 -20.9021654180051 0 0
43.5365941296612 -6.25496199973868 1.37780009970303 0 0
-26.3244177876974 -18.3924565932914 -5.13767465194848 0 0
158.736774318611 32.3638495079247 1.76755709288175 0 0
154.275373911568 -5.94969350854976 9.54045603433377 0 0
173.407423510767 17.2407819331993 -18.9483462276363 0 0
188.228390348062 -22.2507421091446 -17.7358445391584 0 0
-17.6972549342351 5.44564010057262 -4.81774919872571 0 0
182.502456522468 -7.90736951339499 21.1004190100334 0 0
-10.3325047896765 -8.07600809371068 -21.5997718481946 0 0
17.5039031988601 0.415362875775238 -19.493466951135 0 0
-16.2128718392001 -16.1869693546924 -3.7788969778114 0 0
177.432882871003 40.1941191257895 7.42664750714023 0 0
164.600114509834 -24.0912672604066 22.0288983921194 0 0
115.207905048379 -16.6879153801241 1.06609144911316 0 0
105.520894389564 -11.6359730694525 3.38068288715539 0 0
201.450893220955 30.4358121188072 4.62415529444317 0 0
109.845414385868 9.02149773354074 0.829489288920762 0 0
-31.3081715558422 -3.77053390265439 -19.3985416572943 0 0
190.477742418872 35.4151445858883 11.4467690135139 0 0
176.603277254847 35.4726546864551 25.3189800500989 0 0
189.623621719637 -5.67173996117706 -11.0965419158269 0 0
126.991941547051 7.99406906235582 3.50023104226463 0 0
160.447329263029 -24.434456799314 13.9198027204761 0 0
167.302415762609 9.97410762964748 15.6993399090054 0 0
180.480642744204 36.1805172748084 -0.427660040017094 0 0
101.255803316441 6.59901128944707 -18.0238549405802 0 0
74.2509601492378 9.25292773631868 -14.3542947280174 0 0
190.911096790821 -6.63622359794108 -8.87856774704905 0 0
-33.9112884986299 -17.4070311875803 -2.64764777210073 0 0
142.530156779225 11.181515402775 6.8135384100056 0 0
100.409623454461 -16.3860874449684 -1.74603504953985 0 0
155.750244543739 -25.7618672417816 -2.19746469723443 0 0
58.4761369529353 -15.6037018815003 -6.55797042121369 0 0
163.756944579468 -33.6116354421293 5.75369952616782 0 0
32.64361030023 -0.589502871105822 -0.920919813729965 0 0
7.06290108380926 1.95999249193778 -18.1727659895531 0 0
126.748917450832 0.961747247994359 4.20438981635907 0 0
112.080631242817 -4.40839973587735 3.46594033849612 0 0
163.949909122083 -1.51902754864803 12.3949688115949 0 0
9.11574296558473 -16.3110758088976 -18.9023875451284 0 0
176.017320750165 0.203659141338721 14.2891577304707 0 0
175.0592089632 -6.14936742496629 18.1125981221414 0 0
180.611005585518 5.90465146076444 -19.763843053335 0 0
170.103588725478 34.6541221256145 22.8605816687858 0 0
148.627126136729 -23.3126188531937 -0.457403650144774 0 0
191.850429701215 -26.4735459898753 -3.08931968910683 0 0
133.546372080338 18.7514825836909 3.04168780894605 0 0
171.382899569843 -30.0381125323707 -4.76293773448363 0 0
73.7345243828456 7.53673646141568 -16.2770917419052 0 0
190.062802400145 11.4849019784372 12.9252114692672 0 0
168.211127085708 -30.8984053347432 13.4290923303129 0 0
86.3477512995414 7.01281239113997 -17.0440103593307 0 0
183.806229171389 -8.67870762864395 22.6578746773193 0 0
15.9937165571065 -14.0783010676391 -20.3352351825312 0 0
93.7682043929932 -0.766957394457243 1.3387673903128 0 0
124.22952739673 17.7370105515062 -1.12773033388513 0 0
160.671244799092 6.93801762495831 11.7242991866392 0 0
201.609364368353 31.1155935782176 11.2310006225757 0 0
181.246750470915 -33.8781135097576 4.68598726970171 0 0
12.0326415000632 -6.35837861435824 -21.9176457478918 0 0
187.180600068153 -30.9582688510477 2.24640302682203 0 0
190.320454619775 -20.0743256531563 23.660187938219 0 0
168.18876102146 37.6478834449503 17.4047923200626 0 0
187.005980405482 18.5767760253786 32.5903528273511 0 0
-40.1413251725892 -4.99300197768012 3.04053575921381 1 0
-11.4824965233561 -17.2043491300784 -5.47308902948231 0 0
157.263673945767 30.4904387695912 12.013670820428 0 0
180.384664636216 34.0509482139058 32.383545966968 0 0
139.312891120278 9.69111949647014 5.77076603708023 0 0
-23.379408784444 -1.07832607623326 -0.0261402227375274 0 0
-15.19953660786 6.0329183794404 -5.55921086789834 0 0
151.103464815273 14.5898753869565 11.2827161078359 0 0
117.478163661224 17.3136764649405 -7.23014220308295 0 0
134.692201965125 -11.1660080314657 -20.6298843974275 0 0
188.421406040403 -7.0578703171961 15.3429762176401 0 0
128.343662992322 -10.2371855102223 5.5196029433111 0 0
192.651894577105 6.97496886980377 -3.30315586986612 0 0
144.232663020583 -16.8995638274243 -15.8514708032686 0 0
180.947855806168 33.277516510202 33.5490689023391 0 0
195.430089304977 -18.0187746294063 8.96667007770104 0 0
173.651297427735 6.33639223804258 -22.5244973571651 0 0
148.245152304482 -11.795704450497 -21.4798990375298 0 0
165.189646549376 36.369468105838 0.392920244901884 0 0
150.14160759488 24.6915483095234 -6.421813950811 0 0
158.496441720747 -7.57400508420956 -23.3293981743134 0 0
92.1917422019916 -14.9690441137362 -13.2960249667623 0 0
124.282166742822 13.8668558054654 -14.5210648165931 0 0
180.133390001462 -32.5568526523352 24.9672319573141 0 0
166.285202916846 -28.6828692362016 -5.95812923075462 0 0
161.418523994783 8.49482570018635 -19.5693398150792 0 0
168.830381068529 28.9675576981967 25.1792036668155 0 0
188.047899847416 11.6825563485059 25.0826684820744 0 0
152.133985535158 -21.2364042906788 -10.9694856008389 0 0
182.104676177613 -19.1802341042681 -24.2142246157725 0 0
138.445000518046 22.2136360101586 1.94431865744921 0 0
188.833498390237 -11.9680328132346 20.7191776248031 0 0
198.341341607702 16.9081498723681 -3.42319425948257 0 0
-39.0418440893132 -9.4001276358857 -19.8595382727569 1 0
180.191589911547 -11.7023345860831 26.3557743068921 0 0
184.364013920455 3.83082992083718 6.9496104074122 0 0
180.368137456421 35.7324462452598 27.1675193445673 0 0
71.8584529661861 -6.64522424532383 -22.2003752913591 0 0
159.274154234847 28.3795904904203 15.5050960216008 0 0
165.360930018723 5.53405673609062 -21.8028446894089 0 0
-31.8204383721526 -11.6727610507118 2.13472014240679 0 0
-30.8884776395249 -18.5407224878675 -15.7416152793884 0 0
120.227659099523 6.38195445172192 -19.0223372860174 0 0
191.114545297823 35.4288417075081 22.9741289319148 0 0
179.02923244116 15.5771773144446 -20.5300093698165 0 0
177.270275243821 13.7162437680598 -20.9562923185329 0 0
166.985134444158 20.4547289457515 25.4517135544408 0 0
91.4494073501953 -6.7478541150633 -21.653917454923 0 0
199.278954223608 18.3315179164515 19.7641126700989 0 0
88.8155894024672 8.47650713979871 -1.84655803233078 0 0
189.687425791056 11.8639081223391 -16.6119895168302 0 0
-23.3188342638888 -17.5866795958419 -4.524867575175 0 0
195.089894095635 -29.0427241274487 11.6177961459967 0 0
146.829793438101 26.1563306371743 7.00532237862252 0 0
170.482365481516 39.7193487835389 6.28477593595087 0 0
192.864327148464 -28.2791912528672 19.5051878698701 0 0
177.757952233657 10.0123124791113 -21.4803176948077 0 0
32.9092496145071 1.39794633791421 -1.88960199104951 0 0
172.60572345943 -19.0683757368962 -24.1231742797364 0 0
182.26331593372 -32.8568647163059 1.51446066461179 0 0
74.3834509347169 10.9683995877289 -9.40934328627828 0 0
-27.6085270874388 -10.1926852555395 3.07118569042158 0 0
180.124376278456 13.1241964809282 28.790181120593 0 0
100.058254165199 2.42442394686889 -20.4430457229346 0 0
-7.20388227720106 3.5253297925763 -3.13683869416805 0 0
54.9226778956924 9.522981010001 -10.3740379095268 0 0
165.645583702621 -12.9222447797877 22.2151122595919 0 0
132.860797010428 17.030924297586 3.84085834876301 0 0
97.5512818893448 -2.96916494746864 1.9819318032325 0 0
98.1066169622475 5.01651489796953 -18.9528932035997 0 0
151.762528822611 -23.2609021921655 -4.55833203525067 0 0
117.030341297672 9.83378635877721 -16.8431998090574 0 0
114.388455098988 2.46339098224856 2.66319350543338 0 0
190.109836719171 -27.0954272905988 -4.87308786696192 0 0
187.746831251265 15.3418985359138 30.4131307748729 0 0
167.355520817608 0.512812459456756 14.3565581723767 0 0
151.201763125726 -17.6761726014379 10.0409148623752 0 0
144.556498363215 13.9935913260352 8.51598297491596 0 0
-40.324427519025 7.16069124877329 -7.8832671837518 1 0
8.00506022882925 -4.47531490134103 2.18828826605479 0 0
159.292554716228 6.27242249159308 11.250564030855 0 0
140.594837543625 18.9334364543242 6.26967340836512 0 0
197.602556676147 17.5464369152028 22.5825812222474 0 0
10.3214857484471 6.72239968259794 -6.41716838340709 0 0
181.82242638603 -31.5115755225912 20.3447430557076 0 0
98.9500490933274 11.4061787949921 -13.8804934443076 0 0
64.6077116997177 -12.1872346445412 -1.0002667794917 0 0
107.167962965322 -14.8489720421153 1.92336801744346 0 0
10.4275854560324 -10.1435278207475 0.230293899813804 0 0
190.288307964499 23.1701475404277 -13.3797821691531 0 0
185.158805995108 -30.4681098593299 -1.66724376938042 0 0
176.703661999735 -17.3088198798451 -26.3106653308876 0 0
63.9648895287701 -11.7696688107192 -19.9995408130024 0 0
175.191681661855 -30.8052126160904 -5.67960593097841 0 0
158.868139110387 23.2293969323851 14.8924246217274 0 0
189.483117589816 34.140787891266 1.85069746433202 0 0
41.5130473953186 8.67269329750501 -12.7288611494401 0 0
175.854448890579 13.5938410638168 27.408883550502 0 0
175.922223600086 19.824714501892 -18.5736012037872 0 0
152.373679410958 -5.10279877922841 8.66670520656476 0 0
12.2484517230617 -10.4982155616141 -0.103322485934265 0 0
169.758750927767 29.0734838261135 29.7114497185018 0 0
26.2481248724332 -17.4952994902275 -12.8080781036695 0 0
151.228397839329 -22.08156296127 -7.97096974676981 0 0
142.123695795795 -16.8102401821283 -15.4542134026168 0 0
197.481884158138 29.7154973895575 26.566285508652 0 0
27.6552385279343 8.20127312430274 -12.4868208359874 0 0
5.48023865620164 -17.3121939651083 -7.98271508304858 0 0
175.181078941235 -33.4491510924173 -0.79773828771517 0 0
71.9700593653956 -13.3509559322251 -1.21617485910238 0 0
200.778223643519 31.5075279877437 9.56941653664824 0 0
50.3436413905391 -2.88150339217733 0.79346043997499 0 0
170.652752659895 -30.5712348470727 -3.45177442738883 0 0
161.753463035996 -25.9917142597744 14.7884888065964 0 0
178.678079043615 -34.6711868016602 10.0148908890646 0 0
152.408410684268 -16.142195682287 -19.2473504988066 0 0
148.444173659555 19.3544598003817 10.808159135488 0 0
149.823316339363 22.553463501217 10.8966334232095 0 0
146.55914504525 -11.3206089361556 8.4947604217576 0 0
101.175013281942 -14.2309648554999 -15.3816433863589 0 0
80.6290139510274 -15.820976430988 -5.54875916160512 0 0
186.095891170752 36.1867262669008 20.4617371305423 0 0
168.29457050394 29.6730692400813 22.6434886114786 0 0
148.421091437005 12.2556642615754 9.65466582913093 0 0
176.352272298613 35.8896214840823 -2.17642296754801 0 0
-7.57528139020662 -3.87567835021762 -20.8186010389323 0 0
59.04798060425 0.266569919630293 -0.224882217011448 0 0
183.473736400723 30.8873331063745 -7.48176637178783 0 0
154.776632313004 29.9128606542692 10.2732824604196 0 0
26.4486234684924 -14.0910466060127 -20.1277278953368 0 0
175.671021941748 -7.4219702678147 20.0907081701942 0 0
95.6467605675487 -4.01597780932071 2.04240864293442 0 0
176.133036002264 9.87797860346833 16.5814196620197 0 0
174.004821664525 35.5133620069678 29.2606654541402 0 0
118.401296254307 16.6093288871723 -9.83497387731114 0 0
195.56093297191 -26.8841968729498 12.1008017880632 0 0
154.644631946478 -16.7538324553009 11.5632714221882 0 0
194.768336981517 -22.2121829851274 -1.46656504909985 0 0
189.039343256113 -31.05678850917 11.4523398105708 0 0
147.943172064034 -22.6459856705877 4.70494280945924 0 0
158.4234669394 -27.4332494272643 8.81299692438352 0 0
194.519314119413 9.03249657435966 3.45971852334849 0 0
188.750129424194 34.0963031476834 31.5776295286193 0 0
22.2676108208994 -3.83676510351468 -21.7061268267489 0 0
179.553809724481 39.8038448558169 7.40449468496127 0 0
166.941068932858 -28.9247978171711 20.4973737462439 0 0
57.5535154568185 -9.98139603737333 -21.4387367817971 0 0
-33.3704176919942 -4.90772417409702 2.86894472703902 0 0
190.233542617958 -17.9131399730175 23.0772825934821 0 0
130.547341194417 -8.82683977314411 -21.3243462488988 0 0
-34.878202091041 -0.905614342390789 0.272556870979296 0 0
150.541247424923 -8.34067611972794 -22.6078353667467 0 0
115.64944342677 8.47927317473121 1.91829126551042 0 0
-39.5222815611798 -14.345190376911 -18.6113041891005 1 0
125.933894329826 15.6394171331256 -12.9994386705521 0 0
152.419198397963 -2.95437115008611 8.29088489893125 0 0
108.653434396423 15.4047416680387 -4.36105150626798 0 0
26.5257948137875 -6.53595108019149 2.09863656143468 0 0
157.001072203105 -11.3380544965114 12.0446823616731 0 0
154.364086432102 26.3945778219021 12.4445716931724 0 0
178.488555893398 38.2499204050524 13.9547134857613 0 0
193.85365897313 33.2285549954766 7.82071053539949 0 0
194.595644690463 25.900022200842 -8.96124980557445 0 0
174.867176579567 22.3987300515007 -17.2707696717581 0 0
16.0893513584213 -13.0613562846183 -2.32317498958309 0 0
192.155069055145 21.3171634217204 -14.2491241080736 0 0
20.5030198980282 8.01464094805875 -12.4459107053383 0 0
111.452963086507 -15.5106454178807 1.90394737925166 0 0
37.0271055924681 -3.01555302094717 0.80704749612476 0 0
152.826670684335 28.7511879748319 4.36868244759101 0 0
-19.3605077260645 1.37522209224751 -17.1691338940887 0 0
19.9351852201812 -12.9225677409776 -2.27831101944184 0 0
156.422736225549 -12.9169391463894 12.2579296474872 0 0
169.486289205583 39.5739849406679 4.99891411516094 0 0
76.6338815716879 -9.40833668453505 -21.0856077006113 0 0
129.024829593014 16.6033529520323 2.46901993752911 0 0
114.74275394747 -17.3270967893908 -8.32494139777133 0 0
-19.778894043903 -10.129199221234 2.20345792176034 0 0
106.698328469751 13.241245074245 -2.01864656639649 0 0
-22.4958787867596 6.18870759443798 -13.1835955210587 0 0
195.07512297548 -16.2454114539599 -0.23577556729301 0 0
3.53317800533542 -15.117693488837 -19.8744854987989 0 0
91.83753936048 -10.4193640309282 2.57116304286867 0 0
57.7863923846986 -6.18448258583372 -22.4184290591543 0 0
196.370979159456 20.6927675577883 -9.28169828882962 0 0
160.110498211155 -29.6086126007172 4.92476631447209 0 0
194.48235168557 -29.8878805439222 6.6103201729047 0 0
18.8371763660307 7.9113038428472 -8.67610348698202 0 0
192.83715572503 30.1821316756549 -3.55424960030964 0 0
164.36904465429 -25.1718354456367 -12.6708871935366 0 0
145.202315551145 -9.25377572150755 -22.0734523310801 0 0
170.838776022698 -5.6077485514313 17.2879189393842 0 0
103.346936276244 14.6503952036675 -9.00184369180004 0 0
194.235013518734 31.4570282905505 29.7055498794117 0 0
21.5390143522199 -11.073866972547 -0.700010658081158 0 0
145.00999312735 9.62483419225581 -18.3693907229956 0 0
170.229540878672 38.3604268380006 16.8430430666244 0 0
168.64319285044 39.8133146242936 10.9581633806965 0 0
151.375670432058 -15.0241056339101 10.3595193467161 0 0
98.878699885436 13.9354800846937 -9.29551881477683 0 0
171.459517414265 32.9473252175763 -6.7029295650012 0 0
164.537609677543 21.63239762998 20.5464092081619 0 0
149.240873134863 -6.46109041095892 -22.5598400778928 0 0
-13.3021943880746 -17.0084748384547 -17.9371284001742 0 0
22.3234702553166 -16.9034494158423 -17.6340627316356 0 0
181.340009145035 37.0795854684174 19.2249117782506 0 0
176.82359776257 21.8680560513512 -17.3739795701292 0 0
176.908314015596 32.6528885110349 33.4826810483301 0 0
1.30257059030186 -8.28757441070849 2.30491703253385 0 0
-16.8757344996984 -17.6700218458091 -5.67334747140436 0 0
179.536315266637 9.89769986736516 -21.3872627616989 0 0
54.7962320653093 4.28253840954668 -2.82459441018251 0 0
133.972067805959 -7.02806064767636 -21.8116837581984 0 0
93.4367524792653 12.8396429564321 -10.6146391569219 0 0
195.729548228852 21.9589346899309 -11.2693467358031 0 0
180.629594589901 37.7254563868357 14.0931891119286 0 0
-6.10348078241936 -8.61236094996917 2.0873281737099 0 0
193.566602905761 -14.8790718861371 13.4358683162749 0 0
