"x" "y" "z" "f" "a"
184.111428169578 -8.89554157654866 -29.2794088232861 0 0
144.742040444771 -14.7864281704142 -7.78873110218918 0 0
4.38298375718004 -11.0916310143418 10.8164890018966 0 0
16.9458535507116 -1.5106779658452 -1.22139932883292 0 0
-28.7641807542918 -6.85971019071004 17.491402656543 0 0
190.756867174969 28.7978235627551 4.5021803790953 0 0
194.034407455197 0.944599657788444 3.5090580805923 0 0
123.669905911704 -16.8925659584144 6.49790062829618 0 0
123.777477060053 7.23807822388394 21.0258191580419 0 0
170.75296217485 8.15016033453665 -22.773577134131 0 0
187.455404249046 23.6818771658821 19.3464024599896 0 0
39.5056070497248 2.93321692491133 -3.7296899690065 0 0
66.1370584414408 11.0257711138531 12.3283208645293 0 0
166.263421770786 22.6244284597271 -24.3502282482117 0 0
162.988520442791 27.5533729729298 -2.14543517911891 0 0
155.349935587647 -22.1290986873585 6.45581920090392 0 0
152.113138505792 -12.4536179341684 16.8239203900301 0 0
186.136814574292 20.6961576423644 24.5959646008206 0 0
68.5372646652446 8.16677821407048 19.4106360841021 0 0
72.2265164072478 10.9407285906747 8.14241431810573 0 0
18.0517628865763 -0.651880995328771 22.3747847413595 0 0
-65.3237293853138 -7.04830870096518 1.6256227064617 0 0
187.336386760828 32.9802914654358 -20.4997378763012 0 0
-40.0787291725075 3.37652462357997 20.2571187899434 0 0
132.833876405632 8.53279617892178 -4.84560984672285 0 0
162.631856591593 -14.0292742761883 -13.8009143036677 0 0
56.8191510388311 -4.98861909625827 0.23080116211443 0 0
167.643637117513 -17.239554120946 -19.4148079360313 0 0
-30.7466074445655 11.8998829050119 2.59932466270484 0 0
-46.4421695997002 0.452479057866643 19.3567233039852 0 0
173.593962031621 -8.2631610422635 19.5208229260852 0 0
180.194733851338 -26.5233586845667 8.55685988140874 0 0
106.312581019419 -15.7661920565617 9.50107310824052 0 0
152.721419175723 19.7558859513371 -0.963781802105717 0 0
181.159515370212 -9.18870364939456 -16.1015593330662 0 0
194.890826243669 25.053590866537 -13.1781921449231 0 0
168.998973175696 34.5020188011525 -6.60571964269041 0 0
120.814106338352 -16.5026014758578 6.45171518451835 0 0
182.470339841281 1.92791284887901 19.6079580674753 0 0
-74.2722662144146 0.971951382296384 15.7479754727835 0 0
190.354605554623 12.9213738021827 -18.3410483633805 0 0
145.364290650052 11.1529634564358 20.0705222227777 0 0
3.42704477776209 4.00711937032997 -4.57548763710684 0 0
-11.909868002394 4.96206983401564 -4.27213976421849 0 0
137.003689470136 -6.64265268747726 -4.50253416134614 0 0
-62.3490144490643 14.850470309037 10.6076376640866 0 0
177.210146552606 4.293110383207 -15.2332246218509 0 0
-5.54001855227972 -0.76416627331811 -3.77948841258005 0 0
14.5611886923187 -8.45916582123228 5.66433251215746 0 0
-73.3485666171924 13.8511817686947 -7.38134562658808 0 0
181.892684634845 21.7729586015796 -27.0595067619664 0 0
36.3766535117298 8.94119805140312 4.39887435681642 0 0
160.971832348088 -26.5660526034707 -0.76914339393832 0 0
185.378481965306 -22.91813916816 12.5096581499295 0 0
142.759335679405 -19.4836474449683 2.97701953042068 0 0
185.535728834037 -32.1923867429047 -29.3686744456289 0 0
172.629036909517 -28.1528878372757 -25.0534587622736 0 0
43.9439770703767 -8.62575160639917 19.5492332059779 0 0
30.4844797502435 4.34368344586932 -1.1205403993985 0 0
172.403522947847 33.4901983254796 -12.2607183154205 0 0
177.062379319181 -19.460511829126 17.4250077778603 0 0
180.192421082282 -11.1526114780019 20.807231632978 0 0
23.5230948591111 8.09440558573777 20.8932403835141 0 0
196.250056918923 16.8721927387907 -5.85956339803625 0 0
75.1610297399342 0.787371614073077 -2.84465718044312 0 0
193.510385155465 15.4506929768356 -14.3427752298199 0 0
190.332827865653 -10.5224677278385 -16.0042061457854 0 0
164.601704712899 -10.8188162454831 -12.9879306845497 0 0
169.217049597211 -32.4909139746004 -19.6569625653985 0 0
-75.7839445972467 8.64996735222873 -9.48031125390701 0 0
196.806651209708 -8.99161533875383 -12.1427968814048 0 0
194.449771735542 28.8000939787392 2.72954733445231 0 0
185.051745487998 -34.977054273071 -19.4016034925961 0 0
188.998421598512 -23.265370109553 -36.7577628057709 0 0
27.2702134609416 -4.11425370036528 1.23183514077385 0 0
188.706888346372 28.4411533189065 5.56902250603227 0 0
144.246337259791 -0.0247827662286118 22.3640932722699 0 0
174.021633020134 29.3544971002059 6.94396270158206 0 0
116.377846010571 12.0972062124562 4.98379263352849 0 0
134.996519520517 7.54594380404332 -5.14581964794539 0 0
5.61472185724358 4.23278424542075 -4.21662385683765 0 0
-16.3378266042423 -4.99803558414425 1.29696470420979 0 0
186.907473089955 27.9974741720047 7.00659572096302 0 0
-38.1759557192948 -8.855670785951 13.23554642976 0 0
192.378220245807 -9.75450729550196 -23.8737618744898 0 0
139.916465040428 -5.64509516872324 -4.82661701522425 0 0
163.941267574686 -2.2650287829548 -10.2733818185909 0 0
149.608108890041 -10.7568572827787 17.6836599629551 0 0
-53.0338413325294 1.39848315645826 18.8973965006951 0 0
193.292509309965 0.784386516883766 -1.81978534535215 0 0
142.821487304684 15.1046349473467 10.9042512261647 0 0
141.440942254365 0.229469883964622 -5.19607655045726 0 0
196.619976069285 -28.3293037910284 -31.8982204440647 0 0
-66.7702284800709 8.32956152449042 -8.63643100074717 0 0
191.645028171279 -11.7737344995144 -30.6212966393424 0 0
166.180229422777 29.1606890266892 -17.7703227544649 0 0
188.489390862447 6.04441853898582 18.142588471753 0 0
146.153118562813 -11.0599108025271 -7.33299515669245 0 0
170.113015583798 20.0767062647088 23.8956250038866 0 0
158.823064440626 2.65808855615973 -8.59966884364685 0 0
182.312213308372 -4.38042865526738 18.3247529887444 0 0
-32.6127852869011 8.96462305905668 -1.68662743804067 0 0
193.866494957813 8.36329424430386 -6.87326070562204 0 0
-58.4656342529603 -2.95562719531407 -2.37751769752472 0 0
176.866277455351 34.8815414633041 -3.33239855189302 0 0
-6.24630876747998 2.28317995417884 22.2227242317297 0 0
158.457043047957 12.8814010165416 23.5062961520372 0 0
171.442918587759 -4.6070449022924 -14.7975361724331 0 0
176.403728873777 -35.9346051127131 -6.28120039775648 0 0
154.183671708994 -22.2569675189989 -9.73955650270869 0 0
130.86274255321 5.39311164698414 -4.71607240954366 0 0
187.413969616335 10.1954849658597 22.4703814696831 0 0
90.3597451581678 -9.5392359806581 1.05495758596876 0 0
72.0176144444324 5.75155147020843 -0.429571070128048 0 0
144.516806898319 -19.8289753732362 1.85579892947878 0 0
81.2322952993268 0.876704554228846 -3.05721908814537 0 0
41.3892508872212 3.71289623901542 -1.67273392405012 0 0
183.563350123909 24.1541017337066 -26.0101099389354 0 0
20.2951340412564 7.67680947902736 21.2659150607005 0 0
-37.8864436567653 8.63826514233756 -3.59770907287399 0 0
177.743733270585 -18.8994317523738 -34.6577067777745 0 0
152.519953330693 -21.4717151218018 -9.51613297324442 0 0
193.195895642177 10.1811965917663 15.3697226711579 0 0
-50.2022779902658 2.7169577909694 -5.47219532553305 0 0
138.123190086146 2.1015295298332 23.01071349979 0 0
186.675918728658 20.8051349053507 -24.499462093464 0 0
109.426617003562 11.8039885775589 6.40985237133277 0 0
151.939600473669 16.5444079827255 13.824017816329 0 0
156.841902399143 -17.7288734930762 -13.5147970565832 0 0
71.8643384463327 -1.98432421179118 22.7723484727224 0 0
169.181618011091 9.56263339733097 -23.2493293432466 0 0
179.063365712566 12.8365631015798 28.1423932547691 0 0
11.1999768521488 -0.121156234537421 22.377717248861 0 0
75.8830622458433 -9.4242054417193 3.60032671990148 0 0
178.826786662875 15.6816348232999 -26.8934117798908 0 0
171.600807462991 -10.6810830666331 -18.9901199133353 0 0
167.310050803079 -13.2563022731686 -16.2249969323306 0 0
66.7450066762426 4.51710403895128 22.4128692148918 0 0
154.353993215284 -0.354895569789528 21.6081725428386 0 0
47.4531052035993 0.611153428860906 22.8854080100842 0 0
13.360274072977 -2.06459270083586 -0.647990974987758 0 0
172.93760492112 -20.1161091492917 -30.9751672305076 0 0
192.185218981236 12.9077570218605 19.0906700490286 0 0
195.660772582392 19.6407945680452 -11.0278738340475 0 0
10.4201458640458 4.31637523618397 -3.07008465527083 0 0
191.575936784394 -1.46266141144423 10.2260904917875 0 0
84.4007109855818 -3.71697572674191 22.4694227380154 0 0
-18.2831875274878 1.79054236292797 21.634320724297 0 0
109.189681435198 3.66592052604258 22.6628688049354 0 0
-40.9707635373741 5.74747415259966 -6.09336404026222 0 0
110.034256747494 6.11535321279402 -3.23931529644198 0 0
198.627852714212 -12.352495148959 -20.6252991007532 0 0
-17.8577002256212 7.60822954229171 20.8570256839453 0 0
176.371537776259 -37.0318608142571 -11.3085572962554 0 0
194.612225978 25.5097519561685 8.39582235020989 0 0
195.317487822419 16.4632299779691 -9.8742949118175 0 0
72.3331025412462 10.2180183093226 5.26575281353355 0 0
165.886246789904 -10.1935505041002 -13.3796246895037 0 0
-11.2911760016717 -10.7229669239488 12.8867384066676 0 0
151.81827933943 8.19050305870322 22.9132037263696 0 0
178.329139671773 -9.77718926404196 -18.5205050544542 0 0
181.563296864343 -25.6071134579611 9.45772799267622 0 0
191.622805962912 12.3908934652097 -16.1611090071855 0 0
189.193821463328 7.23790549288604 -14.5409792339552 0 0
72.575511655824 2.18092243607187 23.0912925405862 0 0
129.329751948569 -3.85520362396947 -3.89989646865454 0 0
-30.0219693137924 -3.48655459972376 19.5687500998568 0 0
195.896499200854 -10.1374886292907 -18.6273585333276 0 0
180.043391593639 -8.34795731262269 -15.4544791964908 0 0
192.49427688906 31.3635825803195 -1.21577850340183 0 0
194.520726281493 15.4794585789602 -11.6152709437402 0 0
34.4322450340882 7.40163719146003 2.25889494265256 0 0
171.063809654056 26.4856971320601 11.2238196332942 0 0
128.562459356001 3.65275424600505 22.8902004429664 0 0
136.838140045882 -12.7879563449328 16.6009281936828 0 0
143.323298293428 -17.8936048507288 11.4758751424114 0 0
-23.4804169265756 8.35613808565172 -0.572133352066191 0 0
184.352061653356 13.1329502608271 26.244013628106 0 0
188.730798360209 -34.6942743306928 -16.4807129768813 0 0
182.302021732849 19.5057838900079 -26.7700992020437 0 0
171.85320740944 20.8622394219667 23.5417066977793 0 0
-81.0870405394806 8.77273079125359 -9.08151752076747 1 0
147.534550888252 11.9855396257395 19.6572644176559 0 0
39.6695825718753 8.9442463123167 19.5322990533045 0 0
152.601125786604 1.20952607777658 22.2477157660423 0 0
181.991556582766 -8.29180786711201 19.473613998007 0 0
91.885843657526 10.7403346835949 13.1091415853227 0 0
184.613429343297 -21.0874387023037 15.1848787740454 0 0
-54.2227876605427 -5.03113205234898 -0.348609529279088 0 0
137.874297015497 -13.242299579855 -4.3628984120506 0 0
60.0017493444461 -8.66717252190112 19.919315804709 0 0
177.99144216488 -31.226229318624 -33.5098284851099 0 0
178.275049162833 31.8244399306557 -21.0589197784899 0 0
194.807130544345 -11.2773360674264 -25.5582686737426 0 0
204.237047356739 -22.0273009566374 -4.83951165903229 0 0
174.333945269419 13.7257916216946 29.0844232621285 0 0
61.6364066617519 5.33045364612732 -0.298659194571766 0 0
186.905458600368 3.77611665310384 17.4527788827613 0 0
103.936542580642 -13.4144382778673 16.6281590296053 0 0
-28.3068426415494 -10.1161733957319 11.8342924439188 0 0
184.876369735323 30.5862471630876 2.4050974228687 0 0
182.873616419751 -5.85644952475903 -11.8869179055764 0 0
2.97193905934666 -9.01240051302242 6.14652284795718 0 0
164.666973748047 33.1817530003503 -8.1525304680801 0 0
203.286011213896 -29.3431957157058 -12.6147982067824 0 0
114.901563393665 5.53784256638017 21.7986250992669 0 0
-27.589565156426 1.40882867769385 -4.55331279731427 0 0
159.967492288327 1.00142717795153 21.8135362053943 0 0
53.7037205162538 11.0974131158681 12.1809389446081 0 0
62.9917086935528 -10.3322869146755 5.42327812031396 0 0
184.608658314751 -29.1622707141421 -36.3496779781789 0 0
173.488314755669 -35.712370605443 -21.8893414103055 0 0
168.632532396994 25.3063181026877 11.7410239932562 0 0
160.035164020851 27.7789499447414 -8.63665960333457 0 0
25.9297255919322 10.779040996741 17.5986958765158 0 0
152.251313909754 20.1959799831935 -4.61885046654989 0 0
166.114712869175 -1.87019148183609 -11.9652796600486 0 0
158.410218826892 18.6258370647269 15.930937422379 0 0
160.870641746823 10.0834954670995 -12.9548400046179 0 0
109.298926545497 -0.234021955124197 23.2737560445931 0 0
98.9261089287234 9.52905897167127 16.9023464131357 0 0
171.731346724245 10.6646015887344 -24.4113294562722 0 0
156.106532300993 19.242195067255 9.38207229272012 0 0
195.019940402449 -17.7670368655189 15.2331109902519 0 0
199.868065560154 -21.7542966845887 -27.2723554400801 0 0
138.050691617704 -18.4340876182762 1.84055850439862 0 0
171.745299101788 21.6005220188307 21.7901086652113 0 0
136.727414569712 -16.6323726508025 -2.84449870027919 0 0
163.832072307198 -24.1804066288387 7.24632296657877 0 0
175.675622249244 31.286681305592 -23.0263494586707 0 0
178.626845511301 -26.4260136443036 8.75047160768954 0 0
177.836573932028 -17.5300353724864 18.5373616481605 0 0
183.894071065831 -22.231368935318 -37.2846958086194 0 0
193.845017556566 -1.58830298243305 -2.38646391412663 0 0
188.046456829324 2.96756495489318 -7.00849006373375 0 0
-81.9740093089684 19.0270711942118 -1.87422176345871 1 0
35.8450244230341 -4.20859602529065 1.12379942390468 0 0
176.079833378786 -9.98066088865627 20.6470876517291 0 0
154.502561204581 -23.4460781563616 0.130233034419891 0 0
87.4490233490724 -7.6283858199122 -0.466280277825435 0 0
102.735004573274 -15.3936099066269 12.8993315158957 0 0
122.581649925601 7.34103550763722 -4.11890875766743 0 0
173.687768250237 17.9319199281324 -27.4832892374573 0 0
36.5908270439429 0.395199065538399 22.7402047150901 0 0
61.0916745213591 -12.8135527519586 14.8608083479918 0 0
16.6884302352609 -0.980866124366874 -3.03669964845491 0 0
187.731029711464 -22.1127182936482 13.2306818285503 0 0
-12.6283536963539 12.4053943818606 15.7371527224828 0 0
168.393214289604 -7.38420455480437 -14.7797944616162 0 0
195.828240569711 10.8548567747166 6.73554552421817 0 0
194.609235217205 9.50514702300581 10.6269678950891 0 0
137.709128240242 14.1313325342131 9.881446309031 0 0
174.868072963037 -13.5246163563135 -30.7790075904653 0 0
121.200163399867 11.8570054807483 12.7505983435535 0 0
162.475327289841 -23.1217623223443 7.85502409691544 0 0
170.419381643383 32.1329091064462 -12.7028982874 0 0
162.555407534382 6.11045788426993 -11.3991665829258 0 0
191.998804737653 21.5817906417542 17.7474604158247 0 0
179.191692480614 1.38144090744381 -11.3001626299775 0 0
193.945509419645 5.52415825322609 -4.17982648894013 0 0
181.290005530575 11.1205621143146 -19.5712617510904 0 0
182.396901325309 23.4394832934948 -26.6954552472305 0 0
162.589437205017 9.03055696005108 24.6797443665088 0 0
116.35240485473 12.1310197440034 7.4190951175639 0 0
163.495584468599 9.84930556301154 -17.9515887086184 0 0
194.562486681987 23.0073944584522 11.3217068008383 0 0
186.743194023826 -28.9247287597826 4.51798705012462 0 0
183.044538481059 4.09711613119635 -10.5031111958483 0 0
131.332376163352 -7.21730854821549 -3.89251255630942 0 0
174.354638121772 -10.0708240025726 -20.1752097938289 0 0
70.1933894267315 2.91464013843015 -2.03788301076832 0 0
192.085241382077 30.0285895493556 1.70288418496516 0 0
110.479712345617 -14.2993227631523 15.5641497051236 0 0
144.439927542818 -19.7818890254602 -5.012541880431 0 0
162.066134059931 16.1888327967998 -19.5242628701623 0 0
189.274234666995 34.3356825167891 -15.9124451058213 0 0
183.298666661601 33.5041689277366 -10.1556256497044 0 0
90.6141530417291 9.50871024715334 1.76815169365129 0 0
-53.5838700173993 11.5730477392049 -5.74857990519757 0 0
-14.9701594617833 -1.55579447590081 -2.93243121710499 0 0
201.548378188429 -21.1627461691794 -23.4803127878986 0 0
143.031822902318 2.86328715609924 22.9770838090486 0 0
174.901468871397 33.1195333096311 -13.6328746529666 0 0
0.0532982490826877 11.5194104797333 7.38718705432973 0 0
121.593224934219 -6.37336503233219 21.149134692816 0 0
171.845887141387 -2.16451917133424 -14.165043417412 0 0
31.5800784377907 3.12693488902312 -3.59646474508135 0 0
116.946767191128 -9.15343280585866 19.7029684625038 0 0
102.178666431943 2.50068234421271 22.9412469332009 0 0
-51.8079346607894 -6.50620748140648 1.25735991609602 0 0
200.587918986664 -27.7172572898334 -27.0274338824183 0 0
13.2774951446485 -0.573016711634857 -3.84388646860551 0 0
168.368699261503 32.5051535156302 -8.6000826661097 0 0
187.312769488533 25.7774222031738 13.0432453992054 0 0
196.608024017098 -23.2378671150182 -32.0885628214355 0 0
151.895396604531 18.9519737161037 0.603172942907879 0 0
170.509969686377 -14.0866811508435 18.3066566676686 0 0
192.854456293293 2.36821367986411 8.13349824386779 0 0
144.866846626244 -15.4716463127451 14.5561673776635 0 0
166.181379875939 -4.65075281013241 19.8643906997629 0 0
-81.2955262019577 -7.28842150302822 2.96446112471 1 0
80.9378045182554 -3.68743802637254 -1.98012650284418 0 0
129.758991443352 -3.82663555421053 21.9244863938074 0 0
63.8777948412746 3.32926181932035 -1.59442829926441 0 0
201.502201691928 -13.4659020268352 -12.7261201876337 0 0
195.284917514199 23.4930196070727 8.05535390434806 0 0
162.022217252111 24.073060149454 3.49803676602422 0 0
152.548541905345 9.03927996749344 -8.07069490761483 0 0
171.161787239513 -35.8358930205276 -7.55055670396839 0 0
160.245075523091 -7.54105664740044 -10.582621571633 0 0
142.993083085074 -1.18726919267851 22.1580189372561 0 0
82.3858747422992 -0.338824453309888 23.0649385388862 0 0
158.218807963545 -22.5874326761068 -12.2622488085306 0 0
181.140612854 -8.62059156743477 -28.236705796645 0 0
-65.1645002692488 9.14236933091853 -8.78016116789542 0 0
196.910058512033 -25.933787870432 4.73122933128074 0 0
171.953147006384 -21.1381315729932 -29.5267454691192 0 0
-42.0796528806695 14.4579452673085 5.54765075694758 0 0
-1.70430224437813 10.9389746110234 6.02293100988547 0 0
69.4818080036085 -6.54786337558648 21.1961840256485 0 0
-32.2592857252054 -7.93994969556698 15.8947071269177 0 0
162.642392585408 21.8705856313028 12.7668353618186 0 0
182.581979422252 21.1978173931072 24.3886505350463 0 0
172.282827164712 -7.07080472755736 19.6294209293813 0 0
120.7092375582 2.04850895031013 23.2099109612035 0 0
151.983349969976 -2.16638741382298 -6.55420188760078 0 0
202.623780392935 -15.2451240855946 -11.1311652578569 0 0
26.6079271830887 -1.02504665112575 -3.46871901993787 0 0
-68.3628936454649 -4.96168394419013 -1.47732717464745 0 0
-2.93339639488107 -11.027856682214 11.9174200062153 0 0
196.116133657837 18.5042659981501 -8.35528147541375 0 0
186.899288389496 -31.2433161794603 1.07827553034102 0 0
88.4883082867182 1.77813185450929 -3.16236519680744 0 0
168.684156168883 -20.0615433044324 -21.942894459647 0 0
141.18659655448 -1.53160124664134 22.2451035042472 0 0
182.574666073781 -36.6421677996835 -8.37502545985896 0 0
110.580571263127 -15.9466627578801 8.92586945191965 0 0
108.921374595607 -15.2257574140547 6.81582140010889 0 0
139.190144468033 4.41450691007206 22.9877892606119 0 0
92.1253372166302 -8.24625272722225 20.5543294231146 0 0
148.038021499851 -0.723506540648601 21.8815953990549 0 0
144.908228861637 -4.95881631095377 -5.52594499912197 0 0
102.521697106612 9.98337686528799 1.20815299956865 0 0
189.551832511439 -33.7844282983163 -6.51483189210656 0 0
90.9917752932102 -14.7582298456634 12.7537519146985 0 0
38.2417347557438 -5.35064149287719 1.86627436002725 0 0
5.72918931730737 12.3314844431781 10.2284016967299 0 0
159.536953773312 -13.1490920572996 -13.2325770137478 0 0
157.508712941779 22.0077296790103 0.0859533092913445 0 0
186.226242384171 34.7775794942988 -14.0668743865373 0 0
174.531989546074 -31.8350969038527 -24.9681130746048 0 0
-60.9450529132268 2.22024117784281 -5.73261156473478 0 0
92.6467501553783 11.2283465875645 8.9690258332377 0 0
195.750242972952 -5.98870179855864 4.90706072932676 0 0
195.803867791487 -31.7363170754536 -28.8977745059104 0 0
124.075339142667 -4.05929851130961 22.0586498982664 0 0
171.602809533915 28.2935751583938 7.98760453931509 0 0
113.581721927022 10.3815292803582 15.5809704130156 0 0
140.368809935073 -19.0617620694689 3.38895665455396 0 0
79.1586248304793 7.23068850328789 0.245467463110318 0 0
177.893944919426 27.4474575476648 10.2755606073899 0 0
186.830870374235 -14.6972095109633 -34.8380724673119 0 0
49.5923458303373 3.54076493791216 22.6668080356765 0 0
162.207392628505 20.0994307258702 17.2140299647526 0 0
191.276479609493 -12.8187142036532 -32.0248588482006 0 0
194.807856039696 -32.3418560840446 -13.8898766855677 0 0
-12.4580109135835 9.14774996619094 1.83798919612522 0 0
113.038584904575 11.6551867820525 3.81286849378245 0 0
73.7143299685355 -12.1246866271396 7.45857441886416 0 0
123.68767865298 11.7732085626505 13.7573783363143 0 0
-26.6846046981216 7.58096888950914 -2.11655744772908 0 0
63.4088769529254 -2.2756164086609 -2.95835855328448 0 0
71.8294498710983 -9.73136866387291 4.27430082581835 0 0
141.641191571303 -18.3869045749553 10.1333525292981 0 0
-2.31335705548901 -3.30940367869359 21.0952315089155 0 0
129.093441371982 -8.16163186483038 -3.44295491462546 0 0
-24.9203902771848 -1.89170004008281 20.5068655156979 0 0
171.618334274785 16.3915667191781 28.5757301300201 0 0
171.928178877517 -11.1366444322472 -26.5610112734465 0 0
-30.8720080499641 10.2768059548182 0.116450760367235 0 0
28.6250697395166 9.1891166009374 4.71405910452448 0 0
195.636480259225 10.831829747191 -1.20365240236664 0 0
193.090015180435 -32.5353874216385 -8.95423674018299 0 0
135.407098650448 12.8851000876807 14.0361919325823 0 0
196.275037513235 16.3233797336952 -4.12492132479636 0 0
190.053523063542 -32.1114758878233 -28.9121577360191 0 0
-45.8252404965739 4.82589170503134 19.614361952638 0 0
155.698443846795 -11.4101136507213 -11.1904334609693 0 0
173.270532289724 -35.8640418190219 -6.42443982413877 0 0
-26.6174365127338 -9.43644871470171 14.1768191706701 0 0
200.420864692357 -15.8874227558657 4.1809985181947 0 0
4.39161748928275 11.9213584800989 16.1332294815002 0 0
132.535708640046 13.552565192299 2.88354439491316 0 0
168.905777729445 19.067875345731 24.5536322862921 0 0
163.463642031884 -17.3551370715838 -15.6167418283219 0 0
202.412582390688 -21.8556856106828 -21.7285122707916 0 0
138.894955003361 -13.7397773171982 15.9094364309578 0 0
188.108923774678 -33.4193253308424 -22.3880246876923 0 0
33.6608118672559 -11.4417803689899 9.55048213065397 0 0
172.214823831613 -26.8091240756566 -27.016312609572 0 0
146.105702194731 -19.8870315299284 7.32410900130323 0 0
161.790141285401 -17.1594687264884 15.3087699540095 0 0
27.8894688995268 1.02766717155027 -4.52773701704221 0 0
172.251945375101 24.9454304934937 14.8286575794384 0 0
-47.0663327953945 11.6707369659043 15.8139218892634 0 0
193.343307640478 -28.3720362671028 -34.4685491519794 0 0
186.265643557192 2.3374432455426 -7.19478131312182 0 0
175.521717377455 18.5363725897468 27.7449876467139 0 0
-59.8638314375879 8.93345791572557 16.9485590645264 0 0
182.189271752355 -36.1017019896267 -16.0150434405748 0 0
177.946304502246 17.7523254107334 -27.6694817544168 0 0
186.490522086684 -8.47840164395812 16.7695566502399 0 0
-67.7709306903865 -6.48085859735799 11.119740612479 0 0
18.4681373133313 4.60111112560965 -1.31556595176361 0 0
30.4328768288423 -6.21199152497819 20.5716835710035 0 0
15.7250269200987 7.96151587328796 2.63107118020586 0 0
187.563947000701 -25.8056171220027 8.1179078901414 0 0
182.084801902643 18.1546907624576 28.6453952430991 0 0
182.073894141622 -10.6278588931144 -21.0640515982378 0 0
182.601500755064 33.5376732832475 -18.1197352748433 0 0
19.4246722332053 5.36463633931715 22.2760034666128 0 0
191.562016153171 33.1202347620284 -5.28655701505329 0 0
69.4940156436028 -1.66584967516002 22.8739893554927 0 0
62.6144481365759 -3.95299767537269 22.0770956801414 0 0
196.493714580603 19.6716750958277 6.61520998041543 0 0
189.996510170967 -9.03166780517761 15.1685731889275 0 0
-53.7046833604085 -1.88923640227526 -2.90630469185997 0 0
99.4694915788789 -9.49130187096867 19.8583110460072 0 0
84.0605577989917 -13.7238296851798 15.0574022055712 0 0
132.744474440296 6.24787235235166 -4.90392174778404 0 0
199.646166961269 -11.0842370633164 0.815085979688482 0 0
-48.5499332874776 1.19513448952076 -4.86735586947802 0 0
-69.3795632558174 6.82104149906149 -7.80327215749706 0 0
24.7751856107116 -11.2507062334312 10.3365047049756 0 0
-53.6047760781142 3.81685841622098 -5.72427411055268 0 0
156.124335137621 13.2450879643984 -11.1290659705166 0 0
191.314283056563 -32.1730680053811 -27.3113002449879 0 0
179.167535074466 28.1685891066303 -26.5141776147353 0 0
82.6106448700113 3.88901220140874 22.4826329551081 0 0
195.933580233082 11.1196646118677 1.00265284652004 0 0
36.0976219408054 10.3429115532319 7.18517526617122 0 0
7.67085022570223 0.999258872259165 22.5239726113076 0 0
18.8453615832499 -1.15338129651184 -2.58926016700894 0 0
145.593085534335 -11.3919461931067 17.2366324992501 0 0
181.504951997205 33.297080512791 -11.4209565662349 0 0
165.49266931547 23.1677613794803 13.0320882452446 0 0
119.796959425506 -15.8457809567473 13.4977068662629 0 0
177.191286728838 32.8138366274919 -13.3852911875797 0 0
193.165485950925 -3.53664574864268 -6.52504610478076 0 0
113.453458180479 11.4768042445877 11.8862544179685 0 0
156.990267601516 -10.3548446606976 18.0315394256259 0 0
149.329093109863 -13.6567101929829 -10.9787166374787 0 0
117.113213019118 -13.0782835484832 16.835727620487 0 0
192.208980653214 8.14147512180007 -11.6868293978809 0 0
-33.742965063634 10.8192658735544 0.154056562416111 0 0
195.52021109384 29.2576995428127 -0.91215939282316 0 0
164.899710217762 6.92690450356043 -14.1528163901754 0 0
188.665245331317 24.9925741007674 -22.6032515671504 0 0
195.015116971193 11.9940190584123 -5.87116142064574 0 0
185.69871116992 31.4579963733993 -0.367686130346724 0 0
-50.3844078384242 1.62680050510308 19.1936179214628 0 0
94.5918564839686 -4.48913231722504 22.3493238432346 0 0
148.793569353924 -21.0762604266334 -4.08986456170103 0 0
179.841410370028 -31.3972920571684 -34.6856305055869 0 0
196.026057800004 -27.4738117819919 2.26519947864159 0 0
183.047345039633 31.146458764195 2.86732505889074 0 0
148.434144848836 13.6314712817807 17.7509781046233 0 0
171.519565249376 -1.3978704535143 21.7452517513313 0 0
88.6061517121113 11.0364433629754 6.42294617382013 0 0
-4.47111553321708 9.34987262970197 20.0767801434157 0 0
-67.0969749216652 12.6673822207411 -7.36365257901952 0 0
161.23770077046 -27.2303283681178 -2.7070862220165 0 0
184.31275479736 -20.1498423439966 -36.9098810000734 0 0
197.034983653708 -12.1514773376001 10.4605552323055 0 0
-6.91395088049144 -5.29353877698237 19.9968140508978 0 0
41.447727951886 -8.70018649213612 19.4033648074999 0 0
110.686421836304 -15.5415720940203 13.2710367492574 0 0
-34.3392918402702 -3.72826739922926 19.1209637218437 0 0
189.715890699204 13.1734790817744 22.2902322299 0 0
176.935807078646 35.2923750772443 -5.72636513701888 0 0
162.460089871108 21.454308672975 -20.5492286463602 0 0
181.338347794473 -17.5635704788191 20.325430259754 0 0
163.332432390765 -30.423713795009 -16.0110573035915 0 0
171.152731153213 -26.4454628156139 -23.5633754224561 0 0
-53.031288425323 1.48509379167754 -5.18781349191681 0 0
155.937447512375 -23.548541504068 2.71442589682941 0 0
139.428647755045 -18.6960213311479 8.48611635835126 0 0
185.845012331172 -12.6650852791983 19.0732030280847 0 0
137.974350138374 -18.7234946788826 4.32040314757671 0 0
192.388243120438 11.4368473697609 17.7682443464759 0 0
149.895335410153 1.49185637123774 22.4234465360366 0 0
167.614949026008 33.6745404334798 -7.59249455582696 0 0
161.7226827101 28.9910509196096 -5.20169768565306 0 0
147.829098188853 1.51473586575986 -5.98498506500671 0 0
151.310342804581 17.4608961572261 8.83012303570374 0 0
26.2889421575846 -1.12688017709761 22.3603642048116 0 0
-11.3763863074096 0.754728987707379 -4.74386901168798 0 0
117.388725425842 0.905093247795116 -3.75505409789249 0 0
194.253833210815 -21.3079826715872 -33.8843661732229 0 0
182.327286721778 -0.95751975457176 -9.09919664691507 0 0
136.861740275589 14.1825551532087 2.19544718944981 0 0
-21.3054836394083 -4.58796544533919 0.744059331812985 0 0
123.895727539396 -9.24447786965329 -2.35712798731359 0 0
163.152805441339 -21.2295166324858 11.2428715327697 0 0
-15.6609692474366 10.9425740425144 18.3390938099481 0 0
68.0178509617021 9.64679188259285 4.29495169627404 0 0
171.943191930983 5.01815336562815 -18.7482772775693 0 0
29.6914861601913 -4.25275085362233 21.4630616290297 0 0
161.216756219743 22.8554492837489 -17.0688924867613 0 0
204.490917942672 -23.5285056065853 -13.1950576968236 0 0
11.0978107087072 11.4968538833942 8.27615380484323 0 0
2.38973045875263 -2.13701375733378 21.6855679961594 0 0
173.954883356291 -36.915930943515 -12.9557891148824 0 0
174.530239634046 -32.7794422839252 -1.07277412217679 0 0
160.977640992874 12.9708134171079 -15.4869667350607 0 0
167.930764447816 -34.6637519546327 -8.56946815848079 0 0
22.1976166873643 -8.46038475117395 18.996816791827 0 0
73.0224594630023 -8.32836094899407 2.47855575979648 0 0
138.509905344145 -15.2924335514166 -4.2836598239929 0 0
143.321886206861 -6.35130305780299 20.0522088358678 0 0
164.528262150421 31.8310886861223 -4.3477075274646 0 0
130.486654193962 12.4671135140972 13.5405313827668 0 0
188.251004230664 13.6083920771975 23.9080893666188 0 0
-3.97226903454626 -0.174602400648582 -4.11716161575117 0 0
168.713886901187 -24.0590066490918 -21.9977726278944 0 0
46.6816926345635 -9.61378577634547 18.8591067636184 0 0
131.767861963067 0.0807538705307911 23.1059823609323 0 0
12.8052830808978 12.120812669637 10.2922194474708 0 0
179.725140228378 -3.1094761880269 19.501323795267 0 0
179.849805059281 7.60889432208844 -16.7779689634716 0 0
164.823303629242 29.0717996683417 -13.1742753362024 0 0
12.4421067694346 4.57348109084529 -1.87742235556976 0 0
66.2195289853918 -7.721341269868 2.16416066888543 0 0
135.512415264415 -14.5891768767481 15.2357664651803 0 0
4.60294057957242 10.7516671068819 18.5859313951071 0 0
164.487485128392 -9.07816659909994 -12.2462897152439 0 0
176.631210534424 -11.7341583011683 20.6899281652974 0 0
-50.8871898280206 -8.79946710059154 9.95077051549049 0 0
175.828086430364 -34.7538349371579 -23.987280176119 0 0
114.797257978277 -16.3266980314659 10.2221642806779 0 0
176.28220664296 10.4772178000568 -24.4166266359494 0 0
184.373235281659 -6.68826958600719 -12.3450664066206 0 0
19.4294155724308 -7.66652705610534 4.7985730423843 0 0
-38.9492547045507 -5.62693139330356 17.4687561448172 0 0
190.487305516072 2.69240861134647 12.9861884964848 0 0
161.045315369072 -25.8136735812681 2.24293937803641 0 0
97.8236387884981 -14.2926321596302 15.1383605093816 0 0
9.32893518372955 0.117344246321888 -4.54095494268779 0 0
46.4773536438003 -9.98979155621366 5.9812982365038 0 0
194.236050364046 -2.83972385415691 -4.83064001244264 0 0
-42.8895816325257 12.7889211297262 0.802236272903951 0 0
184.700944404947 -30.6771465340518 -35.3369984248639 0 0
97.0734789258204 8.51949825997992 -0.0808279879970618 0 0
-2.07596629928181 -5.47596863612408 20.0647530840145 0 0
-81.9912064581106 18.0933993271614 -3.65232366261836 1 0
61.7389535889193 9.31116734710434 4.01092197090934 0 0
160.598766348148 -13.5810676107075 17.0260288220303 0 0
197.017074176229 -19.7155214568649 -30.6750665028533 0 0
-58.3500057056451 8.61909903954026 -8.27649691210748 0 0
-73.1645340377057 11.5090712946865 14.0479432333443 0 0
168.632947846985 -5.88816548224196 19.6280626204559 0 0
177.9587385012 30.4681008165829 5.5289838750828 0 0
163.762668716617 -10.3120447922776 18.1128067384606 0 0
51.8220732485809 -1.04150377841693 -3.23158130481356 0 0
-2.25909623682025 5.2384985341511 -2.92510717416685 0 0
138.312675409732 13.3081530576357 14.3439885940995 0 0
183.80040312592 -8.78857987610904 -27.8541863496287 0 0
-78.3785382437491 1.94711034562827 15.3424626663625 1 0
174.677355872594 -8.09999306373439 20.1245702305384 0 0
-9.74785008414943 -2.30430207167465 -2.20016419292022 0 0
164.718224394456 10.9131194672399 25.736237977359 0 0
57.0060218593534 9.8933414244511 16.9659866870187 0 0
192.487631982043 -4.64198028110906 10.171965190288 0 0
-19.3638521972567 -2.47289049555099 -1.53098365007344 0 0
-52.7735218138013 15.7055657432654 6.58471202556792 0 0
190.305786008869 4.90895918146682 -9.31253304539889 0 0
-0.20277801489317 9.92595918165456 4.37876501757479 0 0
195.71412504087 9.88412644056991 2.02041162539466 0 0
183.317756724736 -35.4649273242371 -18.0314971503265 0 0
144.074908652679 -19.7682001194438 -2.99895328741837 0 0
-17.6586382021769 11.148735455242 17.992016207308 0 0
197.651188047039 -7.40042217123861 -5.79304172952285 0 0
126.587913057475 -4.03530404183784 21.9819869007985 0 0
196.104150462918 -31.2421438133901 -10.382991485304 0 0
171.928226175812 21.6171355063821 -28.1110240294539 0 0
176.639537755729 -15.0709885606619 -32.8599133190587 0 0
161.364890674481 24.7377875685442 -14.3159795051306 0 0
3.60330066318031 0.494764375720589 22.3580208692365 0 0
196.801743412479 -30.1766575288165 -30.7475768371907 0 0
193.579947926347 22.7551762907435 -16.2476414887432 0 0
168.275774781184 21.0825741752182 -26.3989812262684 0 0
161.6110826586 -23.6432213075182 -14.6501775024811 0 0
187.730883743014 -10.7093107973243 -31.4016937512088 0 0
-7.91472218860961 -7.37367995539812 18.7030966123087 0 0
154.337420157685 11.358592169658 22.4640688663272 0 0
200.472289498542 -29.2483319501059 -4.52454235850067 0 0
89.7334675622428 10.6969008513812 4.65146564541709 0 0
165.803398516084 6.63424797331799 -15.3211587224195 0 0
195.569385866731 -4.22520673546391 2.8601179454463 0 0
95.471673624118 6.22546072068659 -1.50942744530292 0 0
106.535940342575 -12.2513466946022 17.8193410168513 0 0
195.346092692867 -13.1713197879922 -27.99733714716 0 0
179.432567163214 -10.2674607592132 -30.3093851071814 0 0
194.233314544682 17.0210572974259 16.46589716979 0 0
108.102728050338 4.81214855867812 22.1248639443192 0 0
60.3568040818524 -9.1361937917637 3.87075290838204 0 0
74.0211048699854 10.7310962752811 13.9364490493278 0 0
-74.0670961715817 -1.18878612310189 14.9778241437196 0 0
200.963281391486 -23.68914114896 3.80062628393563 0 0
25.9942239190078 1.74520459067063 22.7578803944918 0 0
26.2466046529803 -8.42986921414918 5.38901889416101 0 0
190.263449507875 -15.1092875189485 18.4852501559452 0 0
8.52867895805703 11.420494514949 7.83167077073004 0 0
177.156649304144 11.5176527461934 27.8991089824721 0 0
168.274887343196 30.5859011093406 0.593407407485208 0 0
67.3720264573103 -1.66079313357236 -2.78561984801437 0 0
-21.0071773136478 13.31590692564 10.0956158692368 0 0
139.547387751918 12.4183436744875 -4.93212309541576 0 0
63.6351637076588 -8.38488421851638 2.92952502228228 0 0
-61.1630265294772 -0.865165180409577 17.0844858960592 0 0
44.6779858692621 0.738831337337853 22.8491917230532 0 0
12.8116929574202 -7.64349820691437 4.6888446241239 0 0
67.5491708416883 -12.0416755380285 7.89493759626621 0 0
196.301346504573 -31.1666661524767 -8.39024436509092 0 0
-12.000497385367 -0.431029583553776 21.6217419757332 0 0
171.183443850959 -36.8435860833552 -13.3474551664163 0 0
167.415552430279 -24.4194765283403 -20.2455173034941 0 0
88.1623161227942 3.9571621843608 -2.16459649946609 0 0
179.596377502514 -9.81530814743921 20.2924895354033 0 0
198.027200316685 -31.0982122202916 -16.4218917451918 0 0
10.0107743006943 -2.14486782747784 -0.872649170297998 0 0
180.558240830894 32.5772991646612 0.942112443637831 0 0
172.00242663025 23.237067456636 -27.9145243475835 0 0
16.3148053254566 11.9900321646675 10.1998757623896 0 0
70.2958463556443 -5.07662430016375 -1.66595304007406 0 0
160.188102227491 10.7821182940544 24.4195033453996 0 0
80.1432237011136 2.48919955101187 -2.77722089944463 0 0
186.963835149067 -24.705262197807 9.58707363965657 0 0
97.577594023709 11.1522656146634 11.0971560421016 0 0
176.716281364147 33.0560702558299 0.961773370090889 0 0
166.255088942938 -6.48342115327053 19.3486662845566 0 0
155.788813958594 18.5371151550104 12.0314814675413 0 0
167.813274780654 26.6431048530737 -24.9527525045642 0 0
82.3965463715984 8.65312945319812 18.5459950303027 0 0
104.262881854939 10.4896924866204 14.5909661956666 0 0
176.048489537976 12.8830118209415 28.7472442344146 0 0
122.682231244028 -5.16476701033773 21.6454960820818 0 0
59.7085254000676 10.2013615320964 16.1159370338 0 0
194.191694293263 16.2026330236017 -13.1945709619748 0 0
-50.7115656121584 -0.725557202685794 18.6119883557377 0 0
202.222440442052 -18.6515733422444 -19.8299881338466 0 0
-23.0491412834769 0.56127054263261 21.2455247300709 0 0
151.655803449751 18.1274717220156 4.17974173593916 0 0
104.747796303795 3.52644669956823 22.6487117150707 0 0
103.887106837195 -11.2669689640647 18.646642180061 0 0
155.796834098003 -3.61265392043212 20.4672242361584 0 0
174.132160412544 29.5660234049592 -20.9947567224797 0 0
150.175924050329 -21.2426231420489 5.21899396041619 0 0
197.200404628799 -13.5357638259939 -25.7125900601653 0 0
145.962011461379 2.33491585223214 -5.88353254943419 0 0
128.522802760308 -7.4383221655722 20.3435367246633 0 0
188.978877149175 -14.6142564926287 -34.2702596494773 0 0
179.682430126216 -1.27831365839643 -11.0349126278358 0 0
-4.28272988215599 1.33458672716097 -4.8378803488052 0 0
4.57837460782852 10.2216590364116 5.24740859191265 0 0
14.2251608925392 -5.35322423323726 20.5670879695099 0 0
-74.24261965176 -4.98899060954523 -1.99526479678304 0 0
167.889401624714 -9.73624256810728 -14.911291546808 0 0
123.583843888956 3.05015981613601 23.0207738850867 0 0
198.142961747967 -11.525306386623 -19.0215352481115 0 0
3.141310710742 0.628174663409902 -4.67738997853542 0 0
-76.2983990614829 -7.56867406676002 4.28284187641672 0 0
179.142040219064 15.2917328730104 29.1286933681164 0 0
183.54176839748 -25.9483572975244 8.06228022972257 0 0
186.963087608956 15.3298281872789 -23.2316341190822 0 0
160.929952638622 3.31956273775987 -9.53162242740541 0 0
49.7535407340972 8.20648757392018 3.00518177571868 0 0
191.898479755497 -26.9782086681604 -35.5565146442959 0 0
163.825350214297 8.64513635408892 -15.3605271020828 0 0
94.1539597281033 -10.1144567101331 1.5594955715121 0 0
-5.98995312020005 -4.0696457340566 0.790443338555871 0 0
65.7113803480292 -3.54635588668365 -2.34612121416328 0 0
171.843573961363 31.6410927219676 -15.9954604578725 0 0
187.422311828876 -9.67298675549733 -29.9260757656472 0 0
-9.90756885135182 -1.48100212836466 21.4037688144254 0 0
2.31969420986608 -10.6062388718687 8.94052104961445 0 0
116.581937033235 8.20754286907836 19.5506244403124 0 0
182.00060851682 -36.9649590536016 -10.7241149251323 0 0
160.033108737054 -22.656602790992 -13.5860517981113 0 0
82.4082862862577 9.56892328501409 2.83816081564501 0 0
20.607179264176 -5.92603056502852 3.05585207223508 0 0
-74.9854824039998 18.4801999916643 2.32552036858639 0 0
66.7227206927501 -7.10289734300886 20.8823987191692 0 0
190.415074636038 11.7838990832268 20.632638283158 0 0
164.260516278376 4.09820572517857 23.0857294005139 0 0
36.6937875123539 -11.6661984778814 9.86742273749673 0 0
189.851140472227 -25.34129487562 7.98359401299972 0 0
-62.9331761988597 -5.78907872957947 13.0805205389679 0 0
151.865015967563 12.9493676472751 20.0828692034586 0 0
115.641176113419 0.214022269708608 23.2950770802478 0 0
53.8306801115803 10.1617155058184 16.5906057518741 0 0
38.3801725518257 -7.48050850401825 3.7988306024945 0 0
-48.2865080431336 0.291899995872592 19.1050415461002 0 0
196.192667529062 12.1675379692469 3.24934828593094 0 0
194.895802293938 -9.1327648500421 -14.903593394468 0 0
146.643981670448 -16.9613190512586 13.1169208446424 0 0
192.252331774953 22.6611964623188 16.5849760709395 0 0
202.06253939224 -30.2648214058285 -18.1492949063404 0 0
35.7462668621098 -4.90680835588896 21.2475364537851 0 0
-43.4086257623157 3.83780807946707 19.9575375647553 0 0
196.799193171793 23.9719517255934 0.818564549971291 0 0
-41.1088389258611 -8.74797103633353 12.807419682629 0 0
173.692600978158 -4.30961835005303 -14.6634575054428 0 0
178.007598250898 30.8746963831056 -17.3738790264623 0 0
111.653498844049 -0.633536496984441 -3.4176272451191 0 0
100.193729647974 10.682888690824 13.7550582831862 0 0
196.585706901555 -11.3553138373646 -22.2592170122947 0 0
166.577462327854 -20.7003796478765 13.8756200680564 0 0
-66.5858043707495 -2.28879185009914 -3.75204540433827 0 0
160.664185331934 -23.0236950479389 7.47184186311225 0 0
201.532023995613 -27.3320974886495 -1.30199110688592 0 0
46.4295614499901 6.09210357729139 21.6535733957198 0 0
-12.1714866041593 -5.14406150985397 19.8432424909025 0 0
192.226424246675 3.07512374294756 10.6751419691783 0 0
157.523928108007 22.8284010992028 -9.5198009599042 0 0
184.309341093367 34.7155302005526 -18.484074586697 0 0
201.055146404422 -15.1512598916047 1.02842272588985 0 0
24.4121406496877 11.9819051109986 13.400953144186 0 0
192.681278170674 26.9552648208745 8.36314548576515 0 0
180.334090141608 -36.2580381193513 -16.9711776716662 0 0
194.97162181417 17.7180970413172 14.2184319708686 0 0
201.918144129599 -14.4385682396257 -2.27123362668959 0 0
-28.5017168651465 -1.46409038773001 20.3894054521645 0 0
124.426202083508 1.21717032496035 23.2458691488864 0 0
122.030334643907 10.0113666238697 17.5438536522614 0 0
165.293303702981 27.910899650644 -19.48078256415 0 0
173.930322925706 -25.6534663785581 9.30751133533325 0 0
171.355543362686 32.5126929985343 -14.154309918532 0 0
175.716991640669 -31.9619252728084 -27.9298934914488 0 0
-76.4384156734855 13.4005722198835 11.9388977271765 0 0
161.432236693769 -4.82622088909281 19.8212490392603 0 0
183.012385510707 32.6195873612038 -13.4980543486136 0 0
134.522922190034 13.1232265076815 -2.73000546574092 0 0
166.778045003765 -19.5766324979457 -18.9049677593099 0 0
190.916066942548 16.6647433549476 21.6912224483838 0 0
132.436778905034 7.14008933105191 21.6090603302173 0 0
6.37761562792516 1.94878315178078 -4.9030164088542 0 0
171.2251738885 6.26145551926836 -21.0304560655593 0 0
185.906093396303 8.84009387425397 -15.3653727909147 0 0
174.70304162153 29.8265776845591 -22.4226615894063 0 0
-71.6952331299586 4.35621103420851 16.6095025250813 0 0
169.803661825884 15.4037133559548 28.3096476446569 0 0
-33.4342996865623 -9.46268371022247 6.27406399037221 0 0
69.7746538868716 3.44862450276047 22.8622117669389 0 0
125.089561307144 -14.1680822998521 0.501845657008035 0 0
195.820328263169 20.4829963818679 9.19089516356363 0 0
196.03513890098 -31.0143098746304 -6.39116336987366 0 0
57.1627634945557 6.18951086631027 21.4473045913912 0 0
67.4621267224423 1.19308052645755 -2.65022637905341 0 0
-29.5466550063409 8.24044580589531 -1.8116384782463 0 0
159.604067957884 13.5086032836302 -13.887474368969 0 0
-51.0367002347846 6.82066778151046 18.6986038209232 0 0
180.358404442014 34.0844771232225 -2.87217247824209 0 0
-60.0084245468005 -4.64773728957317 -1.09700680472735 0 0
129.99933949688 -1.36997475736088 22.7702514883199 0 0
167.326919423712 -34.2526716620984 -10.471807096611 0 0
178.50454555812 -28.2102320407974 5.60479837035383 0 0
-78.9043823968475 13.7898688689489 -8.52322922753064 1 0
190.77928543348 26.2640862883056 11.1297498810557 0 0
86.1121785375864 8.30506231278764 19.0622927860162 0 0
41.4227408376786 3.63766154929294 22.5721023582276 0 0
-81.4101180190692 3.03829527205748 15.1844657488302 1 0
-58.6765522033529 -7.59468835733806 2.62478915841888 0 0
194.990130238956 -30.2177446058733 -3.1480340453954 0 0
-25.2560921728392 -8.15354629223934 4.22259080407412 0 0
174.176037618584 -1.87073856036572 -13.8945186818898 0 0
-9.94623676241964 -10.6903726602498 9.65804211188021 0 0
-67.1322769928891 -8.08357136288424 5.60975220493078 0 0
122.030473124151 -7.8192805234945 20.2992221025436 0 0
144.630455686306 15.9592302893382 5.67087339587733 0 0
7.70231151941075 -11.2005189909509 11.1580183811001 0 0
196.050382367894 21.2469622749695 -9.69185116761149 0 0
167.824215840275 31.8557846495312 -1.68923103757958 0 0
175.466217205692 -20.0606193721912 16.814873129177 0 0
160.670443489971 13.4121537583862 24.2864767064319 0 0
25.4014640350676 -6.83258340336205 20.0695100058865 0 0
200.113038658691 -14.6110440790698 -20.8344622951167 0 0
-29.8306837036506 1.73688412162029 20.9822418760595 0 0
202.612358204449 -28.9219910040341 -7.03492019816003 0 0
-19.1008987130886 1.08546833844051 -4.73380498790265 0 0
27.7478391007267 -1.94282135654592 -0.84029324620381 0 0
188.967343568856 -16.0425398381781 19.7527674818891 0 0
137.614613268086 -2.58074350857879 -4.5892777630339 0 0
183.955851141396 -0.973633414973718 -8.36213884158462 0 0
166.302460341559 -18.5600406052561 15.7674008715863 0 0
202.935962562258 -16.1534480314471 -4.16079089523864 0 0
-37.972602270078 0.401147131514654 -4.42403748580794 0 0
11.5264773504944 -6.81246481080912 3.7900813640375 0 0
173.206502398682 30.9702867867867 3.57760727154138 0 0
195.198919774032 7.44359773834996 3.43206966728856 0 0
102.343948907813 -14.5638410945113 6.87580748181876 0 0
27.9417891185915 -11.8071564800117 12.2744147629659 0 0
185.128086549007 27.154782028945 -24.7029510784435 0 0
119.298331807844 -5.82804767999782 -2.9465234981825 0 0
165.856839572653 4.41577263605698 -12.4753884871244 0 0
183.653026620906 33.6746781470333 -16.510323920572 0 0
21.7531425635034 0.396007701733441 22.6735332592977 0 0
178.589100081226 6.1869997881161 24.7208270497959 0 0
141.638258943907 -11.5469456870489 -6.10112314363664 0 0
203.553516033448 -22.7595179992176 -1.36808540742069 0 0
198.772820790927 -25.2673199195928 -29.5817633799551 0 0
153.074979013133 -13.978672389044 -12.1285948655436 0 0
172.521072622032 -16.8269696921558 -29.430278146693 0 0
128.961905649664 -11.0396798079347 17.987452959948 0 0
180.017194913109 -27.5439122062536 7.33461008484034 0 0
122.658917707561 -2.20967248276023 -3.68511550832427 0 0
181.757019010997 -10.42483911095 -23.0552969307694 0 0
47.3683203526334 8.09156667237882 20.0015960512902 0 0
81.3579986886515 9.85004224273908 16.3493028318513 0 0
46.5032043309231 -12.0988234475363 15.3694317391919 0 0
-21.4363528000819 -2.25190792507418 -2.20121313875295 0 0
203.743804779686 -24.9508568882245 -18.1560974715779 0 0
169.713953217513 -35.1378876654149 -17.1718756762796 0 0
-48.6498472039921 3.21070389617592 -5.53772002080263 0 0
20.2910231210049 -3.86356007854804 1.24669790333781 0 0
173.730487958391 -10.3418601452713 19.3037536668521 0 0
167.532419362814 -27.9555435241763 -19.5359266292836 0 0
169.249788533625 -22.2210575029023 -23.2958232911175 0 0
195.075811779038 28.8275805079221 -7.62342114858211 0 0
190.909938240303 30.673370941884 0.374667286815287 0 0
193.509807847985 -14.0166497984001 15.93441409478 0 0
183.279733513011 16.5834153083586 27.7726410968521 0 0
36.6505843831028 -2.62456689707783 22.1125687383072 0 0
187.658495221667 -29.910950199816 2.89654726293085 0 0
160.69418022356 -11.7454067601677 -12.4645056771545 0 0
50.8417390680341 3.25520200478627 -1.97906698034655 0 0
171.193331864061 1.76712491273121 -15.154715128478 0 0
156.263910410269 14.8072529139758 20.2429562229866 0 0
-75.95413270937 12.048462174183 13.3878080289315 0 0
181.877046541542 -32.3594655205545 -31.2423130606884 0 0
194.322005035881 30.0754144507029 -9.13285285447169 0 0
105.766537716825 9.86928412724733 0.595788672064531 0 0
142.167800125778 -2.93600265439498 -5.02609114877269 0 0
