"x" "y" "z" "f" "a"
-84.7070625796659 7.50767184777028 -15.1182102759262 0 0
-152.471085518341 28.1737325236445 0.591889650475911 0 0
-178.23479833132 -21.1048337699523 -14.7408828707422 0 0
-177.6329706862 -23.2809315787109 -13.9653033557624 0 0
-178.506985095696 31.1052008879573 17.0545309831607 0 0
-210.723709033711 -12.2038825972058 -5.25239286445543 0 0
-169.622250039312 -15.243199740728 -8.18145586563197 0 0
-167.350680802735 -13.6354497074692 -7.66527523740628 0 0
-201.343652048582 -19.3058103049463 -22.3540703220326 0 0
-111.951232255946 1.59286508787027 10.3815669411608 0 0
-147.973273088181 24.0866769113802 13.3684497483335 0 0
-150.292453149403 10.6313059008727 21.4727302570314 0 0
-66.1359002529472 9.91692776974954 6.9647792625857 0 0
-76.9953075131926 10.3434331882811 8.47559123371802 0 0
-131.12521211485 -6.16886092416415 -2.0343655993214 0 0
-204.866321067517 -8.65405305587701 5.24822740446473 0 0
-170.36029343654 24.5432772413415 -8.49955657990978 0 0
-154.833783866789 -0.604951172298057 21.3402257213348 0 0
-49.0561096535686 7.22586812024955 5.80210413728124 0 0
-69.9391800499808 -3.11695870392391 -12.8107904883445 0 0
-120.533519959696 16.9681066819218 12.8332362073982 0 0
-162.904374900969 5.00858218860632 -9.69515940792269 0 0
-196.397999473137 -22.3041764319416 -24.225033543624 0 0
-193.900696518503 -6.37305281951875 3.4441889351899 0 0
-173.219573195175 7.85961050254993 -13.3911044972335 0 0
-211.850774512885 -35.1170617227516 -7.27975525674196 0 0
-203.771947510716 -6.72490498947611 1.53969352239608 0 0
-180.744350445985 -40.2309153746825 2.98752698028658 0 0
-141.369401819556 -15.0135518773497 19.3904402091169 0 0
-177.072591786744 16.6249150640985 26.1148504692332 0 0
-84.2544090204688 18.1427372900589 -4.88832393195354 0 0
-184.614766305618 -32.4225738891579 -20.5971167075993 0 0
-34.9917475930566 0.0263103843005918 2.60559469565939 0 0
-172.370754516375 7.36747151197943 16.0379145447441 0 0
-157.977417180133 1.25144615126209 20.9109626752687 0 0
-153.614909480401 -12.0689811720954 3.20145211656047 0 0
-188.372893128748 -32.9254840297417 15.6089463772194 0 0
-116.33759034621 20.2846296300397 1.32680602254245 0 0
-129.668370293756 14.1297006146244 16.378085517875 0 0
-178.575351560973 -38.5424011121413 -7.39575742958221 0 0
-91.419778341355 4.86306840276246 8.75901632633882 0 0
-87.0138943845413 6.51611418336253 8.68163583732627 0 0
-192.411048589849 26.9866511727032 2.58078242561538 0 0
-178.597906247798 5.18093805045761 10.3052260633599 0 0
-175.689574230256 -29.8880054951566 -5.30472026795029 0 0
-161.402225517338 -4.20461514146989 13.8185164286038 0 0
-153.193510252545 14.9821447899055 21.8841342042835 0 0
-97.1463611046695 -1.49369864451571 5.88910861787969 0 0
-145.822304410948 -15.2106033381009 18.9235791874496 0 0
-202.880179870925 -8.55888644460764 7.28435246167599 0 0
-138.225745552438 -13.5469286066437 18.0966422352312 0 0
-206.394058259843 -29.9491278601267 12.5743223222462 0 0
-55.3068734940362 7.61507696468469 -18.3899708594626 0 0
-90.2538285377776 -0.10351522555121 6.35948525399433 0 0
-175.721836030535 34.4086775637473 4.94736937342572 0 0
-167.816097784692 7.89304153016236 23.1571228091213 0 0
-157.757927885117 19.4246806990863 -6.99227701531696 0 0
-89.4487572732017 -4.21629233067051 -5.26950181516676 0 0
-201.246391939755 -38.5374210620645 -16.9668427110498 0 0
-194.858251541001 -33.0654706302665 -22.54227987513 0 0
-127.853328181065 -6.21529067004457 2.15962652538616 0 0
-210.604273017694 -16.2639180634778 6.1361234666386 0 0
-60.3870231987235 7.46762730823074 -17.9512369560131 0 0
-135.946782520936 22.7147058884535 -0.214656665570545 0 0
-190.154742047933 25.3873059850042 21.016929592864 0 0
-33.2689037520284 15.8864246392735 -8.47918915350844 0 0
-146.921321756561 18.1186885938271 18.8583824886783 0 0
-130.985794636809 19.9747163271764 11.5611614027996 0 0
-190.176815946184 -1.7394767943967 -6.85783235680772 0 0
-67.9025549732494 5.76922569355033 7.14658112846502 0 0
-94.956558082829 -0.988508636913486 6.14109268410811 0 0
-176.914539174848 -26.6677779219031 1.06366830901772 0 0
-180.583880975118 -11.5993451383627 -14.6065067969514 0 0
-39.6904372926152 -1.81078372593773 -0.670682047738791 0 0
-186.177110119939 6.17934459548781 -2.90222599993792 0 0
-189.487702797387 12.4258199444678 20.2571412829439 0 0
-6.92723901960822 10.5387904137244 -1.56701168975102 0 0
-86.9131069734312 18.1258665341655 -0.616101056975044 0 0
-192.946484691167 -23.1627456690175 17.7245310251418 0 0
-47.0116223444651 -0.354585071925404 2.33762671199716 0 0
-122.225445963808 19.8646277097192 -5.07849111275598 0 0
-187.384733096783 12.7183817475283 22.7040319517294 0 0
-59.949654705114 -1.94316033109138 -15.8596385889991 0 0
-196.105123609105 -30.6193584080322 -23.3988229007617 0 0
-173.385818636314 -22.2223834063667 -0.22361635191158 0 0
-168.2998937892 32.521521340737 -2.01737096343918 0 0
-130.978355324074 -0.751503338340918 -8.68769578177388 0 0
-185.798216711779 31.0075716824715 1.15156145724792 0 0
-62.1584469527327 12.0386815229591 4.38959363651981 0 0
-165.264446362398 -0.271645351356631 14.0910249596493 0 0
-160.309263566756 33.3423181364123 0.577903074492476 0 0
-172.924482070355 -4.96461220459688 11.3438981573406 0 0
-115.089329048861 14.8084101691183 13.5868617110411 0 0
-136.226042825005 10.7647801060068 17.1242396907393 0 0
-175.366141016671 -14.1913199181903 -11.8114335655546 0 0
-176.621131478077 -36.540889419448 -1.01443139471788 0 0
-90.6397860728701 18.1642169459169 -7.65516548326153 0 0
-17.4241844826291 13.9590484250047 -15.5967745501919 0 0
-194.734604959681 21.3253818313998 10.5800509842166 0 0
-207.027246907532 -9.90928667256641 -10.7987657148927 0 0
-178.3470542192 -38.5615147283849 0.851960388315258 0 0
-32.4714954221397 6.14753013915811 -19.8650548363429 0 0
-165.379518628145 25.1198914501458 -7.49346953349774 0 0
-192.861127524836 22.6828557432846 1.05909396621786 0 0
-171.570159059107 9.37130861597548 -13.8139441442405 0 0
-27.1038637149611 11.4776205439535 -18.2768862609491 0 0
-153.267851768602 26.440557381967 -4.62453684061934 0 0
-90.1677322585653 15.6972364606381 -11.9464898656285 0 0
-193.476796785744 -28.4522336507388 -24.133222054545 0 0
-111.748340185749 16.8409604674074 -9.36259764504425 0 0
-120.480725148282 -4.99541080136444 -2.58777589256937 0 0
-175.211850624548 32.6603159416415 15.1501254742323 0 0
-137.966083046874 17.4696731605863 -7.77838673843411 0 0
-79.0605429729243 17.8327054401359 -4.60558761460279 0 0
-186.009522824917 5.14043750254136 -4.34134356533072 0 0
-180.203201427124 -13.9184346847859 10.623177047542 0 0
-158.851416167405 1.77297389004639 -9.590869652137 0 0
-179.351253887915 18.5673844376826 -10.8486408528938 0 0
-65.8393605239437 6.14942731081726 7.16959430102956 0 0
-182.477012567466 -28.731307013555 -19.666356675813 0 0
-176.626434159008 32.0057704455389 16.4561331603434 0 0
-75.3276609592661 -2.08131694819412 -13.4366822193461 0 0
-197.584013281166 -27.8416485354734 -23.7997114897206 0 0
-203.484909666682 -42.5368683652971 -3.85834388528211 0 0
-154.943968868852 8.4897800607667 -8.15340402620169 0 0
-78.915656076386 9.99040008839378 -15.529120036902 0 0
-169.750694094822 1.05129847876747 -10.1216880884152 0 0
-31.6567857118983 15.312206479541 -6.85689103170669 0 0
-194.623693456002 18.9422144131532 22.401340956221 0 0
-200.375205416507 -42.8466281997791 -6.13118326637159 0 0
-156.249171708186 5.57977052650723 23.552453139269 0 0
-144.219511415328 -7.86791469095832 -5.62671227445643 0 0
-109.78641647263 5.78640327046526 -12.0663064012216 0 0
-42.4949313074676 -1.52294821393249 0.042804779676386 0 0
-130.312864584145 -6.18631068249417 -0.28972570039027 0 0
-210.995763996693 -18.5815879014585 -13.6512649386434 0 0
-92.3089308875454 17.8367003771436 4.27406065138857 0 0
-24.1947420599231 12.3999684816692 -17.647855822105 0 0
-150.44818343263 22.8524053409049 -6.02420085507452 0 0
-198.451848060142 -25.3133397332694 17.1281079426823 0 0
-176.435269993769 -22.3140985735076 3.54444932950613 0 0
-192.344948815495 22.448335198136 -0.282781231398978 0 0
-162.529961895244 -15.0144461171142 1.8294490210329 0 0
-175.245509026188 15.8503251938688 -11.8046308747797 0 0
-204.247387663736 -8.8215808139056 -12.8848920380999 0 0
-179.030137364567 8.74474858851757 -10.9600043082165 0 0
-210.819056057255 -36.5765470864067 1.61851273445024 0 0
-198.228891173234 -42.3445149149091 -13.2257410885711 0 0
-193.616301701378 -44.8811226015016 -7.36972394550402 0 0
-206.872291661021 -21.9938004973591 12.860763069549 0 0
-166.920031369652 19.5017783977951 -7.87516017875138 0 0
-53.290951846152 15.779791370868 -3.48987725265049 0 0
-190.83233259548 -32.6621402563605 16.0605208658784 0 0
-48.1011820152262 14.1536502128509 -15.7008020794198 0 0
-39.2204674508948 13.1095775208395 -0.909758041551799 0 0
-184.224193161607 10.7052625866704 -5.61406460442255 0 0
-168.594275214168 9.02075150837629 -12.9534882859292 0 0
-159.237944509552 5.14176424261347 24.1383079527867 0 0
-209.640904872792 -16.3684662074241 -14.387521373469 0 0
-169.161259625423 21.6233861015455 24.364799702215 0 0
-68.3242133553347 11.8936319684464 5.80273649371961 0 0
-189.778732946978 23.031110753814 23.7023782628718 0 0
-64.158302748192 11.4453819584465 5.34173526305122 0 0
-141.083391585593 18.062693665445 17.3998048789298 0 0
-103.240701713712 17.9489606033008 6.76649229283924 0 0
-10.9785333332819 -7.35325467815956 -11.5043930507833 0 0
-187.47479466831 -23.2254550221078 -23.416906611845 0 0
-171.324176691949 -20.7180151068788 -5.98818107448554 0 0
-198.599923720797 -24.1408006834848 -23.8438392218703 0 0
-167.965865731658 -9.31118081722808 -9.31303789173297 0 0
-181.040511972783 30.7804341705558 -3.18660605718967 0 0
-104.569277230646 -3.5378138502818 3.86727656725406 0 0
-177.071838728704 30.9478100820776 18.2194273112912 0 0
-209.290641669124 -10.3436275834507 -2.39200026435582 0 0
-173.29144506844 17.9950790223473 25.9841458923004 0 0
-66.0774548883497 13.1695162863563 4.07665135668674 0 0
-50.9302841544993 14.2727098849063 -15.4977575293594 0 0
-108.520538158898 8.82507231499819 -12.0570011338545 0 0
-76.8028054621438 -3.43892513661946 -11.1715008050479 0 0
-214.83325219395 -22.1781929537542 -3.03044100804182 0 0
-90.5184144261835 -3.77208869905104 -1.14348081927131 0 0
-158.53986232201 -4.72010882677503 14.6120278403068 0 0
-33.3264937591289 1.53825099531178 4.52055947079744 0 0
-203.458464871932 -13.9536290209815 -18.8401426472548 0 0
-3.39465673769799 -6.94114067057872 -16.0847578418423 1 0
-91.6724806669047 -1.26450812952482 -12.0656851876136 0 0
-71.4590302270073 17.5962574591491 -5.80986737178043 0 0
-173.985219569061 -2.05314127679756 11.92018060767 0 0
-107.667934281125 1.11121510653599 9.51830898811492 0 0
-112.329761457474 2.63264513839735 -11.6638091371736 0 0
-79.197454946719 10.7424081210711 8.64846664606199 0 0
-4.67791172411106 0.838951052397945 3.57202286743165 1 0
-146.006740986483 -6.93711312059313 20.8851201831952 0 0
-183.308987085449 8.98644070376424 3.12597027688183 0 0
-153.723637524827 -6.15571812159105 16.94528512432 0 0
-130.439426647475 16.2269069500957 -8.36028492143676 0 0
-181.463492115057 -28.4414987818157 -18.3772085062795 0 0
-171.922680578943 27.8355273702385 -5.49123994077418 0 0
-93.8703944355597 1.84589450801787 8.27134027762316 0 0
-143.929254015766 -15.3671676882943 9.81491178318461 0 0
-139.007400752005 23.0557160042445 -1.57774713733399 0 0
-147.667293984855 -8.71709193715242 -5.36423930889109 0 0
-172.935006841212 33.1268635778618 0.325350163202472 0 0
-183.312538799434 -30.1307280941429 14.4386850501428 0 0
-111.821288817148 0.530862687349645 -10.9620629553552 0 0
-177.08798872768 33.3378796880143 -0.909980230634323 0 0
-120.609729273024 9.66257655416149 -10.4735407338205 0 0
-186.151226161169 -8.33583346358234 9.75748011961764 0 0
-177.437171002682 -5.25118666289509 -12.0034746546253 0 0
-176.99310465028 33.6115257418139 6.18303739488093 0 0
-187.731131580659 -20.6653554291688 16.7153902336445 0 0
-41.6098287254325 8.11085081092776 4.27133543470773 0 0
-116.997196969726 15.3696124750527 -9.60053639764881 0 0
-130.949632655572 17.1290859557951 14.8935527523883 0 0
-151.938772710383 -5.0369436993928 -8.84065499120683 0 0
-112.941362922544 16.1734211499378 11.3132018854133 0 0
-214.292134633254 -21.5980903802519 -7.12173621309035 0 0
-147.780613016157 21.6394325267919 -6.23475965639828 0 0
-166.057611546499 5.48409436386623 19.8365508141532 0 0
-143.640493088278 -4.88428204692587 20.6416403738295 0 0
-145.878816034149 -7.40227276077891 -6.36669464184056 0 0
-96.2712753666175 8.67956163275966 10.1398280186287 0 0
-167.325063333035 -17.7850087611085 -1.780517170166 0 0
-176.851583557918 -12.194571310167 -12.5833205189886 0 0
-195.038164479952 16.9570546992514 21.4047843596826 0 0
-66.7450360747606 -4.18940230744676 -10.7692260722413 0 0
-118.6851675343 -1.15391015180094 -9.13057748150375 0 0
-89.5458430680579 13.2138483782624 8.78398731418982 0 0
-185.380741965299 -7.4634972616849 9.56138694658598 0 0
-175.949409754831 -32.4239789553261 -8.4744861551576 0 0
-26.6480240328105 12.0935801873565 -1.47318529545499 0 0
-99.2103995701771 -2.91758210778332 3.43442526086976 0 0
-133.857155088777 -6.81431718885909 2.31366840384803 0 0
-116.545652375841 5.25093789257165 -11.3023846693282 0 0
-194.246806385917 18.8337792045519 13.0085155907435 0 0
-144.40729323828 25.0554071306482 1.65165513761 0 0
-181.262129625685 -33.0336326205836 -17.7546475704468 0 0
-178.664361281902 14.0144049833512 25.720117541863 0 0
-157.049365278052 2.08994521156919 22.5898636158866 0 0
-179.548841605796 -36.4038080468991 6.96955978550008 0 0
-211.62008886947 -27.3000243495322 -14.1014131637201 0 0
-202.841109887472 -12.4999619334897 11.5649341880367 0 0
-150.741996769728 -8.15389135876606 -7.05079532058022 0 0
-205.785999323999 -10.9634887536764 7.77433386770839 0 0
-109.817501861751 19.1949038460925 -5.64119873563543 0 0
-178.727170246884 0.842338914464249 -11.213508677336 0 0
-162.916245785819 -14.6844822076519 3.94832919423288 0 0
-48.267413864695 9.00294709585406 -18.503490235138 0 0
-204.522897642376 -37.0511667357052 10.3081379182586 0 0
-157.028471200335 31.0357006683198 11.6943770166694 0 0
-205.924805132896 -27.9138352905681 -19.9308928359058 0 0
-154.591847589961 -5.85694840214881 -8.58049402063894 0 0
-190.937518498168 16.8002817314632 13.2188869000438 0 0
-192.9695478988 -40.9784587810818 9.71983064815502 0 0
-1.70037919623804 2.36839516257459 3.98108219120311 1 0
-37.034263924017 13.2692795186664 -1.49505014872101 0 0
-51.1931546792638 6.04125962640233 -18.82132982598 0 0
-171.506241573896 36.0306927954822 6.6796011913773 0 0
-92.5695552062504 18.55315563161 -1.36981576517405 0 0
-210.729314278181 -13.4915085978449 2.38629616432686 0 0
-147.555409902602 2.19948114501211 -8.55829696364478 0 0
-87.0415484595462 17.249139522029 4.05336337588315 0 0
-212.563657898697 -34.5239717533261 -2.70548652472326 0 0
-100.379037251045 10.5535799261284 -12.8806116549834 0 0
-21.2661169354921 6.47372759095152 3.67260225871854 0 0
-113.796546521482 12.8418826741404 14.4220536036448 0 0
-67.5140541786158 7.70044273244823 7.56376787093998 0 0
-177.810366493114 -7.92264616157641 10.6650915057899 0 0
-58.6543328528289 6.28553258820239 -18.2073919381211 0 0
-44.0968222538113 13.4406895475336 -0.606360557987299 0 0
-21.2764749668551 -0.858985368675967 0.249895301166582 0 0
-168.820183156542 24.5918400808208 22.7066783157265 0 0
-15.9570852629366 8.57531655470319 1.08786111740569 0 0
-172.745865934913 6.72055346735652 14.377406901117 0 0
-64.5890479285466 5.38673750901144 -17.546916720894 0 0
-176.541143460056 18.634250342161 -11.0625409603032 0 0
-22.3758868013505 -5.329025676158 -16.8883820867466 0 0
-177.477252829143 27.7421034522398 -4.34941993410483 0 0
-79.379504395329 15.4405653500227 4.84040265070738 0 0
-38.4686801530668 -5.70469937937469 -9.54379454158392 0 0
-55.5919326037972 0.787875744454666 3.92353093829358 0 0
-191.03591667625 -3.56733800242448 -5.12486985158458 0 0
-194.223386322061 -6.74710719439073 -13.8849192348992 0 0
-4.93843638728993 -5.61066278965493 -17.7258026825251 1 0
-158.732038697498 32.4475017683175 2.04262989555002 0 0
-121.286273016118 -5.49076620349578 3.64511025008929 0 0
-38.4004265256522 -0.0960661757555102 2.43524120611128 0 0
-23.7372873729482 -5.07960906909118 -6.52664310851092 0 0
-31.9563643732596 14.543300787427 -4.86916586339082 0 0
-148.893095224055 26.0839099693592 9.71259832716289 0 0
-186.598178602291 13.3030876142871 0.367275715988659 0 0
-193.550328546591 21.0813592776089 7.07599738748294 0 0
-39.9785802907634 9.96421399850234 2.47292038563991 0 0
-204.837444232351 -40.9555207443768 1.30590087278288 0 0
-26.0491755018826 -6.39115246554758 -14.016688519674 0 0
-196.592237155143 -29.7785770664308 16.8622459654588 0 0
-96.9196986358727 16.6592313893737 7.35956573885197 0 0
-181.523653641881 28.5249830810144 20.4630970504597 0 0
-22.4827067784566 13.9473415059337 -15.8143138212577 0 0
-187.139878608261 1.09219044517535 -6.20700230357363 0 0
-166.983700572109 35.326624916889 9.94050341707375 0 0
-132.392006425541 -5.77439263903743 15.352627214636 0 0
-106.669644948125 -4.11546036885847 3.21548834277426 0 0
-211.124281157005 -34.5826379983884 4.02180990452394 0 0
-14.9825322743818 14.8764088985549 -8.90193646962671 0 0
-165.426529816874 16.627220138983 26.5227307784499 0 0
-182.186729401102 20.8673849905024 -7.4655801202933 0 0
-76.7198996323003 -3.91340878816928 -3.37301097245774 0 0
-200.850005700298 -40.1764734707922 -15.5257479990982 0 0
-187.53611351618 30.0361252613844 6.88214460322513 0 0
-179.562833616329 5.34591140324137 7.80715312267505 0 0
-117.037617701583 10.5481936755732 13.9235176022776 0 0
-43.827694966924 4.19148066484036 -19.2825768532382 0 0
-175.393726313633 14.8958985455708 15.3750824808753 0 0
-57.2091581370281 16.7043894556221 -11.3615715092704 0 0
-198.362282971595 -13.9279300730761 14.38717154108 0 0
-107.615346992303 16.3869191670971 -10.1418423200571 0 0
-158.74014467708 3.36538589526715 -9.75453460308534 0 0
-183.274579687069 1.22133768498991 -10.504287547773 0 0
-107.420888217155 18.9063702698593 -6.60967221303915 0 0
-13.5656055341526 0.432255555049937 2.94184726630027 0 0
-185.903966168829 27.5658908379041 -4.58521254431119 0 0
-59.9771688482792 1.41947913834162 4.96123918933916 0 0
-41.7940318277611 15.2725681684423 -14.1888833947329 0 0
-109.525969337724 1.71518410606282 -11.7619847986925 0 0
-175.728786383802 -8.2989228884354 10.5626073578327 0 0
-185.968084048617 30.839295971141 11.2951911242124 0 0
-199.839207115559 -32.1680746557514 15.4447254498849 0 0
-20.3596717452232 12.41440285695 -2.69315977005948 0 0
-28.9429053229549 -5.88817554165176 -15.11002051353 0 0
-204.615120968645 -6.71822935533814 -7.97052610475171 0 0
-162.683204012748 35.7529771417174 2.37378930533314 0 0
-159.80089452685 22.9863715892994 -6.76724046954213 0 0
-30.7642344839196 8.77623652785108 -19.4138476916999 0 0
-184.570942898147 24.6075039457821 -5.57879742293785 0 0
-152.963546588983 -12.8713699122834 8.01667603760799 0 0
-194.058359671115 18.0286872624731 13.9654267601466 0 0
-152.374677834778 5.21023638865289 22.1584850581728 0 0
-26.4982897948464 -3.82101657310781 -4.42209752141265 0 0
-123.483889209243 20.9413879657902 4.06143688345044 0 0
-175.97126290722 29.6234890041192 -2.56257407784657 0 0
-199.66137480583 -28.947597616906 -22.9890135728525 0 0
-175.333120758614 15.3587579995162 16.9423409124434 0 0
-214.509399489388 -20.9119629501204 -1.30546389512008 0 0
-152.533815909694 28.7137840052321 6.78456631871826 0 0
-116.306549502106 -4.66315695186148 -3.38196099157438 0 0
-172.848757766427 15.912698358065 26.2226914114467 0 0
-58.7327166906597 9.08420012981223 6.19779299659853 0 0
-179.728085819178 33.067764426325 11.4797173073035 0 0
-156.022759212839 29.2089786458675 -2.38018970058798 0 0
-133.975804728997 7.59775221910744 16.1501566518968 0 0
-58.954264661986 11.1238556927129 4.59898002880728 0 0
-125.617965800406 -6.06648533540197 6.46362987251608 0 0
-88.0595969644504 7.79366753556037 -14.6519859233364 0 0
-32.6522893858658 9.7441843575213 1.68666244572663 0 0
-24.4738523911632 7.0026539117961 3.44531146036529 0 0
-181.718429601412 18.8785748696515 -9.29397179108533 0 0
-176.205276492644 -6.14256601350999 11.1829488914955 0 0
-8.44471040871601 -7.20226414265481 -10.2730988889474 0 0
-140.470757146272 -16.8372616758089 15.5828630440946 0 0
-72.8126982647209 8.4036206155299 8.01401288612427 0 0
-173.427564486606 -11.1212226604438 9.4291322703693 0 0
-65.8409933301816 16.7064067853096 -2.62667545371849 0 0
-180.561417568498 12.1093933675191 -10.0913457268506 0 0
-147.560894962553 -4.34344804592954 -8.68335085869189 0 0
-123.966374806394 14.0788901447044 -9.29583809870011 0 0
-109.054972220327 13.3528095910519 13.1264443670203 0 0
-188.12882267154 -45.1158768634382 -4.44155891826129 0 0
-176.413059238971 11.6678392328309 21.4424682922675 0 0
-81.8217463710007 4.69184538861934 7.87899976216345 0 0
-190.945278292297 -16.9770146622551 -22.4421107885478 0 0
-102.234214713101 12.3592466554655 12.3279716784369 0 0
-32.9204119182323 8.37843396391982 2.7606676102791 0 0
-53.0442352344713 8.67844489481221 5.5849012893585 0 0
-177.968120594182 14.6692030518589 9.84421806072105 0 0
-41.5389584416723 -2.402659735431 -17.8287026818612 0 0
-36.4660778467245 15.9628680497228 -8.17508388990603 0 0
-51.0101598884222 8.14760201786188 -18.5395663242427 0 0
-171.394013353705 25.4735550265835 22.4929228508043 0 0
-200.510891594969 -12.0575048599235 12.4115823460304 0 0
-94.1754862702208 18.4895423165793 -6.25715739306719 0 0
-89.1865102620293 18.3187203361624 -1.27463707625063 0 0
-85.3556022606503 14.8472045316045 6.78567261721215 0 0
-194.887889027171 -4.91927411993719 -8.17623419537048 0 0
-178.348132236541 11.6742273166687 7.50895918684121 0 0
-95.5341571152054 12.5339436748829 -13.040338287615 0 0
-69.4204151460645 16.6263642023557 -11.8171277296778 0 0
-203.93965906265 -34.6448048133576 -18.4252842214547 0 0
-166.720800378229 8.87418289053322 -12.4136820655518 0 0
-164.240960432836 4.34017697704622 19.1089800559163 0 0
-112.073078706847 11.6637337456545 13.698010596133 0 0
-94.3726770578785 2.25785546114837 -13.6643091284933 0 0
-168.682218506003 5.99531787959896 18.6605417960246 0 0
-93.1145010576803 -3.5721643732218 -8.60320915047089 0 0
-43.8013355677985 14.7448002077134 -3.09006558624558 0 0
-18.2866473369706 -2.33835687655943 -2.5121615446728 0 0
-188.358879178068 -7.00133788494208 8.20506232258161 0 0
-198.183741942642 -36.9970402419856 -19.5043010360723 0 0
-190.308264838423 -3.89033605958349 2.04226586572021 0 0
-21.9449382852297 4.49484469647068 -20.4018473317241 0 0
-127.318190678816 -5.42407112515013 -4.06349205102216 0 0
-208.067904978716 -14.7409350160697 8.48727428138525 0 0
-146.510080199703 1.25903426820421 20.2213483086771 0 0
-186.292649825268 11.2736075432172 -1.88158440382269 0 0
-168.151567241056 4.56712319107196 15.768120718803 0 0
-170.073554833863 33.4183015149823 12.4241449627217 0 0
-210.19619131033 -23.9579752130929 -16.2766726030324 0 0
-26.882745705187 -5.40652132660301 -16.2819485057056 0 0
-65.700170832885 16.6798774552735 -11.7021531803716 0 0
-202.012094207385 -40.6646967038097 1.99615226303799 0 0
-98.9432299615216 -2.90863626312189 -9.26366932529189 0 0
-45.8291306865352 -4.57364679108553 -14.6320499610618 0 0
-191.622122774998 -5.15231270365428 2.59076800221187 0 0
-182.055295032554 -17.526214664671 -18.6671581058819 0 0
-157.610747269554 32.0475937826489 9.92199074943127 0 0
-193.861408044269 -42.748237855777 -3.3338947043639 0 0
-191.395191639407 -30.0488600965902 16.9469213267709 0 0
-154.926743018261 28.7054552438792 -0.637128091180385 0 0
-164.844392089452 6.06752352981702 23.2656956134506 0 0
-38.2412484382098 5.40331221895059 5.38936259458142 0 0
-80.7423652835983 12.1930099342814 7.87049668286225 0 0
-194.561025961563 -19.8714257457223 -23.9370459251758 0 0
-184.46856448613 -32.0948238876471 14.4362863508359 0 0
-181.954950676778 -14.2465927988548 10.9289295534277 0 0
-181.887066141085 16.9771044894838 26.4713790363735 0 0
-36.5198126306314 14.2842617749337 -15.6650335428919 0 0
-190.16533019614 -6.60839459523838 6.34641384234836 0 0
-149.305238731436 26.8004635725498 8.16755749321844 0 0
-175.381670420886 14.4469960087706 14.0558319456176 0 0
-189.742630376781 -37.3252646421024 -19.5880196904562 0 0
-171.325387609914 -2.4572749333633 11.9148268493257 0 0
-187.632231446187 16.6351704292988 -3.83297542261381 0 0
-191.699253216627 -44.8884529518658 -7.7961512237334 0 0
-186.839173586764 -43.1893552905367 4.13700510236236 0 0
-191.863007433113 -43.2585991804337 0.518635634094347 0 0
-199.202644406151 -19.2199793613091 16.196559164167 0 0
-99.2819161470371 -0.792367509204826 6.9629473421836 0 0
-38.9716461760421 -1.05016814031087 -18.6133463637923 0 0
-174.191119729136 11.2203139849288 18.0412916825663 0 0
-184.040472731758 26.8486405426051 -4.80593288814894 0 0
-183.643011543534 -10.4809407678748 -15.6046417577521 0 0
-189.74411880734 13.3201461440876 16.3264236603629 0 0
-63.4650471335748 -4.64806491339802 -8.28207742542773 0 0
-203.377869738987 -39.3363702891833 -14.8007834457857 0 0
-24.1998156585981 11.2611168743554 -0.732630709217196 0 0
-48.8850723407774 -1.40224667558935 0.684268661294131 0 0
-23.403930210596 14.9606069248241 -13.7966885050421 0 0
-26.9924215696334 8.69616896323237 -19.5233767732016 0 0
-114.586275875775 -5.43077371069147 0.418382060464034 0 0
-6.20174042601443 7.04931902491672 1.84790833435232 0 0
-92.6463664115831 -4.06061263818165 -6.78654790270578 0 0
-63.3800748124515 2.67437058468612 6.09955834731584 0 0
-111.628401031669 8.7975114028666 -11.6854056179715 0 0
-91.3777383666316 16.8747149058616 -10.7494399464846 0 0
-160.382077640556 -9.56327674925006 10.0732077274633 0 0
-165.013931284152 -15.7532017783936 2.92527030608125 0 0
-70.1186963179799 10.6215024185556 7.17876833949571 0 0
-18.8708078652224 12.1786076688221 -17.8334972369167 0 0
-159.215373260893 3.48059784345735 23.2595347608311 0 0
-184.084799903239 8.34386512954861 -6.23758263241725 0 0
-186.177226012412 0.234172919881216 2.48292111928746 0 0
-107.38753254234 6.65098736684376 -12.2940732808787 0 0
-192.831601707224 19.6580734963605 7.2483732151465 0 0
-109.822911385264 11.7862085717188 13.0620471261217 0 0
-0.0721272526032385 11.0920037276856 -2.61599387186552 1 0
-51.6998874343885 1.28826023338807 4.38430321563974 0 0
-186.234224461075 19.9373336940413 26.8587890379993 0 0
-136.150801022371 19.7734147728651 14.7553445980274 0 0
-193.341747077286 -18.0384444923111 16.8737850272152 0 0
-167.903514941171 0.457081782162749 14.5010784892965 0 0
-169.763042384217 12.1853140808993 25.5746271952508 0 0
-74.7000113064344 10.254937813044 8.01622003051817 0 0
-55.800038109888 -3.31858535233135 -2.57908013863764 0 0
-192.938054687282 -39.4438377976111 11.7825332961714 0 0
-143.178475847066 -8.04414447750728 0.623430744200971 0 0
-29.193264247824 10.4856356958459 0.582610991411201 0 0
-206.412880845848 -40.3595322153681 -0.727054838807014 0 0
-57.2094386842277 15.1739840881003 -0.913287273548134 0 0
-15.5212483798566 -0.57389368322783 0.692990092941133 0 0
-172.251999721739 -6.11350794892695 -10.5014612707282 0 0
-157.950668640308 -11.9757264271076 -3.52786501468783 0 0
-91.0910708812413 9.29276974002623 9.91228998797054 0 0
-198.586561414951 -41.3830055898212 -14.9818848306871 0 0
-112.423143195253 19.6243100811051 4.52157435694592 0 0
-177.609423793258 -30.8758827216207 1.67332422300377 0 0
-166.722578279828 29.6029156285701 17.9043866621939 0 0
-187.360275410251 -0.758037776732094 -5.14810568983693 0 0
-184.187109949608 31.917696404004 8.36532141804782 0 0
-154.5526534415 3.89724599564256 22.7879345645861 0 0
-187.777828975253 -32.2555472124685 -22.0269585408355 0 0
-63.0801315654283 4.68760255639399 6.14153630732232 0 0
-168.376640628562 10.503847324672 25.1076313440251 0 0
-183.32072543378 -0.256704533437347 6.82263809805666 0 0
-92.8919817070909 9.36084579184385 10.152917879136 0 0
-186.491341518041 27.4459018814823 20.8355128146044 0 0
-193.530339214174 19.9198723364427 9.09976355461876 0 0
-156.015182539458 -12.2875854470259 0.195578652270905 0 0
-202.219944635437 -29.7103283112325 -21.8569113342206 0 0
-176.067154570058 28.6957442444851 20.6686834102873 0 0
-188.226454264255 -0.0987930444139813 -6.59068632292154 0 0
-156.468984070019 31.4108507512927 6.20248021819415 0 0
-84.9700727027433 12.8412584550865 -13.9731514441787 0 0
-183.162735347032 32.0206153623258 10.9827531188153 0 0
-199.40906551591 -6.49969996461009 -0.570332166680559 0 0
-184.835510882292 -1.07443949684098 5.74357704148916 0 0
-192.812873138371 -10.765757180649 12.0382407936135 0 0
-134.317556421796 -6.77595295817576 -0.74215476953976 0 0
-206.182445840076 -22.4100417168453 -19.9650924941799 0 0
-170.58380622143 29.1903739910611 18.9259566561863 0 0
-86.5107625047358 -3.26914384829553 0.059063246117757 0 0
-188.281838606336 -40.4080130535765 9.53674456549469 0 0
-186.22561058311 7.55884176265988 -1.12970023262791 0 0
-204.810342899153 -40.7469870131687 3.6583364065177 0 0
-147.405031566371 4.51457598503954 20.2397449844815 0 0
-114.703076969271 11.1628284145143 13.8350763316899 0 0
-193.498520925149 -30.7143654089461 -23.5278531754704 0 0
-34.6838729456149 13.0560625826003 -16.9957304732445 0 0
-129.763320057346 -5.57746796917959 -5.03815547417618 0 0
-190.204516968866 -42.5174221253555 -13.7523551972568 0 0
-190.556702615023 24.3237655245338 -2.94521276481776 0 0
-109.886483097264 16.129085339396 -10.0960791007412 0 0
-180.101606067895 32.2719084490732 -2.04456826188621 0 0
-149.251268312392 -14.697750798469 13.3677782685759 0 0
-71.1830293767425 8.97593765675629 7.86578546288579 0 0
-166.687407792727 36.1316871044545 7.87589180882769 0 0
-181.040543978376 15.3579084046159 26.2131891665742 0 0
-92.4486037422931 7.72468600494448 9.45819357133624 0 0
-193.747024911694 14.930576083544 24.5922111219784 0 0
-184.24709080389 -30.0395198681841 -21.2550352416154 0 0
-192.756059007266 -45.3085382417433 -5.61860363321181 0 0
-139.046268848201 -7.57586101915403 -4.67686543461191 0 0
-182.595301296339 12.6917893086756 24.0771296553721 0 0
-123.634941406148 18.4022485225698 11.9332943475898 0 0
-137.578071512152 19.1082051719317 15.6218900356398 0 0
-209.727796952414 -32.6929841676042 -14.6344341363416 0 0
-159.583928944697 17.9125342481218 24.1784134633951 0 0
-185.97735425932 -31.3231834407694 -21.7020370365891 0 0
-67.9424246293425 -1.06894362846133 -15.4117988471161 0 0
-62.1750751591841 -4.4659814731833 -5.79853327286467 0 0
-193.430152206697 25.2613323771797 9.30601693818585 0 0
-106.162202928177 -4.3007564905839 -5.09889469043139 0 0
-12.8115328948093 12.0230124801893 -2.867540097264 0 0
-53.1398814331585 11.7992354911601 -17.1439959318618 0 0
-48.5737850129685 5.55800714726472 5.99448970474827 0 0
-111.740402528976 4.124497277097 11.2991938580693 0 0
-62.9526202011511 0.83841576774431 4.46050793921278 0 0
-189.82013521833 -1.30686215096894 -3.07780987352385 0 0
-46.0461940263816 5.72166975965012 5.76721977732805 0 0
-157.726914864162 8.81417564676831 24.5536251054554 0 0
-168.161248251459 3.70170814623617 16.614563117749 0 0
-156.380394884596 31.0115864193119 8.17408044854565 0 0
-145.901467394865 23.7285453379653 12.5148874697385 0 0
-145.024853017713 -16.1487641799849 18.0854768875451 0 0
-130.512388058249 9.75343364541375 15.6992438099049 0 0
-158.659271456209 15.595345656587 -7.59028667643913 0 0
-142.418348932068 7.33741232832107 -7.97845455145292 0 0
-39.5526754012669 3.37316603399701 5.09557440028202 0 0
-205.059000742539 -17.6869565502033 -19.6288509332677 0 0
-108.795125355835 -4.19430418035804 4.27172592373112 0 0
-157.136010165699 17.1107523227899 -7.33823799697837 0 0
-29.9594323159712 15.5832885539006 -8.10530745299407 0 0
-35.6863982185559 8.09010156594007 3.47559594838119 0 0
-142.745381652865 17.0810067543063 18.4231341073609 0 0
-22.2067421506747 -6.31479555811827 -15.1770776780733 0 0
-72.4251615285605 15.5904058130075 2.52742843997603 0 0
-156.693735297327 -5.85262344297599 14.616568658732 0 0
-211.749060473089 -21.1805529247185 6.96976853738177 0 0
-197.356231389079 -40.1972017353872 9.26828922703599 0 0
-149.136025811885 5.47523881402463 20.7928873319328 0 0
-170.107317291723 36.2685900423233 4.42019170240814 0 0
-208.485874853093 -13.738567640512 7.03366739479959 0 0
-178.137615631335 -35.6291341442794 -11.5609367620294 0 0
-64.3187454526141 -1.93017145811554 0.910827867972098 0 0
-107.259000778355 -3.78028390065885 -6.58011690137008 0 0
-136.129114746325 -4.85194739542274 17.3769865759523 0 0
-206.896600933822 -17.414338584084 -17.9658629161939 0 0
-75.4842563060807 13.9587100110981 5.46838514194565 0 0
-88.6892049772687 14.775564987529 7.42023162165056 0 0
-197.003065631937 -5.4353821257929 -3.49271075273892 0 0
-46.8744927433682 3.31818655043869 -18.989619628564 0 0
-38.0419929761636 5.37774921271275 -19.6428700070489 0 0
-185.130134505057 -17.6092264598511 -20.1816608785326 0 0
-199.471419228462 -8.47006442312451 -15.7347298895934 0 0
-189.460170062626 -8.11832139642634 8.64528194187547 0 0
-23.6488796346254 15.4430005422444 -10.2932685257714 0 0
-187.456526926018 29.2766355945497 14.2821373546545 0 0
-66.5337148927128 14.9373185398537 1.9745312376403 0 0
-149.275819555944 -14.3259581591368 14.7771079726023 0 0
-107.358510494746 10.7940022558235 12.5348298491645 0 0
-12.3452317152902 -3.91812045170164 -18.7306509571516 0 0
-142.485549330515 -8.04295158052117 -4.34326132345924 0 0
-119.105996531555 14.1034380045286 -9.81565814835503 0 0
-188.954350194561 -30.9350995904621 -22.8697828856746 0 0
-185.059440791803 14.216683134389 16.9905010865522 0 0
-52.3420543070857 16.4739898128378 -11.9230391081005 0 0
-139.118190885396 -8.27621439847308 4.04125177736139 0 0
-160.314723146074 29.3195146334118 -6.41765564170864 0 0
-43.0086469816349 8.96590915267346 -18.8340191155604 0 0
-31.3428747897792 -3.27604414975151 -18.105322019908 0 0
-176.678499523648 8.31523073013263 -11.8938254531075 0 0
-175.745961103354 -26.5074900070364 -9.99766505790734 0 0
-188.550171947201 -0.129184036640349 -0.534289322340922 0 0
-200.871480882901 -10.7858457199065 -17.6870282855287 0 0
-163.32860688577 5.5898360204365 23.8403371618657 0 0
-158.272944691903 6.99959267650801 24.3584465042425 0 0
-15.147114062579 -4.57973272052432 -18.1600756425785 0 0
-23.1922493042259 3.36688283604675 -20.2735372234184 0 0
-12.2195484279512 14.0845222764924 -6.73410542910308 0 0
-69.1010277565589 3.19778298815329 6.61204979965844 0 0
-150.314753765235 5.61346455755086 -7.99410761447045 0 0
-167.703549915834 -8.26338352366677 10.1143421907058 0 0
-158.713558922962 33.9634415490258 10.5764744908766 0 0
-133.270003904006 17.7197934721158 15.2086057233475 0 0
-179.695986108927 1.74655154899991 10.61730434663 0 0
-54.4336279063575 14.9681572043955 -1.25350161633837 0 0
-129.211088010042 15.6347335373246 15.3361923051524 0 0
-8.37146086396278 -5.93548140038389 -7.50519635961663 0 0
-192.441056172033 -7.08254164272376 -14.6084640947083 0 0
-96.0530402927582 10.7961736799431 -13.4318405477271 0 0
-102.236489539893 12.4289710951437 -12.3515603609047 0 0
-183.971639881291 -22.7855228896625 -21.3336709651107 0 0
-203.78866653401 -6.28057303833954 -0.10952932101773 0 0
-129.37195064149 5.72644349262618 14.8375978271792 0 0
-45.8457257709616 -5.00609132679213 -7.31174793086873 0 0
-206.654107075919 -14.7764095448049 -16.8604526989985 0 0
-67.5070323407844 -3.04266402193679 -1.23678582853214 0 0
-12.6600278632706 11.6556703952037 -18.177312252014 0 0
-171.337462367286 31.0589270378652 -1.85147833019455 0 0
-135.874103462225 22.9524530801771 3.14262621295949 0 0
-186.637168155943 4.49348262045996 -2.40176394040488 0 0
-187.789542697845 -18.3968423315671 -21.8579865504642 0 0
-40.3968345749131 15.5241460724174 -5.85066573783621 0 0
-175.261849780588 -4.53630157414475 11.4565207967034 0 0
-176.874083174991 -21.061033340528 5.01463588739073 0 0
-209.86076472683 -28.1242520451731 9.6481430160443 0 0
-201.091163928983 -16.6086171585139 14.7028205402429 0 0
-199.344725322066 -42.9992266496417 -10.6373884440604 0 0
-175.593352905678 20.6639127807452 25.4179658161686 0 0
-163.066300070006 28.3508604921677 19.2333862242539 0 0
-127.188272454355 20.3296172033972 -4.7419287670941 0 0
-177.571255513207 31.3959409789188 -1.94630038471339 0 0
-143.280964220391 17.9144731209843 -7.41554193749602 0 0
-162.804644548501 33.9416005058231 12.4868049492298 0 0
-197.508518935499 -41.9716230005291 -4.1438759763124 0 0
-207.616448831913 -24.0851831985414 12.403966066015 0 0
-92.7392287224965 -2.72069073283205 -10.3745237404309 0 0
-156.982086880482 22.3169603408179 21.1793264429326 0 0
-28.7020019119406 0.163926000914583 2.62895947933812 0 0
-188.712546496449 -36.9989947714931 13.2101780035573 0 0
-188.799800242966 -41.7375177300414 7.91661614402677 0 0
-58.2616298546805 12.4646589848614 3.21159520771625 0 0
-191.896838376722 -11.3268226682332 12.6883767887561 0 0
-212.473793122959 -16.8370566743764 2.40732567976154 0 0
-84.6529721933771 17.4436657366285 -9.7664429018755 0 0
-66.6041386455601 -2.84982563412106 -13.6940922865859 0 0
-201.795353876309 -42.4810743536087 -10.3855429923512 0 0
-22.043283447858 -1.97873738511563 -1.80527446173242 0 0
-27.4193860902174 15.2693232819714 -7.69857171230442 0 0
-184.710306796781 9.31189256759952 1.74986458468914 0 0
-7.08671852261489 8.67508000963551 0.295194803062456 0 0
-16.4173434908038 14.2890393187339 -6.81163878725588 0 0
-166.148107150543 4.13465678657715 -11.7725857229768 0 0
-110.93150228124 -4.57784895393015 3.66226036006721 0 0
-136.851489725768 -15.2581368947868 13.8348946377208 0 0
-195.098912964484 22.7331572031734 14.745079106221 0 0
-183.374798523872 -12.9836155957925 11.507901553392 0 0
-103.099933993315 19.1973168613822 -2.59822844281681 0 0
-133.274372165929 22.3667494788478 4.94050995046265 0 0
-138.336453892639 -4.51327419524639 -7.51312684686542 0 0
-158.472529458176 -3.11575840180255 -8.95286964712339 0 0
-88.0730613919585 -3.83369690677222 -8.44434677229459 0 0
-5.06644284761366 13.1032796073958 -16.3615259390643 0 0
-14.4344328152462 2.08270979616558 4.31525118977211 0 0
-138.734719808128 3.08497473303345 -8.80198065842224 0 0
-188.342026817489 -43.0315468903582 -12.1474068994421 0 0
-24.7169622570637 13.9715534759211 -15.8547169093841 0 0
-19.4149513245635 -0.362947902022691 -19.7217056263627 0 0
-189.989935296407 17.8634461893537 6.75818711554459 0 0
-199.410317361461 -11.7278911726091 -19.0953046071837 0 0
-193.890078836205 15.831592445542 19.0616217981054 0 0
-146.598167981013 25.8838111338253 6.99283613644635 0 0
-53.9556147590046 3.7355488972292 -18.5113034066701 0 0
-154.210139116719 24.9624522147841 18.7010143821024 0 0
-123.436383908145 -4.45164074316223 -5.06762580058575 0 0
-181.169406925305 -8.87823153640796 10.8477187075567 0 0
-23.8393274866739 10.1369114674211 -19.076701101389 0 0
-192.659236004949 -44.182735467096 -10.4190134457856 0 0
-54.802832929545 9.96824296565571 4.91891648904672 0 0
-196.740551373945 -24.6309398640974 -24.2485677990743 0 0
-165.312102734625 7.91848193773914 -11.6393458742744 0 0
-159.841080576535 1.42522320812079 18.2410658973144 0 0
-10.0095985101776 8.90350062941123 0.355557639858748 0 0
-97.8047926008841 -3.22565013094685 2.24676925513588 0 0
-189.25402750958 18.2318610222119 -3.31864305437187 0 0
-164.934377318712 2.99028887906414 17.2909572633342 0 0
-192.693221690696 -10.7999547257917 -18.68914598117 0 0
-130.881956490108 3.47534569903048 15.047599429119 0 0
-146.307185138692 11.4718367597004 19.8243539996251 0 0
-163.215304125029 -0.20039428750331 -9.32676255282063 0 0
-127.898303668092 13.8404716764256 15.7950475276756 0 0
-188.347843088913 -14.3528268502699 14.3101010212069 0 0
-144.753240736462 -17.5925610277657 15.8766955868182 0 0
-145.107261283539 -8.9590848400484 2.39231787139786 0 0
-192.746514044967 18.5708905711222 10.6549208953085 0 0
-192.996614780248 16.5620709773168 26.2036839582013 0 0
-140.546173905886 -1.54967712322851 19.0389981675843 0 0
-192.776927631055 -23.4604012614496 -24.5092134162229 0 0
-186.291711023212 0.990992174780044 -7.89473304984084 0 0
-146.327260303156 -17.3407921891505 14.1990973987442 0 0
-105.789465755359 13.7071402709079 11.8682678286633 0 0
-211.407544163181 -36.5026936389513 -4.15864474154215 0 0
-173.086520904836 -22.867194638876 -2.58354653452838 0 0
-194.512644523452 -35.4911090168519 15.0550430916225 0 0
-60.8131207549547 -4.75897256212255 -7.91424623212996 0 0
-136.239419658632 12.512661815231 17.4561085926535 0 0
-157.66527144772 31.3273410044917 0.552977025911312 0 0
-213.493792772575 -19.7960343075283 2.35236011338792 0 0
-187.225109880417 27.9398608261861 18.5137239227069 0 0
-10.5642629064192 5.95790673594347 -20.6419516895438 0 0
-201.510205334765 -6.44156476092218 -11.7017044814427 0 0
-97.4401755480295 18.7512415255606 1.52246944371493 0 0
-206.976783848604 -26.1831583771712 -19.3572288528707 0 0
-72.5750900015956 -1.55155372199634 -14.3405322627571 0 0
-154.341980339649 -10.9629783541828 -2.16709768225783 0 0
-148.211237974846 -6.64002335803444 -7.76265095561722 0 0
-207.14632844028 -24.2497509646156 -19.2532816713387 0 0
-118.096504291789 0.736249480745693 -10.3110695279429 0 0
-56.7106902565581 -4.92571994851896 -8.71621887690596 0 0
-118.838345273497 -3.74150013503224 -5.70946169146594 0 0
-20.0913459009092 15.2564546315804 -10.2378512580299 0 0
-189.804393106737 -5.93049843374029 4.46357474226925 0 0
-175.880823900683 34.5171139114232 2.83174057984384 0 0
-108.123779107997 -4.67952071548359 -1.2737062072866 0 0
-63.4204974563875 4.01123877217591 -17.6308580927562 0 0
-132.245481080102 -6.37369271057696 -0.720818085206645 0 0
-195.136800113401 -5.71434295538491 -4.66331346462892 0 0
-204.10403192489 -11.91767324833 -16.7403450214151 0 0
-87.4410711005925 0.630603013510384 -13.9327351281836 0 0
-180.444504135496 -2.02720006746721 -12.1538483519419 0 0
-12.8049842124946 9.81435671479851 -19.3813119584359 0 0
-123.305003952408 -5.75414929356846 6.99169628913981 0 0
-93.6921439917669 5.04469765543277 9.09587158724146 0 0
-186.750859000892 15.8437531452292 26.8422264440097 0 0
-16.303431683432 -6.4678239304011 -9.06398083073105 0 0
-173.166609376042 19.9536541349731 25.4558579048073 0 0
-200.385715214271 -40.5712697429646 -2.38484792335623 0 0
-92.8406290153386 9.03829269336644 -14.0296388503836 0 0
-102.510900311272 -3.13486895024378 4.12666745685737 0 0
-160.446679580706 22.2038994958314 22.6277172782847 0 0
-184.143176403237 -17.1010531800622 13.1950793510616 0 0
-193.89659930306 -4.30678198474059 -3.20223598264334 0 0
-72.5439948681863 10.8976873154122 7.37976018912243 0 0
-184.801917579042 -9.46367964167284 -15.5943607726163 0 0
-72.5229786127663 12.6135135373826 -15.3125570843873 0 0
-193.434136980059 -41.9798999452483 -0.242840873254837 0 0
-53.0299497376538 -3.62043755345582 -3.3730966394563 0 0
-135.291874103538 9.55893949150489 16.7506763659903 0 0
-114.261154439234 -4.30483066191724 4.83330239747303 0 0
-160.840983517892 -13.8120027400108 -2.68652521035845 0 0
-211.507631002482 -26.8969582289248 7.68285881541381 0 0
-140.667224666282 -16.2965807398804 17.3542676313891 0 0
-57.6977084155529 8.39730649339857 -18.0453624432138 0 0
-97.9647561918737 17.6293514715169 -9.40471147574768 0 0
-14.4191712145963 14.8837265169206 -13.3496548124973 0 0
-134.675689630339 -3.8726243532905 -7.31810506557913 0 0
-209.514331252594 -18.2156394645456 -15.5637013784716 0 0
-170.7917539049 23.48672072332 -8.4577825733584 0 0
-65.2605483779896 2.55988594692789 -17.1817133554774 0 0
-190.151786431795 -34.4015536381144 15.2094124587284 0 0
-176.226618835308 -17.9190705710524 7.13193425462656 0 0
-119.56137170826 -1.41134561188682 11.1620276744775 0 0
-186.565474653819 23.1460454821858 25.5863478210537 0 0
-33.4961676046074 8.94975496552734 -19.2628408338907 0 0
-8.98051735013826 13.2171843445228 -5.30434653134176 0 0
-177.675018529122 -2.9678633279473 -11.6141477578884 0 0
-59.2440926024358 0.462005953320811 3.75250691927745 0 0
-179.209146609349 -9.30966238195539 10.5007101994692 0 0
-187.365290182211 13.6298830022393 16.2611581888026 0 0
-164.747527014305 33.423728380777 13.4428896796613 0 0
-63.7495774211012 5.61809451378906 6.7414650070948 0 0
-3.49582642046635 -7.74675508212241 -11.4006915804744 1 0
-103.3091373324 18.8538040916301 4.37386992259513 0 0
-202.205989006701 -23.7821819018814 15.8728734126832 0 0
-204.34723921606 -14.2581894469671 11.7606200398708 0 0
-192.636492712881 -42.2292599164644 1.36551579504316 0 0
-116.094310707808 12.6958660717301 14.7221903997681 0 0
-140.697483398159 -4.47375588761801 19.8847871525737 0 0
-122.837104829045 -5.50677579690913 5.17483167887854 0 0
-181.399776022972 7.251255805293 5.20868819617361 0 0
-199.611409835599 -6.06125628466346 -12.043054437364 0 0
-132.388705876997 -9.36578677866657 14.0539340526977 0 0
-180.461141193114 -0.0664231805644442 -11.4537460177775 0 0
-200.325929866788 -22.9669085049233 -23.2946476105059 0 0
-185.023729478088 1.79954602414473 2.58953239549297 0 0
-179.328697909981 15.9393363822924 14.0110492925423 0 0
-187.798606860582 -12.4605862577041 12.3524254322004 0 0
-53.4580645583479 6.35484439244717 -18.6330981256529 0 0
-211.82790452548 -16.7895425936377 4.198667785769 0 0
-194.725921599497 -44.6773552311559 -8.75431815420249 0 0
-166.860195755765 -6.44949416968868 11.1722030081778 0 0
-33.733858791688 -0.847374209968097 0.90355075514799 0 0
-123.602314813888 20.4153364628833 6.94617291252029 0 0
-186.344090190255 21.4291044436049 26.4462894588654 0 0
-152.80440800023 27.2324985548841 12.3501542158593 0 0
-196.370409482268 -43.7587399150925 -7.26879577959712 0 0
-148.828801869601 -8.1526889000998 19.9905720015413 0 0
-204.086110723835 -27.3239174281759 -21.3164294687722 0 0
-190.026879466675 16.926902506995 11.9385916625082 0 0
-178.675317894906 29.9606746080227 -3.05319306043253 0 0
-70.6707627940785 17.4061982299786 -9.39324903233325 0 0
-152.111940347127 -9.47805395896437 15.3492437168661 0 0
-90.8041067402739 -3.49600441998647 -9.13234294162482 0 0
-149.082224964725 18.7961390291938 19.3742973027021 0 0
-172.454218827085 9.84374812224706 23.3489682291494 0 0
-206.476327220023 -32.374087848591 11.6133629091979 0 0
-21.0420634371362 0.0774025149438112 2.2787247548317 0 0
-55.3421581145111 2.40014401279245 5.5548909666023 0 0
-192.478461355886 -4.54984811406895 -0.0856292705942689 0 0
-177.94806941843 -6.92564555940089 -12.5453870821558 0 0
-157.226476003998 0.0127652610716002 19.241890061117 0 0
-190.121571378645 -12.7765256077131 13.5587660083361 0 0
-185.98978219838 -19.0810366034337 -21.3726885265078 0 0
-192.12072276304 25.8612538324054 -0.561434657778009 0 0
-184.93744648592 20.5133394401158 -7.08212534274218 0 0
-204.133243828047 -21.3959407872393 14.6965731963912 0 0
-163.495468105485 31.826664212762 15.1658683933046 0 0
-148.789862514514 0.679319147546208 21.0101297599358 0 0
-106.644019982956 -3.25481397195755 5.54049136636629 0 0
-213.081243455513 -16.8842512309107 -0.0622907665321633 0 0
-166.756982860667 -15.4928119879352 4.76176304111429 0 0
-176.242347466785 20.7621696372361 -9.93623040601379 0 0
