"x" "y" "z" "f" "a"
-248.074460758129 33.6075798829325 2.53997083233457 0 0
-212.058062968276 -29.0487424433013 22.6504475404362 0 0
-73.8342007136032 -12.2192692666942 6.98188955742313 0 0
-179.124730700898 21.5802461004153 1.69959882585189 0 0
-190.358677597423 -19.5876062820327 -7.55169866591024 0 0
-215.69131850689 -16.6900825973988 31.1309529622516 0 0
-222.075366367451 -27.6951443229779 12.8630075072139 0 0
-43.0628236102473 -0.939005197467075 2.92420618572147 0 0
-33.4373816082337 0.927564217473236 -20.8843617920383 0 0
-82.4682612348226 -9.95342174508335 7.75401153256829 0 0
-195.863625330757 24.1615747431584 -5.28201949160648 0 0
-203.078164121615 -24.3721044278442 -7.91134182579851 0 0
-126.363679287928 -16.1845788315772 -14.4642189609527 0 0
-193.366242532393 24.5399669727593 0.412637586676828 0 0
-180.690256568915 1.56742642426083 24.8775779844848 0 0
-3.02097471570356 -10.0964237713381 3.58994210965426 1 0
-183.055315505287 -22.6403482784577 -6.05947417577832 0 0
-167.806521987558 23.4132189748812 2.71228882697121 0 0
-191.090733614057 -24.2587488407009 -5.57756589316145 0 0
-121.198829212562 -9.56256436885257 12.9500061308092 0 0
-216.517906419425 33.4775820772069 19.229986038285 0 0
-165.166038825379 11.5052438101675 -6.59013679018629 0 0
-205.828180461885 25.6435653775379 -16.4471166496013 0 0
-116.601324134233 -21.7850462096686 -11.71092400697 0 0
-183.918582773837 -26.5112209806066 23.6723656723535 0 0
-206.029072395789 34.9165847942156 8.75660117840911 0 0
-124.827209838384 -23.9673766072142 -3.00352513361797 0 0
-31.0231447252751 -18.1438725150446 -23.0039556270176 0 0
-22.2910531313205 -25.3059376968841 -8.94204854965978 0 0
-171.297955266157 -5.99372811758286 -11.1947065403057 0 0
-218.312682750062 38.7102911504384 -24.4008010985664 0 0
-219.833945861009 -14.5028818810503 10.305243588457 0 0
-204.172478321 -15.94953931472 -14.399338725892 0 0
-222.135244326151 47.1737197409582 10.6289962344541 0 0
-197.923852189182 -13.5050538680098 -13.1040155191392 0 0
-87.6809023553053 -6.93895179776359 6.6722333763382 0 0
-97.4711924298691 -11.5744320345178 -20.5031360214143 0 0
-78.4590473639627 -25.6797904143963 -9.56811983945216 0 0
-210.475984184456 21.9457602434892 14.1858866556486 0 0
-118.726120708504 -13.526237923319 12.9675864236871 0 0
-229.556325485829 24.0963752891371 21.1069881328846 0 0
-102.935406967672 6.15381022438941 -3.72592145244165 0 0
-177.33322327662 11.9108331067603 13.8218817187042 0 0
-212.987118675288 -4.93795965110281 7.96516218658148 0 0
-196.140345986417 10.1903135640159 -13.6098447307102 0 0
-90.9866453355226 -21.7088331542121 -16.2753431101827 0 0
-81.1749371345302 -13.1979711990938 6.83331475005447 0 0
-185.09947208809 -31.9154567579197 20.7589658063466 0 0
-163.830813285418 23.3176693481317 16.4385669430435 0 0
-223.427353329563 -26.3518449624594 12.2189156477826 0 0
-187.54414481726 5.05966254773868 15.8641215619469 0 0
-41.1394812115099 -25.8865528945515 -14.4267354907127 0 0
-213.870605431735 -29.3815183317175 19.4423701914431 0 0
-12.8705827589914 -23.6580162531435 -18.0711068848739 0 0
-134.752369978413 -22.2560910636421 5.0287527184901 0 0
-53.1246516731012 -26.3133310461416 -11.8422001493566 0 0
-210.898857594662 -14.8638704405475 -13.7334750758819 0 0
-225.135136235173 51.0225023364184 -10.0749347494033 0 0
-195.987833969368 -6.83360289648038 30.5251581411373 0 0
-178.362838511513 12.7804762500432 12.2253582334422 0 0
-171.798278710682 -20.0923846263903 -7.50483757216642 0 0
-210.636379006209 -25.7009094045101 -5.54601954732649 0 0
-25.3192943746532 3.6377883827903 -12.6841262282531 0 0
-149.182703016189 15.5646118929857 11.1371732289545 0 0
-134.225179139442 7.98845304970637 3.99527213292358 0 0
-215.644443702847 -22.2182133530662 -8.13034920949706 0 0
-163.975358631267 26.3341036671871 8.49075399779288 0 0
-50.5748099655893 0.970597169971245 -17.6793617917436 0 0
-1.58886072573487 2.38153554740527 -4.95129070570836 1 0
-205.956287222035 33.709890432728 6.99451058539123 0 0
-180.878365201283 -13.8969159134305 -9.36748532725321 0 0
-204.304890944758 -16.8191729999775 32.4418413863963 0 0
-212.22192345228 -30.2279540363839 20.6954701149667 0 0
-200.216215620682 -24.2804006736683 28.8950474664848 0 0
-70.0712426588841 -19.3750131252784 1.6412140092241 0 0
-209.593518696468 -32.3004409540916 1.29112827779043 0 0
-174.81868670415 18.3266408531329 -2.44452515893282 0 0
-189.559391939585 -35.6142740743091 17.9955201718707 0 0
-95.128131847805 -15.3260858994575 7.26585731393039 0 0
-127.743938767134 1.54534366991283 9.73321519034299 0 0
-205.759953659981 37.591980998658 8.34853439884017 0 0
-161.793110370841 17.7748359928747 18.177752560004 0 0
-158.729967618433 -7.31440908552346 -12.2407946731677 0 0
-57.6435700923746 -24.9058906227718 -6.90104747470134 0 0
-246.413704555099 37.6604864457909 -6.93619097831431 0 0
-195.748948205333 -20.0561979582668 -8.12024279852322 0 0
-140.784046091743 -22.2478073665787 -7.42935181628143 0 0
-201.418480479947 -6.92423400701728 15.5924952224573 0 0
-188.065572289967 -20.6309342718794 -6.88933708161187 0 0
-183.643409223033 8.98956085575745 -11.4286207174837 0 0
-9.82751243178497 -6.28388725255895 5.54725167667956 0 0
-114.573826732483 -1.30120341471142 -16.2020626785948 0 0
-2.4494900097165 2.64266734925329 -20.789018807543 1 0
-189.260688465192 -38.6612502576251 11.5569543755363 0 0
-217.397800141006 23.5943000369186 -27.2691908080528 0 0
-239.350339608968 45.1430676159385 2.12006906241061 0 0
-202.90622237255 27.129911145522 -10.4451774257965 0 0
-151.226863385758 15.0393588794614 6.3933609860018 0 0
-152.614907155626 19.5847264187093 10.4516935291839 0 0
-196.187366188104 -13.6273647952273 31.1288432292809 0 0
-239.852875810063 45.4226434825762 -7.22743538466742 0 0
-237.852609869114 38.8960996828583 -19.0522820688018 0 0
-83.7944777550045 -13.9238138469195 6.80112791516033 0 0
-228.933258522784 50.6898870169908 1.05285063526652 0 0
-190.871229459484 -12.8693005371801 -11.7429277674557 0 0
-58.2307093619198 -7.52404219454816 5.41241071461609 0 0
-178.034280799068 -8.34993489006131 -10.7296984653028 0 0
-196.877821927203 -33.5075593141509 20.3913810668027 0 0
-149.723485927453 -17.8888009189162 15.3725874891407 0 0
-58.9771572660643 -26.141024620246 -11.4337518963423 0 0
-144.326189840631 -12.9375597266147 -13.1678984544227 0 0
-110.915643896402 2.80132481251571 4.51018292977298 0 0
-131.49969965955 -1.51330291061662 11.8168873834577 0 0
-179.250791181768 18.0734083272618 8.16231296043138 0 0
-177.142560181668 -15.6429937206863 24.6393974516508 0 0
-226.537983674687 30.1539369411566 -27.9943004420832 0 0
-216.140800771107 19.591980374538 -24.8426885471296 0 0
-200.98431004735 -25.8284258088193 -5.9150167684697 0 0
-100.227964010803 5.1640123939043 -1.66882608691131 0 0
-201.763620281628 -18.6554342964806 -11.7126335917089 0 0
-103.223783619617 -5.32022991572713 -19.4806898140976 0 0
-232.781139111934 2.16251066423202 1.33622803852705 0 0
-4.98475049215956 2.94848488328015 -6.92538375962568 1 0
-117.043166028518 1.10672619071333 6.96059802130166 0 0
-168.137333396615 3.33286336712518 -12.5642176237994 0 0
-205.738852033124 12.2077371549118 -16.4714469809445 0 0
-161.414809937681 -19.7209084299658 -8.49161317449269 0 0
-235.406753998476 16.0101014435965 -23.495005090321 0 0
-178.60429076494 2.91020713920476 23.5373309838427 0 0
-227.811130207852 0.96523350609744 -3.89318658386682 0 0
-186.017378650461 3.00950521335782 19.8384823094788 0 0
-207.685374207626 -31.6068691392337 20.9819939652154 0 0
-166.060571862613 25.1583962730651 3.56256724940294 0 0
-201.143097940996 -11.1046367238586 -13.7276325282151 0 0
-177.096804870313 -25.7471564858809 19.5660347720618 0 0
-98.8513604798688 -11.3264072393141 10.4965826977694 0 0
-236.104344795003 3.85543433692372 -11.9342378721295 0 0
-211.156752321933 41.7759318400388 -17.5300278208023 0 0
-218.207162301905 11.2047840443223 -21.7224697549507 0 0
-10.2386805641251 -2.96169276768941 4.65996644131778 0 0
-156.491543146609 14.7475961091424 1.33580269534559 0 0
-189.69556395934 -31.0876611735101 22.7127125114165 0 0
-59.0659450767593 -13.7662409993045 4.58174136287146 0 0
-220.035028490453 8.92017229618695 6.82472815255561 0 0
-232.446377516836 30.06524408306 -26.8211650702158 0 0
-156.872570203357 6.19742472030488 -9.00912022153225 0 0
-96.2546448570568 1.2374014007525 3.60212571245982 0 0
-219.659440855533 -27.2389258055128 3.66399361623853 0 0
-212.127671097762 -23.5544196494295 -8.95830555601944 0 0
-194.186743314345 -8.44621824457047 30.8549275820953 0 0
-186.283507663671 17.1598478829984 -7.11533031092133 0 0
-221.592253764853 -14.6380381825291 27.8997701955378 0 0
-209.300175692486 -32.3856073763932 18.2624028432883 0 0
-113.81545441117 -22.201520754454 2.20429805002929 0 0
-227.680381166712 50.2172110134313 -1.34725277642544 0 0
-222.098837441947 -16.810022538587 26.0998010283442 0 0
-0.286935048033996 -0.013961824597418 1.69814062281275 1 0
-220.175671833615 19.8579677853379 18.5040899804416 0 0
-222.050247512969 13.8124366464683 -24.7716919883496 0 0
-226.460043445912 5.12997472490441 3.57488016030711 0 0
-239.287783781017 46.4215867497104 -5.72527237877226 0 0
-247.727648377381 26.656644671984 -12.7525551486515 0 0
-50.4304093635894 -14.4981016432185 -24.2447973167234 0 0
-156.401119437651 13.2468636274206 -0.49072036514252 0 0
-19.3352811672419 -3.16817452845045 4.40837622748802 0 0
-223.573929670621 -0.130735444326404 -4.96702496513559 0 0
-149.868967584957 -22.6896902038512 -6.35617333917926 0 0
-103.438642331075 -7.90354285139691 -19.884741790559 0 0
-188.072427017298 4.65658843894124 -12.8984087768826 0 0
-87.2060179291403 -24.7769441110187 -4.03646124183214 0 0
-62.9510996119196 4.66406131739491 -9.2523564559696 0 0
-55.7157566756746 -6.42689751098165 4.8823914599179 0 0
-163.742623042396 -13.8097255063359 19.9540464447825 0 0
-205.83521516323 34.5739837252242 -10.8240368347907 0 0
-172.342970227588 -0.230276523979301 -12.909206887819 0 0
-102.898411146987 4.2986582513655 -10.5061371644859 0 0
-196.507795844082 -1.85537649688366 -13.4484450218341 0 0
-58.326252049328 2.8818724056027 -14.4503769760385 0 0
-120.173449941335 -20.9644744227443 -11.8219620592025 0 0
-76.064530854657 -22.8981296026062 -16.9237707482813 0 0
-8.01977785766154 1.99916532097302 -21.3396174708092 0 0
-139.651289618665 -23.9779590696518 -2.24474656074565 0 0
-173.627837893143 15.0874181173137 13.5256709923516 0 0
-218.682478566956 -27.9421629186396 16.5513192274064 0 0
-88.7003768377261 -23.1297610947615 -14.84928894444 0 0
-174.578096366427 -30.376262367871 5.1259844276949 0 0
-208.856565634754 -1.91328112830579 10.1382773958145 0 0
-215.844946979961 50.0956909226876 -1.03661631196471 0 0
-42.8040832945053 -26.4329489694023 -12.4140428667145 0 0
-242.921619849012 12.4054686214629 7.51862864464868 0 0
-249.446074155928 29.5723384055404 -5.7761115644589 0 0
-220.884131712487 -1.07130127143478 -9.4647130134454 0 0
-192.42528254008 17.0971837285114 8.33843936145824 0 0
-219.0132163055 -18.7610802037764 27.9078415982136 0 0
-219.117940419092 -23.5750069849694 25.4112987297129 0 0
-207.032628289726 37.9019370348672 -12.5755596079229 0 0
-136.573877712556 5.62946332541188 10.4503831410302 0 0
-200.255462895393 27.4853349429272 -1.95339974238705 0 0
-176.045407620186 12.038874584356 14.7284736877619 0 0
-135.314116484547 4.5302311109745 -9.7091491449192 0 0
-49.7774067276058 -0.69062280044416 -21.4032814888304 0 0
-99.4506366416967 -25.3600197665261 -9.04716527110228 0 0
-205.764676096266 -3.10558950153794 -14.0059788428972 0 0
-142.205161526698 -1.11369568763523 13.8511080725577 0 0
-136.879048163558 6.16348380663152 -8.15447541800403 0 0
-167.666172675625 -26.5691996657478 -0.116494712010965 0 0
-200.000750844609 -34.9037094190204 16.5488902001373 0 0
-230.852083668352 4.34516098530153 -16.9574655803538 0 0
-243.980900012844 13.601321996842 -13.6509747873646 0 0
-198.421685967752 -18.7208493505426 30.5222786561063 0 0
-174.33503619668 3.70069758175497 -12.7561717183121 0 0
-100.455838237636 -4.51683312158323 -19.5039743439438 0 0
-204.905254724279 23.9254186066517 9.36018537000959 0 0
-145.827077148563 -12.7124733440739 17.0096780046973 0 0
-21.7124516519732 -17.098041261999 -23.6172031258641 0 0
-169.746961135561 22.0535537244036 2.01352290128763 0 0
-247.68061073309 35.3946506404655 -6.94165683515495 0 0
-215.76134417109 -30.3015194944704 15.3635612875103 0 0
-18.2749109683618 -2.14718544833223 -24.2883926966289 0 0
-153.651280371835 21.3494981458387 11.6553817048937 0 0
-129.651891240132 5.13176789617163 7.24984085555011 0 0
-139.120744377186 -8.89055998456009 -14.9679377385977 0 0
-167.243449202651 -16.784761215138 20.0080710545957 0 0
-51.6436403194057 -14.2051291023708 3.71104246881792 0 0
-205.015614963533 29.1418525915224 7.53693655736359 0 0
-61.5554331149141 4.26858704158723 -11.4533154115963 0 0
-88.1736947276863 -0.821252604650385 -17.461892760705 0 0
-45.2702179604969 -12.8997437573303 3.68100687094863 0 0
-198.934341478013 -4.54187907145897 18.6389573576466 0 0
-248.100083987784 33.141937548005 -8.61524032708114 0 0
-223.907507165359 13.0427534375239 12.7593505661131 0 0
-239.002673817469 33.1785843943211 -22.5080302034551 0 0
-178.429891365877 -25.3493994527868 -3.60023866251399 0 0
-183.132631720084 2.99753668292329 23.2667047178318 0 0
-61.2204233738212 -22.4225100795034 -3.05610349634276 0 0
-157.509164715749 -0.935984905057462 -12.5614651176459 0 0
-204.76974809368 -8.50794782703592 14.4802419880237 0 0
-214.810520786906 -20.8577845745641 29.4124277659675 0 0
-103.784781172524 -18.8166356985766 -16.4976223321026 0 0
-0.933878244012639 4.10666340246438 -16.4515547061724 1 0
-168.821814572594 15.8878185048397 -2.24133049360482 0 0
-33.7448795255303 -9.15775863784329 4.56376460586575 0 0
-235.583246960223 48.4423641235001 -1.74483025622653 0 0
-217.076030880718 -11.2493291883135 30.9237604724898 0 0
-120.772952581734 7.79564371704733 -2.99481099244026 0 0
-202.054631795695 -13.1114038215039 32.3283410408254 0 0
-181.99396322453 -27.40093037755 21.8597630545133 0 0
-180.426283517668 8.60059636582668 15.6505912635373 0 0
-220.156980318099 -17.5470254045267 3.40426869741209 0 0
-236.176045506937 48.0957641181336 2.38027906082562 0 0
-162.565384156617 25.6731208505455 6.27200758816039 0 0
-213.125465849415 32.4444009007632 -24.2345370728629 0 0
-191.927228651512 4.75836697110892 14.1310572763322 0 0
-173.286340844938 -5.45114718754675 -11.3397935768696 0 0
-200.767648347364 -18.8570381364688 31.0812676918197 0 0
-108.761871951814 -15.5526212317172 -17.5442585552703 0 0
-206.057427407901 24.6317201723084 9.95588063301946 0 0
-243.905287344028 41.6618694719245 -0.966116468648664 0 0
-9.2679730891256 3.12899377557209 -14.9847409021833 0 0
-17.6508031850668 0.993255441186116 -1.23943019397551 0 0
-61.351340511445 -3.32514399096265 4.09278900649785 0 0
-36.6442571706446 -1.97668298555777 3.82165750257957 0 0
-226.994305171986 0.402367349283767 -14.9482250540372 0 0
-54.8997550711411 -2.49688384549602 -22.8429117569523 0 0
-69.0874282903667 2.30797183341765 -14.1924650811361 0 0
-117.105496580993 6.4163071766793 -7.22551557428711 0 0
-206.182617213093 34.8447624208467 -4.01862547984443 0 0
-167.044817069208 -6.75807099099682 21.2386665985986 0 0
-42.5353631581559 -19.8749384298427 -21.7029369953555 0 0
-56.9875605091393 1.47548396699433 0.0489444514889165 0 0
-244.122026957975 30.3077380532147 -18.2310595193324 0 0
-197.563611251654 -31.4992594510705 0.252122288039404 0 0
-41.7036925251791 -12.0997014002161 -24.9087276398174 0 0
-92.5366470981867 -13.0506179992277 8.88335154636639 0 0
-209.665554767218 -32.8452258409615 14.6076412834546 0 0
-163.33652554132 -17.8899960680181 -9.21026875299426 0 0
-41.8315425633859 4.06101011150638 -11.9510016898225 0 0
-127.057042491239 -15.3761873700392 12.9229467565736 0 0
-231.686423073387 20.921093105255 -26.7309710739338 0 0
-42.4933695795164 -22.4377913348696 -19.4226412400741 0 0
-31.7310318213524 -26.1205679371731 -14.3122478339068 0 0
-93.1742795668423 -1.28906581662434 -17.7667025726943 0 0
-62.9473733992774 0.196903962643186 -17.4766376201418 0 0
-55.7702235722833 -0.6301783911109 -20.6633828550466 0 0
-221.35471149511 -19.8099260909527 4.24613779552351 0 0
-41.549773036887 -24.7380377446288 -7.40620560666087 0 0
-64.956877638736 -17.7004715503584 2.59209162034386 0 0
-220.936843809338 -16.7950692250462 7.32931547976688 0 0
-206.547034235179 -13.9340741730202 -14.629023671582 0 0
-51.2351082676424 0.924865233482002 0.863665838907863 0 0
-153.026909494143 11.3665399284632 -2.78314426400519 0 0
-197.962539215505 -27.5861279936682 25.8781642814386 0 0
-99.5570197530698 -13.9621448655744 -19.6214844417258 0 0
-138.473635917506 -5.02870582035803 13.9364144173144 0 0
-177.788033088353 -10.0741805221372 25.9384071556487 0 0
-194.600543962926 -31.6782809125022 22.1415875318038 0 0
-19.8123642906754 -1.5848671117163 3.56652612301112 0 0
-126.885503621487 8.2066039494671 -4.18692505382418 0 0
-217.745182171672 31.4213568457194 -26.8557517429831 0 0
-235.791940320898 9.24923135355717 -18.372611005505 0 0
-161.00674198289 20.5464196223441 17.655894961709 0 0
-30.2539510865325 2.8900841546033 -5.11354433503327 0 0
-70.0554585016528 -21.7454855826775 -19.000759991537 0 0
-214.443395761056 -15.4271798531718 -8.9834973122635 0 0
-180.061871647605 -4.19400459614358 -12.5393395356783 0 0
-42.6846505421389 -9.61441908223339 5.25827860546935 0 0
-220.019350961026 -0.596466688824774 -13.5604144510506 0 0
-33.4926989959863 -6.77834104615911 4.97828019135538 0 0
-245.981208116027 13.6027563909408 -8.31590497407386 0 0
-162.835788442304 11.0989822650336 -6.23440104404506 0 0
-134.843289556257 -7.59868603263173 13.9876448670824 0 0
-35.4745141409166 -6.8995990922826 5.06373704532073 0 0
-5.2921321536781 3.24598789871699 -10.1592586843599 0 0
-122.190245262554 -12.6260982032297 14.0313755646905 0 0
-188.964303299152 -34.470678723869 1.67786118026293 0 0
-208.255428458877 -22.1725099618247 30.414296526532 0 0
-209.852734129436 -21.4391186730518 -11.9391401477493 0 0
-229.022458964834 4.62253166717449 3.6079417544448 0 0
-19.1822780164062 -19.923961264833 -3.42977981563912 0 0
-154.397077433958 13.9029275704347 1.19800383828862 0 0
-164.913588510248 9.94755549800315 -7.03731604677668 0 0
-178.583184169395 -6.81276150832806 26.3645046420784 0 0
-167.435697502625 -27.8017616015371 6.10397874313937 0 0
-128.634534058707 -3.40246518339025 -16.3292915106634 0 0
-222.055191396336 -0.662124048160251 -13.1406002895855 0 0
-43.7541535928276 -10.6685702377666 -24.9252680112653 0 0
-13.1954849171735 3.11228292209137 -7.10516813021917 0 0
-183.849153154769 20.1453906986094 5.79349983966227 0 0
-236.853488309303 46.1073378506297 -9.82021981776725 0 0
-136.091628597614 9.21886826643622 0.666653714912881 0 0
-222.352530230923 2.28777109141341 -17.0423541348289 0 0
-206.878839328353 30.7393808109029 -16.3747814909183 0 0
-190.112706304436 -1.36082949978001 28.4228350753708 0 0
-142.532753565251 10.6663423378751 2.07539857988389 0 0
-23.1023508043352 -24.52304352793 -16.8459512266983 0 0
-218.267155392247 5.93645861656606 5.74317005072327 0 0
-154.137264230318 21.03982442896 13.608027876331 0 0
-219.57159420455 -8.88066432645712 30.1972504143215 0 0
-177.119488962206 15.708041291913 10.612950985096 0 0
-217.335851777769 40.9799561032668 -22.5051954793815 0 0
-228.512271513145 20.870743526104 -27.4649234844018 0 0
-235.235283986146 33.5021748911393 -24.7293156312533 0 0
-43.539009408125 -14.0284710039841 2.95819810169701 0 0
-160.251688605816 9.89038713928968 -6.05481344920293 0 0
-63.5427565950099 -23.9161014393058 -4.93292454644467 0 0
-210.685684373547 43.799494169927 -14.8159712833989 0 0
-130.040691531269 -3.55444640448778 12.0651945144948 0 0
-221.407006759607 51.685971222192 -5.02417350014934 0 0
-175.275430707943 15.3332497998162 -4.1420258637886 0 0
-104.006612846672 -13.8504946763558 -19.0065819570468 0 0
-164.950596187401 17.070951213496 18.1057853024525 0 0
-119.394331895967 -22.0801658899513 3.24009262342566 0 0
-5.94300373967252 -25.3021749628632 -15.4945501805628 0 0
-43.2670888536425 -3.55030525233898 4.33148466804669 0 0
-206.569786480197 -23.7565678905375 29.1905645005999 0 0
-193.773260480966 -32.9486374708165 1.6082494232511 0 0
-102.595852662944 -25.0507262438383 -8.49143065830007 0 0
-173.58888313915 22.3146002684516 7.37762038606526 0 0
-208.732424480484 -30.3984883735939 -0.658628842125458 0 0
-42.011364954533 -5.04680005115219 4.77363368890227 0 0
-212.846930542414 23.5721282503747 -23.807092065928 0 0
-7.91189256892183 2.92619038150464 -6.52897532776788 0 0
-90.3681312244154 -10.8149042131359 9.55771212440511 0 0
-186.490858563958 -21.9123806250392 27.6101387984748 0 0
-244.955079716877 38.7508668659221 -8.83142204742839 0 0
-224.199311119184 -0.26342540896677 -13.8153275435044 0 0
-225.746712261931 -13.4317222415064 23.6185597560175 0 0
-97.5427351382809 -13.3294567563204 9.32845040170616 0 0
-215.989037161025 -10.212848307928 -6.43654545766977 0 0
-128.298451845814 4.146783876948 -9.97377385630388 0 0
-36.1160283675719 2.5571028172797 -15.8734340785361 0 0
-188.155228455715 14.6856219994012 -9.59838438962874 0 0
-85.7683988865883 -23.757442676383 -1.99640399092725 0 0
-142.293537174224 8.33698287287954 -5.87715439151211 0 0
-196.570720300392 23.6068940350367 4.60192108601856 0 0
-224.218974965351 -24.6653321327386 11.4708535840351 0 0
-98.705093810341 -5.73905343931072 -20.0499813436107 0 0
-62.5763503721423 -15.0290060644694 4.21198343132336 0 0
-0.316764022925447 -0.595933851813204 -23.7781189377209 1 0
-155.508271054377 22.788125207738 13.6145932488577 0 0
-156.538369708222 12.2795993668687 17.1270397962413 0 0
-204.418627758368 -13.7483744584329 32.7297608167064 0 0
-176.197561029067 -27.3617513353243 17.9329044515743 0 0
-125.725908867956 -23.0244470755995 1.31421077871939 0 0
-197.411078800233 -8.89092143859519 31.0727239075489 0 0
-45.1103854492333 0.36258845851584 1.41271301811558 0 0
-202.742703830066 -14.2287553753769 -14.5463638850415 0 0
-215.017983112908 -32.1452042501036 4.0457772378398 0 0
-203.090427029056 -7.28975885424951 31.1771178152066 0 0
-238.799856969318 35.8314475448964 14.8166283489526 0 0
-236.255903872049 44.1879663471355 9.66427833934185 0 0
-63.2890832926867 2.41516934169396 -14.6537206999625 0 0
-47.625698404738 -3.27350632530605 4.16555140498961 0 0
-224.027715397014 51.2482332006075 -8.13065204591973 0 0
-220.722834341448 10.3002595931896 -22.287388064699 0 0
-148.216076973919 -13.4584607352529 17.3065064888107 0 0
-169.391598027026 14.6688726550481 -5.33187860223318 0 0
-68.8012283191187 -9.01829565769898 6.23429087971755 0 0
-203.236193019484 13.2723405900247 -15.6440256535822 0 0
-35.726450603576 0.193498049664204 -21.608008673247 0 0
-131.935357961638 -3.92030950653155 12.4424928370467 0 0
-117.396486382507 -2.95540357967009 -17.1467621822495 0 0
-4.31727641891888 -17.6918089414968 -1.68845771396553 1 0
-185.376289228887 18.2695110695067 -5.55248231322453 0 0
-213.261665845358 25.8296451384269 17.8512069537281 0 0
-199.368532670528 -29.3783061330977 24.8874720308794 0 0
-229.800343504319 18.2925356147163 -26.4622472807523 0 0
-154.473250193267 10.1846294158564 -5.00481120776639 0 0
-238.629637784734 11.3280227328327 -18.1692100710826 0 0
-195.379314342821 21.2661722014827 6.26050880955571 0 0
-204.659075376326 -36.1284700547006 8.48634026200749 0 0
-149.186998565145 -19.1051791310287 -9.82672642777477 0 0
-198.642548172358 -3.13250501716086 28.3699280144478 0 0
-239.029022364176 4.23667466874034 -5.78928914733159 0 0
-209.203903951203 36.7503909874995 -18.136464547087 0 0
-76.9541152582091 5.40050633916446 -7.15728191631504 0 0
-185.991859690067 -3.02427436684912 -14.1952301554896 0 0
-156.734048656577 -11.5656981265021 -11.9606474960257 0 0
-208.549328276802 38.3288573170249 11.6173980767792 0 0
-159.813031545254 -11.9162758664584 -11.4494570632759 0 0
-76.0259792564592 1.36631726074129 -14.5035174402346 0 0
-69.8279984905558 -10.4787949737538 7.06725686587634 0 0
-225.182692814839 25.2062292045252 21.712201779951 0 0
-175.712601450634 1.51573430409178 23.5457855755763 0 0
-38.3512139328687 -4.23722964147571 3.99054677118535 0 0
-87.9814534555401 -10.3857555825608 8.88370736286695 0 0
-169.436448575781 -25.3513547339468 15.6119744234675 0 0
-79.3045648794256 1.14828429840479 -14.8538706890522 0 0
-222.14185858326 3.6359947374318 2.07172221317519 0 0
-15.9517873591275 -0.0492671777708913 -23.0323961766239 0 0
-140.694764751959 -7.63618589791726 15.0307898862056 0 0
-230.961059845051 45.7752356733323 -4.4704782373902 0 0
-206.820175209832 -15.6595986437252 -14.6505063745211 0 0
-125.978246308131 -13.1363163705873 -15.9194238809852 0 0
-175.491823969178 -22.3598452678748 -6.20887788263677 0 0
-153.515972289704 17.5214226637341 15.0122871275445 0 0
-236.556516423916 44.2941783646485 -15.9959601913592 0 0
-187.877493757778 1.27440331670976 24.0655023885838 0 0
-212.609261270191 -15.454728044701 -12.6399855773148 0 0
-244.075688950842 25.7581118475657 -18.9644914771475 0 0
-200.434355295974 22.0876490518439 7.32311256453435 0 0
-54.2649682768327 -11.1554834604972 5.82586397743515 0 0
-199.015758386081 -32.8773488716724 20.8786383650034 0 0
-141.662696243752 10.0461685478966 -1.57352651285914 0 0
-203.980339254389 30.2925817762097 2.55212478103353 0 0
-212.022497344245 40.8070465047997 -19.3791794466906 0 0
-148.554656858951 -10.8788443096152 17.0928919547705 0 0
-224.427525469512 -23.2035214704436 13.8799669126831 0 0
-105.879761287376 -22.75616580084 -12.3454022920458 0 0
-111.49577154922 -12.5360821568168 -18.308228958989 0 0
-207.508541481605 22.1796506852092 12.0075521826964 0 0
-210.441737405326 -9.25083965031912 12.644103905272 0 0
-125.952030685904 6.23542848499541 3.05965192895866 0 0
-198.052693441956 15.0033648551058 9.74441015869262 0 0
-67.7331399872527 -25.7900124112124 -11.1300303326192 0 0
-66.7245873371207 -24.3233925473417 -4.98658583402394 0 0
-58.3245739027379 -2.17781641781324 -22.3236489636953 0 0
-185.398752412357 -32.1892104741985 0.403107528253675 0 0
-162.411209439492 16.7670689761182 0.886567612284542 0 0
-139.542560385839 -1.29074633584514 -14.2832244775452 0 0
-219.639311926892 -24.8270898650947 23.3717206992952 0 0
-115.751900735823 0.365602592735028 -14.1666727045366 0 0
-151.978094289789 -23.3651992850444 8.81306933124672 0 0
-104.249552816816 1.94600461977136 4.57050168501165 0 0
-187.697497738571 18.8663611438607 -6.20073880499367 0 0
-217.314754035241 -6.57666709719279 -4.28353363883929 0 0
-86.877886533517 -2.55407871349996 4.93429295034549 0 0
-79.0976878086397 -10.8142934350233 8.25108337232909 0 0
-49.6519070749753 3.28638290576106 -14.2953366483829 0 0
-231.476735993278 45.762044225615 -9.78997985727281 0 0
-133.273560880329 -20.9456145114108 7.81486838355156 0 0
-34.7110186920627 -12.4953250223625 2.70827406993634 0 0
-146.889388628349 4.47431522823167 14.0673651040663 0 0
-67.6628700499634 -25.9890925592418 -8.94672756409804 0 0
-139.719305288479 -6.06262996400518 14.3668079472084 0 0
-198.160361080298 9.64798180848163 11.3941498893514 0 0
-233.031076944159 7.00526048659413 8.63019846958267 0 0
-126.794245854112 -10.7866290324069 -16.3777666134407 0 0
-132.895117229319 0.720363455751654 11.4379371684466 0 0
-218.100730645201 3.26021507198331 4.13739675094172 0 0
-234.846237781383 2.17874701480104 0.171899971925812 0 0
-20.9466396124497 -21.9744507959398 -19.9226610219965 0 0
-137.28577654026 1.8190753009913 12.3844315059796 0 0
-199.722741175285 26.9272310980261 -4.13962657499103 0 0
-210.919130145324 45.4202579736955 5.65321293159799 0 0
-97.5443095913142 -3.087807883105 6.11426872280255 0 0
-169.342793758392 -15.1128749215692 21.4340596135092 0 0
-139.42122964422 -23.5653978722117 2.05878080974216 0 0
-198.274344255348 -35.4811838194655 15.8889675373246 0 0
-230.085322004009 8.48850184631747 -20.7582961813247 0 0
-50.9269801937893 -22.5658128585057 -4.4280193217497 0 0
-190.214235595322 -36.7082668767104 15.3402958072998 0 0
-178.945732361042 -32.3227122160144 3.73635217976522 0 0
-0.785685500608582 -23.1539570592998 -17.9943509408078 1 0
-215.390316008944 35.957532871022 -24.5579857023376 0 0
-16.3692197065617 -13.4774134254052 -24.7880877242002 0 0
-168.801859304174 -0.998086096028911 -12.1372739912316 0 0
-223.162451789013 15.9285078332109 15.8283852911486 0 0
-153.297847366471 -14.0469023013309 17.9140442284823 0 0
-214.734180294154 17.567526398006 14.981872201706 0 0
-211.845524899558 -6.34207046216107 31.1840444038814 0 0
-215.315191444412 -9.47289701285541 17.4953998682164 0 0
-204.569155783518 -8.68843727547117 31.943539874136 0 0
-80.4504526427588 -20.6604569708054 1.49360236698542 0 0
-56.4419134274346 -26.2204079849235 -10.2740786854812 0 0
-230.190393956506 12.6789441491175 14.4025571891321 0 0
-225.166166481092 -16.8757128788725 14.2745793395297 0 0
-166.920571301288 -23.8950181547468 -4.61283863122974 0 0
-102.040839740254 2.52266263826506 3.39076077490985 0 0
-242.198202079242 37.3393707510792 10.6990895005124 0 0
-158.993972349743 22.0362312187228 5.56443441578991 0 0
-168.309813295149 11.2297529361164 19.420731390895 0 0
-94.7995388069605 -12.7611795343292 9.69461805831544 0 0
-200.621925511827 -32.3416444683607 22.0225837188887 0 0
-31.8445999153971 3.45846791600082 -13.9920866718427 0 0
-18.6272809398868 -25.0314614939715 -16.3842299796738 0 0
-221.369170961729 5.83601892667624 4.49667351125411 0 0
-193.660563062364 -30.0388544386431 -3.05170380163754 0 0
-205.505595471648 -28.9829702944283 24.2752067256316 0 0
-64.1707529539556 -19.3067709710713 1.04144248358114 0 0
-32.4440560989098 -0.225764324447641 -22.330960115209 0 0
-230.128223308457 0.263439149375445 -2.45484346324964 0 0
-189.036522825484 13.3802363257247 10.150853720099 0 0
-199.963930016163 -30.7824889167099 23.6801982626787 0 0
-188.159174495488 16.7279340930735 -8.35749942446408 0 0
-244.005373970715 10.060246428684 0.289101175855072 0 0
-224.155649080254 -9.81064683827946 26.0504618848146 0 0
-97.9725398454489 3.57080447406091 0.516066984938535 0 0
-204.789221400041 31.3379782740605 -2.59866226390653 0 0
-174.5307865561 7.87962561055723 -11.0338398118077 0 0
-109.697154271789 5.76756538212413 -0.401138675358958 0 0
-101.877709543311 -0.663323402057426 -16.1832578323273 0 0
-153.16235643339 -2.01983688778973 16.6244453890649 0 0
-141.143899657714 4.22446090426509 12.6528097570534 0 0
-204.17481328101 30.5369245535936 -7.88632254330463 0 0
-220.32559322936 -19.9057058966648 -1.07728070419919 0 0
-215.747536297695 6.90137565658857 -18.6159243902371 0 0
-207.118114314474 44.0737592363338 -6.51920077572961 0 0
-147.673758083813 -8.99143086549514 16.7287656924734 0 0
-108.797240490398 0.674875284908321 -13.6114723315974 0 0
-24.3495658123718 -23.0697954483503 -6.50858842945386 0 0
-5.90262832354927 -4.90600747302363 -25.1767294558801 0 0
-104.087947790524 5.62557233912344 -2.06744432978596 0 0
-21.5738317912728 -10.1453684665293 -25.3114843137435 0 0
-14.2525753374728 -22.078004266614 -20.0166534483605 0 0
-193.711127291286 -6.64027189657134 30.6610224282518 0 0
-207.981067258571 7.56644038963225 -16.3326746710198 0 0
-137.928892572613 -3.45004837016588 13.4084712146669 0 0
-141.233075054474 4.6412005043898 -9.66646555176469 0 0
-13.9062960486047 -10.1624823857105 -25.3551292824365 0 0
-23.7977029381037 -20.0657125219045 -3.45684831997461 0 0
-224.370723348585 47.5149127647027 10.3023339507319 0 0
-127.397929382151 6.86130652660413 -7.45895980208019 0 0
-6.33022884958014 -20.269085671556 -4.09803899056344 0 0
-79.9827072151537 4.08746172168486 -2.68590312311002 0 0
-234.668929381823 17.5048604649293 17.3384680175024 0 0
-208.705097946538 44.7623550124515 -9.22391508958013 0 0
-113.608054642993 -7.12664140345038 -18.5636623152186 0 0
-132.139035175697 -19.8967694771762 -10.9864678487605 0 0
-192.233492661568 9.65691596999778 -12.781886504364 0 0
-118.411296881584 -22.8902288225421 -9.88645098671712 0 0
-206.565415731852 -27.9155750677279 -2.81406658107525 0 0
-237.351485821455 45.4592528469665 7.03253742012584 0 0
-214.475839718928 -9.17136928977071 9.00663823371781 0 0
-201.79092018236 27.6950093098236 1.99386400660963 0 0
-56.438316258144 2.62062509223246 -2.76407298680122 0 0
-219.390986178319 -0.545395694627641 0.144470566304411 0 0
-200.65528600911 -6.72942247010929 30.7756582556092 0 0
-215.984119243546 -22.4872828970657 28.2730095255379 0 0
-56.0653429695675 -8.56461437002933 5.65324804822691 0 0
-196.825668189356 -36.0214703193044 15.1323346876872 0 0
-46.5288026690367 -26.0204439765391 -9.21529117893168 0 0
-228.861534001144 20.5871888850391 19.7696355151338 0 0
-125.119586568719 -18.0745965666776 10.4473703279254 0 0
-114.111830887369 -3.90586397876953 -17.8786470958849 0 0
-178.198724125665 -24.0397988739436 21.581393314199 0 0
-192.508268003128 -0.413456305736531 25.3037537975635 0 0
-189.349847874231 -16.7758451607713 29.5380782208625 0 0
-212.262481445098 -30.6753268655977 8.82909657076976 0 0
-65.9009768981542 -20.9109155956604 -0.500591062032346 0 0
-212.199601348194 -21.8860223107085 29.5519483089014 0 0
-211.82637584194 48.0016705016618 -0.653900675972653 0 0
-201.20023898601 -0.898128763242068 -13.9282481604595 0 0
-164.264244799203 -8.40665466083582 20.3733389278098 0 0
-216.931305740257 -4.3835968108783 -8.57591315718188 0 0
-56.6780253203193 -4.6731415913646 -23.8462408652761 0 0
-91.8329797723972 -20.3623021244783 2.82896979335733 0 0
-199.051882663856 -11.6936052981141 -13.4393289086622 0 0
-178.490656996895 -14.5232321599817 -9.14926170951608 0 0
-73.1687979167951 -19.9597081606516 1.41034810929072 0 0
-216.1802715143 -5.51422329035679 5.39311034233615 0 0
-206.969057430194 44.4605517195614 -4.22347399498312 0 0
-129.009396990755 -5.46551659848131 -16.5719182173885 0 0
-129.543807723782 -11.0817148661126 15.0272886935171 0 0
-78.3371582523874 -8.40772170103671 6.98783612384682 0 0
-177.896346183681 20.5741688199811 6.54233789081333 0 0
-177.027363386771 18.9238346830069 8.51709238597967 0 0
-66.7116759146151 -2.59802052968536 -21.8015511458079 0 0
-95.4578462019091 -13.9455425207751 8.44276819644574 0 0
-63.6287945934698 -25.4775561608262 -12.9942575755653 0 0
-232.168277153284 7.13328528200219 -18.610627159558 0 0
-14.998755349469 -4.21155182195541 -25.0875203040785 0 0
-215.27420320479 -28.1541192442346 20.4220199901142 0 0
-152.825838148553 -22.2163589895967 -6.90591657384675 0 0
-218.46103145838 -2.32748859889466 24.5264428138556 0 0
-226.261442579789 1.28367719418465 -3.74481968603185 0 0
-59.5320634202266 -20.8814787615306 -1.19196968851027 0 0
-165.520297614233 -9.93381120457874 -11.0767424944475 0 0
-212.296894871224 26.9124374815823 -24.2543823407795 0 0
-99.5216888360471 -6.84023374823248 8.08478437718442 0 0
-217.389060125084 -4.68731955286932 21.4192178855813 0 0
-102.640829163941 -4.92097568451626 7.8345230573313 0 0
-221.302877572396 41.9161969536746 -22.7171546164876 0 0
-94.6609249630726 -2.19613866663275 -18.7174591766066 0 0
-218.017573312489 20.9052575257926 18.44964200235 0 0
-58.419642449618 0.977160252682779 -16.560954003719 0 0
-218.075281209945 -3.97927558760044 0.126849201594138 0 0
-211.588676244804 41.9261016883788 11.3908427526191 0 0
-176.984315585921 -31.4418460338677 5.33301324505867 0 0
-211.312959182087 -9.18915413498748 -12.9880815358673 0 0
-201.023653394403 -28.6345427447621 25.7926508389358 0 0
-164.981591903631 -26.6987054611931 1.86755329977829 0 0
-18.9220464140615 3.38597969798922 -7.35263141844947 0 0
-239.171948994826 45.171486176963 4.6600799218174 0 0
-192.94855664951 -38.5255783206401 10.5535294356343 0 0
-226.071707722509 22.0336391516097 -27.9635824768144 0 0
-225.748040658108 -21.2612058970678 18.1003563394569 0 0
-196.103204756629 -32.6421776292112 21.7386166793644 0 0
-50.3993797897693 -15.2485763001814 2.78546100347503 0 0
-218.839339521074 -7.00189643555293 30.2961356245017 0 0
-198.919043217632 -10.4579572381541 31.4912500793953 0 0
-99.8762044968917 -22.8530872267273 -13.285642064995 0 0
-39.0944251826075 -22.9800103223571 -18.7739363067094 0 0
-39.6195595592161 1.15168354969958 -19.5514721978287 0 0
-196.187813225083 0.475163768865389 -13.3147197698762 0 0
-156.770635048407 -16.4189617087406 -10.3917011038223 0 0
-113.171881370356 -23.3188683683875 -0.847328155014679 0 0
-177.685940136325 6.28369121657117 -11.8186502086635 0 0
-26.4334306746872 -3.58674525327259 4.30919916214671 0 0
-101.516718815278 -7.43165674874046 8.77066521257123 0 0
-213.864387079776 23.5008360697632 17.4394304105168 0 0
-198.372321389884 0.336049883205049 -13.2968743079974 0 0
-218.587310225254 14.3276512536941 13.545036820107 0 0
-224.748008556123 51.2838052083248 -1.62730291809436 0 0
-208.877512875489 -28.7901351599437 -2.10943745302154 0 0
-111.51138883478 5.04353037000401 1.89225574743412 0 0
-60.0142363304077 3.56114759040459 -13.0987152699984 0 0
-234.773980298301 47.9097367717584 -3.21863901222316 0 0
-241.860170873464 16.0569679961943 -18.6181946807832 0 0
-219.595352825972 4.94563854744066 4.57103025149321 0 0
-83.8407748728497 -5.27446746754293 -21.5041784160485 0 0
-206.519132078246 31.1722746406557 10.6661165261228 0 0
-214.444266181016 35.3921503864387 17.5905425690859 0 0
-205.808198130577 33.7177964375428 -1.91524378860995 0 0
-190.774387889379 -22.9783165001594 27.7325046134265 0 0
-207.915310361984 -32.6137338629964 15.2098673690075 0 0
-223.780689155542 -6.38124618353015 23.4928310411978 0 0
-182.29037388671 -2.24533298056772 -13.5791192615221 0 0
-166.45812308569 -22.0163714618175 -6.64206448970402 0 0
-134.915168305541 -20.0765067106817 -10.4419971629842 0 0
-52.5882795323825 -11.1597507569444 5.62534838586278 0 0
-98.9667623083698 -25.0118813212647 -4.5705748865215 0 0
-179.9885015863 -9.28275856671299 26.9449307791695 0 0
-215.571549086882 -16.7779665019855 -10.0122327058818 0 0
-178.032241552 18.980859074449 -2.21410445417724 0 0
-122.48636341926 -5.97139207123861 -17.376150384074 0 0
-156.59050968803 4.62807532090225 -10.5683910037514 0 0
-211.541855096764 21.9014015589264 -22.5548080329714 0 0
-219.94151000861 -17.4738620211475 -0.151751662374805 0 0
-165.652549135343 15.1244121683923 -1.36640416786709 0 0
-239.767959307488 6.25705647380755 -9.65636764527662 0 0
-221.052003851434 -5.22797087555825 27.6270543516272 0 0
-46.2793410760388 -10.7874653969539 -24.8330047038437 0 0
-140.83732382431 10.2536812958351 2.70388794997958 0 0
-200.562530766971 -36.3045712578579 8.71420415852581 0 0
-215.879447200368 6.42510281996565 8.71317409492271 0 0
-209.349754929631 14.1984827110979 -18.5459864570354 0 0
-197.947808977346 -22.2533035607338 -7.45298826745629 0 0
-141.075465943201 -17.4949217920554 -11.676165399153 0 0
-167.778522365222 26.1872983035542 6.9776957071945 0 0
-96.9000082967471 -17.0779521661938 6.70471416259514 0 0
-91.4655710854563 1.23753383002422 2.56207461900659 0 0
-221.243015382972 -10.0679922787931 16.6978420031772 0 0
-247.571303374839 18.7673118370424 -10.5403323544128 0 0
-104.487654807525 -3.63748531033138 -18.7269438630803 0 0
-196.009566919265 -30.6373406048732 -2.55134946638099 0 0
-203.028935353938 -8.38566503760268 13.50567814779 0 0
-224.691569729344 -12.4849523012037 25.225408111878 0 0
-202.334338829817 15.7382432161946 -15.1661913779857 0 0
-15.9186212952386 -24.1508137151258 -7.94353379506363 0 0
-220.696226622591 44.3415897488853 13.644014735061 0 0
-201.845454297048 -29.7293694821259 24.3354616122815 0 0
-248.886469646183 24.028307241689 -9.15928396136208 0 0
-60.244047454423 -25.9047729284023 -8.41059854301127 0 0
-82.0633192843469 -20.7815400897881 -18.540050616657 0 0
-29.1030895549692 -16.6893780563274 -0.0620725133916079 0 0
-176.022671826057 4.96399009941021 -12.5900231787057 0 0
-68.9409236507887 4.93995973307309 -9.32270542323419 0 0
-199.055898802371 12.1744127490124 10.8042049483147 0 0
-197.378191738008 2.30756991459569 -13.4662870495024 0 0
-165.869480236965 -17.6735780733875 -9.1453147001713 0 0
-162.524644441079 18.7599538157736 1.92824698243314 0 0
-213.070392231751 6.35941889554542 9.96270608679836 0 0
-7.23738575106627 3.55940552574876 -15.5308300849297 0 0
-122.677069775319 -20.0000987706981 7.47327599963497 0 0
-197.314504438715 -0.93738491065275 15.2423344165965 0 0
-196.703323872124 -7.3054775576146 -13.6611903279892 0 0
-93.8877050187793 -25.3571719575837 -8.69706322374007 0 0
-124.418327832444 -23.1554515035082 -8.26546547730814 0 0
-182.956039955716 -30.3384144527224 20.574174676023 0 0
-211.49707933852 17.3431007616498 -21.081822239694 0 0
-133.347924697933 -1.84137595724801 -15.1773002395125 0 0
-226.618071332141 22.9092456827601 21.0191246279812 0 0
-118.236162015316 3.48818412494355 4.670557240099 0 0
-44.7324390053076 -18.9280590015305 -0.71728706941131 0 0
-240.220398344401 32.9001445400972 14.9941918645862 0 0
-74.7542267094905 3.35415557434743 -12.779281566005 0 0
-162.87876887706 8.02794708362707 -8.00834561731633 0 0
-148.929354668191 11.0463311039031 -1.76003489410746 0 0
-175.179816028487 -24.3677137141075 19.5030649125471 0 0
-166.356646320199 20.7590853894156 17.4895397381359 0 0
-223.605337052886 51.042324942822 -4.76392237780429 0 0
-217.09676639259 -2.92557160592008 29.6644733278087 0 0
-183.014180786343 -8.18666245640642 -11.6009861356074 0 0
-130.396818955443 -0.872452587059586 -15.0239700180207 0 0
-191.956214067521 -14.7642309503934 -10.8174713201818 0 0
-195.101463846983 -0.949001229933146 21.8430990341328 0 0
-14.918494777225 -15.9102199791477 -24.0773172280752 0 0
-187.626193215557 2.41873454816908 -12.4620617548128 0 0
-120.373916142571 -9.03693918365507 -17.5929384620652 0 0
-226.290793541116 10.8765407173691 10.5747711218191 0 0
-206.568992581364 40.1251802497355 -4.52994246507486 0 0
-76.3645200127723 -7.08682822681979 6.14116908124546 0 0
-222.921696184489 45.6695760749078 12.5609119143363 0 0
-173.704206525848 5.19709458449646 21.5910046551195 0 0
-204.496400509232 21.1260869125974 -16.0307472256268 0 0
-76.8340226045635 -1.44842952307336 -19.5708868963009 0 0
-110.2539248431 -22.3380083375564 1.49119649400027 0 0
-58.6642610229527 -15.5545389286561 3.52396610508646 0 0
-221.670464841395 46.7494888699399 -17.5087649481757 0 0
-200.009424050126 13.5368896942673 10.58755241934 0 0
-211.233464757966 -32.2681731667697 8.76197043002164 0 0
-157.508245101303 24.564378580315 9.56366361962935 0 0
-233.383180477218 34.9067698995387 18.3026174376406 0 0
-137.97041606797 8.82122677350342 5.52181606946046 0 0
-167.515640130334 -15.3800897692147 -9.68398074233415 0 0
-104.197575636865 -20.7948243269458 3.56717879851172 0 0
-142.92276255244 9.87997398688826 -3.9570987335001 0 0
-176.147289277283 13.9831276893765 -6.35624492882409 0 0
-206.985907579121 29.2104904863577 11.6554722211248 0 0
-132.47444014894 -5.91639129477869 12.9343819124967 0 0
-206.548500725386 5.33850306288139 11.5615536609053 0 0
-183.862585860653 -0.336810265752783 26.9716741192733 0 0
-220.53917597182 -18.5561551594327 26.7165298978624 0 0
-206.239800134626 36.4157301990248 -6.93389659448353 0 0
-151.015090528037 -12.9979662644865 17.7154649973562 0 0
-224.547946574308 17.0297305298075 -26.657995452851 0 0
-161.25448901288 14.7359754701462 -0.547939882212363 0 0
-24.9712290047476 -7.6538718365722 -25.337293914907 0 0
-90.8583208004764 0.759134835949853 -14.3993325914573 0 0
-229.092116313718 47.7620542965309 -11.327298153329 0 0
-227.850373522687 11.0629352266163 11.697497553567 0 0
-228.952700806442 12.9963863544276 -24.2554741261893 0 0
-234.163584596718 5.74051365663594 7.56178645859301 0 0
-3.16245599944869 -9.54539429208631 -25.2675862011086 1 0
-245.428043837937 35.6537957302138 7.22618882621337 0 0
-196.132695501358 21.7992747365102 -8.44324804533403 0 0
-190.253277120368 22.2196560926164 -3.74047845028916 0 0
-212.387286975502 30.9534668330725 17.9240429051952 0 0
-180.95178224916 -33.4342745288798 3.857884638176 0 0
-180.088676410881 -31.8165058012221 15.0557654233357 0 0
-52.2109607486929 4.34920973918219 -11.1788047510544 0 0
-235.326752183895 31.9067428331863 18.4761970558058 0 0
-150.246888191044 -21.0495093314226 -8.268595172344 0 0
-200.288140225221 -1.92961858119667 25.9894203071565 0 0
-106.88683590891 5.65197402972006 -1.15041285282409 0 0
-130.668137515459 -7.73768893698959 13.2258760557112 0 0
-217.248296838369 -8.97834339342968 30.5187492726878 0 0
-168.851391805608 1.475607367727 -12.3589107405593 0 0
-97.7360455056196 -8.21517701958159 8.34065697374426 0 0
-118.657412145482 6.66820160874011 1.29413520884412 0 0
-246.782206715123 22.4175548238676 -14.2581710345334 0 0
-120.138687008878 -14.7441199940787 12.3867204808899 0 0
-224.609685478181 -0.552397850911084 -7.73003356335335 0 0
-228.417720942239 7.68191926946031 6.55328284637611 0 0
-169.677536360754 22.1370519478238 14.8773253996187 0 0
-240.733965681093 6.31838542001103 -6.88090272404269 0 0
-179.799059955813 2.01197669775486 -12.6603991109934 0 0
-206.20747892946 9.56266857259888 -16.1356928042102 0 0
-217.40253133202 25.9494864671462 20.4851050663708 0 0
-193.728687172718 -0.281774807843927 20.9233369192666 0 0
-10.572281846303 -3.87035464146615 -25.03776123187 0 0
-140.603762459669 9.44567220937275 -4.11619865853811 0 0
-8.34720876801024 3.33814026257571 -18.3920960685027 0 0
-148.58140877095 -0.249227425960936 -13.225390644936 0 0
-100.745581706842 -15.7114149284278 8.05091483729916 0 0
-212.523623194567 45.7577994964545 -14.0861335020289 0 0
-185.692147045899 -38.2663742453084 11.4716579910678 0 0
-178.8142075618 0.705551599900546 -13.5022781201442 0 0
-191.353753969777 15.0210705783444 9.30984827770704 0 0
-28.9680036394313 -12.126589022749 -25.0767783725195 0 0
-186.515364904145 -23.8578713014193 26.412314897426 0 0
-74.3025566981093 -13.5200910159087 6.27599465576671 0 0
-160.014109839667 8.03672630899196 18.5532264462381 0 0
-213.461222700772 -30.0027140309907 -1.76359727784216 0 0
-208.882424258687 36.3698865822428 13.2496529352105 0 0
-67.8250491115727 0.998941474962037 1.09089083058435 0 0
-39.0841741855827 3.51179631648036 -13.7237224569316 0 0
-171.754811056689 16.8806878433746 -2.84957813418117 0 0
-170.168189353124 3.63421736701576 -12.5284406587164 0 0
-207.219721061325 -26.3927209259607 -5.35384899344908 0 0
-121.50981096155 -21.8881111115648 4.06786468175135 0 0
-153.914630116429 14.9722199552109 3.33898294567282 0 0
-136.081906393203 8.88208945766316 2.79622362864245 0 0
-178.520361435103 17.644644396309 -3.54060061349691 0 0
-210.006052762276 13.4860431604486 12.4350572427357 0 0
-18.1786229008312 -22.1644759493341 -19.8102429890751 0 0
-224.741170507423 8.6658145968623 6.97937794749168 0 0
-211.844680562808 -3.01961461789652 8.92184945276793 0 0
-98.1521522632771 -14.9782659811332 8.03268120628822 0 0
-77.0367871622487 -25.2949372304505 -12.2223821975599 0 0
-154.338101871141 12.2972624467147 -1.23073863601111 0 0
-180.103702739205 12.7224918537794 -8.19425915239635 0 0
-132.33705282174 -15.6922994176167 14.2868262201145 0 0
-159.100436044884 -24.925895803142 8.85640371811819 0 0
-140.937377264948 10.2063157597798 0.56829266814237 0 0
-133.281004772093 -11.3438859056662 16.25956972991 0 0
-80.1521703147584 -25.2689240972138 -11.9807068224039 0 0
-141.975631728947 -23.514381414201 3.40641314216715 0 0
-167.344253022106 15.9019068530739 -1.47488651224139 0 0
