"x" "y" "z" "f" "a"
-97.1574772321088 6.10396025537671 8.58331940016815 0 0
-150.526024700965 26.6858862027648 -1.432807375723 0 0
-210.1238058002 37.0336198495059 9.71804800921977 0 0
-65.8994787829813 -4.29287548886038 -14.8971921568897 0 0
-2.32523506127287 -8.11395013883049 -12.2483188469477 0 0
-124.32157122736 10.3122785717693 -14.4546449781217 0 0
-200.950867705275 -21.7426081300658 -16.455655354805 0 0
-62.5452706904253 18.4716301992958 -19.4263602359732 0 0
-225.67461449286 16.7511284286386 23.3985985622724 0 0
-98.4863584310244 23.2621278688617 -6.71398301121484 0 0
-37.4659081572749 -2.99938666264265 -1.86203164955408 0 0
-208.918552865848 22.7721811381551 27.5209041038014 0 0
-185.220621933037 39.2085112170408 1.37173844613341 0 0
-142.670055155068 17.3199169381414 -9.97205191452774 0 0
40.8744304744571 15.4979360101966 -22.9902650992905 0 0
-14.7095710606316 -3.97068623814794 -3.86670621944956 0 0
-215.304322794126 -5.62839961207291 -16.0331220299793 0 0
-23.6467373351256 -7.0747822476162 -12.2534086708427 0 0
-211.67620241856 -41.799838140089 20.169023909428 0 0
-128.476161011333 13.245455730497 14.8860269619693 0 0
-117.869707126253 19.0055824548864 10.4832486985433 0 0
-44.2226337728711 4.680850267656 4.69355097297525 0 0
7.01560274184861 -3.07842803535657 -3.07585765306878 0 0
-200.742102228205 42.0304343560252 -2.32400669159407 0 0
-188.013165376013 -3.49472632088695 18.0872307382986 0 0
-214.834601586633 13.6718901455825 26.9107700560474 0 0
-83.1138005159611 -6.98294040475944 -6.89608386273308 0 0
-210.386143391143 21.5957304748865 -17.4552836685813 0 0
-85.1386154089516 3.24528288410529 6.55486493459459 0 0
-19.3126289709718 -4.0365004163586 -21.188550093482 0 0
-39.1678491083564 -6.69278223611921 -9.63998289836727 0 0
-0.848292367029361 -6.95014688763726 -19.6815742194261 0 0
43.2619144023929 16.7059346307334 -21.3889357620201 1 0
-85.1743548371276 -0.748521956513402 -16.0970691384412 0 0
-163.838385651692 17.6308576146904 -8.63974871741333 0 0
-203.08358057334 -51.0095677952753 -3.87104702920152 0 0
-208.028739466121 -11.3373963789902 14.4633350671493 0 0
-127.31664017819 -3.43871941377182 7.61808170427441 0 0
-240.839886075704 -24.979045079067 -12.2044615676653 0 0
-85.6440977876297 13.9234752914975 8.10391485813301 0 0
-143.339210060884 -7.39523705580823 6.15005326045154 0 0
-173.556307187953 8.15627033216103 27.0574385038789 0 0
-222.119927592724 29.523258814467 7.56464447780864 0 0
-175.067022047012 21.4901412756527 -8.20943509380308 0 0
-111.712785770574 11.0661208640418 -16.5187644216969 0 0
-16.3388354329313 12.6176351033163 -25.2059800830635 0 0
-240.073769968542 -23.037979058356 -12.855724160455 0 0
-202.051132925562 3.10907940265047 14.9496697857902 0 0
-152.091751066596 14.9160693375134 18.742048157624 0 0
-153.032840483584 -10.017975170938 3.29872377386448 0 0
-4.52386872446627 20.7268576713058 -15.3363729442569 0 0
-224.20124757825 -51.7608426987665 -6.93925038219917 0 0
-134.791238056167 18.5860233942692 -10.2761516775883 0 0
-83.6722953911028 22.9596795789674 -7.20944250427608 0 0
-34.76594035976 21.7153212207057 -11.8678935897093 0 0
-173.144270980872 31.944679531145 -0.507537672166164 0 0
-180.131566899239 -7.84806026509937 -8.70964384909468 0 0
-4.73403366878896 -1.53147260676165 -24.3798170192992 0 0
-187.682716015238 -21.4520415952321 0.11097429496447 0 0
-185.390389488034 -0.939800706333123 24.238636412224 0 0
16.5465467910984 -3.31253935072003 -24.3520047089372 0 0
-25.7966930315911 -1.30718818020377 -23.2714288343198 0 0
27.4846157174263 12.0863695267246 -0.687197066638526 0 0
-84.023133168646 -6.38312650572634 -3.83004457805524 0 0
-184.435953144958 -14.3599969066919 11.7481637865067 0 0
-222.987232371457 28.797778074682 10.9995746957053 0 0
-0.339373721448562 13.3284902874672 -1.81929359935139 0 0
-229.046837886919 -28.098632911558 21.4632610910872 0 0
-103.303697253222 1.73230262166326 7.35188439062141 0 0
-177.269818920493 -17.1733690378581 3.8824682606823 0 0
-71.0193937398484 11.4466933898123 6.63921825749998 0 0
-198.069563514358 28.6291268555594 -10.8949197937136 0 0
-21.3010971058148 -0.743035236342735 2.12316923508924 0 0
-181.32686900686 34.5610489043675 15.9378196516966 0 0
-223.382782804597 -52.8110560507381 9.42626795381548 0 0
-166.899985756234 -20.172404492452 20.9539347836154 0 0
-88.3429980177499 -6.91485411115949 -7.30770960285651 0 0
-206.400462489976 -17.6564754827745 15.7163679869474 0 0
-226.579486038619 -52.4853591768453 1.36836311048128 0 0
-224.993204226476 -9.09767498522785 5.0737920044167 0 0
-218.314854180766 -45.4620447765582 19.0792589627794 0 0
-203.553966206576 0.841239057564725 -13.2204232107824 0 0
-211.726893397329 35.961374914301 9.80190630742489 0 0
-214.282142374327 -53.6644587212059 8.87632289508536 0 0
-175.811993551626 30.6574822544338 -4.94057159340788 0 0
-198.964905832553 42.5375220215461 1.08971957634066 0 0
-187.702735987349 25.0334883537984 -9.47839479825392 0 0
-21.0233573329449 -5.39765461049152 -19.1441810182583 0 0
-223.922399001253 17.7262261863472 -4.23744904542531 0 0
-232.004210975233 -39.0548746413076 -20.6342715674464 0 0
-229.532748887701 -44.8285017969948 -18.8694227548537 0 0
-94.9436741011416 14.2471943644827 9.70380210790036 0 0
-173.88277231372 19.6550177989016 -8.54242663667283 0 0
-220.369614111416 -18.1023840044886 19.1393519243257 0 0
-64.753901737418 22.0407147482342 -13.7481267343551 0 0
-225.473326204358 28.2599125597871 1.85911611080227 0 0
-201.711598754645 17.1386785749884 30.3570455547122 0 0
-223.209532334715 18.8907319390673 -7.37005824730659 0 0
-243.331298829156 -34.9961909570924 -4.60687227047621 0 0
-222.32156759556 -5.32337404417396 -3.29546218608436 0 0
15.2437617705252 -7.90709320742308 -20.2850074845306 0 0
-211.237982197366 14.7304333647696 15.2167177327758 0 0
-4.41068889773827 11.9795816345625 -25.5578695162478 0 0
-188.66988706942 42.3191623469267 3.60363444902784 0 0
-62.4157876432781 -0.772772010477669 2.11164424058085 0 0
-209.239252519756 -13.9292712965425 -19.5855429701846 0 0
-104.978669399343 -6.99849504667672 -5.45787128649375 0 0
-207.951737972349 -52.0624207406297 -10.6075897891643 0 0
37.5772184121567 18.4776823829437 -17.8872778632886 0 0
-117.523680512499 11.7940846452608 13.0188008545903 0 0
-39.788821972191 -0.28453345465964 2.24798241571131 0 0
-165.521069007605 -13.7439896996503 3.44709711399527 0 0
-201.943242948573 38.7762218718878 11.8962915108814 0 0
-60.53888373259 0.194469682108038 3.58685036092492 0 0
-166.852248032313 30.0270020166197 -0.360099297501205 0 0
-164.609434280072 -2.1630368206337 27.2785626217596 0 0
-207.681893155608 13.4652288784961 12.1975356689922 0 0
-203.86220027201 35.8499292196625 17.5470257345868 0 0
-211.428347699014 -47.2964086160748 -19.6472005035918 0 0
-92.6485554680912 13.8549627722455 -18.8426681191698 0 0
-207.228985069216 -11.7786057760664 -18.1897158547349 0 0
-193.774878768909 -20.1550047096319 9.32442449394157 0 0
-207.184325149585 27.0855842002857 25.585820610875 0 0
-149.609634458053 -4.44423225916199 19.2966683224281 0 0
5.5679780066721 -7.23386552088101 -20.1289265625766 0 0
-224.791217647211 23.8498362541777 18.5490268376892 0 0
-217.395969246993 32.9702269343349 3.45912804274744 0 0
-148.165731296902 2.76013195377729 -9.99359570381877 0 0
-242.03468138657 -35.3007635302031 -9.46119246139953 0 0
-170.016333391836 15.9638724008135 24.4465122727708 0 0
-86.2802549088687 -0.636420692790333 3.61699152925833 0 0
-190.74399629076 41.1889722167868 5.9547625338926 0 0
-223.111910679036 19.7323697597473 25.9837847466367 0 0
-133.534422113663 -8.01721174091541 1.09595913456012 0 0
-221.358552765517 11.1416261715548 25.1264211799182 0 0
-47.9787459458459 20.0660281105863 -5.40217534008455 0 0
-211.733065602819 15.4845447806815 28.3682223979308 0 0
-189.686828626589 10.6140926565856 31.8831723430493 0 0
-207.521050183551 17.2443530465449 29.1651477367553 0 0
17.1467919049059 -5.0411616685928 -5.17426375607055 0 0
-83.4800687835126 17.5256141038763 -18.2644415679265 0 0
-166.191856708962 -10.2479581468553 -7.80940402345783 0 0
36.4168028643202 18.950496065763 -15.8535406023368 0 0
4.48266127860202 -3.16833451954378 -3.18476691563919 0 0
-232.265698450442 -10.8550609295744 5.83948314100418 0 0
-172.708033678163 4.19758492386991 27.4732712182818 0 0
-140.783870551998 11.6022076356263 15.9123251079125 0 0
-234.852107328621 -45.9269512677469 10.1475252510152 0 0
-186.342558361215 -16.5147599448632 10.2677013584659 0 0
-213.507457805601 27.0923402421244 -12.0833567172165 0 0
-243.582964729746 -33.9458565079211 -2.3819737383323 0 0
-77.2117727706549 22.787706879341 -7.59740902812512 0 0
-206.996504005085 17.3537652993567 -18.0896765993977 0 0
44.8490847646774 -11.5609183898223 -17.231015681946 1 0
-126.680905816618 -5.61441152499942 4.39036675202898 0 0
-123.533904579839 -1.16596801327558 8.78239457671893 0 0
33.2043995579612 13.0051730490896 -24.9179244166991 0 0
-90.2604534370142 5.64357924441795 -19.3668826233897 0 0
-179.10382749459 13.219145014734 -9.87770479916865 0 0
-219.194475267638 27.76218682991 -8.7132991927886 0 0
-57.3000217088283 -5.99302896840555 -12.988028195978 0 0
-216.812912976253 8.58980948844161 -5.86986738917521 0 0
16.7891017553362 18.6632328469676 -9.46990419490567 0 0
-136.365270844502 2.04086681992677 13.6458707097155 0 0
-103.907665370158 11.1102608748091 10.582442014943 0 0
-122.107992966627 -7.0994463642131 -4.54478031188165 0 0
-94.6238694316114 -5.8359196589558 -1.23074947218349 0 0
5.5694454835952 5.18268205761867 4.11238093609087 0 0
8.47976695855236 15.1313943804013 -24.0538565822645 0 0
-175.445937341539 21.8673292650418 23.7196063895614 0 0
-182.802169602967 37.6729721994746 0.541941643086217 0 0
-205.868416089269 7.26053953798184 25.8217196768755 0 0
-221.81841581319 29.1897576637659 -2.06159638326073 0 0
-2.30259357329728 10.0112728422332 -25.8753171082935 0 0
7.8621540830477 3.96903769670256 3.88055141982148 0 0
-241.281343601605 -21.8794989694396 5.71644442909386 0 0
26.2881514713361 -3.85662892080326 -3.62045731649195 0 0
25.9808029098807 -9.87233356765584 -17.8880311824036 0 0
-159.926771950922 7.95117394946314 -9.2433946403748 0 0
-57.0001283491253 22.1257165140825 -13.528866282895 0 0
-42.2650927912843 22.031453104866 -13.0250286668148 0 0
40.2219770008783 7.38435131532578 3.77792493289239 0 0
-186.957672812038 -5.92658464388493 -10.0706707669551 0 0
-122.642464295746 17.4941312155846 12.4063606097 0 0
12.7459108335375 -0.401149360624832 1.01093802021155 0 0
-230.384837306938 16.6940920380199 14.3965298342097 0 0
-222.304066844975 -10.543820880783 9.45337326486336 0 0
-33.3697814518214 8.89333001807679 -25.105166954302 0 0
-226.471742445487 10.423428244987 21.876660119629 0 0
-206.269000999144 27.4110115393578 -11.9141755843697 0 0
-84.1615875290982 20.3211468539543 1.96233860966488 0 0
-63.263351359413 7.35202254259852 6.16128722286866 0 0
-26.8396619029452 5.73266654335148 -25.3310128592847 0 0
-225.855362793833 -36.5193213159319 21.8274406887637 0 0
-104.000215909537 17.6481912740855 -15.3825445768841 0 0
-191.199435703621 30.7078829169434 -9.83944665157004 0 0
-71.9314861311437 -3.01082291994164 -15.8060184520996 0 0
-182.389534030591 14.3098353765516 29.3261717411993 0 0
-181.809067980474 37.418697095494 8.83521589652017 0 0
-206.744350046589 37.2871054333085 1.95606003634088 0 0
-199.119858566944 41.1918291399039 8.554933053151 0 0
-15.0444361666742 19.365320598961 -8.4803385967526 0 0
-226.367440641719 -51.688493664079 10.3733524434099 0 0
-199.224941855507 8.93188949914702 -17.4250085468631 0 0
-204.753478151879 14.907102317054 -18.2767841616232 0 0
20.337633237606 -4.27489028260549 -4.23470948865193 0 0
-226.018143576441 12.5722161943804 23.5603956244398 0 0
-209.531942867904 -1.86883646828896 -14.8261130132692 0 0
-209.578320311057 16.7028919855259 -18.9675972043472 0 0
-51.4263158977003 -0.222002782420324 2.65415222862468 0 0
-121.34786111347 8.45076921196001 -14.8601411288639 0 0
-141.230711652209 5.76647831000982 -11.3464781492544 0 0
-192.886950813886 31.9021340833544 -9.17796308421086 0 0
-226.675825817019 -27.8532068485177 -25.4581631685899 0 0
-227.346726770539 -40.3202374321786 -22.9331242720698 0 0
-224.364044546861 18.794398025215 24.2494093262056 0 0
-196.680283878926 -33.6798629547837 -8.47594664182977 0 0
-165.644420271547 -15.3060824335919 28.8770167157346 0 0
-108.801199122296 23.2445635460069 -6.54282561603039 0 0
-90.2030272775251 -6.95069970776582 -4.85452361537975 0 0
-212.492350462701 -6.24018315195932 12.3399099796712 0 0
45.3589974284701 -10.9991629284494 -11.1936278417726 1 0
38.1852677730996 12.4114107480973 -25.2565155946372 0 0
-211.249657983207 -0.614314885120912 10.7879899042191 0 0
-197.82672463164 5.12771854396049 26.2244828025316 0 0
-224.393399523815 18.2513657742622 2.2744958105895 0 0
-206.734830286484 12.9535388875561 -18.026894650759 0 0
-202.864433310169 39.5997474728565 10.3562478895547 0 0
-42.9563497001435 15.4016271930164 -1.01356520622452 0 0
-209.964741750633 -32.5643470599079 22.5992151957714 0 0
-192.638717071415 36.8443525549216 16.585768925417 0 0
-216.844378438819 13.2157378790737 11.2248526324111 0 0
-218.894206135644 10.3926660926592 -0.495305711267276 0 0
-191.826455404273 42.6356940801236 -1.13081722021756 0 0
-52.8411954619796 -4.23216338040216 -2.98680902403603 0 0
-175.166144673002 10.0187401967985 -9.56522761072677 0 0
-191.163568159945 8.38836823834529 31.513580708737 0 0
-212.024029295497 -43.9998899092387 -22.482198658649 0 0
-50.6427009050594 21.8785055441724 -9.29659410671831 0 0
-86.0422633573161 11.4572084426567 9.68993555892771 0 0
-202.336357742446 -29.1063590874314 -20.615120289787 0 0
-3.71401254571676 16.8469607067094 -23.1238312994757 0 0
-243.341586719843 -25.2645006900326 -1.27611827292585 0 0
-205.804025968807 -27.5911240578915 19.6690082621209 0 0
-221.776831816286 16.9483143304718 27.769317935124 0 0
-29.3782793561613 20.8578068774847 -9.94489975825015 0 0
-127.940630905605 16.3689999521853 -12.3267038761447 0 0
-172.218639808138 -7.68901423276791 -9.53655086870543 0 0
36.5772754116325 -1.76085507758207 -0.929604836863657 0 0
-199.808547208715 -43.2429268841392 11.1911822935545 0 0
-190.952341132119 -18.3724972146718 -7.44934407629717 0 0
28.772476873448 -1.70979978310511 -0.543281843943848 0 0
-223.59699461251 -47.5477338264698 -19.6991131055122 0 0
-148.528059887965 16.3667840846081 -9.64283965588155 0 0
-134.54232020365 15.2759079346281 -11.7848757498977 0 0
-217.486084178724 -0.23263436632569 -5.11497288000211 0 0
-226.779234388505 -45.8206557443783 16.8262735156925 0 0
-227.095012951593 -12.7858797916823 10.8123083213828 0 0
-58.5131946877533 -6.72574780678235 -10.3279705962453 0 0
5.15483892808083 0.89096794093455 3.1687083786771 0 0
-202.233019352528 31.5194736522076 -7.48497551917318 0 0
-221.221689913593 13.4810973843336 13.1693917808746 0 0
-82.4111007196919 -0.316139261086733 -16.9188144281413 0 0
-128.791326126483 4.49666542658094 -12.8422121698321 0 0
-188.980099400538 41.6935443591176 6.70342130954902 0 0
-223.794029494659 -13.7739119709584 13.9087609008926 0 0
-97.8073529914458 11.271659883106 -18.7273583965253 0 0
-220.76872851467 20.4182801049735 -13.2238676264395 0 0
-218.088250788794 -51.8124019925952 -15.6443419545662 0 0
-167.592724746115 6.28539093807607 25.5647656558172 0 0
-101.59823006257 6.50496876658735 -17.8885902032547 0 0
-178.772241853891 21.1953386943164 25.9688528845113 0 0
-12.747563362349 19.6274302733361 -19.9927935791563 0 0
8.06042524587226 -4.42178067077357 -4.75143831934797 0 0
-190.162630553272 23.2625896122096 -9.85049296820184 0 0
-209.060629873854 14.3933848925444 14.762535187287 0 0
-221.897433955939 -9.61038780847584 8.26720595780095 0 0
-207.046104107307 -14.1527972539576 -18.975161506154 0 0
-211.893928237559 -22.1273875707884 20.8794480530761 0 0
-136.649516360902 -1.61810490771697 11.8673257347199 0 0
-13.9049687993388 -1.49478761882188 -23.8768083082805 0 0
-209.189628506199 -49.4736970989163 -15.9482963502343 0 0
21.1191088781418 18.0807176543739 -20.2469130457064 0 0
-133.597921776899 -5.88777149213433 -5.61652846092123 0 0
32.8000328366548 -1.37803713072881 0.469258232302964 0 0
-11.9774461219401 3.52746865205217 -25.7491717948141 0 0
24.2159869102776 0.852681271311715 -25.9656826064288 0 0
-120.429356870382 19.6057923764158 10.4286302120314 0 0
-175.595864416067 11.887203326643 27.0837205037697 0 0
-229.779975136474 16.1735461578829 18.0418886490525 0 0
-205.469265952374 -8.06042347967984 13.7731100497616 0 0
11.0094913229817 -4.35909646876262 -23.6647911161461 0 0
-242.865913083208 -34.3046629612185 -7.30812567599375 0 0
-238.086062118564 -42.2968698559588 -12.2200243316204 0 0
-45.1781829693981 -0.544320577524962 -21.9823071941274 0 0
31.0592292458587 -0.207140610369458 -25.8290540783697 0 0
-214.37753229017 -33.6865784935893 23.2579558451031 0 0
-2.011430017109 -5.13944934468505 -22.0494842156003 0 0
-155.727529445312 -6.99396848131984 -7.26562060065632 0 0
-58.3081121802537 13.0780040674311 -22.7931153111649 0 0
-212.121244050192 -33.6832524818313 22.8245136257898 0 0
-121.611906708662 -7.28763273884005 -0.329241653674464 0 0
-59.4372320346294 -4.73174969224778 -15.0554415082663 0 0
-216.932402578264 33.9550298888945 5.10046904441822 0 0
-121.000014612131 12.9557524600353 13.77068430385 0 0
-218.731637437578 13.671413821256 13.6345791658868 0 0
-34.7858828614369 -1.59487967921725 -22.3108301156547 0 0
-195.060305511643 -6.32228350079608 14.4258059707239 0 0
-219.34218721118 31.0277066265615 15.7136543387759 0 0
-185.960341190082 35.6086406542618 18.5855039365078 0 0
-182.75279602732 24.8444692552736 25.5084685805461 0 0
-114.725674619739 -6.50448784887004 0.468304863652871 0 0
-13.7644334202512 20.6786379974662 -17.6461456846958 0 0
-233.069816835549 -50.1930480970824 4.58580682356207 0 0
-204.678525059752 13.6984664276657 29.6395903539916 0 0
-191.222462064871 -21.3461136951303 -5.49026772701125 0 0
-145.66067099345 -8.20879382694579 -2.5751723813392 0 0
-31.8639280399719 -5.94598408450258 -16.6095682583909 0 0
-198.292844633978 39.8808425835558 9.49176201703986 0 0
-83.1965984707919 -3.1805517969825 0.804778185527093 0 0
-218.208593472551 13.2426184228429 7.19202991284943 0 0
-7.00590219371054 5.91505978981392 4.13914386333054 0 0
-145.394242768381 4.22552892427872 16.878685914601 0 0
-206.306891216208 -42.2515752630265 -20.9928532363267 0 0
-226.78910205286 -47.0197416840724 -18.589272680157 0 0
-197.283523299775 -30.7041251663144 -8.9818407072761 0 0
-162.714655126699 -9.59043078510858 28.948030217006 0 0
-84.5231636218749 21.8910686755116 -12.6210116179611 0 0
-11.2952694190858 8.68017767493322 -25.920871127843 0 0
-228.244131018495 -33.7461667549708 -24.652273194548 0 0
-238.668949599304 -26.4562066126487 13.4287094482374 0 0
-212.383872429434 -9.53897786238423 -18.1743328322745 0 0
-231.108007605725 -37.3272941820822 19.0912800018237 0 0
-179.997642979194 -4.05221566909637 -10.0788351229298 0 0
-224.319088064016 22.7592263642505 20.9702808719194 0 0
-225.208074171748 -45.5983448019537 -20.6667131231915 0 0
-224.063245085547 -31.2126613253823 23.1933045934479 0 0
-3.03611348502322 0.263070841157085 -25.1806232839918 0 0
-134.942656085308 10.1630865738973 14.2699284891393 0 0
-58.4194651601143 0.315468853902717 3.85560067586182 0 0
-200.588084502037 18.7207153655566 -14.5382596666056 0 0
-98.5318435494692 -4.23659676787708 1.44823448108436 0 0
-163.771000499886 -12.9835168457912 10.3718973525873 0 0
36.5199701089622 8.22717446467811 2.66775028643775 0 0
-44.2437668450178 11.3406316998384 2.13723105496851 0 0
-218.497562293288 10.0070604743652 -2.29642171106865 0 0
-100.939648449242 23.0387230896979 -7.9557063660514 0 0
-207.533068348662 -1.06701438252169 -14.4674393845624 0 0
-132.243993299126 13.8258481059263 -12.6497947982346 0 0
-42.3560218952928 0.785562900661671 -23.0902243125359 0 0
-218.615887620182 24.1028787599783 26.719527748297 0 0
-220.322790371566 13.8368145622411 6.73928371709461 0 0
-180.889836472745 -18.099858688648 6.04690942533379 0 0
-186.422857404095 35.2740057284943 -8.45003265944132 0 0
-168.315340880185 -9.11591809287663 -8.7268973949587 0 0
-171.477827109544 -4.57933861260236 28.2249995297403 0 0
-207.954473868256 20.5806704225826 28.4165304315782 0 0
-155.328854378919 27.6811606822949 7.29298537035761 0 0
-126.140955239311 -7.50872936102675 0.425616768628937 0 0
-150.916896776228 8.09854792577593 -10.1149232921438 0 0
-99.8959695115678 22.8597173134084 0.404498828292683 0 0
-58.9804654973049 6.30873822365188 5.62980580807571 0 0
-189.662997405554 17.3155101150204 -11.1098549222222 0 0
-215.308809166884 27.778884127433 24.5667104046407 0 0
-214.432964503664 -54.1603444972072 -10.1619763020797 0 0
-65.9816441346983 7.6123641400189 6.26618360620049 0 0
-119.489722302986 5.7121851264669 -14.5683897377297 0 0
-167.942795216075 -14.1511255662609 6.27034662435378 0 0
-221.643843448701 14.5131363067929 10.5749202439135 0 0
-91.149829547591 -0.822584145860962 3.8344354703161 0 0
-100.44803686278 17.2388074832709 -16.1879818379444 0 0
-175.790221133795 34.3846222822724 6.53690361875239 0 0
-147.809779625595 1.25600215909138 18.2085181948245 0 0
-45.1599230688429 0.281380605959803 2.93641805149343 0 0
-72.5370636036376 16.5764181785264 -20.0420620518207 0 0
-164.543504004253 3.87823558179613 -9.07037829580917 0 0
-124.255544152677 -3.88438484607892 -8.57274545508347 0 0
-210.899755514432 12.4938801815983 9.21240709689303 0 0
-206.156741161045 12.6131903228323 15.8569197871526 0 0
-216.257982358261 5.98904384183485 3.08374588869057 0 0
-168.78983607059 -11.8141336581979 -3.8595818213209 0 0
-150.528996024593 16.5537931221422 18.6244753590261 0 0
-177.64994849177 -15.9533071135519 0.410385859636368 0 0
-190.388716433907 3.86447501380417 28.6630536805726 0 0
-217.538875789712 -7.97266697743906 9.43623964305095 0 0
-114.562080825546 10.0395870060649 -16.1287583691382 0 0
-221.213567956384 30.3284902615699 13.8461061971823 0 0
27.8973046808121 -7.79604706494807 -7.50911894482658 0 0
-201.060981599361 6.09037415008903 -15.2240574821987 0 0
-122.713141141619 -5.40458567619063 3.7634330968916 0 0
-164.464967414642 29.9394220333466 5.54066134909539 0 0
-240.883743708244 -19.402049777278 -6.31428981205762 0 0
-8.19820232134604 14.7096796648402 -3.02650566966939 0 0
46.0103476645177 15.81176234745 -3.34852338662864 1 0
37.3698288365662 19.0449774188667 -13.4942060127505 0 0
-106.993372944432 4.39055074762834 8.82615104894004 0 0
-213.859306417226 -29.9564304091607 -26.7489772363783 0 0
-153.161896697879 -3.75501916793544 21.6092399102727 0 0
-177.769336611464 4.6396352402361 28.4753952767178 0 0
-116.135274241492 20.4714143798574 8.97369741145514 0 0
-60.9050022186933 15.2224103871859 -21.8773472097471 0 0
-130.028628030022 22.6215647809179 -7.12675059110414 0 0
-217.084131459066 0.0302731472435085 -9.06681904987589 0 0
-158.658565438072 -15.1425100107475 27.3877182112783 0 0
-213.107453317725 8.34243391838304 22.9873291643569 0 0
-230.90323411133 -51.1546697996896 6.17079002989174 0 0
-241.50742463813 -25.0868642657343 8.02456080564905 0 0
-201.525954968062 -48.7843094064106 4.55660808800111 0 0
7.47053878438388 -8.40478066814848 -18.0682061870426 0 0
-225.647824719993 -7.73066078723171 -1.80821619187442 0 0
-94.5168363036701 11.321503355077 -19.1773819495601 0 0
-209.861272524276 -12.8113102418366 15.130958516744 0 0
-104.28377104153 -6.82786086232622 -2.18169622952892 0 0
-128.691687890899 19.5685938026112 12.4455863557579 0 0
-154.9010896596 5.00499046422106 -9.61482816886958 0 0
-147.948083911608 -1.80367443091402 18.4542630988571 0 0
-239.097022523642 -44.2788924444231 4.08151243543797 0 0
-144.587149643173 -6.56050568931051 -5.16809402944471 0 0
-208.364173927677 9.12927659487222 21.6477874773578 0 0
-3.29778304550803 18.7876390380692 -20.8204957414116 0 0
-204.249248545056 -38.8580173866263 18.2382711561062 0 0
-201.207822643194 0.834207688699091 14.6062090419606 0 0
-158.586838699119 -14.9686729805129 16.7636400724571 0 0
-184.428472417794 37.0325096996852 -4.45372768594416 0 0
-208.421834550678 26.1600136562086 -14.938617981994 0 0
-162.082666824355 3.67862936094512 -8.97545956614517 0 0
-196.635608488904 2.40369397055482 -12.6695872816228 0 0
-76.1793337176437 -0.0191777228838266 -18.1989250777269 0 0
-196.627450022183 -43.1655714769602 1.91787713179373 0 0
-132.0198691327 18.9357077269086 -10.4376159218158 0 0
-158.243935452792 19.2441689718761 -8.1574802808106 0 0
-147.287227243745 27.0219221896246 5.82490560636037 0 0
-170.133575091372 8.99968189361157 -9.02592180598192 0 0
35.0548888853614 7.20862268787589 -26.7174115853468 0 0
-233.389914865307 -14.2326429285198 -14.5860726702732 0 0
-235.297501067761 -46.9495502211107 8.23781064439816 0 0
-210.071909631442 10.3991713351528 7.79390673573999 0 0
-178.696464000963 24.1998567978825 -8.16380836516529 0 0
-216.737161009723 -40.0148812376718 -25.3208452766015 0 0
-65.0164117544811 -5.73074423284126 -12.785658827029 0 0
39.7356383221883 18.8737180936749 -12.1707690338295 0 0
-218.289834542625 -3.11540405387837 -10.8189750330611 0 0
-181.051984060745 3.72385905577483 28.7160690605993 0 0
-83.6270029299782 22.6905159902771 -9.94257554359446 0 0
-221.539237784188 -8.59674173623968 -15.8086644373933 0 0
-201.622724239214 -20.520965092309 13.1460544184341 0 0
-201.767701067206 -5.16330322118484 13.502565594242 0 0
-43.22538955461 -3.90685226218508 -2.9751775613269 0 0
-113.193860089292 -3.41187191092425 4.41227936818485 0 0
25.595010954139 3.35356768772942 -26.4368686242283 0 0
-56.5263866629049 17.112588951453 -21.0083932816743 0 0
-240.923879958204 -29.9783548555317 -12.6185451656694 0 0
-45.5712242576618 -5.67073501065588 -15.3588289875235 0 0
-175.138259455312 31.7126688152151 -2.66844091016757 0 0
-227.919988254623 -9.3493772561939 2.40490153880823 0 0
-211.88713013303 35.2173997712646 -5.8432458395582 0 0
-168.162328022721 -14.8614417377613 28.6799024428279 0 0
37.5430409753583 8.00765090155561 -26.6610216619127 0 0
-186.963876564994 39.6465108868713 12.4169666084369 0 0
-187.602512371943 23.2448965690598 -9.40782423844462 0 0
-221.011969600044 9.671927396614 16.7162944500284 0 0
-233.049121740159 -41.9662242944673 -18.2468203300439 0 0
-173.291569503417 33.1748198871416 4.51663881784832 0 0
-211.275864905133 35.4865364212034 12.4425385955013 0 0
-196.077822705056 34.120313084132 19.7482550946113 0 0
-179.399166340731 0.18551248096476 -12.9799368180924 0 0
-2.61061378690918 16.3499354585902 -5.14399400880758 0 0
-231.68874828841 -42.8480193362507 16.0524716614538 0 0
13.6012176134183 -2.77422067283717 -2.82212803222365 0 0
-241.824267861433 -24.0285704672121 6.28782163408634 0 0
-0.217811521119095 15.6958194450278 -4.34714135724043 0 0
-164.583110885377 24.0924541847558 17.9911064082166 0 0
-223.088486485804 8.65967096993472 18.0656612056948 0 0
-188.196617905551 31.7336949910294 -10.022743741448 0 0
-208.126577607806 33.1049541119451 -7.93652129544467 0 0
-53.0305259234721 -0.913401088283723 1.56795577589482 0 0
-143.093322880992 7.99755727479742 16.2021007051103 0 0
26.9248457454728 6.30178771088457 -26.6311139466316 0 0
29.9380024310366 13.4942842526448 -1.79004504835376 0 0
-104.205202656643 23.4659166640684 -3.85647645188526 0 0
-215.329313080293 -50.3402259812613 -17.4839864397143 0 0
-86.157186539351 -4.29273683451322 -12.5813959851947 0 0
-215.857820027317 33.3623667183788 13.8005973801737 0 0
-3.21294414503108 -0.0434072616993691 2.71513762387775 0 0
-191.768579848546 21.0920695730414 -10.5310731445792 0 0
-174.832911282761 32.1783908020279 12.0020910379836 0 0
-212.411931165475 -49.826565804216 -17.2207890838982 0 0
-22.3705914083367 11.4038250800536 0.529880585681584 0 0
-194.625107832347 23.2143608573671 -10.8284633952576 0 0
-210.891327045522 -54.1040473758949 3.66938219318585 0 0
-70.4000235541322 -1.51374609878526 1.67759164589431 0 0
-164.7023785897 -12.1165061713809 0.605571557170839 0 0
-190.511530331635 0.375392273327405 -11.4163230997285 0 0
-153.61509432177 -9.49815325078007 14.3847600296311 0 0
-228.623439828943 -11.1039021415703 7.75446356670286 0 0
-197.2017687912 -18.9262952797886 11.1041540254547 0 0
-149.457468446161 25.5258030253451 9.67434241727889 0 0
-240.23887279817 -40.3495716509006 -9.80691693140079 0 0
-176.244685388361 -15.5108364273263 12.6014958584539 0 0
-206.272642961394 7.92833587026336 12.7368947917724 0 0
-120.668288463515 11.4387129789949 -15.0406750271301 0 0
-137.775954528602 -7.24060273333019 -3.2487314531804 0 0
-33.6417056798991 16.3050570309215 -2.88631928166485 0 0
-116.29161921419 7.29644834754525 10.8861610247487 0 0
-12.8612865578648 18.0811631730435 -22.0271752676667 0 0
-181.602804464564 34.3418987398222 -4.72373342009878 0 0
-0.638571921156491 20.0940977851599 -12.023591091708 0 0
-57.2429842180757 13.502954072832 2.50288100206904 0 0
-205.282925262276 1.18782966282646 13.2563522122706 0 0
-215.774288166633 15.5831375420473 26.9120945625927 0 0
-78.5251859920626 -6.11708572568828 -4.02728231130605 0 0
-154.320751060072 -8.6396970222599 24.0651959153966 0 0
-199.0939090278 -34.1530754667601 -15.4811539791986 0 0
-193.764340704485 -26.8244352405382 -2.78801824548157 0 0
-195.286650759472 35.312405762532 17.5858318859025 0 0
-38.4927635308093 14.6353568363708 -23.6462944509113 0 0
-187.405273302493 -20.5595800102645 -2.13811309037201 0 0
-211.814547807048 22.8197717660084 -16.9199900132162 0 0
-242.743484067722 -38.0581377004659 -0.907410480032473 0 0
-114.838580493084 9.58967550300157 11.2471422959362 0 0
-44.2655658971465 7.69880038040572 5.02621219685182 0 0
-180.520063169485 10.1828970666427 -10.8750844225232 0 0
40.0374862287275 10.3168457544012 1.16418674377421 0 0
-214.562175982415 -17.1915996831696 18.212787032894 0 0
-220.901254916528 -52.6537642220169 5.66544892104463 0 0
-186.276463220201 -17.1106501336626 -5.52379821751701 0 0
-241.389204418388 -28.0466518031733 -11.6833793272381 0 0
-204.000005954255 -29.7721908481918 18.4786135890399 0 0
-225.521609790452 17.7659756373238 5.34442408069111 0 0
-197.644838197897 -0.072222969446125 -11.7738410182172 0 0
-139.183133336453 23.5145206465613 -5.6441521616516 0 0
-181.6229051371 -16.880472011326 -1.90718971964238 0 0
-116.586992737641 16.7529957543877 12.0014096949233 0 0
-212.179624575672 -54.9785307876039 -4.89171940502299 0 0
-143.055829179078 -4.14946677500935 -7.35803199462673 0 0
-34.9715325694758 1.90446324846955 -24.1154651458014 0 0
-134.438740993478 25.8108739494147 2.68976242770519 0 0
-193.115562482281 40.9796801834621 5.4937138536566 0 0
-209.545462433828 -6.95198043107689 13.7162009346457 0 0
-36.4698164742919 -2.96954892384344 -20.7232421737866 0 0
-203.962217001569 20.9996973640352 28.8296675697637 0 0
-171.126720783988 -6.26626549741323 -10.4452236838048 0 0
-237.934253818324 -36.1760365330185 13.6247850460851 0 0
-50.1070366956459 0.170404833300768 -21.9460402358841 0 0
-203.591920581808 -34.6722381506396 -21.9835384522322 0 0
10.3619777362784 8.84490698366316 2.04296927675199 0 0
12.0923850459939 3.01869783622411 3.52342321886146 0 0
-234.842049360772 -11.5968501292854 -6.78145052446533 0 0
-221.442858996831 -34.5894858129914 23.229626802035 0 0
-51.8420121816981 -6.59102836139882 -8.00750026746202 0 0
-62.3984659043417 22.4057744797308 -8.98960858786653 0 0
-145.109528426404 -6.22554903398503 10.7841501307081 0 0
-199.636974125144 -40.9012247117497 11.5774137662219 0 0
-6.26867542848943 3.97955724105026 -25.9871262188603 0 0
-207.246347305456 -35.0508320079364 -24.2059838523754 0 0
-125.671668457009 4.64859219903899 -13.3441116683219 0 0
40.8861996550235 13.3086748602709 -24.7792257147568 0 0
-27.8214543236685 21.3292633342358 -11.8057595928925 0 0
-6.79859619621273 19.482731691568 -9.65650035196863 0 0
-215.822668441545 -4.29878691785327 -14.599086135723 0 0
-211.938180491434 10.8049372326017 26.9340056676558 0 0
-200.66175148338 27.1920620068126 26.2839250260633 0 0
-211.086515309075 -38.4761976877731 -24.9292283183175 0 0
-208.808475448457 2.3004636001201 11.798314754162 0 0
-167.171631789216 4.65871224739074 -9.2197613328231 0 0
-224.63264543928 -34.0723776296484 22.70402688678 0 0
-203.732678765982 -24.3337986402741 16.5697054078161 0 0
-140.414511017364 26.5680594677241 2.9041469200638 0 0
-210.206451079625 27.5503275072756 -13.5044504809441 0 0
-217.01620200733 -32.7904928526496 23.6284171851422 0 0
-181.097939659815 -14.1183176786227 12.6934147182054 0 0
-220.303787788037 -6.10603051708784 3.1700596737374 0 0
-184.854347848687 -2.40174223379785 -10.416202410717 0 0
-186.099907722654 1.99858997906003 27.9585173754732 0 0
-190.047297668811 -23.0733340796188 0.758741002250877 0 0
-202.807177640464 39.6623397330475 2.91423007731288 0 0
-127.604366139158 -4.30691399154933 -7.95114168193798 0 0
-133.435963029512 -6.14849377013811 5.51184778068226 0 0
-224.014493200587 -51.4975980150455 11.7964759170592 0 0
-74.0458209956388 19.4093330979732 0.855221761968724 0 0
-194.776320433204 37.2114467483945 -6.00581607962709 0 0
-231.02290214728 -47.7630531491168 12.3561168901885 0 0
-196.352262237643 -11.0821561635428 12.712104423922 0 0
-95.7133923459245 3.04722302010324 -17.2447753879344 0 0
-205.651604721319 -46.0158244012137 -17.3835166712482 0 0
-162.222876143515 -12.4280478538998 7.05516617359914 0 0
-213.38420206117 24.1562712772128 26.2448800665369 0 0
-122.061656422268 -2.29492486502828 -10.0315403374377 0 0
-182.782305425922 20.3077334017795 -9.16954626313455 0 0
-116.196560184117 3.30996496320839 -14.133536016026 0 0
-154.079023788684 26.0995432344365 10.0760771697842 0 0
-222.784365750883 -6.9950234275009 -11.7036025153818 0 0
18.8912317295817 4.3676613149062 -26.343307237106 0 0
10.8330629841542 19.1152528526195 -18.9481495216654 0 0
-209.08477323543 -39.227446367468 -23.9418537016945 0 0
15.219259436655 15.8363567272538 -23.2814987266456 0 0
-131.456474488444 -6.88779557249468 3.59481846142561 0 0
-198.19829249589 17.4188537618247 31.4411277774434 0 0
-201.447652184081 23.5155179988483 28.3761782584491 0 0
-207.456539386184 37.3541697783738 12.7480725276784 0 0
-214.280772620437 -5.71475480573155 10.6155269261814 0 0
-229.318593493726 18.6682419052229 15.3786799198403 0 0
-12.179748323897 1.69757071916643 3.57187745697728 0 0
-121.142310903712 4.99092531706175 11.0133080573172 0 0
-165.940680214537 30.3193012555403 2.35630921094815 0 0
-209.189189722408 -34.6551607870219 21.8111360635903 0 0
-42.3619049108763 -0.161770705104697 2.43525839726814 0 0
-188.436685996026 16.4297387663255 31.4805492767703 0 0
-205.467619046406 24.7214560700168 -12.5767008251547 0 0
-211.947887484372 -13.7564321313419 -19.9053324953844 0 0
-159.766037299895 17.7103706939078 -8.65087603273932 0 0
-236.304043057968 -13.1198383415625 5.88444691894345 0 0
-189.109303706625 40.5234368808625 -3.28921950333275 0 0
-6.95635980221096 14.6082299724829 -24.6055744275689 0 0
-169.849246023866 22.4438301372848 21.4278124489387 0 0
29.8049104658487 7.62302228900951 -26.5990939484086 0 0
-168.950240944853 -10.3658453508616 -6.87051316792064 0 0
-182.661138461184 -3.25226449715754 -10.2292558681478 0 0
-2.20638257719047 11.681677619176 -0.412316273922845 0 0
-206.659509061219 3.13256413823497 12.7398480295642 0 0
-211.787878680904 -32.2454829999549 -26.2803143960314 0 0
-242.916920849124 -30.2781780681847 -7.66670269667751 0 0
-212.487068574729 34.8629497249737 -1.02299501851786 0 0
-137.812182205684 10.1525570170616 -12.1322207564791 0 0
-190.00568199747 38.7186447730551 13.6464213656022 0 0
-200.408959173748 7.37603835082524 28.0752234170424 0 0
-156.344789523226 -9.07804267859881 25.9705317068149 0 0
-206.751734289115 10.0616526135766 11.6245781900382 0 0
-75.9198520707345 -6.12870168608097 -4.38168943017244 0 0
-213.131096744005 -39.7659251339918 -24.9972359990277 0 0
-236.752921990747 -47.4651487707647 1.34450412584643 0 0
-241.736092389476 -33.0208436172823 -10.674667291617 0 0
3.41458158846929 20.1656730830065 -12.9673073087694 0 0
-193.342517412203 -7.71414089663976 14.11632145655 0 0
-187.462834359765 -21.2637815646677 4.52715350046139 0 0
-171.49711467322 4.09624270357956 -10.1685549090144 0 0
-17.0742218101781 17.7098200582591 -22.4515147913566 0 0
39.3004971881385 19.028652424207 -14.4445618101503 0 0
-152.348302151567 -12.4682631613991 16.7683416281849 0 0
-164.569229729644 -13.0630433940413 5.66891261914574 0 0
-160.516716801925 -1.42806917965284 25.7144602820197 0 0
-111.35236646461 8.21476325436965 -16.5830131228712 0 0
-228.55416772182 -41.299183358106 18.9715166534781 0 0
-222.629508944587 -51.0922446937081 0.403935048827942 0 0
-223.736094000106 17.3782918266072 -1.20117682957747 0 0
-222.369030621791 -12.9882699974362 13.2094453733133 0 0
-226.530918511864 -7.6664721519646 -4.62266082597975 0 0
-205.023694138396 9.50613552928661 18.4026153946692 0 0
-211.836026142576 -19.6682468685564 -23.9408207147276 0 0
-206.116476510781 -44.3175337231076 -19.3433621943919 0 0
-64.6111139642327 9.54813922528108 -22.9075217817071 0 0
-183.260382262955 -19.0894653526616 5.56337904822294 0 0
-204.170443499842 12.1027786301477 -18.4194818768756 0 0
-157.466201070723 -12.9657847810819 15.8393923528732 0 0
-221.461564172601 -4.86863077613374 -1.30561932512318 0 0
-185.461088605921 -4.32203681874243 18.5263985966516 0 0
-201.267889072118 -30.8295534068312 12.8345988846299 0 0
-201.36369494053 4.99305837057376 20.1799390428342 0 0
-153.994598573841 14.6500173031834 -9.64470981714879 0 0
-75.6750901693509 12.0195713827516 7.53627491757762 0 0
43.7050528765395 -8.98516473270838 -21.6190048505439 1 0
-234.219221363006 -11.9469695297942 6.43218474957857 0 0
-205.306179619937 -52.5783278631672 -4.11800126052712 0 0
-32.5507982665591 -4.75108263713228 -4.88935363720012 0 0
-219.82913811803 -3.38669874517198 -8.99852238467695 0 0
-205.353024925432 -1.98963834409424 -13.8272506709006 0 0
-184.406909890797 18.0099755885555 29.9135774227699 0 0
-7.01421573588995 20.6207725022231 -12.9841864893436 0 0
-190.86256001106 42.6466896989273 1.18814992594822 0 0
-149.136641214664 22.1639706791202 -6.86507908829636 0 0
-80.702244907327 -4.19472966590137 -0.754831573599876 0 0
-234.625290925413 -49.2747959991321 -0.81253679118568 0 0
-49.4398068834815 22.0159282279387 -13.5710411388239 0 0
-19.3280448589872 20.1862171954994 -19.1187540630582 0 0
-45.3891397815854 2.08935479379094 -23.4980144468529 0 0
-156.281133973603 15.8347314700412 -9.28102952089414 0 0
-126.900871309532 -7.74409018099479 -1.91819952670275 0 0
-210.058095246633 -18.07442881163 -22.3750058124869 0 0
-141.539726254177 5.44922101909924 15.6191060587301 0 0
-138.146900609635 17.2109174326762 -10.4934351904052 0 0
-196.653388668435 41.4376679754 6.07891650060779 0 0
-207.831790522773 13.2123800063103 10.9051159014361 0 0
-168.417929511743 29.5517804497515 11.4789677038009 0 0
-118.90677467142 -6.69990090395136 -5.67477963301413 0 0
38.6767158332899 13.9757635711938 -1.79379072874569 0 0
-168.249499595311 20.7620909967605 -7.96690564456626 0 0
-204.666526091937 -32.0239250927672 -23.3111950958843 0 0
-149.476842365884 27.6697158211032 3.2288202148071 0 0
-117.989890055269 9.42649050843476 11.6402094881578 0 0
-212.873342550159 14.2051140763142 27.6720482331081 0 0
-222.862576848791 15.6920046110246 -0.556411826352326 0 0
-233.525742543308 -9.88786323733302 -6.67275784773666 0 0
-190.130822561831 25.5273656338642 -9.91531895545852 0 0
-3.66576524520116 -1.55413952903446 -0.185580925888225 0 0
-4.71067312894313 16.4907712115369 -5.23944015200744 0 0
-169.20289563473 25.9156892241406 -6.3888500067211 0 0
-44.7673333338714 21.8664607657619 -10.4441946224253 0 0
-198.943822093795 2.30908631028613 -12.9176613157114 0 0
-210.666815671563 35.8417441882027 -0.988020606607923 0 0
-73.6508524798434 3.49977699712406 -20.9604673788105 0 0
-104.427136829986 17.1410970112075 8.90348707613637 0 0
-138.909700303414 9.60676465079514 15.2681318022655 0 0
-49.4333970065098 -3.45599546172283 -2.07350334948344 0 0
-197.982234009628 -27.4453253610629 -11.3411270499011 0 0
-127.873491307864 15.8153309239069 14.7623002772212 0 0
6.88414465779498 11.9408027031914 -0.69185697455115 0 0
-219.093215020291 13.938901468052 10.8892173101881 0 0
-241.106915151616 -39.337817293414 5.71820265776835 0 0
-124.915490605622 11.8513911859583 13.6298862124206 0 0
-120.570655151585 16.227535826384 -13.561777931491 0 0
-217.686367269387 -36.6606632836671 23.0086067100091 0 0
18.2101576850708 8.52267109787862 2.07334775706133 0 0
-241.118885987503 -41.4974849556459 1.97701911310758 0 0
-202.550502522103 -10.0147946053249 -14.5275326831553 0 0
-167.776460861332 -7.2036581498231 28.6026190734245 0 0
30.7329519696083 14.3563184409336 -24.0437942367284 0 0
-227.652555251253 -19.6562701542497 -22.7954366423373 0 0
-213.077751997668 5.15415247011701 6.87783939639981 0 0
37.6526708583059 5.05360537585743 -26.7728592633647 0 0
-1.4604492742729 7.56194754946001 3.57890127246399 0 0
-169.215806699551 4.85343662107783 -9.45039688142926 0 0
-188.48891195644 37.0573808257758 16.8963428507597 0 0
14.0795078283775 -4.01420857855732 -23.9589479708188 0 0
-239.030892334883 -39.8038711290723 10.0385767004628 0 0
-157.92337910557 -11.5318054899704 27.4690785934966 0 0
-227.007281563988 25.0306841696932 5.84173245336691 0 0
22.4815964784287 -0.034525251126111 2.86777607483968 0 0
9.28486627141238 0.0494429723288457 1.91108567163752 0 0
-67.2169784700361 3.3118633830683 6.08138131440095 0 0
-232.364186175896 -15.9935314012375 -17.5325315909862 0 0
-50.4059695611909 10.9872942963862 3.22112066945524 0 0
-234.222576657399 -9.85528306564722 -4.45595822595856 0 0
-219.657923635743 -16.1394131756103 -22.9545611062045 0 0
-238.181893488717 -38.5057646236266 12.1625908814533 0 0
-202.221969439074 -40.7411995873058 15.8607987570138 0 0
-184.154174051928 39.5274901436733 5.22652096351824 0 0
-193.425540702625 -26.2914686885686 0.606265900916131 0 0
-209.218396270611 0.0808353829447937 12.2132372683601 0 0
-186.150471301361 10.1165684974228 -13.603594983068 0 0
-7.90808923758012 20.7298331115562 -16.515595644082 0 0
-211.673690146224 26.8402573860693 -13.5113283406129 0 0
7.08460484094135 -8.93069161469984 -13.7204015804458 0 0
-192.010146691784 13.3858768916981 -13.195798847937 0 0
-10.4132419314895 -2.6296015009716 -23.3452196528895 0 0
-108.327652752285 -3.70707594211738 3.44877298389475 0 0
-242.414320647705 -21.9071870254722 0.0598782255293306 0 0
-192.770401801897 15.9119894574086 -12.4617608535692 0 0
10.5002684134388 -8.84622873150372 -11.8306968432053 0 0
-164.88041893917 -13.3500933360362 29.471049825396 0 0
-236.339015568884 -35.0805792521665 15.7454305243624 0 0
41.2990087868292 18.5025755232585 -10.2176598430815 1 0
-211.155044852233 33.5590646974375 18.5426344861217 0 0
-149.957495697823 23.8810227002381 -5.37757129381634 0 0
-196.500411692787 29.8584161918184 -10.1214426998343 0 0
13.5924416575731 -5.9727290316769 -22.5796461510615 0 0
-163.559635735755 28.1125692200144 -3.12508000042466 0 0
25.8548369027281 -6.91578241122207 -6.56482481547498 0 0
-203.370818782293 -3.48573054687047 -13.1471386448243 0 0
-234.3110262725 -48.7804575638228 6.59422962610388 0 0
-188.994491505309 2.15042934735025 27.1513170248222 0 0
-3.65770238180379 14.2371278439299 -24.8522967027627 0 0
-199.256650359886 -25.3512606291655 10.0498771679552 0 0
-93.1889273427077 12.6709569198791 10.3300742385192 0 0
-182.934138295194 15.1608085849557 -10.1632892558511 0 0
-222.496156621039 -17.2412305308377 18.1919359011981 0 0
-225.256549515562 -36.0831016888046 -25.3242247118069 0 0
39.5367828623604 10.2051949642502 -26.1722444674685 0 0
1.93166468013782 -0.927772525647743 0.840995954834505 0 0
-172.80138401665 17.6507545732821 -8.89078499912275 0 0
-157.219144261583 19.5536137215785 19.5301556546563 0 0
-44.9150400500853 19.9343614862449 -18.8588347976453 0 0
-5.854715713607 9.58934150940645 -25.9462378741039 0 0
-174.861200017114 -15.4975649377997 18.9617456419604 0 0
-122.705403689058 11.6992537580995 13.4709462457259 0 0
-180.404027231079 0.529898932902457 28.0628744383276 0 0
-130.045498711332 16.5069112313291 14.854833065344 0 0
-145.524511482495 11.1361990217882 17.1354998791896 0 0
-80.2448575029144 3.43678547761021 6.40333817660465 0 0
-196.672877173273 -36.6180684824198 1.1626979546827 0 0
-194.814957332385 -18.5862917496889 10.386000908469 0 0
-218.996466109596 -55.2017144552046 -6.28537535800539 0 0
-80.7657291464099 6.77582039500564 6.99695151499263 0 0
-6.09197861009517 18.4925849491627 -7.8592050859751 0 0
-198.541765981389 11.3709062965053 31.551172375173 0 0
-174.606602096415 -15.8049410174975 8.85523868229441 0 0
28.4889637232195 17.579468051403 -7.26643039566937 0 0
-226.64636263851 -8.39518228812532 0.497600250536774 0 0
-158.650619534513 5.86140295167522 22.0737466785768 0 0
-202.553682946895 -13.1145293706548 13.3116903522521 0 0
-67.613913210799 -2.43381638242287 0.325969135163482 0 0
-230.723796705526 -50.6732896181618 -7.97253321207144 0 0
-18.8583509979493 19.0968633323196 -7.68140778634129 0 0
-161.641544165958 7.90776289361628 22.8477112920569 0 0
-210.476684970936 -54.3922438694532 -6.51292232228358 0 0
-5.29825238825327 -6.92391369503632 -19.0705600371742 0 0
-219.785816211089 11.617139897264 25.2864005375983 0 0
-184.749836282963 12.9794081838648 -10.9824145084588 0 0
-117.613181720456 5.34047656976813 10.7710081827483 0 0
-211.779722708452 13.6828931280063 -14.4315490537045 0 0
-121.048607120291 19.5040492319081 -11.5413936795458 0 0
-142.065571394284 13.7478479720171 16.7123874893476 0 0
-184.633745458353 9.33683951460391 30.5484628554098 0 0
-218.045636443462 29.8442471382078 20.4154923344174 0 0
-69.0298004267891 7.08012438145309 6.44432483049742 0 0
-216.073838880913 -20.9673259292081 -25.2168653100335 0 0
-224.473261664578 17.7776201628692 3.91506680574343 0 0
-96.9096578007771 0.769045198755509 5.81403107502396 0 0
-23.4448852681659 18.0828981173308 -5.90655536233709 0 0
-212.464972635688 17.2488654273497 28.2104054862033 0 0
2.07162533193417 17.7670415861237 -22.0100757101167 0 0
-110.932119753467 12.0546161226091 12.1744880426677 0 0
12.3774576174256 19.2248976361147 -10.8259229235691 0 0
-186.078636410024 15.3251742677538 30.76950318311 0 0
-157.008516500149 13.511455865481 -9.52062352031064 0 0
-149.017104581517 -9.12340648631288 4.22144916318148 0 0
-7.83545414257695 17.6051836186985 -6.47958306058326 0 0
-200.334451220559 -27.8291648245339 10.9921597961568 0 0
-195.01866245708 -28.0348162331218 1.65530972129158 0 0
-143.125816048529 10.8592587295604 16.4774730938808 0 0
-127.654997040723 24.9628663480086 3.31622007212885 0 0
-210.380560441065 1.39791472078277 10.6428137034734 0 0
-148.732258272865 3.36898978851442 18.2072073217876 0 0
-187.588126779568 31.5666002596512 23.0277209073001 0 0
4.42855908125758 -8.66034794028748 -16.1064782516576 0 0
-143.326283875165 -4.95111481960364 12.0581260526437 0 0
-39.8177065985803 -2.35360807970831 -20.8899811311851 0 0
-216.847083367955 33.2461898793476 10.544310454211 0 0
-214.852411468966 -7.370752579044 -17.3127628374027 0 0
-175.216975374325 -14.6105256856925 -0.0246965896439298 0 0
-193.985965250223 -12.884105948851 12.0723686180616 0 0
-219.300132320291 12.9495611428916 5.70319104288519 0 0
-193.597214372979 27.609108380849 -11.3384587372004 0 0
