"x" "y" "z" "f" "a"
174.21397039413 -25.47787873113 -28.0263633588457 0 0
159.022727005441 16.6148419868469 16.2433296527316 0 0
139.602945992088 -18.165994183545 -5.54776007138856 0 0
190.027719962244 -18.1914233104787 14.5746628442652 0 0
193.216792201438 -17.4965203299556 -28.5886581097989 0 0
132.241146846209 -1.99993581306212 -6.958177887109 0 0
164.449875932122 20.1437114497362 -13.168274920673 0 0
74.2920798921051 10.6741811846908 15.2264085708026 0 0
163.398842550948 -29.2051937273834 -19.3418524548081 0 0
89.8165245481398 -14.8343008786162 4.46985053603018 0 0
184.132393481928 14.8606016717225 -24.1951708018242 0 0
-123.996845659959 -16.8489612047706 -7.00771259716801 1 0
108.077984760917 -0.715680484158923 20.8241319656485 0 0
-83.7700225306872 -11.5258889692252 -4.97882130497127 0 0
-1.51609098087783 5.95816765587358 -0.485087239130265 0 0
-31.4736996441795 -13.7443009550619 16.7609531511792 0 0
-52.7879740253911 1.92759747210109 20.992326591273 0 0
117.960821137801 5.87878255605629 18.840871299805 0 0
164.695500262536 37.1898049923241 -3.55258573704546 0 0
-38.2950783588816 -2.34263180183803 22.5862764968558 0 0
-110.098387529123 -8.49469422490464 -12.33700668192 0 0
-40.2978981126549 2.26708512378835 21.7602201755346 0 0
181.490048339998 -31.2804938493157 -15.1084306461341 0 0
188.684834855995 -28.3500847782494 1.39813353645379 0 0
141.738349476555 4.69053309501137 -5.30210536407771 0 0
-90.0328827146388 -11.1888169258941 -6.58256503293193 0 0
125.950454827239 0.427306656436423 -5.44762988870033 0 0
75.319825901549 11.4982878844737 13.3592909075853 0 0
146.133186546386 -20.4358297295245 -7.69394690152102 0 0
-48.3856616424655 8.18038350182067 11.5934573866513 0 0
64.8774871515727 3.63914691611341 21.4673648832793 0 0
44.9649966994803 8.81872651301554 18.4699633327858 0 0
141.951128183821 5.59009009326001 18.9451583289565 0 0
192.575268263148 1.48590389129514 2.29368139199878 0 0
18.6937217965796 4.08445470734202 22.3718812028619 0 0
179.337375965566 -31.380919666023 -10.5190061972635 0 0
-72.5494294594585 -8.27209424770477 18.7831599003103 0 0
159.809172498365 -24.0429321599401 -15.9037645485004 0 0
20.7184368638606 -13.7486462209228 11.4469281501017 0 0
-32.1568658145679 -13.6367404475835 8.63075078828519 0 0
-9.88392202894328 0.893745026112369 23.1495614360852 0 0
102.968141224408 -14.7269665262798 12.3770748460663 0 0
44.9508372689927 3.69344523535442 -2.57439344434966 0 0
126.106637914777 -10.0285841408814 -8.55732925729245 0 0
188.749968975054 -28.2700650913781 3.60017556332555 0 0
44.7518830311654 -9.03439665158898 20.9931425722183 0 0
-88.7972171551024 5.88252541547116 -1.54174717976813 0 0
41.8881289046857 10.156432575756 14.6988755099692 0 0
161.810176941507 26.7572662615776 -8.30729967634601 0 0
171.243138952739 35.4213696133938 -15.6899155866521 0 0
190.888069462769 -2.96050762352566 7.38617941959194 0 0
74.6652672741331 9.23119965788768 17.4008175452744 0 0
53.0536381285404 -11.6606276454698 3.62517646300679 0 0
34.7472860138182 -4.37410061416504 -0.719565933109731 0 0
-122.447435481038 2.10491905640135 -10.7223090658713 0 0
163.110768292376 -26.0524197902139 4.02856601976665 0 0
81.0340065615738 10.5922815949414 4.73447307393676 0 0
-61.6571117760839 -14.5787797118123 6.22945486120036 0 0
-17.6302718967225 -1.39145294746652 -2.28933336970064 0 0
68.0907210714599 -0.733525418635289 22.2534653526452 0 0
181.997267399435 -27.2553412346859 17.6503895035723 0 0
178.084440635212 21.7014848431417 -27.7906977839634 0 0
135.258697084896 1.68969451859178 -5.77690246633663 0 0
177.92016980008 12.7022158121365 -13.0945050553303 0 0
158.00528762907 -23.2166635324452 -8.10608561940291 0 0
-38.8034012076839 5.22489314106319 -3.17253844461999 0 0
-99.3065282771718 -6.54860684209928 -10.1234914629258 0 0
184.149964620466 -14.341754820349 19.241222068174 0 0
57.6229052301657 6.08157756234354 1.700038577218 0 0
-3.88069511998269 9.12469320475225 16.4470419384001 0 0
179.75589140191 -19.2064536600866 22.6947006337167 0 0
-78.932266521003 4.90350814776799 -3.54487432984661 0 0
60.3565758993426 -6.3687743659322 21.9464178476525 0 0
-102.600402135242 0.58831212539657 14.7010202198921 0 0
-70.0323777184495 -4.37303049190489 -6.96336188103999 0 0
-86.6148521037668 -15.7043321230082 10.1153635320798 0 0
124.901606110654 -16.8952926465671 0.220933583257848 0 0
14.4231087417114 9.32158933321129 12.4541237973985 0 0
150.308734302005 19.0127034611737 10.3068001487269 0 0
-16.5198070266065 0.421704432201858 -4.0086633984813 0 0
168.015786372577 31.6351418312017 8.56315968074001 0 0
162.74130515589 -27.6800958998333 -21.8442176688702 0 0
96.8783758220177 13.532419005698 7.8469204850201 0 0
-95.5491414440099 -12.2323001234682 -7.33005553472213 0 0
-22.7970626404248 -3.04898272451081 23.1100191058331 0 0
42.8642826880611 0.356804823270634 22.8879544202875 0 0
146.461268852932 7.51992278237206 -5.1916181771417 0 0
-22.8214990199312 4.88338852462132 -2.43230029635696 0 0
124.96097165675 7.62580567214045 17.9185955713137 0 0
155.806993959833 27.4263375246345 -2.21366780240617 0 0
174.623361644128 -28.0994734161848 -25.4501966425498 0 0
86.7422919927334 -8.05738896544518 -4.63164047632857 0 0
163.410848624608 -26.5299521706597 -9.18763888143246 0 0
166.475894746384 -25.2801663127735 16.6758752548903 0 0
17.0656274602778 9.58249496813695 15.9556801571242 0 0
-48.2380389489566 -4.65493532373182 21.8502522165927 0 0
-42.978401823729 -8.43620973596208 20.8430517034674 0 0
113.684263859817 10.3464972304408 0.102841028311677 0 0
142.058711703118 -17.3051770349195 11.6721698989765 0 0
-114.930247807034 8.05414940471852 -2.12156239492496 0 0
155.45471957344 -13.8343130241785 18.7914846624091 0 0
-1.98061404530491 7.4177709933258 20.1646020132453 0 0
139.387648620663 16.0403850003027 -1.04817966813495 0 0
160.678947489395 15.3612878005546 -11.4199157537928 0 0
22.2178650627547 9.72133470242721 13.6782468819568 0 0
-41.6079258995577 5.98235659069145 0.695265717136987 0 0
137.934788255118 1.70296311255577 19.6295019481766 0 0
180.177432296321 -1.11598383083706 -15.7972214202374 0 0
1.33057937948499 -12.777624460922 9.00089439116591 0 0
-33.0592245586228 -7.9557827303436 21.5617734348618 0 0
186.448977592157 39.100333799176 -16.6516460064682 0 0
152.413758093848 -0.571184210961354 -9.86441971039019 0 0
-76.5824848813911 -3.8999528870494 19.3703267718943 0 0
-95.8952183082181 -16.7180013600228 3.11026443642596 0 0
26.4846726332941 -4.03251439372548 -0.392611318334736 0 0
-83.6004816641169 -16.0182653854085 8.01485179291778 0 0
146.416765489145 18.8492090156015 9.00571923710053 0 0
200.37151802271 24.3425369282624 -16.6080647224361 0 0
170.55898876494 23.4289560234791 -23.5093112957208 0 0
-62.5447329769928 7.89454428663959 10.6296623175777 0 0
22.9463327259978 -3.87495440805196 23.1530382118552 0 0
5.61896482815272 -1.74604684079329 -1.54550067149381 0 0
-86.480392550612 -14.1468418983125 -1.66404172408147 0 0
-35.9308266521153 -0.983781017558281 -4.39413066278506 0 0
179.925793277119 -31.2828724211179 -15.5447533478813 0 0
-11.4451188980936 -5.0797098575828 1.1019245246013 0 0
179.578432368528 38.8925948737062 -16.1064820398472 0 0
193.374244554927 -12.4695594860367 -25.3508565544769 0 0
14.7694854412512 -13.6207449295563 11.4213125212726 0 0
73.5064362195159 3.80604735242153 20.988634723298 0 0
53.5640632717343 0.0504012872325542 -3.39336656630361 0 0
106.499294681168 14.3575449258191 8.67139090860285 0 0
-71.1506000627501 -15.688868275937 9.47612082239318 0 0
-121.436098188944 -16.2315192775598 8.49107257982887 0 0
188.535162704352 -28.291913628709 6.00557254258118 0 0
193.92223263564 7.23753345754123 -6.03760581037134 0 0
44.6501566387381 -2.28929935483531 23.0053448404888 0 0
195.383152252949 -20.417656700199 -23.7279090162256 0 0
187.003269402586 38.1899899257914 -14.1654005645882 0 0
6.37259021937632 1.60092678753452 -4.28532047899108 0 0
-14.9998154775062 -13.8519542897 16.3870906947895 0 0
1.0996586557361 -0.27285360049241 23.319830992737 0 0
-6.98627529870557 -0.266614598627185 -3.03768808468173 0 0
131.771390437925 12.3874583157023 14.2951973288801 0 0
82.3974969654055 3.16363446629339 -2.1749560873051 0 0
-66.074492388536 7.76332145899285 5.66996672719931 0 0
-45.4075366457542 -0.672289554335737 -4.22255532699449 0 0
159.330649414008 -6.44085861117609 -16.4006701669553 0 0
175.285622302606 24.7720314216792 -27.0571764965302 0 0
194.529233335485 4.58876729035009 3.09693598335507 0 0
-90.1994517141238 7.30776885845218 8.23295951084675 0 0
100.39573972315 11.8412709044683 13.7003868254845 0 0
173.501857337843 -27.862175558031 8.62206999500214 0 0
44.5371565059435 -0.287644987294126 -3.51864669110091 0 0
189.014664875212 13.7134802782611 -21.6285504992436 0 0
114.061116331431 7.77399135740749 -1.3158207368351 0 0
10.973898016859 4.32716121482531 22.3901245554588 0 0
-13.331237000857 -5.56671923222212 1.413019734106 0 0
78.8640054154353 2.71328786254958 21.1538758370745 0 0
185.267056453674 -4.08831136973135 -27.1321468886767 0 0
168.559288287428 -30.6385813966845 -14.0698606647977 0 0
-12.3202220904995 8.97610844482259 15.9732472877681 0 0
-53.5434625919393 -4.10836358881365 -3.40772682423722 0 0
162.910275200389 -2.79157027049546 -17.0573899751036 0 0
-106.384984793114 -10.9838166854142 -10.7042963109217 0 0
158.972264855871 -4.34157905320773 -14.8154170521429 0 0
50.2933389445301 -3.11234730941908 22.784916899203 0 0
-81.6679127052818 -12.8093421339835 15.2373787750982 0 0
177.510914869449 -31.3870223223569 -9.28184112146959 0 0
124.664732715932 -1.59373551204798 -6.12356160785437 0 0
-49.0825107876219 7.80549485921264 14.6460298205886 0 0
114.188620165707 7.31033233151931 18.1846143918985 0 0
165.061253739784 -26.7537219336999 7.4680913622994 0 0
125.054494423363 4.92195188584277 19.0267931934044 0 0
-56.0090226192792 7.06444197357548 15.7340618865776 0 0
170.317188851875 -31.9235157413394 -17.3536994921708 0 0
-104.192363176401 1.16906152515835 -7.353581655307 0 0
59.5709507054672 10.9531039307818 12.7943787170668 0 0
102.007336529813 -15.4658724437658 6.85341373448839 0 0
104.873517389012 -13.6752529335935 -3.10515430561991 0 0
12.7575206558715 5.71992316556377 0.143762568187954 0 0
180.51937232977 40.1422538717269 -22.4989631216901 0 0
-4.72252304272944 -13.2856911784095 10.0717050330289 0 0
148.626602602396 -20.0848811404443 -4.05162737554906 0 0
170.545102146357 32.1210421435569 -17.7843455537663 0 0
168.332723238623 -25.7158483097888 -26.6468529607553 0 0
63.8467475756273 -13.4528747152144 14.4954506757596 0 0
-111.013328167069 0.465804601370208 13.2581233441281 0 0
-52.0773742841516 -6.84667776302851 20.9553103453772 0 0
160.465741935202 5.59957833696972 -9.46477821968694 0 0
179.853016416357 -26.8594722022064 19.2069573852874 0 0
191.461276140257 0.408966558720441 -1.13464343512683 0 0
-72.9150579764761 -3.47041972773468 -6.68818754474156 0 0
-61.502708608672 -13.118407794791 3.58075753202146 0 0
-110.53403679234 5.88223451357741 8.08073831997927 0 0
-83.6768599500146 6.17075505885994 12.4899459481096 0 0
163.741509653292 -26.6923788130276 -2.49278243091929 0 0
-80.8234357755107 3.25190041810029 16.8094246437124 0 0
161.246618570292 11.971832672059 -9.84186259787912 0 0
-97.2913510176524 7.59966681670185 4.35363678434462 0 0
189.509274414053 -3.18368914330458 -17.137017360194 0 0
189.683593033042 -3.66116085413529 10.1944574644135 0 0
163.810001243069 21.6999788935581 14.5233392683936 0 0
188.131326572385 -13.1220759479049 -33.4457077686752 0 0
187.952137788867 -8.44002871465995 13.5330341984779 0 0
-4.22555970595857 4.14124852433323 -3.4767609848685 0 0
191.279181914273 35.9478474098313 -24.4783486523521 0 0
101.176777858769 -15.1760922214009 2.09146786929283 0 0
-87.9578096122683 -4.30894469994772 -7.42934891465549 0 0
179.863670279733 29.7564595794045 11.3415351878603 0 0
-15.1702543921663 -11.1792797932954 6.38853702624542 0 0
181.969984286641 -18.9633785536747 -37.4962224129907 0 0
-64.1933071088339 7.19444346330668 3.25624609009094 0 0
-111.593486379302 2.28496728231126 12.308927882817 0 0
168.704456253602 36.7795768593788 4.06469816780476 0 0
13.6584896144487 -0.369133749567066 -3.47326745467243 0 0
-44.0579084960532 2.65968554932969 21.4131888689811 0 0
83.2579177810471 0.485276669092505 21.6069829604141 0 0
149.097393194303 23.6135025753129 2.31888710315206 0 0
41.8551619092023 7.06252011225209 4.52861111709516 0 0
162.193349442253 28.0628862172804 7.68841654778811 0 0
175.421219000646 -12.7908271909452 -37.0985782946309 0 0
179.878471423169 -16.9713852597569 22.2932418753396 0 0
-68.5534469253006 -14.2657662478844 3.78159890938499 0 0
44.883791980152 -13.8587464658529 13.1169724360787 0 0
200.331529439531 30.6714001768901 -15.905891146495 0 0
134.693267912918 14.8526634590583 -0.457865220291711 0 0
163.988207434325 -0.851495030589128 -16.6892691418778 0 0
162.310842006335 11.7909515164789 20.6976528930609 0 0
-19.6946765562634 -12.9183676533436 8.64202663340133 0 0
-28.4879489869734 2.526401266143 -3.69140593821471 0 0
189.567045672808 -7.60987492482534 10.7383291673041 0 0
120.406320098437 -16.3454248858046 8.61114333667108 0 0
137.529360542038 -16.6029176048777 12.1127025024785 0 0
157.072687154298 7.07795413169597 20.3878485742424 0 0
5.35498346094423 7.27170496184731 6.04713028834577 0 0
183.214081600262 34.7598944402358 4.62511366784006 0 0
180.610151215997 0.0085882774980609 -12.2624113671497 0 0
191.003287653496 -1.08251002285368 -4.49672142602166 0 0
200.831406018833 19.1695559422913 4.56779156899674 0 0
28.2264837439687 6.14157768996958 -1.07628493627064 0 0
94.5021806861575 5.10864052265271 -1.38814544045153 0 0
179.420609152959 -19.9673874020065 -37.7737988137572 0 0
151.441933654314 6.01183817854546 19.7585359189411 0 0
195.18589072223 5.2271634947096 5.61274521851081 0 0
-94.0994999603615 -1.11340073810097 -7.52156067060593 0 0
179.607999181984 -31.1390899804033 -9.31796510470469 0 0
-51.1133868349519 3.80262645025738 20.3356161243946 0 0
164.973218070275 31.6349228136697 -10.0066701818914 0 0
186.934760311074 10.3992057495803 -9.28939181634637 0 0
182.380487659824 40.3127070766346 -21.5257152661133 0 0
44.4311652318979 -12.56156065457 6.23869804166739 0 0
-46.6345355602176 -4.96764111595753 -1.39214459338472 0 0
125.14450454097 13.740559551675 12.0954510559969 0 0
166.879048890105 -0.928261957002777 20.1918204967432 0 0
144.196512954501 -19.0985713920708 3.28666604059765 0 0
-75.2003598454751 7.71654477682948 8.99747040208611 0 0
190.607139132322 -29.1633421947669 -22.3655994692662 0 0
185.489171481967 -26.8012500769704 -31.8269926469917 0 0
174.386513047758 -2.63504104758039 -27.8338987130962 0 0
140.111210025916 -14.9085447583749 15.4090238663481 0 0
15.2814047785363 5.67933856692398 -2.2937041988335 0 0
183.589090038096 -7.15736064830707 -32.683472168933 0 0
162.154119174039 -23.2621684044606 -23.6516474552987 0 0
153.543966056342 19.9530889125518 -7.89507599122005 0 0
-76.0168867422913 5.85703295799654 -0.923488673576728 0 0
136.490561464575 12.0555290107128 -1.92422440868365 0 0
160.527471517319 10.0334260687628 -9.6753673626123 0 0
174.652725068208 -31.3492059036902 -8.2504451082665 0 0
-51.2940991681895 -15.2104200790825 10.7593979869778 0 0
180.107475278134 22.1305328022902 -28.5748757926994 0 0
188.240879918447 -8.2626801405301 -30.3706168411341 0 0
180.509663250428 28.4801685487877 12.3518625705634 0 0
155.223392404731 7.92035719444748 19.6746290170271 0 0
87.3133127644459 -14.8686000273887 6.06111498613361 0 0
145.053799145063 14.2871498036433 13.881611821582 0 0
195.560046148177 -18.5767752295491 1.41429955853789 0 0
-111.818705130147 -9.11767431114748 13.468377195107 0 0
-91.7531563981529 -15.6272804209254 10.3523622777969 0 0
169.531996477803 -10.6365233614178 20.7086241305702 0 0
25.336181018204 -5.73753971851738 1.04297823944225 0 0
143.826989612245 8.40750149498449 17.9399262284663 0 0
145.843661425034 6.89628743102852 18.7868911383655 0 0
118.116896519657 -16.5366354111979 1.69433652196373 0 0
183.724741956689 36.9940862505983 1.50142080092447 0 0
168.958575472478 17.3774236645519 -16.9208577114471 0 0
-105.62335185902 -6.0081559468681 -10.0154341309729 0 0
185.586647078607 9.15708268370052 24.1833724825375 0 0
198.597816312543 16.8690396213394 10.5504863158253 0 0
-18.8489405885612 -9.66298487983713 4.67260586158582 0 0
175.890145925952 -27.0086649317004 -26.7679267976581 0 0
-104.574614389813 -14.1362475721378 -6.76648683199169 0 0
50.8388092785576 -2.72350196048488 -3.49376123929113 0 0
183.845716758864 10.5105297393234 -9.82791901482342 0 0
167.304630812891 -18.4341785709428 -34.6200096912696 0 0
95.6762244241737 0.160042925674007 -3.81488673450113 0 0
179.158709031052 19.8023035667782 19.0328022344139 0 0
93.6988163870378 -10.285051129262 -4.52549977262831 0 0
-114.038917059008 3.14435908468888 -7.56902553858566 0 0
164.644574072424 -20.2000725642862 20.866935101224 0 0
173.394633810243 8.83191754976612 -13.1081135225137 0 0
150.778472825422 -1.23126009611044 -9.56390699134081 0 0
186.029978115636 12.4054409057253 -11.5578716288482 0 0
-32.8482353629585 7.68715123568827 17.7690219428334 0 0
75.6992804102716 -9.86657534405083 19.5235329804633 0 0
31.8236054352179 6.00323230384283 -0.430445843050061 0 0
89.1025929597188 4.88617812522948 19.9639001194149 0 0
146.948562349624 -19.5975752749506 -3.40542022461832 0 0
52.0337984805789 7.63591130879067 4.70293326976179 0 0
72.4034524637265 -4.85459060853587 -5.007942129073 0 0
101.183607267024 13.5419286402295 10.2715557873491 0 0
150.118641054981 -20.7346897092918 -10.4727624118885 0 0
175.274211160267 -29.1315097966436 -23.6596192406627 0 0
60.3164462541393 -13.959940015163 12.4637547355189 0 0
189.01368116807 -5.03070282625277 -23.9201047305875 0 0
31.0844882994443 5.65901802705913 2.0879368261506 0 0
189.92521270364 -23.2446294738254 -33.1541822688598 0 0
200.673856768832 26.9030181791865 -15.9747490940596 0 0
170.243904042517 -27.2202395458146 -26.3415932360851 0 0
197.739784692214 14.4140017521869 -13.2027436686183 0 0
176.854440165736 8.96454382857191 25.0507316154865 0 0
-95.2735746923241 -11.7166667599428 14.5241655725175 0 0
-122.844744442093 8.78546186292835 0.673073706270523 1 0
96.4902343482867 -14.7503021217511 11.6385108255692 0 0
164.941600504034 5.18866376407379 21.9359373565166 0 0
80.1479844628948 1.72793732434739 -2.88312637186077 0 0
168.016679297205 14.2057999553744 -13.1070085329164 0 0
199.784990558916 13.0418616381513 -0.718574477755764 0 0
199.330645911011 23.3562428940012 -18.6280427243682 0 0
68.6371519124205 -13.8577237987154 6.04824262469761 0 0
128.330614899064 15.7064637264888 9.4639817824955 0 0
-104.360841936058 2.02037257803584 13.7152299385471 0 0
84.3926388600822 -14.6917648057525 10.0470293554472 0 0
194.641916506797 -10.3593977647646 -4.27812804487015 0 0
-80.8567893992684 -5.84251232882159 -7.95631125320763 0 0
156.373608034633 -9.02939864307096 -16.7844593341738 0 0
136.467241041194 -16.7782915629875 -7.20703922853561 0 0
-6.26332570416164 -14.1227578103103 12.639844586092 0 3
189.780901553351 34.299775553335 0.923567448342756 0 0
-108.600303028916 -16.3777303762976 -4.05508725317647 0 0
40.9575793926324 -7.82162354206354 21.8186958827329 0 0
46.7422085349787 10.2748019798085 11.3410512533594 0 0
141.714776254362 12.1880802131275 15.4104341731285 0 0
-79.9783909161085 4.74930926194483 -2.87249014220036 0 0
173.919474789945 -31.3548177189072 -16.5534372191538 0 0
168.857096619306 17.5699154107072 -18.8013301710667 0 0
63.7473169640302 10.4276414962581 15.358835460709 0 0
169.098189619922 -27.9310210591355 8.99151848229676 0 0
3.99161204404574 4.91273280159152 -3.18208565218327 0 0
-117.585345378834 -2.53760081439216 -11.1844247395596 0 0
38.0454657936529 5.78098260005 -1.13401928473559 0 0
180.941562984419 20.6187075047413 18.6593379772741 0 0
-24.1601726567802 1.56241412319294 22.7194709270625 0 0
153.905002207439 26.1035404422261 0.743133947041563 0 0
-40.8021350463804 -2.86889456622347 22.4463743401384 0 0
168.478200307447 -30.1084616689889 -22.3597571066492 0 0
29.2646241445762 -0.230048003446809 23.1076064919495 0 0
-76.4432634170911 -15.7741032266631 6.00377944841434 0 0
188.879529267694 -16.3950651606754 15.5909427400818 0 0
119.588772608675 -15.9736846927185 -1.8737526607888 0 0
172.534446117577 -26.7571653133831 18.7739968973573 0 0
192.428196581038 -4.51694410977374 -0.0758173228176448 0 0
154.22897454549 -21.7542742216255 -10.9247573024143 0 0
175.707505051239 -30.4052085725024 -21.5259895153183 0 0
-88.331079859962 -15.2528882070643 -0.0714509564094047 0 0
138.847382478694 -8.48267992208952 -10.4044466824917 0 0
-72.2900387398867 -0.731211573364446 19.6680718488158 0 0
-119.869476518712 -13.2052647495955 -10.9532452978916 0 0
193.905357585771 11.5710306658313 -10.7648861968207 0 0
132.868919287047 -17.6924129018142 3.43529881809752 0 0
165.09482841634 -27.279182404503 3.15009793250432 0 0
47.2037583659529 -12.2830703089931 5.36032933516524 0 0
-53.7373053955132 -3.13159792355536 21.5422410544116 0 0
-64.6904611300446 0.447399160899433 -5.03988880104322 0 0
143.568299200794 -19.2319584710657 -5.69805737400803 0 0
187.422686629324 37.1250683852849 -25.1233706107734 0 0
194.570554857382 -22.542506425261 -0.531811610008242 0 0
41.7096280968706 7.83756423644248 19.7370401473617 0 0
126.832150312184 -16.9125315861257 -1.22171634465403 0 0
-102.437824263951 -17.080854861704 3.91075038657504 0 0
194.79925365461 -15.5934285039282 -23.9710477840576 0 0
188.715660817779 -29.4335410426674 -11.6671897591533 0 0
196.165594072675 -21.0821680831221 -17.5139786101891 0 0
165.603821861863 -28.3110125944324 -9.91426947345166 0 0
160.726467767613 -25.522544108821 -17.4570301626852 0 0
139.799677125597 19.5568961377545 1.55035498345913 0 0
-120.137927897154 -13.6764839784811 10.9916178377156 0 0
46.3837452612046 2.74817476574993 22.2706543043431 0 0
193.449282128725 35.4894132600812 -10.5562074963531 0 0
176.415288002853 18.9285403079085 -25.6902993126698 0 0
171.875588140808 -31.6623108786816 -15.1124889649597 0 0
155.415673050655 9.91384884295163 19.1351462920509 0 0
-17.1583757982797 -1.74100095403901 23.2622266407625 0 0
108.346450168118 -5.9780030038298 -6.52068952459588 0 0
142.806045419246 -7.34130459664847 -10.7760817207473 0 0
196.566181663388 9.78270141303866 -4.55302364870434 0 0
165.015388986799 12.4669219058303 -10.9109896197598 0 0
136.268648632909 8.94806722798478 -3.0643322032884 0 0
169.234287557768 -7.16527844553975 20.1082804786821 0 0
-26.5395745350588 2.37610120254045 -3.81254613046094 0 0
-87.4458451736619 -1.78539761888941 -6.81730853861085 0 0
92.8287762798178 -14.9742926798611 4.13428462437964 0 0
162.945673205916 -3.33310648673534 19.2204544053007 0 0
171.135890126246 -1.33620184984963 -22.7059397862166 0 0
-13.9690147382824 -8.68536483432205 21.8942459716175 0 0
-49.1954101612053 -7.79394284701982 20.8372818460345 0 0
158.351474519224 8.75199730568739 -8.90686045406195 0 0
6.23880323802412 8.62482058870585 18.521585049428 0 0
176.946863421478 -31.2663146455739 -8.07624724185839 0 0
54.8714118719867 8.6205844559724 18.6363245437065 0 0
194.367647514889 -18.9407649333708 6.55123539447188 0 0
169.842457177768 6.89591148289717 22.9526878095215 0 0
153.149535623703 11.606748200144 17.6415390536136 0 0
-91.6304497671739 2.2325610183431 -6.09310540628592 0 0
100.277428823335 -15.4481151595921 4.89609113781751 0 0
182.168546480779 38.6821169685138 -14.0760036497813 0 0
156.29891347546 -22.4007067837687 -4.96141409794882 0 0
161.33795436207 14.823481525391 18.6096509423899 0 0
166.889243458557 -15.4628230783648 21.3657810742136 0 0
176.592468145483 -16.5736050758317 -37.7199776064198 0 0
180.485184845176 -31.3087698564253 -10.951111644504 0 0
141.524556081089 -1.80013138112113 -7.7803713581289 0 0
-55.0791825455066 2.24101718838363 20.6771927141101 0 0
35.7744675332855 8.43258416877629 19.1654463587164 0 0
172.138411379358 -0.856427135394293 -19.7241085198774 0 0
-110.989277298825 -17.215590896519 -2.27943843844481 0 0
92.9832154277918 0.773511407231675 -3.51789425925843 0 0
-63.7568975185774 6.21386010856921 16.0984135035203 0 0
183.529829254826 -29.3488247409094 4.93865276562368 0 0
143.586355768625 9.47822196196027 -4.11269837998003 0 0
-48.7090103427496 0.876349450980497 -4.14236913034658 0 0
179.83095703476 -10.1526887258893 20.6399204879398 0 0
163.780705802557 -25.6458744244618 -24.3497894120991 0 0
-69.1668719952678 3.1882895507485 18.5666965842764 0 0
152.400645509245 23.9173119034187 4.44782350912131 0 0
149.311877780155 12.4044137690972 -5.80919971099413 0 0
156.603965366236 -15.9505213426372 -19.2757561888628 0 0
170.246140129046 5.06072111234199 22.3116094747433 0 0
-83.4210956044769 2.6496676284463 16.8267062527449 0 0
-27.6653078759251 1.99878165111222 22.4991355263311 0 0
-38.0339031349892 -8.94625329598808 20.8690557631708 0 0
-83.3926234782702 -0.817632156540448 18.2359174472658 0 0
165.429711085856 -2.95105822806354 19.6969200214191 0 0
125.449651821253 -8.51734081289479 19.2900249405458 0 0
-121.411442643368 -1.28286669543823 -11.6990833385481 0 0
192.995668428624 37.7723573465358 -20.232116859013 0 0
153.191767246825 -5.83305469755178 18.7529606410407 0 0
198.362291120873 31.769174200802 -19.7778167768171 0 0
169.047691011972 14.9029459864134 -14.0956394491756 0 0
184.895505541811 -18.0101399582105 19.6204432627115 0 0
149.121489436638 -17.779592407554 13.5497674030518 0 0
115.497655517779 -15.9055090833542 9.32207408893651 0 0
-65.514460613704 5.87687440579534 -4.12248656549056 0 0
180.996441740504 2.67475968027832 -7.70233665326752 0 0
-22.4075577273397 -0.433617293131797 -4.01236699201417 0 0
34.0549501276658 5.75956781971554 -1.89571354218161 0 0
155.134813368535 15.2228915338847 -9.45752961551541 0 0
110.248406716351 3.32076637808718 19.8581831770251 0 0
167.503838779657 -27.7301163627689 7.92984047167188 0 0
-20.8244824773703 -11.3025354760506 20.0583567916992 0 0
175.617665686158 -30.3590678030388 -1.94141938887697 0 0
78.194015216329 11.6835879510234 12.9562216156023 0 0
186.008836897033 15.2496538347322 -17.8688614597521 0 0
-78.6333808818828 5.87814001602429 -0.934427124119054 0 0
195.675457857507 -18.2291738112434 -3.7893069834077 0 0
99.8452565897288 -13.3700321365784 15.0782973891922 0 0
152.602459708944 -19.1365859795402 13.2439344094042 0 0
-103.26086865171 7.51909544609786 4.27145452162296 0 0
-79.3255167438288 -15.0767551484556 2.5002073008708 0 0
185.843317691358 -29.1398565985421 -2.53443473982868 0 0
140.370607642975 16.6509930528532 10.3856781808257 0 0
36.8962465891102 9.80106645052049 11.252454049362 0 0
-40.5328800535134 -15.033001905266 12.9381136383533 0 0
176.167711539077 21.0089923828999 18.9365466957088 0 0
156.941580966037 15.7987193414143 15.9933848756802 0 0
-113.712961127915 -12.1495063423414 -10.4964987985925 0 0
173.402707830948 33.2987354099065 7.8612364666645 0 0
201.632874572754 18.3815893410499 -6.29933146760594 0 0
41.649019281159 -12.7474557174084 7.01165280920264 0 0
69.519604647774 -10.0988618823691 -0.590517083563026 0 0
72.6983510102588 11.5156596044433 12.8904610753895 0 0
39.1477955796822 9.95633686901413 15.4116851157219 0 0
173.928045644498 -26.6096268778642 19.8013833280955 0 0
-68.8133191847834 -1.5668394107879 -5.09300271753127 0 0
41.3025652198025 9.4817260899833 17.0935830180591 0 0
182.019932707385 -1.07066810537952 -13.2722846971019 0 0
-112.937663139196 -14.6402448908852 -7.46349241275967 0 0
151.389872566823 24.7019809685675 1.22896723470444 0 0
85.1060808739372 -14.1279628495471 12.8790332991483 0 0
5.46623856230893 5.48681951267431 0.0704487886863155 0 0
168.610804257237 5.39062706113875 22.447115823172 0 0
-123.401414291349 -7.14030706908442 12.2956430138917 1 0
-109.577428176169 -7.25513431169181 14.1713702690894 0 0
167.526146395751 38.2519624900793 -6.36924385774145 0 0
162.03743854952 -25.6416813394409 -11.2861621105414 0 0
91.5491123024797 3.0959627866353 -2.49866587466324 0 0
-38.581201588817 6.44478332130445 19.3182971260054 0 0
167.346712061535 -28.5785054901472 -3.71921896582011 0 0
104.926980340709 -0.428471541673172 20.9301833513901 0 0
56.7624930396849 2.65088368702808 -2.7442715555329 0 0
8.54029345144566 -5.7480469203402 22.8879022753528 0 0
92.5017486834708 -13.9510627444903 13.6973194401103 0 0
180.028247925678 30.778883403198 -28.200599319441 0 0
24.3873356620269 -7.33562187697567 2.25321545435074 0 0
-96.5720224382993 6.47907699134921 -1.12385586163131 0 0
185.951706599421 -29.8042259618643 -16.7374055095643 0 0
139.863559795615 -16.5706438197695 12.767460561956 0 0
48.5348511693763 5.26382839151605 -0.701712769447387 0 0
-60.3986542732529 -9.54915203950554 19.2537337737883 0 0
33.1534031371189 7.43883600465148 20.2727424377021 0 0
15.6236773594833 -5.39294703143695 22.9114457377736 0 0
165.514476478165 29.7923297254936 -11.216557656704 0 0
-121.138435429973 -9.12738585869885 -13.4385955343145 0 0
195.932922780832 10.1789022209239 13.6076475101829 0 0
-55.7309300246949 -13.1616495723048 4.77512741673689 0 0
175.719361413362 -8.39229838297918 21.1189822197206 0 0
192.233701486474 -25.4469791766452 7.50430461825457 0 0
190.736290292586 -13.1794152334985 11.439750767716 0 0
97.610470607605 2.32486912135089 20.6172196364361 0 0
96.6577346627362 -7.57301160089128 20.4947679852526 0 0
176.405988695133 33.2011454337778 -25.7967052667217 0 0
-23.5738941867727 5.12450074047305 -0.26937005718782 0 0
180.373081874126 13.9279538106677 -14.2038843356857 0 0
131.687181813611 -17.0918332716778 -3.35373834407035 0 0
38.5483869798972 -9.90474490166048 20.4562225857481 0 0
-12.4660543410228 5.26120231724429 21.7648356405993 0 0
144.050998879396 -5.98184233563405 18.8038147313266 0 0
191.606435329083 -27.4747854622959 -1.26873508984603 0 0
-110.531085729542 6.74590317412219 6.37038569125808 0 0
-39.1618420270307 4.40973712107762 20.9026993776119 0 0
181.993749700045 17.6894818454318 -26.5651720419782 0 0
147.688524314811 22.9740192772955 3.13784219184017 0 0
34.7112298127342 -0.162617893460061 -3.62377526816553 0 0
174.934390117175 9.56191232203094 -12.9313849584916 0 0
141.799227887219 16.2332817119255 -1.79868735780127 0 0
185.766189593793 4.74184490732171 -5.9874931214711 0 0
160.051568472792 21.1907707730277 -10.1197482112052 0 0
-125.340644425421 -18.6270708603797 -1.40103088697079 1 0
155.900251087634 17.2573606309047 -9.69533321305843 0 0
173.702398339948 -23.2659066667226 -30.7089167130582 0 0
27.9009741109303 3.72047561243664 22.2669558742894 0 0
182.618215609522 -15.1813670880031 20.6213806893655 0 0
65.2434147439768 -0.937908812379673 22.3852167465826 0 0
141.020409063815 18.6728108730461 7.51678591253345 0 0
95.0046225692651 -15.2037915635078 6.35416031865385 0 0
172.426241385439 -29.9324255784713 -0.641652840683013 0 0
79.5288716168338 3.5383162558334 -1.8942250389733 0 0
178.318482615125 -23.8714040166239 -31.8526589445372 0 0
184.075824499242 13.8374351758002 -14.7384031193694 0 0
-5.59430103518461 8.01581843323328 8.68210829930002 0 0
118.722033696443 -15.1065721041376 -4.07714365813153 0 0
194.431687107423 -27.6457785802465 -21.4944030628565 0 0
-121.406145889954 6.82654435166244 -4.58156404830601 0 0
170.801106093002 32.8024091435062 -20.0380498042201 0 0
145.478959270441 21.8686737359263 0.401394289671939 0 0
145.307465214705 10.1801105387953 17.0748407133331 0 0
161.130200992466 -15.8462874876516 -24.9768222907482 0 0
187.908712900464 -2.88198468955883 13.8452296146898 0 0
-85.6812783430244 7.32365947808113 2.7528043387499 0 0
181.661896677818 4.07382263323758 -7.96767475905491 0 0
112.198725967061 13.5595142512354 2.895430073261 0 0
187.541672683072 14.0248169261519 -14.0938102648941 0 0
194.747089990907 -20.3635911578564 5.2658190342277 0 0
-80.8987558956815 6.63512093200559 0.634485985437595 0 0
159.49145437463 -15.1830969901705 -21.9136610252002 0 0
-109.087441326787 -7.3219839615503 -11.417897206679 0 0
177.461550156958 -29.5031503623894 4.50825189870224 0 0
70.1258703412405 -8.23772725897839 20.7735467038325 0 0
180.777613613182 15.5636702504611 -17.7478354570399 0 0
-111.984069247087 3.71108130617383 11.0219893081016 0 0
173.530252306214 21.1243839495882 -25.4204941934095 0 0
83.6345720214026 12.4692373490571 9.93025410824476 0 0
-27.8360974261484 -11.0417917035986 20.0193117541412 0 0
66.9750924517604 -9.0322968681879 -0.997826194437007 0 0
152.636252292179 -21.8971061524917 -9.76144082720042 0 0
-115.658701717704 7.87747051646287 -3.26400832771538 0 0
13.5006830926486 -4.78737775994072 0.941936746849881 0 0
174.662724633391 -22.5760301067344 -32.831611570728 0 0
189.308597072041 29.4547121457242 7.07557222822683 0 0
184.870766705331 29.6205457841419 -28.8691091563227 0 0
96.5582301863067 -5.32707918710359 -5.91720136449364 0 0
103.325089581801 -9.84368586584841 -6.05278747777451 0 0
-107.555525230899 -2.84752979353568 -9.5162325758634 0 0
85.545322542312 -11.2751469915986 -2.3960852880801 0 0
17.1490489775438 -1.71457581641177 -2.09145845488623 0 0
130.788523266567 13.5273461601312 12.8882887930108 0 0
155.086097435695 24.0210862206272 6.66772611692849 0 0
161.19660326604 21.1060449142275 13.5942689681817 0 0
171.86505327511 13.8265720076852 -14.4058857661132 0 0
187.547707141594 7.31055543954445 22.7266480454719 0 0
44.2756531700137 -7.05059276668232 22.1455913642721 0 0
-9.3287028250946 -13.2509296923172 9.91119962782905 0 0
173.559253045848 2.39197019735179 22.5844599938129 0 0
1.05099885840297 -2.34839584910139 -0.98034400689094 0 0
-59.0072367211175 6.82425384799214 15.5580343399823 0 0
-81.7793362947904 0.927322480427733 17.9522334500426 0 0
193.384267069396 3.32787769488752 8.68279945913922 0 0
-102.006553721313 2.74871231470454 13.6746159016938 0 0
155.461614106313 -22.1307218019978 -2.00211059089375 0 0
111.953158916872 11.0460138258617 0.928056112448816 0 0
170.524802478545 1.38555028180162 -14.491364674589 0 0
166.568694707691 6.38056139281331 22.5176173027175 0 0
183.694971392489 38.4131946982747 -12.430093010495 0 0
164.977598936125 36.4035674507621 -5.6493764245637 0 0
-85.0491725084388 -4.95044732865977 18.1935652815687 0 0
-118.294820225614 5.75322626159131 7.11170049467277 0 0
154.754752357488 -18.9943503983986 -15.8527358165793 0 0
-74.072465472807 4.88932522585874 -3.02963743413777 0 0
-103.088601366965 -13.0485461204189 -7.53879603828258 0 0
162.978028234727 -9.38368142952894 -28.931499434923 0 0
189.968897583518 -1.44223146466409 11.0101228372133 0 0
13.2020388692046 9.11922297782438 17.7192797344755 0 0
-35.3156224833475 8.29979244579918 14.9433668670644 0 0
179.894458638702 11.3952263891269 24.169382963413 0 0
154.310036933409 13.8049761966756 -8.99272926403122 0 0
99.6241130146673 -4.67357838109499 21.1463834533193 0 0
131.737380594476 17.6922112296961 3.66806602268819 0 0
172.980596625556 -29.5319882900547 3.68403103139681 0 0
191.803969694959 -23.9459971877938 10.8592894334112 0 0
179.841394239524 9.3056995923965 -10.9300274847818 0 0
89.1856269441915 4.01188165896099 -1.90412312956609 0 0
-13.1043967739169 -11.4362165548135 6.82944922875709 0 0
-57.2566772422418 -0.228424140746622 -4.87043663702342 0 0
-9.51109759853552 8.53771348619127 10.8946063108235 0 0
142.345235996342 -0.336294145549874 19.6901712473609 0 0
-90.1303684754674 0.316748043819621 16.8169856619712 0 0
154.395573526588 17.1072519339556 -8.78709782142919 0 0
138.130355548059 -12.9868095502966 16.9924930871246 0 0
-49.8321065137027 -14.4440401365069 7.94759182171599 0 0
-104.225437771968 -10.5130689501196 -11.703303203646 0 0
194.925041703235 -20.9951748368013 -25.3129785935999 0 0
158.007262036893 -11.7225046967034 18.8934905783421 0 0
197.238002844195 32.5601129420287 -3.23466186057474 0 0
81.2325508018639 -12.4162339783047 16.6693909657581 0 0
93.5184468221732 -14.73219597206 2.45379900406166 0 0
165.865096172983 19.7610893888776 -14.9074913932552 0 0
182.549532124012 22.3246086889966 -29.0069307368005 0 0
159.729806036349 23.8159138911732 10.1571873410502 0 0
114.535521505557 4.66426901608441 19.3451315105432 0 0
169.033217912543 -18.5002601560066 22.3679675736339 0 0
-59.424651854977 5.2784027799099 -3.21087873362895 0 0
-18.660230070661 2.46788057267826 -3.98958822104241 0 0
-93.3423157506898 -0.840621627766342 16.6003392651157 0 0
132.064747349425 15.9909423805459 9.67862017811229 0 0
200.839620992187 17.3852485164013 3.32286145328049 0 0
185.18755842832 -10.930050668544 -34.58683097847 0 0
-41.7748204508386 -7.1032060312644 21.4511060665594 0 0
175.686707886611 -26.8126322947676 19.6253364482551 0 0
162.84031238972 10.5349176371864 21.2567911535213 0 0
-87.3293532541939 3.99970458376488 -5.66061923638422 0 0
133.999243508752 6.7437940078068 18.3610618218035 0 0
200.117641168445 26.8649257421202 4.60858475676083 0 0
60.1496353601044 -13.1170938684064 15.4031240978655 0 0
-60.5381768229825 5.10125162750445 -1.83618083001527 0 0
-42.442680848156 7.08409618021806 17.805971483307 0 0
57.0560038226881 9.15254427550956 6.63367812192162 0 0
167.210213878426 22.8318660807865 15.2897437293802 0 0
73.318716782631 7.14288587683136 19.4586791844759 0 0
151.722885162585 15.8539760908126 13.9945383610236 0 0
-6.83703611683985 9.11234198154314 16.1531000249349 0 0
174.760146961594 39.7626378920151 -2.6644760222021 0 0
194.230816846 -22.4726944196734 5.64860555354677 0 0
183.910572368225 -8.06691191308868 17.6114465304511 0 0
92.5474438714582 -14.1400720313962 0.823893998745238 0 0
-61.838250531141 -10.8047389063883 0.677943663441464 0 0
184.028142966065 28.9758302488061 11.1791475828619 0 0
-40.357326691444 -14.0502593312898 8.42211976106792 0 0
172.822987553887 -30.3584760780947 -3.38440696469911 0 0
-48.3727278322428 5.22558341460309 19.5638048331 0 0
-44.2897280147207 -9.7648597443097 2.67389431996576 0 0
-104.180216189541 -7.18735867729124 -12.3539372328364 0 0
174.667901864687 19.2076751081045 19.9845571071223 0 0
170.176220228949 37.330081270453 2.68976129709306 0 0
167.576832880414 -31.6594173809611 -19.6916139537647 0 0
169.85398828778 40.3188825072803 -7.4434365970178 0 0
101.098027492145 -6.21565158586378 -6.52905385291099 0 0
93.7350858520449 3.25824351630654 -2.53078372436935 0 0
107.175047794707 11.7031963111044 1.96399412380843 0 0
156.172744654987 -20.5089733988406 -15.2607090221598 0 0
184.281482935718 -1.20586084730862 -9.71813021654889 0 0
183.120392932312 -1.85911571437858 18.9183578819074 0 0
95.1363992504206 -14.5511431528412 1.31821149105436 0 0
-1.78094968872742 7.95650612100774 8.37836629770983 0 0
120.067089520137 -12.5367439835338 -7.57986064525388 0 0
25.1819070774247 9.55678592698665 12.0693499585161 0 0
-30.7464395945453 -0.0973253226149321 -4.79493282379381 0 0
158.12261484728 -1.29402192738418 -12.8313448730723 0 0
-115.147166902762 -14.2350920625475 -8.26121723897653 0 0
167.56949833908 -7.76997160409698 -31.7233866406326 0 0
176.436873273028 38.1465059475532 2.48883330481777 0 0
183.327754315947 8.68541237246423 24.9611233181976 0 0
-72.6484912602453 6.12205976661791 14.8031972597869 0 0
151.819938076635 -6.58035440036391 -12.9837291949076 0 0
200.889720099965 31.2776010798271 -8.3822323627757 0 0
-15.4921070539619 8.08521403847755 9.26429564104726 0 0
199.489617782199 13.3781526451108 -5.00947158924932 0 0
191.210261880703 -29.3300989747519 -13.4160789637898 0 0
158.923872496973 21.816193298757 11.5877552548798 0 0
-33.1920844209446 5.91192553837341 20.1974640016336 0 0
105.314991683699 -5.82587682486783 -6.35727074388405 0 0
116.641289891111 -16.4935263260896 2.33739150999909 0 0
162.834236484862 19.4457150726805 -11.8211801818436 0 0
125.043499419741 -13.7928522921903 -8.05807432992683 0 0
180.844784176558 -29.6173169143849 1.8971502722053 0 0
179.167449812008 5.05300193751251 -10.3234980650743 0 0
186.742697256166 -28.8724338387795 -0.25729009624552 0 0
-110.232318246334 -16.1718975515315 8.77551991591961 0 0
29.0784501887915 9.80891255533341 12.7320671550367 0 0
21.1279604321376 4.43750926282866 22.2209508165548 0 0
172.85758673275 37.5946408776373 3.14165560215291 0 0
175.355894093566 17.5233592138267 -20.0365256334622 0 0
-76.5083026168272 5.19804828106849 -4.85681273475913 0 0
192.984539066092 -29.3997954137254 -17.2642990638306 0 0
126.774045907867 16.0257362004283 2.62045530929622 0 0
-123.865178481806 2.05051683846207 10.6345874930916 1 0
191.505269942212 37.8848013632198 -21.8830349377821 0 0
160.055288646837 28.4044320689355 5.24992630279496 0 0
142.051523748465 15.9461350587089 11.6251803216102 0 0
72.843762902815 -6.32827343677614 21.6429740079771 0 0
184.334968217617 7.35067214406206 24.3093279517164 0 0
193.427403171207 -23.2637598944516 7.47807592098814 0 0
14.1488294699501 -0.46307404828993 23.2719000873164 0 0
164.214541424322 16.1568060822067 -10.9125905474599 0 0
1.22909966945117 -4.879289378166 1.08007362787538 0 0
156.66880274501 -22.6843652605828 5.68875913911412 0 0
180.178085489803 32.9328231002993 -27.528535179192 0 0
104.269158551935 -15.6627872677624 5.47214107052556 0 0
178.601327115978 -30.4645007164966 -3.41660865592791 0 0
-86.6450663105992 -16.1020282293985 7.70752045523044 0 0
182.060503328747 -24.9439429182267 -27.4170672760605 0 0
12.9964395897088 5.99719524893423 2.70908651334373 0 0
53.8610148502218 7.27453429516802 19.9455562917197 0 0
158.492937315586 22.659457585925 10.5535627976196 0 0
-6.92866141936413 -3.45025205269579 -0.0908156792539784 0 0
-12.6488360991266 -13.8121215348084 16.4034418946894 0 0
189.749553630114 38.7860368044353 -16.2752865789539 0 0
171.765736150176 17.4549503546893 -21.5250813960037 0 0
169.641695783234 -28.7316698831708 4.75543451707811 0 0
172.317927614739 -26.0842131669768 20.5923009729413 0 0
82.7430411765692 -0.135292216048404 -3.669137720661 0 0
-45.0009717378752 4.05605423658493 20.7179037752046 0 0
-94.4759923947671 -5.0845463988912 16.7163351233969 0 0
-64.2784792056518 -15.4172192410162 8.03869660914807 0 0
67.4459569654489 -1.2354475085209 -3.81140794781044 0 0
-92.5644198817905 -14.3149091007184 -3.63994309979953 0 0
23.2626420145538 6.35444730076768 3.81391660890318 0 0
169.003802382705 38.6573595413112 -10.6676041596165 0 0
146.450454384563 -13.2987838618106 17.3576007128527 0 0
173.936986548701 12.5695387870189 -13.826996850822 0 0
118.416374452241 3.81426958664564 19.5380831233157 0 0
169.519007158867 30.8058818343647 9.55421024868831 0 0
157.834712350513 -0.187850463865598 -11.2611489235143 0 0
202.230196011415 22.7172819683343 -2.66093003769553 0 0
-124.720763241408 0.11457539866878 -12.3162832167839 1 0
140.786067533664 -8.56275546586914 -10.8332902413385 0 0
167.824513212306 18.7087898223083 -19.6054293077127 0 0
96.4599156033998 13.0034238356548 5.67635663517311 0 0
148.581712901824 -9.63504573851116 18.7137400679673 0 0
173.807863667291 -27.030723463851 13.7033653877739 0 0
165.061733409413 -5.18605008523781 -27.3371907148312 0 0
197.908342501749 15.28660268101 11.4054489745617 0 0
152.007284819437 -7.67179367232759 18.649015968494 0 0
160.757638290306 -2.50354398875306 -15.0531160710646 0 0
139.812766439022 -9.39562639173726 18.535265286886 0 0
104.279911875525 -15.3950761951776 2.00157125051212 0 0
173.449136305727 -19.5020784977236 23.3048057897972 0 0
167.344814782502 10.8130381633871 -12.9717041799024 0 0
-105.525668827867 -12.7422316086456 -8.17175800787365 0 0
-117.843669417976 -16.0699538904453 8.80252353290507 0 0
99.1857279385992 9.58803571877734 16.5399093849856 0 0
-59.1661420447885 -13.7222869245298 5.08337586953688 0 0
176.086992946852 0.16442606698202 -15.3100350558606 0 0
188.655518575734 -26.145060303035 -32.0860741381353 0 0
165.707658791206 -2.05565109348396 -19.1004349173902 0 0
100.906264451048 10.3145873044252 15.6747502007481 0 0
21.3791754058641 -13.5261958214036 15.4864302601622 0 0
147.09598407416 1.32128470229581 -7.2702553261276 0 0
125.597405104038 9.71049966954262 16.4716272239925 0 0
-50.0826728313422 -9.96109461525539 1.99603297367205 0 0
166.357218686054 -29.3083283749365 -13.4081144429698 0 0
163.306919365043 35.2181471075002 -6.09769620971038 0 0
34.3671164528653 5.63768145528462 21.4225489216353 0 0
172.534977439264 17.0271276600458 -17.9445362638712 0 0
175.435444106938 6.0837137261168 24.6804190410712 0 0
132.43459488343 16.4501113465936 1.06929741296367 0 0
71.5396870618633 -10.1746047295528 19.2717670295909 0 0
164.846444019513 14.7082907385835 20.4886524859565 0 0
-113.397503689324 7.42613653404841 3.48391993273116 0 0
186.76524076125 33.1461834498796 4.80615298647869 0 0
157.31321966417 27.3085914559311 -4.37923453114566 0 0
151.397967366076 9.79121122755714 18.2886358328269 0 0
13.3322738587958 -12.2288108826489 7.97859847974544 0 0
64.9095960429782 -14.1487652464435 8.91701180388058 0 0
-89.2093002524924 -7.34461127169702 -9.22562323025772 0 0
194.692690867312 -27.9514773665682 -19.6911100366948 0 0
194.54920440303 28.5515762511941 -24.6318496815256 0 0
156.928728214201 28.0731690863461 -3.24490100751716 0 0
123.128596791562 14.2551531521207 11.0586582272509 0 0
28.3432331366263 3.22150085429044 -3.08042119065143 0 0
100.193409927166 2.73073081479125 -3.01368022181542 0 0
160.157327529934 -5.15314480063833 -16.3441582084563 0 0
131.808698463728 -7.12889963102566 19.3892374105821 0 0
155.800065002249 25.4294927911942 5.30974150770967 0 0
-61.6765078920556 2.24096918006538 -5.41193938235311 0 0
172.136389868064 -20.4440085245212 -34.11621574511 0 0
-90.6088823679286 5.13708836820112 -3.4750095301897 0 0
159.343553250667 25.4418664564464 -7.7124106088959 0 0
-124.572197953953 -13.6368506340419 -12.9196116065537 1 0
11.1343963521294 9.45228715548313 16.0004661648884 0 0
131.553412176478 -16.012428212781 -6.40622040459331 0 0
196.898565453761 15.3619178406671 15.1523737665744 0 0
109.850221464458 -15.1058979142572 11.5410024258171 0 0
-120.841690881609 -4.90704784656725 -11.7182675035321 0 0
7.415795662722 9.32280272732445 13.4060805993892 0 0
77.6128511071176 -8.30506708585142 20.5872784915968 0 0
192.66889675014 14.2148701705317 18.6123075528623 0 0
185.898226636923 39.8774484738889 -19.0751597886982 0 0
-42.6111062313563 7.55455979676957 5.96717889895598 0 0
89.0196213961874 -12.5813943107821 16.2285371328938 0 0
107.277660007387 -5.16188826108361 20.7735064215706 0 0
-126.850034297849 -17.7397231157989 5.35995307101161 1 0
193.111000469888 -28.9109711300087 -22.1344115504933 0 0
-111.081975094584 -13.6035388561632 -8.08202099417399 0 0
187.235087511356 -3.16888185542199 -22.8076561272723 0 0
-124.932276279557 1.8500709746803 -11.5987726708125 1 0
160.563366271285 25.8827278962809 -8.09890820330946 0 0
79.0227753896062 6.63008201682704 1.12442576640404 0 0
144.068571437574 5.85715498427488 18.991403333984 0 0
121.434998469432 -16.8316925094256 4.47812410564154 0 0
-116.95506235398 -17.858628009424 -1.88769311990794 0 0
153.912104056594 -7.41921387568804 -13.8198735868558 0 0
136.416870157054 16.3185584216377 9.93667757239733 0 0
-79.6307215655839 -10.0383004003721 -5.38304520939872 0 0
26.5791119007176 6.09426580233503 3.22751058501093 0 0
194.103983908149 -27.5950225880008 -9.81054630265995 0 0
-6.51728674536052 -8.25775975377582 22.0943736329866 0 0
146.736514264014 21.8796023777969 4.49069314568781 0 0
179.019360167852 5.99308296433082 -9.55506372032726 0 0
-64.7115827716501 -10.4639727880206 18.422016472194 0 0
-81.5714627680427 -4.0447851629266 -7.27674652604963 0 0
184.046051607848 -27.5035505029849 -22.594568925354 0 0
