"x" "y" "z" "f" "a"
-202.686071793019 -38.1785242884682 5.40029047052256 0 0
-172.507938214284 14.487137301677 13.3087035084524 0 0
-184.825177265413 -5.7276855308565 7.28258372114962 0 0
-143.172808587437 11.4314826170846 27.3640929766911 0 0
-33.489003119566 2.60691434689167 -0.631240728474636 0 0
-195.839254440966 -21.5079353675603 18.0800197025281 0 0
-178.94426075547 -43.472934612376 14.9060359665155 0 0
-94.1144032751612 2.54122818257293 5.61181873024178 0 0
-97.2083910328922 -3.3472359801829 -1.85442966863452 0 0
-176.234696862015 -15.6101652885385 13.6420992034257 0 0
-183.26390840982 24.7291767106475 24.1225121661723 0 0
-168.282426920574 28.0824930998877 -10.800201775807 0 0
-28.2999520925004 3.36662895620255 -23.457482058743 0 0
-77.0803604142671 12.498898947761 7.08141016775284 0 0
-151.705167887643 7.73346423150576 26.7241325596564 0 0
-79.7177111319825 14.4852650835642 -13.7009191689018 0 0
-36.8067601685735 -6.76657861607673 -15.2807241046044 0 0
-145.403224925035 -6.84398014924228 8.77910830435846 0 0
-63.6941202998986 14.1180956433992 4.7156257197437 0 0
-154.096471841863 12.5402409811092 -7.84272929898601 0 0
-188.284955939188 -37.2494345799207 19.0500177569709 0 0
-176.351052895422 31.5647947140714 -5.9252734919957 0 0
-157.683473138421 28.0286386041528 -9.94623287457341 0 0
-60.5014256427118 11.4534861902792 4.66970169378411 0 0
-126.441489383092 -1.9085801802416 5.12347797615896 0 0
-82.288483581451 23.596086190673 0.924734591000788 0 0
-22.1958575417084 2.18790980813024 -23.7512467299022 0 0
-165.158038461249 -31.577880690863 2.15975612105525 0 0
-181.106927927665 -6.97651865475438 -17.4489450125687 0 0
-50.1665209470413 10.7893002413379 3.36720696952671 0 0
-47.5723015695506 12.6017655582806 0.559777330216991 0 0
-197.992115295955 -9.06163343752278 -11.0311538261368 0 0
-165.510126531352 -24.3061213670595 -13.0403447405718 0 0
-166.312492274447 39.6104453259529 2.36908718469846 0 0
-203.21446526272 -12.7451927820072 -2.79853249652012 0 0
-204.213017719576 -36.5104587366173 3.54693138856752 0 0
-185.995966065434 -15.7335556716708 17.5260239519474 0 0
-176.521289974022 -15.4765563202412 -22.6302817858295 0 0
-73.4699861734775 7.41243154794442 5.01674780806836 0 0
-201.598807144871 -41.3966478897096 -5.86116392850937 0 0
-168.426341852013 29.3639530710009 23.2611364797371 0 0
-188.152182874416 -25.0634944143756 21.7073164465352 0 0
-165.029292204657 -28.5839899039435 -13.7879878264698 0 0
-165.215414946695 20.7657448673076 -10.6084982450711 0 0
-157.001533157802 39.3901681192983 3.56629994348598 0 0
-185.493680859902 16.2894064310955 -9.85144229115152 0 0
-171.582550970499 -42.8820603866084 12.0723663318122 0 0
-175.323601940031 -2.7815118588932 12.5447597509492 0 0
-58.857667086363 -6.00488190872854 -7.87125285216384 0 0
-173.959830203725 -9.44173292241282 12.4645793578707 0 0
-144.400336712783 -1.02453451780435 29.3903794405325 0 0
-107.180478116342 10.0843351938687 11.3418589265312 0 0
-158.786395713855 8.44006232915016 18.9636063246196 0 0
-170.653261937147 -13.0285275194 11.5327761036707 0 0
-5.21900664381681 8.97723623238173 -24.9378320194808 0 0
-170.869426756225 23.1878762603237 -13.222162732982 0 0
-34.4514887070298 5.50845439826868 1.97836058471942 0 0
-207.094368491 -29.5279330862752 -1.43208767139773 0 0
-155.381059618329 -5.46412163208157 13.6622599925495 0 0
-155.701397884495 7.82521097229172 -8.22575159661521 0 0
-117.131736813928 24.9331683778721 12.5675173267443 0 0
-131.175424790119 -1.97847137073181 6.62718324893389 0 0
-25.501137793246 12.2768936866121 -4.01933499593355 0 0
-195.737397791783 -12.4953668725945 -17.9207614567157 0 0
-62.9671134207072 20.628601385525 -8.64603673805142 0 0
-174.541274695639 -2.29743446248271 -14.3013398103721 0 0
-182.415583285413 5.24748377641983 -5.76449022669723 0 0
-186.895509442025 -26.1380628331632 21.9693294595175 0 0
-185.47907708641 -3.77515882744369 -12.8426990432841 0 0
-99.133646594661 6.29627991436563 -11.296918224102 0 0
-82.522715214596 18.4053892871851 -10.4138666636559 0 0
-63.6366530581432 -5.07197578622325 -10.9221475581278 0 0
-166.578879160892 -30.2926776204762 -16.7657309955855 0 0
-182.273375194365 2.83263120577603 2.04982924188049 0 0
-157.56252924898 33.9153960704112 -8.8102500715424 0 0
-163.259456116486 -12.3898006122613 -8.50896665282682 0 0
-141.244165265957 -5.34673286315369 6.35047070257161 0 0
-181.134404391123 15.8047693347312 9.76738134510478 0 0
-6.68369324669661 4.32227556236584 1.03021270812424 0 0
-106.377880627213 10.1334744628643 -10.044034319498 0 0
-48.8193754786541 8.59881714177467 3.62895990212208 0 0
-201.380255528892 -16.1571079778736 10.4509227677497 0 0
-179.90899196472 24.4524095997662 -10.1529277197718 0 0
-169.072722979217 -16.7063726510122 10.436642600478 0 0
-183.151303164178 -4.89371287152819 -15.3067687276827 0 0
-53.1816658244153 -6.37732427198315 -8.63010581318127 0 0
-197.408676948017 -10.649733889771 7.38998758849676 0 0
-76.1815878176123 20.7644354204634 2.89494182815223 0 0
-191.743258761632 -47.2534743010516 2.39657623751412 0 0
-124.879436554183 -2.73107587335436 -5.05279331941146 0 0
-159.996936973548 36.0427109633428 -7.52425903725669 0 0
-25.7153539107549 10.2678632690058 -1.71303176323316 0 0
-119.159809886819 7.03154064013224 -7.87358545485073 0 0
-112.729238052432 26.3271960525463 0.529302534327558 0 0
-50.10236838046 19.1481226547354 -10.2261492580335 0 0
-23.4872730818376 -7.87983033433426 -16.3093825883272 0 0
-165.859215840642 21.7120844719667 27.9232315992303 0 0
-43.5218501601063 11.1698132773092 1.27524246027284 0 0
-179.266126546041 1.32145372715338 -12.2798530398881 0 0
-153.07221749837 27.9184581471497 -7.52406072215963 0 0
-28.9939778014312 13.2227933272088 -4.42149120491959 0 0
-198.131315371882 -9.50355104971574 1.15249792405963 0 0
-184.696370020148 15.1039043576735 -10.4134164804639 0 0
-178.085509147087 14.7488517593105 20.0273423504231 0 0
-156.701988478789 -2.46239840590568 14.8818993625005 0 0
-189.333169215163 -25.9890873799376 -25.5998551562633 0 0
-177.182031788039 16.4689177100586 -15.7684714710684 0 0
-162.937831341298 -16.6215715046913 -7.08054388213059 0 0
-77.1158867562977 -2.36044834694313 -0.549543008029089 0 0
-83.3768845649753 21.9267069375309 -6.68097323271723 0 0
-141.465347257566 -9.45995050501555 20.2306493037861 0 0
-174.400578428574 -3.75172379607265 12.474461422823 0 0
-173.253697959891 -30.7734216265589 15.5518265073385 0 0
-120.828234413239 3.92626162162112 12.7054675801865 0 0
-168.297437014035 13.9970911616765 23.706222838883 0 0
-188.526874476404 -7.66156032969359 2.98629808804305 0 0
-77.4211028808412 14.657274226328 8.20201659802619 0 0
-195.872373509779 -25.8731296618516 18.6962124501169 0 0
-1.47356000278979 7.55208649500741 -1.89396999829537 1 0
-58.0180988651165 6.70064934494424 3.24380019693608 0 0
-149.453588525652 1.17254340718258 24.1331498600377 0 0
-153.989089344615 24.5643238014424 -7.71449178862894 0 0
-156.666968826861 -10.1019619084551 -6.03644179029669 0 0
-176.435171720863 -13.7605532964512 13.3878318435156 0 0
-195.502904618042 -44.4285231919947 7.88359931176514 0 0
-172.958588862488 31.7443026441728 20.7096395643486 0 0
-109.077600165041 20.3382848330246 -5.93390389112968 0 0
-114.401482478336 7.28917169049007 12.3817127081406 0 0
-72.3367032761491 -3.30235594186112 -1.79832379373952 0 0
-196.976590511538 -9.88341618245348 5.95191266482353 0 0
-121.703759184383 26.7072458467413 10.4232183460311 0 0
-168.765464919787 19.6794966765827 -12.0479039005099 0 0
-132.357203564829 3.90937349390634 27.8021625625581 0 0
-171.986948494848 -12.5827232377319 -17.327552366903 0 0
-173.164032917761 37.3884926365391 12.3319117186682 0 0
-182.496756781306 19.5137350401503 26.1115659019904 0 0
-33.160329401253 0.335045528301824 -2.01221466154765 0 0
-197.464134655773 -45.0118662536036 -0.994313095701489 0 0
-64.8443535044482 12.8171052140014 -17.1730067831987 0 0
-169.826998592525 9.52855490021699 13.4439198517878 0 0
-169.2589366713 -11.9889479590441 -12.7061017911088 0 0
-175.302010007639 9.8739688779208 8.65227654966409 0 0
-99.2753438819557 -3.35566322340163 -7.2290764116642 0 0
-177.87827955259 27.316533314795 24.4943103751085 0 0
-187.162371573872 -18.8278515177212 -24.8623796679223 0 0
-131.237608359585 1.97201549693015 -7.28048881032524 0 0
-119.216358465539 12.968301915741 15.9821995390039 0 0
-180.518884878039 11.6776812087235 3.01394525945189 0 0
-151.294116183291 36.6776102188717 9.45778266533992 0 0
-171.038099796261 28.7597796658326 23.6039250972403 0 0
-190.766284111368 -44.3286459546094 12.0024960735636 0 0
-147.279933416865 -6.19398750565479 23.3056921677941 0 0
-181.048212785936 33.4419667824709 -0.2644347682594 0 0
-195.592703290069 -7.59101708292848 -0.447224564366494 0 0
-176.204394984602 3.31605282553065 -13.138147548559 0 0
-48.7789319135748 17.6031265888619 -14.3755923025559 0 0
-64.6109763021398 17.7207425694579 1.84842337365383 0 0
-36.2220545614226 17.3673220493983 -8.64718382050927 0 0
-198.068508692562 -43.5551748702103 -9.7215335999707 0 0
-31.2365775213388 7.52771017402699 2.59206825133847 0 0
-71.801027538844 11.4745265793432 -16.6079713464521 0 0
-162.783595739819 -2.16861289093285 -9.05801370175175 0 0
-135.499237956027 13.9294671952851 23.4093131900195 0 0
-184.094347690229 25.8250168157346 -6.27488694091561 0 0
-98.0325878109232 2.74022896935901 -10.9003356151047 0 0
-184.911755339503 16.0906983165643 -0.180463214918586 0 0
-130.248003867921 28.6044436722647 11.3756143916032 0 0
-165.508835893785 28.1623504867652 -11.0888797603365 0 0
-172.950262046242 29.6001060324699 22.7942590694777 0 0
-178.793536760155 -35.3832881946992 20.3337663847712 0 0
-12.0155160594579 -7.57273337493729 -18.766543150408 0 0
-177.172549922301 14.7010599284831 12.8425148982873 0 0
-195.917243080495 -33.4761138675736 -21.5649125320835 0 0
-187.077862659138 18.9563496283744 1.68273070686554 0 0
-19.1983159417779 -2.75467793272846 -4.65396395662291 0 0
-189.98762111676 -12.5018577631147 -21.1533869003427 0 0
-152.500381914244 9.15402294644595 -7.11900079429934 0 0
-136.994965035913 6.60329483110668 28.1219885781905 0 0
-171.442368090726 -25.2137454094989 -22.7843373284301 0 0
-205.194166662909 -18.414363686152 -8.22264780700665 0 0
-93.7366430209214 13.8086321668955 -11.6322490032428 0 0
-48.0987235857075 17.382817581037 -3.34619096296695 0 0
-191.234890227534 -36.3945612195372 -22.9063088290321 0 0
-153.769532469892 -10.9276543878704 6.6316828907921 0 0
-16.2118546956358 -7.65748996048393 -9.64232744630573 0 0
-148.790063803541 -8.52576236698885 6.79542816460745 0 0
-145.862711744967 -7.54046848168229 22.95368566113 0 0
-78.4052896803895 17.144798018702 7.70321361206554 0 0
-173.363937517226 -18.1349360069482 12.4228355818087 0 0
-135.603773015364 -5.94251318686231 1.09841474047281 0 0
-201.020099232673 -10.0797225805677 -1.51306218768564 0 0
-177.511203537198 34.8204156726431 15.6606198724968 0 0
-101.540408485391 25.0955031908806 -1.75050507083139 0 0
-76.7857339396122 17.7231222016387 6.7245417746649 0 0
-29.4301931034461 -7.227230357467 -16.3627013593418 0 0
-109.265036878465 3.03428389198554 -9.29268316388869 0 0
-126.071045641915 21.4137322474522 17.5960152878118 0 0
-72.2195539772865 13.9558492856754 -15.2933763524329 0 0
-178.093828949453 14.1969384729008 11.3217729646036 0 0
-136.399309319033 -2.5108760398796 8.64907602283264 0 0
-143.330548754488 -0.537554584248667 29.965637585937 0 0
-155.097152289272 -3.47306104335558 14.7780090243462 0 0
-163.84920855733 6.67913131493044 -12.3304117983952 0 0
-167.959918105817 -28.6027784365172 7.42181490048084 0 0
-195.470169296717 -9.53776752726564 6.88252394914578 0 0
-108.446412213418 16.0080807941377 -8.40456335529419 0 0
-181.243344019453 -17.5881738473596 16.9921896896173 0 0
-165.54218946416 -42.1833482997193 0.0144651867395826 0 0
-157.435821414392 35.702584951624 15.788436085268 0 0
-118.808480949786 10.6702142812564 -7.86894774629452 0 0
-5.14781787653611 2.8948157348549 -25.2761388159311 0 0
-132.232221744736 -1.23296941796353 28.848938465075 0 0
-205.692656745887 -28.1041655036102 6.41331760188386 0 0
-6.00816072375583 15.2974276443311 -19.4258006787753 0 0
-153.342946332122 5.52463056836618 22.8375821509211 0 0
-91.7764092938302 21.4551999717751 -6.75036459900268 0 0
-183.054692774201 12.4632383890639 -6.10484759426203 0 0
-206.76475021376 -23.1293708790331 -6.35523045216657 0 0
-183.272664794806 -45.0505311009575 13.3343401350272 0 0
-24.9731495641065 17.1060721959229 -13.3133080578972 0 0
-160.999460919919 1.63114636756298 15.0438389444073 0 0
-174.903643674927 -0.643071535483911 -14.1042134407256 0 0
-183.947860155238 17.0525535843786 5.50659798264223 0 0
-203.685469233191 -13.4345322739911 -1.06759385591117 0 0
-166.598977491529 -20.6922094981278 -12.8295553146966 0 0
-206.971688138211 -29.0884738090871 0.967311847269581 0 0
-34.1077943294083 4.32764747406704 0.71324071070123 0 0
-185.700141506809 -36.1894747507319 -24.4967419208197 0 0
-179.897572767086 13.1444725664857 -12.0213821745577 0 0
-160.839119387566 36.1213295940846 14.836966685458 0 0
-167.217963247544 -0.83542352398124 12.9757250612664 0 0
-177.675418271858 23.0931851095876 25.9020349654818 0 0
-165.80235254658 -37.6924271410004 -13.4381604358376 0 0
-179.795261921851 12.5534010074899 4.95998064342376 0 0
-131.237498480178 15.3551592915479 -6.52890018463041 0 0
-96.105513255589 18.8150436763321 -8.32434194431766 0 0
-173.75219805295 37.855782697669 -0.866381591767586 0 0
-184.732163852053 30.8169195154757 4.28191843240994 0 0
-135.305241656447 -6.02726565299648 25.7721149066763 0 0
-68.5769640381295 0.342295834603867 0.95766702858472 0 0
-204.613382538086 -33.908931812095 -10.5576078270907 0 0
-164.462625577681 -27.3009496366754 -7.01443681592116 0 0
-28.0926047121626 5.60814600583563 1.74312063901248 0 0
-81.6587368970778 23.1814004021706 -4.69211273149008 0 0
-69.2357388759347 -1.58930495633575 -14.5348163715662 0 0
-92.9791576417567 9.33373808224461 -12.6217596811027 0 0
-181.741870488227 11.9806762324778 -7.63628986268077 0 0
-188.349476746056 22.242355798016 12.7055379933138 0 0
-192.794406193221 -47.4096641777793 1.32531307906599 0 0
-198.318723085288 -44.2660929993092 2.65822922388011 0 0
-158.729586989196 9.82091174812803 23.9071153597488 0 0
-129.382915243403 -0.335101302812154 9.64696068692952 0 0
-142.863549790074 2.51283062308328 29.7564425989309 0 0
-167.687083639799 23.7155673910226 26.8022822383722 0 0
-143.605061404407 -7.39679721909571 20.1241957470358 0 0
-182.946186488587 32.9715948062962 5.82430585535257 0 0
-184.612051117976 -4.46727963610071 5.22407129082011 0 0
-165.430945211488 11.2527094925298 18.3789505073237 0 0
-62.6764908507996 17.2218930003386 -13.8767021334138 0 0
-3.74034309152586 5.26619083569983 0.989554827405176 1 0
-165.454127284119 34.2370770122876 -6.16218705519123 0 0
-201.216875238441 -11.8518032822882 -9.56862543597837 0 0
-162.658509877205 36.0406654525662 -5.83020056521264 0 0
-170.190238932583 -24.3044368383026 -21.1331650746712 0 0
-37.3486619823588 5.44982463713994 -22.5830058966638 0 0
-47.7654827777833 4.59441263084618 1.2263857112485 0 0
-80.5266201366604 5.49782075442155 -15.3245422490633 0 0
-177.704853165669 -20.7140283362434 -25.0951815774449 0 0
-169.789354015819 -31.9657711657609 -21.4953726982271 0 0
-186.29294956488 17.201522776433 -0.259825117392584 0 0
-192.826245396638 -24.1150215120422 20.162476184251 0 0
-126.896112727775 15.2982617852015 -6.75802884531306 0 0
-7.14369975290251 -9.3661617720824 -15.439572618943 0 0
-132.108110849265 9.913418282757 24.2803089970125 0 0
-148.780931329014 -6.72774770349563 12.8837181965777 0 0
-181.669497204719 -41.3824453747193 17.1616687577237 0 0
-150.084894296511 -0.324477755016452 21.634374233603 0 0
-77.7095591979169 20.6238285331111 -8.62538859679631 0 0
-133.218818023788 -2.71190243942128 6.09856826256162 0 0
-141.602862264248 19.6663624484393 23.5855758932436 0 0
-59.2853274824401 -4.60638028032153 -13.2535739807139 0 0
-144.097898295117 2.15715002939326 29.4941605003298 0 0
-37.1850791921372 10.5803291178394 0.416254183298141 0 0
-187.51936386762 -18.9276148470562 20.325839533075 0 0
-167.685557119814 8.78744503883065 14.6402653834075 0 0
-153.874896271163 22.3299799351441 26.3031527371566 0 0
-167.426361066236 -23.290346388244 -16.9622625371647 0 0
-200.634232868056 -17.3862827041084 11.9979609233977 0 0
-139.677191155322 21.5157083236651 -5.74697423346334 0 0
-147.054366180754 -7.57441721573831 7.67132631985924 0 0
-170.579342750522 39.1625767805668 2.88457360731348 0 0
-179.677654560778 -2.44556015646874 -13.8723494681719 0 0
-99.9074907179655 19.2445759870269 -7.52202305001294 0 0
-95.7205032510121 -0.0447793979776979 -10.3610819234356 0 0
-176.916903152715 -29.9885082884545 19.6806605179336 0 0
-162.474609888927 -8.25360817071004 -8.29270519712441 0 0
-124.276993671902 2.85729302644241 -7.6531248034188 0 0
-163.397094201292 -9.27086535111885 -8.37143737687502 0 0
-158.186201600943 -11.6356935404113 -5.9436562521953 0 0
-7.75506501488027 -3.90953078882131 -5.81972019588577 0 0
-184.328416670322 -27.6853883934296 22.2533493085075 0 0
-152.623174090603 35.2449090666562 14.8401716993583 0 0
-134.369854243127 5.97304979953596 27.6573783483417 0 0
-194.548605111185 -14.6718395085938 -20.2098411743143 0 0
-180.549201998855 -11.7985999288021 14.1223420093498 0 0
-158.42456116492 -13.9141340313282 7.34666639904197 0 0
-154.17268058571 30.1168140034433 -8.0198483203422 0 0
-26.3422873572917 5.29210242573159 -23.763555414798 0 0
-132.460836913394 -0.142129932810212 -6.72439255405769 0 0
-128.957211922533 -1.2453635457537 7.21314610164203 0 0
-194.929762989064 -45.9552811528042 -0.638856925374173 0 0
-200.2053595214 -37.476988549587 -15.1416737504378 0 0
-122.452571488177 21.5114303705684 -4.6820447753824 0 0
-176.304868896005 -28.6928397945663 -25.4243260252452 0 0
-177.31625562656 -17.5556301048368 14.8015850634295 0 0
-181.503522242377 16.1558730030046 6.77995404697692 0 0
-163.991326188997 -10.9065839971968 11.1064271889749 0 0
-142.515033802138 -5.15835527142944 14.8034733324458 0 0
-185.559390608103 -47.4728488011264 1.83959869737805 0 0
-133.441127777358 16.2182226767103 -6.42358094858394 0 0
-191.379705226634 -12.6429751189198 14.8061816237215 0 0
-169.440277235505 -26.2392846585374 9.63814538768319 0 0
-169.551566571502 17.905878964698 -13.4354219120169 0 0
-33.7673388909567 -5.77304232132421 -6.60177512137219 0 0
-180.557836633029 13.2517160066125 3.99783640914996 0 0
-156.792656116388 35.0830436219054 -7.8901004689693 0 0
-155.22121181888 -7.5085835235548 12.5034652309788 0 0
-177.872325663994 35.1764676095104 1.0475436901714 0 0
-149.743305579402 6.36845328874497 27.5192735876756 0 0
-139.574259608729 -5.54477352293721 17.3850887336261 0 0
-115.824525145576 23.6228526937719 14.4932520452587 0 0
-36.263227610435 2.54371948011599 -0.476191178707809 0 0
-41.1523363590796 -5.53137423770037 -16.4339047124606 0 0
-145.024166465017 -7.29645840980613 -2.83212744524356 0 0
-150.951975812937 6.44830995672403 26.7573821661559 0 0
-5.86447941258483 9.97271170573524 -4.71978356785977 0 0
-179.594990193218 9.79268295007707 -11.3193779555919 0 0
-32.2017944969683 -4.57881262790295 -5.4251319571962 0 0
-56.0124392081391 -0.412750175402673 -18.2050307001244 0 0
-132.526639518223 12.2496774586087 -6.55263816180828 0 0
-202.362393305561 -13.5129279161922 -9.23071232270978 0 0
-179.049616466535 -49.030377571 -10.2329972796774 0 0
-182.602887217957 0.00932267997348137 -10.1257334607503 0 0
-185.031021263783 -7.5692914470192 11.4079267349356 0 0
-99.2944929510884 12.9626485860762 10.05467410149 0 0
-130.180846115586 19.7015357771319 -5.74672355852022 0 0
-166.417325340135 15.172045268319 -13.3937825230265 0 0
-205.521341329671 -35.411787099499 -2.01270180005691 0 0
-26.304153424531 9.25047382741746 0.480027901755713 0 0
-143.281227928848 24.2694891256542 -5.09125998881829 0 0
-181.358757627985 18.0037621189571 25.6147139867281 0 0
-147.632845922516 9.04835446666775 28.0755422757491 0 0
-125.720069913625 17.0175911721865 -6.44570488080093 0 0
-131.914867861647 1.57230678793397 28.4041589920668 0 0
-186.186789639789 24.0416197065519 -5.22451561915607 0 0
-134.185167610971 -5.65521628054746 20.41066722054 0 0
-178.02613591363 34.921899593546 4.14905742804386 0 0
-78.0546335077016 8.52794319860339 6.15367124630938 0 0
-10.0245562457515 -9.08252129213907 -16.0222222715032 0 0
-122.279393951338 18.8495419954271 -5.85990063236235 0 0
-164.124824349102 14.1126567408974 27.2832297399471 0 0
-204.310450778931 -16.2420995362045 -7.96271814113531 0 0
-202.693762641807 -36.4576649516678 -12.0273923388234 0 0
-187.407767264094 20.1872916694077 -6.0073969203632 0 0
-84.6522630081281 4.81905737195633 5.46791667543737 0 0
-116.135018659283 19.2896708826991 14.5175564568067 0 0
-152.356939097335 18.6198611267697 27.4942105959962 0 0
-145.409959407304 1.22501550802086 -6.8574034155142 0 0
-161.995612953297 -14.2341989974521 -7.15642818961383 0 0
-32.2510731829231 13.6398674770124 -20.3543090027004 0 0
-157.121158723219 -5.67995428821698 -6.83834376067726 0 0
-184.636074346175 -19.9960950959182 -25.5079005718027 0 0
-65.9741499952933 4.06587320077016 2.54500989203445 0 0
-29.8970476427067 -3.40420598555516 -4.55952084516133 0 0
-174.28434694195 -47.7747540660886 6.02897958498859 0 0
-147.244151819799 32.0600214809091 2.99829824386664 0 0
-152.821012082386 -11.6943292732578 4.43330756518844 0 0
-69.5284316016758 13.6131335134793 -15.9415153094976 0 0
-102.471874958944 -3.51224445638758 -5.39613025560969 0 0
-65.3069809269843 1.72646401620448 1.42734051158499 0 0
-203.439870243904 -27.5135803584587 11.0327685462604 0 0
-188.447618187185 -47.2874967555263 8.48573601350998 0 0
-187.452616257146 -7.33871099834757 -16.8444130315017 0 0
-100.463125810818 14.3843314012853 -10.2055707341832 0 0
-140.693001116277 -3.97839750072437 12.8295315484682 0 0
-73.7887565087546 -2.63316804800053 -12.3571404545992 0 0
-194.06551906345 -20.6357207510505 18.7186279828881 0 0
-199.294948717763 -28.2171587645181 15.9629546672389 0 0
-16.7413882558333 5.805751921593 1.11351387521004 0 0
-200.895321393617 -20.1855089966219 13.2348974017935 0 0
-173.224659490826 -44.9386267568765 10.5292196617876 0 0
-151.509154687802 -4.98534913970157 -6.52251349080063 0 0
-175.421113031927 29.5227600539899 22.7935372419271 0 0
-18.8922259499119 -7.73070734334738 -17.4385641693672 0 0
-52.2252253627675 -4.90516982776538 -14.5693663311421 0 0
-164.619668543812 0.0764653588485625 13.6245064484316 0 0
-177.009796958324 -41.3091135741515 16.6174530152942 0 0
-160.006587248539 -11.1677656338818 -7.00904422580861 0 0
-204.028630714694 -38.0536662185982 0.742983667539001 0 0
-122.253755031893 20.8173183194956 17.0740684887465 0 0
-108.165171847007 1.75513627645888 7.57877417177022 0 0
-194.556493239328 -37.1641469261295 -20.7239061893132 0 0
-156.103997556181 30.2869771278179 -9.35828083334484 0 0
-4.82365177193704 0.189816018214378 -2.91731338689202 1 0
-23.3554028189574 -3.40200826480735 -4.8842875077213 0 0
-146.200312261605 5.92149977319992 -6.54861932604644 0 0
-201.689846964195 -35.3633610321979 -14.7260550762245 0 0
-176.193944776448 11.0402638711079 -14.8291359361975 0 0
-76.9342430360412 8.62141638738369 -16.1841687855103 0 0
-44.8991811060964 -1.16763453531757 -1.93426720195909 0 0
-119.444649917113 -2.94081921458636 -5.37969114065248 0 0
-186.173252510827 -20.4322513615754 20.9614915671576 0 0
-11.4866100689811 1.71421291779125 -1.95817936715933 0 0
-162.319004982263 26.3419430127094 -11.2319253282956 0 0
-143.788339266623 -7.92332294291629 25.0710720086074 0 0
-99.9204453950013 17.1662205649895 -8.90567684619794 0 0
-183.874446028463 30.2537228001316 14.7376995641669 0 0
-197.97548553309 -44.2638709051641 -7.85736931137964 0 0
-172.227628505095 -41.0346002441809 14.363481665805 0 0
-166.385593237212 1.96818452102962 -11.665998364217 0 0
-26.83618755149 -2.24903235477441 -3.94182124389032 0 0
-162.447765186202 -12.0413395937197 10.5187975898794 0 0
-162.876989098871 28.1181647220583 -11.087190400867 0 0
-107.606576476329 22.3033890140641 12.6106816726799 0 0
-51.067869786192 -5.37079434134265 -5.34800903195941 0 0
-71.4170124079285 -2.87232596348779 -12.6675182714879 0 0
-168.677859349191 14.3002425223491 21.2193129035656 0 0
-77.687904751363 23.2153738835293 -3.84488725872584 0 0
-25.3400627728083 -3.91096224605321 -20.6618512335897 0 0
-172.356786035944 -33.2342334991334 15.5883819375047 0 0
-120.385787866652 1.69637832951553 9.16324623458616 0 0
-156.884052094738 -4.33919685727054 13.8516632220355 0 0
-188.036466014412 -45.7838064450116 -14.2299435324099 0 0
-3.70935789914678 15.7118565611633 -17.5636943719098 1 0
-184.869687608068 13.6869040378775 20.443990081063 0 0
-172.240537747183 -34.6277837622062 -22.3808434080307 0 0
-178.134211031158 -28.2018771200565 20.2109300347859 0 0
-34.0043728304412 -7.65405092448098 -12.8199584481128 0 0
-131.042835669994 11.3546899068587 22.8416047285831 0 0
-182.451088368935 -47.5021213722724 9.49018794687025 0 0
-74.778771487162 16.9514779425888 6.74208517975957 0 0
-112.975504682292 19.758394506336 14.0820963394845 0 0
-146.396190599056 -5.89079876759278 20.4175696976068 0 0
-76.089834573553 4.16010642424991 -15.9694417755806 0 0
-127.815091469349 12.7748410876553 20.3878651343608 0 0
-10.9957007181476 -7.78541021178538 -9.86600218369161 0 0
-152.050956746137 37.9814248071767 6.13040138711772 0 0
-132.460153266772 -4.9270011744905 -1.28102968027955 0 0
-31.0971810562464 6.90715581573988 -23.3033053165679 0 0
-171.027829005419 38.6566207732871 5.82718440405045 0 0
-179.533759034261 -41.9902532507653 16.4621270438418 0 0
-141.057361213036 2.86743060821729 -6.895443425684 0 0
-185.449450804636 14.2739955812368 21.7463551746783 0 0
-12.9772848721854 3.54739634393336 0.65392095147138 0 0
-187.045621551775 -46.858627686087 -12.7429126769685 0 0
-168.304429288631 5.2697323640049 13.561312576093 0 0
-71.4765845249667 1.14013394253295 1.76491673770812 0 0
-187.469634072446 -34.2982436102013 -24.9249939219874 0 0
-168.582637461008 -35.4188715226945 -19.3087761789874 0 0
-28.3150086166578 9.79311701039955 -0.401378865377072 0 0
-52.5288261068699 10.588041376357 3.88452150038904 0 0
-167.626766732257 38.839987604757 8.2257111149566 0 0
-199.651477348111 -33.0624222595805 14.1600924074666 0 0
-182.856622491062 0.760586432846548 3.0726071281662 0 0
-41.3297776290392 11.6592348316554 0.0108643249055732 0 0
-57.9731647610891 1.64925071833252 -18.7811231043114 0 0
-163.468457141455 12.2514031140559 24.6357939712099 0 0
-177.332383329383 -48.1805103582937 7.23978808153019 0 0
-182.962305781974 -23.5429644313105 -26.2918492681803 0 0
-168.331837991607 -18.5291255688387 -15.1669135711006 0 0
-117.059165667549 6.98628584538566 13.3903343896232 0 0
-55.9613419582592 19.5805338391007 -10.2575716520324 0 0
-206.210047233516 -31.108604686975 3.15018253810374 0 0
-171.785949854138 -11.1509718931248 11.8577025642187 0 0
-99.4245880556349 19.2453925766601 10.9809437296405 0 0
-169.200122024854 -32.2394170210135 9.86752666512529 0 0
-175.542550455887 15.0093429240197 13.2640143145395 0 0
-170.807295353765 -16.7333287142712 -19.1891003870494 0 0
-172.085677900127 -47.8091008243032 2.43531821791502 0 0
-109.743381451077 22.4552701222657 13.1315160125249 0 0
-0.813431442322565 0.203287450238176 -2.89499208844179 1 0
-96.6149157051905 -0.282643126612369 3.35422028217025 0 0
-131.340707475617 -2.3289950180789 -5.37514789494553 0 0
-174.349010748423 -0.856819658573146 12.3165184779678 0 0
-167.855811875891 13.7612375846493 -16.6956531532666 0 0
-161.32557223165 9.96727673349471 18.9115226577226 0 0
-24.8742733434176 12.7636510178382 -21.9545716842386 0 0
-177.35081235362 1.21353296935882 -13.2744251322774 0 0
-132.743028033557 19.6891212368682 19.9130176686904 0 0
-137.774924513808 -5.7617727560228 2.80527649330433 0 0
-166.954480330211 -43.5094294445598 3.20576814435674 0 0
-90.6157061288785 24.8260168777495 0.795395511879998 0 0
-11.4442125228513 16.1223075246651 -17.0991179291506 0 0
-25.8517304254973 5.65770019206283 1.8112608886624 0 0
-177.596915855817 20.6504305437351 -13.0677193465027 0 0
-181.556949322203 11.2561725337754 0.974621978955365 0 0
-143.197915797116 7.35111527868364 -6.28360001800257 0 0
-22.1864794268167 -8.07962999201707 -10.8884638012817 0 0
-156.657666320269 -3.60980229814013 -7.47196722079741 0 0
-126.299729103031 3.34423842375147 20.0542868292663 0 0
-184.399351882355 -36.9312134284012 20.0095422295102 0 0
-141.816031522348 10.1937248590217 -6.09222519101261 0 0
-186.191567085474 -8.32997977612978 -18.4899515857065 0 0
-144.991498086611 6.64210135563997 28.5576502177846 0 0
-148.74808452192 33.0920949113273 11.2010523775809 0 0
-82.4471659890929 24.0272109550846 -1.87106330899689 0 0
-147.665550177515 -5.3950730965704 -5.84378597342852 0 0
-179.332556725486 14.2416019947255 22.2691157732559 0 0
-52.4681797118586 15.9982597641053 -0.593165259917512 0 0
-136.254278944036 -2.27503269555664 30.3771904050949 0 0
-110.968742908391 -3.33789082313841 -6.16902226647528 0 0
-156.475722400547 13.618230581924 29.5257424710603 0 0
-139.379563838376 -8.69094788209823 21.127459868323 0 0
-184.153411670115 -33.7963479970528 21.2524781337736 0 0
-187.445050051914 22.7983465635932 16.6669875589785 0 0
-2.60157262538567 -1.41008777854497 -4.08591383354478 1 0
-47.2720355751872 15.5570653697702 -17.2252316870466 0 0
-185.153435121823 -5.44458210874564 -15.3369733906844 0 0
-139.191586692227 27.4814569404275 16.1936414913974 0 0
-199.658096211335 -42.0585687790712 -10.1843922856034 0 0
-2.13427237311385 15.1942831752296 -13.2895083943574 1 0
-43.23010324242 -7.13928903534599 -9.56680194087231 0 0
-191.535153361926 -18.9991754113399 -23.7582993513797 0 0
-17.7881394528653 -8.65132251132127 -15.4041651875369 0 0
-117.696394258823 12.7638557197653 -7.99017153042232 0 0
-205.278265555069 -34.7834803006843 2.29885071952326 0 0
-194.407546990042 -34.8362149954914 -22.0452506945953 0 0
-114.758106843427 16.5297847486411 -7.40790354685463 0 0
-199.761434561667 -15.0686829185146 11.3175307951824 0 0
-137.876284229206 -6.50202384816477 19.4611190822749 0 0
-53.8516265078674 5.12223998180401 1.9461215934778 0 0
-63.6580908216738 7.52337688486163 -18.6447172818644 0 0
-184.48199627552 -49.8897612836686 -2.94454393344163 0 0
-136.862102410787 -6.97402076815595 24.0905381579134 0 0
-95.8430147495852 3.43559504787381 6.58213773325703 0 0
-163.027548395041 10.7725642115124 21.2395443989416 0 0
-136.274888546811 28.1999379054771 15.3953559853547 0 0
-154.404408811573 34.5746048269057 16.5449241762455 0 0
-172.754933397394 -7.82863684093457 12.3958559634016 0 0
-123.320449846552 16.8417368203322 -6.59388276621723 0 0
-160.290793972201 7.01173626542268 17.5317674757887 0 0
-165.090659192238 32.6731190857318 20.0629240083554 0 0
-147.231566751952 21.1481449039331 24.2195327178464 0 0
-192.112145517536 -22.7660108254463 -24.3499963736698 0 0
-163.980904456476 -36.9619292364849 -5.24875939511749 0 0
-169.108369915001 16.0288857102261 -15.266777370979 0 0
-127.129023587218 3.54654419754173 22.8187898859199 0 0
-21.251891487342 -7.09823902981974 -18.1050430000514 0 0
-198.022005485027 -14.0439140276094 11.8276695333468 0 0
-15.2836075237564 13.0841334561215 -6.94849764974066 0 0
-188.296364213963 27.2957182973816 4.52141713193739 0 0
-206.044716462201 -33.8056115385055 -0.428665200951171 0 0
-149.082909987336 22.8640463128432 23.7048063846933 0 0
-181.940601508874 4.74408182745204 -7.70571485487976 0 0
-85.6968138146616 9.05255218036378 -14.3400349583951 0 0
-133.548739708846 -5.51607828938065 25.7629916566973 0 0
-83.2127823123029 6.56664990179242 -14.8698873707303 0 0
-164.011577990986 29.8678500260334 -9.84213689871224 0 0
-173.244676360443 33.1030983822907 19.2008631486259 0 0
-133.276085591426 -3.74173207105255 29.0747654727882 0 0
-140.527082651375 29.2572755470884 12.7826037381341 0 0
-168.309333888059 -22.4048643524296 8.8079652468948 0 0
-1.95378376135603 11.2344342664759 -6.70370330521 1 0
-140.209279701864 -4.20881021194528 7.40268401775419 0 0
-106.186766085919 7.43420634621224 10.2162778196679 0 0
-159.715357442574 9.95735606086832 -10.753130116636 0 0
-125.653481167281 0.479898797415036 9.35431143841103 0 0
-13.2221361314936 -8.06826238652461 -10.4531435391551 0 0
-36.692903382123 14.735413160939 -4.16868797188969 0 0
-164.759012875329 -3.03274634774488 -9.47760885386177 0 0
-186.338580130076 -48.2636401428189 8.14527777937702 0 0
-97.6363724029852 9.97843894249402 9.40147890426865 0 0
-57.335572840033 17.5906234167663 -0.336004436072614 0 0
-191.257581522674 -33.8411369862175 19.6133202037527 0 0
-161.759816907702 -12.0815088143819 -7.70896154042349 0 0
-164.20133902676 -36.0206080241117 0.50520865641315 0 0
-134.478629176149 -1.71483648248118 9.66612213128777 0 0
-183.447524213433 13.6649381761099 22.3546959236492 0 0
-164.003387556778 -30.3356082809127 -3.38666578255825 0 0
-83.9762303601252 16.117400251189 -11.889577069521 0 0
-98.9079867300748 22.2941765109685 7.72339413082499 0 0
-179.528583603673 -36.1156028401888 -24.28361326889 0 0
-80.5484639996733 4.92041644893965 4.96392481178127 0 0
-90.4938883612892 24.5778274571637 -2.2161076270192 0 0
-206.441231658893 -19.7428977360205 -2.74314511968967 0 0
-13.3731880060541 11.2968026527468 -5.17621967624009 0 0
-23.5602787934673 12.7689506781398 -4.96119591465652 0 0
-179.096624184638 -29.3128998278394 21.221413258646 0 0
-143.990917627918 -8.43565511785689 20.8574683147606 0 0
-180.683986402557 14.1924915491828 5.46842447337817 0 0
-81.561169404298 -2.14445958565024 -0.117942984961727 0 0
-178.769993451308 35.4725605058342 -1.45209354675686 0 0
-189.694946349394 -6.78176039196209 -14.954230017137 0 0
-206.828168731645 -26.8248596985161 -7.10880105205824 0 0
-154.63572991306 -9.1677406093831 11.1355787235778 0 0
-140.897985595463 7.47631444888569 -6.27318990611725 0 0
-168.551438129617 -14.7513294295402 -12.8364862736989 0 0
-115.641173198702 5.05629554752373 -8.40042535854296 0 0
-100.952549108088 -1.93259957169733 1.79091172471789 0 0
-204.021115579198 -37.8164061774288 -6.342762924906 0 0
-161.807951402655 11.4145793420598 24.3670465011913 0 0
-152.897910614277 7.09554113853689 24.6514438793191 0 0
-72.6070391247548 10.0062088542081 6.22021943662518 0 0
-196.826549322631 -34.3277555870518 -20.5139485868347 0 0
-158.592270914032 4.97268924820542 -9.23541467293585 0 0
-4.71118058910662 14.9897818884575 -12.2379119476906 1 0
-184.434324510117 23.9115807751447 21.8180885992184 0 0
-172.675770390572 17.8986427764508 -15.1442130574215 0 0
-143.287561399883 22.0772660183239 22.4629541516418 0 0
-0.243169162214595 -2.67113527270892 -5.0224849670662 1 0
-182.029145501081 28.1732693733608 21.6357732990544 0 0
-181.430965631446 14.782408016139 4.07102638849742 0 0
-156.819838668959 8.34710559351087 22.6503985690008 0 0
-47.1360197325913 6.433034283402 2.83320394060056 0 0
-182.012866689313 7.1317646467584 -6.64283060022685 0 0
-18.0096964658241 12.5011024522571 -5.76265365177536 0 0
-181.317842898474 33.8779003260372 7.06986586758476 0 0
-112.318498901487 9.19809611457763 12.4100538283956 0 0
-174.362482009876 -44.7643978514456 -15.5255910272794 0 0
-128.973194162453 27.6260261233821 3.55789215716156 0 0
-5.87929660230761 -6.07482102132397 -7.67923058240278 0 0
-22.4918307920494 13.5469393983311 -21.5314809707868 0 0
-5.44756564094354 -4.73123797709691 -21.9805279101712 0 0
-131.764139929146 4.98623986210993 -7.03658040074667 0 0
-174.810610446176 8.23388280120539 9.27110579586923 0 0
-141.177186063541 -5.59881546137228 -4.46530401621613 0 0
-9.62656712382292 -5.84983042473047 -20.8122084799334 0 0
-152.666411978688 -1.28007999443457 16.8983655938401 0 0
-145.178369416655 -6.39638000160579 -4.60910683862788 0 0
-166.041772952393 -9.26402404990714 -9.78673370275974 0 0
-199.036954091807 -8.96498002939789 -1.10559806840013 0 0
-49.4146987218146 -0.502075464616302 -1.15116735054196 0 0
-175.392722460533 14.4427689357215 14.7224028400977 0 0
-176.801209126252 -44.6800589816605 12.9102877794831 0 0
-54.3671274873151 15.2193370026549 0.411060216005779 0 0
-44.0069597067517 14.8257979563337 -18.208441471161 0 0
-142.06142757902 3.38687465871774 29.8064336497408 0 0
-196.681980489667 -6.88763017785786 -7.66124315719814 0 0
-147.621051615788 -2.3560840145038 26.2562635428294 0 0
-9.01712053052582 15.5881228043807 -18.8301730880898 0 0
-178.217249050926 -21.3397717268213 16.9353417530752 0 0
-137.554557751102 -3.19376878256987 8.35807288958769 0 0
-171.894054187469 38.1319939035848 10.4208414565745 0 0
-167.836825836069 -5.41384093393199 -10.9322283414566 0 0
-183.325783370004 27.9045602453417 19.8334805017889 0 0
-186.500810993189 27.5576660312026 -2.0032323831518 0 0
-182.433905537142 4.59823648699957 -3.57015607088734 0 0
-99.0577299416339 -3.55480526416805 -5.47064589857362 0 0
-168.355021411132 1.11284149508142 -12.0888661107396 0 0
-30.3347879875882 5.2991020065386 1.76795599024709 0 0
-175.714993658678 15.4295500527167 20.9724732296322 0 0
-150.528124745833 -8.88137287957726 8.72328084378925 0 0
-198.025917549796 -32.8710553038733 15.7908710254645 0 0
-192.347480661276 -20.0181336181982 19.3255975895798 0 0
-92.7481684460163 24.8126920066726 -1.73711733829501 0 0
-169.181371160579 -16.5494509384859 -15.1662724293155 0 0
-122.566985977236 -3.46334893223317 -1.02941105982644 0 0
-155.92156723596 11.9184312577963 28.7253841331692 0 0
-192.92611020137 -11.2601039366713 12.0562468639202 0 0
-180.25352160057 5.96681652878729 4.89317862251785 0 0
-151.712845438836 13.2280602916033 28.8395409947234 0 0
-7.04562827496943 15.942923224363 -17.002590605631 0 0
-54.571438088913 17.2699820366438 -0.926475364572101 0 0
-171.553620312838 -48.0695685327691 -1.46637486490675 0 0
-191.94043255073 -14.7492672540324 -21.7239936957001 0 0
-73.7157322782738 -5.03059569550993 -7.52156785237698 0 0
-128.566485449004 28.0053191576172 9.66689107565198 0 0
-187.856973714448 20.4478618318227 -3.1331338823923 0 0
-161.536799430478 34.5675878821366 16.4303945847371 0 0
-177.509295060174 9.20224480883088 7.0740752509267 0 0
-129.916360542365 -4.19030825749183 0.811222699995395 0 0
-114.588292713413 20.0190341080792 14.3645448532129 0 0
-99.1907515825818 14.8164349959233 10.2864974901779 0 0
-91.8920163050936 3.3794017112969 5.8351675764397 0 0
-78.8174643493702 18.9357035211707 6.12440350767213 0 0
-176.470752924858 35.8551754845398 4.73597369941792 0 0
-184.412537156132 -19.4614260583092 19.8883639026075 0 0
-140.714539486702 28.2956817934028 14.9519386794096 0 0
-171.871943590034 -5.48382669918371 12.4039196765449 0 0
-117.256804176741 -3.52853374466767 -3.78534655671226 0 0
-100.823389647565 6.34956389604078 9.14892433632672 0 0
-169.610127051429 11.3979816464186 14.0000958165478 0 0
-148.972556635593 12.9176025423229 -6.93616288159927 0 0
-170.231877006612 35.9524324332728 15.6938054197285 0 0
-168.063323637531 37.08106390934 11.6212489511424 0 0
-160.832793888233 -7.2978621261452 -7.79735653026071 0 0
-193.909820920614 -37.7771570815882 16.2815333471998 0 0
-189.950678901124 -41.4311198574995 -20.1234105685979 0 0
-119.901424247524 27.3170141776808 4.31744869355972 0 0
-189.105660122369 -45.5934524833023 -12.7897754966835 0 0
-137.316233937256 10.189353460427 26.2090827824628 0 0
-176.757688998035 -48.8658347933661 5.0651032241152 0 0
-89.2402212321042 -4.03034403676224 -4.28111784915199 0 0
-182.355301057062 13.7084612407754 1.07603073604396 0 0
-165.455714596193 30.8693380708098 21.8518771667241 0 0
-91.0296335160948 1.81168242028666 4.62790291319367 0 0
-22.5313348226419 10.5774973747952 -2.71931645856186 0 0
-154.752404337301 3.66966876344782 -7.77618966029781 0 0
-179.831929386873 27.6149918684669 -8.58713446664673 0 0
-166.04448453196 13.3114010585783 -15.0895029785804 0 0
-186.452507643768 14.1975392327764 18.9939810294156 0 0
-81.6350142193325 1.59633172302785 -13.9678865005508 0 0
-127.595048943349 24.0253703676059 17.9770548188933 0 0
-121.925605845789 23.5084480750925 16.5530136226434 0 0
-167.450499255012 14.6934357323604 -15.0418594858264 0 0
-60.5013645331792 -2.64536246190883 -15.6820414735739 0 0
-128.874810024182 11.1668121359637 21.7966347247873 0 0
-125.69684859976 -0.959619287739546 -6.87153385607628 0 0
-195.11603306394 -16.6989775904718 -20.9515889224113 0 0
-164.336661093625 -28.2800772314432 -9.4976100801221 0 0
-192.422891523481 -9.49971340146619 9.16352385162932 0 0
-189.387619544167 -44.0109846222946 -17.1445043187734 0 0
-193.13362981824 -24.7126802655664 -24.1727994259441 0 0
-149.257596506925 -2.08842108581245 20.4089462838337 0 0
-164.485331995832 36.4462506887259 13.0321639999533 0 0
-66.3083964552939 21.2049107611034 -1.57988143286026 0 0
-104.78301130438 -3.47904396198825 -4.9300521131048 0 0
-147.009782382804 6.35315174670433 28.6588401937098 0 0
-16.7034373021136 4.08451824716399 0.286632144923438 0 0
-139.089397672603 2.26081215693007 29.9733861262463 0 0
-156.842261337185 -7.82480341541833 -6.54513457194867 0 0
-115.327499498458 8.75080635050312 -8.47779818933024 0 0
-147.370432028705 -5.19906609762439 18.7193824893314 0 0
-65.7981410430073 -3.02633758199627 -1.72756820219783 0 0
-186.840554622432 25.3864548365526 13.2083965095773 0 0
-128.891591931687 14.7506137618026 -6.6583544449207 0 0
-187.999021075095 16.9248389424579 18.7726701464707 0 0
-142.082764957682 -8.07908239942892 20.1897806625957 0 0
-99.9787002478944 -2.92597685834984 -8.40822345720749 0 0
-117.408288598103 17.5227216808533 14.9078032580449 0 0
-168.540451537457 -9.43722016940369 11.6329579156392 0 0
-42.4676080011735 15.2976920337167 -3.02480079232753 0 0
-64.8128371727476 21.1943659836414 -7.27163774824105 0 0
-135.329475212597 18.7247640394942 21.2222409022729 0 0
-27.0290290370959 1.47936453112395 -1.68359416187415 0 0
-180.040217682193 -42.2696260775414 -20.5343560545087 0 0
-75.5538788376603 19.3533908641595 -10.3425505192294 0 0
-168.375508550048 27.6873690388163 24.546301226991 0 0
-167.66022176336 12.5741144910806 16.8493054277075 0 0
-111.400837244866 0.19047829856643 -8.65544989046555 0 0
-174.544243590515 -20.6814536713449 13.5323910051722 0 0
-203.614488444819 -25.0751447697722 -14.7364533797164 0 0
-160.125080979309 -15.9747283797937 -4.71014763537082 0 0
-17.4184114501188 -4.41672232661131 -5.92065992755879 0 0
-11.5761023864698 -8.88444124917109 -12.641241646116 0 0
-159.534510188028 -17.4235804407163 3.09898554852224 0 0
-168.883973935174 -23.2360289113985 -18.9424711946589 0 0
-79.1317123941935 3.2560277976257 -15.1429240830161 0 0
-134.638075260636 -5.12319017331644 28.8946276818022 0 0
-187.001524090648 -20.4859812741447 -25.3934450405311 0 0
-190.490509417073 -9.68615901282106 -18.5385051601179 0 0
-130.971120771171 28.4447661338807 14.9082333784649 0 0
-189.95746627258 -22.3234485146992 -25.0298423001751 0 0
-171.729314389175 -37.7014211896354 14.8232948101592 0 0
-149.027984643801 6.0818935946707 -6.66749075386698 0 0
-175.110108696098 8.85498324553144 -14.5342098812171 0 0
-182.339630213113 13.7353078784837 16.8124309221718 0 0
-150.185882169518 29.9100829951714 -3.11390581816088 0 0
-182.045596343449 -1.75804901068714 7.62406514312691 0 0
-200.655304650159 -32.4633938636647 -17.6009316905137 0 0
-177.032718690018 23.9380802675968 -10.6354436747696 0 0
-186.038383383301 24.8167445163774 17.7747721412689 0 0
-165.321972070809 -5.9726419361335 12.0868982300466 0 0
-185.712587402535 22.2321875855367 21.0368882400806 0 0
-206.796683809467 -31.0693887844824 -3.20301123862266 0 0
-25.1266812165575 -5.54907691728729 -19.4310541748769 0 0
-151.966861186532 31.3529787699608 18.4573032764798 0 0
-186.458941893864 16.8830518705284 -3.81463573552519 0 0
-165.650010404111 -15.9883346597137 9.53275477958734 0 0
-183.237186193873 -3.07388737017982 7.67341820063078 0 0
-182.144788310168 14.2984567141185 -10.2845438755046 0 0
-182.739769199036 -35.6352304869587 -24.9357692081196 0 0
-28.0788742558812 17.2854341042888 -12.5417547497285 0 0
-166.128048628006 -27.0746161976934 -15.6823314317871 0 0
-151.553949590991 -3.0145064032745 16.5830844873956 0 0
-130.602654779466 23.7900456967223 -3.06983961251777 0 0
-130.943523775808 28.4922166008758 8.24175475712821 0 0
-178.527454209994 -15.2264548374595 14.5807489924375 0 0
-126.181994929099 13.7306795900913 19.1553889897653 0 0
-171.138115506883 -0.325455025937806 12.5055981364708 0 0
-137.710323962517 17.9606448007991 -6.38116824308817 0 0
-88.1517877103374 13.6507065784737 -12.7391309643826 0 0
-67.2589326239508 -4.30438116960635 -3.18513297867866 0 0
-134.89360989472 20.9003118836999 19.7519620675517 0 0
-24.4501621212445 -8.2893508214281 -14.3974831445886 0 0
-144.334505061158 18.7998520958419 24.9413046410046 0 0
-169.706926861823 -28.5313715920578 -21.4506909349634 0 0
-103.235323851567 -3.33754225540127 -3.50124514876752 0 0
-160.673978959785 6.33431930981771 -10.6443745734696 0 0
-180.05820493382 -17.9470215334934 -24.6616747373341 0 0
-48.7041331088118 14.409339704649 -0.616940075520622 0 0
-205.723795930379 -34.0058741749141 -6.01732619218427 0 0
-107.248847365702 19.6408845404739 -6.51826387782037 0 0
-99.463241934592 4.39479337144597 -10.8954157164248 0 0
-159.199045174662 -11.1233552457022 10.3245386767075 0 0
-164.438448423517 -3.30194559907049 12.8057642415829 0 0
-161.19008490358 -0.199052055198452 -9.36567698069605 0 0
-205.154366800413 -36.1434732998958 -3.86177635981384 0 0
-180.135141396029 15.1807603496888 -13.4750485448827 0 0
-48.6765221553725 6.87505798068148 -21.0218880114781 0 0
-175.566635479229 18.8817292256865 26.7830616179987 0 0
-109.904641753294 9.15952079497169 -9.30685692422376 0 0
-3.03185799568313 -4.09484090322873 -22.6484295195789 1 0
-181.118161012563 33.1729252957548 15.7366598742359 0 0
-147.534597373947 -8.3890279622483 5.30451342320652 0 0
-6.2867742839378 -0.882984750711176 -3.6711161580372 0 0
-120.331084422239 12.6146117750374 -7.72299473065437 0 0
-121.949978993661 -2.31392170631142 2.98851476096119 0 0
-180.4365554556 33.2772965433196 1.23772056694855 0 0
-195.738737996112 -39.6516769736847 -18.0339690373804 0 0
-202.177772907113 -31.6095339422183 -15.9919784488805 0 0
-176.959974774448 -45.859951736181 -15.5224393294057 0 0
-166.764314474426 -27.1468492242125 5.2758814236991 0 0
-162.076476051594 -9.31176639376086 11.4854694653133 0 0
-183.4978973952 -51.0098713151507 -3.05889503209917 0 0
-168.209230198518 -32.4984916224326 8.31959036985156 0 0
-102.638448259502 9.49449373151641 -10.6836101776345 0 0
-74.895886172129 12.589792483675 -15.5702469159578 0 0
-181.051682872888 7.11450965030367 2.72470965471552 0 0
-165.172395627353 -38.435712260684 -11.0043896794342 0 0
-185.995233151563 -3.86641227655601 -2.33072256785724 0 0
-69.213206995897 21.1446760018756 -8.13164508456498 0 0
-189.750409719618 -32.048286717877 20.6210134048682 0 0
-180.302427001223 15.0486988837971 13.0128763206612 0 0
-192.071350522165 -5.34272109696026 -5.34526880078196 0 0
-167.900476448825 -26.6742240848086 7.4732747475658 0 0
-195.794540854286 -43.9399991765245 -12.1258673290472 0 0
-134.109878115748 -1.84530800701535 29.8178276302007 0 0
-198.333488904985 -44.4838792185058 -5.27068950838103 0 0
-87.0167576119657 18.2193431733989 8.09242446539181 0 0
-35.1241769245805 14.0553266166558 -19.7058114544266 0 0
