"x" "y" "z" "f" "a"
-157.982181705569 -9.59216374625673 25.9805664116637 0 0
-34.4133832910168 -9.54230989064021 -13.3992926546227 0 0
-199.549884698739 -37.8063776373593 -8.35718230023472 0 0
-111.85107050408 14.1468938990318 15.4535225643159 0 0
-223.974614041022 -4.64934010212832 13.2297495692424 0 0
-176.460199249694 38.1290842791781 18.010352674583 0 0
-190.451376300648 4.6024622855788 15.6076875097212 0 0
-203.346593105449 6.53153547913966 -18.3911730677707 0 0
-198.641485567784 4.63842918240027 -17.0197519863218 0 0
-195.022811115282 12.0106689893731 -17.3146158347777 0 0
-111.416009514173 22.4447198428181 6.31242721805293 0 0
-90.6197005893167 -6.12685854954924 -4.67878815353966 0 0
-218.314744711297 23.8118717885325 20.8047461116282 0 0
-206.537626549355 40.2252519600374 4.17290942603159 0 0
-80.5584553554734 16.9331085463734 -14.0497928023004 0 0
-129.041398599914 -1.57793848336208 13.3586895056842 0 0
-187.900647019079 22.7950475868641 -13.4936785788879 0 0
-139.260282085377 -5.53993602475247 -5.57249864917182 0 0
-204.011822510999 -41.5761114296979 -12.6717622069924 0 0
-177.32207682474 -11.4662378789067 -6.36752136175193 0 0
-138.053731269291 14.2142214869421 -13.5061610044635 0 0
-102.298886018422 19.2588953288656 8.63026715423848 0 0
-5.94020948869605 -7.37046532616387 -6.51522503333727 0 0
-201.595547228877 -20.5815844850336 -19.9734902865367 0 0
-104.059124619618 14.6275479640549 12.757764122952 0 0
-185.285389350018 -17.7024871572008 0.655482223829681 0 0
-38.3255956717279 1.46788937180427 4.90472736722479 0 0
-244.509770544226 -26.65884013513 -13.4090636416521 0 0
-247.184584378687 -22.1694503870638 -0.999504644278483 0 0
-97.6560556585442 -4.64931438639354 0.861682397772431 0 0
-206.941170984032 39.0620772717325 1.08438656595666 0 0
-150.358816115105 24.7166776560877 17.2549327873894 0 0
-194.03953077571 -13.0206129199324 -14.7188823377727 0 0
-120.001525913203 23.6980912017079 5.09115554628492 0 0
-243.417817781911 -32.0215268973827 6.29972915227245 0 0
-209.977751231909 16.1009422304847 10.9716207551206 0 0
-243.250753066027 -8.26954266627341 2.55679317504926 0 0
-104.859004227099 -4.10456093926611 3.69358342798124 0 0
-78.04718986753 18.6848670895643 1.98714676940914 0 0
-57.9368564961628 6.523356093052 7.98818570666849 0 0
-139.517701102502 -3.37090513938452 -9.70323567507201 0 0
-148.296098740473 -10.7220216566233 17.5817741122594 0 0
-164.562727925402 -9.77670178011883 -2.25101955548796 0 0
-204.962373429695 -37.389562923989 -18.779610840012 0 0
-171.262700431098 12.4676705126893 -12.8365209381658 0 0
-115.81945648982 23.3209216997877 0.790184802258266 0 0
-245.93604911971 -27.6070689697817 2.80677489895608 0 0
-55.7459589639967 18.7280625030338 -9.59949074077651 0 0
-183.343394077844 -8.54108449015648 -12.229678261819 0 0
-218.593074737804 4.89173438720632 -14.998836555326 0 0
-200.687335429464 12.9313594916262 20.242407714967 0 0
-211.448942656126 0.226921626598701 -20.1104583189662 0 0
-218.761836561021 30.4260900166939 -2.11630645865108 0 0
-204.329822239352 32.5913353769807 23.1551869476354 0 0
-36.8897249947076 0.330632567431575 3.26465157020497 0 0
-193.893495064167 -15.7122853169848 -13.0464793347925 0 0
-208.750147828631 37.4915576152156 -4.21197152042544 0 0
-189.75166155215 5.36846358691851 21.3465601105839 0 0
-230.013064621906 0.943483697222823 -15.9501017715477 0 0
-197.588854441105 29.9351466776531 25.5310207408775 0 0
-37.6999159158513 4.0512757876673 6.02845120664056 0 0
-31.6206180966076 -9.87068040661897 -14.376131129249 0 0
-211.092927540226 33.7801522277602 -7.98051960042453 0 0
-75.7845618561146 4.70198759381476 8.39482474806945 0 0
-153.171787400351 -13.805055824453 10.3435874555989 0 0
-219.734162434734 -8.56681532509462 -26.5161843175393 0 0
-231.965670189725 -35.0649675502673 -23.4848975558204 0 0
-185.747221592711 0.165412696754576 17.0371952389854 0 0
-159.918581851643 30.8321358417579 8.22555288138307 0 0
-135.060844302049 -5.8844641950182 -4.45515122764424 0 0
-225.055716480405 -41.0532665719011 15.8136151198814 0 0
-138.684655748387 25.562639716488 7.64578809379358 0 0
-90.275457441058 0.307563240472239 7.94337405831891 0 0
-220.51091098973 -11.0454245006914 20.4695027892858 0 0
-69.269568000003 -6.75419624456079 -15.4917187626552 0 0
-45.2860475210214 5.62327590668385 -24.6060570129977 0 0
-164.50756510816 14.4391226800048 25.4328472537451 0 0
-223.12664197522 3.95164102857234 -11.9804105136691 0 0
-173.174387737841 9.44046116577259 27.7506291757476 0 0
-97.9698486922585 10.1217256786465 12.2458007286604 0 0
-154.030845478833 26.6599870129771 -1.72520433993451 0 0
-229.149027815434 -43.0044548201198 1.34043959055051 0 0
-17.7551515477337 -0.626552499253112 2.08739378257327 0 0
-185.547395336813 -18.1534007377442 3.37586098128236 0 0
-221.286185033897 -43.5109447314146 -19.6197529293423 0 0
-81.7554317648555 18.781150927849 3.05634555506404 0 0
-234.524657766302 -11.4215368789091 -23.613771818991 0 0
-197.598247723661 17.4667810942339 -19.4288332462228 0 0
-161.270775863067 -4.58402943623797 25.8120355297773 0 0
-33.6477187571393 7.17284309901931 4.53902255517603 0 0
-140.916666064114 25.8217890028531 2.19365701751637 0 0
-211.702245215601 37.6231201383138 9.97875745746732 0 0
-31.764507856711 16.2093278098554 -15.9467818050067 0 0
-54.5063336086771 10.5454051176303 -21.9490654461633 0 0
-201.015735225535 -31.4079733789204 8.75235786060493 0 0
-72.9320016453152 2.77029766419927 -22.7353035582998 0 0
-230.862275143047 -25.9429377494427 -27.7523131646636 0 0
-34.252414786359 0.489864329028082 4.19901147331508 0 0
-202.454623727913 -41.3243010702723 -10.208544247684 0 0
-161.446875288774 -12.1199805534533 6.5062297842758 0 0
-233.639950317777 -2.13805876008575 8.80247990180318 0 0
-88.1780360195926 -3.41474943754249 1.58798192555263 0 0
-9.86800565005919 7.87911690863204 -24.8793784421409 0 0
-225.730469162465 -8.99468023874353 18.9508588032299 0 0
-204.462970103882 38.0479130229652 -4.88904138489757 0 0
-212.577743196327 -3.29064200497566 11.2173654078315 0 0
-151.514213700192 21.1608014942534 -8.36029990749302 0 0
-141.870397241704 -7.23087792918383 -2.05148697003169 0 0
-28.1547398530554 7.78315674257867 -24.5613650383109 0 0
-112.552297908531 9.73802583511724 -17.8472086580647 0 0
-72.9146600346052 17.9318173993801 1.65908009757111 0 0
-36.862517206945 -1.1067287765518 1.13836128582245 0 0
-180.911103695038 15.833682548724 -14.3111231893331 0 0
-133.741283209675 -6.93328153786895 3.80028257865189 0 0
-30.3988248682307 -2.83033595965557 -0.987337777374519 0 0
-166.565931604125 -9.52694494032719 -8.215108569343 0 0
-205.676915462561 -40.3406635292813 11.9738630056282 0 0
-203.664514609598 -22.7545439293252 17.2455869735743 0 0
-224.276836691306 -36.8897549654726 -25.3549668299269 0 0
-212.561953930318 31.8493219041625 -9.17051289661174 0 0
-141.908666133346 17.6613612800746 22.5970929774062 0 0
-127.395774759709 1.68599455750656 -15.7042436688545 0 0
-143.941106322601 -9.50474493242844 11.1501219453117 0 0
-173.586949444019 -8.56253277143912 -10.8520839721889 0 0
-188.924707793067 -15.812414848978 -9.56104402408077 0 0
-221.097283119165 31.6837816412948 7.12834674336114 0 0
-195.274444593955 -21.0981665872325 -11.0990359116255 0 0
-201.62892216867 -29.846972453591 12.7704579266475 0 0
-215.278905264058 20.2605606424975 3.30899637376328 0 0
-162.251289989133 12.7426934122553 25.1330039366471 0 0
-75.7255036399217 14.5872943298321 -17.3100851330516 0 0
-46.7712190732091 12.4011425631223 -20.8085314818406 0 0
-184.513135159495 36.0078998357694 19.6255952816758 0 0
-45.0289578839995 -5.92158428044614 -21.9387745694457 0 0
-69.1460205560454 19.4205165556803 -8.81243073878438 0 0
-101.955061256659 19.258279794163 -9.38680055757498 0 0
-211.999421908084 35.5600484720736 14.8229439742095 0 0
-190.47974821209 9.37500317765182 28.4772448187733 0 0
-189.118154048312 17.4512588917622 30.5708689207903 0 0
-205.541546906702 -13.4130725851752 17.0206888065653 0 0
-216.233902293874 25.4607675876968 -8.06646479016956 0 0
-116.53018436472 14.4837343421249 16.4688256014499 0 0
-107.838350952722 -4.33104664881543 3.85760638694359 0 0
-1.21977738638318 -10.8153321236185 -11.3835889443234 1 0
-192.760808640183 -14.1368010481037 -13.2489712422744 0 0
-177.234324517289 -2.72686652641741 19.8570995058548 0 0
-129.737244380474 15.3374420258833 20.0164608984398 0 0
-190.064748799957 15.2208386293553 -16.1632657621578 0 0
-177.869618621457 -4.79585047301294 17.6649790153758 0 0
-161.640304476944 -19.2448870786177 15.3607287911468 0 0
-214.266433191825 35.2606400086837 6.31529437795746 0 0
-194.629085240658 43.9144914312376 7.96781401427996 0 0
-203.246139249959 -40.4947734502099 8.67699146681749 0 0
-189.71992722885 -20.2073703216531 -3.58102011255413 0 0
-183.907306995439 -17.476039770755 2.50265174615079 0 0
-158.747110515137 -14.3418567516674 24.9689834493663 0 0
-234.108970857417 -5.3094117028002 13.3672029946548 0 0
-147.824950560235 25.4991909261314 13.187541383469 0 0
-174.742221217278 33.306276930124 -4.80933887170901 0 0
-226.515748215029 -30.1390022668563 22.3604602056002 0 0
-241.40997461323 -28.2378959801976 12.5931664439841 0 0
-190.341077400726 -16.3902283590497 9.22571109661045 0 0
-27.1102033626757 4.30047056526667 5.26831446658987 0 0
-108.066345280243 0.119610614831227 9.97659024186515 0 0
-223.94595140354 -13.6521831070366 -28.4504890680518 0 0
-20.1578613519671 12.8356137831938 -20.8538281089632 0 0
-182.336704898071 -14.1014021596607 -6.22348022989709 0 0
-160.003388670307 -5.98326653798341 -11.9635483269229 0 0
-154.601408707315 15.7706923122693 -12.0239595814434 0 0
-209.631011122623 12.809940220184 -15.2508506960792 0 0
-61.1300088489807 -6.29011111820456 -18.7076852868544 0 0
-123.895930426892 7.68559377828139 15.3358978141178 0 0
-154.167117515787 -4.02852100099969 24.6057154680625 0 0
-89.605992428528 15.0734937749899 8.98595449890639 0 0
-40.308585348791 14.7522565219797 -1.61255851671107 0 0
-245.997909398806 -24.3241938367707 4.89815701676556 0 0
-191.167975028771 -12.7083611496494 11.1450832565588 0 0
-192.598529721514 38.880856341374 -2.56184406496839 0 0
-167.167318885961 14.1418911610074 -12.3880982062011 0 0
-131.426734242701 16.7944598157366 -11.7132578435974 0 0
-160.20239035839 28.1055570933951 16.8089918918243 0 0
-165.338145957347 -15.0694902583177 9.01810271585707 0 0
-159.318435286304 17.3569569507481 24.7603872244902 0 0
-206.337064744823 37.3117389483743 -5.50826325423251 0 0
-175.740456837936 -8.66659688199753 17.5739810825319 0 0
-234.838188382599 -35.6398848882889 15.482037480984 0 0
-123.52715422738 16.7945607833637 16.802552969867 0 0
-29.2650992058515 16.7469421017846 -7.75618254864176 0 0
-227.829258844045 -44.3600959552738 3.96105508164344 0 0
-216.722710196896 23.7901186370904 23.0641267193265 0 0
-146.113874797701 26.8243397493883 3.13398582293378 0 0
-245.98834758035 -29.3893425572609 -0.75197289146337 0 0
-185.468718776563 -13.0047084018095 11.2492851913601 0 0
-141.846228519913 -7.73363291674588 0.319299057318542 0 0
-5.87895665985682 -11.386460695797 -13.3410962377659 0 0
-180.976952703998 -16.4540688794621 5.0818442406917 0 0
-232.61815293094 -25.1934351292405 21.3516998429233 0 0
-167.530825272196 -12.660192308559 1.95970822188249 0 0
-115.664233043501 22.7010084397159 6.95337410575488 0 0
-58.4467113222721 -5.2706109580389 -4.50450765630062 0 0
-193.979856192172 5.39436088998334 13.6690087794161 0 0
-225.430833800178 -46.4506460894069 0.0633712603438088 0 0
-152.10287880209 -7.9655691731494 2.69965232050539 0 0
-183.453942255672 -16.4796815406281 -1.08509415087765 0 0
-218.303152185126 28.3798543170125 -3.0518426956916 0 0
-159.295752340359 9.97965828952934 -13.227050223218 0 0
-158.950549129706 -17.6234414060858 21.7891722380203 0 0
-164.86761412527 -4.70588958691626 -12.7800565151679 0 0
-202.270089779699 28.0234311870437 -16.1121401465187 0 0
-43.2212136545923 11.8469061407271 1.93670221530106 0 0
-142.174581081935 18.8420841149462 -9.72837724165239 0 0
-109.26262444426 8.13264791595441 13.0366372882601 0 0
-111.411577981682 12.3922694066762 15.5120459963961 0 0
-246.965266752839 -20.3557762118611 0.926300181796322 0 1
-104.029845014014 -2.72154837520034 5.99068727528305 0 0
-147.276643015374 9.34250848939558 21.7953262753875 0 0
-213.776934005845 19.6833231049833 -7.70300134266219 0 0
-170.703554866799 -2.76073406488084 -13.6333016826312 0 0
-213.984027780741 -4.66611326885531 13.1329083890696 0 0
-184.383096507403 7.19651656309605 27.939022427836 0 0
-82.441141463357 -2.73197946056995 1.65372486754267 0 0
-8.916255014911 -7.69053320760824 -7.17566295935553 0 0
-208.190224340237 -46.8892179577141 -5.54622787851997 0 0
-113.687737571322 -2.7000110266077 8.29685102693438 0 0
-40.4575360777905 0.568003759242306 3.32254642961443 0 0
-241.009355407472 -7.73695154957962 -13.7757900273293 0 0
-116.880264432287 -6.38386501851197 -1.09061486724006 0 0
-142.413654555371 -0.035650766893807 18.5922225899327 0 0
-221.38830549419 17.456539922756 18.2583815562472 0 0
-210.503477010522 28.7731684559329 -12.1171040512938 0 0
-211.163200651394 11.0824062513293 25.814566454781 0 0
-231.570632204418 -9.19300633193453 18.1196766342208 0 0
-203.160442386762 -20.0858369204828 16.456899892454 0 0
-240.090292143922 -30.3322120134622 13.5006075644522 0 0
-46.8799709316351 16.2097336267544 -2.49065004864497 0 0
-193.658991717783 2.09990241920964 13.4856609405256 0 0
-15.6501968543737 -0.422916847230614 2.64461077071268 0 0
-135.149855684168 21.5508668774227 15.7742772570728 0 0
-239.0661970118 -37.6028365877523 7.56959370186169 0 0
-27.7489043484425 -1.53901815032432 -25.7105730662387 0 0
-52.2817485076705 6.90973529679557 -23.8700115927894 0 0
-204.773568227178 -17.4280361613566 17.1932746640965 0 0
-14.9051303746079 13.9008177686703 -19.3078633753744 0 0
-208.946449128735 10.4904729318715 24.016476742054 0 0
-122.527909955288 18.4864326384988 14.9304223951543 0 0
-162.540279207395 -6.97350745272048 25.6608392263126 0 0
-33.6683476125261 14.9093071012146 -3.05556124933124 0 0
-214.096314517143 -46.7789090762198 6.65095350300034 0 0
-184.40533497272 23.632589576399 28.2973834671465 0 0
-47.8553381079841 0.135635497811709 2.95668975475491 0 0
-203.762228174432 -13.8425373154031 -22.1326277687401 0 0
-202.720570842063 13.6362977786141 -18.0338743704884 0 0
-49.2433083044433 -7.95864522861333 -18.082608917335 0 0
-166.160616580801 29.2484544939098 -3.56046889892471 0 0
-208.031992935435 -38.8825679510302 -20.7505671874096 0 0
-182.047518578264 33.4552762869616 -8.48821256846776 0 0
-23.4137055689799 3.10804606229127 4.75266145408843 0 0
-241.887940180661 -34.5631637522209 6.66884312495766 0 0
-189.026155920165 3.79848033584736 16.9594456459263 0 0
-4.13138873761286 -5.31146569589516 -25.6117059644045 1 0
-226.21999548239 -2.6237783287467 9.3249446750402 0 0
-208.156357735511 11.0222128617031 21.4494878151195 0 0
-224.619718250328 -35.2789313161254 20.2841125849245 0 0
-180.97499703651 2.86391827450174 -14.4305091226345 0 0
-138.645985025484 6.59232703442802 19.1464116486109 0 0
-147.148558790397 -10.1545754916013 15.746407215903 0 0
-229.20204281634 2.10827807069996 -1.6693953100211 0 0
-75.1326197411173 -5.41566528008125 -4.08136158716074 0 0
-146.471598341601 -8.73731562395483 17.2777435003374 0 0
-207.133167317691 -25.8402138764847 20.9454611644134 0 0
-158.42489999701 21.2695456340628 -9.12163463621988 0 0
-185.597949323855 4.25313655250675 24.3491804145876 0 0
-65.6461439652131 6.86999999860446 8.53356660240373 0 0
-208.003572731272 -18.9472685573437 19.944828683324 0 0
-159.122603789836 -16.3866505645968 10.2464748234167 0 0
-202.132838666789 -18.1078553444663 15.3551080900016 0 0
-244.18219071892 -31.9416790459329 3.98837692923182 0 0
-198.464734207444 -26.7196942276583 5.37792208307458 0 0
-215.189480874417 33.6481777878458 -4.78165977479933 0 0
-205.221369312365 24.1737728130019 28.8466186740357 0 0
-205.218111351268 12.3290581862541 27.7751415539006 0 0
-198.306639105419 -24.9183063223094 -13.0539111733013 0 0
-198.568407854023 -2.18573870279465 12.7342332651109 0 0
-202.700200006034 -42.9256333084814 -6.78244980139093 0 0
-164.319898925578 -18.2914395908583 18.6445864322245 0 0
-157.672251372066 -10.1105284586651 5.04176811580243 0 0
-14.2886104984436 12.1024883108674 -1.99369091281925 0 0
-205.587812947125 5.42218094074839 -19.0996467436857 0 0
-73.6068233653124 6.41433387055594 8.66984140801046 0 0
-201.171610878408 -27.7914503107373 12.0771743304059 0 0
-166.921015655036 -15.0479555817097 22.1950693737936 0 0
-148.172167674774 25.0632909265502 -2.45001535092273 0 0
-72.302159407652 19.130766038822 -1.27330214244626 0 0
-211.067407483229 -47.9509249467741 0.0042048986914108 0 0
-81.7780766840363 7.57785760133792 -21.6458379170285 0 0
-10.5567693664084 3.87312798601022 4.4755398359651 0 0
-219.750572601382 -22.5554496726045 24.6165094890751 0 0
-191.785162657135 9.89134110472811 -16.5918679197698 0 0
-210.223943898051 1.28078139413845 -18.7919594618057 0 0
-1.14893963448726 -0.849434101249035 2.82365927715156 1 0
-198.307369495308 -9.96711796518318 12.9103886409378 0 0
-183.851776970922 -15.5696064693138 -5.11420948390577 0 0
-197.292903751583 -26.8753798568754 2.11487821303736 0 0
-52.5536137767989 6.38491309520594 7.45146651320181 0 0
-96.8643167118976 6.55811812459016 10.8369005950609 0 0
-122.985193528332 -4.0638919246996 -9.59697584125559 0 0
-168.465733134014 -14.9599288705529 8.64437586122057 0 0
-24.4788579275557 -8.1121976662604 -8.62928874333228 0 0
-141.154173986945 -7.56722904763528 8.30881555118362 0 0
-209.15108010081 -30.1211758816576 -25.8845832004056 0 0
-175.291724632845 42.2126118878159 12.3810212269658 0 0
-201.870701125385 -25.9723217618711 14.1566758709882 0 0
-221.933421396452 -23.0692540836074 -30.2026065967746 0 0
-66.5142137741658 -7.26059203942266 -9.15889513939586 0 0
-50.2842577449203 13.0998453796102 2.0867189486752 0 0
-193.649848605036 -21.4930936094492 -8.7813801666624 0 0
-109.242865536983 5.50307594555438 12.4092275871565 0 0
-203.176195777616 -31.8544578602257 -19.6917737299212 0 0
-215.309971982517 -22.9340175664851 -29.5678026550693 0 0
-122.882616600851 10.057778627276 16.5810846234718 0 0
-51.692795215762 -5.67430302688492 -5.317204056305 0 0
-148.723850622182 26.6580675870293 10.8255160332609 0 0
-208.887932916614 -42.9064703061618 -16.8377016629774 0 0
-94.2387018322695 7.71428853342108 -20.3720984958163 0 0
-240.093909874309 -12.4235655956995 13.196592390751 0 0
-186.815059666862 36.0530614901022 19.8326061638134 0 0
-207.457273693227 -46.046996021254 -8.26533951461079 0 0
-200.007543811468 40.1650003994649 14.6738716807901 0 0
-15.7899363389594 4.47298242601092 -26.1433297187502 0 0
-200.416619996943 -12.5702861394045 -18.6265034612036 0 0
-51.2618952980382 18.544869274405 -8.95395415808704 0 0
-99.2963020979872 20.4297336346542 -7.08501037624776 0 0
-36.6678035813328 -5.98969115710785 -5.65992320140277 0 0
-204.90358142451 -25.200130362592 19.0151069710977 0 0
-108.155129835665 -3.48517409821638 5.64976086109195 0 0
-230.295560671152 -26.3867620143904 22.369445708372 0 0
-207.533358690555 21.2757992143598 -16.3787761649041 0 0
-86.9778293603059 -4.47189818430717 -0.760404219105927 0 0
-40.0358379720703 -8.36037130171898 -10.2299478160101 0 0
-106.175445415682 -4.98942451707174 1.83298085465201 0 0
-59.2882853459263 4.82354981254168 -23.9180946074765 0 0
-101.39819126601 -6.23515948246434 -3.95618888511106 0 0
-231.394929412042 -43.825990060351 -14.6339937479197 0 0
-178.453457292598 18.0229951113278 -12.5658687863836 0 0
-213.192167086426 -48.0918848218277 2.15761193618212 0 0
-170.499709881945 -1.23375835423871 -14.1169123292748 0 0
-9.17441162605627 -0.507291125696908 2.71840554973812 0 0
-222.319818177893 -47.962265067571 -12.0671849066075 0 0
-177.36763206827 15.7049482577185 28.9709770032393 0 0
-239.635828211601 -15.5358507434164 -20.7420542811352 0 0
-196.453688965535 19.4216584212726 -19.0641417130212 0 0
-25.0915038455397 16.387954571605 -14.8612645385062 0 0
-220.633984930932 -24.9343071573837 24.4378747233891 0 0
-215.086843528803 -18.5764010345037 22.5114957259167 0 0
-174.020628343232 0.332919696952279 -13.9014105340826 0 0
-10.7957134687788 -9.68034911718082 -22.2782305987912 0 0
-146.604163322029 -9.03305693490634 8.12521848023713 0 0
-134.776785092482 -6.5310019931313 6.73106106085384 0 0
-140.160195137736 6.13945249248486 19.6678531348301 0 0
-102.326147122077 12.7680403326645 14.3239006085737 0 0
-163.18730847829 -9.72658645154837 -7.31137155461682 0 0
-224.206445391686 -49.1603532948048 -3.83482814985991 0 0
-208.41439856763 -23.0199816146653 -26.3714259850611 0 0
-220.68281393244 22.059451993197 9.9613095315329 0 0
-2.2676290211789 14.1897312572478 -6.58974030024746 1 0
-212.96547037724 17.2457593355521 5.5759400432557 0 0
-59.6126948836577 16.7765847933774 -0.474977666981421 0 0
-190.106694778399 43.6117543732727 11.8181960324935 0 0
-221.767913103752 30.1055073300397 6.23172826448179 0 0
-24.3019554427424 -3.86838410580102 -25.2321660532405 0 0
-84.3010235603996 -1.35702767880779 -20.0024108718498 0 0
-86.5339703257793 -5.44690214919767 -3.00220644412277 0 0
-123.470237661794 -6.33722550576365 -4.28682555833407 0 0
-177.350550985388 35.4969464550068 -5.24785641856491 0 0
-207.36372052601 -31.3995827295459 -24.2555507711508 0 0
-29.869396392756 -10.0589271545263 -16.7471185966835 0 0
-242.329681890924 -26.4902527142647 11.8217496043197 0 0
-196.908606888496 -7.12549939565461 -16.8556004716988 0 0
-173.358935053964 36.8300342928352 0.509017477580777 0 0
-167.090977240356 9.67802450274708 26.4723920968581 0 0
-150.820330945494 6.09246017431516 -14.1011917402281 0 0
-158.495690808746 -11.461889313261 6.61476170462499 0 0
-63.5294797854856 19.3149116721716 -7.5846156861318 0 0
-193.326103468803 9.11104992054399 18.3056423515196 0 0
-215.96783685994 19.3736359654002 26.9653888811641 0 0
-39.2524980942267 -5.19167551380077 -4.53770930651027 0 0
-208.638033548046 12.1006342998097 5.59146814158738 0 0
-200.714923254792 -40.5772931420082 0.936292963863394 0 0
-198.694541603152 -36.7506120041053 -3.98221933537743 0 0
-150.276803478692 14.3098915092121 23.4263108217424 0 0
-116.491650948662 10.1429827229352 15.4880564352134 0 0
-99.1217303156925 21.5975525554818 -3.06968367972065 0 0
-1.37657746639464 -7.97129580426488 -24.459385829463 1 0
-169.247310175165 -11.0992912107433 20.2656841719684 0 0
-245.781001887914 -18.3279421768346 -11.5431206540632 0 0
-154.506715106551 -4.91758808756146 -11.805905928621 0 0
-191.919320113503 0.114263850782822 13.8882607219896 0 0
-114.360685339279 12.6905764874105 17.087541058743 0 0
-123.989529666514 21.3712808180957 -5.11226474498863 0 0
-168.212774989734 -10.6647512500522 -1.86534675927684 0 0
-195.35148586132 32.7269729569519 23.6081618121288 0 0
-213.01185620846 -33.9319804150174 20.8467879153022 0 0
-223.018777729959 -43.6564937815268 13.3038162794684 0 0
-96.6332017155571 -1.44757586800438 -17.9952148086385 0 0
-172.286602211235 -12.2003957877472 -0.823756956930936 0 0
-26.2305390884385 -6.76887803239986 -6.64168577000831 0 0
-24.4483650665365 -3.45500031484602 -1.74034365323138 0 0
-198.935334358388 10.4078945637624 25.8538477174012 0 0
-110.062451985687 22.956732954741 0.946047747357303 0 0
-120.412907203097 17.3313271658018 15.1519892036654 0 0
-245.233138447543 -15.4164623595032 -11.5365654434384 0 0
-236.942515987138 -26.7274850215032 -23.8442953381069 0 0
-214.466089057524 15.7383278405769 -6.84623621781856 0 0
-156.588706609457 2.52334306009958 -13.2455815390133 0 0
-74.0442963768972 0.797556464174168 5.72932063048774 0 0
-76.1828731094008 4.61805525469803 -22.4924034911014 0 0
-155.477292258017 8.72361441552134 -13.6552605550027 0 0
-213.73936485617 17.7882047693843 -8.60045981054451 0 0
-101.653572367197 -2.82423783108173 5.39277792394609 0 0
-22.2075756011567 16.66041633819 -13.2690107968741 0 0
-228.334082630507 -0.426330072571793 6.01542277523397 0 0
-191.250096606575 -3.29914293124257 -15.5642864892965 0 0
-180.514987026265 13.7969368821883 -14.4528795355579 0 0
-198.321850720656 26.4300464483363 27.7748910076634 0 0
-141.147023845416 22.2128904469511 16.5522518189474 0 0
-219.537196355901 28.0489415129526 1.11974775191574 0 0
-184.075297870562 -16.9728481364491 6.82866572463653 0 0
-187.003200583026 2.29861619441029 17.6872865708222 0 0
-194.420621953747 -23.9190060521364 -0.62313604950681 0 0
-211.122313390312 14.381313132285 15.2359871737998 0 0
-161.798603220711 21.7118688709659 -9.23016171787387 0 0
-158.872772513033 18.6604408909681 -10.8410349135856 0 0
-188.337237649677 -13.8312144987802 -10.6131173463433 0 0
-210.034837615998 -25.4207659168429 22.2589772015619 0 0
-21.4146681927259 6.66471215218373 3.62942671952814 0 0
-120.851839807991 17.5482794869023 -11.3372771868098 0 0
-66.8693474140055 10.6227979419003 7.72909065738474 0 0
-203.457887833481 -43.3021496890505 3.74969328649226 0 0
-58.0431614690308 18.4866908640693 -4.84077043952704 0 0
-99.865298306169 9.32022666900246 -19.3275713490801 0 0
-166.442688645079 9.28243911930764 -12.9669867729505 0 0
-186.768116676731 15.0320495744993 30.5262502971136 0 0
-168.044936418357 11.1500956026858 -12.7785787079786 0 0
-217.705435871427 -18.5095952012503 24.2532661511392 0 0
-219.077460175648 3.47425681929147 -17.8091849942305 0 0
-136.225986819331 -1.27673406023407 -12.0616888227157 0 0
-24.1083453286167 13.1914369820736 -2.23837389025265 0 0
-98.8461431307636 -6.31521575643903 -5.56632369875455 0 0
-208.722802514144 -30.9182500131664 20.1964879546183 0 0
-232.888987711281 -3.33134649576255 -18.9951246213637 0 0
-218.135799607656 -6.67403972801496 -25.3477074019993 0 0
-3.48902097979608 14.0415759278749 -18.6586330756973 1 0
-197.715110513329 0.0302581449465771 -17.2301922960363 0 0
-33.7967220554145 16.8172263666759 -6.65051544834492 0 0
-179.344527818849 32.7593413160432 -7.71659532636784 0 0
-149.466037848342 -12.4325024670413 17.9780417511144 0 0
-70.9183542826611 -4.69350357581583 -2.93960423592441 0 0
-222.919456540108 -17.6688810148597 24.1651649316541 0 0
-17.7339079442307 13.632831503478 -19.7685525729935 0 0
-76.3447428589725 0.100377359814285 5.15058434914459 0 0
-243.92350931881 -30.0081577389657 6.99341011173555 0 0
-220.070033099804 24.5349588284388 17.3391245985967 0 0
-184.407208366525 37.8862773072082 -6.35042232590302 0 0
-154.20934100337 2.0492617974354 -13.1622538340789 0 0
-155.489827102408 -14.1710852822877 9.8148617697425 0 0
-71.3226121793498 10.8403171897108 8.7582407393867 0 0
-119.373389618057 2.066219713186 12.8298630087821 0 0
-117.203651390002 -6.41166686249899 -4.32691709652008 0 0
-172.104489981161 -15.4744600037355 10.9211795763224 0 0
-149.480748091889 -3.63012659193125 21.7451721211991 0 0
-175.389976268888 40.7688108259359 8.4114233785012 0 0
-50.775779301766 -0.153599253243465 2.72563934118348 0 0
-68.9411476373413 -6.35439584412455 -6.40058593949397 0 0
-183.967668178957 9.02539156910644 29.0003842366405 0 0
-185.460078160497 -16.6073441920728 -5.07142717001364 0 0
-105.242576115634 17.9859231763251 10.3998356653833 0 0
-195.451539991149 37.5102229091863 18.6179089234016 0 0
-168.88521114339 -0.0694102721758935 -14.4385017512714 0 0
-159.040464198566 -5.42100082658827 25.9175571252148 0 0
-150.538875126488 25.2761762303568 -2.83003735908595 0 0
-151.41557739698 -15.0294943810095 14.1102291904709 0 0
-171.757018953202 -5.79491293701464 -13.0522552214932 0 0
-211.743632592544 12.6088594005692 17.2204921940565 0 0
-167.912661486971 30.5854067606757 19.6463164893 0 0
-140.007274845367 11.4306341022382 21.1299617024996 0 0
-78.4161254163321 7.60894423334287 -21.8861345020984 0 0
-75.2069964677995 17.2239267059308 3.48328883289053 0 0
-105.280296244406 21.6753411977508 -3.64924685362352 0 0
-237.901766707189 -2.76039430514837 -12.5263928155418 0 0
-231.632192249966 -43.0057216482385 9.66579789163207 0 0
-55.3583932986446 18.2176499016063 -4.87188053249374 0 0
-170.889081602302 -13.6603280597892 3.14589670015769 0 0
-213.669417483154 -16.8207383176243 -28.5638956762982 0 0
-196.868867207614 -18.8735864698563 -13.6628821566458 0 0
-213.191749909319 22.4058544439136 -9.39544824995827 0 0
-157.359308470548 8.83729525077442 24.2065416506677 0 0
-172.413885736381 7.81293638015687 -14.1373045708467 0 0
-195.270982498424 -21.1994942708827 7.19696562102035 0 0
-180.60816152025 17.3033420100467 -13.4466242841714 0 0
-203.969499312901 -39.6103432092246 11.0935326221115 0 0
-89.3357282024573 2.11676907375833 -20.9668959886034 0 0
-181.28030245265 11.7309742615505 -15.1129503438721 0 0
-168.249524773234 28.8312776557584 21.7457946459459 0 0
-109.337016732292 -1.68756817437673 8.46165202897746 0 0
-239.229566886315 -1.82504218737552 -3.76372406832559 0 0
-203.373796942625 14.0012112528757 29.1084820407804 0 0
-216.761531087284 -29.0991703050065 -29.1838061232154 0 0
-38.1847747781016 15.4288799461334 -2.98325276052202 0 0
-172.113588573407 16.7188085281284 -12.0007524942265 0 0
-198.076337096463 -33.4501661157189 -3.60797942117835 0 0
-229.688480432332 -17.7442721274651 22.2356748625957 0 0
-20.8640567113996 -10.4227170046435 -19.0900240767018 0 0
-229.795608181789 3.31892507618279 -7.11597858667577 0 0
-173.051807609014 21.6539678823517 26.0891023640799 0 0
-154.183415055807 25.677504357562 17.4627691212659 0 0
-202.216544344507 30.8762855224782 24.7009926241094 0 0
-195.952834971692 3.52309207184198 12.6244365241922 0 0
-225.771060318099 -3.5666639191902 11.386518130753 0 0
-198.773292235768 -31.8334365461209 0.726421634444027 0 0
-159.427832767342 16.3282451407108 -11.8502224172837 0 0
-226.38371220043 -48.1077769078775 -5.21770194283817 0 0
-237.975424872305 -37.0610722373817 10.8783530333612 0 0
-147.700088380282 24.2846031594391 16.3707188515273 0 0
-240.762288047261 -33.2349894788786 -15.7638421190884 0 0
-62.9391784353402 10.2409559975555 7.03612117111416 0 0
-96.6697125372536 -5.66331622738916 -11.0108643131543 0 0
-174.238275297564 38.6042696656825 4.6719992520064 0 0
-152.468480079 -10.5557124043315 7.73124677660873 0 0
-229.155533631847 -39.8558362076099 -21.0840719286084 0 0
-209.115344158089 -4.07083060016409 -22.2086329549509 0 0
-208.943616126668 -11.6241784309235 17.7842360392752 0 0
-191.11893726535 8.36461720366392 27.0384255813344 0 0
-101.722047799693 -1.26941295607253 7.65068362562937 0 0
-153.097705005657 27.0811275411351 13.4123698706435 0 0
-214.631208388717 14.1353394933449 -1.00433533465255 0 0
-174.497612433352 14.0319251634768 -12.838551012692 0 0
-217.202890187718 -18.8821091731096 -29.6141909716784 0 0
-31.0846800376356 5.72332418480576 5.15121430649079 0 0
-235.667649484941 -40.6416870809554 -12.7498878669135 0 0
-195.489116331529 8.67147282829758 -16.884961089897 0 0
-95.0330278830956 -5.39583603625922 -1.57757161580635 0 0
-196.793416878246 13.3789298183003 12.6431249301586 0 0
-165.466687412209 -9.03508227770542 24.1239863624848 0 0
-173.582391787667 11.7740497434522 28.2065645581187 0 0
-62.278060172689 -6.47279786791093 -6.70496811025208 0 0
-4.94849627476681 13.276209289262 -4.64207603392545 1 0
-10.0643532003489 -5.80943903098563 -4.58614473950003 0 0
-101.40473948474 5.57845882486853 -19.9149352313265 0 0
-129.777414616137 11.0512555546939 19.4246884174203 0 0
-204.837906140178 31.5716571017753 -11.4760463613867 0 0
-134.140817357614 3.14722490756216 -15.4744902799769 0 0
-182.276182871689 1.18417846341898 20.5207318982613 0 0
-218.816601811485 12.0561062004706 19.6448239947022 0 0
-197.094511601651 -24.5222702548716 5.61231829742652 0 0
-79.2044603639133 0.129587675499989 -21.4776829439427 0 0
-148.890797414097 -12.1107873239164 15.2502594833083 0 0
-113.190035867168 22.8513354423621 -0.895617481242951 0 0
-228.559108842409 -2.80472356640089 10.6320535350294 0 0
-166.164707150945 -9.96371011345946 -3.38448241070147 0 0
-209.655928050787 -32.8580881473613 -25.4479909062525 0 0
-214.899043048406 14.8344307635947 -3.24844826799806 0 0
-172.145409505568 30.9276755492207 -4.69739688415387 0 0
-212.683319633757 10.277379523044 24.4765668590873 0 0
-242.378757716243 -14.9268333644803 -17.0306696307006 0 0
-70.4123886002727 -1.52989885823616 2.12938330557131 0 0
-154.694824033423 18.9415589487897 24.1581545280284 0 0
-64.5012549345517 -7.71014735785693 -11.9902660990686 0 0
-227.971049654239 0.0358238811654581 1.56966571284683 0 0
-200.722324942701 7.46716812788587 9.68547267510242 0 0
-187.596441133045 45.1459907518525 8.23004097136113 0 0
-146.741161319393 -7.94033418373222 4.00158609750805 0 0
-6.06309571291737 -8.80221660588869 -23.6268786281984 0 0
-84.2172821634146 9.53865573377513 -20.625484292202 0 0
-44.104452663084 -8.73167266289393 -17.2188190192431 0 0
-216.535843673606 9.90051864580053 -4.95356324366906 0 0
-210.42877353912 4.20576377089079 6.97302738085763 0 0
-121.728270135868 8.59397634054439 15.0754385283031 0 0
-168.66382725855 6.23814703373099 -13.5703892479362 0 0
-133.534074876734 -7.29714998158765 -0.661407377723286 0 0
-15.3357264862725 14.2781288419442 -4.86012188642636 0 0
-204.544318842937 -43.3445742008767 5.70567623247631 0 0
-177.179100222149 10.5843462138809 -14.326976439587 0 0
-136.200578593973 -7.09002185047758 3.45129200387222 0 0
-208.97832779189 -0.993310714102916 10.187428196008 0 0
-175.398974169812 7.77327318749928 27.788577080021 0 0
-191.766061616406 24.8576461366846 -14.0058312935349 0 0
-143.261439368018 16.6392658793267 -11.621594263991 0 0
-153.154806658281 4.01544120260611 23.4067635733253 0 0
-176.656193554277 -14.7394668576906 3.07665242182246 0 0
-185.336567584497 34.7372268593786 21.289559698703 0 0
-152.119856944178 -0.0866113170968706 23.369053457956 0 0
-185.612902704323 39.5228483967362 15.6071388752786 0 0
-197.20902958153 -27.6537957356579 -9.23405979909895 0 0
-190.489577432104 -14.3584501940381 -11.5391076637263 0 0
-92.7444551282701 -5.76431825292541 -3.09177126797285 0 0
-143.760010234565 -8.32528845638869 14.0729861700445 0 0
-137.499846132027 -4.34164631362764 -7.73624593955173 0 0
-204.054144383892 36.0869025457779 19.8966281517167 0 0
-213.075907338595 4.98095913269155 4.27339413595524 0 0
-122.23309681448 -5.43501980036205 6.352141419586 0 0
-34.434900763706 10.408440297947 -22.776576936684 0 0
-200.29836071846 -17.5557139068774 13.5060810336872 0 0
-224.663069965781 -47.0689541864369 1.75937312005218 0 0
-201.832204063816 -31.8982655062152 11.51616132858 0 0
-226.82286458362 -46.1612464147972 -3.60183665146198 0 0
-201.914422329637 -12.4089115016337 -19.8187625301123 0 0
-142.859672873715 23.4655154515968 -3.9690975159749 0 0
-54.7338919899994 10.7550046000891 4.82242029203887 0 0
-155.764180283794 -11.1627429072171 7.32942427049345 0 0
-201.813101764788 -1.28403465794605 12.3220713861467 0 0
-213.748706723226 -37.6515161048767 18.9243587513939 0 0
-46.8112427928162 14.9016962631849 -0.594303692560205 0 0
-245.351558407043 -20.1324386227114 7.11070949930832 0 0
-219.198177727478 -26.5945920003986 24.1436496350061 0 0
-126.836045330874 19.8777574730957 15.0444164571998 0 0
-125.514069076636 22.9210666592742 9.31051831268111 0 0
-220.385001591461 -25.6338908364462 -30.0497770696133 0 0
-119.205443582636 -0.0966277766270704 -15.6941456793113 0 0
-205.390479454913 -30.314498658545 -22.7521716151033 0 0
-189.113362748714 -6.12052338640745 -14.5851753765806 0 0
-208.625252097277 -46.8947452942531 0.154384344701162 0 0
-215.587825623212 28.2204804499477 20.306803386331 0 0
-101.821382130953 -6.25967285894531 -6.66370314256293 0 0
-3.40635292927721 1.41979303796154 4.60225546936569 1 0
-173.018292775898 -2.52816921549645 23.5255044821974 0 0
-192.128721454211 5.16421341194134 -15.6276760608637 0 0
-136.316651440767 20.0156684419338 18.3733167513879 0 0
-144.739983862577 19.0970097644398 22.7530015653231 0 0
-116.321753621976 18.4147180372302 13.0338593389733 0 0
-186.00640804542 -15.4411381190314 -7.65462391479028 0 0
-241.161539796707 -28.3151679826629 -18.4751053276722 0 0
-5.51099394058866 15.7114841946321 -12.9585831394289 0 0
-201.269473180929 -39.4080227695719 -10.8910315106082 0 0
-198.688809694939 9.87909348817361 9.28774525773793 0 0
-84.257567532027 -1.49535060396319 4.02650464895528 0 0
-202.850863049259 40.8144229242221 10.1612378612379 0 0
-152.635195422965 -14.3680156280914 21.4250050352079 0 0
-99.004743815499 19.2163263671267 7.8701671860678 0 0
-150.761631368088 -13.7089162563558 19.3426459631337 0 0
-228.529715306412 -28.0901210802975 -28.2740595925732 0 0
-174.119820674346 6.59482893173496 -14.5184741756754 0 0
-237.088053602451 -12.4657130837662 16.4496286364389 0 0
-105.0771402461 4.26568292147358 -19.492244920557 0 0
-174.726237524039 17.1394539562008 27.9819942485167 0 0
-212.805183202263 11.2684811742857 3.05390486098401 0 0
-176.576430613049 -5.67159545256101 -13.3538029386434 0 0
-219.652301327076 20.0634808893731 21.9641643179765 0 0
-216.906626830141 2.41105303920333 2.69745394475215 0 0
-234.728651533123 -24.427324063065 19.8615081575817 0 0
-111.674706900853 -4.92450941271741 3.16694253471712 0 0
-214.341280413088 -5.82697319375391 -24.5884247488349 0 0
-202.062478811974 -33.2856698999243 9.76444843614333 0 0
-205.064830571606 -24.3959761422775 -23.9448147626066 0 0
-188.859856740188 -19.617709393921 3.67762812676933 0 0
-219.367668487304 24.2853964300555 4.52267160618385 0 0
-232.498189623158 -13.7006979418484 20.1374880956038 0 0
-238.030239247742 -1.61924842539778 3.4459547438127 0 0
-217.840467212876 33.6946161906469 4.93627171220414 0 0
-85.7447201144514 7.90695728392325 10.2164628068681 0 0
-189.225688035155 30.6879896851872 24.8573036280423 0 0
-193.365899557908 -13.7052034007895 11.2725537523123 0 0
-225.965418332687 3.07036065861665 -6.32009419748073 0 0
-198.795169004465 37.0254873182052 -5.14985141453355 0 0
-163.407833737064 16.6843666657362 25.2211983756927 0 0
-180.072799744939 -14.1698821324124 10.5610608219048 0 0
-175.673915671066 41.2161016794873 14.4824564547608 0 0
-221.541151498501 -7.14767042872307 15.8712819007315 0 0
-133.261394852643 -1.55622445309274 14.7032428138257 0 0
-33.9746558932498 1.3356722203427 -25.6547276259272 0 0
-202.267878638515 14.300711975516 12.2252365963905 0 0
-243.137566651856 -33.4591107580549 4.97571100521484 0 0
-211.336028950639 8.56765449360423 4.59187668252375 0 0
-232.851780869693 -36.3282655716728 16.2302224748659 0 0
-201.13760201491 -10.4784299087475 -19.3417646460319 0 0
-132.981456979215 -4.91989627998796 -6.44726693441194 0 0
-106.472631325632 -5.45869721355074 -9.56161187984605 0 0
-111.727734720737 3.848263736563 -18.6025526157663 0 0
-208.345633781855 34.3437945077685 -8.46331982250627 0 0
-178.47236956462 9.13252351754622 28.6344225227304 0 0
-220.354960865721 23.8804869610547 6.5821485756606 0 0
-205.148342266116 40.0357866990438 2.55247847894902 0 0
-51.3108065645257 4.73353659623638 6.60927295015852 0 0
-170.197141924872 21.5262683313547 25.702033304946 0 0
-97.0656946633567 -4.39124751361015 -13.9076477357668 0 0
-208.081492560951 31.7873137443149 -10.5727375741914 0 0
-170.150309086746 34.1961588736707 0.38623266152857 0 0
-77.7706925136045 9.7960843138285 10.190370760772 0 0
-205.34245617849 -30.5073963146118 18.5154818367333 0 0
-246.449800204306 -15.0128918959103 -0.974797019560572 0 0
-142.554826473171 25.1054842668827 -0.787093374024784 0 0
-217.791826162811 -10.7263642952509 -27.3073469144676 0 0
-147.55892336017 14.4366021696261 -13.0611871407406 0 0
-213.793435993471 -14.819822796752 -28.1066683074213 0 0
-126.569026232988 0.797626397532252 13.8531278666031 0 0
-188.633022910145 6.44099835044789 -15.3456263256735 0 0
-182.341234778864 -16.453944931785 0.98543788007145 0 0
-215.613170407257 -20.7303005332656 -29.5151896144831 0 0
-127.700795664063 -0.693570293819878 -13.7711014008457 0 0
-191.530686204547 21.2065159346206 -16.204387063023 0 0
-189.437378692005 8.02942254747662 27.5327485436008 0 0
-187.773762124004 -16.8411653309611 8.26290295693842 0 0
-141.407905368803 14.8738077588351 -12.8957609417211 0 0
-189.280054997574 -17.7719497678678 7.62311107709608 0 0
-48.1416858810428 -5.50839594931868 -5.09232298772682 0 0
-177.157138025196 1.69983787261458 25.2189189929012 0 0
-39.5797765971837 14.9400937718034 -18.1769014051798 0 0
-35.7812311156271 -3.91050872472524 -2.57430181784328 0 0
-8.69949903619434 6.6143041526531 2.76332158293953 0 0
-52.8189587153609 -3.1458235182505 -1.43880242779361 0 0
-194.733471376818 -23.6323673822835 -7.78256281793513 0 0
-190.010625530049 -19.2262711730676 5.99452798884844 0 0
-164.069274278359 6.68030491102058 -13.2763302498005 0 0
-200.224056071351 -38.0117832831543 -9.87475544652329 0 0
-80.2855328233246 -2.06031708979428 2.42884430644038 0 0
-72.9963472535982 -7.14480340710759 -10.5742964420543 0 0
-169.806736651315 -16.0474987234647 11.6199812791577 0 0
-184.287663050666 -13.6858730268282 -8.31766619441394 0 0
-220.098021218667 1.46390944557817 1.09965329041526 0 0
-198.8854799596 -7.78106853699119 12.8970375448912 0 0
-37.2566936903409 -8.86575132874311 -11.2953058204466 0 0
-217.958323621784 -11.8052618367887 20.4589521392023 0 0
-116.308710166194 -4.48856255355108 -9.81918853043805 0 0
-206.135012922818 31.9615211967538 23.6262401445294 0 0
-206.547543598713 21.7610725941755 29.5319243108892 0 0
-177.698219273767 -15.4377420238764 4.97735449689151 0 0
-43.269495199478 17.6887784778673 -6.93118759125651 0 0
-227.299301842454 -19.8843982305637 23.3904878581012 0 0
-220.637578692915 28.0325555836022 13.8311056917493 0 0
-164.809204584258 -11.2267895861261 23.7194704102357 0 0
-218.562521044073 -38.853594309235 18.6055960361954 0 0
-224.733320117694 -2.42316470146561 7.66037647275226 0 0
-161.702453403023 16.5461924382099 -11.7578703057931 0 0
-10.5291503099444 -9.35928546660925 -9.69387327722952 0 0
-235.545005923628 -36.9265486847944 13.7387241288914 0 0
-193.282546539422 43.1028731769887 3.80074027393863 0 0
-204.081609570794 16.4438041412052 29.8715716577614 0 0
-187.594024060317 -2.3177399752534 -14.4804303460849 0 0
-184.143258581468 -9.07418452771664 13.3723721929881 0 0
-11.7667873161788 14.1551411678057 -18.8750779673063 0 0
-150.562299373187 -7.16508715065648 -4.79908155287674 0 0
-121.124743803746 21.8564536663073 -4.04049225934707 0 0
-185.190550552856 -2.87168600296732 -13.952080308311 0 0
-38.0112290343709 -2.00740598823774 0.00739763432491977 0 0
-55.8512328849609 2.36330077507695 6.51617082500541 0 0
-44.2663293301628 8.04218964624382 -23.8519904244859 0 0
-139.629391135672 7.6158688538626 -15.393808096583 0 0
-178.483849934213 12.5902892823008 -14.4024014653533 0 0
-203.107123112083 31.5836612468298 -11.8010602661702 0 0
-60.5656775307005 18.0748345964443 -2.77097541429325 0 0
-210.362300242608 27.4018108716032 -13.5061986210374 0 0
-165.056603735655 26.4127870410216 22.0572018538727 0 0
-204.989941147257 -8.01605627686354 -22.0374995486297 0 0
-229.568130094542 -39.07991885577 15.8715136407965 0 0
-210.74006403829 3.46675308649854 -18.5689213633242 0 0
-155.93182366055 -18.0830686165235 19.0960579910808 0 0
-206.984052518851 39.2623872964555 8.82851582241175 0 0
-224.99816402317 3.97702817693653 -9.2396574302634 0 0
-202.42132754256 -28.4505786033918 14.981125046825 0 0
-51.5894160963872 -1.61603598819251 0.71286440196233 0 0
-184.504121484645 42.1925802594988 -0.883031788503468 0 0
-189.820316906738 -19.69002939669 -5.62731443252248 0 0
-213.062427420587 -30.0207877835915 22.2415747368886 0 0
-40.5858382133118 17.6485075004143 -8.05380884941668 0 0
-130.96679373597 8.88969330250052 17.5155517117397 0 0
-42.1798903943009 -9.150118493098 -15.8063743084512 0 0
-185.849230960734 36.1649794426114 -7.29003942435401 0 0
-196.309062079833 -25.4091241748084 -9.19361916099426 0 0
-145.079819972562 21.8639144042421 19.3761266373741 0 0
-182.191765933928 41.5644114739911 -1.4982693115933 0 0
-195.511560897317 31.5320361057919 -13.439853964307 0 0
-209.708373827663 -40.5380922992602 -20.2879056382494 0 0
-179.995353271645 19.1145892293538 -12.5244216753882 0 0
-73.3786603337251 19.5455835144275 -8.43844117675919 0 0
-194.033298110468 36.7754770047518 -5.84854540007942 0 0
-190.747210324369 37.2141242331232 18.785699495688 0 0
-203.162048195226 -9.50705819404276 -20.9514720375566 0 0
-176.113620735453 9.75334501146269 28.498255976108 0 0
-176.083835543451 2.85274207846387 -13.9437083015288 0 0
-168.873377884219 -2.54539697638614 -13.9012999096666 0 0
-214.675150417175 17.2496510603507 -4.14770288247124 0 0
-193.558752891253 -6.15412835281762 12.4216811027106 0 0
-205.500725733953 39.3419925420447 -3.3634960458095 0 0
-28.7424272143723 -9.98487821137756 -13.7454826683201 0 0
-222.014803641999 -47.5548613346382 6.14272118328647 0 0
-137.742408659136 -7.45988282705516 2.09119703100277 0 0
-198.301874462777 -34.4225030298296 -5.28323822799891 0 0
-127.288835038597 10.9912056184201 19.6630156720518 0 0
-213.122390997658 36.0534747852039 11.8019981393098 0 0
-129.692667975554 20.7248075092201 14.9873267843817 0 0
-232.842790570071 1.22449264987072 -12.6399293030562 0 0
-185.178764728082 -2.88532432242062 15.8829316544726 0 0
-89.0102879051795 1.336640141161 8.84334438684349 0 0
-148.970638062801 -8.66730194233513 21.1806788371161 0 0
-163.497054697957 26.8734626708401 -4.9871112007439 0 0
-239.331573853836 -36.4182138482502 9.50549858046569 0 0
-48.6917702810824 18.3409992941016 -8.53516622927966 0 0
-224.34585926086 3.41471169157803 -15.2172639851695 0 0
-93.0320802926504 20.630230251896 3.3895006326633 0 0
-189.700312217869 12.1435835123582 -15.952238279839 0 0
-216.593783295075 16.7610013465072 13.6286425668844 0 0
-227.889942020734 -45.622714306101 -5.19406796643528 0 0
-234.409195781605 -1.00973295616693 6.49426389775302 0 0
-236.392796293865 -42.069593290641 -9.79187696865777 0 0
-242.094781347262 -30.7581650639784 10.3628854788341 0 0
-83.7483612755803 -5.46216853938057 -3.40628911684948 0 0
-200.988056902405 -39.9649336308879 -9.06197096496115 0 0
-232.463183271812 -44.0894907061629 -12.2124756148058 0 0
-58.9271518927845 -8.08623703590286 -13.8363482563931 0 0
-247.169224952457 -19.2576906136746 -2.0286047352008 0 0
-201.618530798302 -5.52136845715233 13.0633015094249 0 0
-222.260335177482 4.27735605645866 -8.99489990285634 0 0
-214.835697236564 -2.18651287971955 9.01071446044763 0 0
-7.96859933944577 3.01730255218132 4.57846187215142 0 0
-109.40791230237 -5.64040518626159 -8.36048454148065 0 0
-196.803397306722 43.4219695144969 7.89335628446142 0 0
-121.569791686351 18.946531781151 -9.18373995917888 0 0
-94.8031692854152 13.7602065314952 -16.6863596973866 0 0
-225.003841865676 -46.6421475853969 6.60980802519173 0 0
-165.468701135286 25.0700484170229 23.4010429426812 0 0
-177.294769780843 -11.166045898319 14.6309237669652 0 0
-126.899110719983 7.97463744116537 -16.7269820680219 0 0
-112.482015188368 -5.83747084578089 0.638318863844032 0 0
-203.179230651374 -7.04816887827308 -19.9714819693226 0 0
-232.810510285237 -0.413500901117171 -15.589853997711 0 0
-210.698607829709 -31.4563358085695 -26.5436652061101 0 0
-174.970434096576 -11.4219793869583 -4.89279609199585 0 0
-237.060587109338 -36.569786874343 -17.9536714499386 0 0
-216.021068996263 19.9048569828751 8.27929178508654 0 0
-186.053287310881 42.675176172246 1.24427269664626 0 0
-208.343184134354 -0.687891337507186 -20.7429271911371 0 0
-246.144301672983 -15.1191527459585 1.5384471703073 0 0
