"x" "y" "z" "f" "a"
-2.90005062903898 20.6179129543286 4.86722132850578 0 0
-32.2462968988471 2.18950843674553 -1.42972847929523 0 0
-37.7600307881679 19.9132437577692 24.5110442506707 0 0
186.991247751485 18.0462107269367 23.3664413990467 0 0
219.453218943944 -37.0191456231093 -36.4647731706031 0 0
230.846630555784 26.3366755660451 0.202946717576202 0 0
224.593856138019 -29.5443474929729 -36.0748354304555 0 0
116.359433646595 -11.2896793287446 17.4827145402987 0 0
142.433615803099 14.7993869297216 -1.89105818961302 0 0
6.52939402275951 7.39576075167985 -2.51370373957439 0 0
226.336151137902 6.87910528050063 -20.873136828071 0 0
221.283324374235 10.9069218897079 -35.7287595195883 0 0
199.454246779514 -0.227801329430078 22.7442154389298 0 0
154.188076177064 -14.5027890609268 15.2393140381316 0 0
226.877914022953 36.0806152218882 -20.863918225882 0 0
127.329156476202 17.6777145440316 14.3886627566426 0 0
126.309620008678 10.4525344878146 24.6212650066499 0 0
159.164319277573 1.57222354077688 25.4488489143674 0 0
157.265324318607 -10.6494847206861 19.927659101035 0 0
171.35463973781 4.70894344516101 -10.5553084848122 0 0
225.794930864974 13.8240986186936 11.2781571692296 0 0
178.101879929584 0.0572154565066249 -11.0164587701657 0 0
6.56506260422515 15.3425125243926 26.374482137989 0 0
199.928360158427 -44.9695785619227 3.90714529842618 0 0
187.588080432089 4.21633594144092 -16.6896858630669 0 0
219.794778906135 -3.27428567449725 -7.79686319656637 0 0
9.17838893215056 10.3625102396051 27.1562387366066 0 0
205.515642145849 -41.0056678871141 9.11228772891376 0 0
80.2971925043983 8.44259191639862 -3.0327179198768 0 0
218.941902913609 24.1186532271492 22.9256031964144 0 0
168.367344180631 -7.02444087026237 -7.91599553751612 0 0
193.561528740058 -28.6646470625733 -21.4173517265849 0 0
140.391635115735 -4.00424322981551 -6.41060290813828 0 0
225.024491665054 -46.3816479081665 -22.5845887618653 0 0
203.773448897984 -39.860355374402 -30.8813500712177 0 0
96.6787327929422 8.58896734347499 26.0226765072408 0 0
190.698239666988 -11.384800088474 22.447435580872 0 0
212.637077261875 -45.7760235581252 1.20073652441768 0 0
185.304239046983 16.0901338295314 24.0730216099576 0 0
222.038610313892 -14.733125348255 -16.6848880315018 0 0
231.204868807036 32.9700528618057 -21.6334583427647 0 0
179.245620145355 13.096856945268 23.47891702131 0 0
205.212453482601 -30.5131256586349 16.312294159439 0 0
210.410617438881 14.3936224304963 -41.192931170147 0 0
214.01419973646 -1.72777310402786 -9.49238933347473 0 0
203.177077825004 28.6658080799137 21.6203091088904 0 0
216.098145094131 -41.1008345556949 -35.4655623142937 0 0
56.1082623609933 21.363339745567 11.8966694565665 0 0
221.458596006537 -19.5102264729611 24.2895140757411 0 0
206.176110911193 -10.2997076650543 -18.1975809551527 0 0
203.278961486853 -20.9830627039198 -30.8860968699157 0 0
190.584716430852 -16.6985195623453 19.4720337053895 0 0
228.644088441411 -35.655962129146 6.75320879721905 0 0
-37.2007084006931 14.9450780944363 -1.5131906551899 0 0
218.007655351898 -8.40239177064118 24.0318958176964 0 0
200.909109127538 14.7337994383335 -38.8125895228696 0 0
192.891551334118 -24.0843850667704 -19.2677332202851 0 0
236.545262678865 -30.650819167214 11.4179802975302 0 0
212.144269960486 -46.4954934145893 -9.4056027789871 0 0
172.188935986287 -12.9008756530084 18.0143736732991 0 0
231.532474477293 26.9798149562316 -5.58141772596986 0 0
-21.3474711666618 9.47544729705137 -2.98037697182515 0 0
238.604739022086 -39.7626255444277 -7.29576250955871 0 0
216.170181322793 -2.65751068214712 19.1614505043708 0 0
62.274227928146 16.8490834846706 3.53773283952843 0 0
-31.392493487178 -5.15336303774377 10.5805837196717 0 0
225.120953582759 30.7731152962426 -1.37974424325954 0 0
188.808633708691 27.9854401955515 -14.5128717389195 0 0
223.184407528627 -9.31797375834064 -10.8898283636133 0 0
-1.37995690353014 14.4246151826635 26.7382464753985 0 0
78.0764313235744 -6.82327529938391 21.5367240150928 0 0
167.150206638021 11.4853843906135 23.6886992983542 0 0
229.937887706058 12.3672846579932 -6.38837939032008 0 0
107.249833254552 12.9973407463489 23.4727936998364 0 0
193.012207213897 9.57187307576132 -24.6491243775555 0 0
9.98855989821956 24.7067272479134 14.0568651279652 0 0
133.29733674836 -9.12372054813734 -3.20713983551823 0 0
217.917458092243 -46.3141644193291 -9.17449369579106 0 0
55.0223516749845 -6.15539796566029 21.3986370050977 0 0
210.014025728236 -16.3022906215287 25.5885264968632 0 0
109.815137284028 17.9619820111763 8.52651118562342 0 0
217.058905357304 -17.5482451318622 -21.9199530950772 0 0
8.06888770216746 13.9036859189121 26.7423636511873 0 0
205.798554835715 29.1488084195909 -35.4740126575151 0 0
221.117848530004 24.5947814006879 20.0397228310061 0 0
47.7489904079936 7.17693189535936 -2.74698105293078 0 0
110.225848474567 -0.564562233163638 25.5697558345025 0 0
-30.2399721030321 4.15739289931632 -4.22735424338006 0 0
122.588198681334 14.2334081892598 21.7279848562701 0 0
221.163883427126 3.12786586103429 -10.5020600210715 0 0
-21.6401536166035 2.2236130797429 -2.99756517710733 0 0
214.344800226736 -0.888805530682355 -16.8470429630262 0 0
228.245607802951 8.62397739849309 -2.44129867601178 0 0
165.462480791483 4.23089998453137 25.280811947628 0 0
212.709542562574 -16.5112001848444 -19.8398734547237 0 0
106.87488008599 5.23180642520551 -5.70371729049374 0 0
-43.3719472051259 11.9624426697231 -3.64930750332441 0 0
106.218830982054 18.2727261546331 14.1448224352458 0 0
219.09109542781 33.732400501971 -29.2756136236965 0 0
120.476681053045 -13.9355068559563 11.4778046265627 0 0
219.536272082826 4.23520517772271 -19.0261011928364 0 0
32.8667219590259 -6.50617314083386 6.06771067341539 0 0
191.044051820391 -34.0738748575621 -12.9984424537077 0 0
233.209992648301 -9.43324843062145 2.22481173583888 0 0
218.714251950928 4.51907848422252 -27.4933829291445 0 0
79.6605807633915 -1.71592588117461 -3.71199818613204 0 0
184.590120958659 -14.3557275075702 -14.2537117532974 0 0
-33.8854694340741 -4.1923449745962 8.12165081349348 0 0
181.326038296632 -30.7498355897449 -3.37863242138474 0 0
176.372972166902 -25.9743090881009 -0.608475434475546 0 0
-38.584181286783 24.3532803671689 4.93814655099169 0 0
231.744014979613 -8.76409499043606 -5.42696768536601 0 0
188.759741942737 27.3349337395902 -8.32382036625282 0 0
180.478223451129 -14.5332312347883 17.6035419178405 0 0
225.249769142346 5.21586615271364 -12.8219788183429 0 0
230.49168572107 22.0048503797708 3.57827045077672 0 0
192.960820816319 6.54918643620655 -20.4742572249023 0 0
208.476437608744 -14.5177005616725 -18.9905372455004 0 0
160.853374061939 -12.15530925095 18.561170834847 0 0
126.738912395731 5.14014326353678 -7.11329418271127 0 0
-25.4027702681441 13.8255146475224 -1.18332020199425 0 0
183.504995632373 -14.3138871771399 18.4704711064854 0 0
-15.480139593323 0.961916571091152 -3.2309574438739 0 0
89.1738785758481 17.2266137649023 20.0823170408506 0 0
88.1259646539041 16.3015148705725 2.49624860756057 0 0
200.386573188356 30.0482606203284 -32.6521737923208 0 0
-38.8673814694152 -4.37026932831435 8.9671344776783 0 0
238.19963978315 -17.0617044165212 -0.444656477057139 0 0
-47.2003960504694 19.5649232319225 24.1951522575235 1 0
222.252767405821 30.1351577762212 4.12348307505681 0 0
34.7371108787811 15.5841631376648 2.18475313518122 0 0
-18.6416104301104 12.6099087273956 26.9128663745091 0 0
215.007302697605 33.7604325342993 -5.18143464590372 0 0
54.2650784536189 10.1520797562025 26.5913016232386 0 0
194.106721516439 33.093696579192 -10.6044293453283 0 0
155.305837369193 -0.887294175989364 -7.7598148255191 0 0
224.621679458973 6.18955330839643 6.71209877743656 0 0
-38.5761204894105 5.84600355922751 25.1447903082659 0 0
157.425952817974 -3.79512011790067 -7.15111033221384 0 0
190.997052283694 18.6449541954218 26.5057035786646 0 0
189.07612181139 -26.2794382281224 10.3102463621146 0 0
230.840526286369 18.8945501341008 0.975458661467291 0 0
193.743821516623 31.9695972360434 -8.04471204083837 0 0
230.13254563305 -12.5159123830399 -16.0591471264611 0 0
239.841376254498 -27.6016826981743 -17.1772697574194 0 0
155.144888360927 -9.24930773077215 21.0315441355951 0 0
227.3235566126 7.73186600890384 -13.3833932851249 0 0
-35.0496927438349 24.4030742935614 5.41560133211518 0 0
195.860403409017 21.4804168936355 28.3815949778681 0 0
186.557313471573 -5.01268300170334 -13.4825247021518 0 0
46.1272683305267 -7.57687636178877 18.8756702059667 0 0
214.862378522807 -2.04331830243202 -14.743564744136 0 0
56.9641790520631 0.436023781710824 25.7500746445752 0 0
132.522535002309 -5.50578946685341 -5.30040521482312 0 0
63.4617239336061 20.7757209274014 12.3758339627783 0 0
185.89597947667 -30.9193719983311 -0.813796849953285 0 0
-24.1889642090629 -5.48619141100419 13.3649347584453 0 0
-20.4697953654317 4.02736543274409 -3.74131256598366 0 0
-33.8656055693171 -3.52188755518227 17.8929953980973 0 0
41.9700928748775 15.2716240322385 25.3465668080063 0 0
193.13164553272 -21.5341624665159 -18.8883175231511 0 0
100.845138848111 18.4816905379161 13.9766385717261 0 0
239.394867991565 -22.9735214983397 -16.0798670676066 0 0
88.7155902504749 -7.50783529892123 1.0056523287376 0 0
197.193590891273 -19.3811067959144 -23.2365626051408 0 0
-27.9392899640394 2.50180799273134 24.2092561414998 0 0
133.531921139799 -7.14440819613749 -4.44618401939003 0 0
87.7412632260694 0.282176566619925 -4.32510138804478 0 0
8.21944042866224 23.539070823913 9.30159036841891 0 0
176.190013961386 16.0492685709007 20.6965567996652 0 0
87.5646442462061 1.01245828391909 26.0456710003269 0 0
211.52450968877 -41.1993097070119 8.58486814201155 0 0
227.275742083842 7.80114971747999 -15.5962115618757 0 0
178.196481895654 -27.3664716782863 -1.69404732804387 0 0
-4.99337106859388 17.247255325553 25.9566437433228 0 0
219.581896569198 31.7828731962947 -4.20796833262254 0 0
228.65212788551 30.800246761588 -32.7601312066054 0 0
51.7220302658756 8.0788856673523 -2.38990061069318 0 0
-29.6311924378167 11.9475536081021 -2.52509922258769 0 0
-11.9802397777162 -4.78360227671682 7.45738938810563 0 0
232.821751115315 22.7945933333788 -21.4844670331174 0 0
195.871928494562 3.22464251806588 23.82605384011 0 0
231.228223517489 -33.4705212801589 9.75108703666139 0 0
198.817629788567 -43.1272391752909 4.91594909160471 0 0
191.024506132842 -32.1894005580806 5.75912384075457 0 0
230.447736405727 -30.9864636660269 -32.408529941775 0 0
201.76341492321 5.30629955860856 -32.5383253827129 0 0
-3.9695940313018 9.83721344391765 -1.76759289072293 0 0
222.638724030612 -37.8691790959999 7.11371487911735 0 0
210.596341603853 -13.0798244619642 -17.0997778849607 0 0
204.119346493085 38.7183423055029 -13.5756006821807 0 0
158.686870539936 6.91065577809554 -9.02192323082216 0 0
51.0882453986432 21.4031788681114 11.217012427514 0 0
221.256083622827 -45.2073966405389 -32.3123525260072 0 0
216.6032389568 2.80357381901099 15.6232139055873 0 0
-9.94075105145689 15.7234943558756 0.88901710568527 0 0
42.0913740101586 -8.63680717264678 14.9533294641359 0 0
1.54397626290233 21.673096980773 22.3343057627534 0 0
30.948113732429 -4.51695112394777 22.1434811230419 0 0
-46.0627446710531 28.084280883268 10.6909208596444 1 0
225.303302048452 -44.3065292040027 -8.85313697392411 0 0
189.813767048734 1.48978767572375 21.8432660631329 0 0
186.911255705842 15.0192206377351 25.2731972141216 0 0
209.159724148475 -31.6224833661427 15.8030700683304 0 0
44.3240410323981 -5.86626687992538 3.67743810782307 0 0
181.123722272987 18.0529470162174 19.5089268473095 0 0
214.589809921823 -9.30725778546528 26.6873439165517 0 0
50.0020193117515 4.70538245160434 -3.94485905677355 0 0
146.083634097311 -16.6724933567406 4.92168610283186 0 0
163.102333774216 -10.8902798345957 19.692142942737 0 0
178.049231878094 -22.4522609755242 7.85799029702393 0 0
214.223291762914 30.3916660434876 17.9803808566451 0 0
135.746509669569 -6.67103108751781 -4.95014777929679 0 0
38.5331265805832 -4.18935576700853 2.1442214004946 0 0
190.886601119862 -34.0056942714192 3.37174573956302 0 0
144.751128817626 6.62026580276907 25.6379946257544 0 0
188.949035698146 -34.6868677786426 -8.87832426602786 0 0
235.030950369499 -43.3311784331906 -16.5626954346752 0 0
161.319333434739 16.3168551341701 18.6568363303956 0 0
126.346956527443 18.0236633007439 10.9551075134624 0 0
131.424704404128 11.0295993633792 24.1417361362425 0 0
196.841821451166 -32.284722016997 11.7095945591822 0 0
204.012616936098 -48.4183837066207 -5.33785071074169 0 0
-48.5439402061135 0.344683009451512 -2.66304428383595 1 0
193.120903877155 -31.467733017955 -17.430142440204 0 0
36.7517103453769 -8.50565439223818 12.9198145822976 0 0
141.747256619886 7.28092469808942 25.5294521032831 0 0
26.6298479701096 1.359854789767 -3.50652196097781 0 0
227.46106404461 10.2741642395681 3.96878617338155 0 0
232.463698745826 20.4863579650159 -20.4504284412012 0 0
232.309710583273 -12.7663106053838 -16.5729222551378 0 0
230.706298803608 21.019914096993 -29.4073983548215 0 0
182.868112444781 -17.6310442357337 -15.8260262781204 0 0
105.242037114563 17.5460916189806 17.4309441050256 0 0
-23.3196516896652 -0.610335091623691 1.60853540583694 0 0
140.509502752119 -9.63667197519114 -3.73784858009078 0 0
213.056893742583 -29.0323263531571 -37.7635259971307 0 0
166.308278095627 -17.1952415779754 -5.88767235315979 0 0
23.3821837307197 -7.697274020166 13.8799775349697 0 0
216.881307590373 31.803689689782 3.42142178048587 0 0
1.75555706635072 -4.58272757919848 5.98369775462416 0 0
65.2961003145172 -3.79125056900146 -0.708373373807426 0 0
164.289654183849 18.8429990901968 6.31438469221516 0 0
167.372039346949 -19.3494613275398 9.15111373253111 0 0
37.4660390892664 2.93791475614479 -3.72289690244521 0 0
209.466213710485 -46.0349238735974 -30.1430200637048 0 0
25.1849137533468 -1.32035827057826 -0.974470820787148 0 0
179.065407492486 -4.09598744812451 23.2349395523894 0 0
151.70593632372 2.46894676790516 -8.0638461379481 0 0
206.626673521541 21.7940376261156 -42.153599154466 0 0
200.861879359939 27.395851651048 -38.2482015483696 0 0
216.343766916501 -45.2344862733819 -22.5141321768025 0 0
120.623405510469 17.4601699283491 16.0843365090712 0 0
229.24231529381 11.5601676901776 -1.89848178043319 0 0
211.328476278542 -21.6288163798503 -35.4639543525387 0 0
151.684689120108 -4.523770153046 -6.62638251606165 0 0
206.289798224395 18.8999053902782 29.3288789595631 0 0
135.280889052009 -10.7130301687113 19.1688509484281 0 0
191.8050905199 28.2277150711696 -24.022180287918 0 0
230.789558327939 30.4093995258648 -9.27116040409245 0 0
185.719206316158 12.6995423578518 25.2551952134143 0 0
229.023063962053 21.567786399583 8.71598987709444 0 0
-24.2174770776482 0.757508593943687 23.3465120484961 0 0
-9.35395795856697 9.36634214797963 27.0639767881852 0 0
190.023074070849 -30.4596597303957 -14.1533171121677 0 0
104.441930188343 -0.954934728323355 -4.78902398489852 0 0
149.444198327083 7.515563160625 25.371989821653 0 0
77.3187498396623 19.5215285738506 14.7893511334314 0 0
215.570156406494 26.5586318412129 -42.2952703427676 0 0
177.789617001215 20.8490259825627 6.71205024820728 0 0
211.374494897781 3.25109027913948 19.9882786159312 0 0
165.323739496669 18.9213038413635 8.85979962508306 0 0
215.301256446513 19.5926471359451 -42.4529971756292 0 0
174.157022986891 -5.01843826236715 -9.43435740203739 0 0
-41.6273854218597 5.34981817266857 -4.81303293629374 0 0
224.416990490275 -24.1812389242209 20.7256152112176 0 0
52.9190980899907 4.65149835529603 26.8553903514332 0 0
218.468848427802 -40.4033893617555 6.20032715510668 0 0
116.463950234793 18.0641190942558 13.8778444656092 0 0
147.116047088831 6.08104781894558 -8.12013097500502 0 0
-33.4626222506155 27.0559074411518 8.88009571948196 0 0
-38.8134523954136 -2.74882317337849 18.564834643058 0 0
180.794357945328 20.2116212217809 14.3232681491914 0 0
44.9196944199321 -1.82002293604286 24.4698456293778 0 0
188.673941413382 13.4601681443195 -22.2162882446389 0 0
196.482108016855 32.1869925250806 -1.05636818604876 0 0
211.833350464786 36.5889216377117 -21.5583176137844 0 0
-31.8184427642912 13.5963553382118 26.5040775507576 0 0
226.103706340486 -2.07717149753883 -1.57564632101028 0 0
226.438091478329 -36.6640889023137 -34.4229094337566 0 0
172.246246638788 -16.0579801708626 -9.2537370422224 0 0
197.021074196408 33.0655094483418 -3.24746467459456 0 0
217.535471530141 -42.6794834164834 -35.0048872590829 0 0
204.985768521785 27.5585873682992 -40.4106923687259 0 0
23.9211590746802 18.2010936342629 24.2392285200012 0 0
193.149748891127 26.1398897551881 15.5066091848992 0 0
162.057016725414 18.3960763297422 3.93726579193987 0 0
38.0771068928439 5.23124127346265 26.8045615448982 0 0
217.49497320797 34.0741913465764 -5.73893024241358 0 0
99.9752744041414 0.889828799977492 -4.99769384166903 0 0
228.905644365824 -42.4327606117933 -31.0443877621321 0 0
217.092460915483 -20.7938458933594 23.0945268772975 0 0
102.159679750935 -11.3034798212653 4.92957084625329 0 0
224.152556511411 1.48642391557303 -8.23320049982949 0 0
226.275687122928 34.4082762264545 -13.7670477429013 0 0
1.95257563489021 18.137819355503 25.3327572229359 0 0
200.538751538754 33.7977792198326 -1.54626862721541 0 0
211.742367514136 37.4235056574115 -9.53884701055728 0 0
215.109724912685 -13.8841350725734 -15.9177557121195 0 0
207.236428457104 -33.1297505944428 -34.9341514126692 0 0
204.2696767101 -3.23292708019089 -19.6271155665615 0 0
221.037173555444 -21.6697097108406 22.363846725983 0 0
120.894322412038 17.7825383851868 7.49119423375887 0 0
216.133078396282 24.2255422566449 25.1616164615366 0 0
238.72926711843 -31.5016088286713 -21.026697405351 0 0
13.9318908412195 16.3679705245506 25.9941621238204 0 0
4.95707775846844 6.02104695059903 -3.8347358087741 0 0
228.518504317842 12.6921420789189 3.64834673857587 0 0
113.278027648633 15.5858259649052 20.3955348246464 0 0
206.110210937751 34.7534147637604 -1.52956623885878 0 0
229.768779372722 28.9036927974552 -1.92728083046987 0 0
192.069818562699 -41.0987464756833 -4.69187244746818 0 0
210.032412372979 -9.49381303928062 28.5705271005146 0 0
9.43187479287103 -5.3769920512112 6.80077014269444 0 0
203.975903260405 16.7536071497715 -40.7582626765548 0 0
-4.82410476569183 2.66669933916767 -3.90480837818535 0 0
215.673163517925 27.1566160329639 23.3754336239798 0 0
214.368746704633 -15.3245026853573 -15.951457798126 0 0
164.851464345891 13.8487663531308 22.0095608931401 0 0
182.18524153108 -31.8999739887786 -4.95760570782936 0 0
-12.1912463417974 13.861817031652 -0.329320365120282 0 0
141.618847644951 7.36213899425792 -7.73615805690441 0 0
191.421738442872 -36.8410954149121 -1.25270635252448 0 0
149.435259409206 14.7823827691714 -2.98284986040122 0 0
192.400830455141 16.4502195065362 -31.6575195896166 0 0
223.196401264301 -46.1831263003193 -18.0398745893273 0 0
173.171269794103 19.1405727945644 12.1941112278371 0 0
30.6755564830075 -0.983967317217964 -1.56360200496174 0 0
25.3569629255636 -6.95885459153413 18.1614765346042 0 0
149.157417632832 -10.3723551142656 20.0913439425527 0 0
221.670028350535 -15.7249856796752 25.965307869452 0 0
31.4023721081222 11.3754174610455 -0.352230658535828 0 0
232.944253264471 -40.9296878936557 -8.28727642055616 0 0
229.39799432323 -43.382866376692 -13.5155646771362 0 0
41.2146341563266 4.60520824150649 -3.80820896836525 0 0
193.054377845441 -20.1142864244969 18.2516823959606 0 0
58.275067724838 19.1717758494728 6.92384628784057 0 0
169.262913327229 18.1568587704834 -4.72477263788693 0 0
144.655816717707 -13.0626085037787 -2.11950318027346 0 0
229.259458972246 -12.6810722351543 17.410027605619 0 0
188.423355783157 -5.51241762306408 23.3777384226332 0 0
212.494546699226 0.668317823711251 19.3571361468719 0 0
56.6148054563059 17.7325399109206 4.6124013665381 0 0
50.0195097139865 18.0747896975512 4.92736202534408 0 0
207.382094543009 -10.2707529242758 26.6744519584119 0 0
196.819256041248 -6.81766456407962 -18.4485636118742 0 0
75.4574875788218 15.1756842597091 1.60895722626341 0 0
186.07884256503 23.3226801782975 -16.9250750300439 0 0
197.568210873375 -21.2581364340387 -25.1421265633479 0 0
215.173806130097 33.90665477928 -3.22630203845578 0 0
199.840528798044 28.6076314031163 -35.2370298418714 0 0
219.602420533658 0.406274198359337 14.0762958600688 0 0
190.28408123117 -38.5433313615718 -5.1717908635348 0 0
227.877491340705 26.4740404253917 -34.391538778338 0 0
110.636922182434 7.01174882422223 -5.29960695814782 0 0
85.3458491708949 -1.35740526014158 25.2079057318554 0 0
181.194888870774 -12.3811662207422 -12.2447471335508 0 0
58.8349720146505 -8.42778320214102 6.7925851890765 0 0
222.357234790055 -45.5385289750893 -6.95777843502876 0 0
25.0302356724657 6.62333052259177 27.0328471578247 0 0
183.2244712274 0.0331212685181992 -12.3279798102706 0 0
47.8353836676209 21.7042501802195 15.7883894494767 0 0
199.318164122229 -3.8748837161617 -19.3402116357149 0 0
173.575162985716 -17.6578200871397 -10.777487114994 0 0
197.440012067949 29.8213012842688 9.03858419615994 0 0
212.442757704361 -46.9790825434938 -30.4838019599985 0 0
-24.4839598447811 14.6223798645383 26.5213146098217 0 0
-20.5250478894312 7.99080922565852 26.6685260488909 0 0
215.457753488676 -39.329560458701 8.71229549689658 0 0
232.990148322303 27.1817055007136 -19.967353970555 0 4
219.095033635943 -19.9698733300952 23.9388755202874 0 0
224.572428364872 12.7016692524188 12.4483155886683 0 0
2.28520101797224 9.93628774734346 27.0824538824242 0 0
165.930391470904 -6.52592361128757 22.4942817713988 0 0
191.202952105262 31.8949314286999 -15.405070151547 0 0
240.142868514388 -37.8155593105178 -7.06533144425794 0 0
218.433277975957 3.84209815782184 -17.3640922926621 0 0
136.154980587724 -9.64844475085949 -3.19077957768247 0 0
189.075743134926 27.4413170990173 -6.49855706299525 0 0
238.542385451754 -40.0047602723261 -16.5321909090102 0 0
150.715475263447 9.50480307668493 -8.41997177596744 0 0
17.9850483761608 -6.57052672583391 8.47776551359187 0 0
136.750859252305 -3.41516554239416 -6.46459179538944 0 0
202.184374643613 21.7128241626845 30.7637575766234 0 0
210.210613055606 -8.50109432981452 -15.7967773107918 0 0
9.3943654386878 2.70328383177743 25.9053796964067 0 0
224.888657112924 2.32593654586617 -4.20021818096994 0 0
51.9038988804854 19.4586054771793 20.584577431513 0 0
206.272856547751 4.3556233499755 -29.9507310288042 0 0
95.0956388153087 18.3771295281958 8.68632883353603 0 0
186.954575234337 19.523435508396 21.4863470371459 0 0
237.083101440657 -23.2842958640472 9.15642800127863 0 0
233.5239514063 -43.0209640572781 -12.2400480803527 0 0
197.694861520841 -0.865290980047586 -20.6638662500847 0 0
96.9210583799865 -9.38496032815434 2.27508707546093 0 0
178.798696099091 17.346871504072 -15.8735699503406 0 0
225.388324761361 -41.804911169466 -0.0821706124627181 0 0
96.5653257952556 -0.160854417379819 25.742329761995 0 0
-17.0144087072141 17.6378309196999 25.8617166853693 0 0
54.0509529219526 15.0823365920258 24.7477133515162 0 0
186.199658289739 -22.2207451831257 12.356368309737 0 0
9.90670453296054 -6.82308013068042 14.4929030560665 0 0
219.016550759121 -14.0040088970924 27.1848332174438 0 0
209.460542522344 3.17997017703683 -27.1792255268839 0 0
49.6764649247503 -9.15769363464791 13.6492412435505 0 0
211.98719073495 -45.7108432714582 -24.1813589688083 0 0
90.9904025166716 -3.93720472202776 -3.00093051070743 0 0
112.21959788826 16.2996149780361 2.52942511559231 0 0
-8.78340449132606 18.7423557549219 25.2639771648549 0 0
174.117404684816 -2.56582416118887 -9.68316468937627 0 0
175.139488142492 -2.90528067402104 23.4775122355206 0 0
191.944380060062 27.480050581557 5.44224471854685 0 0
136.364779721369 17.558267462537 6.07273618295461 0 0
152.682605498921 18.1085833951489 10.9707073864599 0 0
191.164353671722 -32.0981737390466 -14.532349536511 0 0
223.171025036163 24.7776307132596 17.5817108397986 0 0
214.899882595266 9.50278793161057 20.9036699795405 0 0
55.4490718380925 -8.1243337986497 18.6889798650882 0 0
-40.68692254128 -0.854944744424274 20.6946777714109 0 0
151.157792238395 -13.5498853642428 -3.04208998315691 0 0
131.278636722431 -4.80219467494999 23.7008570465604 0 0
185.980439885196 -29.4660943461676 2.07918462510336 0 0
129.867870551126 16.3758915549631 18.3263900688146 0 0
-47.0621020835182 27.5055806388742 13.8852622385948 1 0
30.8395054183107 14.9473177110488 1.64795908856693 0 0
192.11807878452 -35.9430814444185 3.02592294503882 0 0
213.828854507223 -38.8876331826235 8.78017656682458 0 0
131.911314235696 17.1871762710193 4.53232469184192 0 0
156.219299824192 1.37001367520635 25.5240493075801 0 0
196.432181709378 -17.6578130490918 21.8932351640523 0 0
224.212053300494 34.4187499942908 -16.0313234417729 0 0
9.70380583450354 22.0358041099517 21.0384401345862 0 0
207.477394774399 -35.598804178679 -34.6108297263229 0 0
230.533800096406 14.7213509038778 -13.3845592511088 0 0
-40.3052586510154 24.8700199930367 18.9236329086627 0 0
193.775141523175 15.7130092927802 28.8985800349144 0 0
-5.97170332187513 21.373276665591 5.42041923153023 0 0
210.008426226699 -46.7926185163657 -3.51144938805668 0 0
193.503641782179 -1.62306308092706 -16.7830912898343 0 0
209.895157641527 30.4503171834287 15.5366542995741 0 0
193.173355615839 -28.4304783926255 -18.8626787662452 0 0
231.014588570816 -13.7840906168839 -20.7495067928367 0 0
62.0807671594889 -9.67858469657834 11.7987674774692 0 0
231.917771251995 22.491314982414 -9.16542927902934 0 0
82.3761699161887 11.9705747062591 25.1369323973304 0 0
172.875377406451 2.33024088246619 -10.2492207330069 0 0
136.442361080884 6.13178013135878 -7.40871886950364 0 0
215.131903739498 -3.18626689378945 20.0230593755713 0 0
53.7962023395372 -0.926604898115516 -3.67442158927986 0 0
65.7324841239 12.9181972597862 -0.0781867097341215 0 0
159.22689810475 16.4986672601237 -2.2585439117193 0 0
84.7542291562413 17.0859028941124 3.86197271695575 0 0
220.692675466008 -46.064762860412 -7.3247171972974 0 0
131.17013913517 -7.61826861946549 21.9996331309268 0 0
195.363073128085 -41.6423181357323 2.18033655016154 0 0
186.439613699807 -20.8108863602053 13.8959025836771 0 0
125.694524135728 -9.79282747360977 19.8303207265575 0 0
182.581207047774 -6.40825262467299 -12.1190317389055 0 0
-30.5320219019144 25.1759517942163 18.6678434344024 0 0
154.662266426217 -11.6259004443877 18.9765865096178 0 0
86.4972823221958 -9.91711388751166 5.70003091642886 0 0
51.6661211286094 -5.24994075866699 22.146719073201 0 0
217.250255016329 2.08751346926616 -15.9259799587678 0 0
206.992408947941 -17.7832213385494 24.7905624763769 0 0
92.8913920564523 12.6291269090253 24.4041994579769 0 0
46.7705895935115 12.1705794278618 26.2570484898635 0 0
52.3027984753151 2.07566550542275 26.2686816545603 0 0
193.939712923589 -26.7092816970364 13.6709146735139 0 0
128.571426977358 17.9830352378188 11.5137007771582 0 0
70.5816321267501 6.76916940154249 26.6968276069937 0 0
212.82966351555 -45.4243145327201 -32.7006370982608 0 0
-41.2968580124316 7.73004124207071 25.6506841493082 0 0
226.085649642526 -6.99129703206057 14.5795544475569 0 0
171.368326490168 17.6573902731848 -10.4154398001509 0 0
141.373913657125 -9.66901503881253 20.5391019898706 0 0
24.8317510034616 11.5167017066405 26.9693452247325 0 0
227.007057578333 17.65935584985 -34.7797605399658 0 0
228.742384483499 -13.6062365267249 -20.1598754708191 0 0
1.6783623608474 12.5560977695826 -0.45870208710247 0 0
114.233607965025 15.4129272415455 0.860879075102575 0 0
-44.8389340786891 6.70912157326625 25.0921545688634 1 0
189.883872542042 27.0413339927392 -2.05015464120188 0 0
151.726554194994 -12.1681677130056 18.1755677000438 0 0
224.765907261856 2.7786158435637 -9.80555217969562 0 0
229.802825888902 19.7641754695112 5.82121496839075 0 0
192.357595268039 -3.18969081194913 -15.6680195787204 0 0
94.3583501708852 18.774356449853 11.605670908559 0 0
206.887509186344 -15.6218372161405 -20.1302572288749 0 0
183.069941390655 -15.7064616209416 -15.0443074088688 0 0
173.938587830426 -21.5948036793113 -10.4099671644214 0 0
231.509298386568 -10.1765619780565 -9.37414923480537 0 0
153.366675919064 7.33127057639295 25.3957339591857 0 0
196.014830376346 29.4058248636073 6.93748686720302 0 0
173.308701372418 -23.1457199682667 -9.33660214825156 0 0
235.258297901339 -34.4462070997367 6.43828121799343 0 0
191.602726581114 24.782470569664 17.1195719456805 0 0
93.5085826711115 -11.4560553086162 14.3941311247283 0 0
105.949879542773 -5.53785118288014 23.1174300192644 0 0
229.707798787537 -14.7622264023977 -23.9557521660217 0 0
167.268157959599 8.29221252235525 -10.5039180002508 0 0
177.961048715305 0.708201117479535 24.0550793117345 0 0
241.164320825614 -28.0245413084019 -7.30285866610416 0 0
220.977352579593 3.65156223152075 12.0755584803951 0 0
124.953094292973 2.900889063186 26.1671041302076 0 0
235.07310137012 -26.9116993428705 -27.3092097478906 0 0
216.763309857654 0.0169461721332044 -15.2021787362196 0 0
76.8873487164236 9.04025974854203 26.2184005107667 0 0
220.319691560829 -46.5603555115419 -18.316054846902 0 0
175.488605118068 -15.8623346415368 -11.2476159458042 0 0
196.882255228501 -3.25460818348887 -18.9321937175378 0 0
-9.22955286537272 -5.75681258084352 15.5680299965622 0 0
236.576432767235 -24.1898635505819 -24.0085577960905 0 0
195.433642245432 -35.2073744544011 8.48985595622284 0 0
208.914961220742 31.0099364575092 12.6928711434581 0 0
-9.75519683933252 0.0944379794029256 0.164487865873975 0 0
190.036495587564 -36.3098545356959 -3.28942301067019 0 0
212.582912329138 33.4870917766224 0.453316714104015 0 0
217.379742478829 0.905159972544994 -13.1094476496136 0 0
42.8042166933773 -3.75424086774852 0.417578235236927 0 0
194.74972242103 -11.3079845051376 -16.7598660356306 0 0
7.83581565667215 -2.21774951475788 1.94852591669219 0 0
37.8986481902119 -8.16838441103543 9.6149810874646 0 0
204.672549611777 -21.8783162359734 -32.3117058281779 0 0
-26.5635885624261 1.60889881467888 -3.9123110563607 0 0
-16.071390625078 26.5244157276727 12.5119011518005 0 0
81.418462209801 -10.8185189109214 12.8117127718385 0 0
-4.86778208702403 -2.64961057229431 22.0404034465709 0 0
231.966548679188 -36.2971296316988 4.27216615725473 0 0
32.5637101048923 3.70063183513015 -3.95578729053726 0 0
178.963711365113 -29.8148402291742 -3.27385300215567 0 0
221.608054951263 -45.8832094026133 -22.9592052905117 0 0
-48.7011058503481 22.8668031498945 21.4498912863247 1 0
155.081522024733 16.617544724362 -0.589368891529595 0 0
94.4638286503659 14.1626818572137 -0.0507295852481773 0 0
138.169776073659 -7.83883933020546 -4.59100076166496 0 0
197.940940819417 24.4233983177722 -38.2499988453193 0 0
200.404190847016 5.61583883166744 24.7326299082821 0 0
103.515449832767 1.99048794181938 26.2974627304615 0 0
43.3284292018544 13.9511758933949 1.02867015768341 0 0
206.411638037241 6.68582942032609 24.1357630417924 0 0
222.500317538146 35.5241051289137 -27.2382648664802 0 0
-31.3020763583468 20.3238165976602 24.4522038184129 0 0
198.414785879948 31.5364738124843 3.98519374803596 0 0
176.596128565571 -28.923505245909 -3.74121331143192 0 0
192.18290946299 34.4556318757474 -16.8356030032623 0 0
162.952297549689 2.12339063613674 25.2703677531722 0 0
-26.3387516562182 20.2370484401408 2.84560175145136 0 0
205.109368208719 -43.6771581474047 -26.396685804514 0 0
59.604891561655 21.1866563808701 13.3407573252868 0 0
210.134760043631 31.3824984835119 11.0692697541494 0 0
237.12353571251 -15.5538772216386 1.30503997509216 0 0
197.770760051204 35.3917731003133 -10.1798274637701 0 0
11.8165643266966 -0.0697128587853242 -3.59835053446936 0 0
228.4860977246 10.1189938336963 -0.525544588837951 0 0
163.315783848611 9.11960111477082 24.6942246135701 0 0
195.00673329006 -43.1941073857788 -2.03533851876463 0 0
-20.5400163631692 19.9668170666889 3.27935712203754 0 0
156.304970122213 16.9401992585683 16.9062610126889 0 0
29.2751251124385 22.4601590826407 9.73230894511958 0 0
226.693066360016 -37.3018245775544 5.3925162289046 0 0
160.915365453232 -4.25838015811288 -7.3899728394503 0 0
218.340028202183 -46.4569987441163 -17.906285622226 0 0
229.048166717143 9.84377008013535 -7.51763083854171 0 0
198.447475757745 -26.4932772093026 -27.7334921998983 0 0
232.805707233879 -37.278031883368 1.10307352803933 0 0
-13.2191982312021 21.7832507027978 22.8226504327516 0 0
201.44288684946 22.8925390509012 -40.5332080625627 0 0
229.125407421159 -19.5636005298623 21.3539192100652 0 0
186.153774669537 -20.6681715890917 -16.1579163535361 0 0
231.709183790753 20.9577582950166 -6.21457071022882 0 0
98.8249521623402 18.085335555782 16.8391058079053 0 0
235.933424561628 -29.1314970030961 -26.2039489753983 0 0
54.9159916922801 7.71935213526736 -2.64910819226852 0 0
70.7758229329502 -5.03411468857088 0.136348119213846 0 0
-26.213367989044 22.236678023672 4.34357929983179 0 0
228.855735206122 -9.74089267250078 13.6960310036419 0 0
20.4989071726885 -1.72931286710748 0.3521277106668 0 0
-24.9343482289442 5.46768410242149 25.8177670289617 0 0
158.841527158179 -18.8416506353022 0.102304890850264 0 0
-13.5860619513344 -1.85301971295225 2.48960479922562 0 0
-12.119433021557 0.790835954330503 -0.996867186344981 0 0
218.055058675323 31.7242680292608 2.42832216317228 0 0
208.899556500061 -1.79388632088149 22.9442598564064 0 0
69.3785537768566 2.77494245849396 -4.42486063481078 0 0
4.33088750230081 11.64953450489 27.0541861598189 0 0
134.963686508811 11.305075641311 -5.29297485390606 0 0
187.030348833501 24.5230038537568 6.145457020889 0 0
211.402033929322 17.1941347798723 26.8373350066127 0 0
22.9486405415179 -0.146424971432317 -2.39833110460212 0 0
208.163939257056 29.5916718329553 18.8695301137518 0 0
209.938853140924 -24.0010684930312 -36.0574964714412 0 0
21.9293185674677 -6.75877812800389 18.1714080213548 0 0
227.507364449933 6.68158504613211 -7.17671026607989 0 0
174.580449297322 -6.90576649523572 22.1337302074073 0 0
234.59309775888 -15.6833338646055 8.59749771959439 0 0
-45.4574285563614 11.5059815307662 25.991622729203 1 0
20.4649760464596 -2.53239019879708 23.462485284116 0 0
224.405765448622 32.5781246962765 -6.31598189205852 0 0
-9.49450401326521 20.920779050321 4.92704207803981 0 0
184.544195922776 10.5545698247846 -19.0787490383199 0 0
227.21919443653 -23.9919628902295 20.7784307253417 0 0
-4.61630635573465 14.1604240925884 0.132140307976851 0 0
57.5223093445403 -6.08141132375897 2.70430491680883 0 0
72.1136627909128 18.5524155411376 6.25323329584949 0 0
222.062909623368 -40.559731785981 4.51747559346583 0 0
141.0506958159 9.6211723182191 24.7369351867055 0 0
177.912944167778 -8.66285783757204 21.5225756161186 0 0
5.67001087615108 24.8162638818545 15.6835120599934 0 0
187.799416086588 -9.38690058773106 -14.0886267776327 0 0
23.3861838245255 12.929652464969 26.7660175331713 0 0
217.112800640187 -46.294219460601 0.21162112020696 0 0
117.53549841966 15.9797765143699 1.67811406012285 0 0
46.0615350709325 -2.75549552368164 -1.50629515506645 0 0
229.406234952593 28.5768443433262 0.370771006238141 0 0
158.076176532865 -19.0155973802709 4.24691072322576 0 0
227.634420461963 -34.8595820364933 8.05614275009878 0 0
51.8873045063156 -7.29730584200924 19.9045615073853 0 0
-32.515397450258 16.397694994578 26.1296204301108 0 0
133.057541639748 14.1351430418332 21.5755900643534 0 0
185.058429035155 -0.114600932419497 23.5973198125104 0 0
113.04675174934 13.9025398676033 22.3733566206372 0 0
230.315471243284 -10.5886960969836 -10.7528897415691 0 0
-41.376196950295 9.32384959399345 -5.11549647833437 0 0
-9.61379325484586 -2.7757136381334 3.60278410084694 0 0
222.669440255612 26.7890479675281 16.5795902832331 0 0
188.488969943058 -24.9701929178672 11.031899342639 0 0
71.4373928645299 -7.91638743331368 19.9046826713792 0 0
225.322107478135 31.3922815619503 -3.66459571640104 0 0
194.965901846755 -5.40476414015516 -17.2017028097009 0 0
188.078730064211 -30.8848820630631 2.95100688872156 0 0
237.468238714642 -28.0671226789856 11.4005830162716 0 0
230.85679909191 16.8007848753996 -1.98150769187483 0 0
223.49617125966 11.2169078260141 -33.9982219418327 0 0
223.377255834622 -12.650682755695 24.5178906444435 0 0
216.584420303599 33.2398526339789 -29.8308526053484 0 0
221.626149330918 -39.4243376812879 6.35601510292936 0 0
234.028441673519 -40.1144375100865 -6.41217045226937 0 0
142.990337733027 18.0229076880828 9.05279942674189 0 0
163.765323317167 16.6853171472679 18.0165325014498 0 0
-42.9486467833671 14.1627985221664 -2.39883760635058 0 0
148.567147226853 17.9291888658421 11.8875633394278 0 0
215.690468405701 -18.4794383576405 -34.2595500650529 0 0
203.747719513528 13.329940988765 -39.4113437183686 0 0
201.957278267672 31.6292142964944 -30.6333116076811 0 0
52.6025575216972 8.54716216300035 26.8342650133561 0 0
202.561873427231 -11.3584802417111 -19.111607653789 0 0
209.214024067244 -47.7628438682996 -12.7277340783815 0 0
219.376322105946 -38.3903296428085 8.42452580847148 0 0
-3.54862840987562 19.6867181656302 24.478468497746 0 0
-46.1753863544937 -2.95835591816184 5.74353533847568 1 0
-14.9392869985082 16.7402477485626 26.1757383968488 0 0
206.512451248492 -37.564586425923 -33.3670298121093 0 0
58.7938251250873 10.2630968417867 -1.48435143193397 0 0
232.490517485303 21.8570342592039 -15.3513025072371 0 0
108.145680911598 -0.816594442214416 25.538230633434 0 0
196.854314741656 -43.6077478237417 1.97940143186299 0 0
227.08411845098 31.0810521961234 -35.0135147047698 0 0
194.186290053337 -35.7874035957794 6.80102968408813 0 0
217.539453273304 30.921994324888 13.3202545161597 0 0
228.632122525727 10.8806188098379 -19.8946183885177 0 0
39.2386827879215 22.3870448951438 12.3233542416423 0 0
96.3457553196955 -11.0619978805041 16.134400227736 0 0
226.289095704695 34.8809948533505 -16.8400421595506 0 0
115.141428510599 -2.01532453311754 -5.18518615382214 0 0
145.76222743489 11.8988445472581 23.4802381171996 0 0
190.573452009141 -14.8800910576061 -16.0688658949238 0 0
179.027751923386 10.1835500143558 -15.7000736244138 0 0
157.32088245342 -4.23454982655354 23.9188970387497 0 0
219.622107339228 33.379252232811 -21.459605043189 0 0
15.1927535986445 -0.886999070002034 -1.00820654255751 0 0
34.1184709490676 -8.24236876701889 11.0766778985243 0 0
187.342990838218 -31.3089210538241 0.788002119524784 0 0
34.7669148950451 2.07166418415521 26.0384629666716 0 0
-13.7005808710102 0.932813768884967 -2.96697344063829 0 0
152.496591419304 -9.97727681178972 20.5229666852189 0 0
115.804598381527 17.5234491176093 16.3614487786657 0 0
25.4919623455298 9.4139899775108 27.0996501938883 0 0
51.6938473699152 -8.62059589667402 17.0654627163083 0 0
236.246037212487 -40.8124702087815 -7.76724460566728 0 0
210.467094718501 20.2020816706576 28.4799558691735 0 0
-0.325213443326702 4.07791845236286 -4.15073094524759 0 0
40.8601424577511 21.4240945146828 17.7913558009996 0 0
156.776990917548 12.2593491465075 23.2391391604414 0 0
190.43943488548 -23.4778741256584 13.8248613894556 0 0
217.588394449161 -39.5963701223573 7.57566742676944 0 0
222.926853377168 -21.4334272528592 -35.5383514707535 0 0
216.694455100012 20.4866681891932 24.6793170271033 0 0
-0.0900976698862927 9.5386695900888 27.1102304789458 0 0
214.442088883823 -12.5683106820761 -14.8725524573958 0 0
154.819096921466 15.6200188940165 19.6552431616398 0 0
240.696552795848 -36.743685059549 -12.4504910050158 0 0
209.742286922668 14.508604343566 26.4177638772477 0 0
192.558819394578 -29.1487573295215 -17.2336415197134 0 0
183.38620256322 -1.46234951189431 23.7456745786804 0 0
17.7032783708574 14.6327124466236 26.5410152896623 0 0
-40.8282224001972 13.6018702512334 26.1977897070001 0 0
135.526259656008 -1.61566015787339 -6.47567940059298 0 0
-22.2857757591972 8.00116449910232 -4.12398027567659 0 0
210.816814250901 28.7262175820414 -41.7353539162595 0 0
231.138046725204 16.6109912917866 -22.7156678735455 0 0
173.996196569224 -24.8834966099302 -8.3904233982429 0 0
224.001139564642 3.71330156536506 6.88085129616243 0 0
109.468302551252 -2.87255008825569 -4.59733779221595 0 0
14.7825267791752 10.8623376369549 27.1405597347741 0 0
117.134586035983 3.53151814526715 26.3059646696394 0 0
126.689348532648 17.2359755443909 4.8299154721498 0 0
-39.8770341959057 14.809017065493 -1.82177207650578 0 0
217.283866520262 -45.3551234743991 -33.1306109222777 0 0
189.406748780666 18.1428168538575 25.1880581284296 0 0
-0.416140196418809 18.693533874768 25.1110498635872 0 0
204.084191811917 18.3668569853298 29.777529791124 0 0
173.168093429392 7.46394098177346 -11.8403552693434 0 0
236.077866628089 -12.9013928360315 -1.9080342690303 0 0
213.005796459283 37.4487876551181 -19.7010791526417 0 0
228.824453419683 11.9630704308004 -22.6877189520935 0 0
182.004495845218 -20.0795728013537 -14.7057951136546 0 0
191.792910738708 -0.0707625800405666 -16.7178112719933 0 0
147.080140995482 -14.6824705204176 -1.00566991997332 0 0
-42.8937415768781 -0.370046352940753 1.56867798637511 0 0
199.124744132668 22.444758818143 -39.2643657018095 0 0
230.909843187184 -38.5047549433747 -1.56680127350757 0 0
188.431675371123 -19.9944638919409 15.6508114134133 0 0
201.952780019059 -43.6320351849857 6.50324268990019 0 0
223.716287599446 -45.5356706196648 -5.32173496099922 0 0
60.3803630385547 10.4730151674704 26.3731983120821 0 0
209.651872411879 -46.5789078020535 3.85837256303662 0 0
212.008328747388 30.9326163258681 12.172352667377 0 0
204.904062521416 34.1971619380501 -0.128030156681994 0 0
32.4310801012349 4.43752743375242 26.668055914125 0 0
154.134336534033 -2.8603176847568 24.5374970723588 0 0
211.893295782915 38.5826575437689 -14.7990099422791 0 0
192.192492009924 2.24557457838885 23.6995274581272 0 0
228.58431431999 -26.9750935939733 -33.8778831675499 0 0
201.974588324753 -43.0928714570402 -19.781675553514 0 0
83.1803567676824 17.2300025667889 20.6569632052496 0 0
27.6824166917472 -0.674507078892816 -2.02117454056718 0 0
216.999864311341 -16.1223000861828 26.7077929691222 0 0
213.205875843051 -3.69001181508207 -13.6105309698392 0 0
222.073639812569 30.5746768596667 7.29668050418012 0 0
98.2601598927002 -2.86708746504422 -4.05125689394754 0 0
219.423273710327 35.0407405974672 -12.3373294806074 0 0
197.102601005515 1.33049142227104 -21.4223114658309 0 0
92.0241801361674 5.92981411423243 -5.24122792599997 0 0
154.434694212769 -0.382377544558746 25.310280378453 0 0
174.707297331308 4.28102834044179 24.5786884874517 0 0
209.136274604687 -11.0632639046452 28.0428612895455 0 0
198.523663322499 -46.2851679403554 0.334816231553375 0 0
36.7305861540952 20.4013706809931 7.15503085028283 0 0
81.5511702633373 11.6589450585852 -1.3340788282176 0 0
193.257416093556 30.7546697792338 -5.65007308127566 0 0
79.5747652858033 -2.9116323750294 24.429963515377 0 0
109.836237777564 12.5577151092978 23.7467691148202 0 0
31.8281956086579 8.44110799762372 -1.89105051543866 0 0
222.563425118312 2.28179036166639 9.48121039732362 0 0
-31.6328023478108 1.34768467737214 -2.44265894549128 0 0
115.386137738328 -10.3946782911184 0.658082765308736 0 0
170.905067327065 18.4053249598868 14.5232416815228 0 0
228.856439200017 10.0721600900148 -11.1790378385252 0 0
207.590438834867 12.7948003753921 26.4653321286205 0 0
218.268766770786 -46.4803714647652 -12.0009732715556 0 0
27.1722261787943 6.58032965257249 26.9964953645082 0 0
209.671011185859 31.6287698428804 -33.0284569830749 0 0
132.212374281968 -1.24517570602102 -6.36665650344717 0 0
221.947759180036 -13.7817700574535 25.6669131150955 0 0
78.3989092236249 -0.255464116383675 25.6137829375556 0 0
216.730124023511 -11.3358718335712 -12.3192408509006 0 0
109.730232846359 4.65003046382361 -5.9276800070841 0 0
215.528599278298 -16.1668185425931 -18.9392260665237 0 0
220.976999204661 16.8023679265472 19.5058386382048 0 0
234.158408519549 -34.4035724279483 -28.374414759996 0 0
-44.6811424934074 23.6466294550684 3.68176652899328 1 0
191.234498021556 -29.3495437899948 -15.6024656076718 0 0
57.3542530884492 19.6399420821639 19.4970413218259 0 0
201.228389487543 -19.8296754369963 22.9464698379957 0 0
32.7836839495518 20.7318480556606 20.5613191372187 0 0
211.139263601166 -16.9444185887935 -32.2402869952402 0 0
167.913103741641 19.2665929148342 7.62890646314755 0 0
154.960359186156 17.8210690909257 13.6442187190529 0 0
-1.88066298948037 8.11857598444663 -2.43807097449031 0 0
197.778127819266 12.841172537702 -36.0307427795878 0 0
189.814132790418 19.976902406988 24.0891907720298 0 0
112.48017495717 -1.01795402798687 25.3858143200245 0 0
194.566687218201 -30.5237097103592 11.4046653103894 0 0
203.318535425881 -44.5255032823051 5.60542417737043 0 0
178.490762998859 17.0021059366977 19.8921220786507 0 0
213.933416542577 -3.86645441250518 -8.83452800016381 0 0
16.5231911071715 0.18082078162679 -3.02998896013368 0 0
150.773673348392 11.4071331669432 23.7711655674936 0 0
208.417175322168 -25.4900250436246 19.9917040311279 0 0
205.861788961059 35.7680801760977 -25.2201385063389 0 0
193.018486297502 29.8683304711961 -2.66646815457419 0 0
79.6080242788322 19.0313933227633 16.7959261326438 0 0
201.8085465588 37.4556053982528 -9.88440349691069 0 0
220.745368489675 31.699255743777 -0.508070815588154 0 0
210.693329575669 -26.053113523689 19.940395731496 0 0
-9.14242010312691 -5.16176797248231 18.1907656885315 0 0
170.373470481665 19.6163037390699 5.11667998724454 0 0
226.981057438903 -31.3349204440671 -34.7690621487023 0 0
203.786880302415 -1.16826366382664 -22.2118271751697 0 0
-19.4237268077247 -4.99317044143337 16.7678572451258 0 0
192.942599709023 -36.4657056433024 -14.6285906738336 0 0
198.982296869286 25.5604427753481 25.8952087548974 0 0
211.402936189112 32.1287268610059 6.4655395072047 0 0
64.8329530599358 3.66873776339618 26.7085706719125 0 0
178.238547777743 -11.2295519615754 19.7448056493445 0 0
139.254496056552 3.32953484428024 26.0836462297887 0 0
-47.8069580985078 2.40198425872154 -4.7068958586809 1 0
207.980429996625 30.6185127692685 -34.672041401715 0 0
220.784539309006 3.99029342546984 -20.9216883109539 0 0
13.198197299962 18.4182141314935 4.05378366148438 0 0
212.221736338054 25.5518634541011 -42.6476971085628 0 0
224.860897793452 -3.28774618879236 10.9658185313128 0 0
86.3030714236606 10.2574019224379 -2.41730193885018 0 0
4.38989785841521 -5.90449817101761 17.6780985958752 0 0
213.697322034583 -14.7862039153851 -16.7475331051397 0 0
226.048514997546 -3.56704936717622 -4.96538020801219 0 0
235.263840434153 -12.010938011329 -3.96200145435148 0 0
175.621096708514 -13.3496268130734 -10.2133265133803 0 0
-14.0057604028275 -2.30558917172477 21.4855430441979 0 0
-34.7433287953722 2.14924040001236 -1.60268315566868 0 0
185.058837424789 -26.1249048606693 6.72144476396656 0 0
226.375898453607 4.44605801283836 -2.75141133462227 0 0
155.837320364304 6.85574642156815 -8.71192303965409 0 0
75.6148953963359 11.8000438540798 -1.05554196121826 0 0
-38.735506894498 -5.11158142840849 12.751631551416 0 0
212.156023911302 -46.886633029142 -13.9155510664813 0 0
176.796978536657 17.662746301519 18.2039260189878 0 0
219.730052386517 -14.9941783270446 -17.3324681307832 0 0
137.319335803515 0.906449571177276 25.8326576210289 0 0
204.270578329478 -42.3029540132993 -30.4436600797415 0 0
-43.3831183637655 21.2841503297932 2.08897671248552 0 0
234.639644501296 -35.5978018433755 4.92951722386685 0 0
24.0437968065917 3.12809424620748 -3.70599889239918 0 0
212.721926297439 -17.4544937074303 -28.8029560007836 0 0
