"x" "y" "z" "f" "a"
27.4092526981311 -12.445832734623 -14.9494386187826 0 0
186.781985610363 27.0919673843588 32.6732778635142 0 0
158.003657285913 -10.0322396023191 -19.1044621543925 0 0
103.708993827529 18.7884934643323 -6.09608843250318 0 0
199.989303638409 -9.05921326964343 7.08205389254882 0 0
125.043001290466 -10.9049215108883 5.28027846070615 0 0
134.177243074286 4.81993656860864 3.37450561178978 0 0
208.299131943299 26.6884236648866 13.4180255041464 0 0
178.751855806114 -21.5063948244892 -15.8730777689131 0 0
131.337604392364 0.484979208036558 3.937937979216 0 0
36.390664142447 -11.4069944141405 -15.5384917637355 0 0
187.386295639284 -2.90164558647383 -16.6282343998247 0 0
157.722992416682 23.7706359120405 3.15695015724903 0 0
161.153830597039 -4.09424083731931 -17.7090702744413 0 0
-84.5650202563109 -9.63999051140734 9.29225022513277 1 0
49.7044554052038 12.9586187406445 -12.6067258159316 0 0
182.387300191679 -19.7054841819508 -17.6575521249762 0 0
167.702876146675 -19.8153025849585 -13.9981074302038 0 0
55.5815989049039 13.8284762229736 -10.8464004807974 0 0
-22.86064326395 5.82668248261193 -4.55693389213249 0 0
151.809067709226 -17.6961175164109 -5.87916889936332 0 0
188.053415024573 -27.3962357396544 17.4897780293198 0 0
162.273864234221 0.542286577421656 -16.516511472443 0 0
104.84633769384 -2.15958813493896 -20.688281134225 0 0
34.9887372078857 11.3813699117525 -11.4168014966649 0 0
56.2883307032512 2.65842579590081 1.59087503227085 0 0
191.541518039747 3.15841243148409 9.91732135483634 0 0
18.549299614267 -2.03538028874064 -19.9652942325399 0 0
43.1672859262978 -5.75887330301252 0.93204223240867 0 0
166.710346497931 -24.0723001230269 9.61427782256786 0 0
59.0245509650936 9.30305177891067 -3.33675601026312 0 0
186.353405453463 -8.1770736188252 -21.0011508731926 0 0
10.768862288471 8.46803066219723 -13.4822934275569 0 0
85.8167576038396 17.2017028776568 -10.9659602561259 0 0
120.094694405799 -12.6147630993024 2.60435948309268 0 0
-55.0426506734935 -12.1484166261508 3.4633218260235 0 0
46.8535097559363 -12.0601795527084 -6.6939869205556 0 0
18.3699919457827 -13.1118422581576 -6.63731801287583 0 0
149.297856554054 8.42597864953811 5.30203511897807 0 0
145.365730616001 15.29208623867 -14.6624218030501 0 0
182.94336617245 14.6083062430894 -17.8788284088598 0 0
-16.3291036893204 4.02419787944434 -15.6200974969471 0 0
154.693899374777 1.85433084041019 -17.4444263015668 0 0
160.548895020118 9.19804711601186 9.55529308680377 0 0
75.4170449121921 10.8541873310194 -3.14593823956506 0 0
183.743161427761 -6.8293197050649 20.9425725989432 0 0
171.22820563608 27.2253301714237 -6.55500713554977 0 0
80.1331605987864 -11.6480651294192 -3.17149824189685 0 0
-66.9910821214129 -12.8241136619512 5.43902176892532 0 0
182.112861857209 -22.3983916146545 -14.2329520742347 0 0
1.48521963913008 -7.99473812468581 -18.8950166970142 0 0
57.0176453751479 10.9120833475345 -4.8972483007271 0 0
-67.8737464714474 3.85000765219835 -9.90534009889538 0 0
-62.9389637442889 4.72793866139679 -3.80954636605009 0 0
103.526321642876 18.7645900345511 -9.89293591294876 0 0
-5.77341462592102 -4.05637341734914 2.64412362432237 0 0
176.714146301791 22.038788781534 19.8406381659979 0 0
203.114965198776 14.3134559219398 -8.65220203213928 0 0
39.4771081622218 -3.7216633745257 2.66166466503581 0 0
113.31832935487 8.59341598417659 0.41361081330632 0 0
181.131495524094 -28.2758361732699 2.52186549030999 0 0
88.1999199364096 -12.2426260680261 -4.27938652198153 0 0
122.648366252556 -13.4430103644894 1.83913270578486 0 0
188.785870824838 28.920315941047 -4.78556184832056 0 0
172.575800499984 -19.6267277702238 -17.5940065377232 0 0
186.287049989466 -19.6517964550051 31.2733565471529 0 0
165.997946001678 -21.6930719024054 -5.99000838484957 0 0
159.953443346704 -5.42730926398769 -18.2362795641213 0 0
7.99044075237755 -13.9676959902037 -15.2048510684008 0 0
192.536529285289 31.4508899278458 25.8949838309021 0 0
4.26399002005228 2.67895862675269 -18.5911747762765 0 0
86.6252498335879 10.5955374143826 -17.5783170845226 0 0
-60.3334902992499 -15.5022779744423 2.34562840208477 0 0
46.5701796923068 -12.4280153647359 -11.3389872430603 0 0
160.254425524648 -12.0644940141171 -19.169094645395 0 0
31.100383690347 3.05022022355336 0.846966114072561 0 0
180.513666797627 33.8779929001476 19.6838321297535 0 0
100.285757727038 16.2913450559251 -13.4621899555741 0 0
187.928570119717 34.0174074702565 12.4570615383272 0 0
-10.816361202206 1.89964386820022 -17.8191369035084 0 0
184.623980449584 4.92148863987628 -16.8150134311861 0 0
-19.9755387147456 3.26253938787594 -1.38929066005478 0 0
-83.4724677030713 -10.5064655835231 -14.194156996555 1 0
132.13731708117 13.4219991677399 1.76390614752754 0 0
190.185300588198 -7.09987937856943 -18.1523928143181 0 0
4.51189346027299 -14.3769354012253 -7.44992434418271 0 0
-38.7574983701638 6.75944819159345 -8.46680226723305 0 0
98.133855651312 1.39778966160726 -20.9201566620109 0 0
172.722248281467 -11.8524017343796 -21.3765038254485 0 0
-59.1351146505798 -17.2438697616992 0.962750969056692 0 0
-80.111758018644 1.84863795275451 0.236042583544281 0 0
-16.1984458454031 0.41133605184104 -18.1542731130403 0 0
21.3098603680098 3.19395941818457 -19.3503432649575 0 0
186.675641101766 12.9166801601726 30.1796966181361 0 0
62.0209075996949 12.6009444046115 -15.5490833977079 0 0
175.954632375167 -28.9994532438408 12.7901796924734 0 0
-59.5306660165315 -13.1471333377053 3.65858303464568 0 0
93.1977993247187 18.2062118025359 -8.93139325735638 0 0
45.3116123516485 -8.8502642895887 -1.41392588259698 0 0
150.838196994698 14.9625454778596 -14.9557758245364 0 0
85.2275063321426 6.52601131246008 -0.551216293898516 0 0
184.75348392016 -2.3919919193441 -17.1660294550241 0 0
203.25664335433 -23.77859139735 16.2120119144405 0 0
193.022602870135 -21.2107736413206 -14.078594275813 0 0
192.692708507915 -4.70191147899278 11.658531863056 0 0
195.015341900353 31.5284003525044 20.6352934695462 0 0
153.765214113553 -17.8724619008778 -6.57922532546294 0 0
-63.7599495279392 -19.9189475820729 -1.5467041648812 0 0
-75.2097286915249 -8.28617562458277 7.61325646601571 0 0
73.5653727575464 -4.18432811250704 -20.2221762830032 0 0
94.696991387271 -11.5964099815798 -0.587351227372541 0 0
-52.4402706559138 -15.0570178722097 -14.9094325061966 0 0
126.698802410825 -11.8493010150168 4.9440793127944 0 0
2.00263957627059 -1.2918722587584 -19.6660527012899 0 0
-12.3515438924966 -9.52324215735906 -18.3452706962638 0 0
96.2435269225793 18.4903812333525 -7.70301065238971 0 0
11.132588978367 5.37692665296839 -2.32883263227537 0 0
-14.4922487389166 -6.05658806228723 -18.9952085136018 0 0
124.907770674647 0.0263736900998485 3.560103191697 0 0
201.095730981307 -13.4893739527667 11.7967359060598 0 0
46.9435126307605 7.10781283518579 -2.36310047431368 0 0
170.599086536451 -8.35382461261647 -19.454530379302 0 0
106.739806368915 -10.4744089683577 -15.4374924079232 0 0
112.994560608238 17.6203959689263 -12.1871466305515 0 0
178.85088709387 -20.5582445708516 -17.5168555165262 0 0
199.408908601464 -13.6807263534702 -11.9089586986997 0 0
-74.4182395134392 5.45775128281442 -5.64374186303611 0 0
175.372189951808 4.6708916114844 14.5599927826019 0 0
15.7878179039119 4.10492063702241 -0.773174853969159 0 0
203.26351438234 -25.0023534088779 9.6080084878726 0 0
-79.0946000153153 -19.6233416011047 2.77915131563092 0 0
-40.5212966826896 -12.6975612918324 0.95289369803089 0 0
8.45809955276682 -12.7452222951998 -4.56339947313841 0 0
-55.4787088405798 -8.30723480589412 -17.0757579165632 0 0
197.779866099916 -9.37336584074852 17.5079014372856 0 0
177.837877525297 11.4650663924021 21.4687064215473 0 0
190.116566729021 11.5993655513324 21.8733339369458 0 0
17.2752643626619 6.84839421326969 -16.792876678637 0 0
116.141477896763 -8.24229759903503 -18.1034040122468 0 0
114.358916573109 5.75902867461753 -19.3885629471644 0 0
29.1875931839069 -13.0253539257715 -8.19215472554922 0 0
130.690892473717 -14.4550257492264 -8.73605171921683 0 0
16.4882749392127 -1.69659077453144 -19.9382752190262 0 0
140.689527125291 7.44122412766987 3.62058106426441 0 0
60.545430141224 -10.8720677310686 -14.7376115973261 0 0
191.928682459615 -28.9221377389912 26.6969456254915 0 0
77.6177190307282 14.4397780134171 -14.6201926226445 0 0
202.20844126464 -20.2520467396888 1.50476615836908 0 0
201.301398607301 -17.5360213515283 -2.70434266288132 0 0
99.6468640639255 9.68961384390918 -1.13677207199316 0 0
115.603989744718 -4.74517796334885 -19.9284558752762 0 0
199.763544238284 22.1124666496163 -10.1684447692041 0 0
180.307593070998 6.5353640258155 15.2889477063127 0 0
47.5872236788759 -12.4221102247198 -9.04050701415365 0 0
34.3122459307559 8.28713227867403 -4.27989868061235 0 0
152.861241247436 2.06619801034721 5.97589530486895 0 0
95.6757703049145 -1.79039168630764 -20.8744234774409 0 0
6.77888359179729 7.96464843952931 -13.6280998211423 0 0
160.099120233568 -17.1939769245809 11.3305656720612 0 0
199.283384341849 19.3311940544725 30.3618881180547 0 0
174.233143317227 -23.935817909702 -8.12483482445167 0 0
-17.3797957834081 6.9938747276889 -11.3639877802717 0 0
-35.6314138609174 2.66115237614311 -14.4733927796849 0 0
164.857048212771 -2.09768057773148 -16.5134530679465 0 0
197.046302575446 5.68261656586153 -11.607125979363 0 0
45.3457322330032 -4.76723232867743 2.10632210635984 0 0
-70.2718414952708 -17.2546167466421 -12.509100812756 0 0
162.276442374466 -22.1378477190331 6.05175349108941 0 0
82.8542353490266 17.1739560019465 -9.89186580776571 0 0
208.719762630186 19.9528104085593 11.4491100065897 0 0
146.792018932393 -16.1559550132884 5.81558474574772 0 0
178.892269096467 -7.25002646353981 23.3505040550668 0 0
124.960047780624 -13.4441186089837 2.50556843700882 0 0
36.0450694597065 -3.83280355549796 2.66651801102745 0 0
47.1004829217641 0.641287296837583 2.55875506601059 0 0
-71.0349097172773 -12.5517675859819 7.15549840499273 0 0
99.9506216614966 -5.13344960756175 -19.9021186900241 0 0
-64.4101355410947 -20.8692072448702 -6.37251460018113 0 0
21.7317909340494 -13.8180373457729 -10.5222433310952 0 0
-9.81045695448389 4.75685400424787 -15.6265881211634 0 0
69.35318793614 12.8957671504037 -15.6740110355668 0 0
202.796851467262 19.8738979844245 -11.7592365918963 0 0
163.339762156458 -20.9632798222549 10.8057205366194 0 0
193.595051930377 -1.44705546804611 -11.5521058104455 0 0
182.915731941281 28.9449359937336 -6.16346609936157 0 0
24.9263809793945 5.71356763333438 -2.17991874140096 0 0
-49.6210294992301 -19.7584062120164 -7.98818341688741 0 0
207.049321436469 28.9093694798769 10.5260207495879 0 0
203.612504066319 15.6752170004776 23.3516317411157 0 0
37.0118853411346 0.371101294889847 2.71223667260838 0 0
137.324778722193 17.5626793745967 -12.7429702891608 0 0
175.969229142838 0.856544471574539 -13.9748300794603 0 0
75.5070857022851 -3.75875208146782 3.01503282081473 0 0
195.564293199926 -19.9376491476521 -15.6641380926233 0 0
136.603387407241 -14.6508005516851 -10.0461837420538 0 0
117.940450881206 -13.8957601264636 -1.32494526818361 0 0
-12.2135032605843 -16.4153960784862 -8.90233857787416 0 0
202.043424694368 17.9620350211018 -13.5777844266063 0 0
192.508867052531 3.37159084052366 -13.8491699665834 0 0
143.36782511555 -16.9808216465545 -0.963542233030486 0 0
191.360273257777 30.5661622785315 0.725755375220611 0 0
202.099241872651 14.2114864558659 24.4150403447996 0 0
162.637554135837 14.8631491177997 9.87637911333314 0 0
198.576959558184 -5.21960850062593 3.87923383738065 0 0
-14.3920017029463 -3.73216040809136 -19.1149104607034 0 0
200.622793625865 -9.16605447168168 4.2790101787945 0 0
171.13226025318 0.890178071431149 11.657410651475 0 0
111.36399293321 -11.9289552271243 -13.0106472073967 0 0
173.407138491311 0.333857829920569 -15.2319380876261 0 0
-36.7950897501334 2.93428686347002 -1.82265434690761 0 0
190.366307565737 32.7931605392934 4.83201019698984 0 0
199.633020650029 27.8297205462764 -0.123228177493682 0 0
151.846367100374 -1.21902074925661 -18.2054880028642 0 0
55.3624033514017 -12.0892074645353 -7.33296672918893 0 0
22.8645105810638 9.82483311597658 -9.13835156454533 0 0
-23.3642878645377 -4.48302689588229 -18.7640531888548 0 0
-74.3573532367052 -1.63997040349318 -13.3426127673613 0 0
206.677203872777 26.6524732168883 20.2458407385636 0 0
146.079621637616 3.90731229292439 4.79802477451555 0 0
-58.4749411942794 -20.4201886565352 -7.32351326212673 0 0
160.505557661921 -0.276650723216069 8.22300903608029 0 0
87.0087228963292 -5.82874437007785 2.88318147276197 0 0
-5.65236630982299 -16.0851196214721 -12.1230592857358 0 0
127.843952361175 -8.80838541693177 -17.997315670124 0 0
161.52200962663 -11.5823162006053 -19.4985562495902 0 0
178.998486460459 2.98007783865147 -15.2550016392746 0 0
201.684133131169 -11.7998889188973 2.1504977530517 0 0
195.909151260264 -20.2585972422592 28.5563442258714 0 0
165.568810663335 -6.89052418909375 11.755203630944 0 0
204.071070843352 26.617713338277 -0.590861736382431 0 0
73.2276919531097 -11.4332282741317 -13.0141649613203 0 0
134.897656413013 -15.4935981944826 -4.51410363447062 0 0
-59.4867241365233 0.205660351973549 1.17421870957529 0 0
64.9635032931645 -11.2705820020705 -3.85184137074585 0 0
110.201411409057 -0.873309265800844 -20.682347824306 0 0
195.872164773203 -28.8290315197624 21.299334958437 0 0
166.419582795433 6.11535081590737 9.48880967748183 0 0
190.546697722591 4.12848867092096 -15.2370968222903 0 0
173.470348492252 31.8349477818936 14.705679527441 0 0
161.323565132455 8.62301764645728 -16.323695377262 0 0
148.17802142488 -11.8995427510226 -17.1436586960256 0 0
176.138640673958 -4.30812257874582 -17.4820503361878 0 0
80.7028568878482 -10.8593784664461 -14.2591419663567 0 0
58.4661513202421 -12.0514383907028 -7.30887727347954 0 0
179.796808349774 31.9711122031795 0.00875310199759694 0 0
71.126222968148 -9.37602628295918 -0.379227941349753 0 0
196.683167421905 -8.57414910506827 18.6525447064814 0 0
112.86056545974 -3.69585217204877 -20.2421577231026 0 0
183.884812673565 -27.6738112523172 22.0081685678724 0 0
176.869169784846 -20.9200861486389 28.5156513111443 0 0
186.090881742581 33.8628968420308 18.4262508408033 0 0
153.447173048159 8.4231647023752 -16.7527101007591 0 0
124.390274315342 18.5078315135547 -11.3384093184167 0 0
6.62561220038245 -8.24434120658873 -0.217591607916627 0 0
155.447685316074 12.169333861352 -16.0411122527703 0 0
104.217891421669 4.82972288315693 -20.0804584137564 0 0
14.5417343565938 -5.38637955296847 -19.5169061529917 0 0
147.78319548659 -16.8828740583788 -6.33264006517639 0 0
-84.8869184779186 -21.904098273269 -2.71531576976778 1 0
-63.3112304618944 0.976955328380315 -12.8286954199891 0 0
112.981435524971 -1.54570375139804 -20.5652350775636 0 0
80.3196638362024 -3.00152994215112 2.74406460796658 0 0
-46.9826591186884 4.84362251879649 -11.758818921379 0 0
14.3690111804108 -5.82172155176569 0.907291899626292 0 0
189.498612356875 27.4326496108815 -6.7825372615479 0 0
198.430144435695 30.5160573794608 10.8878753471689 0 0
25.6016059489198 1.15067276169606 2.10467449732176 0 0
193.521961925891 33.0546438177412 10.8726498743799 0 0
101.936178392336 -11.102230558491 -14.1378187695608 0 0
184.443795826303 -28.8462956440114 4.93881717986168 0 0
142.805423100836 -8.67295001345533 7.55926042962265 0 0
202.948286950703 9.97423587657199 13.3444218289066 0 0
168.599814370372 -13.325087876974 16.4255586639725 0 0
180.338498975275 -0.687679384546626 -16.2102895020804 0 0
-17.8836704562703 -0.687967246693774 -18.5214318327588 0 0
65.8839652240349 -1.49744420704938 2.80341954739593 0 0
178.747747694534 -5.72186189483527 21.0789161152242 0 0
165.233763766504 8.47918503463317 10.0709352293381 0 0
203.474369247769 8.06778689484212 -0.0213932466221608 0 0
193.97777229726 -12.1366672926344 25.6345920705528 0 0
153.082381419397 4.41349105720679 5.81146650981323 0 0
186.215681089523 0.965941801557392 -15.9517250682482 0 0
120.743171929516 1.78654716931751 2.97740274951292 0 0
-61.2098042749179 -2.18726801857748 4.79017396201755 0 0
183.261659836666 10.6935176952974 -17.1720415219261 0 0
80.2668282631019 -6.91237868719888 1.98718111584208 0 0
175.265646887855 32.4100095556459 4.36048741982316 0 0
198.090811977878 -27.0392769281267 11.2987097105507 0 0
6.21024365749734 -13.5029842333333 -15.9381673559597 0 0
140.11576062544 -9.20653508248918 7.23974235281988 0 0
48.1058974830536 -11.4814614825577 -4.91813247668703 0 0
173.168694755123 19.1044217757486 16.116516165348 0 0
199.739900434555 17.7002127761365 -14.6242194125278 0 0
170.10656118319 -23.0973147682715 -6.80940692132628 0 0
198.258132221106 -4.50085428352575 -4.16466824348296 0 0
66.7100176944139 7.42048355698179 -19.2442531442708 0 0
13.2981835746666 1.84095464713434 -19.4154087864082 0 0
181.708676676339 26.6405376934363 -9.83672282866638 0 0
-0.834621339297604 7.94425772417017 -11.1228031214814 0 0
176.493077313171 31.7265892768517 18.738297491937 0 0
177.152390545765 20.811126521885 20.717143838281 0 0
194.927166674891 -12.9143489141205 -18.0355086781092 0 0
68.2159586196488 14.2990091982123 -6.95176403466603 0 0
100.021463826452 -12.8481485507855 -4.833384552101 0 0
188.693578819128 -29.6384966681103 9.00502656809005 0 0
61.2881143691293 -1.84228234186282 2.71901829423074 0 0
208.783928870273 24.2143897653009 7.43805180779878 0 5
201.667918152023 -13.5615083637967 5.75978253712615 0 0
163.911009185824 -18.4862206191179 12.8259828938928 0 0
138.978602037922 -13.947496550204 5.72462696806103 0 0
-10.0853429748606 -11.2330283747722 -1.14903343649303 0 0
192.48872555818 -14.5356851192009 -21.0004550373705 0 0
109.762342129845 17.1872487452506 -12.6540698703291 0 0
35.2867252631029 -12.9496202142943 -9.74944592152751 0 0
57.039262328525 0.500180435075611 2.46499509088958 0 0
119.966237565771 16.2707963487999 -1.17777136858752 0 0
-62.6815598170934 -5.56221389208359 5.97342058814398 0 0
74.1840339446348 4.20095865933159 0.605817668124772 0 0
176.263792667299 33.7052071136111 8.99375100010016 0 0
130.032380685655 -9.21776732115503 -17.7884380610328 0 0
-46.642355910099 4.53069960046677 -3.81243020974444 0 0
189.984184313097 33.9501485070683 11.595911137894 0 0
203.840841630259 29.0951992888916 24.3573839960654 0 0
43.505862896741 11.4577605283514 -14.9336506791164 0 0
197.845152321272 1.45786849816643 -7.13839271498161 0 0
-38.6511345353824 -14.2949075747509 -0.497468731802258 0 0
-39.9835089160088 -0.194982977745814 -16.1327016989747 0 0
159.426376448156 -17.4325247481133 -12.6720237654554 0 0
86.2714608375496 -7.24979112846833 2.23866689438366 0 0
187.524734924953 -24.1469415399682 30.9862803344011 0 0
105.822336761137 14.4630413846014 -2.00358353569592 0 0
125.219490244568 12.8322149277823 0.830385718866317 0 0
91.9899457051995 -11.4552450947205 -0.694185069576125 0 0
-56.2454168884317 -17.1413949964761 0.400725095751084 0 0
199.911341891932 -9.55022635973422 -6.52552553170298 0 0
185.093783532462 10.6932011684299 16.9140891880714 0 0
155.798533794446 6.05350288571328 -16.8776242271291 0 0
203.12612645074 -17.538270213574 11.6979535997781 0 0
94.6291455012239 17.9473745136732 -6.83591150551315 0 0
-30.5206695136643 -17.3155336714553 -11.9385905117468 0 0
125.825277671699 -7.87708617841726 5.64981208316559 0 0
171.273080870294 28.0370819960341 14.9057890502574 0 0
123.441840564078 6.39294278342087 2.03287181729599 0 0
-20.8995487181215 -15.3384842793445 -14.991339159955 0 0
199.412510393464 -14.1711942082417 20.457953181409 0 0
-16.2912824205442 -0.146811412173362 1.36979094742729 0 0
171.040532691721 -0.432442069033263 -15.4827066550702 0 0
12.7645013386816 -0.742520786549237 3.08014418346048 0 0
26.6628529931663 -6.56220524607265 -19.2669099942618 0 0
188.715446538056 10.3693114249072 16.268187791471 0 0
201.224595716649 16.6874450937357 -14.2762993370179 0 0
205.230503502725 10.8629454076424 1.2013092681654 0 0
-38.2381224608044 -8.05124622191296 -18.0089708260707 0 0
191.502824676849 32.8460971757949 14.2613646218584 0 0
92.7511955696498 0.131605167251063 2.38947029762001 0 0
-54.1565183134626 -17.9407441786735 -0.879013370338924 0 0
183.791113456886 -15.0255198320453 29.9170803701036 0 0
8.56250044387819 -2.681318668436 2.86089678784546 0 0
196.8615414251 -18.5028492318169 -15.8626248324763 0 0
188.851928328191 31.502255478688 29.4519660931448 0 0
42.0978583124271 12.1715678360673 -10.7293519229145 0 0
165.545130095631 -16.7464768467663 -17.8104771947131 0 0
174.821301274996 -16.6756353795742 26.9137619019989 0 0
194.157595866762 10.1873916274286 25.6591972390889 0 0
166.09468858151 21.3482494440399 -12.4330127210638 0 0
64.3264940412389 12.6251024511467 -5.6754573803803 0 0
175.861465907463 31.0331414253004 -0.796914600544828 0 0
179.960463356674 10.7247308834941 19.4647701475543 0 0
117.892738045056 -9.8461488803032 -16.7179065597707 0 0
177.637128571057 -23.4633130215841 -11.0201918540614 0 0
160.199867215955 -16.8663335506917 -14.5062309211616 0 0
193.057783853488 -22.9586262130507 -7.83633274427731 0 0
187.289185972532 -21.4822606498015 31.2867957785851 0 0
-3.8675431809189 -4.70779480501541 -19.350810938657 0 0
75.4887039778006 13.0774074795575 -4.68371207367852 0 0
166.493594613933 -3.02774194174762 -16.5081116255876 0 0
88.661626460235 -11.2630401023144 -0.828607452337365 0 0
99.6732954152119 -12.74661246812 -7.3204379645465 0 0
-51.7580756894095 0.73757929587095 -14.2539245658215 0 0
171.930982947762 22.4239985513053 -13.7184545519433 0 0
-18.2762707858726 -2.68086097334016 3.69080646131274 0 0
172.752552479447 27.6143324320145 16.5686846263361 0 0
138.007803931851 -7.20069463773262 6.64909130751623 0 0
37.6173894341167 -4.09110879318827 2.64488390792641 0 0
35.8138256685597 -6.06078940354119 0.530393456916611 0 0
42.8548777252943 10.042113977969 -5.5188562353109 0 0
44.6771468919116 -12.3132119144716 -7.58649901827195 0 0
54.2971996547108 13.166511450864 -13.6361305831882 0 0
156.599262996613 13.3484055219824 9.66016473896206 0 0
62.8860931407589 -8.62463362154255 -0.400602178930181 0 0
184.568617217561 26.1699157182739 -10.2180965748181 0 0
59.7292889816008 4.56707218868773 0.376480038577746 0 0
192.311603499958 17.2021961449018 32.7443446449775 0 0
-71.535470003186 -20.1163071072103 -8.93080092329683 0 0
44.0727914574341 -12.5466021950784 -9.60112303056422 0 0
132.306851999006 -15.3617737225852 -1.26830736029856 0 0
26.3055850410136 -6.05631622366312 0.639308366738638 0 0
201.227068663321 -14.3139225509549 -6.65205935870278 0 0
187.470175225842 34.9391329630338 8.60731648297815 0 0
27.7536739667725 6.49964723072586 -18.06912202289 0 0
169.050144009495 19.5905526359307 -14.9680273794645 0 0
177.419504374926 -27.9611059243142 16.1216773730038 0 0
89.0938430835067 8.50791770945937 -1.17841079380592 0 0
161.477771166897 -15.4387992900223 -17.4402859201723 0 0
105.886597246353 -12.9773324502645 -7.62889588774139 0 0
-83.5776050784995 -3.51497486695426 -13.3228319575925 1 0
169.626562538964 2.24542913183964 10.7661562371422 0 0
-28.6750497490345 -3.61219780821482 3.57915267321355 0 0
168.744820268114 -16.8666985746497 -19.282658963801 0 0
193.761482843495 6.88067072289684 11.0650266959555 0 0
195.572451384265 -26.0776481763551 4.53992973536848 0 0
31.3581363636224 1.03135343193125 2.81612557096761 0 0
145.588972575929 0.382674778337073 5.28631181411277 0 0
-37.9124063332143 -11.9877463110261 1.02382365804145 0 0
186.692874425374 -17.3593276405048 30.9680676919858 0 0
-61.2843528939708 -4.07124653809875 5.36576192792515 0 0
111.513373602407 10.7838067080806 -0.410679492980097 0 0
206.907548186644 12.9123859372065 9.06074846390978 0 0
178.850246781103 14.9888140924656 25.7403776823536 0 0
200.557971680148 3.66402364617638 -1.88907655771935 0 0
3.68588961959743 2.44885703228137 0.307005139477413 0 0
183.73681449537 34.8907835243619 7.73357663260292 0 0
-25.9177148949193 -12.2419028184388 -17.2459593518246 0 0
177.30711846137 -4.72826189553946 -17.8843209114456 0 0
191.03917316628 28.6530560750394 -4.27733591897524 0 0
149.727511058085 -0.0266220051348846 5.93228576560172 0 0
70.7453153844655 13.9231428526043 -6.0915037238216 0 0
10.5855601089976 -4.73936037874993 1.87591024175385 0 0
9.6019362538102 -5.80252059730559 -19.3353468281434 0 0
148.584174169203 1.55712285746199 -18.1783770330897 0 0
-64.9314754508141 -12.3027570023466 -15.5929356100123 0 0
94.9657870841212 14.2279438237847 -15.2472261972684 0 0
102.966190105108 -12.478836794052 -1.54661741375861 0 0
173.137109841239 -22.6908409300348 24.0333999233931 0 0
80.9796838127767 11.1540596231623 -2.90714890388717 0 0
158.749030961796 -11.4437509554813 -18.9891912133077 0 0
196.847455682272 -6.51147049312632 9.72237917750686 0 0
101.476132350789 12.7204947769792 -1.88672639344042 0 0
127.039811482316 -14.8635042198894 -4.27461656545745 0 0
67.1084015847549 13.9861056730825 -14.2959767736016 0 0
99.3810610929026 -12.0891219828194 -11.2733780111253 0 0
177.098346394406 -10.4035551349724 25.3078473510147 0 0
180.881040489251 28.6203833402534 -6.63342983608636 0 0
142.243347385874 20.2235487583763 -9.28596115904121 0 0
85.3010732747063 -12.1067899336784 -10.1411085849948 0 0
-50.9733132947271 4.45977107768357 -3.66604331447583 0 0
31.0874540882061 -3.34199186454691 2.84370199775192 0 0
52.7219390954448 1.09770661159343 2.32911379632325 0 0
-25.8044830767433 -16.093670097065 -13.9933300196443 0 0
117.956638825575 -14.0668184838022 -3.76544987287045 0 0
89.9107942351093 14.7052940845919 -14.8008779435688 0 0
73.5517024344815 -10.1082150003243 -0.920910252359023 0 0
96.0683185554246 3.55469866891838 1.28238401360368 0 0
181.423932048841 -26.048078619107 -2.92538980496294 0 0
120.983933115315 -9.45645459156183 -17.2529390742023 0 0
150.134029039939 -15.6905278181928 7.6961057331688 0 0
13.3926230971179 -14.3915728747751 -10.3351091161769 0 0
-15.2676682806447 7.38187040857207 -10.619806029048 0 0
-74.8944220999115 -11.6902608147092 -14.9253232134461 0 0
86.4902768565033 0.546269045877256 2.18067877782141 0 0
194.077680246169 -26.6905845689898 4.75005372824973 0 0
166.274113783846 -11.9759669581273 14.3199159817044 0 0
202.01204852605 -14.4141362327808 7.99449591324332 0 0
172.905318295852 -15.0888420730269 -21.6332918626753 0 0
156.138340842776 21.6899205676596 4.74494912363178 0 0
3.45045839558372 -11.839825500499 -2.81656872856726 0 0
187.012012254095 28.5669883546505 -5.97809502680722 0 0
145.063108059423 7.84664994658441 -17.2948033064921 0 0
97.7542636834323 -12.4844843135018 -9.02674242374483 0 0
-28.593779828226 -1.94646820740486 3.16689048284375 0 0
-14.5332896975297 -1.85182864206451 3.72906845392491 0 0
-20.1554072846508 -5.2796346402723 -18.8685469181969 0 0
174.821837509111 30.501138822802 17.4945202405094 0 0
82.7948900156912 16.4186992181722 -12.2003518670401 0 0
190.489234037559 -7.43955731517311 19.2338774233745 0 0
111.997305172387 -0.833724815146844 2.96526378534237 0 0
148.995153571136 -16.5157449462463 -8.80594763662136 0 0
142.615539811699 -16.7720682428293 1.40336924421906 0 0
157.904446245927 -14.6313651818468 -16.7889464354738 0 0
74.7905070069319 7.47804425989121 -19.321637415684 0 0
27.6871959169189 10.5650226219559 -10.8969708671076 0 0
207.301335308362 22.4752486313793 17.9966986362166 0 0
202.011247230805 -27.461542629019 19.1349118881672 0 0
176.457808933683 -24.7574831067286 -5.75804896472273 0 0
187.890286530065 21.4419111677278 -15.1228909461243 0 0
193.293557532457 -25.2040247448917 -0.384725321090175 0 0
110.564734983974 -13.0966379316186 -8.2753463732381 0 0
176.280676550548 14.1454081760463 19.166823193241 0 0
165.889048589534 3.03027357225823 -16.0309727907603 0 0
-17.4873980879687 6.14430447654937 -4.79534750775004 0 0
184.170133079554 3.08014971353169 13.9053454931727 0 0
128.664671365098 2.92518424245023 3.2826985183206 0 0
193.004656022942 32.9462470343811 13.1076933328247 0 0
-4.12093167449729 -10.8823312839834 -1.35713245899114 0 0
-3.83065470405851 -10.3978986787229 -18.0353150713102 0 0
118.708781318012 19.8036073389106 -4.68350274343335 0 0
143.735550554242 -12.2458738690881 -16.1844119085458 0 0
-23.5041667251918 -14.8407438592297 -15.5209435641133 0 0
13.6558661771912 -11.5649913673408 -3.23174073862289 0 0
200.256362959421 -13.2396076555567 -9.7467153544861 0 0
52.1592248757698 13.3057192612543 -12.0011250543126 0 0
-67.1489595554374 5.06232158416734 -8.27434257497628 0 0
-21.6761955574425 1.54916245476381 -16.8687037293922 0 0
-57.3946228823179 -9.75630909008849 -16.8279027775419 0 0
185.925652484599 16.9794394104806 -17.6187539080251 0 0
-24.3802747567996 2.58438761386986 -0.975760389025556 0 0
171.13762174575 30.0977540254052 5.42231240698731 0 0
176.323739231567 34.3496797824539 12.427023790057 0 0
199.992268981204 -27.9635840097974 22.3555703889352 0 0
197.39315218547 9.46802870096517 14.1173240046581 0 0
-11.4993559824503 6.08215470005285 -13.7993118931377 0 0
178.775494972422 30.7958493537244 20.9314094549257 0 0
132.239159565375 -15.0436000894034 1.01336024972361 0 0
174.45249810022 24.3348506478418 -12.5865143537484 0 0
202.735297229678 29.8404481029677 14.2954489804889 0 0
143.321490654484 6.12861602696075 -17.7528360371791 0 0
-4.44877749220665 5.85888192641156 -15.1712577592013 0 0
74.0451212835052 8.8977508979788 -2.09566521989554 0 0
192.765378424936 -4.20291495743217 -13.5349125519139 0 0
-29.6527049430696 -15.4040528189232 -15.0217901752235 0 0
174.373032098773 22.9911094978836 -14.0869940176217 0 0
161.237005884834 15.1078321463578 -15.5168579666783 0 0
196.301643912467 31.3410103197379 23.7624299239456 0 0
140.91429934112 -7.54197137645993 7.08845218634914 0 0
76.6465059549699 -12.0893750592115 -6.0330073761336 0 0
117.450132514304 7.04917623139887 1.40505568980434 0 0
-10.5136210102151 -14.3545927315264 -4.90716160004443 0 0
178.705453408487 24.8591839698948 21.7995446006117 0 0
199.831868689047 2.2683010331772 5.35520448260464 0 0
-53.4814096736489 2.04933348695422 -13.2516127449866 0 0
-39.4126394426033 -2.90327931446417 -17.5026980110006 0 0
155.280642309244 -13.1600124946269 10.7191439123231 0 0
41.773390384024 -7.28531331202845 -0.288792818021954 0 0
139.515851494279 -15.3139724447835 4.01922092719953 0 0
-50.7779044748012 -15.6641918228456 0.281886226197229 0 0
48.7514452197661 10.5945349935747 -5.52101223190916 0 0
152.724540110094 -17.4761172419539 7.02612354482984 0 0
186.610347665246 27.1669591687288 -8.23318888836393 0 0
169.71595389433 3.96518088096995 10.5427424071963 0 0
70.6595504311897 -5.41747206346156 -19.7086966550073 0 0
177.472314659011 -27.389159865033 19.3383366006567 0 0
173.361321523148 -9.68305911628662 21.9896480218262 0 0
139.391463452498 -11.7552752192815 6.93172853007177 0 0
198.507918889468 -27.3254608167819 9.7403351876122 0 0
67.3632161935097 12.4466979922351 -15.9690359449731 0 0
174.555045689278 -8.19966971317906 21.6272540022021 0 0
161.053012549378 -2.2308719964539 -17.207154396458 0 0
178.834565800373 11.8435432210667 24.1255089683538 0 0
112.381570551798 17.3734666574418 -2.79692850023478 0 0
191.970114898553 -28.0299517001374 11.827155503861 0 0
-65.5453591167607 -15.9192946910127 3.16344007557197 0 0
141.13812892606 1.17802961836768 4.72527634139265 0 0
163.581535547635 -10.9001772260888 12.8271191804016 0 0
201.447307899044 12.2538696049596 -11.4914388581983 0 0
-55.7563968158934 5.64433308872969 -9.18003105679011 0 0
52.9972310242145 0.821881283854567 -20.8768071350666 0 0
119.571538371612 3.79568845128881 -19.7064603228434 0 0
201.825301609374 26.1032833921641 -3.07426730999292 0 0
138.832875640295 -16.2465798154126 -0.884319915922125 0 0
-4.86675863268343 -0.760165739973188 -19.2883244356939 0 0
-64.7224697183597 -1.19111979633546 3.00407722647201 0 0
176.849031267832 -21.4076296108144 -15.6502304358598 0 0
19.3511555249548 -9.00807011603538 -1.12563946198901 0 0
102.634933297337 -11.5364996194987 0.672963558457939 0 0
-57.4804821349688 -3.2835979191816 -16.0130910069604 0 0
91.8868696217931 -2.22250864651053 2.68103389023791 0 0
186.533917950272 -27.7803947716184 19.467379958113 0 0
-4.11908362356276 1.58771117352572 -18.6036681712405 0 0
112.219636866664 1.97553761885194 2.40697207481564 0 0
174.056263826936 24.7739308878801 17.776602322565 0 0
181.470335288179 30.3945783658572 -3.28244066136716 0 0
149.650756042743 -7.82530836315281 8.46465120397696 0 0
181.100052936254 -12.4268612501794 -23.0231597770947 0 0
183.725768282226 -29.9118649364155 16.5571331631953 0 0
9.6129582633528 -13.597509039388 -6.4732374789804 0 0
147.762744549488 -14.8783132754305 -12.9005804111545 0 0
184.849848060058 30.9561831026301 25.3029866371944 0 0
190.774567217508 25.9822499013973 -8.69225051712643 0 0
117.280148052002 5.1474349675343 1.86414930781591 0 0
136.137514858377 -10.3474030382499 -17.2192168781622 0 0
194.873707822778 -7.74575505083603 19.3964565419311 0 0
110.879813683003 -12.5485379589083 0.635564305687862 0 0
41.0847282588242 3.48548864026366 0.619914056879907 0 0
-23.3791774666347 -0.345957944653902 -17.8824589296455 0 0
-75.9059072492474 -16.4513956319509 -12.9390522450335 0 0
59.3437406714916 -2.87316631710961 -20.4661272109094 0 0
169.37712806742 25.4254722287362 12.9141026924622 0 0
-34.3605214398062 -1.67258523050145 -17.4502891785672 0 0
-36.6225104268058 -6.49868692970745 3.78522034688286 0 0
170.640448205433 -15.0905398429226 19.5504189044276 0 0
-53.7266804188353 -16.7145717517426 -13.5381948997785 0 0
202.943909055949 7.52440231537207 7.38481838809302 0 0
169.808223728695 -15.8913376795598 -20.4393214839934 0 0
97.5967074782582 -5.60745324197123 -19.7116198962714 0 0
198.882392332 0.757519718170089 6.60391466989772 0 0
-71.1392032319282 -2.03386820589579 5.25321543994859 0 0
136.752138673236 12.6567255352678 2.42900857355217 0 0
-6.44442923179509 -2.18417377115197 3.00011801097711 0 0
204.226294221839 23.5724758543303 -5.34311450251597 0 0
148.850221684195 22.6328156726555 -1.90814375957271 0 0
10.9840282483967 -14.5351342704356 -10.0485093281512 0 0
106.512817812418 -12.3337100380704 -0.160746699343825 0 0
15.298167039456 5.44693161169237 -2.22641422354855 0 0
51.5133574913975 -0.433398256384801 2.66008100818823 0 0
69.1067573580698 15.3770012530569 -11.788602660374 0 0
167.158142194924 27.5417024296395 6.09102416078076 0 0
-43.5332897170273 -11.045763665923 -17.2365559320938 0 0
-79.1693667966329 5.33402056908259 -5.0331790405347 0 0
179.205055807722 26.4799181513631 -10.3551417672385 0 0
182.719835508157 -26.3171677126133 27.6095856420405 0 0
13.938074168363 1.65588601398141 0.927846938588744 0 0
117.907795752169 -11.5533566516901 3.54098854964781 0 0
134.706767453288 -13.8533051169845 -11.8844295007913 0 0
171.935537182519 30.4689029578579 14.4301623758244 0 0
164.571668125505 20.8467624947165 -12.3355207210357 0 0
197.23923366769 30.7265761833062 8.28250153241808 0 0
156.351746633154 5.41698856445046 6.5760250283017 0 0
165.248713304097 15.7749174672087 -15.8634948242456 0 0
159.914213384081 -20.4122333919275 -1.59716750678246 0 0
113.396452824872 -5.61159650078956 -19.6308037956428 0 0
82.1531315730148 -2.1966223319925 2.5924922525669 0 0
197.167749098415 31.4700501666064 12.5650248653349 0 0
143.484734569139 1.07535742605595 -18.7237547088337 0 0
-8.7731331498867 7.68110701058095 -8.20309827870855 0 0
195.610738865729 10.1130688521237 23.5071700055648 0 0
-46.7527762539591 -11.2841235838725 -17.0264274865491 0 0
114.93734912279 1.7264699453765 -20.3857872928509 0 0
25.2767355140762 -2.753774438237 2.88729367801134 0 0
173.34602178289 -23.1616841526686 -10.0002038506226 0 0
167.979839676967 5.50282707264046 10.0463820082254 0 0
-38.0221519165421 1.33148374467209 -15.2551420906285 0 0
46.1874922171826 12.0555930526985 -8.28709154152521 0 0
188.341710432671 -27.8340344730219 3.40080259693155 0 0
132.173950962138 -8.86541293293686 -18.0567467671114 0 0
-1.93947386884972 7.23650295917287 -13.4570644317558 0 0
139.617788826759 20.1787319224023 -9.18566117987426 0 0
27.0131823517974 9.75719566420537 -14.6063554599979 0 0
177.479351301081 -7.59517158237526 23.1961594571872 0 0
166.200237309071 -21.2730484975118 -8.06868254549542 0 0
143.46325047247 0.211657857485525 5.12658515475628 0 0
155.405873440891 -19.928947329866 1.49054160759472 0 0
136.271928747469 -1.93092645866084 4.96187397711981 0 0
24.7056418245903 9.24855440484498 -15.0284758414473 0 0
35.6570892299735 -3.53803082186336 -20.0773768737754 0 0
171.994705778503 30.7945577622756 9.9075304914502 0 0
174.998042102816 -21.3256694584034 -15.2797300981981 0 0
166.754512130574 -22.3291624730508 -4.1315212831214 0 0
129.600617448971 12.3234590472019 1.69144963456345 0 0
73.5458712671324 5.34891310324383 -20.3118447466995 0 0
-27.9222454433759 -10.8958734487677 -17.7276697549781 0 0
196.577691576469 28.805144974559 -0.233991311386723 0 0
189.011681875934 -27.8989717296649 28.1667939151889 0 0
171.195453112207 -22.2878482721356 -10.8579294196977 0 0
39.4634396650305 11.1010873567831 -7.79626100858403 0 0
84.30239636386 13.0139838876386 -3.73740703451599 0 0
-5.64889887562456 -12.0797200491859 -17.2960382949654 0 0
202.497807268836 -23.6052186939865 4.78734838137486 0 0
-31.8726460428181 1.59922896254359 -0.35989531451865 0 0
116.735055740573 -9.82902339305563 4.80106513140019 0 0
90.1432766982605 -4.48611162233554 3.03124798031558 0 0
161.001671418181 -14.2870223724489 12.5205286172107 0 0
-66.641989201029 -6.35280728278626 6.44969976155396 0 0
192.07540145459 -7.50139786960235 -17.0266548974423 0 0
199.323969312296 -25.0941479334496 3.42896856410938 0 0
203.533425911625 9.5861534073223 11.4219824330349 0 0
-49.9089025053711 -13.6778685868657 1.7066076830238 0 0
-42.7330132011073 -3.86977974763694 4.10901937270003 0 0
104.87420511458 5.1220871803702 1.01504945108048 0 0
27.5815886136713 -7.61470584285358 -0.479917802185018 0 0
90.1325673410967 17.4896263747267 -7.20896258248395 0 0
201.794858171519 -13.2490898286387 -0.166423355688488 0 0
167.788630752379 21.3199967784227 12.2086231784173 0 0
158.698065060535 -9.68929307109267 11.3684528063834 0 0
-33.5192476136286 4.01632799089831 -13.586799718626 0 0
165.120950437035 -22.0010625688663 10.7618599086765 0 0
0.153257504416677 0.477741273020618 1.60650203451913 0 0
184.976138754252 34.7639672075676 14.3278957075968 0 0
114.810224163149 9.55928241496897 0.314141370481611 0 0
48.0594144205802 -4.81790260595909 2.19065966527799 0 0
158.003404553845 -20.0068933826607 7.05979006110606 0 0
183.104026014224 -21.1375220383031 -16.4451109094907 0 0
0.790816454339727 -9.7691447881667 -0.816763390636503 0 0
176.086656853624 13.0410990761448 18.160834797257 0 0
136.568088854264 13.9445849806631 -15.4158126960855 0 0
-8.03020320246008 -4.52472169230106 -19.3003219223887 0 0
98.2866222417675 15.2155047858335 -14.4507407572306 0 0
-84.4277266250859 -7.65685359925999 8.45330139823207 1 0
-76.5143522101862 -2.04242918819598 5.27645097701208 0 0
118.818641916282 6.12408592302698 -19.030968288164 0 0
161.974879530085 -12.9145819676463 -19.2757703006893 0 0
64.5726988391306 8.66899619944576 -18.4980650134953 0 0
184.761076521126 -12.4557074269789 28.6371777069758 0 0
79.4865747586909 16.7810326781485 -9.44912443143517 0 0
171.485114029319 -26.4418243822522 14.4453046549774 0 0
184.62310909561 13.0301705827184 -17.6703688348532 0 0
18.9286392633313 6.25664273893491 -2.91417395282041 0 0
207.294017995067 18.8937264235487 0.644315311015085 0 0
200.046674980112 -20.2771493213361 -6.00736452235546 0 0
106.20355661491 19.3719933027082 -7.4894517493484 0 0
-78.9687801448259 4.62495334144644 -7.18986215187245 0 0
155.908311379523 17.8988391591389 6.75421954927839 0 0
175.262761170205 9.6830735164509 14.9345959135211 0 0
116.064303534826 -12.1307240595719 2.35687481811617 0 0
34.2474955725092 -10.2284250730135 -17.0128522386219 0 0
82.039671719261 -0.104214960548125 2.28311483256815 0 0
-75.2180307194253 -6.28003164595266 6.97518274623204 0 0
190.497645001972 -14.65854723688 -22.3420158673136 0 0
36.8247654360283 -7.79684114625678 -0.634221872181903 0 0
-15.2713320364786 -12.7264619072952 -2.11179610520567 0 0
189.793298280376 -28.5273879987891 10.9847515361402 0 0
144.135509078249 -2.58273213765925 -19.064690634301 0 0
37.3666209114546 -7.35060446943325 -18.8829834383547 0 0
-52.7790958761579 -3.07240847811461 -16.3743333445083 0 0
195.862266070762 -21.2876781143279 -12.1565126938823 0 0
188.603236409601 10.5406540120676 -17.9782955222299 0 0
191.661770063483 -9.79253857582279 -19.1762976940078 0 0
13.0852484140552 6.05763868111772 -3.04295846745304 0 0
20.6534735935157 3.22210543222804 0.299160520885702 0 0
15.9227479957522 -11.1524157077027 -2.85378022838445 0 0
202.013794895017 5.70170088678847 5.37050266883406 0 0
44.5646881721568 -7.31633329342007 -18.8348094005962 0 0
165.129398009364 -10.593908453754 13.0843118732826 0 0
55.4555641470228 4.9555694345431 -0.0261920287220634 0 0
-18.0081131870686 0.631688364127 -17.9121973005427 0 0
196.448877232629 31.1681032458937 21.7000006105522 0 0
91.0053661946369 9.70092158756956 -1.51274070776263 0 0
20.8208025878457 -13.394520445191 -7.97759164520274 0 0
58.554848882542 2.04587528170281 -20.8080157828025 0 0
174.496703457677 6.0894091176904 -15.9713436067801 0 0
11.8596263962766 -14.561104568027 -12.0394472388783 0 0
109.076303095714 -11.4968640653875 -13.7689916927106 0 0
199.934170086961 20.4291234038229 -12.0335944602215 0 0
199.092641754241 -21.1512754349607 -8.0306454287199 0 0
177.564323369113 19.4204507505007 22.4863587230693 0 0
202.243775188811 28.5132627094315 4.71289073157331 0 0
148.372930579077 -17.5020636436609 -4.01798237154675 0 0
34.2334294022405 10.9755407723308 -9.03142378175491 0 0
188.443893326685 31.774799366597 1.28484975743269 0 0
174.57853060607 33.1651387123149 11.4435620334303 0 0
111.933457441903 -10.8289486895423 -15.1323952271966 0 0
154.523110578345 -0.402671081609648 -17.700964816132 0 0
-27.1830008296169 6.28493372767089 -5.7458435540274 0 0
188.888597768511 -8.19032047444407 -19.8798240539573 0 0
-77.2123298791783 -15.0069615792368 -13.6909983345114 0 0
34.318802375391 -3.35879666272409 2.91978560210336 0 0
-60.9632455668896 -13.8291850570352 -15.2113353190738 0 0
122.896812590925 -4.23521828690712 4.42560345176152 0 0
77.0368651585164 1.24985100710492 -21.0701622850836 0 0
189.291116346023 30.4430889337806 31.5685136057519 0 0
200.017833770341 14.8371925202435 -14.7487281593891 0 0
100.443567164058 11.856095442632 -16.8346380733537 0 0
137.316251547162 -15.0349643351487 3.76443380672055 0 0
79.0583134077035 11.5505516905999 -16.9220700320488 0 0
145.76880544758 17.1873793729424 -13.25347411062 0 0
167.738740039167 7.27956318624076 10.5517500867667 0 0
54.8687124276238 -4.96169004687282 2.13781589262072 0 0
-20.1481472476149 5.30201603363461 -13.6755249780885 0 0
-30.3064466304071 -5.17822280721678 3.48557152627946 0 0
161.77024806812 -17.6411910746363 -14.0456154799469 0 0
-76.4023232068267 -19.238844725692 2.57781615067059 0 0
-8.04084685996927 -4.46743731287783 2.58517364693982 0 0
96.2685661376499 -3.86227993278435 -20.4019483787167 0 0
149.428321739069 18.4213449806356 -12.1736960639949 0 0
-70.1642555248787 5.27273627715875 -4.52888777030399 0 0
191.216689487803 32.8834041811136 15.9485457472239 0 0
174.041134454113 -21.8583683580186 -13.8894838359004 0 0
-34.5215239264073 -11.7710117775782 0.775961307376639 0 0
169.748465173029 29.0477478316138 7.75156237762129 0 0
136.95050192592 20.4222135027693 -8.5505366168898 0 0
183.824177143588 10.7356688790442 25.0231280946058 0 0
159.273258070013 -20.7391922901248 1.43639543884966 0 0
5.97306010027238 4.6378400134224 -17.4397059198931 0 0
28.8355942316963 -1.13748169824772 -20.1260520316111 0 0
-19.6802745142838 1.65383083164084 -17.0566776573157 0 0
172.262101092699 29.3495050333479 15.7291886775288 0 0
35.7064437878268 1.22660971991854 2.61587944966329 0 0
9.86428695199019 -14.3988807279686 -14.03822729964 0 0
181.339533642461 35.4558700522669 12.713682659477 0 0
184.404569255779 30.4603670255726 -2.75714240090781 0 0
188.521265055404 30.0573535962198 -2.78224952379704 0 0
-32.6797457799738 0.704309274878622 -16.2752716413237 0 0
195.163163121168 -1.15808739769455 8.1636730134626 0 0
37.6726821072915 1.46465925274075 -20.3717525919297 0 0
189.48885354488 -21.1986654387079 -15.102229085082 0 0
132.738415949961 -12.6037151342694 -14.2396252609236 0 0
202.579883595175 -15.8113628685956 6.94374264049117 0 0
189.260250334988 -19.7994620480737 -17.9421368000954 0 0
12.3963707702071 6.40278390191951 -16.6794450693825 0 0
178.485593891725 -22.1437158905645 -14.3328190893583 0 0
152.635787928553 1.15793115221042 -17.7594611289186 0 0
194.706523298796 24.4082465605556 -9.17818848877289 0 0
-56.3875734761164 -16.0501708422342 -14.068601509452 0 0
157.575536325774 3.93790184642816 6.92722823642737 0 0
187.704258288444 -29.6465446967728 6.91975871083211 0 0
-23.4478902145136 -6.51134024701555 -18.6703436918265 0 0
131.339457472758 10.2029126263945 -17.005289655821 0 0
189.531525510674 -5.48968051818626 15.1918024410794 0 0
56.6824363566961 9.30897824414511 -3.48815404646943 0 0
-58.9778685679117 -8.08310155682685 -16.8233786198534 0 0
156.503525733438 3.71153254208126 -16.9984965503811 0 0
89.5490357115491 6.71983720298095 -19.662886347456 0 0
160.267757709581 23.3197165931285 5.93139861905659 0 0
185.678212010203 31.9063539171426 23.3867654369222 0 0
14.6338650365449 -1.10116995517981 3.03947380877703 0 0
-18.048973885421 0.488141569851413 0.897219254762834 0 0
164.407214202769 -20.4123583769343 11.8636562084546 0 0
193.85100928974 31.0885045820989 3.19627392769894 0 0
169.680041347345 -0.573170788528848 -15.6019830467914 0 0
-46.9180717972566 -3.10760900925823 4.0851999494918 0 0
116.668620630713 18.4148650523351 -11.2434845257557 0 0
-36.8596850030413 -5.93598457976653 -18.1352509535591 0 0
-80.8108343399898 0.28125704726779 2.25211167048328 1 0
-63.3931925239905 -15.4217766693208 -14.1952584754566 0 0
27.2393358045338 4.85333959173332 -1.259933293402 0 0
196.45833371666 -24.7005830294072 1.49731967242684 0 0
9.03240918123766 -10.906633116586 -2.16813829634056 0 0
37.8965851301866 -2.49146380931127 2.93646193491101 0 0
54.3881457418811 -1.18250342015742 -20.7716849309212 0 0
201.813666364873 10.270199821506 -7.05866280872808 0 0
41.9827438251099 -12.0694275935174 -6.47699227885041 0 0
179.311882828956 -10.6427520016584 26.0453142309824 0 0
170.438521219418 29.7354513195331 9.67638114543148 0 0
-60.6323323108521 -8.78400468886049 6.36749855612692 0 0
57.4813866783671 13.633162706814 -13.3532182841314 0 0
-36.8395945163812 -18.1274414363262 -6.24220527875104 0 0
-2.54095635410216 -13.6298880638313 -4.83671338391984 0 0
-3.80429992361923 -0.0853746429563851 1.72035323300045 0 0
163.521819720359 16.0775192122144 -15.4620510310501 0 0
121.050936273655 10.6719996016404 -17.076740357383 0 0
196.848204779018 -5.3164017045171 8.22401082467705 0 0
25.6934637465167 -8.566657393243 -18.4417230223649 0 0
71.0447505977376 9.5156871928896 -2.72483579382818 0 0
202.746908480201 13.2384897957245 22.2602714775012 0 0
63.0875286675558 10.3372693580281 -17.331549022848 0 0
105.013213095438 17.6119865280236 -4.07715296645045 0 0
121.705009200069 -13.8014648210343 -8.45489360669591 0 0
142.174444512438 -16.3963441499385 -4.63345461468491 0 0
50.5705244399785 -9.47343694916936 -1.81283442531809 0 0
188.039625986466 -28.7371483122016 5.06702451691429 0 0
162.629513049627 -21.730602358502 8.1990498485805 0 0
