"x" "y" "z" "f" "a"
99.0825950323556 -12.4561817513051 3.04280561043705 0 0
-60.3926358561702 9.77560134468388 -6.21579700103631 0 0
172.474365327426 6.33338026374021 18.3452252737778 0 0
-18.0427563694981 -2.90093410846924 20.0045409792634 0 0
64.5903809045929 -4.60700381091535 -0.364343753422042 0 0
23.1571622672731 11.6662751228187 10.8830388627958 0 0
-23.2308997387966 0.449369989846493 -5.17294009941653 0 0
3.51156629582117 5.70148184160038 -2.70918486020944 0 0
167.535384826593 -31.3954312251994 4.61272834226852 0 0
152.258001900625 -16.6296460745285 16.6186082759178 0 0
182.692760530007 17.6760944365834 -16.7893928114452 0 0
180.343981156193 20.01742702378 -23.1679200200276 0 0
153.080976677631 -6.38563797165849 -9.95920173809567 0 0
173.378686021575 -28.5667182479971 -32.8601191210267 0 0
183.848786736827 20.790843584561 1.11398907009775 0 0
99.9688829618267 -9.45160468365311 0.509348465901528 0 0
157.622273537734 -12.9023466212047 -24.4169605343577 0 0
178.028693139745 0.572542333573954 10.4434412845895 0 0
-80.1525553883667 10.1768999044218 -9.09734580792486 1 0
168.366977615621 -7.50608272039266 -13.5009860029134 0 0
68.4903506326889 -4.40273918002644 -0.755835154227653 0 0
152.067941036581 -8.62408940051011 -9.89948281954423 0 0
160.544403374661 33.8055907330784 -5.1527481507668 0 0
151.620301383206 -11.4270729101976 17.4649275287478 0 0
148.418566575704 24.4968935712584 -2.77722414154976 0 0
-39.5504050094372 -5.95587637345752 2.58620668917412 0 0
156.91396646355 -10.9730446816051 17.9846703130138 0 0
155.005144583291 -21.6880541967259 -14.8434346323071 0 0
-70.1003397200096 -3.60453974916308 15.613533692395 0 0
-45.1463410789989 -8.3249235073451 12.8932190769668 0 0
125.835977235071 4.02797470550457 -4.68807012385831 0 0
144.178521777705 -3.86672793975702 -7.89523363470645 0 0
162.092765578301 -12.2595226199066 -20.8369150465105 0 0
90.8884674803902 -9.57006195578717 18.7118238087103 0 0
154.368833917692 -6.36601474959922 17.4979120791162 0 0
60.0049578564743 6.21468428072356 -2.10171432975676 0 0
182.230111895483 29.8220520054213 -6.31275815923344 0 0
177.836403988017 24.3800614012811 12.9073623519164 0 0
26.1639854885715 4.53762798059353 20.6954285597857 0 0
120.225223432886 -17.7062281560774 6.32757069371643 0 0
150.72672389151 29.0912184569635 -7.19586504951457 0 0
113.236020769359 -16.9788439914871 10.4602786682381 0 0
160.073788420263 -36.2031329128902 -4.19780912798239 0 0
56.7744822182143 1.87623875096842 21.4927275238144 0 0
146.91338513831 -23.354487045211 8.2799783470472 0 0
152.17301766855 14.1236368241168 -19.081653952178 0 0
157.53324933134 -24.1287055234501 -27.2021757334609 0 0
64.4945264385875 -2.73398449730248 -1.33202001816393 0 0
-26.9645210539931 -1.14194383677389 -4.39471166396405 0 0
159.360927691319 13.8288965123865 -27.5835563061311 0 0
143.344125530711 1.94667222956691 19.5693920330948 0 0
-12.0411293784378 -9.96695105327724 16.0093583725015 0 0
161.059223774081 32.9267797424519 -16.5898288218324 0 0
142.922068911219 20.2363217715306 3.06019813150437 0 0
13.3790197306227 -11.8471646793202 11.1481297612287 0 0
190.849976837539 -23.2755811933281 -9.7682912779272 0 0
156.522758277555 3.43227263916378 -14.6461227400959 0 0
170.852774545576 2.36585103267103 -9.65083842338786 0 0
183.845772310343 15.7816108555193 -4.34975044400117 0 0
16.9380867737708 5.58418783740335 20.2806620771368 0 0
161.607794244128 33.6175750356437 -15.2242575897819 0 0
152.855885983319 25.0017021074795 3.81902765054937 0 0
129.76672971807 12.2944815362665 -5.90389255369118 0 0
158.197737313504 9.45327265643067 -23.6215811813009 0 0
111.355196424245 -4.54728674486547 -2.90830185909518 0 0
187.393641590363 -16.262724290053 -21.2433956538275 0 0
-60.2106774656117 -2.29891963249664 -2.27114202030379 0 0
1.95673775735667 4.98099465187933 -3.50946333840229 0 0
87.380630310038 -14.5426954739177 6.77495016707898 0 0
154.149635345465 -34.173983388446 -5.57522159201012 0 0
-33.9343225400339 9.58680921313734 17.2389383799985 0 0
-51.8846422171928 -8.59203465024808 10.3425354497585 0 0
138.678447491603 19.5263487703719 1.39536576901648 0 0
124.115167597778 3.73300585610293 -4.50730752653032 0 0
-12.9655201810417 4.56572219072731 -4.53716720315756 0 0
131.027102089545 -13.8851417875014 16.0222816527699 0 0
88.5409887874562 -11.6270707575651 3.58093143451833 0 0
170.675268054412 -37.2927031967536 -5.91215854856324 0 0
167.61412569517 -2.22689721354739 -11.0290917762528 0 0
100.060686214577 7.51268317579513 -3.09066520977545 0 0
109.009791999942 -2.12424984140893 20.4732666137346 0 0
30.9760883118644 -4.4388985287236 20.7284113007271 0 0
181.965818680846 -7.280252689322 -12.8363533397319 0 0
119.95702487049 -6.98591780589298 18.6735034785264 0 0
157.396773904145 -34.4548754581173 -1.76079524595128 0 0
77.9794509694245 12.4393104478699 11.3783253242882 0 0
186.208675545902 -8.59274320036609 -10.7934645175694 0 0
72.7092959004007 6.62455794941647 19.7054858313119 0 0
171.174937136332 -32.4012331711643 -28.9280194252938 0 0
150.575523879167 30.9795959994209 -10.35813436861 0 0
155.730825231987 17.6926520104775 22.8425978349008 0 0
-14.5608889174283 4.75255078516894 -4.67837292991374 0 0
173.793833660507 -6.03955889230874 -10.9963631173588 0 0
1.99160848515308 11.528331613204 14.8809099630923 0 0
-29.6783170678231 -4.1092398372587 0.0998317948525928 0 0
178.859419388334 -29.6581571015263 1.08189639297375 0 0
126.720876640478 17.0650535325921 5.00709471411546 0 0
98.3759458857243 8.30401053918649 18.9175468863468 0 0
-17.9173258522065 -5.78182953679198 19.0664859394454 0 0
174.557216657854 32.5772400408347 -9.63223209331715 0 0
54.2728463331985 3.20073614181339 -2.50533510657334 0 0
180.9258178721 31.7557003845057 -10.2951163284943 0 0
120.537310345795 -17.5954011732566 10.5893345332065 0 0
60.7004325183504 -1.37170992239703 -1.56614085642585 0 0
156.373973408925 30.4192273181034 -2.53303847007403 0 0
174.587223402933 -6.2176447334901 16.7434043616102 0 0
91.4653098835562 0.281746415454637 -1.97233675849761 0 0
182.812629384204 26.0482102394073 -17.478152320106 0 0
187.530446084086 -9.01516132553253 -7.25678139116729 0 0
142.494458036985 -3.54436267896935 -7.49096769552062 0 0
173.90867901713 -33.4710629681177 -23.3516346819122 0 0
10.877646729262 11.6240459778898 7.31490920269573 0 0
-60.9344427179569 12.1559394165266 -3.68955350574003 0 0
149.336127516825 -24.0681390103563 8.88734093672295 0 0
163.984624740645 -23.0429628082368 15.7329053353893 0 0
159.454184187237 -16.2254952946627 18.3617789247162 0 0
-46.1443093023902 14.2756003878193 4.09835581691103 0 0
135.26563717886 19.0978263183777 -3.39974190414146 0 0
-55.1909694446854 16.3362201323472 6.94542140211405 0 0
157.718897449872 -29.6982179194325 -18.6694630393838 0 0
144.715049179759 3.37801036955216 19.8630239723068 0 0
113.942260582426 13.3196139026166 -2.49129228056324 0 0
190.032300008639 -21.9007023519488 -2.10788856589229 0 0
185.868041613148 -7.60073072218757 -8.59507172189103 0 0
-67.3919386667365 -7.90117645982823 7.23754791680893 0 0
-6.39799596874717 -4.80203821391817 1.18135667959471 0 0
113.505149127378 11.4278123280852 -3.55118762205792 0 0
143.204146064174 8.64335136464231 20.7571815444152 0 0
158.493932459741 -7.8698294807829 -15.878205189706 0 0
-56.9518098165135 11.3928936717364 -3.25179950615064 0 0
161.367418805033 -37.07316892586 -11.6417466028798 0 0
-38.2541898458578 7.36260804394452 -4.28188187503659 0 0
-48.4864840180117 6.29207785641291 18.6712790503483 0 0
64.1273251842257 -2.80388977729978 21.5486352552295 0 0
-54.3946597909568 13.872589961766 0.789050102850035 0 0
173.570265672555 -31.3282849942107 -29.6132138506699 0 0
168.902101863044 -23.7188605112864 14.5205508184138 0 0
-57.4230981815538 5.66063071324927 -6.61630642240539 0 0
182.816090965325 -6.23741751311379 -11.0903920677019 0 0
166.286487120428 10.3170684747896 -26.0182087535606 0 0
186.236060975227 -21.7459080057546 7.69422899328503 0 0
161.367116402312 31.4305082839736 -0.654406453536072 0 0
184.284496563456 -9.81474507304061 -17.8075170126169 0 0
74.681211233855 -11.391108706003 4.69747413195047 0 0
175.154986778058 -34.2490772049393 -12.2153732975101 0 0
131.674606673753 -10.8999845106532 17.2281505319948 0 0
121.636759977869 -3.60769945976479 19.5177964423889 0 0
16.3307673541808 -5.96944642805441 19.9802352393726 0 0
157.060496600013 21.4929734145277 -28.4069774921921 0 0
155.224206197772 -25.148369066067 -15.8275486611312 0 0
94.6370513410277 -12.4024648724889 16.7033737531332 0 0
175.258673971857 31.613195538173 -6.80298876377748 0 0
28.8402225605387 -4.55635632834007 0.298182938252656 0 0
39.2730814521751 -11.2940019450123 7.09710319963878 0 0
183.964089290191 -16.5425151240215 -26.8387343710527 0 0
176.495515514088 -13.5289908702037 19.0310517002688 0 0
-52.2298502852998 16.0855282933178 6.4770348797207 0 0
75.7548168018116 -4.27126243900649 21.1958598432416 0 0
56.4896236430548 -2.20671508015913 -1.35871359109077 0 0
179.223521345029 32.3746936477127 -11.7575194801663 0 0
172.183622507134 -6.66194295187705 -11.7685592749436 0 0
183.381990408962 15.298337998079 -6.26045032603709 0 0
95.7966314287035 -3.89438088452463 20.5512510672799 0 0
158.571660249085 -10.5243435370962 -16.9035446417095 0 0
-45.040775790339 3.76493176626936 19.339272050793 0 0
-78.2437845046285 15.5626289218283 -4.24598563295025 1 0
-80.7210784323689 16.365442454197 -3.82225340275781 1 0
185.515114969913 -14.161303483005 -23.0095614029613 0 0
156.02250759408 24.5971649846735 10.3887119996154 0 0
166.009219186065 -32.9776923900949 2.4591151113654 0 0
33.9726876606868 -5.13400940692275 1.02915087703726 0 0
166.298653557387 28.6114630561423 5.74122156234215 0 0
177.559991664121 -2.44620647440686 -7.57869400148093 0 0
114.701539917314 13.2293611092361 13.6320940785973 0 0
14.8095036286793 -10.0315815889382 6.57551924634253 0 0
144.490101215413 11.3314294248862 -10.1067251245891 0 0
-81.1575142401793 11.3460645766901 14.0288987166682 1 0
167.553770631298 -32.4436171446254 3.09394830850372 0 0
-66.4082446419759 -2.43998570087935 16.9014816595912 0 0
179.796528200484 -9.59492073017482 -22.2238568780039 0 0
132.863747921919 -16.6366691733011 14.1100745326462 0 0
39.956637315036 7.75015979223032 18.7947673543027 0 0
176.5777834843 -17.5153578920663 -32.4403819370083 0 0
-31.8710388022302 7.66842000510198 -2.75579565627993 0 0
138.622224098868 -17.577609441891 13.6553599464745 0 0
166.770440752228 30.7699224679239 1.20608105005588 0 0
-63.4024658844649 5.01738679567869 -7.53298932186337 0 0
149.965827724624 29.3172366009788 -9.72569870100691 0 0
165.595107414937 32.3588372304594 -1.31211289530294 0 0
184.441985628312 -12.521643438208 11.4693021966137 0 0
-32.1780164480416 5.14160138239614 -5.54457242021756 0 0
156.011470295726 -18.4719494523463 -17.5492889210828 0 0
123.591283225776 -13.1228274471084 -0.836748611700597 0 0
92.1222588791994 -7.37265122120113 19.6938468620641 0 0
171.077313284147 19.7880227656273 -30.3334556048355 0 0
160.82472111992 -31.0035985191532 -26.7458791339223 0 0
189.912165385904 -16.645076263093 -1.16534043765402 0 0
35.6090996440004 5.74924101626996 20.1099545681126 0 0
135.915102473806 -14.6671028607251 -5.86871448202405 0 0
156.419547763201 -14.832749296035 -18.8838148572803 0 0
37.2375761541111 7.96561876770978 18.7076490972366 0 0
168.719379586665 13.0060350749515 -28.3199049200794 0 0
-2.75737541676155 7.89427216444103 0.362024743445104 0 0
-3.97473186336549 2.45750769546266 -4.56518541073315 0 0
129.453224114286 13.4875257877303 15.7147256606791 0 0
121.781850045214 -7.27429338399897 -3.42792694627381 0 0
143.401942267338 -4.56887856239022 18.2921192991573 0 0
185.136283947016 -11.8084642738627 -20.5816279011859 0 0
133.635483050381 11.4993071827088 18.5967175220706 0 0
-55.1191118575789 11.1541490706659 -2.96861872584697 0 0
45.804226406035 3.24829919696311 -2.85166059368641 0 0
150.400065768733 18.9939746684664 15.7506411265621 0 0
101.257595476589 -15.804980046036 6.75109370806294 0 0
-7.17895559875802 11.0372176954941 5.57686886856262 0 0
149.294129056309 -13.9989712998433 -10.923577649491 0 0
132.37266146042 -1.51509673111009 -5.35401911139346 0 0
49.7498735877035 5.92115055944747 19.959501769475 0 0
165.79352219336 -12.7494890796963 -23.737104042429 0 0
161.499259602233 3.43657309490606 -16.1233052759451 0 0
168.506551221305 -1.07629910117743 -10.2119754474908 0 0
130.580295973473 -19.1618339289393 3.48074502766214 0 0
-15.8515400092103 3.73806931049272 20.4261178082321 0 0
151.495159165585 -10.6440678518412 -10.8993112187988 0 0
-64.3397886401837 -2.97288716140336 -1.43013276551995 0 0
178.847291914032 -32.2543259861339 -23.9159180656058 0 0
159.44088659285 -17.9474555488244 18.079137739296 0 0
-73.6792652470444 -4.43736174809406 -0.00306268739977703 0 0
-61.1223563167189 11.2778488182804 14.7344659902405 0 0
61.0446918404748 4.90398158069797 20.5906980087353 0 0
161.088251788778 17.529380014572 -29.8594313880291 0 0
129.418788064113 4.94378000842486 -5.34057989908285 0 0
139.726976120108 13.632570200941 17.6308186632043 0 0
178.558179111386 0.16160611096354 -6.01717003902345 0 0
161.845398360156 -14.095668640958 -29.5002588871829 0 0
131.949441882733 -19.3168034058849 8.99148279013178 0 0
-43.7613177744759 15.4064954689769 7.99883019543144 0 0
-64.2827793036419 -5.16091681680529 14.9423237934855 0 0
160.822001057287 -17.999498196589 -30.6673419002752 0 0
162.923678657155 -37.0618109556932 -12.8298927256595 0 0
140.107581977936 -22.2942412301836 2.06519137445393 0 0
-45.6548369650049 3.53102309644728 -6.14866998606265 0 0
-67.9545627748713 -5.5622204882273 1.99426177997103 0 0
151.476116127087 24.051135346918 -19.025696713912 0 0
137.871224519218 19.6148671019194 -4.72768489123464 0 0
102.811943317489 -7.46998842187373 19.2687372174051 0 0
121.702621825584 15.8131353377571 8.59230809130707 0 0
177.257658581626 6.04540009747761 -10.7041091899534 0 0
147.039821029191 -19.5779688817119 13.3873996275242 0 0
169.72467883258 10.4529799564786 -25.7434540915782 0 0
184.977296227686 -30.8902045698331 -18.627444895055 0 0
84.560263245692 10.54823062204 15.9850480406629 0 0
177.367778616764 -18.2296034635855 16.7952346744242 0 0
180.491600998138 -32.222469848793 -16.0733960447387 0 0
81.9025646070493 -0.968816219385843 -1.76693413772276 0 0
181.756940741366 12.9578020628741 10.4510241053934 0 0
64.6024438980001 9.54055323826091 16.6448446091195 0 0
162.182460641121 -11.1271570322577 18.4158854582603 0 0
160.008694276514 29.2573793220579 1.97468416231939 0 0
-37.6883099989888 -8.98677602945979 7.81501076352602 0 0
143.310945593239 -5.54574329149489 -8.25647662779537 0 0
175.611322851033 -1.73907801921222 13.6756516567598 0 0
-63.9043133429953 12.7016316103043 -3.91181523408976 0 0
-37.5831242546963 5.98100171728916 -5.54486775754009 0 0
68.856125382163 11.3029185243282 13.5771641356165 0 0
41.387439412424 -9.90755678908121 5.41700284115502 0 0
112.629173918383 -7.25597734299741 18.7920034020754 0 0
65.6142763110175 -12.8498428411512 6.90768523343446 0 0
146.779085204802 21.9935578056744 2.17508048327399 0 0
32.5653881653556 11.6258316274114 9.77900729751366 0 0
-51.8112380238243 0.0645264719220812 18.8932948062396 0 0
-63.0767406333197 12.4058619955318 13.5435416205917 0 0
-79.1769350309627 16.6144210634508 7.560449823075 1 0
174.145662242952 7.69480996069206 -16.2419784608622 0 0
-13.3029065438368 -4.40135526683135 0.854617295977239 0 0
93.653880603805 -15.5923926275737 7.79706533110972 0 0
169.021141735159 -22.0095005347964 16.0497675291587 0 0
77.9601497253086 13.07102541712 9.03744217881147 0 0
-22.141505174906 6.39752297042136 -3.71820379545847 0 0
-35.784710428472 9.69720244416477 17.0763411861456 0 0
157.333696194955 -35.5713089675223 -13.7775594480255 0 0
98.8371802136571 5.33999756332123 -2.79497628486134 0 0
-79.6674744193184 -4.76288771359434 12.1643756147302 1 0
87.126291894554 -15.5560435337103 9.22346495237566 0 0
131.857709888516 12.0032723421809 17.9440497546054 0 0
155.857635910974 -18.2041166141722 -22.8064276061969 0 0
47.7089170775026 -0.736912332368445 21.5247746243388 0 0
160.988611485333 15.0968801702653 -28.8689931190131 0 0
-70.6678667754613 16.551430366399 -0.813295743619606 0 0
128.191777372095 -18.2021834120727 2.85964681583505 0 0
-79.6562163632701 -6.35776837921776 2.78710378341356 1 0
-46.8942980506967 15.6170036159518 6.8584439898242 0 0
-1.24870581135959 -11.3341667142142 11.9549705272659 0 0
-57.6096498650942 15.3412321677481 10.7695631432022 0 0
166.763775396549 30.7417899943278 -20.4162258274186 0 0
42.9120530670691 10.7553272066489 13.7943466108077 0 0
-6.43644705324481 9.14210418093858 1.73737871640698 0 0
-45.9894105481103 15.6607547428222 8.23403954201462 0 0
155.198933802292 -5.35776047877686 -12.7858734424117 0 0
-11.1353418633776 -4.44677181872954 0.862457332535506 0 0
131.701885825396 -8.55134086935057 17.9778418445409 0 0
11.492532971759 10.5251771982638 15.9029328266852 0 0
185.400046288986 -6.57041134336521 -6.44738625964023 0 0
144.947853232149 -12.9162948549202 -10.1716906040136 0 0
184.713794065682 -30.4385138770613 -13.4033015761501 0 0
-9.26861290583422 -10.7735142095472 10.449938727724 0 0
-75.4583918693831 10.6807513072234 -8.86906138642344 0 0
123.066079344221 16.4623965277082 6.30775495390359 0 0
55.0719424306707 -1.53423992821123 -1.75293653772463 0 0
21.8672841574152 11.788416614292 9.30943610126565 0 0
39.0494437807582 9.91757353156932 15.8453912631668 0 0
161.393426536567 -1.37725664724031 -14.6661186262446 0 0
28.2657770282859 6.23070352592032 -1.5533313234766 0 0
159.756414881866 -20.6020955893192 17.1188952740282 0 0
106.044279186073 -11.5982019495896 17.1370384745628 0 0
184.028115014821 -19.1453105998633 12.4168191519957 0 0
154.867122934301 12.8056080400186 -24.5512756391799 0 0
149.400659987105 -4.41649429238064 -9.26077986519394 0 0
144.894039147909 20.8551771076885 3.3817629779596 0 0
151.113394541119 -24.9519963081674 -10.8723570621726 0 0
157.202616556083 30.8494596122734 -17.1033101066465 0 0
169.670244897837 33.0349608355802 -5.93534249207923 0 0
140.271350583157 16.7125610554144 13.0013285983076 0 0
37.5988002849692 -1.11668202433054 -2.6871198236135 0 0
-78.5425950884847 -2.12640855150553 15.3713176691314 1 0
181.078473823893 3.27666858374472 2.73475987163297 0 0
146.451638908254 -2.45297426594586 -8.23533700732222 0 0
28.8744504781056 3.43054605700034 -3.18131503062729 0 0
92.4134611788635 -4.37529165672179 -1.64521438450018 0 0
65.9803983025395 2.21295524362838 -2.10698821402742 0 0
-72.474768063241 13.2547948874787 -5.76534848931269 0 0
173.829064204248 -3.85455746852592 15.9066098938075 0 0
59.8238419124154 11.9054255438138 10.7384073841343 0 0
165.936102319872 21.0919385722629 22.5654650938774 0 0
161.141449821358 -15.135525153855 18.5666698004726 0 0
139.416218704348 15.1570384913849 -8.98441029134608 0 0
166.399977643698 24.6629248381566 15.715597710819 0 0
-13.7919547451318 7.57000375609142 18.8218121596794 0 0
151.6547390796 -33.1547870777314 -10.213999721209 0 0
168.529803793385 -12.2023091923879 -30.5868042958112 0 0
145.535343806102 -24.6200182629692 2.90769471337914 0 0
121.361794809428 -17.2289844032762 4.3255307314844 0 0
160.9570004791 -6.43524906150875 -15.3940191850656 0 0
150.03307208833 23.9551271335914 1.54253902688178 0 0
-13.1094530177154 -6.08873727036476 2.83080177778024 0 0
74.0834108793954 -11.8167644148529 17.1958216577086 0 0
144.854177772346 12.0061741455825 20.3014359642367 0 0
152.823197856405 29.7781697093581 -14.6630894410155 0 0
152.798857326427 -4.40504104954748 -10.5389446185981 0 0
159.906909233431 27.4307179439724 6.73106656524539 0 0
-16.7552030234384 11.7853233961038 6.15415147211248 0 0
-38.2598884325195 2.73589987958342 -5.99530766069216 0 0
188.949581219055 -24.6298270818744 -1.69207116768925 0 0
159.664157671783 -7.23920833195433 -15.9448913509449 0 0
172.427127579063 -31.1624274952954 -30.0874119717834 0 0
34.9189663164222 5.187335646092 -2.88398709032121 0 0
164.778129589681 -7.85396096806877 -15.1893917507798 0 0
152.568105025893 -31.5851613311585 -4.02279529262038 0 0
77.0959939401754 -14.652562721042 13.5227147824673 0 0
152.292276774648 -6.35218125801844 17.3942149233392 0 0
148.530654718258 -12.5993641672012 -10.1519354772332 0 0
72.0510795366364 -11.2470706917257 4.74014459401856 0 0
77.9134781807439 -7.95345897579753 19.6958090546257 0 0
77.870593003012 -5.72720377745108 20.669196112793 0 0
-29.3340386344787 6.47831413324868 -4.17594045900059 0 0
183.909614059563 -5.82431119333164 -8.95205428561729 0 0
176.655936591143 11.1444510761376 -22.4313933139452 0 0
3.07297073665201 9.34909051655206 2.47598715782953 0 0
-42.0955794151318 -5.97105611219713 17.000187293565 0 0
77.9077161588471 2.8475449869635 -2.20488069001625 0 0
115.511356934468 -14.708080454358 15.0171313525847 0 0
178.712653692616 2.52705686681092 -6.17768098391953 0 0
174.411105998544 15.7552589831459 22.0924059190299 0 0
108.123347537644 0.996032195212168 21.019927675128 0 0
168.399355795758 -29.6737305682394 -31.994788312673 0 0
181.132557105639 -24.9936589664888 -30.1749247822384 0 0
156.004248728676 5.03337082361705 -14.4134132742284 0 0
88.3859472846555 4.04227279003107 21.0555372484913 0 0
165.078176453057 -32.2038221130596 -26.7169221710188 0 0
84.693186120799 -7.78128171874534 19.6837996555489 0 0
60.9932334315383 2.45621616837234 -2.2099543546818 0 0
71.2994255073122 -13.9953714354581 7.978713172992 0 0
-77.3149907579958 10.4607700841345 14.9733155153108 1 0
-66.6759237386557 10.2978932179346 -7.50370256315153 0 0
5.70209061755329 10.2587189336746 4.20107637756769 0 0
-52.8661177583333 1.58938399265972 -6.11605322851274 0 0
179.890294675342 12.1473899635233 -17.7033406034618 0 0
184.804739360887 -19.7452832876154 11.0880557995901 0 0
185.35092230037 -28.9918870701107 -7.2709386636176 0 0
-25.1694708125339 -6.72335197182797 3.63986048292005 0 0
58.2642548284162 -11.9915399972761 6.45397357907266 0 0
142.717829268788 12.7004476672601 -9.9565385330139 0 0
134.279082245926 5.26835422727642 -6.14842895288541 0 0
118.196274622255 14.5815640268456 11.4072757846785 0 0
-17.359678783379 12.782957704839 14.3574731111158 0 0
123.319615066395 -17.5674502499926 4.13838256157963 0 0
88.9665793372755 13.6627290696635 8.69526340087493 0 0
160.140006013645 -5.30758526939335 17.2772272218208 0 0
35.4506660998686 -4.35091583241831 20.8035478592458 0 0
26.3406074283997 1.01287493144472 -3.39996319784205 0 0
158.784459480926 -28.163359643086 8.88356372895522 0 0
120.938225887184 -14.0051103658728 0.523193157255826 0 0
132.97885709372 18.5086282748369 -1.93581688676208 0 0
24.068420083524 11.3201435148741 12.6875365450848 0 0
23.7018191055578 10.5085924229868 15.1883660373143 0 0
116.399954523125 -12.81993291297 16.3726363630716 0 0
143.141820615765 17.7881972897193 -10.6007777177078 0 0
87.6433648797745 7.76750089579339 19.1907977879793 0 0
155.322347244969 -18.5888611195205 -15.7497024346704 0 0
173.660613538799 17.1823071672727 -28.5955784689219 0 0
110.249714435574 -10.9494218332967 0.356754812637074 0 0
131.542223177133 18.0464789053843 -2.19257847961606 0 0
-71.7128755885217 15.3228856713962 -2.73004573823076 0 0
148.388647757567 -2.90295406380404 -8.83734761205229 0 0
165.472390216718 5.83716742986924 -16.4275956404726 0 0
109.001457251736 15.1137875176752 1.69749543113102 0 0
167.963049622304 9.28386052729561 -21.6124657879336 0 0
120.946735606665 -2.48162191828383 -3.99303277900611 0 0
179.442069981321 28.0389260372392 0.157997823854753 0 0
165.666669194735 -0.620396953060082 18.6603212243746 0 0
183.582523102542 27.921296206579 -11.8125901868335 0 0
153.154197146095 -5.75885835854256 16.3325067093345 0 0
116.978178384742 -3.36051067056562 -3.47904331007036 0 0
175.638541464418 21.8418648290985 19.8664940394679 0 0
139.57704762396 -9.32692536517558 -7.73215165135761 0 0
-49.3480384427272 -7.93595912370187 5.51904038377036 0 0
140.344158618115 -19.4344406377258 -4.30161170003814 0 0
159.238897172396 2.75198511806981 19.4924468769816 0 0
156.500674866435 -24.3991019510945 -24.8953441483039 0 0
50.8441048078444 10.4787766401243 14.9304090268665 0 0
1.16768872447165 10.6427336386138 4.89146765442337 0 0
178.845392950855 32.8715967255379 -18.9939765207732 0 0
157.483116294072 -25.1024538263816 -22.8834149414753 0 0
-54.5524543835004 -3.53063668877221 -0.617931202932929 0 0
165.652833500637 30.4073682956721 -27.5375758827272 0 0
168.792532628141 4.95474518804963 -13.4111289811072 0 0
76.891430469727 -14.7472338650766 8.71481155196477 0 0
39.7830996876222 -7.41647266632661 19.6717953008039 0 0
161.541163787235 10.92395079561 -26.2092397599308 0 0
12.4085526596097 -0.425992935949381 -3.850293864327 0 0
165.456200512262 -32.304502567543 3.59612027009272 0 0
134.097689549348 18.399768219733 3.02001396076644 0 0
159.228104496941 30.9819333687706 -0.844283857579318 0 0
158.45941880513 -21.7940631912229 -28.8073274673143 0 0
185.217481526648 -12.8691581419018 9.78313722298191 0 0
175.058007230393 5.01771454178287 -9.7996240351586 0 0
175.121967429501 16.0396384710492 -27.1556455621295 0 0
-31.6308776651009 14.3838790746263 8.6134486829743 0 0
-67.4946644110177 4.14639567625307 -7.70322289409343 0 0
-0.176644204465353 -1.9145778981739 20.7467092100523 0 0
153.937281965921 10.3535309565557 -15.7220454274041 0 0
168.366490426555 -36.7346420958181 -9.27397725829077 0 0
-67.0893629028853 2.95012030445288 17.9164631597785 0 0
-0.979503172929065 -2.28088364283142 -1.80765244938048 0 0
168.587130889314 31.0815341691623 -20.733881160577 0 0
-77.3992431807759 -1.01649955437021 -4.57036323265431 1 0
39.9461492927955 -10.7266025281986 17.5637227483234 0 0
160.091167341526 -11.9511731195904 18.2887191778469 0 0
-24.4321684024786 3.3677727887055 -5.32338952237316 0 0
6.76540548172225 -5.58159320431977 1.87741782128509 0 0
157.940869822526 -12.5557015765686 18.1821017536157 0 0
-43.9201722548778 -0.351157747971266 -4.50193767704308 0 0
117.043069027389 7.35336721860218 -3.86358378987828 0 0
-2.27387652684645 -5.12978954924751 1.55291033673244 0 0
113.781422736076 -1.14140179989892 -3.4349455033637 0 0
-79.1381095744942 7.06765651042329 -8.64065503447057 1 0
56.9592818884421 -4.77330847588751 0.362905074773885 0 0
-68.3035948674556 -6.09552136554693 12.3748484943619 0 0
178.25918133993 25.2142279100969 9.57366028534664 0 0
33.9857385467709 -6.53266910624705 2.38179578517042 0 0
152.442057704577 25.3724953787818 -22.3355721302268 0 0
166.168960006844 -6.46530472916673 -13.5572148395265 0 0
161.520994081577 28.3857101820595 -28.709686291727 0 0
188.459973762954 -22.1486324988458 2.92121344810114 0 0
138.437180185058 -6.85457443767456 -6.92948405988914 0 0
180.30601082325 3.51274957747217 5.64206110847072 0 0
180.731511459694 -19.2849354167788 -30.5225736978239 0 0
42.277689613177 -0.281624158719744 -2.72849158692266 0 0
154.137508513206 -23.1976074880657 -14.1434319853263 0 0
-79.3875883088505 -4.7897140238163 0.259954364539874 1 0
133.595527620122 17.6373358049815 6.7153152579634 0 0
135.121039171284 -8.54650254176879 17.860041577296 0 0
143.569405512644 -15.9536320559458 -8.49728295002002 0 0
163.192054962819 -9.93836465331506 -17.3184834663365 0 0
109.79356455964 7.60663798398869 19.5025979160629 0 0
99.7329451924835 -15.2667517447328 13.6166094105859 0 0
140.86712258181 -20.7111904645097 -3.11861749000821 0 0
43.5280715856792 -12.9024661414065 14.1476113692428 0 0
116.007579289641 -17.3516441436033 8.87111593070184 0 0
49.07697478133 1.4245642853567 21.4664260335518 0 0
135.960382906793 -13.8680962599055 16.2877127269935 0 0
45.7253478945967 9.28440265001566 17.2242334564672 0 0
104.193080957833 -9.81020585734666 0.327264037001426 0 0
3.56455242182201 -7.82629182249215 18.7437439616183 0 0
149.926248880305 -25.2592386648656 7.10394373998848 0 0
175.493843085448 -27.8540207190742 6.96726748762699 0 0
-46.2571427216143 -8.32854642948763 6.24261351338077 0 0
110.664527031786 -16.7111180971679 6.94444890658247 0 0
-22.9013007245109 -2.00163209784595 -2.85753346807664 0 0
-60.2112740433288 -0.054103942999072 -4.84809126840123 0 0
-72.2217585550312 17.574778330279 2.17633352103333 0 0
13.5916842361502 -5.17613511615638 1.23826801214084 0 0
152.557934003674 5.81843396451313 -11.9007543002868 0 0
117.730952554196 16.1940120967487 4.53946480347506 0 0
-58.5295752054234 -6.3702786985215 14.2186772083787 0 0
169.362954030633 17.3079225961497 25.585365273895 0 0
35.918196533494 1.45921961745981 21.3285226985332 0 0
147.939053735448 -16.9639312530873 15.7464943913057 0 0
-14.1004563385096 -1.40521018235883 20.3897025802041 0 0
152.238598962223 -24.0452894387917 -11.8870195168343 0 0
159.741068050432 -26.5381788515851 11.441148222197 0 0
42.0761218301743 -0.02648783090231 21.45651611096 0 0
73.243348636694 -3.9734122073099 -1.14027123933916 0 0
131.470548292294 6.84194636597515 20.3216393174395 0 0
151.136045383037 -9.48541125830801 17.6748655617571 0 0
-10.4456881678771 -0.893597108593941 -3.82043537687788 0 0
113.517580530917 -13.7430253006693 15.7272377534284 0 0
178.003611069128 -30.7856136736223 0.0836431622768615 0 0
163.390626011781 29.2933093643587 -24.3927548177682 0 0
171.021812002991 32.4786480840598 -3.94040135935616 0 0
178.660086179182 -27.9857456072427 4.65741088255455 0 0
36.1422605607645 11.5904381661877 8.10327320533512 0 0
97.7847751974482 -15.4990184631313 13.0846931652171 0 0
-47.236844314568 -8.40198178631285 12.1252537622517 0 0
147.654680085694 4.13204938028352 19.8159482137594 0 0
44.9061277963391 5.42075592986645 -2.92856800589473 0 0
159.042040408823 -11.9780656462762 -24.1412949273337 0 0
12.8416749104919 -11.9225186684747 13.1617591883021 0 0
-40.9412364130015 -3.20548646596556 -1.0380445879614 0 0
25.106169471856 -12.190427780704 9.94510623959932 0 0
-11.3705981547401 -2.05135893540276 -2.26520695086873 0 0
-17.3756672092241 10.4419663164555 3.18067858781842 0 0
165.400840591775 16.3843181742805 -30.3124525358453 0 0
184.440457944008 20.2163658799168 -4.3078243120577 0 0
49.9426523907478 7.9728865169537 18.3798771707339 0 0
154.893330531254 -12.612204773082 -13.343900317105 0 0
153.5697405683 -5.80410641579105 16.9688780093288 0 0
-16.9476682270152 -9.99803444685153 15.4657507667183 0 0
71.7722949001095 12.0553112493222 2.95853594860149 0 0
156.912313637137 -23.2690364695673 -18.8209950242767 0 0
102.552049492544 12.4188673964254 -1.20360085745963 0 0
-68.575504950591 7.71987357356982 17.0626876758364 0 0
21.6422515454228 -11.7122298609345 9.05261043928313 0 0
154.722677496405 -15.7549655180291 -13.7750748915231 0 0
179.04154593734 18.5793713203541 17.5938828300131 0 0
42.416218623972 11.680884629507 8.30018338308843 0 0
131.663232319648 3.29599777974066 20.4110891278153 0 0
171.893858817965 28.5290138412068 4.62083109852356 0 0
164.56970636819 28.958098481289 4.71828164643687 0 0
-58.4780039694062 3.87472357925755 -6.76439947933496 0 0
169.636277628928 1.55442748730727 -10.3047786035106 0 0
182.022608284317 28.4207489369086 -2.94538347599206 0 0
37.4503710260715 -11.0050611984782 17.2659882524341 0 0
83.8114652578063 7.60717019535173 19.2772212817151 0 0
11.3737659817617 -11.6170747128677 10.5034051147269 0 0
64.0735731610114 1.5753334662449 21.6106819912087 0 0
140.284727237126 -21.4453735914441 7.51026401949263 0 0
156.420250741111 28.052529067788 -24.4466910088168 0 0
40.4433163677446 3.4239275131854 21.0170683562591 0 0
167.610953797858 -20.1343080545299 17.5408485340543 0 0
27.3253463510022 2.70345248308113 -3.28921755782849 0 0
4.16162043200714 4.50316653544118 -3.82447143501786 0 0
162.093315398053 -33.8709262537635 -21.7977175328786 0 0
-62.0266848920346 6.61982155490106 -7.43771721855641 0 0
72.4681912521971 12.565843207023 9.98332258986203 0 0
151.403583397032 14.3422437564084 -16.6239939443591 0 0
161.743442836034 25.5768357076484 12.6808265050801 0 0
148.289997986658 21.3623274888514 -13.3609913585832 0 0
170.312187428916 -8.32932528942032 19.1843031802733 0 0
175.597412319992 -5.55105296832232 -10.2255363543016 0 0
13.6746166366234 6.18531326258278 19.9118422846616 0 0
66.8370899492738 -9.67036469378121 3.72030461128494 0 0
-14.4127586686684 -1.85006943013274 -2.63290280429739 0 0
-39.0248157257153 8.41749654010133 -2.68637419498979 0 0
173.903393834295 26.0154648821487 -28.9457489865175 0 0
84.3319816805227 -4.85144512896622 20.792783012658 0 0
36.4992228749051 10.3033131653708 15.080627551866 0 0
167.556660307872 32.14061481177 -1.38258060430535 0 0
23.6813167484856 -0.807464916253175 -3.46945272939754 0 0
167.190884197819 -32.7500753805557 -26.674281716879 0 0
152.317043254813 21.70553204825 12.7079730174112 0 0
5.21987552892496 8.57382751486213 1.56910575786878 0 0
120.500191655076 2.12796274112352 20.6100761193988 0 0
110.397969419023 -13.7248597239806 15.7266004542841 0 0
122.565609102806 11.6667411017161 16.998004770969 0 0
172.262338036233 2.87860689868589 -8.97742113047253 0 0
181.391299866063 -27.0359273055994 -29.3757118261838 0 0
183.275699602262 -15.1389454186323 14.1434162781935 0 0
-53.6324916018309 15.5967291782468 4.70315616243076 0 0
156.002482412611 -18.4546991800153 -20.4736024466314 0 0
15.898706177443 11.4587304148901 7.07339979737428 0 0
-41.6899694762866 12.2276371140896 2.22605151616825 0 0
-17.8947354611805 -1.58658505902611 -3.49623597579897 0 0
183.63502822358 17.4519579238157 6.97506799550021 0 0
160.116791715212 -8.03282211089008 17.8887025755674 0 0
63.9356337283574 -10.4466405194219 18.220948013181 0 0
176.524641928089 6.27095313584217 -13.3970964030139 0 0
167.301143939948 -34.0616480086381 -21.9695779657444 0 0
-18.6514904786817 2.82423624831268 20.5387746029041 0 0
158.749484620139 12.7809945465205 24.9026487413788 0 0
-0.283379624173661 -10.4494800493582 16.0642207502282 0 0
-19.2421734530507 1.21690937484369 -5.18145126597545 0 0
182.924814108054 27.4336278834767 -16.0783924883511 0 0
181.881986115815 26.0003862791643 -20.0311197425295 0 0
155.048682215057 5.46921868208081 -13.3922219906503 0 0
135.26431334214 -2.03633825847587 -5.77308712555994 0 0
141.514949139427 -18.8333319237269 12.647683086023 0 0
3.81674434587277 11.6624981478229 14.5072291595658 0 0
178.047716502327 20.2437123309725 18.480577301854 0 0
-20.4753724532771 10.6882648764425 3.26670549378936 0 0
164.423004140505 33.6535761828096 -4.20478956310907 0 0
57.191701525008 9.440040722377 16.6448947471087 0 0
181.122195003541 -26.7714909866723 3.80862951566533 0 0
-6.40113858460053 1.75532377716766 20.9055487019237 0 0
56.3437224184465 4.40465856215009 20.7379998108937 0 0
2.77452239583313 -3.22885785564762 -0.454485403213143 0 0
-74.7533296281411 -3.60118792917424 -1.04901882855495 0 0
21.9248218535701 -8.92737146145722 5.07680301888203 0 0
147.930062047014 19.7512616582967 11.6757696813027 0 0
162.026048866045 -18.5204050275916 18.3232552585463 0 0
119.969186669536 10.7911048548946 17.6930307429426 0 0
75.5317018799594 8.52177913186024 18.1665495061949 0 0
-61.9648710166015 9.1480312075152 -6.99372321705486 0 0
125.034670245377 10.7165876060223 18.226908088829 0 0
-75.0469923352019 -5.68647906552951 1.75462309612372 0 0
167.867565876119 33.4195404284836 -13.3180630464568 0 0
2.19808467193124 -0.891373133256576 -3.60446833823898 0 0
180.706462312766 -29.310446558037 0.453939949275442 0 0
62.8699394083726 1.14836782698837 -1.97635310832412 0 0
-68.8575201206956 -3.08250975829729 -1.43545481691138 0 0
97.1557686263926 13.0282356897782 0.28808366809123 0 0
152.859566900128 12.29365560058 -19.6257062960971 0 0
177.653266609405 18.6022219526491 -26.0270731854397 0 0
180.020473254608 25.7546703522368 5.87962731433967 0 0
22.9413037863887 0.841523699019341 21.3223154638556 0 0
-36.1934408003573 7.42329187092265 18.5321169448109 0 0
132.385846906552 0.818192118453619 -5.4036748880897 0 0
102.572509496654 -6.90124455547822 -1.206156657579 0 0
188.230535635072 -13.8657837294116 -16.3828718770279 0 0
187.272926402604 -29.7405304254582 -16.9913208530154 0 0
171.704148140845 -11.9353977187216 -25.1526920510715 0 0
-68.2233306730364 13.0674627441788 12.6377420580552 0 0
147.682609745213 -6.79388536971211 -9.68740342810186 0 0
89.8296953599769 -2.14767064099082 21.1661586475591 0 0
-54.536793834929 13.392287400366 13.0606904477866 0 0
172.363767381996 -29.540609344668 5.54398284702379 0 0
58.9832909542528 6.44216787798253 19.6918323994702 0 0
-76.6199487705479 16.4777592913805 7.85527528415686 1 0
63.471820109723 12.5369961304796 5.71287573846786 0 0
174.740483648851 28.6607676844998 2.88001631179265 0 0
183.619554857044 13.8717704711271 3.07854598509808 0 0
181.698524071063 17.18535983784 13.3488009444572 0 0
98.1816971507737 -4.07070350197016 20.4242021201744 0 0
168.130559876882 -8.97564845687463 19.4206095961167 0 0
145.108739665054 -2.39556703599626 -7.87958207254175 0 0
82.1050641823523 8.36658181436446 -1.54981541665789 0 0
99.4872442893463 2.16186302436868 21.2471340677464 0 0
155.652634912018 29.9891398964343 -17.8299388519697 0 0
37.2695395943593 4.49658712281134 20.7203374307327 0 0
144.730859169753 10.2234769558402 20.7998905994218 0 0
183.363349566715 20.8879938682899 3.69247205203154 0 0
-74.3897576287176 16.7477558070415 7.5444868320788 0 0
20.2447432780805 -12.2356508349476 11.3270537985056 0 0
161.941953114666 23.1288614677662 -30.5058571674327 0 0
94.2468727151681 14.1417614443535 7.42262375354323 0 0
161.168192309524 29.0418932079568 3.92197536276742 0 0
181.382766201701 32.1268080073364 -12.5521627362088 0 0
67.9499439030202 11.7471437507555 3.01828876747678 0 0
69.5425325812685 -0.545398948314759 -1.78248862252706 0 0
159.060586680732 -36.7257780350616 -14.085282605988 0 0
152.203097541293 2.80762947527767 -11.1056325750865 0 0
-24.3196985781952 -8.6455216025247 6.42698148002367 0 0
176.445079399563 27.3560511200735 5.02196182023073 0 0
3.55053311136221 9.89235444477998 16.7097506131651 0 0
146.189220192706 9.5149517233663 20.9558191514064 0 0
66.3229391785069 -2.62848093751871 21.5693167974768 0 0
174.689461958689 31.5019024907834 -5.81031077472933 0 0
128.096764229303 -10.6691725703103 -3.87343087138071 0 0
169.090534710962 30.45842589582 -28.769670101777 0 0
156.228217186546 -19.5793698517088 -18.5334936263286 0 0
177.271898297776 26.0851075997528 7.71065697549502 0 0
116.710574818416 13.2995857437101 13.8544179606823 0 0
-64.5949163662119 0.323858874652487 17.8563646682567 0 0
149.310771194147 19.765526395239 13.3199721908273 0 0
119.518792501132 11.6212213625624 -4.35739307881772 0 0
157.095976042811 14.6224201519233 -26.9863237955873 0 0
114.970231742304 -13.2626809624939 1.25174169326111 0 0
-64.5989517542907 9.78227304432643 -7.09676207575388 0 0
163.896949807032 24.3296436057419 16.1621024747449 0 0
-55.7825429532278 -8.42124591746903 7.54642657103427 0 0
-49.4944380208926 4.01412006171698 19.056490042432 0 0
166.45995404553 8.86446803565052 -20.8375046360788 0 0
177.294182473763 -1.31465326176146 11.8918709651667 0 0
134.528305594992 -19.8456063032543 1.57010128739709 0 0
138.117840881515 -20.8460599306252 8.00802896241957 0 0
170.917068831355 -29.1033582324574 -32.7342503124899 0 0
97.2577137269113 -8.00241595454626 -0.142500705819174 0 0
-44.5560466460094 -5.75078380195407 2.38441722604062 0 0
37.975405977551 -0.251110916038024 21.4011030399797 0 0
-62.4493841169278 8.92415453993057 16.7136583733431 0 0
109.893607194127 -8.72639264629125 -0.885645444767091 0 0
152.35145557492 12.7569215072876 -17.3698948220832 0 0
180.467779870667 23.04355554496 13.3393959399263 0 0
-77.6821578527079 1.5056906322534 -7.64348929308485 1 0
147.316402678154 7.28079369481298 -9.76628909515372 0 0
145.872337132797 23.7827898794657 -6.24669730669222 0 0
-60.0824803657811 -5.2471768752748 15.4497158317746 0 0
142.801348626963 -10.2049823531198 17.3106169167733 0 0
82.2898041676194 5.4772364772227 20.561540447497 0 0
175.909391077108 26.7642121559216 7.04921742825839 0 0
51.9058759347462 9.29179192771069 1.58096256383377 0 0
-68.7487525754916 -0.3519716022536 -4.91003085932779 0 0
173.45616100844 -24.0784330586455 12.4913533788473 0 0
28.8261714333725 10.797689858206 5.42404211446081 0 0
138.362383818209 6.40881995294929 -7.1977244463646 0 0
138.50511493971 10.7195904591082 -8.10620776713686 0 0
-3.16331335243512 -0.632857633642563 -3.94717620910303 0 0
-72.0330432004882 -4.28646472254143 -0.0950272855310697 0 0
169.884803928259 -35.5734519781268 -12.6803423276006 0 0
157.372545879538 1.76612952782826 -14.7350060076165 0 0
178.13984600923 -31.7878062657425 -1.80011219347014 0 0
43.236250465762 -11.7569549041374 7.43499663548836 0 0
171.093062937258 32.2232852097397 -5.85528338340181 0 0
142.415057994478 -21.7280284187542 8.27330974702646 0 0
148.371101229449 5.99931057457865 -9.84065751190221 0 0
158.440986010126 -1.34363568348826 17.0891880310009 0 0
147.49656541838 -25.2477511032618 4.25569244490787 0 0
99.9271441962419 6.58272779778224 20.1088251063796 0 0
129.316824905132 -12.3286239157579 -3.69617632687788 0 0
50.8900164358241 11.5381224522269 5.21121260501559 0 0
140.534315359496 13.3294847703602 -9.34695917509789 0 0
171.072239833683 21.1615594339461 22.7341533737871 0 0
82.876201073154 11.5185099393225 14.0674869899688 0 0
154.826558017397 -8.61570340848261 -11.8124330958339 0 0
141.160791486937 -10.5032994585298 17.2228292166209 0 0
130.594145186414 -13.7394623381319 -3.71309474960951 0 0
-25.732147617614 -4.86286938373963 19.0649999103285 0 0
133.523588293633 -10.1224010581651 17.4355640607414 0 0
92.2875650556765 -13.7212098184859 15.4646176246483 0 0
116.496825109756 -1.76712822803727 20.1627082185089 0 0
59.4370025834519 -8.52174723945177 19.4292128713759 0 0
-10.7020288918019 -8.47396834913394 17.6197426456669 0 0
147.050954072411 4.68096660945687 -8.85094463153904 0 0
-8.93292906979791 5.02548998671932 -4.16085306144681 0 0
146.279329058001 16.4531522591128 16.651924651951 0 0
157.721841989481 -11.1250845337579 -15.9174055219708 0 0
-4.42716423817503 -2.10641233956756 20.6496319549014 0 0
164.231991860931 -8.94031316703449 -16.2868351910537 0 0
84.9507388347048 -13.9457276334377 15.2287781661306 0 0
-6.26029547120938 -3.9557332956735 20.1558751328623 0 0
173.08235942438 -19.0995620850669 17.1688212628296 0 0
165.745451369637 3.21992396532439 20.3806585161208 0 0
176.78389788528 20.0959211563756 -27.1715603562466 0 0
155.163909540392 25.3157492824907 7.38178817261365 0 0
34.1407893232945 2.8525102147656 -3.01133157478111 0 0
-61.7388077569031 16.4117674191161 8.61590988757322 0 0
174.613945337332 -34.5568490140806 -4.27698886005513 0 0
-24.2916259649177 12.773323871109 14.8232486076716 0 0
87.925650309294 -13.319086833122 15.9220353930141 0 0
108.759083097704 -4.75296751096121 19.7694139439124 0 0
71.4243621685598 -3.85688571598774 -1.13939611338228 0 0
39.0040047540119 4.8319249823519 20.5622936286059 0 0
134.757683981695 3.52364467989077 -6.05782231706067 0 0
185.012531231376 -30.810909568344 -14.3242046379115 0 0
168.643390359694 31.1847073852926 0.347237794991408 0 0
53.3492638108123 -13.4515946863524 9.63603680216848 0 0
63.2051780456529 -10.7260950541951 4.73177460112229 0 0
70.520268816167 -5.83153518658744 20.6710733829915 0 0
132.437479597398 2.40574388696243 -5.54951966357858 0 0
-14.5557973578014 11.7578905830446 6.36581273050609 0 0
0.0568286505613677 12.4171457136697 13.1793364667223 0 0
74.1331814742036 6.80764699752883 -1.99080933299633 0 0
152.989099750952 -5.67960380032784 -10.8398338911953 0 0
164.202323295227 -21.1321763301422 17.1935811445022 0 0
59.0428765012356 12.1223972841319 5.35913125411908 0 0
-73.4751453075852 15.92316822004 -2.34692022090706 0 0
31.9425388755902 6.48723895198551 -0.825399925617343 0 0
-64.7554560159754 0.798430412325071 -5.90822136740431 0 0
101.56148991067 -12.0895578638476 16.842259774464 0 0
-42.4622194081362 2.50600241158718 -6.02227244543106 0 0
1.69392082516294 0.463940161894804 -4.20780140873379 0 0
134.779292262289 -16.0448876423703 14.823482961823 0 0
179.340116008524 -2.13090995147775 -7.00587518695404 0 0
169.172038843662 29.7136484318846 2.73291284820153 0 0
-73.7062449217597 14.6167056270349 -4.19132802589282 0 0
126.210993687168 -15.8243105889579 14.4242652421514 0 0
-31.9829517299436 14.2343303310275 12.5156843484564 0 0
-45.228152136355 -1.20524523949888 -3.44827021393623 0 0
-61.9940357605861 13.386125557092 -2.36867921691485 0 0
149.334070158568 20.5911067181084 -14.7753058778155 0 0
176.644327393651 -9.95930547913336 -25.3409896862265 0 0
156.734010095754 2.97156016288045 19.4085932071452 0 0
164.402016679381 22.2567073509686 20.2426271264565 0 0
66.6203146978027 -8.03767997610553 19.7004047191783 0 0
137.492626533541 10.4929487044933 19.6504822124398 0 0
168.393603107016 -35.9765353933559 -11.3663822160625 0 0
127.545402250264 0.989540357859972 20.1970830256481 0 0
146.836784208231 8.37747579725165 -9.81829205699674 0 0
133.044101585392 14.0128497552509 15.5688092900904 0 0
166.83691703655 29.6499605535922 3.36803956827533 0 0
-79.1327260162029 0.402253907492821 -6.1629210735726 1 0
-17.4287819875864 7.49660632171176 18.858730154746 0 0
158.369697806281 30.2179145543967 -0.238039289316675 0 0
139.5896559938 20.0320342132655 -0.51127074598808 0 0
183.118106628448 12.7969806026356 -5.44999727245284 0 0
168.917037782618 34.4104237346838 -7.944973340792 0 0
-57.9890874384196 9.20068329202373 -6.30662775587297 0 0
88.4494891789494 -1.98241321543382 -1.84625877667775 0 0
76.0791820359156 13.0283994055014 4.34036077289742 0 0
92.4485365515973 -11.1191604284486 2.65635099739297 0 0
186.980057636764 -8.08959448482268 -5.70486453906454 0 0
148.136912668432 7.78560764142573 -10.2806875586826 0 0
-49.2626911805497 1.71595404395675 -6.07057511276601 0 0
58.2669311291743 -13.9007744941513 12.9753904921865 0 0
18.9207262287471 11.2587058537248 13.9383085978194 0 0
111.649161630165 12.150515315277 -2.87065211848991 0 0
80.0772032646217 13.1750080846938 9.02134144767975 0 0
19.4064205560357 8.70735529499883 17.8902795150764 0 0
-37.4343842864561 10.5159219135823 16.3953754064581 0 0
153.442871259812 -14.5834849380109 -12.6766457582853 0 0
180.12052727021 5.89439507949761 7.83069582044015 0 0
155.838633477677 -11.44086789504 -13.2929109541328 0 0
-34.9974180982025 -5.47769150209688 18.1530121464944 0 0
74.9142138115001 -4.45162086809878 -0.900959462529961 0 0
153.14591076135 20.8295604093498 15.461325161342 0 0
3.54932391589508 -11.2107178655056 10.0261968527301 0 0
69.2007627983026 -11.068690781476 4.7231961239723 0 0
-30.3767812470084 14.4393806594278 11.6002071834492 0 0
161.95815714996 -35.333727992929 -1.78379860606346 0 0
78.6517279550686 -13.9310627907538 7.00943322915432 0 0
186.734923745907 -19.4962919227782 7.88529926735068 0 0
178.287788050065 21.2229878338758 -25.8883445562505 0 0
156.019770908206 -31.4867441140762 -15.5823180068307 0 0
165.699548683259 3.13020641226729 -14.4596999871881 0 0
176.238776646722 12.2241956164375 -23.6965957923567 0 0
136.805501409162 -5.8141349104463 -6.20993645815064 0 0
173.453582359028 28.241579961994 4.35491958038677 0 0
174.861039198276 23.7024897195529 -28.4601007661903 0 0
152.666632136559 -30.5202567945497 -13.3434917465786 0 0
189.31686307906 -17.5801756210761 1.00243362126337 0 0
170.380733260275 22.943773681922 19.1501823999445 0 0
84.2740701947308 13.1682513493722 9.77627775809184 0 0
153.897772570435 6.57103375468748 -12.9124531558454 0 0
155.177900084942 -27.179486040985 8.32249413786424 0 0
