"x" "y" "z" "f" "a"
-119.35479742781 5.73639339391527 11.6308662665328 0 0
-33.6167738364207 -8.13121393900713 4.43920523264897 0 0
21.8673987136364 2.1971097048522 -1.17346920978849 0 0
-174.062697664795 17.2922848033857 -23.3661249995106 0 0
22.9696318127323 8.87035573497721 13.516936472392 0 0
42.4359267615995 5.48892832291215 19.780106838635 0 0
128.46948328583 -17.836113285362 11.0183024731218 1 0
120.290139426996 -1.72093645927031 -5.60113494423939 0 0
-208.773632584983 -37.6225888715296 11.3169735744982 0 0
-113.633031085085 17.4948818432854 -4.06625422478991 0 0
-183.683378582132 26.2698393754413 -19.6218366526847 0 0
-88.1641848842905 13.3121685577154 -2.08502338408807 0 0
48.1223077595991 -9.05122131992401 0.577820011076111 0 0
-228.20913622187 -12.5029788749096 7.31037543121299 0 0
-89.3846046939099 -6.26763417976461 1.6706136551943 0 0
-24.4670294532154 -5.60159019902872 -3.09231752491504 0 0
-178.109342488879 1.27059842985457 -15.9406155764838 0 0
-111.607991902525 5.47763950526386 -11.4706596603937 0 0
-198.292417323411 -30.6497461552394 -9.3308551048208 0 0
-187.136536408624 31.9967186686218 -11.8777946928518 0 0
-158.922363278425 19.9890058321063 4.45907634692407 0 0
-68.2996686222209 -2.61746761177634 -5.08189453050304 0 0
-198.646067940022 4.88229834237701 9.19968418835162 0 0
-165.489766198271 20.3556377663254 -18.3490092579246 0 0
-194.108223277691 28.5843477309307 5.05110999494162 0 0
74.54951661447 -11.14462349611 0.221478852013039 0 0
-51.5477233873623 -2.02241697824917 -6.50131373544932 0 0
-166.339934379055 19.6272588599073 5.90055937801505 0 0
-173.199092514474 28.8545257902451 5.35230520112505 0 0
-172.613989093096 17.3083788518042 7.28081497806435 0 0
41.3374885090227 -10.6819710851895 20.635413274462 0 0
-95.2147710308823 -1.73503106291444 -6.11987295670774 0 0
-227.843742986586 -23.8479704326026 11.957519696135 0 0
114.818804619708 12.792858668964 8.29701732134274 0 0
-204.730958606581 22.6575026362972 4.44780231414485 0 0
-197.405856726902 -5.97421334122498 11.281145337074 0 0
3.37279143916097 -3.77098570018626 22.9105465328979 0 0
-19.6960958003679 -0.280877586185059 -5.57925789873177 0 0
-207.538706889206 -9.96501581141669 14.6492324509458 0 0
49.0117656284369 -3.21261720221023 -3.63121942253998 0 0
-199.578959635647 29.0568648095736 -13.565906827822 0 0
-5.11596718217683 -7.44355632933493 1.44925012339408 0 0
103.266023622989 -15.5513600175582 0.834593638527643 0 0
-107.257066072944 3.77384484430121 -11.0045044299329 0 0
19.5125396922822 8.94612813517691 12.7985509708655 0 0
-161.988028479925 18.3575975473309 5.81001948558799 0 0
-162.415412483642 -9.26841371892998 -15.7613606014056 0 0
-107.217294867453 9.59936758950795 -11.2876830064401 0 0
-3.46290442403001 -9.79828475048718 5.87195837767257 0 0
98.9061543808106 11.7082182174383 2.31459824958843 0 0
-153.616341289764 -5.10194754393773 -24.2592889519573 0 0
-17.5699092148941 -6.13275658600674 -1.11184787371904 0 0
130.354666553492 5.63635896821881 -6.25433429381213 1 0
-152.420310953514 1.24593557099168 6.6360079739483 0 0
106.955235529319 -9.36566662981962 20.0899746870545 0 0
-39.258240510015 -1.3288802812587 -6.47531646777401 0 0
77.8422084088646 10.0537547697567 9.66576068478094 0 0
-201.743392057497 -35.73487835161 -10.9151634121997 0 0
80.5930030418249 10.116263413326 10.3494842273332 0 0
-97.1453248149087 3.91907905454399 -9.54088251868514 0 0
35.3865778780397 -8.54945133921321 0.663775330982103 0 0
-176.403145286171 32.5332317052614 -1.46634311388749 0 0
67.2543839843406 -10.2553029043496 0.128293425237024 0 0
-39.8451983520977 -6.45130255187219 19.6641235578089 0 0
-154.634018568754 10.7070633017438 -19.9693799763017 0 0
-195.738799149042 14.4348008687246 13.4982080240107 0 0
-211.70708252642 -2.89437735915558 4.70569028765762 0 0
37.0678807769551 1.53741618497629 -3.13969999623166 0 0
-185.212147900394 21.6797513782027 9.63311041917532 0 0
-169.018831496696 13.9401752561025 7.49287960515317 0 0
-72.5899326517115 8.37914585357727 -3.41015964779975 0 0
-117.222463202258 -3.93468234590322 6.67854428772957 0 0
-101.991341397359 4.19484461143624 14.5497911008743 0 0
-55.4458628519359 6.61497061831263 -1.64538988880177 0 0
-143.599160850568 2.1022585067221 7.6875996854619 0 0
-102.884999435536 10.9781867266648 -8.62578537627891 0 0
-7.15561907246982 -5.85454054161987 22.1689912877229 0 0
51.5646090013643 8.20068330205865 15.1705180234759 0 0
-207.982271119755 -31.9107557898131 16.0433219215129 0 0
48.0969698431969 4.36131239522767 20.6405261895596 0 0
17.7832840944537 -10.2288621576688 20.624830823997 0 0
-199.559921369991 29.703321141122 -11.7111478665273 0 0
-4.07651318162523 2.27459722202291 -1.10849676874131 0 0
-203.601741586044 -12.4579395296545 -16.3393452517267 0 0
-209.03016459046 19.9163787538364 -9.62108495172487 0 0
-162.034322553029 8.26661934576796 -22.4495295106354 0 0
-23.6778711598363 5.03575676943994 20.3972509238278 0 0
-109.884366591183 17.3527945367518 4.44677488844524 0 0
-116.442857945658 12.484086039284 9.49373787251532 0 0
-193.90861060853 31.6475391229492 -6.32192223990076 0 0
-167.852025155546 -8.57489062423338 -5.82963983179335 0 0
-74.3407320087515 -6.42331227438185 1.59614572154998 0 0
-214.126756101138 -14.9309795780573 -19.6594137383444 0 0
-212.156810257963 -28.8411222529994 18.0009014103996 0 0
92.4960404907174 10.0526838115718 12.6931530746021 0 0
19.7778108311161 -6.58995370773351 -2.20245830133047 0 0
-170.207450004312 -5.75630370394349 6.71532211035605 0 0
-182.658049594153 24.1231502562637 9.36882492609986 0 0
50.040889074138 8.26235693975654 5.25264587005486 0 0
-204.353711106689 0.11395636638925 5.90252083359796 0 0
-187.482744174087 9.74498580695916 -17.7107230960461 0 0
-83.8611083192039 0.0166197067090728 -7.49301242454001 0 0
-231.268924810371 -19.0865131368452 -7.59247965543382 0 0
-183.910357010014 25.0230501093872 -20.392280516625 0 0
89.6521929347931 0.503781364190404 22.8573024853946 0 0
-228.131978829669 -28.6383290081063 -11.6107860611909 0 0
64.1287611276396 -13.8920075013121 16.6631393770479 0 0
-124.521071705515 0.927547704630159 -10.8195526067681 0 0
-91.2835024855828 15.8991870747506 2.15917687333295 0 0
-49.2012162471495 6.6698512248368 -0.47209082216509 0 0
-203.698000257603 26.02200324849 1.70133385699438 0 0
80.4979555523172 8.83488442719927 0.431119286773546 0 0
23.087277256842 8.27381785790067 15.9367756745917 0 0
-196.295908025996 14.9852222995377 -12.8412614589891 0 0
-87.3537818394224 15.6300782465436 6.63090138847233 0 0
64.7149113522863 9.36197204579254 6.3925966036935 0 0
-207.533531922182 -17.6163168428512 18.1185780340226 0 0
5.06339673490582 9.05452388841885 11.3291320823233 0 0
-42.0895073371978 -5.23457013114522 -2.7379777317078 0 0
-194.679084854588 -20.6329768465722 7.43263995149052 0 0
51.3551377110598 9.08464020817367 10.0822688416794 0 0
78.9090449513632 10.2274495684373 7.16104560912319 0 0
-4.31128052953968 7.86269822772857 6.0068311576959 0 0
68.9642228052904 -14.2965727730225 5.86931692233054 0 0
-95.2162228100927 1.53139915430396 -8.99966292915069 0 0
89.8842812963872 10.6370895741436 9.56217334462464 0 0
-119.93005003101 11.4348905887511 9.7945886161722 0 0
-74.6215613772528 14.27816810672 8.39758284383863 0 0
51.0481951703184 -13.1704363317123 6.61926710333799 0 0
-38.0596553568848 -5.27534664869863 20.5344565202803 0 0
-160.360392262408 9.52011798425283 -21.7122085696107 0 0
-63.4365873472413 -3.70580091451032 18.7347814308743 0 0
76.27010664732 -11.2514275554181 19.3890038234141 0 0
86.0872543838423 4.89254770996141 -2.97600789714857 0 0
-195.470068253824 13.3695947627386 -20.0549326230717 0 0
-97.0033720227027 10.1202429940815 -8.19988455778566 0 0
-156.634868474417 -9.32017363242788 -21.0432025753025 0 0
-27.8761658371508 -8.4569459802212 4.77889325512912 0 0
-108.080573897738 4.96061512356079 13.525156121707 0 0
-195.711726036255 6.26739276204039 11.741641394834 0 0
-85.8686311265312 12.6052224974493 -2.36609991522167 0 0
-90.9781520922064 4.55599733391094 16.0626480338633 0 0
70.3762734445491 6.62222705666037 -0.691572922434912 0 0
-182.679901179707 5.0557083037164 11.911942842234 0 0
-127.034403608659 12.5175033342494 8.54000391496158 0 0
-196.204620495127 -27.7551551187519 -4.38686949536896 0 0
-189.603558110072 22.4273711212124 9.2434505728608 0 0
-165.61204660313 18.700453033437 -19.4919831045344 0 0
-142.972532552668 9.46149163742283 8.08961453904084 0 0
-121.950326912566 9.35506225225141 10.4411196642552 0 0
104.893998664653 -4.24451129995284 22.6348557637326 0 0
96.7803507696037 4.18303520061254 21.1637705995416 0 0
-24.8736588977011 -4.06787939769283 21.8435488683987 0 0
112.905551919264 -3.13773128173764 22.6647838949631 0 0
65.4871989013564 -15.0008919355877 14.5307072465897 0 0
72.765398373229 5.19234496169912 -2.22456875919328 0 0
86.4801369585712 8.37019930827095 16.2307421506638 0 0
-221.893187375338 -11.4706354122097 13.2781503957534 0 0
-177.677818725361 31.942552951358 -10.9782369260639 0 0
72.0836174899137 3.73971985469671 21.1710584686523 0 0
102.876524037192 -10.7452473115545 19.0578062831703 0 0
24.6642782889562 0.881521267587813 22.7062458802456 0 0
-142.456872506823 16.7907971765398 5.4126804304208 0 0
-168.604355728878 -5.45959563556125 -21.093092343853 0 0
-198.600719820695 -25.9389780587447 -12.4952214771268 0 0
-207.977857649679 -7.97623970803813 13.6302235846228 0 0
-154.411856389125 5.58441657606981 -21.5375567503892 0 0
97.226168002035 -1.85786512572688 -4.11995801322861 0 0
-181.062779842883 13.1336229908839 10.7918203822151 0 0
-51.7415584284025 6.96167480942597 -0.600520152562835 0 0
-162.443434209018 15.6875279586746 -20.0354803754612 0 0
-141.058136591049 0.193277359611924 -14.529567464241 0 0
-101.473584913842 -6.03834782097844 1.11230640090975 0 0
73.0454503664789 -10.8077379279048 19.8884397613231 0 0
-221.172706403793 -31.2907258977851 14.3898417827357 0 0
-216.629914143951 -19.6176738209555 -20.3141903524748 0 0
-218.004838825631 -4.09415330310743 5.89050942306807 0 0
-74.1236089329714 12.419894597857 1.27029943815584 0 0
-117.912806188846 12.9301663462383 -10.1206540202994 0 0
-129.256258254689 -1.30733177061076 -9.53904538601996 0 0
-153.592949286189 -6.31256323113022 -3.61337592497565 0 0
-64.7851780227544 -7.80888818096235 4.90530382093341 0 0
-161.390339216583 8.43718178872466 7.25389835808529 0 0
104.874084872413 -13.6488168298835 -1.68891207411665 0 0
51.069240593959 2.09065761896328 22.1671435299261 0 0
-109.382365547774 7.6837684002687 12.6735941386677 0 0
-205.259240036583 15.4206967698815 -9.65607109718698 0 0
129.773540772909 -4.79229827726224 21.2387803806931 1 0
-199.543568305534 -15.2765499934196 -14.2082440325331 0 0
80.7504192318151 -14.2315613014872 16.0143116062952 0 0
-145.75458056734 17.4709150869965 -16.7130968496204 0 0
-190.894954557174 25.8802733947747 7.69659869435162 0 0
-230.739342652119 -30.8024511377146 -0.626366680157731 0 0
119.132628821243 7.34354681829015 19.711859142575 0 0
51.2754851886608 -11.9534976173665 4.57972700645383 0 0
114.334506162778 5.9708123277569 -4.61605667520745 0 0
-169.563319813718 4.84588075954337 -23.8599997599071 0 0
-196.195894984659 -33.3477915943385 -0.718482144633918 0 0
27.3237731698703 4.16024730581917 0.998181292561388 0 0
97.7449679008725 -6.28620547968123 22.3529929704758 0 0
115.984135456106 10.0328076688722 15.9708597230697 0 0
-201.398597701266 10.4473920646193 4.84681168350765 0 0
-182.66821574393 23.4074917231058 -21.9632777367853 0 0
-195.290519622993 -14.6815079070994 9.40396133574644 0 0
-214.104780687023 -3.8656543025363 6.86132798212537 0 0
-172.483770939517 -9.9718903531863 -5.70497617598441 0 0
-65.4663299982068 0.155307736912497 19.5033226230624 0 0
-117.824869205384 4.38508837470626 -11.5539563041995 0 0
117.412141109361 -5.28957794301741 -5.28383055453834 0 0
-104.510415425712 6.84077431429003 -11.0633405438373 0 0
-206.263663495602 -27.1161006719134 -19.3551291241096 0 0
-195.502759927232 7.48041455347213 -7.49971947335708 0 0
-78.2392002279239 4.75646625427657 -7.55703449227486 0 0
-223.198845441092 -8.20985107677613 9.17733959209879 0 0
-12.1017662196376 6.99817187683431 18.7766695668804 0 0
-92.3204751796982 14.8301083233732 8.94539337583528 0 0
40.6755612073701 -14.37734247165 11.4506356953742 0 0
68.6674464108304 -2.52672057298141 23.5094940145136 0 0
-206.265336800012 -6.06930257594507 -11.4511830639548 0 0
75.562703609743 7.27666788379764 17.5129214312863 0 0
95.4776957167292 -16.0070699876751 13.1271938527476 0 0
76.5890999631526 -14.6659231751435 5.11944623575524 0 0
-50.4035668362557 -7.12974813122149 3.21367306774419 0 0
55.7565403061545 5.15650825985554 -0.42941795600162 0 0
-167.779377480136 -8.11640378752647 3.23116362298847 0 0
-192.421844536133 18.0699170005009 11.0262683233387 0 0
-64.1429542513432 10.72416503064 14.0707506247483 0 0
-68.5916249146751 13.5752938285195 6.05109873703653 0 0
99.9676135217665 7.67350952508898 17.9766919130973 0 0
-182.930220849644 -8.43403436017934 6.42241924365471 0 0
-182.702515169256 12.3448518159499 -24.3232091587163 0 0
31.4224317505344 -2.06013612503632 -4.43615038077075 0 0
60.5087315764232 3.429185657223 -2.3547385327695 0 0
-105.094821380965 4.65947668728217 -10.589522414524 0 0
-189.282126130954 6.82089969326731 -12.8578037589172 0 0
-18.2112727220716 1.11182241951297 22.0645659104478 0 0
-130.178979597798 -5.36311566976004 -2.74506530298375 0 0
-214.239973374605 -5.26944281741201 -1.45737596099885 0 0
-119.230273860636 18.7982721911255 0.347678180268946 0 0
-196.069239331028 0.764565585828562 10.783417093336 0 0
-52.8475470852563 4.15465108731613 19.7702355694959 0 0
-79.043117939395 14.8722296364707 5.89806754682829 0 0
-19.9535222858167 -11.6733232598971 14.6611076423114 0 0
-142.717754217167 -1.06613068373519 -12.954327086739 0 0
-4.429140188786 -12.5232031144943 15.0951089912911 0 0
-199.472680756999 27.7686063681007 4.32253183043515 0 0
-119.157962002117 11.3507343784202 -12.6607676589633 0 0
29.2188170213258 -0.485222513638328 23.1175990443843 0 0
-131.368087305922 -5.31094661092739 -0.320929095052895 0 0
100.696346756589 -7.48078384844742 21.6040118558559 0 0
82.2570669654485 -16.2430337860593 10.8687989703877 0 0
-124.102259093296 9.66854046532456 -14.0677459969313 0 0
-177.668522366926 33.1471841834985 -7.92076107151349 0 0
85.8223672982379 10.087989122791 1.6506483616482 0 0
-206.334174856566 15.9952764384463 -12.0286907265569 0 0
-192.634912742811 29.8654178505967 -3.47729311113225 0 0
-11.6201896065758 -5.25324935925707 -5.06831272900905 0 0
50.5417927249519 3.75400288442585 21.1116909866639 0 0
-206.177329274691 0.422690859182307 2.66013886865326 0 0
-93.9205787293096 2.44165974881905 -9.14296250356021 0 0
-171.336917153003 9.8484065027739 8.45204399945759 0 0
-171.507942128606 4.14054340254706 -23.6215477614822 0 0
-220.995042357251 -36.6313354872315 -6.37880704689707 0 0
112.329910061389 -0.652565990807244 -5.05512139334271 0 0
-134.556233203259 11.3969622941098 8.41674366260329 0 0
-181.586016307934 11.7605448597862 11.9997071586655 0 0
2.64383264856258 6.42506472862442 19.36093943316 0 0
-206.913004893859 -40.9826333761008 -5.08618819768391 0 0
-199.886414454828 14.4191650498235 -11.8173270704448 0 0
-32.0537622577809 -1.03866020554852 21.8782929240653 0 0
-59.2123666811205 9.79912869138792 15.2456421177264 0 0
-88.9832257881535 7.65543470207739 -8.44135606941086 0 0
-8.6246761056353 -8.89471650169207 4.41694181388184 0 0
-172.876431985041 11.0926150960385 -24.0973367102434 0 0
-210.789660652019 -4.72834926653118 10.6781278527893 0 0
26.9438398711751 -4.20914134819934 23.341606000505 0 0
119.635581766402 -14.6226032156034 15.0894451521427 0 0
-184.024352535497 7.64571611396047 13.3061335936817 0 0
-140.337824844351 17.6271819637613 4.69197456077629 0 0
-150.03876322145 16.2012588998926 -18.4939738689488 0 0
-170.257875960108 29.1294261838949 -8.20592244262941 0 0
-98.8116716343163 3.12446776366613 15.1133287006758 0 0
-197.600878115941 -21.9307103330158 11.8416814465764 0 0
114.023705985665 -17.4205355912212 1.6846667299594 0 0
95.2134685709657 4.46255333096202 20.9086576727914 0 0
120.533668449865 2.62413653897711 -5.52384759194129 0 0
-205.547267464111 25.6527195294424 -6.83957963541177 0 0
123.36966612462 -11.8235888325812 17.2094133408919 0 0
10.2727430626939 -6.67603093078048 22.4706607131757 0 0
-207.228628416717 -40.0774726192878 6.48516953641788 0 0
-95.4585728985283 11.1506211926839 12.2998178486575 0 0
-225.235766126692 -9.07729134695653 -9.7771033706112 0 0
-129.240805103553 18.1637162531348 3.6950175512625 0 0
-148.442260236196 -3.91741199922639 -8.92777690869583 0 0
-195.103830993263 15.1967292333247 -22.4043532930199 0 0
-77.2831772833712 14.4556109175015 4.71350290768831 0 0
-38.5167943013031 0.803711922279648 -5.81797971170905 0 0
-149.930981011816 16.3457025466015 5.88478987061264 0 0
-206.979297180379 -38.6452101275191 -10.5184851228124 0 0
-96.9431842017868 7.05487346389769 -10.1504301887136 0 0
61.6350745510445 -13.5811286011721 5.8198807213674 0 0
31.3005749954931 6.68880370985726 18.7085207263903 0 0
-212.32898970208 -3.64853462723795 -0.290642443072955 0 0
-149.653209499493 1.87689498244347 -20.9915328191989 0 0
-197.898082269184 -23.6365506831117 -10.2009985940887 0 0
-204.252175138122 1.82406441777058 -0.456417251633796 0 0
-181.89138299235 -6.55748323133331 6.93050908849635 0 0
-148.885105440129 -2.6628216633072 -19.2241576809152 0 0
44.4284357235513 -14.2437631806491 15.4413626525409 0 0
-196.656798538689 -29.3275727738403 8.02302802721098 0 0
28.2893252952442 3.98088636425252 21.2106065095791 0 0
-43.5976210433219 10.1895357837388 5.0676748337737 0 0
-66.3294803320468 -1.6271483870185 -6.1030400502343 0 0
-208.152413891246 20.6060365811296 1.05090700425989 0 0
34.3269816575715 8.63959537354677 8.60417680944343 0 0
-193.788258221034 -4.53014211728258 9.99383279708411 0 0
-186.903991595916 23.2632498472353 -22.3006907624856 0 0
-156.26459062674 7.06001802803656 7.09421451536701 0 0
-137.90217732303 9.67590358206667 8.5419590811193 0 0
33.5979781033514 -7.34517859057438 -1.38976138155672 0 0
52.4968299609188 4.75313229091981 -0.511430626403139 0 0
-149.515452491413 4.07504163252526 -20.3675942566493 0 0
-195.546726782285 4.46087485708967 -10.4399909962802 0 0
-158.746549570977 23.2412556793978 -10.3371255596471 0 0
-126.187729375007 -5.35908575771566 -2.2424930245036 0 0
-165.338976888974 -9.28857086710679 -16.8415973645646 0 0
50.8927082765178 -0.592904725622884 23.2367501630968 0 0
-163.203815872341 -10.2110026851086 -22.329115730213 0 0
-145.794021353072 -1.13511268956574 5.70200912833021 0 0
-193.382572040558 18.8279543247208 -23.5685072470822 0 0
-148.250771838361 21.0768085224552 0.68680677557638 0 0
-102.862512035168 -2.40198132569296 12.4725990371522 0 0
69.9252356498192 -10.2121928154589 -0.248314753428305 0 0
-159.539067644445 20.8185208847114 -15.2377088476751 0 0
-181.047005565622 27.8518709206545 -17.8905388809034 0 0
115.829118497643 8.14418781526438 -4.43808000899141 0 0
-187.769583466342 26.1720298229522 -19.8466342894099 0 0
-42.656422798069 7.66508124071242 1.58623686746284 0 0
109.187559917662 4.24855113253596 21.3118428567224 0 0
-168.720380936321 2.69423163594462 -24.1006512877959 0 0
-210.69112436719 -26.9158013950549 18.530764681542 0 0
-197.993977619399 17.15925278912 11.1803560236347 0 0
-205.150902299453 26.0169027097781 -8.69315842448004 0 0
95.9159070809399 -9.43690819621264 -3.2122106586324 0 0
120.519882868078 5.8476071098027 -5.22223262836477 0 0
-147.450195563909 17.8144494319938 -16.6069553927305 0 0
-105.797522110982 14.6954443346799 -6.04540588040786 0 0
-53.7344275764597 -9.52128067923817 11.7972418190938 0 0
-209.533121143949 -40.7068958842043 6.04304276974633 0 0
-225.251358029255 -26.3316349707337 13.9678779942292 0 0
2.04967533522303 -9.08768848153743 4.22950164683141 0 0
56.3680158867158 6.26554491578891 18.6050089470976 0 0
-197.854295955609 14.1383622401273 -9.8373464454133 0 0
-122.092918459457 5.40390823503786 -12.4693510328364 0 0
-150.83621354275 -6.28525544138626 -2.30257911824673 0 0
-86.1783614001452 -5.2419032762388 13.1897713292492 0 0
125.014116925198 1.38829982143804 -5.97265134308641 0 0
-191.340476092494 22.2889201690067 9.18989944985027 0 0
-201.790545514632 -37.6590637583933 5.93413584494063 0 0
-33.4411178460887 10.222997086878 7.2770166299336 0 0
-143.839068083863 -2.90009521682614 -9.17781813667185 0 0
-194.998337228409 -18.2542874620373 8.40253890975063 0 0
-9.86371656769638 -4.44344057640924 -5.91052637935129 0 0
-216.884768161109 -4.37627558819029 7.39151596241504 0 0
-212.133108435837 -9.34379099344049 14.6799113262768 0 0
-201.438455332577 -24.400515399311 15.633603443932 0 0
111.222875835292 5.59557940244466 20.5522288810592 0 0
-146.913522520457 19.4467171530776 3.24707927806157 0 0
-215.364152218261 -3.60238508645121 3.22588689577441 0 0
-187.9981608851 -6.10055279465286 -11.2091996868171 0 0
-204.991466536685 -35.4730588983294 12.1521346286616 0 0
97.2024750293515 7.66492408197041 17.7787615496394 0 0
-81.9719838767172 10.1961148071937 14.0071595855405 0 0
-174.727445126681 17.5994690572094 7.46599664620653 0 0
-112.184452898282 8.12250248691386 12.133276784908 0 0
-119.914304528144 8.34707388332679 -13.3934907103343 0 0
90.1822704710992 -1.91558838173359 23.2857383853764 0 0
-36.9716053800365 -10.7683028073668 11.5934859133528 0 0
-221.263120280524 -3.95859004592826 -0.658170657438542 0 0
-85.8448598635559 15.4967335470967 4.10815214049385 0 0
-214.78851611728 -31.6018175123535 16.6475616966985 0 0
93.6013867084079 9.56644951820692 -1.37374508200577 0 0
-209.079447399313 -7.93181403796 -12.524685082712 0 0
83.3898615988412 -13.4602873422234 16.9699105523502 0 0
28.9012418704444 -9.12173789273335 2.22589030021488 0 0
-188.867513757615 32.6528141198784 -9.96854246226173 0 0
62.6177549390395 -7.23050450946308 22.5440904005156 0 0
91.9512342104703 6.19016318612482 19.3620305845703 0 0
106.803452625908 12.3362069287223 6.580367649609 0 0
-196.691382754526 18.7802862520143 9.93784322264587 0 0
-186.567682449999 11.4888031710569 14.0252920989374 0 0
-225.016341221652 -10.5873996278892 -11.8373680892943 0 0
91.8727806879732 10.9909743286542 7.50503158781356 0 0
115.82994896524 3.36585796942586 -5.11172417205051 0 0
54.7056199314949 -2.54111952003358 -3.39685959565807 0 0
-201.595674454645 -12.5699580829592 -15.2924049585786 0 0
40.052912171553 -13.3826102837845 17.2924979176997 0 0
-105.157123993165 -5.64140716648209 5.41731345752987 0 0
-5.28862492696886 -1.99983297349321 -5.89826932752834 0 0
110.555336754294 -9.87290286563405 19.5304475923174 0 0
-200.209894301021 -15.6481456470211 12.9572770772999 0 0
-161.79584955689 12.1399184947152 7.19112186891805 0 0
-160.855225495421 -5.23666592043702 6.24773168907451 0 0
73.3165592637039 -12.8028456494702 2.65645299915553 0 0
-43.5238515570879 6.08516167888845 -0.203288775765959 0 0
33.2080209841637 2.44696481035145 -1.51577857068177 0 0
-202.0613894537 7.87521026632628 -4.87754169058881 0 0
58.0952353840882 -2.92389657482895 23.4950032024007 0 0
-204.972365994491 26.4373114677991 -12.1291974267174 0 0
-205.205727486179 -4.90019524265559 -10.6558117945478 0 0
-210.617994183292 -6.80715483827276 12.8020446473324 0 0
66.4249311267532 -3.71680364049233 23.46631520056 0 0
-118.541560372314 -4.57310054069578 4.91489529027923 0 0
-121.410179195313 13.1671426192739 -11.5030240564607 0 0
29.9746261287497 7.4782599728703 5.59324182639699 0 0
-109.723433585837 -4.26769627209881 8.15637208598492 0 0
122.636043502564 -14.3005461345889 15.2787416171929 0 0
-151.376121622984 -4.49385651725627 3.86398447013997 0 0
-176.631355873825 -11.9868787620245 -0.256632106748403 0 0
5.72661696521377 3.08875063063868 0.117718125710197 0 0
85.3792629177925 -15.1869597211458 14.4571713816619 0 0
12.6567020104553 -5.7987363806657 22.7788412516487 0 0
-181.037900797448 23.7464986395236 9.13717686819257 0 0
39.6812743051012 -7.21692376640687 -1.87333722193403 0 0
-180.844688888453 16.1786455245921 -25.0308986515136 0 0
56.6148876119729 9.13538069670329 11.0472667414198 0 0
-158.26713177683 23.9793274860891 -4.43640500548679 0 0
-124.489062796864 -1.33985437531025 -9.32677089149974 0 0
-65.0153901961007 8.05699735444543 -1.95227413605275 0 0
-129.090752257133 14.1953399613711 -13.6609161497407 0 0
-182.419461902653 8.22461120562551 -20.2776149339423 0 0
102.461778218239 6.65129829494915 -3.56337357187787 0 0
23.4387213331886 -13.9458789055833 14.1221524972852 0 0
-189.685416532869 4.90437370098851 -12.2921989859685 0 0
-125.561367396899 13.5574234655663 8.10505377129061 0 0
125.592443762254 -18.6272274986762 8.83414705841754 1 0
103.355400878416 -17.5621315490861 8.56213667929079 0 0
-122.263623362912 -1.58997033769296 -8.80690714105849 0 0
-202.74197933945 21.3111544472836 -20.3507531186944 0 0
-44.3778886391415 -1.88970205676865 21.1129901640281 0 0
-96.7528564022821 2.693085038809 15.4388614245901 0 0
-93.9663046279149 -6.20904711601951 1.78012362197962 0 0
122.096933074228 10.2736628365265 -4.66645165503432 0 0
-188.921165949505 10.9607112590439 -17.0087450771479 0 0
49.8939544843982 8.86585484432929 7.88342462523474 0 0
-56.5003950581483 12.186042135605 6.46453227128647 0 0
-147.141639579887 21.6815856678167 -1.57631711284588 0 0
22.6400784369993 -2.65302482079137 -5.03174823902391 0 0
47.8869376425708 -10.8419415965732 3.23152052712581 0 0
-40.8158257950256 -9.25014673316325 16.6260360003677 0 0
-186.335080307393 -15.4792400396718 3.85607537855343 0 0
85.7432045249046 10.5446033009935 4.03326832823936 0 0
123.387337012723 -10.0097008362675 18.733120469062 0 0
-136.485480319009 17.0458463604716 5.25290702562929 0 0
64.3078940203331 -3.17637658264095 23.5233431045371 0 0
85.351541460193 7.73734308632774 -1.73775095393248 0 0
-136.481783311742 10.0252065464855 -16.9403240940441 0 0
-58.3066330686561 -0.432479781106953 20.1813894401195 0 0
-195.57147648771 5.99419094336431 -9.3034380310298 0 0
127.300197205529 5.67016158355172 -5.9223643187612 1 0
-15.92048108808 -4.49527203341835 -5.94989022344409 0 0
-183.517214958952 -9.11782490941556 -9.85291710416585 0 0
-53.2808599035594 1.41124996701094 20.5166001652609 0 0
-229.647590197957 -12.0193058862789 -4.44359217465867 0 0
-53.2922834132847 10.8029692778544 13.8530228127051 0 0
11.0797753197109 -11.10282394529 19.468021530608 0 0
-206.31949573508 -36.3614400455189 -13.4425404192554 0 0
-165.669555549531 -7.83081463917325 3.42873029419187 0 0
-207.537955869039 -6.96640285760986 -11.8105187287816 0 0
-120.884230306619 16.1278536852714 6.43321275904195 0 0
-134.748487403295 19.1584055587749 -7.4243973830612 0 0
22.2926271245432 4.03603591018604 1.06680108580354 0 0
-95.5902203909967 15.7925035763102 -0.289213654596588 0 0
-11.7208832432502 5.23795571518427 1.97992730192832 0 0
-203.356298546415 -5.3215469223052 -11.6857801499399 0 0
115.616515378701 -1.43689167799863 -5.26455859144721 0 0
-141.581684724188 4.89569550015822 8.34744615282855 0 0
-22.2849352664864 -0.968034964229213 22.2248117831295 0 0
123.832642029025 9.27037949092461 18.1322338028598 0 0
20.679438378327 -3.66377575072477 23.3132299410275 0 0
-153.797322026964 -2.57904252926015 -24.484901165612 0 0
-220.269991586245 -39.6046647655903 3.19628400594055 0 0
-124.301624420059 -0.285545217318766 9.65699181908566 0 0
-206.071119825349 -11.757390562289 15.1288303027481 0 0
-193.324788541081 27.1559060846939 -19.09943978779 0 0
-127.007917074873 -5.1603218868319 1.13908334312848 0 0
19.2766079702631 2.05657522106423 -1.24890699005927 0 0
-161.227684441541 3.68842106653542 6.77624561138757 0 0
-182.406766808757 21.4398574844625 9.00141980992824 0 0
30.9668185095607 -14.1842126509281 12.9195552055281 0 0
-196.992353783773 25.5308902981563 5.89578503518685 0 0
-22.7102978991289 1.40965127800975 -3.52338571955954 0 0
-62.8046786646907 5.21104804967488 -4.47358093119674 0 0
-226.902690866644 -12.3460716879133 -11.1561471566102 0 0
56.8268615443237 -7.27876203783915 22.5633912479741 0 0
2.95437173394202 -2.32114100380686 -5.71300869965414 0 0
-177.896456794894 -11.9228073755705 1.48301575926385 0 0
-73.5269627399544 -2.33769903055398 -5.33009116984158 0 0
-65.3406643818244 3.77129922578467 -6.32205905783495 0 0
-132.340212736635 0.578274884935359 8.75394158994908 0 0
-57.8843814213128 -5.14488872575583 -1.45366278782651 0 0
-132.661855800174 12.3424291787337 -15.9457796814664 0 0
31.7445603846868 5.23176404588875 2.06471932536478 0 0
-198.799960924612 -0.817597264439771 10.677853199686 0 0
-176.509226215363 14.4768081469372 8.50349684632426 0 0
57.2878823897657 -2.05544770117796 -3.28666328707743 0 0
-205.155728227558 14.5251277556201 -0.87343778524002 0 0
-110.781257603968 -0.361134229853684 -8.41062860390966 0 0
-145.921985376268 11.2033701669369 -18.489429653178 0 0
-3.29842445904424 7.36394552664119 18.1829370871358 0 0
-79.0230277606986 -7.55596079376504 6.47432267105327 0 0
-209.261122332107 -20.6720414757785 18.9227880806387 0 0
35.7106216901118 7.41116723240118 4.92269151511071 0 0
26.650270518281 -9.54678467021824 21.3281066397849 0 0
-31.0543236253538 4.55950537619924 -0.292383956848197 0 0
-152.375564934417 6.83021125841916 -20.5320917745167 0 0
-198.925091916088 -9.31708370713386 11.1033134141039 0 0
-176.533165464361 16.9011923953074 7.87127122933707 0 0
-215.985939609344 -37.883363341377 -1.52131027382121 0 0
33.9406869411394 4.04520965464575 0.451230413556185 0 0
-62.4215189756554 -8.83876073423397 9.71152668284155 0 0
-187.756568728196 3.39378814851888 12.3303778655011 0 0
-186.495678127888 20.9112135676564 9.34244992217101 0 0
128.460754165248 7.35657264407084 -5.88971927268546 1 0
-105.784818627983 -5.03859388544045 7.50065286454725 0 0
-213.206217801614 -3.97947378995289 7.94558158285443 0 0
-116.303181051357 5.73119353971719 -11.9801498877804 0 0
-140.194730464182 8.20437885959671 8.45254116823279 0 0
-218.077999109213 -5.58261859963366 -8.78207240354569 0 0
-119.489429896256 -1.75026988720937 -7.93801755961839 0 0
-205.923485330233 -23.2881028772561 18.1389933144223 0 0
-210.453879304736 -3.85516243131191 9.18181499531529 0 0
-4.56765754808077 -5.8147502107389 -3.41322968877095 0 0
-107.414086291115 -2.2245016633056 -6.47841206704103 0 0
-50.4357399967716 10.3462066051466 3.8755360396915 0 0
88.3261346005046 10.2889973326498 11.201107826891 0 0
-55.6777900819136 -4.03119237916496 19.4669292893377 0 0
-172.255312296783 -6.10892435468098 -13.3461997612838 0 0
-216.988851625622 -6.2755955682813 -10.6835268870419 0 0
-3.08321041684837 -0.941268127629196 -5.43439924261031 0 0
-175.680955112765 -1.47205835533551 -15.4251966764894 0 0
-127.343786656111 12.413783172884 -13.8982767430267 0 0
-156.672465349578 21.8219837083787 -12.1163787083267 0 0
-203.053578597127 -7.78397624758948 12.4885219754821 0 0
-53.0213650351675 -3.33305094684484 -5.31491187763932 0 0
63.9560324895811 -5.87626888264689 -3.05601674961072 0 0
-123.830499964976 -3.81521071881511 -5.64017138659447 0 0
-223.091220781288 -20.5313555462152 15.9581581169671 0 0
-170.756253920015 2.76228221106018 -23.3717103589653 0 0
-207.637986721667 -5.39706048231704 12.1445031212438 0 0
-69.1429745878249 -6.58524447079986 1.99235021068574 0 0
89.9898232699229 -16.7793631185632 8.21962286665163 0 0
88.7152351848186 -16.0108382916514 12.7844131827633 0 0
-122.483043353685 19.1705391752774 -1.50282153191625 0 0
58.8812565679903 -14.9244614910713 14.3032111357876 0 0
99.9110445106638 7.15515569718073 -3.34533690676498 0 0
-77.4730783590619 11.3487203597468 13.1081187754542 0 0
116.418952378093 6.50069172443609 20.1957219262472 0 0
-192.476037258884 12.9239039173397 -20.7951975892937 0 0
-83.5833819751548 4.78663240765407 16.9119838403733 0 0
-27.0778132427856 -8.73580645996317 19.0773343379746 0 0
-228.582114935377 -30.4600363045113 -9.66203454738421 0 0
-190.088701878572 -20.0994694481475 -1.72587727784597 0 0
-47.6228457198596 9.02791323925281 16.251314735414 0 0
82.6178914185043 4.80825908287437 20.4885368944894 0 0
-145.199074131463 -3.76741434295874 -8.0154158897278 0 0
-101.039839511377 -5.16037605221952 8.79114590407135 0 0
-194.483924784426 13.3405878238672 -19.0718704102111 0 0
-194.834783533335 -26.3020067735017 -2.48365642976066 0 0
-11.2616173466455 3.60307497922499 21.3046092637471 0 0
-162.357840642001 19.8363350479964 -17.4004342741554 0 0
96.7999377553923 11.5721746059291 4.54517340285535 0 0
-205.498326286933 16.6977585260768 6.1299763138729 0 0
-98.8986625233928 -2.65249288669633 -5.3723059259128 0 0
-154.780279113829 18.4505607749311 4.89597895274506 0 0
-194.06961803705 23.6627560427951 -22.1076423454879 0 0
-174.815647558217 -5.79625033569971 6.54997167992638 0 0
-202.017051104296 13.7478684328258 -16.0805753563587 0 0
-185.683237101302 -2.07012605144777 -12.3741309576134 0 0
-175.036864407246 31.4858658055582 -0.654741764756083 0 0
119.024965050349 1.6240974697769 -5.45737562622688 0 0
105.550542115828 11.2867979773849 11.2070959954052 0 0
-198.230260448614 -18.4960022566981 -13.0024785330313 0 0
-79.2780602499778 1.75900529848393 17.9159620913274 0 0
124.994606645296 -4.50895946016262 21.727075830661 0 0
54.5749130793627 8.1603399084423 4.30754918039759 0 0
-211.607200777529 -3.1291793516375 1.60263794059814 0 0
-183.249293977115 0.936802530978322 10.6263013579616 0 0
122.882746788377 -17.1833861911535 12.009663908499 0 0
-82.325461569176 -6.70245171921732 2.63430698262361 0 0
84.0312321064713 8.37492879140137 -0.943150819700351 0 0
-1.76357689822753 3.67186759496232 21.3358895526754 0 0
63.172439533365 -15.2762141166264 9.65859544526756 0 0
-200.626930999442 28.4589605842857 -0.9124031715878 0 0
41.0740509957313 3.65775926380691 21.2602967662328 0 0
-200.428199483882 -25.935431094078 14.70484717928 0 0
-196.555989208492 -24.0768820413453 9.66619653102134 0 0
-77.7272812697142 2.43465365825205 -6.91509497505498 0 0
128.632836102964 15.6975092898754 -2.85945731322402 1 0
68.8804905864531 -5.15701543740867 23.236876627109 0 0
-130.484609410781 -4.47296654341538 -5.22359101704603 0 0
-113.720689253959 -4.34907788246307 -3.79699617669515 0 0
-171.199993133119 -9.22096853836029 1.89326661814828 0 0
-191.712944277537 19.8584966300255 9.92942368254093 0 0
98.4309903858483 -8.13683811928286 21.3058382760337 0 0
-110.87544783669 -2.27884407665232 -6.57680232691223 0 0
-204.70986674327 -39.8446512699443 -5.76701828947527 0 0
-221.459799184327 -37.4893220895508 -2.46870447925355 0 0
-131.598373317888 17.6407162710281 4.53824965373362 0 0
91.3442653735525 2.03628180603619 22.2833940237375 0 0
7.1202930568249 -4.03213906638444 -5.62218846952019 0 0
-178.907563971415 31.1504467036122 -12.7813027534968 0 0
-188.872633791316 0.878775756823428 -12.2297412036075 0 0
23.1655061400523 6.24491729566839 3.73745776211226 0 0
-149.692387952262 6.73502921463072 -19.7813120195344 0 0
-172.885721080451 24.5064600227288 -18.565728891863 0 0
-6.39362104291965 2.40332831267751 21.9245375913292 0 0
-222.127284364763 -18.0637994360371 16.1143791174635 0 0
-120.3479168032 3.60448373588392 11.5335367224202 0 0
-130.924033682858 20.336156454248 -0.425146855653539 0 0
79.7221030324415 -2.3354337588612 -3.50559291442909 0 0
-37.9539347355143 8.47987820943352 3.22472704101082 0 0
-172.095815349466 11.5991778795784 8.47957514847986 0 0
40.0100265176746 6.54979952491685 3.09272050410271 0 0
-125.05670083651 4.45944293914668 10.7618542926527 0 0
102.262923083057 2.6934372934824 21.9254990445386 0 0
-188.218798789833 24.9468079279244 -21.0874438907868 0 0
66.1984334829731 -4.18110182102778 -3.24689488325148 0 0
-203.750951018278 14.877428889509 7.17480827131136 0 0
-47.0732610468628 -5.63634310358539 -0.61342875609738 0 0
-27.3171321425913 8.55508158925354 4.87385013256045 0 0
36.4716461412009 -14.0380304967141 10.6303539343769 0 0
100.67521149168 -12.1718807062457 -2.48723409553447 0 0
-84.6146373882944 13.863930124776 10.2780059989807 0 0
67.5568544709725 9.53835745400115 10.4778184978222 0 0
-163.373402398348 25.5769235974078 -3.07017614256494 0 0
-161.361123002009 23.1576271341142 -12.5981490759635 0 0
-189.924310923905 19.2246166248973 -23.7754273168887 0 0
-7.67514208888303 -12.0479042570666 15.9854289455681 0 0
30.5876246049293 3.61332136220723 0.147941906853902 0 0
43.5666310990797 3.88767526985529 -0.586430806071589 0 0
-30.0518130601053 10.2788885696783 8.50739581106771 0 0
-12.6560459351395 2.44040340381784 21.8114263075635 0 0
-191.611195768107 3.57227237253322 12.2515280778246 0 0
-155.046803083213 2.61071536414037 -23.0312210094379 0 0
-178.57825789354 11.2637459899096 11.5150408696975 0 0
-183.650192330552 25.5890102775036 8.42386819377044 0 0
81.3175568494456 7.58372052046318 17.2647995284767 0 0
-195.607744963511 1.19136473631115 -11.2983170165307 0 0
82.9224704278494 -14.5865626272871 3.67350005709856 0 0
67.1126382232831 3.26472697588589 21.4707238996281 0 0
127.761194688822 -13.045019284845 -6.38759518293899 1 0
125.345263728639 4.66932843073982 -5.81338281508519 0 0
47.153672698513 -10.3865787989782 20.8349700616713 0 0
35.3535217133943 0.0723609964609297 -3.94450363883376 0 0
-108.816229278249 -4.09570024046776 -4.00395925652479 0 0
-170.826606365127 10.8622184305272 -23.7186895942613 0 0
64.474937810168 9.02633591293357 12.8628975498529 0 0
-165.674638546999 26.6826986540617 -7.36529588740847 0 0
-203.243834090042 13.9054361639901 -8.19702726328985 0 0
-116.005452485272 7.88379389310541 -12.624280381567 0 0
-142.057102496014 -3.77089979099095 3.72611632161807 0 0
-131.790293663491 20.4138233546762 -2.64284319194034 0 0
-54.3181643415258 7.41592607467324 -0.556478173921631 0 0
-186.633597055304 -7.5381696234483 7.48932367742113 0 0
39.7510159176754 5.84142731000853 19.498022963915 0 0
-170.339481095866 18.3079246448158 6.77831111318037 0 0
25.6450908667029 -6.99465484555911 -1.48125027823594 0 0
-213.115918967641 -7.06392413361299 12.5520225606227 0 0
-206.289874645341 14.6447103011844 -16.1157045183005 0 0
127.137271375112 -11.4741766898375 17.3466082299654 1 0
-16.6642875281445 6.31406867030473 2.8834494063593 0 0
-162.419734908673 -10.868609552179 -20.9351112310265 0 0
101.293337292816 12.0432490445371 3.16673474275046 0 0
-181.756010977684 25.3655780206779 -20.2437795174754 0 0
-159.906174552583 -6.75859357405962 -5.34393320518843 0 0
-10.1662213857273 -0.401950689672021 -5.09057135758061 0 0
-201.647459863229 -29.8693852039816 14.3286423328664 0 0
41.8664623494815 -2.74261791054647 -3.88386090160763 0 0
69.5411270669192 -15.7512791568741 11.0611910145868 0 0
83.8617322359819 8.78446602443762 15.2569467654677 0 0
85.2504227769257 -4.58667895521597 -3.55266921612741 0 0
-155.600759031734 16.5159719112124 -18.225575260334 0 0
-36.4784073410021 9.58940015322835 5.19341768679128 0 0
128.074856167274 7.48216526618882 20.3478212778707 1 0
-179.113140330508 32.8089805618795 -9.61803698526524 0 0
-75.6469631170043 1.44730217280454 -7.27620490437332 0 0
-170.021019599466 28.5145405243411 -0.425710975679562 0 0
124.345060864686 15.4944372355884 -1.30751930758737 0 0
-86.1833827237278 -2.28285961872975 -5.36668736175421 0 0
-68.2954741163388 11.0047301112224 13.677783836619 0 0
18.8390329378101 1.08241729191421 -2.70632638585078 0 0
-33.7976431811162 -9.68856915271957 16.9619623472325 0 0
124.036151576829 -19.0492051629218 6.44485602031234 0 0
-189.075983690588 14.3824559154102 12.1715798166136 0 0
-19.8112385889308 -8.24845029234257 20.1224611294814 0 0
123.22253169592 11.9702001390607 -4.283063914779 0 0
-102.951928923549 5.90815463760411 -10.5757909369418 0 0
91.3853846432786 11.0446704708918 5.79513174354577 0 0
-213.241677019432 -12.5309462703095 16.777453680442 0 0
119.232335696743 10.9958503853737 -4.10928120975959 0 0
-130.516025177726 7.4315960148216 -14.8145954252668 0 0
-198.928175839147 -5.14239114293049 11.7686249889008 0 0
-165.945123708053 -2.61546868938426 8.11677984153044 0 0
104.485030857917 4.61496870930753 20.8924077109714 0 0
-202.584648675651 -39.0651680588056 3.14709989676672 0 0
4.12741123298591 -5.67363863217024 -4.06920999922522 0 0
-140.206780189094 5.81143070000807 8.5139607133236 0 0
-174.802663917982 24.594665691511 -19.3701892569638 0 0
-195.662019853763 -26.1605304157783 7.44201813084757 0 0
-46.3345888412385 1.87753914352003 -5.60170577485002 0 0
-147.594961662941 -1.85077374642007 5.12593706863555 0 0
-223.108458937362 -4.77076355686193 -1.5300543845052 0 0
-199.146536961977 24.7508396461023 6.25550662946172 0 0
-120.430115468051 -5.22531439327529 -2.26434914303582 0 0
127.483379972163 14.5863816876344 7.18540423496697 1 0
-80.370820334701 11.6890719127775 -1.81035888472259 0 0
-140.675800026705 15.9506033689075 5.9794760758821 0 0
105.66283371211 -17.6087309379092 9.10850456568699 0 0
-201.012802288711 27.5339455992237 2.6241920290933 0 0
-108.630730211709 -0.574496658384702 12.5218186145791 0 0
-211.370302634501 -3.55203295531462 7.99584617784981 0 0
-153.123681219189 -5.46727318327324 -15.7375852070899 0 0
-165.554841154516 7.73356261727115 7.50254616906174 0 0
-151.944773081181 -2.8082467063946 4.80153635699328 0 0
-192.384194594738 -12.6660402829887 8.39908100063162 0 0
-143.288395504171 17.3445150150559 -16.1888126350179 0 0
-118.568707812045 15.4795647128981 -8.46195817645837 0 0
-153.472816389187 -6.59436008738991 -22.7713091183822 0 0
-199.158750686314 13.5830865240625 -19.3068287156361 0 0
-178.267270566904 -5.69641234027557 7.0549650276466 0 0
-6.34972367696625 6.49746568124984 19.3008819990233 0 0
-147.916330546786 12.4059898603226 -18.8066521010025 0 0
-194.380594603492 -24.9035815497813 4.75638747013025 0 0
29.4044070397967 -13.6653565569555 10.4614426219536 0 0
-169.420923528514 -3.09470949147688 8.29373989213903 0 0
-179.98674569437 25.1552358149292 -20.4290054339824 0 0
-182.993234712031 7.98852300167678 -18.5102043182274 0 0
15.8932701192381 -12.7058080474702 9.62229766663415 0 0
-47.4353223239338 6.38556745890476 18.7399707120713 0 0
-206.597326794676 16.5625500956792 2.18234308647333 0 0
84.198759643103 10.2254186613703 2.70434062547641 0 0
-178.621508804812 -2.6717894369837 8.62216102204314 0 0
62.4884712339155 -9.12062267299306 21.476561092471 0 0
-142.459261353452 6.07134472189402 8.25316436358529 0 0
-91.6797527982595 -0.180094436205942 -7.58861564425644 0 0
103.282262680684 6.62163824178602 19.2797678957059 0 0
-190.824905153214 -5.6952376958444 -11.5087276922073 0 0
107.983731270544 -5.85659254533846 22.0520014719309 0 0
-192.72956645123 13.6321883580224 -17.8160254390445 0 0
-176.950287356488 5.42412351515884 11.1692221170673 0 0
-60.1266194595292 -8.23551608589386 14.2178865687919 0 0
-118.427059505449 17.9302267751987 3.73527222572099 0 0
-220.840297654198 -35.0408493829361 11.4540419450141 0 0
107.239868086523 11.6544461735699 10.3519445114144 0 0
-203.102704582194 5.9376761868293 2.91366903137262 0 0
-226.445207514611 -7.72156461610363 -4.10290499156442 0 0
67.155464386053 -0.441842854663169 -3.02568564101367 0 0
-75.5197280905682 13.0978206859675 11.08975825068 0 0
128.822113267089 14.2145862573931 8.90352358954068 1 0
-193.590712349476 -2.63835823825889 10.2364361122423 0 0
-164.469673151538 -4.37182366729717 7.4702175443577 0 0
-62.0069351467446 13.0521544573952 7.9224483970291 0 0
-25.8466119684833 -11.3819451826336 14.2976484525167 0 0
129.652078083119 -14.5393872800443 14.811342562531 1 0
-213.081043007395 -38.4822799788107 -12.0627253006116 0 0
72.7495367162451 8.0576063766685 0.781223243829091 0 0
-191.691210222613 14.3907034715173 -15.6422753805761 0 0
68.3214667399442 -5.8202425011646 -3.07738289919555 0 0
-219.334145544687 -39.6840700898385 1.88398995559831 0 0
-20.6131506295269 6.47261049112095 2.7028736388379 0 0
-164.876112446045 1.25467197711993 7.23416238403549 0 0
-200.554496501936 6.56290359197361 6.76205941312627 0 0
-128.819007601807 11.3597315287562 -15.4984711065187 0 0
-228.473193140156 -9.62101688627924 -0.692607775749084 0 0
-206.36543822208 0.314904729394532 -0.687738625874962 0 0
-46.3311637663221 6.28778345601669 -0.398368545985486 0 0
-12.2437542461453 -8.84270817950776 4.58639195653037 0 0
-100.095984785117 -0.388906078337885 14.3013336242095 0 0
-184.641030744342 8.85717773994959 -19.1855997437186 0 0
100.579401300705 -17.4250511933832 8.35242240721008 0 0
87.4496309509676 10.623407628426 3.38762508386969 0 0
-159.599928847458 -7.79224743195486 3.2273231516127 0 0
36.0342818057177 3.92878774861985 21.1878685304284 0 0
-187.917935755831 7.54932896491119 -13.5301272780345 0 0
120.841881104401 13.2824366168986 8.94895953834292 0 0
-219.633979479274 -26.5383501630808 17.4327533570387 0 0
-199.289478106485 -14.8430637028939 11.9363461415303 0 0
-2.10638332124067 2.74166203348882 -0.54605440799124 0 0
-177.926186130904 24.0664574337106 8.13729001967939 0 0
58.6510440266842 -11.8812859829076 19.2317542997626 0 0
126.433639742046 15.6745370730678 -1.85720315626407 1 0
-214.642351352379 -3.63166452791341 4.19256855668605 0 0
-223.351535035782 -16.5208211748191 14.9840488759903 0 0
-225.062265872209 -36.3674554470302 -3.99382034164038 0 0
130.526880411019 -18.0977888707048 10.5986107770109 1 0
-96.6832322985055 -4.06967999027235 -3.48284295272442 0 0
-170.782585988919 -6.98087178130303 5.64796059955205 0 0
-197.07719012736 11.6729038023389 -8.32134444649717 0 0
-170.460517461597 -1.85738781700015 8.85790026082384 0 0
-162.566453185801 -5.92155380777146 6.28383371201099 0 0
79.1122842642328 -14.9384252726469 5.14885071677878 0 0
-200.582697185778 11.4402443395942 -8.33047416274694 0 0
-209.90591721232 -38.317112898902 -12.241099857414 0 0
-206.015415213515 -19.2448980635813 17.8938158656307 0 0
-200.946412756928 -13.9113124661429 13.1974603037887 0 0
-186.356772394703 2.94219096844546 -13.1969356407795 0 0
-35.1565731744433 8.27405448109796 3.37231630872922 0 0
-139.35726135052 7.08926934947455 -16.9049193454672 0 0
-204.189017680882 -23.9321657271193 -19.1598571173078 0 0
-188.188290428319 28.2451151884759 -17.9150907244288 0 0
-110.698188969363 1.22467963544761 12.8655729005016 0 0
105.325356228853 -13.1143137877195 16.9393932699494 0 0
-198.861082507043 8.61474827833738 -7.61667012392617 0 0
-226.763893088628 -34.5226563483024 4.74211513857842 0 0
-227.219304650511 -21.9770811363033 -14.4300827376545 0 0
-182.248368291751 32.4449503596688 -11.188616926707 0 0
-63.1838883756033 -1.256536274912 19.6193027978371 0 0
103.042483301491 8.77484667196678 -3.28824693686652 0 0
-14.4147734805678 6.31086866409389 19.4552485017859 0 0
-171.104984914419 -1.86100342192702 -19.4945804286211 0 0
71.1231961848355 7.18442123757923 17.5014963149246 0 0
-103.720064234516 3.60425509434425 -10.0520942169972 0 0
-118.235176342389 -5.35610564346328 -1.54981207343825 0 0
-66.0227110825488 13.1577308223903 10.1918178922473 0 0
-19.3456150677655 -6.17664492946366 21.4283197685742 0 0
15.9303826057234 6.00894163835848 19.5460778649936 0 0
-29.1507789608306 -0.548173094797828 -6.32435719320631 0 0
-11.1876539386473 -2.09463487940725 22.6761231343105 0 0
-125.136759824782 18.5138434936353 2.92461693517934 0 0
9.96991042571723 -9.56248678636694 4.65474447760014 0 0
11.9551178327333 -9.13353507737809 21.2551833738763 0 0
-206.144483603849 15.7440197702095 0.401431537897267 0 0
-182.540569020436 -14.4441683421517 1.23171703952133 0 0
88.1718613684278 -13.0220676172136 17.3980158943676 0 0
93.6206217904984 -16.1451855066575 4.25495596627487 0 0
