"x" "y" "z" "f" "a"
-39.8214159613904 -1.32536526521064 -3.14278274250082 0 0
13.5275188993177 15.664563235234 10.8512440391013 0 0
18.6698914705216 -5.47609460874575 0.738351247211509 0 0
168.104773376488 -8.71634337767312 -8.68124481737475 0 0
210.809234035131 22.1405959272988 -10.2911363453986 0 0
174.458125573739 23.4260229108434 -21.63690142441 0 0
62.4656266597128 -10.7069482483181 14.3541002258384 0 0
208.102358476185 2.29909820717514 -1.93568176817877 0 0
179.87464897437 -23.250514813096 -15.343512979652 0 0
29.180380695485 8.09857750470719 25.1458314860276 0 0
202.328111965207 24.3945665284891 -34.1353204116783 0 0
176.095866072602 28.9729189672831 -23.1839418012132 0 0
187.274665746303 -28.3428945931911 -30.9151301391935 0 0
144.532481703674 0.42101252616283 -6.56411332388058 0 0
-30.5903251622162 14.9172681871327 6.94693645390449 0 0
178.141063578561 -16.571108595654 15.9151613785978 0 0
35.4961704173422 15.9502327702206 15.6408482251835 0 0
183.207393033101 -4.53480829972038 -17.8183781077588 0 0
168.538901635658 -19.9314526161278 10.3553914156178 0 0
127.6476577554 0.691420679953488 -5.56576677043854 0 0
171.988416223813 -2.18442012206591 18.8610881737389 0 0
196.652761753586 -12.6957094749695 -19.7915371817882 0 0
167.12305864147 -15.5920921582556 -7.99912780042863 0 0
196.454675089815 7.67674284209677 -17.6304193053996 0 0
114.800434414133 12.0145581372232 20.2039974188574 0 0
198.661316098801 32.3006694935087 1.09359145062218 0 0
-42.6139247692406 -0.176520677585661 25.7559126320074 1 0
130.638055994638 17.8156932031089 2.9135823269152 0 0
121.160762634556 -14.6284745725473 12.956641775404 0 0
128.445268555619 -7.93940679624311 -1.3607091573195 0 0
-21.1957620453625 17.0569741660924 11.4707982330068 0 0
142.444309318605 -12.3838249723077 -1.01693737220895 0 0
187.79071401752 -35.989471633332 1.90686457303124 0 0
197.380981231637 9.03055526688233 -20.8643888805572 0 0
159.927887593231 -20.7430621399938 6.68941240044292 0 0
162.99983058386 1.72465213301192 19.3619931050064 0 0
193.490982754304 37.7668291673724 -18.9683273358493 0 0
191.492075565589 -15.0387128116456 -23.529838359058 0 0
164.097582682892 23.3929225241918 -4.03617395024472 0 0
14.095117932935 13.4439244615855 22.8090591116796 0 0
174.531654803001 21.0237207161115 20.4068045846702 0 0
158.697313614671 18.6113315854965 15.699537230053 0 0
208.345075985224 16.9885850850266 7.69840112029616 0 0
155.50987866927 8.09103155983482 20.2949545128097 0 0
192.310379504674 25.8527417174105 22.0147253928943 0 0
118.317565323231 -8.86978860383389 19.5983914418213 0 0
11.3891028815265 -0.185746429430829 -1.37218521390094 0 0
128.631363364966 17.3718722053826 1.1572990280668 0 0
172.512765006958 10.2415223630223 -15.7979834390863 0 0
121.831784228455 5.335687663356 -7.04662229718082 0 0
153.785294345385 20.3683019748301 6.47059326330558 0 0
105.327477974921 0.540285441664639 -4.77539559195943 0 0
191.926303384728 20.1274225800814 22.1059511258697 0 0
135.711481067829 -12.3867945819193 16.4543333256542 0 0
-32.5972780592703 -6.02978947283884 6.16140707748048 0 0
27.001768599577 -0.211519832883028 -1.8480869090779 0 0
44.7837855628629 1.90746178387021 25.8856281541441 0 0
93.0479299257963 3.81052493849469 24.0898899308109 0 0
193.389694294757 -10.2758779872777 22.2727382201069 0 0
69.2576841446448 0.847291045574529 -3.46467957244186 0 0
201.051791529337 9.21983169105713 -22.3010241424358 0 0
105.223299278118 -1.41167717246565 -3.88118894372473 0 0
157.399173392359 19.3325071396271 13.7451912428666 0 0
-37.7556525417605 0.876399739776868 26.5037673450622 0 0
66.8198668075654 15.233604939649 8.23257277173264 0 0
190.12506638249 6.17767612494595 -22.6524483943885 0 0
205.699383110022 0.155294040377817 9.25598476789225 0 0
206.796562630025 -20.6656496460132 13.4967212206232 0 0
-38.0886660422921 15.5479169083299 6.85582130372896 0 0
10.2936262275657 3.56651079819264 0.470066730352823 0 0
168.967312099214 -3.01261957983824 -9.4483024769864 0 0
207.509801567748 -22.9260762773168 11.6039559035397 0 0
200.119977509342 -38.2651358111206 -25.7389703591106 0 0
179.132238843587 -27.9446147784301 -13.5721626721405 0 0
209.363016905658 18.9892937854692 -21.4234105265081 0 0
185.304583699045 32.7536706798186 0.432144951337599 0 0
133.471576803461 18.0209666699075 2.23681236586558 0 0
73.437038447453 -5.74817456659825 0.918541823829385 0 0
203.645807598117 -37.0670785895053 -2.93633745363464 0 0
175.833768408834 -29.8234403813992 -4.61923123534035 0 0
201.246623584157 36.3236819287609 -24.5363083122582 0 0
-38.5227045047206 -3.20457183048907 23.6009070845976 0 0
190.54799480095 25.4948178095474 22.8642346100111 0 0
178.895238419473 -24.370587130355 -13.9356555927155 0 0
190.229432759335 -16.5857377213326 -28.6788321596307 0 0
207.698493366702 18.9049173418258 9.30866591719766 0 0
206.069807038292 30.0965825200126 -0.0666599308192395 0 0
175.671589878758 18.4931634403987 -26.3107895019549 0 0
56.8332009768172 -10.5224216750421 15.4442613557125 0 0
196.65726065216 34.0827859447193 -27.7533450751095 0 0
61.5257285590432 -8.22468880138834 6.77191779128924 0 0
7.52415633851995 -8.07704504502543 12.4148534630146 0 0
33.4368001050889 9.98387955146127 24.0772866639778 0 0
199.117838467764 -35.0639223499089 2.55185684326008 0 0
210.049973925048 19.7341222044795 -18.8615977184684 0 0
37.8088253407162 9.57405580702333 24.1184949479221 0 0
161.723219986276 18.9672007119948 16.2577720837417 0 0
140.370789547588 10.999996043473 20.2944217684456 0 0
187.70774887057 -25.7339857176525 -31.5717634650022 0 0
198.20401624365 2.3890278892879 -12.7999495562645 0 0
102.475138906895 16.1113782109532 12.1749452855005 0 0
175.307485016423 20.3688181996258 -24.733953096635 0 0
200.948233392557 10.8526237690311 14.8090704983005 0 0
216.56359058872 -28.3964215961572 2.74908882382592 0 0
219.743372430477 -17.2089724606442 -1.72109841590743 0 0
213.830527659631 -30.5005440441744 -31.7964676113279 0 0
208.316689983857 12.5190987736242 -13.6104074011527 0 0
176.720399783866 15.6248073680191 -28.056907696607 0 0
152.571693787162 16.9662838744692 16.7648027863453 0 0
145.20309074601 15.5603686071662 17.4924722464744 0 0
156.183546950818 -6.34529476848898 18.5246509475698 0 0
173.840830365698 29.7638233536708 -9.27143150221176 0 0
179.779562761419 24.5598861800692 -32.607515665842 0 0
161.484240478439 -17.8628999121022 -3.20854736872067 0 0
201.878179747878 -37.8040591022347 -2.61701922909562 0 0
11.4899718602508 5.89009219767179 26.6093180561333 0 0
45.4920305039185 -9.86430964386527 14.4836333070261 0 0
111.181417315221 1.49415004946527 -5.35211023413942 0 0
197.504763211282 -30.2277067634521 8.38148691424038 0 0
207.724474330667 11.7697213987807 -15.5983790805653 0 0
67.8233388103116 -9.73383215093652 20.122156307428 0 0
-17.7118292103321 15.9674895228257 21.5732893780759 0 0
118.014672690609 -8.80115933087634 -0.118280338851593 0 0
112.936456116284 -8.60011002715193 20.1273567647842 0 0
2.11822511588186 16.8033903910511 18.297116602665 0 0
112.525657875852 10.4198738255674 -5.44852421376417 0 0
133.894997652255 -9.47089725826239 -1.06109230190987 0 0
141.225577204016 18.0197125930125 12.4660526513736 0 0
166.049221975444 -5.68232623077415 -8.05307766215337 0 0
199.609638625119 -29.9855460925152 -37.7272732667443 0 0
52.8198000194186 -0.289170133851412 -2.58599756261002 0 0
65.6701293093064 -10.4893425087812 12.6446069131609 0 0
36.0891214109693 -9.24946621168279 19.2597980920217 0 0
183.554102564508 -33.9325715099934 -17.7214541719189 0 0
187.138028889797 15.8122991857701 22.3850522267972 0 0
207.307255627553 -12.715341793902 16.8478040119913 0 0
205.635128746097 -14.4310858046761 -21.2233874417255 0 0
59.3380885927843 -2.43527263202281 -2.1340458184623 0 0
-33.9042147723178 -2.9803625349597 24.3010093282633 0 0
190.649024422592 -11.2934819955741 20.4907697184497 0 0
157.852377633779 -19.5767594833663 0.13679180915285 0 0
220.959680939979 -29.755992516886 -19.3573538027495 0 0
208.800378246805 34.8279678520756 -17.5002489641867 0 0
94.0853166415283 -6.80537213745642 0.199843927591366 0 0
169.634151534645 -22.9581818051323 6.86383825485328 0 0
-32.7567834623206 -0.402551989821308 26.2331805948379 0 0
153.271945208998 20.1217748064645 8.9536610598773 0 0
-44.2553513844631 -5.18779064638051 3.89211029880873 1 0
-43.5212213610415 12.3258034237936 24.80731056573 1 0
130.012168125593 -6.81534409827942 19.6117589333956 0 0
-29.7977509343473 -3.36440778242395 -1.05282858394869 0 0
124.40016971783 15.0629771106378 16.7863558074012 0 0
40.7547377918712 15.5040999639973 17.6771912759359 0 0
178.165353664963 -7.68392465573869 -13.4534682146551 0 0
100.886978872372 -10.2221955044688 19.5584527294859 0 0
146.954868281151 -17.2941379252019 2.48937582118009 0 0
163.289080241473 -16.3247842478755 12.9551698705323 0 0
135.971850198511 18.091985804596 9.82400074840757 0 0
141.006992250769 8.6032651003318 20.8994660480371 0 0
96.5052046090166 -9.54142255876753 3.98634115974123 0 0
185.984190878444 10.3715128434267 -30.9538268430736 0 0
50.1498900087335 12.3400144535287 4.21524675960706 0 0
-4.13178112718367 -4.89632716545146 1.88681695634296 0 0
201.470596129318 7.24799968715632 -15.2223465584939 0 0
137.182018877244 18.4077461010159 2.8614345698342 0 0
-35.9261624792066 10.9155685581187 3.43072498453223 0 0
218.181780924607 -13.0389092298435 -8.62037435912201 0 0
-33.6178622281535 -4.37312134163581 1.64649255290701 0 0
112.130113383552 -11.9007329132731 5.14779511609745 0 0
-33.691289078579 15.23811419971 22.8579079465701 0 0
15.8570188613856 -7.1132454116804 22.2879019853142 0 0
190.052413988441 29.3103446594667 14.1426417101409 0 0
222.15953198496 -22.8497418539235 -9.01538159498796 0 0
210.531569505282 20.2401753829313 -11.7852808036058 0 0
202.941637029849 -14.3093833217718 -21.3403319236963 0 0
-2.07636980598531 11.5528073721592 25.0840695049081 0 0
176.814286058011 -28.4084981909349 2.4142625988121 0 0
67.9649380237105 -2.41563465362617 24.7551656297325 0 0
190.642673021051 37.4969775500934 -10.8246539859224 0 0
181.56304522588 -37.8991682642006 -9.05712957869747 0 0
189.488429865172 38.7423920217411 -18.7956565422402 0 0
-1.21585805375716 17.525401131934 16.5655588539393 0 0
201.285497247948 -14.9749009507729 -25.7208084306591 0 0
199.913997424306 -28.9540509088529 8.84578251736881 0 0
211.907576055072 -28.0036859343097 5.15414679111642 0 0
209.375156654123 -36.8653948967619 -15.9192091150882 0 0
120.533445560353 9.29945005268497 21.5410363206338 0 0
93.2438762050688 14.8754217871919 16.2692872356679 0 0
205.884358165865 35.0924092499619 -13.8763043318573 0 0
150.884213911747 -19.1607914287431 5.06070266415952 0 0
148.073023302353 -10.754071120219 -2.6728387036397 0 0
199.784676629795 16.4319468872035 17.5883467755546 0 0
170.122932400325 25.3862345725715 0.220464376090469 0 0
192.48721600349 -1.99894507961291 18.6442917560881 0 0
120.013192522663 -3.06023557717163 21.5391764126221 0 0
193.212066650849 35.2436627086454 -5.42815429504221 0 0
202.274550367894 -29.6645888345985 -37.699349352501 0 0
-40.7475761090629 1.6057385924292 26.5342682267766 0 0
161.483428642603 -13.5052237359808 15.3451667595928 0 0
19.6874328204836 14.6739532841281 8.98069619997971 0 0
-6.01537100751403 17.3356487480535 18.1647088486194 0 0
124.68981948435 13.5406537696877 18.7479992704832 0 0
63.0980460406883 -2.56664106441008 24.8244696974819 0 0
4.90069148383624 10.9534034765777 25.1275753387881 0 0
78.9679299816526 14.974050624893 5.64084649118298 0 0
131.884139340634 -13.0990727695006 16.0054522106019 0 0
35.5414112696252 -3.83288822486317 25.1697097847771 0 0
-30.2024916060763 -5.26873529221565 21.4975994743961 0 0
98.7783373639508 14.4137295939975 17.2277337829421 0 0
-20.375335815182 -7.49866998338958 17.759026676689 0 0
221.904488140269 -28.180754441164 -15.1213539414167 0 0
108.336072013963 -10.6850308486337 3.80261656636362 0 0
-37.2836588768643 17.9198693636418 11.5133963541845 0 0
181.004448294486 -36.0399150516271 -7.52718594120041 0 0
150.839116962207 20.0837425216931 -2.78166899408448 0 0
210.428714141228 28.9828018834528 -14.5142170726683 0 0
205.229821814277 -13.3132021132097 18.007214075481 0 0
219.249547874203 -14.8620102071891 -8.92961482371874 0 0
174.497041390862 -26.1542573086893 -7.93889068541341 0 0
129.255878853114 -15.2712900797935 12.7989071610121 0 0
-39.6834211102147 12.7055360788653 4.3193049468445 0 0
27.6394766710202 11.7098457162584 23.307943601778 0 0
211.706542073725 -4.46328777685434 -0.40525232438838 0 0
148.029092361238 -13.8748307943132 -1.18603369894687 0 0
69.3927310626336 3.16555858945451 25.0620100098437 0 0
-25.0417495278415 -7.50051334349074 13.2557815530484 0 0
201.345471362548 -21.4337024787852 14.8146672452408 0 0
25.0937658925458 -5.02123505306354 -0.787245297672629 0 0
191.219375573728 34.9422873651486 -4.09459790459144 0 0
201.745576586102 -0.838285721901182 13.8536258955527 0 0
194.006054420263 26.6229256839222 20.6572621326972 0 0
43.4010738059186 -2.16751436128124 -2.52209793623048 0 0
185.622118846957 -26.8840156630071 -28.5177742785256 0 0
208.555412418466 32.5754166570203 -22.5953310064086 0 0
77.5873255584616 -0.37226446799316 -3.54539490674584 0 0
140.958501815375 -16.3724725896726 3.55226431204038 0 0
176.198270294334 36.1646062714076 -18.9001659067986 0 0
221.111594472561 -24.2929977092296 -18.6849450126778 0 0
45.1941288714985 4.63208875852252 25.5572717643563 0 0
201.907836807406 7.61575127333531 -12.4502841441735 0 0
177.485751337778 26.3421669609024 15.1848893725576 0 0
0.652770015936631 4.86160278727232 27.0689726956138 0 0
125.795348498311 -7.78079963012127 19.5785477637272 0 0
29.1950149283423 -5.6905679231976 24.1951475926258 0 0
179.006923579616 -37.2595853339138 -11.4198686321593 0 0
24.7256044219869 -6.82532038614082 23.0666393937998 0 0
81.1029753548279 4.60363165346145 24.5002560809695 0 0
88.9227660171747 14.4571168912749 17.3401022344926 0 0
169.492408341695 -21.0991760274971 -7.16802002591318 0 0
131.749916924209 -11.4902835056169 17.2707484520503 0 0
155.017869917925 -15.4062077033286 13.5131150261139 0 0
62.9332736220342 15.2598452180624 17.1403668706538 0 0
169.900548635217 -4.87498825322462 -9.75939531609898 0 0
132.525558444812 4.5665967795148 -7.12952614282613 0 0
-30.7703431495085 -4.43484905442153 1.39699654335096 0 0
196.001185025454 -6.74876074868495 20.0964587315084 0 0
139.322535910091 1.55891980449144 -6.54977945852538 0 0
193.127737306254 -6.03325176501523 -16.756455507628 0 0
39.0122994036738 -7.28517087865119 6.00709294991645 0 0
165.952450989968 -5.39255921986815 18.2147160766127 0 0
193.479609402243 -15.6275238439891 18.7011192271336 0 0
112.069236627005 4.29297822429074 22.9360837960245 0 0
21.6270166490997 11.5853631855131 4.69099225727701 0 0
156.181260959735 8.68707941107372 -10.3871890083897 0 0
217.712057572635 -16.4314687842315 3.07555030314667 0 0
30.8060593751444 3.22465865521976 26.2316768641657 0 0
151.723906661286 -17.0036760214685 0.225813425374803 0 0
145.271463648298 18.7288520296649 11.0934458388691 0 0
185.829893315348 14.874930654693 -34.7304171883785 0 0
-11.7366568269697 -7.99259876175167 16.5178487547802 0 0
-41.1354123071156 13.5875218694057 24.1321525082966 1 0
194.899456308831 -14.4648312615885 -23.850634620044 0 0
139.345635615192 -0.692178563334092 20.8205814461593 0 0
71.6148866497715 -4.41349593038654 -0.702523022730573 0 0
-22.5349547120644 18.2228015459264 15.9657787360741 0 0
138.147964157445 -12.2667725316946 16.4496545483255 0 0
207.177292035633 20.6827623705353 10.4527268899799 0 0
45.382084223273 -9.02909008290041 20.5122968815202 0 0
-23.7815864678049 17.9989710850639 13.7507971430622 0 0
196.53519999424 3.34049226435791 -14.6646162995647 0 0
-39.2610795529467 0.407462954427927 -2.74849834976425 0 0
185.270179486402 18.8639142406748 -36.1167355748053 0 0
185.032625170655 23.343858770605 -36.1532475078594 0 0
68.2117152216844 2.48618398820505 -3.05022723782331 0 0
105.260401960839 9.16207268518341 -5.0860468686037 0 0
205.472865900361 -29.8823491348467 6.40973320608051 0 0
180.978034413645 14.4327911667854 22.4782441202197 0 0
193.88429443871 36.8090406701214 -9.59557213896664 0 0
198.908239900208 1.05263270226057 -11.6092946601321 0 0
76.2906966858146 2.37592875319315 24.9138011670313 0 0
186.930065518758 -39.5139055536302 -6.12025064437084 0 0
-28.0680793849986 17.0650205829316 10.7589083596242 0 0
208.470335696409 -4.97662933910458 10.6274069144187 0 0
65.8802741840498 10.0002959557982 22.9539415727479 0 0
44.3930498843245 14.420748156241 19.5569561848016 0 0
24.7634765496273 4.75048551366026 26.3311629321023 0 0
209.852147098454 -37.1595577313091 -23.0851646110969 0 0
139.921217138349 14.55321497123 -8.64672088263147 0 0
146.846013597476 -6.61341147404154 -4.24246395172551 0 0
129.132226718308 -10.661369410688 17.9591374427135 0 0
166.713647765522 10.898869059082 -13.6052046178516 0 0
152.063663445848 7.83861932212025 20.4811848386394 0 0
201.734286469395 -0.551614146868753 -9.59882260987305 0 0
148.544327969258 -5.04677110966298 -4.95759036897474 0 0
142.76023600615 -0.309102688456449 20.5792137806211 0 0
-45.320190125235 18.8176843734784 14.8366925848708 1 0
175.06080417204 -24.6881614400512 7.26348185464029 0 0
209.215902801065 16.4244488723241 -18.145983435957 0 0
184.71341103021 -27.3686744732681 -24.7404595671476 0 0
172.488802736239 27.4344046733844 -5.27402607329652 0 0
89.7977412687947 -10.2797243877946 6.94368609832231 0 0
198.918544727668 -15.0550269869895 -32.7604753747436 0 0
194.845589576542 -15.2691940927353 -30.4464861754832 0 0
33.6285228108544 11.5970310152344 4.24770548621897 0 0
200.068203768284 -33.5830091561266 3.87147189331405 0 0
151.344262905063 9.47346147545793 -9.88402875011501 0 0
118.280469397531 15.1080007268567 16.2598843051219 0 0
82.4291868612611 15.5172188325538 14.7590505126028 0 0
152.847649100671 14.8509498326519 18.7408732418923 0 0
122.33194862505 -15.0069673431054 11.092983040719 0 0
177.004184600766 -26.5087789956772 -10.2947410363277 0 0
173.399477936385 -21.6176058048208 -10.1525545373063 0 0
167.950221372255 11.8355195406683 -13.9570944488695 0 0
125.056424576066 -5.32544824608092 20.5556345946998 0 0
-31.2009199505707 6.70686922429146 26.9543301189744 0 0
67.9478560641937 8.02215281459832 -0.891147539201997 0 0
-19.3554999737843 5.53042966103067 27.2188392024181 0 0
177.215644616465 34.3538582071598 -20.6968789195423 0 0
61.9207083686874 13.9702736467024 19.4592095450659 0 0
165.877350179957 -11.0182904629385 17.139938163183 0 0
165.000446563226 16.4344712179267 -16.2818110502834 0 0
74.5554302157959 -1.14956543501117 24.7110662711642 0 0
159.227963248299 -17.290540978436 -2.44041866580316 0 0
189.796791463297 17.1754924681719 22.0265822621597 0 0
159.8232457433 16.3375252128687 -12.9045323887073 0 0
207.578769042333 24.1206889591387 9.60268535436384 0 0
179.068023690593 -18.1010790655737 15.337659121301 0 0
221.612144963056 -25.4065109985912 -16.4343443637688 0 0
86.942274309545 9.5997625663539 -2.14560533647812 0 0
150.473624759216 -14.6623215329612 -1.24529767745372 0 0
191.71271132114 -41.2358307455166 -15.0113186532408 0 0
209.379275321148 14.869560534601 -11.4712783799649 0 0
18.7241975906661 -6.8061107690362 22.9107413996659 0 0
87.9885709675466 13.2443853395063 0.805450722045663 0 0
210.031578788672 -37.4523917080342 -25.8853881890059 0 0
12.7272616950183 3.11052377129274 27.0455117809013 0 0
72.9686613617154 15.1782590911949 7.17137303854574 0 0
205.153351085157 5.20367214927377 -9.52870425304171 0 0
207.779807695971 34.804016154863 -22.1899685868721 0 0
221.358252570875 -26.6172194131213 -18.0514902088783 0 0
192.622478572082 -41.0255981289781 -17.1790241594949 0 0
-5.99551122101274 14.1384365169194 7.89626798363316 0 0
144.213802418486 19.1072472584888 8.12674331343904 0 0
28.0175495119523 -8.11275392006427 21.421856344206 0 0
198.463788556583 20.6445075051928 19.1899208269175 0 0
107.648713482249 2.10354133415355 -5.5949507540572 0 0
184.393929293207 -28.0955319641747 -22.8935528972445 0 0
195.566344471611 35.9577390359387 -7.39282485038732 0 0
128.255353232786 -13.960607126962 14.9528392052699 0 0
148.553044415651 19.6529337197768 -1.22500987194533 0 0
182.73338749448 23.5869751450954 23.3763281019593 0 0
199.708586590404 -39.5722162807785 -11.6239552740757 0 0
-0.758176532454851 14.8186278525315 8.86223920054338 0 0
152.413668291005 0.289428790472632 -7.12492599735436 0 0
201.800319463612 17.8999243797692 16.3830559665878 0 0
203.519207025914 5.27123235988785 10.584388143603 0 0
35.3967575116888 -0.108296981066367 -1.6176340110245 0 0
-4.21872372214539 0.717157096766205 -0.63377351004407 0 0
183.5418016211 -31.8576050890031 3.89030953949209 0 0
73.8174865667952 5.41616266872969 -2.65188824826616 0 0
189.031755924574 -12.4244998808369 19.8076418934247 0 0
209.028938768243 11.3920164715646 -7.16382714636311 0 0
198.232675002534 -37.3501908300814 -0.324654517182272 0 0
179.900288716046 -32.3326899998341 -1.63492904740605 0 0
-35.0051318560671 5.350190351088 26.9780674423587 0 0
-14.0830795149922 1.99960806894555 -0.577010195464839 0 0
26.5393762010558 -9.14599913569848 18.2635532509072 0 0
181.587946921758 -4.70015016070254 18.9300266139594 0 0
85.2164821776996 -7.75260410893698 2.3252171776898 0 0
192.853505238116 -39.1069587200252 -1.48616536521401 0 0
36.1190743167369 -2.85365096617717 -2.49902259079486 0 0
71.2135418434432 14.1956062881905 4.87638237880787 0 0
219.98625973742 -16.4006732425938 -7.57614319419888 0 0
200.955223829364 -8.43930836436113 -13.3957270236512 0 0
57.9362694159013 -3.23068544741788 24.8140050223352 0 0
178.186634989009 31.2687042227401 -3.68663661830019 0 0
199.956450736771 35.8011409734794 -10.5564037391681 0 0
205.503709961382 -26.947242183387 9.20701518111451 0 0
94.0107650510418 -3.18344959949351 -2.65245371596982 0 0
150.305572360763 19.9911007896127 1.1993204313067 0 0
101.897335937983 -7.96002557365908 0.715847830863536 0 0
144.850313625337 -0.6564702155487 20.4010149922559 0 0
170.825075377808 22.8788890526157 -17.8184526891466 0 0
111.740175396581 16.611047485788 4.22824046604967 0 0
184.417882742785 -38.083869535416 -16.7979717042686 0 0
190.110836578503 -5.6933598796461 -17.8031262151495 0 0
-20.3399329621374 15.5910206601989 22.1268462735402 0 0
22.7062336008302 13.2415934493243 22.2996258941086 0 0
169.095310222844 16.9313282906315 -17.4542324929656 0 0
193.73311706159 -4.88052828388886 19.5241515244711 0 0
168.297014044113 7.71240938680255 -12.5866959939425 0 0
91.3918470348007 -11.9952623517542 12.9000003837602 0 0
57.0445212328059 3.31545046557269 25.4105372556108 0 0
138.685799478311 -16.6683911107296 5.27893913994255 0 0
138.317833747607 -6.47305706206988 -3.37349859551053 0 0
173.880481684509 -0.175593883087297 -11.7341424177835 0 0
162.657448199931 2.91060422536134 -9.49463162608836 0 0
92.2179697906106 -10.3174167711917 19.3790798307909 0 0
191.232090243631 -17.4636610819376 18.3042249558022 0 0
10.9175045396533 15.9149284588752 11.0810557939264 0 0
84.1359551496715 14.6635471371098 3.93911248759403 0 0
197.153709639283 -39.8259165738418 -14.7241380458397 0 0
44.0252388344061 14.1811895016193 7.44992984041708 0 0
-35.2844901154098 -0.826394286769083 25.8616212358133 0 0
206.610356536972 7.30242824517056 -11.3655641392955 0 0
180.922787032627 17.3715311567698 -33.6799444527033 0 0
187.714904665475 29.779396643281 -32.2247716268799 0 0
174.11455806295 26.571594343286 -20.2993150749056 0 0
9.57794831234851 -8.68386386368694 16.6793938282424 0 0
109.259506395453 -12.0763452784913 6.33806993221758 0 0
133.272482468794 10.0660222421129 20.8055684870968 0 0
168.013057992342 -11.5205946955185 -7.71553541140775 0 0
42.493960341821 15.9099011700068 15.7378281193727 0 0
106.97658498101 -3.48891496907043 22.3942504494947 0 0
168.173757612337 11.0679573321955 20.3835612970001 0 0
133.996045872181 6.38572640439198 -7.73826915834376 0 0
182.06075082313 -31.4803767665982 3.23912652128454 0 0
139.537824404866 17.9480378814519 -2.5699349714612 0 0
171.189765192461 -4.9553584372562 18.213521224427 0 0
190.415066331316 33.3270440990396 0.56512794939297 0 0
36.8905508622677 1.1839048124759 26.1812885409008 0 0
219.838249254827 -16.2250472051699 -4.35177658514339 0 0
114.369148566028 -10.7363854816714 2.65596073004141 0 0
144.548922160849 18.9095092153777 -2.12152238113322 0 0
210.566687124842 -29.7782846117207 -34.6272836101744 0 0
182.642734240091 -36.3290288544529 -5.63891141298413 0 0
173.231848410198 -23.0401506916676 -9.09774790616958 0 0
148.510919785684 4.14988669826658 20.5838332554993 0 0
-37.0095742782482 1.89046165523607 -1.63777953202812 0 0
141.166847153561 18.8211611390363 4.09662581543558 0 0
174.113602947797 -28.526714552065 -3.62848542719218 0 0
173.285021460505 33.4365105684716 -18.3871118998369 0 0
199.528305539153 -22.7342645315187 14.2051754020227 0 0
195.010052681622 -38.5730124227879 -25.2620250104238 0 0
200.969257315605 15.0397201643324 16.291191713437 0 0
208.831407157449 -30.6430568423205 3.19076982927243 0 0
98.2951691745158 4.58598714581181 23.7256567032534 0 0
161.691962673893 -22.0838849256063 2.90247664796537 0 0
216.004145209735 -34.0640887311957 -20.0486340945387 0 0
104.183719671776 2.88618726059869 -5.79596547377778 0 0
94.9570485969217 15.5194713413941 4.24006089453332 0 0
138.545330232073 -16.6084548977438 10.980012322195 0 0
61.2123793450259 12.8811554682811 3.88235357241686 0 0
-17.2512681627878 -7.73197145874606 13.4018948517717 0 0
208.111350539547 -37.5445797091116 -18.0334595350212 0 0
-26.7373870211421 16.1506710102076 21.6095910574615 0 0
163.528234141265 23.8860739746483 -7.79520502826443 0 0
115.68474390388 -1.06863145618126 22.334132023228 0 0
190.647192874911 -11.460038115431 -20.1728859094717 0 0
207.584067596327 1.72975382333596 -4.48381234202295 0 0
202.670653857033 -4.51784752763876 15.7830082601158 0 0
8.14576796559529 3.00345009632008 0.270009036218296 0 0
214.69915411849 -29.726431976001 1.01410623619782 0 0
96.8397106818119 -6.68180242689398 -0.0698429249629932 0 0
16.2549101772144 -8.86642470041746 13.9161304225563 0 0
189.713802635625 26.0119987540547 -37.2021527355845 0 0
112.78148621882 16.719670004887 10.1164425111075 0 0
34.085852515602 -9.47403673140936 17.3347427342204 0 0
190.900269615866 -41.136303994153 -12.0751917325884 0 0
149.242178797424 -16.0877870636862 0.189080953215025 0 0
193.517242594622 -15.0557806951814 -27.3878717393045 0 0
158.742838117223 -11.8744601459448 -4.74896689020921 0 0
115.307511947082 9.12265722341868 -6.50009631077426 0 0
172.657571137509 10.1884038164213 20.4958959546122 0 0
189.204632852233 -12.9048662729934 -21.1448063320516 0 0
-5.56021062023327 16.0890474208582 10.4922688349555 0 0
198.453113653991 -40.1320905012375 -4.86120751943537 0 0
173.837639517217 -27.4247465531404 0.502910473295989 0 0
129.688370017636 -4.60217269731937 -3.69303268101458 0 0
146.080892324165 19.4064398533555 6.03585873039535 0 0
101.212624775961 -12.3225841113327 9.68843309086598 0 0
188.813823721181 27.4654782375002 19.3465275415561 0 0
219.552754412454 -19.6656356237922 -0.00724366730557382 0 0
207.079960150538 -37.7791342329241 -27.4088002966825 0 0
206.646639430197 22.0029320058185 11.4193972742489 0 0
135.950218939601 -6.96072621832908 -2.81816511001272 0 0
13.2117890824131 -1.03381133607846 -2.53960386255378 0 0
201.402170765826 -38.145938592296 -23.4474969369963 0 0
145.284338196677 7.54977845946819 -8.8134110575746 0 0
-31.4936198298837 16.2518393172632 8.94508157355045 0 0
35.1341627278036 -8.43244220078637 10.0798703327908 0 0
62.8748989392512 12.3989102082751 21.2205769279885 0 0
75.6797406876029 1.85103699594044 -3.99553751736329 0 0
126.72051538895 -10.4524333670984 0.447996091400837 0 0
-10.0930888890857 13.7415978419587 7.23681469959622 0 0
59.2194276071565 14.1901109452614 19.3989951689443 0 0
186.577115997979 -11.4828247226909 -19.7859616081176 0 0
170.751686948281 25.5245214524031 2.53421160700145 0 0
202.610837681737 -38.208581790606 -32.7850693654022 0 0
188.183076677309 -39.9262343420656 -10.2460171232789 0 0
-23.1190614524617 -7.16928278957636 9.43923847427255 0 0
98.2784155975904 12.6568043733506 -1.40483980692836 0 0
197.457554855563 -15.9174303735092 -33.561318253737 0 0
139.801164102332 18.5878611834102 1.71837151842583 0 0
86.5823637547123 14.6581578868617 17.0099760340856 0 0
189.714360302276 4.12052657594065 18.8994776219249 0 0
155.679410304346 -10.3424702459806 17.2147230643958 0 0
-28.1596534251136 17.9150054123439 18.4847234294787 0 0
170.658523938007 26.6687142946896 -6.07472612011239 0 0
210.632325710162 -35.4083692779938 -8.7123404951297 0 0
153.160825296741 -19.6623047141756 4.1451879474613 0 0
-37.2951487783063 -0.679728658267023 -3.18383763901692 0 0
221.973771841965 -26.5708760557178 -14.3805190867693 0 0
172.778075598503 -26.4019328706136 -6.47758413557667 0 0
212.771252559013 -29.7846777497152 1.54243325410639 0 0
2.07502248726147 -8.35339493134818 15.8060934256948 0 0
190.895043571643 -38.8934484324743 -1.31441090769953 0 0
218.291605284332 -18.6873019785633 -22.0175838919577 0 0
144.925994364974 -5.99568628020501 -4.2774265557583 0 0
210.328247858724 22.1443918298448 -20.1533061281101 0 0
212.091746199835 -20.7644981435748 11.7338868656071 0 0
169.216550270523 11.7358030944013 -14.6235024698338 0 0
-30.7714389463909 0.977871212199928 -1.71552337204124 0 0
78.1843106422002 -3.71293184948295 -1.71374263673933 0 0
72.1302263479402 15.120613119615 17.020701405012 0 0
208.625420017274 -2.77293557697079 -7.57720682190531 0 0
-1.29508501565787 -8.18535477348274 14.6045782582833 0 0
38.4967784473154 13.572859485624 20.9102341530453 0 0
193.066293847143 -9.88345693462625 -17.7549171313949 0 0
96.3492912740472 -4.32385568265442 -1.99307344580474 0 0
182.942643344731 -38.0185356030447 -15.1073919714376 0 0
166.830883216151 8.72415994253762 -12.5560157222495 0 0
160.953555062965 21.1091380562207 -11.6169899100959 0 0
204.019861339456 29.968963198229 8.10843346921018 0 0
81.3031009782703 -2.6005624759739 -2.58657385170228 0 0
158.17377817187 -3.89273242521918 -6.6082109745128 0 0
214.634640534945 -31.9789861813947 -6.38055797219895 0 0
205.219176833352 -17.1867494615171 -33.7913088298363 0 0
155.147374785751 -10.8553483558452 -4.06198324214559 0 0
195.685724057174 37.2873380107955 -17.8033588678438 0 0
102.490751608417 7.66785750858915 -5.42603053069073 0 0
183.80777841425 -33.8521357365493 1.33756266350532 0 0
209.886633428195 31.3005088815487 -13.0930982169228 0 0
10.0071888661136 8.11422328675751 26.0431182239981 0 0
-42.0477594632823 8.24073147517131 26.3616221574023 1 0
-34.2312642221815 -6.39326478407472 18.9778946390537 0 0
203.645730620271 -14.390978409523 -30.7333397910085 0 0
131.423147199953 11.972561289861 -8.02519443444956 0 0
208.712953558762 13.4849164236705 5.12059231239007 0 0
167.218117228059 -1.95712128751652 18.7799175367436 0 0
166.176688902097 -18.7076775695852 -6.27209054082212 0 0
219.438600388206 -27.4691739429427 0.515511724062446 0 0
-0.419568171757069 -3.93341128786263 -1.60674079432473 0 0
185.535770626226 13.3196468764544 -33.6359176383394 0 0
198.783821033649 -28.90538195774 9.55771270905367 0 0
91.3572064769966 10.8399520009369 21.6624985012841 0 0
188.253246739222 -5.65771108039324 21.293645872599 0 0
204.645115422466 34.2267397424519 -11.0500949873985 0 0
212.333213905948 -26.2110396418661 -33.371608656725 0 0
185.222008306498 3.73465621255522 20.3658930119082 0 0
215.182609673327 -35.4489432282753 -26.7397576360034 0 0
196.539351210638 -1.53351559935693 -13.4810008826817 0 0
131.325009743149 17.5819260330543 0.624821304870754 0 0
171.319520934505 19.1895871736534 -19.0175230689303 0 0
157.986516919902 2.69030583138154 -8.60502917946246 0 0
172.588794675584 -10.1608443494323 -10.771700510186 0 0
192.521955159739 -39.6010463821882 -22.0150535017863 0 0
175.404908487385 -10.4599856149699 -11.8419851423345 0 0
177.106780883629 13.9354285290613 -27.2129165285477 0 0
190.622041750415 -22.3699266160859 16.0028253245963 0 0
35.1176539859284 3.79787356127352 -0.379277356971357 0 0
111.843008982357 2.04993377084546 22.9379638148959 0 0
205.127550367077 -5.04280793618195 14.3789549340214 0 0
49.4018902153155 3.48173111307362 25.6135470476102 0 0
97.8975580810245 -12.1156187494238 10.1705546030334 0 0
139.780747533923 -4.59241422633859 -4.42988995866722 0 0
-25.1220622044576 3.77359390305329 -0.0423505276863803 0 0
83.6128693318831 5.44858951259832 -3.67692750606006 0 0
97.6093458437547 15.4141905208914 3.28860302062537 0 0
74.4769477872184 8.92953443835469 -1.09979535206073 0 0
26.3076829476951 10.3896770773303 24.2732866979735 0 0
198.889468021948 -36.5314727532136 -35.4810600575322 0 0
-1.34025544394089 16.2277178589332 10.8381722953873 0 0
53.2874656141061 -2.75183823013422 -2.47653909073843 0 0
168.794438978842 -14.2140412532103 15.5610923674829 0 0
200.914337446404 12.7529502552787 15.5454371424376 0 0
197.029556442041 -3.38614563667648 -13.0484984243104 0 0
156.886484187545 -8.32934886695367 17.953978388558 0 0
187.550746378076 -17.971211798466 -29.4451580467875 0 0
36.5096114585225 12.0951734965323 4.64720880893619 0 0
187.709013826657 33.9138359069267 -1.78685588740435 0 0
-16.6331947424277 17.1635232372949 19.6579971394877 0 0
84.2916919285163 5.1354577937855 24.2811524833106 0 0
-16.3217385518182 0.518048027588706 -1.45223711844529 0 0
170.282686385339 10.6561844283547 -14.9043269885127 0 0
167.277481754932 -23.8772104537311 -2.24678653666735 0 0
186.060375618374 -40.2584907859221 -12.210087875747 0 0
130.012583501855 4.91182301521365 -7.12112928480681 0 0
206.452000010642 4.39210272907186 -7.82836400961982 0 0
115.124651970954 -12.1393735636957 4.72803671060708 0 0
214.755876061503 -10.8360952865256 -11.259611788396 0 0
-21.8519660175097 2.95864879742174 27.3112287894265 0 0
-15.1486300967325 -6.10610742371188 21.6956080175445 0 0
184.609975899465 29.4551466936906 -30.8677673858822 0 0
100.655614666694 12.7798020814647 19.6577181842349 0 0
202.08977120435 -10.3954427140999 -14.6775554316273 0 0
166.155470245692 14.0691769856021 20.3378800537976 0 0
20.8000080950703 -8.17637707074562 9.88751713404327 0 0
197.517800538283 -32.5797675812122 -36.929100129901 0 0
138.297202352282 18.1948275815746 -0.387667830243077 0 0
198.741256298933 -39.2348210504895 -19.7626735287658 0 0
141.517809981679 10.2266692389615 -9.03650319042026 0 0
200.800289408831 -38.9076677183515 -14.8872340809761 0 0
108.864482761003 15.4984609441657 14.9773757201588 0 0
210.373033699164 28.003928535724 -18.4966679781085 0 0
13.2713334007526 -1.63705265246352 26.4795754479036 0 0
122.381357233779 15.8949287649094 15.0527790439055 0 0
193.613109925681 -38.3045309715304 -28.7230274626677 0 0
6.54713066802535 15.61642997412 20.4394954272308 0 0
-11.5887409329681 -4.54079280244756 -0.308672098731246 0 0
171.578428325453 -21.8930834340853 -8.58102801505167 0 0
71.7334189289729 -0.279501866252423 24.9736952928997 0 0
137.008407926279 13.716872321507 -8.46204502114715 0 0
112.108967956039 11.2875171571698 20.901849806398 0 0
27.0843524786479 13.5802168188245 21.6289881117903 0 0
175.05903017827 -6.09974641042849 18.344811191412 0 0
80.1852833717678 15.8635781023514 12.8231561860108 0 0
180.531237833339 -34.0347783848499 -4.81563328947702 0 0
110.884195919338 -7.6206489593442 20.7567178918006 0 0
207.178394476851 -30.1760038531042 5.21539619344015 0 0
-7.71320163190746 -6.66339147032302 6.77712497642629 0 0
176.875827010515 11.7569674170598 -20.9654446092377 0 0
157.370186138954 6.07767493649153 -9.74155433444547 0 0
4.5788639310901 12.1288258359365 5.73468024974323 0 0
34.2587160933007 -9.38338527287624 14.8103328876761 0 0
179.954634178685 9.82114994965584 -23.5266388376373 0 0
167.030623203797 -10.298285833615 -8.00411559706578 0 0
9.83114767462731 1.32087409718281 -0.457580772945679 0 0
194.354976114662 30.0081464992663 11.5750965091497 0 0
159.261973810625 20.424271611328 11.6632013963666 0 0
45.1926853764825 -1.03013073897516 25.6937085110674 0 0
194.329161002974 17.4869654118729 -36.6385485573563 0 0
192.25841755746 -37.1407030250183 -32.4999584054798 0 0
101.520996917903 2.77967900610983 -5.58322859477666 0 0
147.382202979166 8.823238173345 20.6584893848863 0 0
193.961870152464 -40.7198332892963 -15.7275436130413 0 0
34.9017367356546 6.35079972152943 25.447974413027 0 0
163.02227683888 10.8527341357962 -12.4841100380437 0 0
208.486750001086 -15.7257594561079 -30.0443702050136 0 0
73.4198980607064 -2.0904797935746 -2.47609769380861 0 0
126.413813770346 10.3752080346738 20.8832865026932 0 0
9.18756460279334 0.0962322864478481 26.9263808521191 0 0
198.759301090726 -31.3104231883231 6.93447989042907 0 0
210.6325014741 20.587508142488 -5.85347374440789 0 0
30.4472470968669 6.31454486573414 25.6596166397292 0 0
-1.57307014946636 5.98626305010957 26.9510524844921 0 0
164.81344389818 3.98343656835277 -10.2735524783472 0 0
197.659751911514 -26.3995853821406 -37.6647774853021 0 0
103.836673212927 4.94960480962837 23.4366175694157 0 0
197.13791637913 15.3318085544115 -34.8934951195889 0 0
-6.30150217261732 2.31718278181203 -0.102790844459644 0 0
211.34502160912 -33.6188855512398 -33.3315304217815 0 0
142.259267123139 7.07180749251016 21.077189124472 0 0
-44.7538653812256 4.23685995735823 -0.850081924579572 1 0
40.8837837750652 -3.18745537709413 -2.3062353250962 0 0
151.738631553754 -4.78522866234615 19.0788458050522 0 0
80.4052242990934 -8.56771833451127 4.67018746404696 0 0
204.847480056479 10.7582349012261 10.8915912605929 0 0
29.1296897901033 0.218229216110916 -1.46768956087795 0 0
202.227882858963 9.30164832255128 13.067356239299 0 0
64.9998214463451 7.52219979173448 -0.887817949348885 0 0
-21.4046949022773 13.580435627277 24.0872751472466 0 0
217.60572946207 -12.5078216962969 -0.735164661488964 0 0
152.466095602702 -6.29940703106862 -5.00462517635731 0 0
65.3187205503942 -10.4722874209486 18.6483806943628 0 0
17.3399530404695 5.97129277532806 1.38107624710619 0 0
205.751439978962 28.4201800031478 -30.1271821755773 0 0
175.083033493067 25.8100090463042 -22.0219160337772 0 0
6.77453137323347 -3.10730301009173 26.0606181375604 0 0
-36.9606353345275 14.1464111275992 5.53643826292054 0 0
198.882716396944 -21.0392771458854 15.4910236834019 0 0
47.8878611454602 14.2739592852178 7.45364038426895 0 0
218.998755307062 -32.7340647340647 -12.8582250877633 0 0
15.9348689690268 -7.86451373920484 9.63031362117109 0 0
91.3061195267912 15.9691647132954 8.59546102562135 0 0
75.5774546046813 4.39160956551476 -3.25282801571549 0 0
181.786306738921 34.0524358995495 -19.9938909401849 0 0
156.938251513603 -12.8803221400442 -3.85455817959345 0 0
-26.7486174519619 -5.31919961860273 21.7088032408479 0 0
-9.17488748738418 -6.70481372374513 21.1512233505795 0 0
126.78406149072 -0.802694198884301 21.5642313133419 0 0
26.0984832113157 -2.15411309138337 -2.9162505468846 0 0
134.398379079821 18.2415667285538 4.75148790452489 0 0
31.3380481895705 6.82752816747632 1.40880460133362 0 0
79.0843263425156 7.60959642965382 -2.26089685555786 0 0
-42.8817391158428 -5.3763080279562 20.1089587233059 1 0
202.585651647059 13.7175500344619 14.4077638557189 0 0
114.541280992953 4.39322515371753 -6.54911041438487 0 0
82.4998907119468 -9.8634439178441 7.22847260618178 0 0
13.0622191348957 -6.73231124952955 5.54477435780902 0 0
174.299950676038 30.5025319264793 -20.8471642096261 0 0
155.842364794827 -18.4504507105181 9.89762862087455 0 0
123.421926661465 -5.86337747488288 -2.24385617251904 0 0
222.014392171113 -26.3071133650167 -6.34865302489818 0 0
133.059183726868 -16.3782804188413 9.18440810661298 0 0
200.329240213688 -2.95458097204196 16.0273724180558 0 0
217.722327071781 -33.9962092426624 -19.4223072082749 0 0
172.733871644485 -5.62677961889954 18.1229211569436 0 0
67.3742743269315 5.12172332714305 -1.95888578166915 0 0
113.299469592518 7.24322402873007 -6.88537205022924 0 0
216.621000254334 -29.4665484569521 0.937175060486377 0 0
-40.4981040546771 16.3854125318029 7.92545059387322 0 0
171.290090478924 9.06823640518504 -14.5594653400835 0 0
17.1783695404324 16.222933273972 13.2772929489368 0 0
179.782141014882 -32.4811172972616 -14.0711270235873 0 0
174.467034026033 -24.4839322269327 -9.02170838681405 0 0
-17.5690940855481 -6.85808666234183 8.03270569776928 0 0
74.8187001895798 -9.10805726511263 6.80448030012583 0 0
207.244153815697 -31.7611041651259 3.33665425207477 0 0
216.759742215303 -33.5668173935674 -11.4801089736587 0 0
173.724368857702 27.7872229542142 -3.93924030884475 0 0
-29.5015994064764 11.6083094324404 4.43722017292111 0 0
103.197333138293 11.2912268492336 20.9662570658457 0 0
168.58319933269 -24.9419605040275 -2.29443356328965 0 0
201.763008427003 -17.1355544874886 16.7437283761729 0 0
183.230681061951 4.93731918772007 20.7042298948719 0 0
199.268966109305 -30.0031455042502 7.62583952006428 0 0
203.663994478394 -6.02879566780911 -11.0032940109548 0 0
190.874860972203 -26.9267469785428 -34.6145347721978 0 0
213.31012052911 -15.8686004835883 12.6124407968432 0 0
161.905137885538 -0.494798066179046 -8.13281609998135 0 0
124.402770079268 11.6504208952494 20.2613883087221 0 0
168.57203966416 19.2005720503505 18.7051131508378 0 0
3.3703095677903 -8.28105902134959 18.3503886689214 0 0
158.322109774295 9.57338083192193 -11.0087869940573 0 0
-27.3059609382148 -5.39724854903238 4.09996099095024 0 0
108.425175789092 13.028603775186 -2.68615041791571 0 0
177.144322660481 12.4240654894233 21.5148638634029 0 0
221.86653321916 -24.5103887087504 -14.5899317558468 0 0
95.7094470005772 7.54920267754234 -4.47196496517236 0 0
180.599921046758 -4.89089241716599 -15.5828556171894 0 0
146.253383501499 7.03594053509715 20.8434623749184 0 0
100.577862346177 5.21800158877655 -5.98044405813368 0 0
196.66145156177 30.1445665421019 10.6328349886886 0 0
99.9416080001154 7.0926195437563 -5.27557797395115 0 0
180.896702371845 -15.7830128120912 -15.2581823453108 0 0
117.945370324494 -14.5186553524966 10.649617789333 0 0
141.865634140375 -6.19868827735775 -3.88027881812619 0 0
191.415923954738 9.62938076203709 -29.5709808086762 0 0
204.937279015386 -38.9552982679507 -6.30559120985145 0 0
147.060463763787 -18.1985915743881 4.51119920368395 0 0
206.927912804636 -27.963214664195 7.30985609497146 0 0
35.6703327606964 15.4699929791188 10.9877605748993 0 0
111.604964916634 6.76667726937983 22.6538871986301 0 0
176.466478619233 24.9816860769519 17.0316648841037 0 0
214.677879162708 -31.2249120053995 -3.02184146578966 0 0
196.656606627645 -38.5020122617192 -31.0701871461387 0 0
179.050128788584 -36.0956733279558 -13.2922413681623 0 0
190.869336226727 -37.9964862893348 0.490223147111102 0 0
185.580123069693 31.1769378963141 -29.2072087393748 0 0
128.728265866021 2.718029926631 -6.35766337671232 0 0
211.983519516831 -37.0926200740475 -25.2334748599183 0 0
214.04606247055 -7.60166524498515 0.829269653711069 0 0
-5.44843886145756 -8.07594372371796 14.3501898533278 0 0
184.245437064036 31.9066378913293 -28.2777196811721 0 0
198.336960282689 15.1216623319212 18.2350340875611 0 0
209.201696636779 12.9000911726368 -9.43753339421518 0 0
128.280236353378 -8.50945599505646 19.0893277190498 0 0
-20.1745304760006 -7.01128191935803 8.77588125327678 0 0
214.728636417579 -26.0709088653668 6.48442592890152 0 0
6.71748060759605 -8.13253757044005 19.6447250983012 0 0
150.77921045121 -1.99821716936908 19.6387954086474 0 0
175.602686050409 15.0763324868207 -23.4136800967248 0 0
197.955397908949 17.0343407072818 18.8971275023972 0 0
165.277094826258 -13.3450874206697 -7.4896798374123 0 0
205.675489164127 7.89309333503151 -13.3426111163025 0 0
136.043117228288 -12.4841471316676 0.621119478829235 0 0
181.796905483809 37.360165781422 -14.243922134733 0 0
162.023953064657 -12.2501549643483 -5.80373419972254 0 0
20.5120597159542 3.1594901010647 -0.0767617485293438 0 0
204.490295108106 -37.3646732243293 -34.1205075402088 0 0
166.302792629454 17.8771775075452 -16.7651765021075 0 0
177.17115133313 26.230854648334 -27.2102709630648 0 0
161.274833798629 -7.86542659303155 -6.14837029676672 0 0
89.6264017706651 -1.25519900592717 -3.40533281313386 0 0
161.429339639344 12.2938249328164 -12.6708989263247 0 0
209.568847239394 -33.2793956173908 -34.6148320455018 0 0
179.22699053498 26.4423017190299 16.7412135264272 0 0
208.406528775164 -37.7621160347841 -13.8612651792 0 0
208.949359844154 -16.9621625480267 15.0075865684231 0 0
198.580981922788 18.390094957306 -35.7970144081888 0 0
-23.6691955749962 -5.38571419210101 21.8344762717105 0 0
44.5139749674988 10.2106320614012 23.4424752602974 0 0
200.056324663196 -40.311085798594 -8.67309787134928 0 0
173.626327217461 -14.884799799556 15.9625293936558 0 0
217.367206495554 -25.1281716034641 -27.3752334202739 0 0
189.690214495978 14.3290950489455 21.4001758372801 0 0
186.699998229174 -9.61337597611611 20.1398008841883 0 0
190.839456523762 -16.2640355719089 -30.5006971677699 0 0
180.510033839175 -12.7444295266859 -14.9073903736626 0 0
153.798605315613 -18.8074269809461 8.72759380886528 0 0
46.7092336706176 -4.59358830588151 -0.127316068208424 0 0
-33.2071019631672 7.25007261653258 1.54305274941182 0 0
160.159356003817 14.3879378405733 19.6265405924918 0 0
195.850012082046 -4.70369895748053 18.7981278704471 0 0
207.463139740307 9.70782866067564 5.63843726449391 0 0
203.36289996252 5.83156946003232 -10.2334157736329 0 0
42.7247844889695 11.8458188996523 22.3660358191449 0 0
127.490260753255 -6.4296453669727 19.9655046228495 0 0
70.3911756279011 5.63578923702061 24.6479149253679 0 0
207.338662706455 4.46994466411956 -4.7167963399487 0 0
173.31100183731 -13.1154417856374 -11.552053549977 0 0
201.27345093085 -14.1419274397049 19.26144748028 0 0
221.360157470086 -20.6528547441239 -12.3575180755279 0 0
121.671396055324 -14.5065128663961 7.66894691154276 0 0
-33.3251194407469 3.47373556491226 27.0870548379285 0 0
114.16548848745 2.17149547439828 -5.71335414116971 0 0
208.627392777221 -18.6729435064103 14.1232678779679 0 0
54.5364791794761 -6.93500207830976 23.1535497671491 0 0
34.8747326451292 1.96022784680234 26.2255882212937 0 0
194.764072212865 -37.8109961891569 -32.9560971392872 0 0
180.819277728251 -24.2692086236092 11.0391456565097 0 0
221.020875243479 -30.7850175815973 -13.182822836969 0 0
54.8787487670635 -2.42507164133402 25.1131336137561 0 0
-18.9916282415125 -3.94007516436687 -0.425060695683128 0 0
-35.2414088823914 -5.24778907135008 3.98502755257817 0 0
139.476044499755 -8.4534037891464 -2.46529830527572 0 0
167.400737397427 -5.68251892574957 18.3781082637294 0 0
74.6703099666794 15.835939006415 10.2692864929309 0 0
67.4074273375675 13.5634038536739 19.6847888872872 0 0
198.049712934098 -0.388701850784079 -12.9587673081955 0 0
-36.353378319387 7.37664077461699 1.43745279929817 0 0
-39.007456704961 14.5393971311306 23.3994066426924 0 0
178.541602154557 -0.194997383537618 19.2314312074899 0 0
194.386169064584 -35.9929364749514 -34.353555198273 0 0
59.3439472250447 10.7559045161061 22.7274999640161 0 0
209.597931277959 21.8252949607462 4.877061640267 0 0
75.9077556526113 7.09083023549148 -2.13055398037468 0 0
140.523840263874 8.27043433423341 -8.58594333593697 0 0
144.999733288997 -16.1008911759694 1.62685263060961 0 0
-15.7235975877639 17.8058712137819 14.2846942772133 0 0
193.012317719886 13.4189120148447 -34.3531914645057 0 0
191.506850397907 31.7594108107417 -30.4041224089423 0 0
