"x" "y" "z" "f" "a"
-18.3038572756273 0.602782373266037 5.81902449277987 0 0
-197.992084073002 -5.55211248338239 -10.8689797664465 0 0
-219.998999933372 -39.2391543521854 14.8825768994249 0 0
-116.314736302438 10.7664007475183 -17.3138817183473 0 0
14.316448838718 21.6821017253155 -18.5367562802419 0 0
-210.283665124597 -40.0991505589129 6.69853567819743 0 0
-212.83757359986 -2.52902402402517 13.297135781445 0 0
-49.7646942801546 22.9916579861326 -5.50102974439624 0 0
42.9985535702562 15.7071929873299 -0.0660768176384449 1 0
-169.840075400966 -14.6365611492219 9.29697651206748 0 0
-74.8422873208077 14.9188574539382 -22.4196487461096 0 0
-41.7519076860192 -2.0818935627773 -15.8977183256864 0 0
-48.3681690141241 19.2388257198929 -22.0334932254777 0 0
-172.032244004809 5.6448531387472 23.4048169648975 0 0
-15.9294068172295 9.35100498592506 -26.4301979381777 0 0
-138.68052301979 -5.12680425453702 -0.0278539312136993 0 0
-20.7981329015305 -1.90363116856135 0.66641235566098 0 0
-166.949477072583 26.1638692311658 9.19102708731964 0 0
-224.324884956951 -48.3141692755924 -12.627648728968 0 0
-235.967003405966 -8.40625745825554 -17.2362790326468 0 0
-182.149153176574 20.9062701556403 23.5945808611101 0 0
-90.7080889763478 12.4432296036799 8.48055681791107 0 0
-30.2969302727328 24.2133241484743 -13.101174535663 0 0
-207.078984137095 17.2830561077429 -15.4565616518962 0 0
-199.520438657192 7.40611429769663 29.9451496624754 0 0
-238.635783782743 -40.2290092266631 11.7180313857237 0 0
-50.3496942133413 20.300784310261 -2.13487411778779 0 0
-99.5305391836718 24.9007494608649 -8.76430791736144 0 0
-207.11265737027 -2.48224477470209 -13.8210923709473 0 0
-186.378960362319 2.49182025283612 23.4967271897845 0 0
-74.0001192055471 -2.75396678126859 -2.00767808761398 0 0
-32.0297285412057 -2.85161826503276 -12.9916085605554 0 0
-66.0413163229763 -1.06963002798401 4.16872766293154 0 0
-232.295684432174 -10.1736686214261 -21.1600450862438 0 0
-63.1020975661788 -0.796799938974206 -16.6887619454831 0 0
-18.8304706597735 -1.81986342894555 -1.08255183239692 0 0
-211.313490176157 36.7271163542872 5.30650335283314 0 0
-239.249707516396 -46.5124048179674 -11.4471551099828 0 0
-225.537643735313 15.1734095361705 26.8866053826721 0 0
-63.0067927795365 -1.89675441645769 -12.5996696317409 0 0
-123.497733391489 18.3988448801765 11.2647390467387 0 0
-16.1853001318398 13.3634065927024 -26.0431288010676 0 0
-247.419907347547 -14.4415186919128 -0.725826235094452 0 0
-30.3450880256273 0.581849081430067 -23.4797773455543 0 0
-67.7532778482519 -2.59925506700612 -4.51832727194643 0 0
-99.7646062342302 -3.11236703270124 -1.30806723364693 0 0
-36.1345620926046 0.313950526753676 -23.0864105452106 0 0
-247.261550623237 -37.688913114113 -11.852539997192 0 0
-214.458724527588 -30.5370485321178 -24.0534669967142 0 0
-148.931463824164 26.1883085852763 1.748172808251 0 0
-16.853535094451 21.1984790534697 -6.67292350786263 0 0
-207.328360999536 8.79958580011367 -14.6101258655801 0 0
-235.582073276122 -11.6283110705173 -21.0823517303922 0 0
-231.763419358967 -5.30951239015889 -4.05568033839722 0 0
-98.6447825411881 3.53445761979961 8.31516472360655 0 0
-193.876669377515 39.4097380901949 14.183735850254 0 0
3.31397438239564 22.359723392348 -16.6743066626151 0 0
-162.452927723178 22.6797739327922 14.7967998906206 0 0
-82.5098571000918 23.9818947408577 -0.991609227241477 0 0
-223.885017933597 -46.1924265411047 9.24309563542368 0 0
-211.393922719913 -37.7425321403916 -18.261097334569 0 0
-196.092884564582 13.7103994115822 -14.2870391283203 0 0
-206.744350117755 -32.6997965367899 -14.8955538627971 0 0
-189.601982564364 -1.94062690001997 -8.91336141315466 0 0
-60.8844234566252 -2.23100297113414 -2.25472194813495 0 0
-107.702926299053 25.962809832135 -0.0357513554887965 0 0
-221.778013022125 5.23921366847288 -6.35055390436315 0 0
-241.04489028706 -35.034786291164 13.1971209696343 0 0
8.45300218544343 20.3117736645791 -6.69849097534998 0 0
-237.780233910026 -44.8212536086249 -15.8418737757363 0 0
23.7584620973717 7.8917778015025 -26.1406548090269 0 0
-203.047252290777 8.27304592759432 -15.6226698077681 0 0
-227.880062392937 16.2298147709676 24.8586390472703 0 0
-128.083552403288 18.5051677652013 11.9563791518183 0 0
-173.079680739916 18.0347548181664 22.1536107914552 0 0
38.0797831751089 21.4035722462422 -13.910454734169 0 0
-2.84426701360757 11.4967190376561 -26.4327945626639 0 0
-231.218686429008 17.6395745855888 18.4868914872487 0 0
-65.3441725394789 16.2420791312212 -22.7604265722312 0 0
29.9623190635716 -4.97826019732105 -8.99038233441582 0 0
-213.606832403528 -42.3004471515411 -16.0237292914172 0 0
-159.620809668689 -10.445233378104 17.3419489513687 0 0
-3.23922900406392 -2.96034458618614 -6.57791424806945 0 0
-220.508153919193 1.67292743483711 6.4699611435252 0 0
22.7486418003389 2.65545235753853 5.78173480780272 0 0
-171.904909657593 -15.9996623219235 9.40134112940022 0 0
-41.0040620015044 17.6717988407256 -0.635665689377453 0 0
-181.439022943853 1.70858507608208 25.4744195751813 0 0
-248.373800639885 -38.3225962884925 -7.18655980426042 0 0
-228.352375043953 7.98233131678097 25.7775535913229 0 0
25.277931182421 -4.95287016730228 -17.8174465894081 0 0
-224.566379409125 -37.4982601521836 -25.0552539025589 0 0
-95.3619762560494 0.613313250093408 -15.3336733146244 0 0
-155.338347401133 -5.93593903166585 13.9060544972933 0 0
-209.760239658793 10.6844249043654 15.6964624592403 0 0
-203.327608988656 36.9359516888208 13.8836845395486 0 0
-212.920844522395 -29.1807021194366 -23.2715326304384 0 0
-207.691461688228 6.42697404597332 27.3627472785635 0 0
-127.041907686007 8.59349680993509 14.6464933166584 0 0
-154.141002687811 12.2761268779131 19.2132021916597 0 0
-124.247155695789 22.2954084116111 8.49916068749427 0 0
-10.4950613541719 0.0511060514352698 -23.7653822481117 0 0
-203.488350001527 -8.23684806271436 -13.618325009059 0 0
-109.857674674995 3.22511144958234 9.52216427024932 0 0
-226.957293819104 7.21516308656897 14.3137960361751 0 0
-64.4910566342826 11.3212773738804 5.37290825700262 0 0
-202.751622244737 6.14569541504325 -13.7497532845086 0 0
-142.603704971494 9.61718643219355 17.1201143827549 0 0
-102.55485525939 2.01270918038537 7.92383711889064 0 0
-71.9190150189645 -2.27251500559517 0.794622626993324 0 0
-110.850137402449 25.6184857907464 -6.26481029461879 0 0
-5.76106611972268 -2.71201056455447 -5.1460194171434 0 0
-110.430918367799 26.1586079010937 -0.519046741093488 0 0
-228.831837033247 -3.14944292530166 -4.80250897782813 0 0
-29.1063235872429 14.3311923576153 0.667339339464301 0 0
-158.872205297476 -7.50684385382998 17.8447067631281 0 0
-161.670671320128 22.802084122583 -6.4118065030446 0 0
-195.92108293621 16.589588494242 -10.8458825553053 0 0
-198.315719357563 32.612855820408 20.5257867087335 0 0
-141.806879929615 19.2218445012713 -10.7464314912868 0 0
21.3932847228892 16.781386293175 -24.4996758278138 0 0
-121.03673139674 8.53127411162676 14.1998201815928 0 0
-194.821875073846 27.4400098635517 -5.33007580565451 0 0
-230.243306375073 20.9887402889328 11.1477121345342 0 0
-208.891869008004 27.5209358775116 -6.77168678271147 0 0
-12.2704419681297 3.71479855844343 6.12681903841196 0 0
-179.018477553127 -13.2346626872538 20.8402543873498 0 0
-64.0928280353466 -0.915348153366899 4.12826752520596 0 0
-27.116331901003 15.9313137784079 -0.662891774362685 0 0
-228.204284674696 -40.8137848105005 -22.9656732445787 0 0
-127.235425221648 26.6985300073457 0.15447925138831 0 0
-217.427519182207 -36.2271641081361 -23.8503460493162 0 0
-134.206110570087 11.5511439216098 16.4461418035648 0 0
-203.926580547049 -10.1206465089475 -16.0095690029015 0 0
-8.53696679914711 1.06464017642879 5.89270199427008 0 0
-233.044044501835 15.5944844208309 17.5720680196496 0 0
42.7832267180423 -6.27033995624697 -10.2977419203639 1 0
-87.7074968297748 18.3104804959451 -19.3018749234745 0 0
-230.776818823842 -23.2503980828385 19.1556494127036 0 0
-44.3104895021998 -1.58730428177338 2.61557051537098 0 0
-187.242354079531 8.31510000520926 28.5025512497349 0 0
-225.762953035371 25.3776785171261 10.5588120176536 0 0
-158.85988286821 -8.72549548645722 9.16631359594053 0 0
-214.19407911008 -15.1825642361637 -20.0174687313374 0 0
-92.4654111522798 0.132022597457722 5.86963044392368 0 0
-217.836095813119 18.5285652654642 28.4305041677885 0 0
-187.969809094326 33.8494590934865 12.0708071590008 0 0
-187.11547077711 24.3075778955021 -5.68786375674082 0 0
-234.917638309933 -38.7567319254926 14.7745265484715 0 0
-158.523064421789 -1.7704381810664 -6.67256967357074 0 0
-208.471809842115 34.7868028941078 16.5979186687275 0 0
-90.0403480112368 7.60318930171544 -21.1277202673174 0 0
-150.132432907327 25.8054276663038 5.30945167821806 0 0
-57.1458899671843 24.346697153847 -13.3456717327812 0 0
-165.62110172849 -3.506357617921 22.2042716303928 0 0
-202.418487990758 0.996596480350882 19.1205386592109 0 0
-28.2180756621423 -2.99550007610801 -10.5683653463221 0 0
-67.4638158815175 -2.23410426079006 -0.242231316024426 0 0
-212.371839197681 -9.33766761790389 13.4629232642064 0 0
-96.892841522853 11.0852537113412 -20.5173618413114 0 0
-177.3325889452 -5.3793882894559 -7.98397704332908 0 0
-237.658229349817 -43.1707089630593 -17.9458127689336 0 0
-207.970504080912 6.67604651889661 -13.293399108022 0 0
-166.225424818736 6.92748846073892 -7.31005199655556 0 0
-225.812071498868 -18.5588840755822 -26.9946342001638 0 0
-175.682459173705 -20.2954871357061 12.5906481694785 0 0
-242.806484392642 -41.5856941828289 6.47308616539464 0 0
4.54295649885063 -2.59735639889707 -21.0024243929859 0 0
-238.265435407222 -38.3835026915096 -21.6585575998815 0 0
-250.908038395916 -28.9910083824648 -0.543279258432915 0 0
-96.6212943115189 -0.924399354364923 -11.6313281933824 0 0
3.7117701710349 10.2946518816247 2.42207077640002 0 0
-28.0570021502876 -1.15456077523368 3.54587788595592 0 0
-216.90758174891 23.0178518791345 -8.82917969948581 0 0
-53.1529942348087 21.4025803001155 -19.1492059891736 0 0
-189.202392854661 7.24021849177333 28.749294553244 0 0
-66.4796999743237 1.61916116025864 -21.6395880549717 0 0
-77.4777975365817 23.6942641044715 -13.1847220244313 0 0
-233.908398692971 -3.50700779682958 -9.00666517596935 0 0
-229.128697486944 -32.4744921735976 -27.2979720792889 0 0
-166.921870949625 -12.4503450539625 9.43306660905292 0 0
-248.973468217222 -32.7481613028757 -11.972744880719 0 0
-191.247138334467 22.6625187440563 26.496406163795 0 0
-119.835550067372 13.0548371757998 -16.5133343246355 0 0
-192.42240599409 33.0689511616372 21.4330164867726 0 0
-177.574509361555 -19.0140707610807 12.1185693761158 0 0
-59.3789731657357 19.9258337856305 -20.5707183983913 0 0
-242.885740623569 -9.02300360948353 0.0943066642242739 0 0
-154.498093712998 17.4244279733697 -9.88696084374081 0 0
46.0078402258836 7.16185461822107 -25.7950352440062 1 0
-152.48677387637 13.9271080838683 18.8640395255767 0 0
25.3573577914688 -4.40830745681664 -8.03939972436006 0 0
-2.97829803579478 -3.32211135056602 -9.23135455464774 0 0
-237.144023425408 -11.7559665292925 -20.2932008354794 0 0
-16.5769289626854 -0.108044057794464 -23.3537055053445 0 0
-180.707852308624 22.1208882631203 -6.34576338455404 0 0
-215.88245553381 -9.4157453374113 -17.7076006776113 0 0
-228.072348625242 5.04918782696484 25.9927889983597 0 0
-62.7932752356197 2.10863466797379 6.1492490447038 0 0
-97.2125435779057 1.19352521038582 -16.247708590884 0 0
-228.863887029414 6.8145571911342 15.6406869135461 0 0
-55.541648741275 20.8125943570027 -1.95373433169078 0 0
-202.336297724819 -15.0233477664896 -13.4654032872422 0 0
-206.086088166773 34.0491765849015 0.30946997000627 0 0
-248.301003619585 -31.7952588127985 5.95393834406585 0 0
-144.604685605323 24.5929267210751 8.07934788047997 0 0
-235.103355125644 -34.3700475734618 16.9075924273137 0 0
-174.475103297954 -11.9882125069505 23.3683470632021 0 0
-206.496279160081 -30.7954568742622 1.10758502966645 0 0
-176.634758280806 12.4243030216656 25.3449429681667 0 0
-222.318842595098 -5.66294363099208 8.7778097115658 0 0
-114.382386626719 12.1662473764108 12.0722267399146 0 0
-232.361966874769 18.7136600085618 10.7144260178177 0 0
12.3838347731098 6.75003480905551 4.91982800634887 0 0
-206.027556065458 23.4603185858978 -8.9385220507901 0 0
22.3291979382868 14.121956075314 0.231882431696689 0 0
-219.019345246598 16.4313924880833 -9.99486622990217 0 0
-231.992010347545 11.0421079396536 21.1580794555218 0 0
-209.478726685567 -28.1105031684274 9.19931646426234 0 0
-243.847689163122 -26.2381726815614 12.9714977946541 0 0
-52.1839742464216 -2.02982954907874 -13.854430081808 0 0
-223.369273311193 -11.8887483409142 12.6129475283648 0 0
-198.409465017615 -12.5414344087193 12.4828102933623 0 0
-54.5705859175241 18.771327960368 -0.229096733632045 0 0
14.0408475652152 -0.939061641095237 3.90872211412841 0 0
-109.736720016536 14.2627785073424 10.66589743978 0 0
-236.252291070045 -4.32923176179454 -8.47143866562106 0 0
-219.013924295957 -20.7678918991121 -26.3154656413145 0 0
-227.193534663433 -5.49228062432397 3.5952446123119 0 0
-187.416036734655 3.30218651368919 -11.0377816355497 0 0
-226.492180115548 24.2019598057813 7.88544379410334 0 0
-70.8154063825091 24.7657055657985 -5.22085577455326 0 0
-123.11866282585 -0.600498892517668 7.98962519099331 0 0
-241.928381769044 -14.4594527395376 -18.6281163574069 0 0
-204.470043215181 35.2316688785677 16.5098455470816 0 0
-123.943976181256 13.2852752544536 12.9471508489599 0 0
-112.942478388457 26.1510773327611 0.542579609356203 0 0
-95.4378330172697 -2.75947474571586 0.135139917802154 0 0
5.84335150214882 22.215084757762 -10.8565370777673 0 0
-5.6482500165415 19.8070434981871 -22.3207687562039 0 0
-225.891707205957 -13.2013954806711 13.019581331361 0 0
-237.083119808425 -47.3674408829071 3.59113687350728 0 0
-197.490942895589 3.0567098204513 25.8756063870978 0 0
-209.888300348699 -21.0169773458797 -20.483277313016 0 0
-141.286808121571 25.3060687896823 5.99840491637672 0 0
-199.147041800002 -22.5174116894383 3.61763087909932 0 0
-230.526133216836 4.31465440039826 19.0848751389585 0 0
-101.734895268345 24.2937454626569 2.87687916735315 0 0
-189.282745685312 5.22460791711074 -11.8460374141726 0 0
-198.938174862445 34.0422385754665 19.1526985792066 0 0
20.2885510245047 2.46751252249209 5.7389441922879 0 0
-186.602562320036 10.9406968296824 28.3063488544942 0 0
-62.5702044267825 18.9429191792521 0.525559759720019 0 0
-0.835348929368375 4.71496500411673 5.91083068057259 0 0
15.6217167187871 -1.41221388302196 -23.5230582605095 0 0
-229.182751834394 -46.0413952568027 -16.8131495610919 0 0
-202.194116899084 3.55683209003499 25.4421291315557 0 0
-212.431181769036 -43.330068109982 -12.9414462854661 0 0
-94.1087640947441 24.5031121182816 -10.1446081144739 0 0
-250.86721302259 -27.4010697377027 -7.95152481420261 0 0
-191.135978722755 3.50775525904424 27.5947815124735 0 0
-216.859286618586 4.72445970457511 7.80369149050158 0 0
-22.8305474186114 0.639263951147096 -23.8003915760142 0 0
-196.034728589781 1.96163006516749 20.8029972540872 0 0
-43.4977666478445 -2.61731472869968 -10.8681088275773 0 0
-214.525350344613 -8.25315522667628 -16.7546034102787 0 0
-80.6892908073841 -2.49033060081465 -8.44561074909815 0 0
-29.8166523857733 -2.91905881129982 -12.364387219269 0 0
-219.860985132132 12.7289910064594 -4.76824548148144 0 0
9.97663813823693 11.9609798746521 -26.3561422549541 0 0
-219.962072685567 5.56144126316559 6.55529602306832 0 0
-218.869425793989 -48.735425798286 -2.02713306364807 0 0
1.90216347911281 -1.82374175742271 -22.2850121475612 0 0
-98.4721230644506 -1.70019459331685 -9.36459102214841 0 0
-218.064833275225 -47.5032191506508 -10.7275153551396 0 0
-154.629177392011 -6.45555727527843 8.10097374998444 0 0
-103.457901691177 25.8998165894133 -2.8732734669792 0 0
-205.613446803415 -24.9534641693529 -14.5213865577489 0 0
-186.330784900061 31.3090637896046 1.68851585309641 0 0
-130.329497796791 14.3434412607279 14.5279609689021 0 0
-208.901559328377 -21.9173680736476 -19.0836819344046 0 0
-203.360525936766 2.3994085045583 22.7504404471096 0 0
-244.897948572157 -12.1177220123562 -11.0760929188618 0 0
-213.817464744374 -23.2166602960492 15.2417117719796 0 0
-188.805770743073 34.1090031653374 9.37307649132714 0 0
-36.6298262688047 23.0052099487763 -17.5163473316656 0 0
-210.97389880932 -35.9390084666483 -19.062362380035 0 0
-205.413750797131 2.77377789100654 20.9629810324168 0 0
-77.7332068704705 13.3745520450809 6.11341353844046 0 0
-129.44339956074 21.4604257252679 -10.6193613602833 0 0
-232.459514099065 -31.4795857540705 -27.0164116360358 0 0
-205.291832074297 -36.9143907141728 -3.37556295994813 0 0
-212.448121140837 -45.4211978749284 -3.74968733410857 0 0
-181.596882517611 3.67067683409274 -10.2873528447033 0 0
-23.8719964229933 -1.54610092826543 3.24920379867138 0 0
-57.1017226697409 23.6733924623908 -5.03440752182135 0 0
-211.660863862 -23.6139551842677 13.1056932140334 0 0
-144.755571813881 25.5863686087953 -3.22065123508078 0 0
-220.627760172346 29.3233343340379 7.29893690430799 0 0
-157.645153422756 -6.32674231198775 -0.669932424616024 0 0
-122.396626819937 12.9691873566382 -16.0683370083627 0 0
11.6935148432254 4.46496653594149 5.81077465042774 0 0
-209.510345908128 10.5633339745672 19.1298679350117 0 0
-147.242443159018 24.1648096766413 9.03630702969722 0 0
-218.918702731602 10.6222369653416 14.1803888214773 0 0
-229.323846911588 14.3582696207334 9.83174194911829 0 0
-26.4799616560126 -2.6144801087083 -4.76777282802036 0 0
-45.7520995812979 -0.62671665246878 4.7274219564545 0 0
-202.553627809934 39.9649149552899 9.08106993442755 0 0
-240.371295907047 -11.632842196535 7.38496548551627 0 0
1.13580662063156 -3.7890487105045 -11.7309356638175 0 0
-183.315254775927 5.65689878379124 26.6568114157543 0 0
-166.396824495652 -18.6239364245678 13.0532987859297 0 0
-208.758921018714 32.7582838122194 0.124080647587595 0 0
-188.324857201748 -0.860698272543775 -9.05350562321057 0 0
-111.997369869435 13.133152840448 11.2016007190711 0 0
-17.7282694666939 -1.82472974266411 -20.9910795067311 0 0
-218.593390485338 6.68298045609098 19.5053207757917 0 0
-100.431480273249 16.7170970463182 -18.68796641805 0 0
-204.449113479139 -28.8788616041087 -4.92734425894742 0 0
-80.9600205315008 7.90770198162063 9.50775272032311 0 0
-219.519059749215 30.5383919906103 9.39106605023952 0 0
-106.087067529727 15.4437168550645 9.88773727515794 0 0
46.1090335800234 14.595335059819 0.983024624643341 1 0
-187.37943288639 -13.1008773716645 -2.61445780464985 0 0
-80.280527492204 19.7670108728017 -18.9096388075028 0 0
-182.78178273799 11.1911545023019 26.8730759475393 0 0
-219.714987274397 -14.1887207025528 14.812577914377 0 0
-79.4934699844077 24.8955268135996 -3.73663112084248 0 0
-186.947778613588 -3.91139700004601 21.3112673948502 0 0
-210.470353712958 24.4596799011037 -9.58496608191847 0 0
-176.062498779333 20.0562496246468 -6.94216177945647 0 0
-74.6982389778106 -0.563731995567215 -15.5287023623995 0 0
14.2424116983248 21.730781013677 -11.3541157906371 0 0
-196.187513371252 -17.0016258721965 -6.3101323368336 0 0
-178.445465927694 -13.2452962317658 4.59835356529199 0 0
-168.161894693809 17.7083393698139 -8.09157277599253 0 0
-225.62738864823 16.718632530062 27.6060300152124 0 0
-164.865637259081 26.5994643226506 2.25910497408062 0 0
-224.341845015101 21.4819058225774 22.8970017476839 0 0
-226.347399864241 -32.8972704964399 -27.2580985672398 0 0
-60.7848654686863 -1.06988599114123 3.06758851943125 0 0
-221.887588070599 25.3880325731443 -1.47193183093292 0 0
-221.844608346143 -49.4287434857825 -7.26268546192129 0 0
-172.686622981792 -17.6271809374976 9.38128031721105 0 0
-209.40697771859 10.8529192998032 17.838912812689 0 0
-173.921082149008 4.26468344161964 -8.18371195550792 0 0
-215.453075129864 33.5527671486158 2.05402296948468 0 0
-222.540450523505 -44.6285755165112 -18.4646903180034 0 0
-72.5422018858686 13.9621410848898 -22.9808265802687 0 0
30.3931709722599 -5.6726342679993 -15.4572959187542 0 0
-48.467198067248 -1.43827094608041 3.90236769274141 0 0
-207.786153948318 4.53798639276927 23.8739315646445 0 0
-173.319237878216 19.4476345214905 -7.27573202261331 0 0
-195.652779479823 5.58480278853103 -12.7675138708475 0 0
-185.300131860333 4.12059100781607 26.819820037499 0 0
-161.858572194254 -17.3432032919605 10.3242402780157 0 0
-133.34863421425 17.7516220483836 13.2328268287538 0 0
-192.717910300585 -0.259567907362357 22.4628504339957 0 0
-29.6351263717226 -0.326448132951957 4.92948532162969 0 0
-60.1707437100643 15.2825408473084 -23.6380724426802 0 0
-216.13285356857 -44.3695285168627 -15.149090049323 0 0
-87.9186815340807 -0.587588391111697 -13.4864078706323 0 0
-217.820486942584 26.7620042200577 -4.5246229469878 0 0
-228.806719619133 -40.6981201961542 14.9391918674177 0 0
-197.983528463723 3.13691744121945 20.740910325092 0 0
-92.9249292297603 25.5536447080835 -3.72312084129893 0 0
-210.924135225672 -33.944363671337 -20.337507277894 0 0
-225.153998132239 -2.30441110673733 -11.5387087623808 0 0
-13.9721757530098 -2.59864012454979 -4.68067747349446 0 0
-202.225621664983 21.9829545405232 -8.37842556709784 0 0
-250.543797215791 -22.1833946554976 -5.98432068840095 0 0
-212.873126870579 -36.8311367478927 -20.3743675768809 0 0
-159.967147228912 -4.94982894669799 -3.85303352540615 0 0
-205.10165881512 9.17143149232037 -16.035405263459 0 0
-219.071717118819 -45.5111651740144 -15.1894413532003 0 0
-64.862048723711 4.18294134624515 6.9194699881414 0 0
-98.4399985708479 0.276386798191293 -14.2091829614551 0 0
12.5888107735787 18.3202193700368 -3.92187049686297 0 0
-172.311348792742 -20.9194600199414 19.2461352125556 0 0
-218.187239558136 7.3402501702935 7.87279231233995 0 0
-104.459669580455 25.5116230672316 -6.25930843953603 0 0
-230.342328749116 -47.6800972767813 -0.742535726818611 0 0
-214.576537922275 13.0442337328884 29.4715844979082 0 0
33.2099060127538 1.42284482406705 4.97170256502425 0 0
-215.041444971489 -11.3577607063723 -17.9467938896041 0 0
-146.769754197514 7.85364704499967 -10.5280987406047 0 0
-219.632601353157 18.1276278802057 -10.9112845775014 0 0
-155.2759866172 25.9600841979189 4.95368481406406 0 0
-0.0971574896051062 -3.86462423223003 -14.4069097965661 0 0
-161.774406756088 0.465085638466584 19.9282124454501 0 0
-215.735693948135 10.1973906086137 18.2103518009239 0 0
-221.706266166568 10.4098264642132 13.0493734988457 0 0
-63.5969077782701 23.2651174962823 -15.7346508263272 0 0
-56.8970661606305 -1.99430314437888 -12.9790023029064 0 0
-215.227426276554 -35.0124884035053 -23.1882684827617 0 0
-201.025080146478 9.2533575910404 30.3534649654263 0 0
-239.732641757784 -48.31986084768 -4.05889218914265 0 0
-102.518828601542 17.914891601636 -17.7127691379435 0 0
-32.6895697765199 1.40003404642543 -23.9038176560919 0 0
-33.0232581908577 -2.20269456453602 -1.38488973280905 0 0
13.3175144000671 19.7311956948123 -6.0773262935123 0 0
-69.307058993574 23.6682880744525 -13.97817402357 0 0
-29.9706540450981 20.9705319886531 -5.45805079199153 0 0
-138.87499571936 9.83205963778064 -12.5717267173345 0 0
-52.1577201452394 -2.30348102012819 -11.8246582563435 0 0
-105.117189179306 10.9666524293114 -19.2090971135197 0 0
-196.316585321648 -5.12512575350187 -10.4957925479778 0 0
-210.213837039463 6.3523442103692 14.2811824743256 0 0
-201.502118059761 20.1295890116979 29.1898246206381 0 0
8.49815197368663 -2.85724628457938 -21.0686342496172 0 0
-192.96262233025 -18.370762131686 7.61739030874159 0 0
-80.6291705487011 9.64342136926032 8.38549258395896 0 0
-101.08657016451 23.2538620140407 -12.0354216429506 0 0
-3.38270970578884 0.489733534414482 5.82851344838302 0 0
-216.544288438667 -15.3754591083748 -23.1134292123099 0 0
-141.033291843604 -5.00990344932486 -1.56335459590636 0 0
-104.582780795009 -0.943263721103869 5.90509528513377 0 0
-115.303104921081 18.7374497490866 -15.0652557206488 0 0
26.9651115816492 21.758707888668 -13.6403253748474 0 0
-211.612027527268 28.8635045946569 -4.01222491078158 0 0
-1.55012320716489 22.1704621561766 -9.66920220982213 0 0
-54.9630156719608 -2.0930707512306 -1.27000592372171 0 0
-182.922308305425 0.919425818353546 24.8319948933731 0 0
-172.414758821057 -4.66578611940052 -7.8783529398959 0 0
-196.571045855435 -6.7609064112196 15.1941194002029 0 0
-194.654819710359 1.38457105858928 20.5024149696614 0 0
-141.347578684325 2.28880296051399 14.0142286431829 0 0
-50.8132689932076 -2.55254498889106 -5.7589479877234 0 0
-191.802239036234 35.1355177892001 20.1471001653084 0 0
-217.25568030553 -47.5188359889195 1.13344537266875 0 0
-178.676783872872 -0.986371378889655 24.5692177210035 0 0
-4.52502335754812 22.3930017052606 -17.9650684900991 0 0
-221.971641658434 1.36666932639212 -9.83028191782534 0 0
-125.650628465211 4.05423623393758 -12.9886650163155 0 0
-115.852960977081 10.7583865635103 13.74971926837 0 0
-96.0281896665588 16.3743886583508 -19.4996960842986 0 0
-89.0212086884093 11.5092164860565 8.7580578780706 0 0
-225.752943815422 -44.6182547012901 11.6533721779648 0 0
-55.8454717631989 11.6677059815045 -24.7086393030737 0 0
-223.088661888356 13.5976995454093 -0.306072315765366 0 0
-193.229018169874 31.1728471691692 23.0991416312588 0 0
-68.3258815011052 24.7229798463789 -5.59166098326761 0 0
-222.897369562134 12.7936345294888 6.77896957960679 0 0
-10.8566465558842 15.0699043322284 -0.674610601321226 0 0
-206.329130963109 -37.4581842524543 1.43931877523432 0 0
-193.753536376271 -5.86663870448547 16.6657663654662 0 0
-107.446885760295 24.6000810789311 3.30489263223771 0 0
-160.392184637908 26.034008238981 0.0127372871134421 0 0
-93.7984488479186 -3.06273907209634 -1.74339943027685 0 0
-100.906982930617 20.7179821296894 6.12743000345426 0 0
-212.955292695008 31.3420036070456 -0.541266017049976 0 0
-149.886227131587 22.3391362349156 -7.3278066309442 0 0
-163.147212139846 -12.4830515721247 10.8127289238342 0 0
39.5888761723118 -6.26650918997198 -15.9758993682049 0 0
-224.178210491387 -43.5850075351459 -20.1104288661124 0 0
-218.830927548667 -11.7402940412432 13.728637882374 0 0
22.9746296695393 21.8353472416504 -16.2390017277288 0 0
9.96591192499801 8.08702624376295 3.90631615971741 0 0
-208.131465579844 -25.4495078347798 8.46836530530883 0 0
-26.0308856179784 -2.93617552255412 -7.13788993033806 0 0
-200.621279699427 23.8084401896469 27.4637201470593 0 0
-221.674729884824 -13.1614938442213 14.4369601241873 0 0
-219.471286941918 12.2782928018001 -6.54384320534795 0 0
-194.911637931367 30.5509811392851 -4.3775775181356 0 0
15.1613264383325 18.4487379657369 -4.09244910711554 0 0
-113.381539433961 10.3700879790195 13.8942966943861 0 0
30.9962083733944 16.0442991104709 -24.791230529379 0 0
-160.015912658349 10.637902858311 20.4123107562583 0 0
-133.359716861145 4.83237001371472 -11.7359309816315 0 0
-135.043096073767 19.8236996304117 -11.3131067439777 0 0
-210.923164219574 18.0589337888001 -15.5782837358898 0 0
-225.772104972775 -8.39007621003337 -20.4334984442435 0 0
-199.094786468357 37.6345878790802 14.5481625287723 0 0
-216.049348042773 7.06652852987717 -11.6687429446767 0 0
-13.3447318102655 1.4195576924082 -24.6333773809091 0 0
-99.6118478561163 10.6783460120973 11.0080518120313 0 0
11.088806892996 -3.4149594471158 -19.9786370098856 0 0
-147.349387911377 -2.67252226625068 -5.98993747690793 0 0
13.848534716573 4.20464291978328 5.94779193396954 0 0
-179.62736938958 11.1566613992795 -8.43527027865746 0 0
-155.010641250031 17.8413638411297 17.4842037267208 0 0
-159.152015679988 -0.245600554028752 19.0226436604724 0 0
-141.064796761193 23.1340465748879 -7.17136629181072 0 0
-102.180869016998 11.8729191681326 10.490668242687 0 0
-206.837164679519 -35.7019889077983 -13.3480016546283 0 0
-208.065720402446 -10.5203336792692 13.0643546284411 0 0
-224.341781767736 -50.5202952765167 -5.468408453841 0 0
-223.277210392243 -33.9786524155483 18.2747270051471 0 0
-213.120947961783 -29.5434282296845 15.3743821790984 0 0
-237.306745853869 -21.0515019866015 -25.2784289311127 0 0
-156.644245105253 24.1265099670407 10.7370299183233 0 0
-90.4233686752242 19.8756755458194 -17.694074543334 0 0
-237.367125757544 -31.7026045512215 16.8324903902939 0 0
-205.902213852151 -4.75792286822682 -13.816853144382 0 0
5.42205289030405 -1.54754362992305 0.459945613917365 0 0
-249.070364124411 -17.2000005462816 -2.15976894363648 0 0
-141.619554306867 16.213648745668 15.5374193646224 0 0
-35.7243265797242 17.9040090818776 -1.30779116885054 0 0
-32.8365139736428 18.4663229505903 -2.21532566425036 0 0
-222.942193863092 -15.9607943153329 16.7822330162722 0 0
-227.132039275435 4.13598432870096 19.267841249936 0 0
-201.362108733533 -17.4515723633717 10.0548772346219 0 0
13.8563956598425 1.3164614439928 -25.1426348706181 0 0
-206.711822072429 18.2751693210381 -13.6510756201526 0 0
-201.061771788603 29.6973177378987 -5.65062138309294 0 0
-126.041054504539 -3.56966910640198 2.22089494871915 0 0
44.8870048150524 9.37834984663787 3.97761414109423 1 0
-9.47864841394382 -2.6130707087787 -4.03891029841868 0 0
-218.808029770901 -15.4858692244517 -24.1433136710243 0 0
-196.743871255303 27.8130199240242 -5.6563979229369 0 0
-210.540782290642 -41.9211736847967 3.94625146802488 0 0
-208.684251483128 -21.2041718587064 -16.7507521791567 0 0
-175.998950918069 -17.255190820479 21.4984163906519 0 0
-206.3506286345 3.80979616345282 23.5865652525542 0 0
-14.2300759618273 5.77817498647349 5.76842956272769 0 0
-203.936021006187 28.4691516085766 24.0370351335488 0 0
-118.453932698793 11.638906472836 13.4190962432962 0 0
-218.351527091451 9.62459437330081 -9.54456416326305 0 0
-209.672565380713 -34.6482052875406 -18.7260443625144 0 0
-82.3717314444395 15.1907672383923 6.09197435341515 0 0
-209.159375706301 -29.7495787297965 8.26509724323855 0 0
-151.190749331096 16.2004189520087 17.5186235028317 0 0
-237.440923757795 -28.4969747081433 -25.6843668750139 0 0
42.5901321385403 1.64168460134264 -25.1672137025867 1 0
-137.663223707626 16.426069815832 14.6160504848227 0 0
-222.732712718194 4.04769306988295 2.949104580201 0 0
-22.427927037929 -2.46127058858744 -3.96078705808543 0 0
-142.163409326847 -6.49373074810471 1.04102952379163 0 0
-44.2447238079207 9.84295289108658 4.1129599007242 0 0
-83.4300225094593 17.742840744572 4.97689513176639 0 0
-181.4957525321 -15.7258186288124 17.524505765912 0 0
-123.510828660118 10.2918852261272 14.3983377069058 0 0
-233.406353449418 -46.4139485328241 -15.3651513902289 0 0
40.6534348077635 -3.56814146996123 -3.01512356095188 0 0
-160.636765278064 8.06772969807696 20.2435661456678 0 0
-191.353069822532 1.8568582498892 24.5792654884848 0 0
-229.946841352584 -10.0538917105775 7.27535048387944 0 0
-109.92079440243 12.0642862008475 11.550373941635 0 0
-181.728079043045 -17.6646541181992 14.1800550384096 0 0
-136.992637629942 0.126226518637647 -7.93807762816699 0 0
11.9533593804981 12.5742666173752 0.976943495397335 0 0
-138.853409091851 3.67885115273887 -10.6261203707277 0 0
-148.442934983011 15.358247393811 17.4070668254154 0 0
-211.650534637876 11.4850853611669 29.303175105515 0 0
-195.42747937793 6.07373250278965 29.6110280302036 0 0
-129.245543600713 10.9840990548092 -14.8356689605575 0 0
-37.8737407024592 -2.9038862251866 -7.63698338105595 0 0
-230.233170812197 -48.7894441942131 -11.0673997476091 0 0
-238.94298015646 -48.8668742091521 -1.42432214683048 0 0
-230.632717146948 -35.3282086397285 -26.01574831075 0 0
-184.6400423419 12.7445284691338 27.2843822470383 0 0
-212.088756196651 26.4823409207142 24.8501086562202 0 0
-160.346614082597 13.5223833759254 -9.1161321508737 0 0
-194.422069128701 37.7712661953631 16.7281390904877 0 0
-231.097047057815 -12.3746460940628 -23.3589278578532 0 0
-73.0033814415297 17.3959452184464 3.29500364838448 0 0
-64.8056004517925 22.0947745010591 -1.81079620758353 0 0
-76.4758244132758 7.49697078471159 9.14596802685821 0 0
-12.1408762259891 21.199861134666 -7.01652605439071 0 0
-201.479102356083 23.9195794254051 -7.66184682015566 0 0
-23.3983032532468 -2.97315935688617 -12.510068783121 0 0
-43.6332170753627 16.3050879427136 -24.1648495746096 0 0
2.79811677291071 -2.92146618000504 -6.2202460249075 0 0
-228.444213398976 -49.0794353324642 1.28295353281311 0 0
-106.253471316514 -0.11251402507355 7.14821673027676 0 0
-215.412694070413 29.7412795637572 19.8595637527989 0 0
-201.348227965641 39.1802188389324 5.34193960462587 0 0
-232.765644635228 -14.1944641274879 13.1847790446818 0 0
-160.150174652429 -6.67659472399665 -0.217102177375852 0 0
-230.479240030787 17.2367810738948 8.50787698793828 0 0
-138.827038194053 24.5793076917287 7.26648335378956 0 0
-47.2687603672106 22.3878462304716 -5.09325297180575 0 0
-234.491348111294 -16.1860793411704 14.6295148952003 0 0
-97.585222165217 20.5817307381408 -16.1080983773421 0 0
40.4800127806826 18.5738763202914 -22.2488657944048 0 0
-211.490339672797 -28.0984070605251 13.2447993571855 0 0
-223.275092744055 21.9576307402416 -1.8714615527524 0 0
-200.605485349572 28.4475716364372 24.5022085340304 0 0
-235.482708455029 -37.1688882112083 -23.7117915805746 0 0
-206.950435361119 37.73330767998 3.96000261297979 0 0
-223.351800093389 25.1508967813706 0.684803289819791 0 0
-68.7303381373182 24.7315836885042 -10.9859236413921 0 0
-174.142477574621 13.0161010810505 24.2870890161568 0 0
-206.317592660758 -32.1008838065614 -0.640476382031927 0 0
-221.216930777387 9.50292553289059 29.5342999934296 0 0
-186.814253466026 -14.1533167031061 13.1304080487448 0 0
-146.729170309728 -4.54055381230364 -3.63233845834437 0 0
-229.744724890828 3.62204047743815 21.2361863067126 0 0
-46.2311743441249 -2.63265406353707 -9.29540041474756 0 0
-170.567548210416 17.9463614345242 21.4968636046492 0 0
-75.040268974831 13.0600019992314 5.87710147388482 0 0
-140.394928632924 20.1451080267757 12.7867830955119 0 0
-243.685135084893 -44.7640053072727 -1.26192894634742 0 0
-211.979728857203 13.657415511729 29.5732152363008 0 0
-135.506357120863 4.17560097988539 13.7407005737306 0 0
-173.380500596904 -6.71993613255822 -5.87343909421893 0 0
-238.646678008168 -15.2013430564576 11.9321448022162 0 0
-66.0600731132177 -1.90309311512301 1.0336401762534 0 0
15.2680809643081 12.4913233361334 1.09335238033278 0 0
-119.986395648264 16.1188540942881 11.691899890454 0 0
-151.329917779746 11.3323374804772 18.6580796386805 0 0
-236.545376556394 -47.2936880430013 -11.4933459716402 0 0
-240.053257372696 -44.9301819419075 -13.6552829982565 0 0
-118.247284775087 9.50301238893151 14.0423581963792 0 0
-182.502616590849 -13.5802207940455 16.9945533514674 0 0
6.62285114866037 10.5092021950339 2.26185134639877 0 0
-188.897982983921 3.69812057301242 -11.317879214933 0 0
-242.558369926796 -10.6721570564722 5.12945537065541 0 0
-188.927621287424 32.6378703172783 2.06861224030552 0 0
-223.350151190448 13.1543864544295 29.8806675693921 0 0
-58.6123418872361 -1.41728503342643 2.11939363538556 0 0
10.8712361774236 -2.10407426814671 -22.5790329477457 0 0
-163.436456423538 -8.87063873234133 21.4311794426555 0 0
-200.102047345844 -15.8314135884461 -10.377196186565 0 0
-202.875928156255 36.1052150966137 15.6621387846799 0 0
-90.6453298353825 25.4349252118075 -5.72192828711617 0 0
-215.889513547644 -42.6626616519777 9.66697295968655 0 0
-199.407245350313 11.6108056430937 31.1876260275622 0 0
-170.646334881719 27.0700166147519 1.47500593461391 0 0
-134.418674299389 14.5971995759049 -13.7062673754311 0 0
-233.359678485299 -11.9291676615988 -22.3599886161235 0 0
-46.2229541560356 16.7297588501977 0.351820738287595 0 0
-166.887595804331 0.382939397724114 21.8760902896082 0 0
32.4739579664305 12.7765063215071 -25.8995810886841 0 0
-216.273845545389 -32.587602246591 -24.5851379505162 0 0
-110.50668517815 23.3073993061869 5.40577139938338 0 0
-48.5019153242554 -2.53600626318286 -5.44208367476363 0 0
-210.5998965112 11.6599087251192 17.6096691110705 0 0
-214.212051686399 -36.3480252482709 -21.764461816648 0 0
-124.209338596179 2.34033424376026 10.8340089024201 0 0
-137.589309695145 0.319986602254588 11.3633830749817 0 0
-217.424869709843 -48.1652285694617 -6.26838184914051 0 0
-210.533652533466 -26.8849049975164 -21.778598150845 0 0
-35.0409464002054 23.642148773377 -9.30301338877057 0 0
-194.78454992072 -14.8192983134624 11.1308656694288 0 0
-202.146187611073 -25.1133788873893 1.58202728601658 0 0
-80.0014219184202 23.077987360241 -0.150170358399114 0 0
-217.548205548046 33.0213864351463 4.96076121310668 0 0
-200.424797967293 32.3185662590739 21.0078446671738 0 0
-58.1656733765344 2.52306181349247 -23.0258222688068 0 0
-82.7009305617945 3.77145018066087 -20.8670838471942 0 0
27.5344981030774 6.62285117316739 5.11944184140498 0 0
-220.107796570778 -49.1097524061518 -6.37187580314287 0 0
-235.288153024555 -10.3330048703132 6.65028029893973 0 0
-101.433112155552 20.7692992457923 -15.3664114105604 0 0
-237.035364858143 -16.4773831167308 14.1998991245827 0 0
-98.9604498038189 1.85250734848003 -16.8495890653182 0 0
-249.322324057764 -22.1764556357251 4.15075032184628 0 0
-232.306029916017 -12.444454262571 11.3544424650796 0 0
-82.7825797714322 22.1966465615615 1.44936195744411 0 0
12.6602180973485 -2.74885776854754 -4.60797136807684 0 0
-215.919335827701 31.4941845435345 14.4512155382696 0 0
-189.606507837486 12.8082305844806 -11.5287473608545 0 0
-72.9841203716056 -0.388816699908126 5.57768540653235 0 0
-243.94926146238 -41.8724886153617 4.32101112003338 0 0
11.0129562726527 -3.37400794556879 -7.1147671900616 0 0
-95.8989127321257 19.0026687767531 -17.7375732513465 0 0
-197.113062283533 -9.44152289187914 14.0359275223683 0 0
-216.992515310221 0.794262922335294 -14.634589320773 0 0
-190.424142202758 -18.3043528019692 3.41636989953354 0 0
-248.10193927776 -38.9359986444027 -2.19198954233042 0 0
-224.915206140722 22.9980509026835 0.863306148219318 0 0
-193.707487259994 -9.29575662661055 14.7908468362313 0 0
-201.775332169499 -5.2368164120598 -11.6902958840081 0 0
-220.797242013593 7.19129176215982 17.7712193887929 0 0
-211.109919022439 -32.3233687331076 -21.2362958948192 0 0
-239.041617836283 -13.6139521998057 9.81310107784703 0 0
-201.589907351929 4.70363951956581 27.262690674859 0 0
-60.5589291019999 -2.47645348683637 -9.62566923015054 0 0
-213.435172819597 29.0503898777854 22.3592517381493 0 0
-198.690855612743 28.4988973474497 24.6703422681032 0 0
-195.522760666971 -10.7765533901129 13.6975914298638 0 0
-89.1255102565854 7.14222191360223 9.74535765613284 0 0
-203.52106825509 23.7672942883458 27.3019232434632 0 0
-42.7343080411227 -0.695709285389323 -21.485289320774 0 0
-194.864616784554 35.3433083145792 -0.0819537794639793 0 0
-237.272412414884 -48.8550066194714 0.367280160347723 0 0
-222.026457860743 -3.81338905522113 -13.2053676784722 0 0
-42.9666008118202 7.40477477745616 -25.3927616784826 0 0
-232.622428527296 -43.5045958354536 11.988403295964 0 0
-170.234457930925 -19.8460627142777 8.86762691919097 0 0
-191.278833238396 0.588793732438046 23.6610231128641 0 0
17.1606582880852 1.07778687159861 5.41825504872684 0 0
-163.070242993461 15.5221017897383 20.5206946225066 0 0
-83.1350259537685 1.24802551902965 -18.3211774046483 0 0
-57.2682966554974 18.4529394193835 0.266270577392763 0 0
12.8787264334658 16.2559222908882 -1.62031445117804 0 0
-85.7138092198339 17.1138578333579 -20.2784077390538 0 0
-209.420128794165 -42.4529243455662 -6.36199767307722 0 0
-88.209345101563 25.4760978663872 -5.19978339921645 0 0
-61.2389728126189 4.17621500353127 -23.4959350165963 0 0
-227.547515145756 -32.3425526413779 19.0783352296344 0 0
-68.2917817920877 -2.20232007164577 -10.8743904938057 0 0
-213.888297850695 -15.4590417847022 14.1692564174481 0 0
-31.856435581153 21.4052328383016 -20.1166187174747 0 0
-60.1947032183986 7.44412051547428 -24.2906749171083 0 0
-165.003458261857 -17.788335370396 18.306803350461 0 0
-47.8550032771528 2.76563688185342 6.37064361725572 0 0
-184.748907984452 9.90423319704566 27.5956929235656 0 0
-110.904228719342 5.229755016808 10.7758003086082 0 0
-240.218517805455 -22.4390007875131 -23.8633582593016 0 0
-118.567688244684 18.3286031618547 -14.842730506875 0 0
-181.073944436369 -17.7734668202282 16.0498942872084 0 0
-223.240653760441 -4.42643917206967 -14.3403332626688 0 0
-217.051939769085 -45.8045596003017 -13.4545430025675 0 0
-137.301430793313 -3.57550308323147 -4.30983723943254 0 0
-107.742459933666 12.4592394104708 11.1355697252294 0 0
-72.5437209634335 0.43235261307195 -18.9816267623839 0 0
-170.907888329069 -2.21927370023286 -8.28646501696671 0 0
-21.5930816721003 -1.99519175491775 -1.71601396586079 0 0
-227.48724228228 -42.6781845366884 13.5195992674 0 0
3.26870546341517 -3.97899053363235 -13.4245274022776 0 0
-229.283479118244 -4.76276645596447 -1.04045923874964 0 0
-84.2295825088529 12.4336256024451 -22.0222554932527 0 0
0.270778306825925 20.9475775180233 -7.10453732814825 0 0
-67.0406305882426 20.4021027520077 -19.4209217189134 0 0
-165.25683464981 -5.9690538318129 -3.05273886747047 0 0
-217.020646521758 -18.7192045542707 15.5627680819954 0 0
-107.959247938644 15.0089438077737 -18.1992006060281 0 0
-45.2052987294586 24.2380185849223 -9.54848219229878 0 0
-144.020491575978 -4.61163077574429 -3.21507219124872 0 0
-221.738150820583 28.2883140495809 4.44185116057592 0 0
-208.323015853052 -36.9829073111519 7.70973590282301 0 0
-236.423386715592 -42.1112998138304 11.6016414347543 0 0
-235.857994113326 -5.81984217236934 -0.468240551761847 0 0
-106.273267734287 9.68322810286268 13.2686358841091 0 0
-237.116970280825 -48.4103411632002 -8.9983258647986 0 0
-213.454767761823 9.87741115207911 15.717623360603 0 0
-181.430490469809 -14.4007807766768 4.08357786381593 0 0
-234.194839317561 -47.5011204970518 5.68497783140894 0 0
-140.018736554268 8.8295697383361 16.5262450601325 0 0
-230.335199071852 4.69707720958776 23.3820418496632 0 0
-78.4266255344822 25.3029292663296 -6.61761855298012 0 0
-246.875853103682 -36.2468026616043 5.44617380737758 0 0
15.5920537826869 3.551978825396 -25.7767622297792 0 0
-103.860402784286 19.8808909222296 7.16318908694572 0 0
-212.854203611172 6.09348420978625 25.5512018993058 0 0
-211.497551422961 -12.2171878977906 -17.0586709152081 0 0
-31.0236892330433 16.1853242536166 -0.544976720968235 0 0
-133.828853411613 23.6334467354527 8.07220706044994 0 0
-55.3935596229418 5.71983225024602 7.10180253935235 0 0
-45.3867778275001 -1.55348345486632 -17.8779415892196 0 0
-204.98521263141 -32.214461885481 -8.376193150528 0 0
-2.2938196392299 18.7246934919096 -4.12634657006013 0 0
-120.060723610614 25.4527522704465 4.0914949162085 0 0
-208.817058586427 -29.9634998091851 -19.3385174322979 0 0
-139.795572125319 12.178732389878 -12.787947175916 0 0
-165.987074386861 -9.95636350878392 6.65358496256984 0 0
-84.2025975370875 0.0395058375543547 -15.6333667495626 0 0
-157.870634560255 -3.84443061402347 -5.16086075383659 0 0
-206.468877458589 -37.057176901043 3.78138772282449 0 0
-246.377803344696 -29.5649577314249 9.75047025156806 0 0
-79.4519579514054 17.7103474550637 -20.5332701829745 0 0
-50.4038750743665 4.06690650118426 6.73153988218343 0 0
-221.426144863096 21.0685084626857 -7.74601967520837 0 0
13.8152023409738 -3.85914031737965 -18.9976762534902 0 0
-148.178766927415 -5.64369921308478 -0.963891288495143 0 0
-38.0554332468051 17.1798181222046 -0.544754402278294 0 0
-188.541787479746 -10.3735082760712 -7.17171585649387 0 0
-193.174964416826 3.171251864647 27.0333490193712 0 0
-69.2415833429634 23.5580547543595 -2.79261870725379 0 0
-182.99145267178 -8.5319276280901 19.4667588821471 0 0
-172.821172971402 26.7147883228304 -1.19699648954058 0 0
-33.1527978465455 -2.4005069467729 -17.0955517879446 0 0
-123.464561251047 17.3381505463064 -14.7008997964387 0 0
-68.4403040309398 1.21367088103714 6.07627175127546 0 0
-56.4077709276936 16.4124950466755 1.50821140505966 0 0
-90.6207789004136 -1.46330643792309 -10.7731300811168 0 0
-209.950908195742 15.8984619668286 29.6301303449276 0 0
-33.9506953825327 5.28860269862881 -25.3110697432883 0 0
-207.967976752781 -36.2890672976563 -15.0596564764434 0 0
-219.404391803308 -5.20407470011433 -14.6396508611305 0 0
-226.580302227139 -46.2764903252645 9.63786021585407 0 0
-148.705718480499 22.4469834418844 11.6326573339643 0 0
-132.733462005451 23.2998776296468 -8.06220099519238 0 0
-186.052250556911 18.7915118221366 25.8259624915444 0 0
-141.604085111145 -5.27221869418033 4.37795246638985 0 0
-228.614731064504 -38.6534854449281 -24.506198004139 0 0
-187.74222686341 12.9241112865292 -10.6945219046951 0 0
-191.346988430087 8.68931827066971 29.657714257616 0 0
-154.05884841167 14.0983602744031 -10.288266356619 0 0
-97.4252973611971 20.1130879079541 5.97638985053721 0 0
-226.056429921579 -48.6306706643621 0.568737303942166 0 0
-144.279932938979 6.09419646804844 16.2606470580762 0 0
-35.3257628153669 -2.80708404624457 -11.9580762972784 0 0
-115.62637574429 8.54155229634337 13.3506434425991 0 0
-232.357726727645 12.7726071293442 12.5271487688388 0 0
-220.375163525665 -16.0926165142259 15.3440824763971 0 0
-139.432211802963 3.69989573836678 14.3564709448512 0 0
-71.4314134812008 -1.26952611988553 -13.4838891242477 0 0
-175.591115483717 7.4115698395799 24.6047167448778 0 0
39.5876054065601 -1.37672613950478 -24.0940062662729 0 0
-232.662277800041 -47.6986807484685 -12.5168008973048 0 0
-97.5922872143393 -3.08387091032065 -1.23312792535937 0 0
-58.9805939381739 15.8601076111092 2.13191775044385 0 0
-51.0023334484189 7.77923622499341 -24.8509726716934 0 0
-118.3751488006 7.92281561133664 13.4026686325053 0 0
-7.57022374278382 5.76870597677986 -26.1911440836919 0 0
-180.433647976115 -17.2904678711242 8.87513705226649 0 0
-205.073236998442 -33.5980475332827 -5.59027741520919 0 0
-129.768363523543 0.884240686530771 -9.76382213783479 0 0
-134.441346486353 -3.2238623013004 6.26485027230116 0 0
-205.380473218657 25.7163763349041 -8.52321852218333 0 0
-59.3222801264844 22.8922183723254 -3.50178025671591 0 0
-179.656214747078 7.22818393822798 -8.9678802535497 0 0
-188.498708672832 -17.6863609821756 3.89548517780821 0 0
-41.9301206262826 -1.85105725855311 0.407085205497907 0 0
-190.914210499412 33.9813553169651 2.65196404963231 0 0
-169.879879010655 23.1814270019784 -5.8389293810229 0 0
-149.631464567133 -5.94911626146836 4.09117713963542 0 0
-43.3568441427195 0.999231542965258 -23.0529495521906 0 0
-205.536744097503 -26.4120822006839 -13.4241288640791 0 0
-233.834127556331 -11.3584829659796 8.42721590722145 0 0
-210.609419280016 -30.1729755371811 -21.3071080478275 0 0
-193.628974848294 15.5827447952187 -11.3323032754491 0 0
-224.986620650763 -50.2486697378998 -6.8573422453009 0 0
-220.319409897742 21.972561941321 -7.99396693606331 0 0
-224.930302348099 14.665504841231 7.79010314389297 0 0
-191.424493613245 -7.85479574485793 -9.19077691181265 0 0
-218.278421894302 -0.607825679265666 -13.4131517443075 0 0
-139.482481407116 1.8145436185919 13.0808860783032 0 0
-233.224543040292 -43.1812718346811 -19.9406107197369 0 0
-192.442617911023 27.3862425278842 25.3735226588462 0 0
-152.314291462348 25.1592854504302 7.68479234956573 0 0
-187.369054865918 -11.7865348851037 14.8147859815444 0 0
-238.02809099816 -8.1223255773777 -14.8982984335799 0 0
14.7913450996466 20.8859944555804 -8.60029562580399 0 0
-200.517009649381 -0.030276192591158 18.5941914481102 0 0
-220.497923078461 7.36348162127668 28.0015111301068 0 0
-192.558694560077 -15.1688681559144 11.0393415803748 0 0
-155.243974226428 -5.50970096842363 -1.81953717450289 0 0
