"x" "y" "z" "f" "a"
-112.414289819207 -1.80074096998066 14.2279829063332 0 0
-165.287127270788 -4.76812687996396 -26.3921137561265 0 0
-144.206204121637 23.079130163926 4.95852388434022 0 0
-209.314127532525 10.837608619275 -29.5040318707741 0 0
-53.2055794079104 -0.326445842750031 23.456128967737 0 0
-168.614053641428 9.80871809657652 -25.8653443511934 0 0
-26.6712652299999 18.2768113954586 17.3703723429904 0 0
-222.774074845934 -33.370201442536 23.3686561950178 0 0
-203.093862689369 5.04764739333745 -22.2045454035238 0 0
-218.238998666585 -7.68892258028637 1.74177297239269 0 0
-214.96727457346 17.6648614102632 7.79277285879249 0 0
-203.691808195317 -45.4746856191737 18.1962316494859 0 0
-78.692875850714 -9.08195877177061 12.9897408864644 0 0
-84.9073213947685 21.16881247478 6.36849911387109 0 0
-44.3382566811063 19.5217934537459 11.4565493456228 0 0
-41.4366865608934 0.345140739182405 -3.31769117799828 0 0
-42.5282918531249 15.780475527169 21.591490784272 0 0
-185.691221684456 35.376903828862 -13.566517078117 0 0
-208.391243669488 -39.5712577944056 -20.8326255901869 0 0
-112.803365478326 -7.42089739243409 8.47276462944734 0 0
-150.147111758592 -12.4682794827672 -27.0090259963418 0 0
-218.190491498859 -7.31145643559341 5.31993747285639 0 0
-26.9222399033414 13.4684488469255 2.99954991284676 0 0
-208.489887458675 19.8785675381392 13.4326077211427 0 0
-15.9487369265521 18.4043193491395 14.8035607195822 0 0
-30.2038154249442 17.1423577465709 19.7956448994914 0 0
-207.542414874388 19.0482860699302 14.2569269360115 0 0
-215.86103626947 -9.47367809162958 -5.28943466143979 0 0
-186.349114700275 30.9682494854819 7.49408138859363 0 0
-143.810832264102 8.6961965383834 11.8852797787498 0 0
-216.139513853713 -55.2007154997343 2.12993951165048 0 0
-216.970099580251 -54.680102171926 -3.04512982559718 0 0
-221.700825231631 -50.6237586409964 -10.6871618886554 0 0
-211.627833195078 -44.8517759592371 21.1423692059596 0 0
-94.3975337412104 16.9831094083641 16.6582384444958 0 0
-203.045900700657 -47.918580863548 15.30589400275 0 0
-180.806922134116 -3.41055127615986 -19.7471904433983 0 0
-2.87039512235192 -4.40610194003752 -3.58441617178632 1 0
-90.7017726980546 -8.55411227670445 11.0509480689139 0 0
-215.564273263733 15.1165209050629 -17.3400181847304 0 0
-154.863340201765 -6.91292154956268 -27.7956334584904 0 0
-202.079682559667 29.7094445824712 -1.59691728292548 0 0
-173.621205676225 -20.5287244767252 -5.63068728979003 0 0
-59.0760619260398 6.49255010854949 -5.77000364435615 0 0
-199.211935377643 -16.2976006716043 16.0355427521488 0 0
-185.486995097474 -26.4341473896082 -1.93572850247491 0 0
-202.821413070443 -2.49591926889499 -11.1625064418286 0 0
-192.861786246165 -25.1520178995832 12.2536147898158 0 0
-197.690888908406 -18.3883214479056 -14.9315401436055 0 0
-199.81192363174 -40.7280050583584 -13.7216959120967 0 0
-199.500944890196 -2.43201815863605 -12.5033742802815 0 0
-99.7926911285202 -2.39553874722816 16.0231611545912 0 0
-112.505889216394 18.5585978844597 12.9652707207716 0 0
-157.890155038132 -2.96862731546506 9.9517743657106 0 0
-195.076706167321 34.6215830181211 -13.3161765590591 0 0
-168.020729832751 -8.5304026881444 -20.5337787749057 0 0
-186.319328910995 2.56877791736515 -22.6381463506994 0 0
-33.306532271567 5.40825041543968 26.4644811446041 0 0
-95.4391150145422 16.3827045235693 -6.33472561215685 0 0
-194.839853069844 21.725291386314 -27.3738800654757 0 0
-175.677585349688 8.06800028841995 -28.8330853247389 0 0
-185.73687206499 27.7085771259503 11.7850748745368 0 0
-216.157637184127 25.5786737998898 -7.00669735046258 0 0
-27.1861389237717 -9.29611397540393 18.2786577825132 0 0
-109.21246969815 20.303665391113 -5.64411392499786 0 0
-203.232761670498 28.581784689195 -17.7864046524264 0 0
-92.815956082127 12.9131979664728 -9.42821234627356 0 0
-84.391682826475 -0.463382730875486 -4.21189150250581 0 0
-183.873904415175 15.6219835113608 12.636993739204 0 0
-219.759837415164 -32.5379566023204 -21.9390109747995 0 0
-126.709158626077 22.2012348037619 4.94704321621937 0 0
-201.434512320104 31.9834144720211 -9.91979333725251 0 0
-46.7192952331707 19.7560135229733 13.3772095277308 0 0
-51.7365379817578 19.3891570485097 15.7741081182029 0 0
-24.5679822913514 -4.65809981801865 2.13680641514254 0 0
-107.280886378094 13.452482236617 -11.2650898689088 0 0
-153.46793152514 26.4280916146349 -4.34406214407791 0 0
-173.759510553141 32.2842212111595 -15.798319643618 0 0
-183.074652030375 0.744309504748482 -21.4779126449199 0 0
-199.407112410545 34.3327141175396 -0.380155096457776 0 0
-24.456538972357 -9.92831929423434 17.1712033662249 0 0
-192.511281076268 4.67562299599442 -23.9757473007932 0 0
-136.619562901897 -1.64135223996393 -16.3215116219483 0 0
-203.985686785211 15.1339723238644 16.9029025824815 0 0
-188.696260049605 24.7816540247022 13.4940207885622 0 0
-195.711897872769 9.70866117129154 -10.7869470128811 0 0
-177.522294530347 -21.5620627368624 -3.03768387098104 0 0
-190.317194298262 -31.4946442430717 -0.288792454276387 0 0
-61.6003218868132 15.6246065671958 0.902815996831696 0 0
-197.125914280941 -31.6761857513501 -11.4688320457599 0 0
-201.201540190651 9.35377922137998 -8.98825280620712 0 0
-44.2045634218587 -8.61728003709881 18.09080521521 0 0
-186.907928312527 29.1343243963004 11.0513734715678 0 0
-96.2002629963928 18.2912680551745 15.0015323158972 0 0
-204.636667842362 17.2281330223206 16.1253787388123 0 0
-216.655288168788 -18.5230411129345 -19.0840715291509 0 0
-144.679050041851 -8.57701244309303 4.75439912787712 0 0
-213.597660814404 -7.31091509407203 -3.61190578893592 0 0
-211.052680632944 -21.9736306364649 22.864064142045 0 0
-201.234400747636 25.5620737803857 11.1736558372889 0 0
-178.077411649822 -17.4878866352242 -13.3235383984269 0 0
-91.1743021763309 20.9990069608225 3.3317333707551 0 0
-85.8405824960459 -9.83800977857956 7.75808360266175 0 0
-192.486785405345 -35.2464951225935 -0.579060708269087 0 0
-194.107520762288 27.3602575729005 -23.5787364480667 0 0
-201.490623424525 33.6343683009119 1.55316578223155 0 0
-193.256991321441 34.5763504005999 -1.61725369805931 0 0
-81.3098396304998 17.8959512110621 -0.305077476216026 0 0
-59.772896374303 13.5427698317327 -1.33822279129456 0 0
-212.836700009829 17.4522232338866 1.6916175775849 0 0
-191.449616234965 -30.7917256501793 6.13779077312514 0 0
-201.879965696042 -34.4361065111632 -17.5781900264747 0 0
-12.9573983676711 1.92000036452976 26.7284418454142 0 0
-87.445698159939 14.1894120205211 -6.39909437213889 0 0
-228.415118563254 -48.1818477236003 8.71637439622958 0 0
-167.134548019046 29.3005263344256 -9.77902886398063 0 0
-222.793298613377 -38.5329354417909 -19.818903930384 0 0
-237.421739984237 -35.3940499012704 -2.87219237336133 0 0
-179.404305251724 -16.5727155041254 7.43877859342339 0 0
-140.739216682398 -12.8773521932234 -8.79372383427067 0 0
-218.442040075897 -51.1287010119899 12.5059347479822 0 0
-160.081127912293 4.24314111243714 10.1056423676 0 0
-195.219889518548 -38.2887881715308 -4.72023606868146 0 0
-91.715072318232 -1.30815176703737 18.1966124256849 0 0
-79.7501284531699 12.3889994454113 -6.72471957721865 0 0
-189.212753130338 28.9049103802702 9.96024421931908 0 0
-199.961545069349 -25.255761720034 -15.3377870990558 0 0
-179.633096207699 33.4517784216399 -15.7141284021392 0 0
-185.195763007774 31.9455085879094 7.49171282859491 0 0
-210.259837072285 -13.0268320229539 18.0372732145765 0 0
-162.640328032744 -9.16845162545561 10.0230196545317 0 0
-190.697348065798 36.9856427130507 -10.2989497062402 0 0
-203.403852026231 29.9314040438041 -2.32040570881535 0 0
-199.816426364827 -20.6927592547337 -15.503436711238 0 0
-182.099032497182 19.7086394196565 -27.7493496125772 0 0
-197.033837897612 8.76159418835748 16.5949246291675 0 0
-134.969082088379 23.2340088574503 -7.10575271847595 0 0
-2.45096449656664 2.16755476582177 -4.09531833472135 1 0
-24.2406310105033 5.45778048330379 -4.69069582909494 0 0
-196.08577714455 -35.147969663305 14.7561892015979 0 0
-157.712981253431 21.7781800717269 8.51905150164768 0 0
-16.2535217906272 -1.72470423388612 25.2271963497719 0 0
-199.705634625387 -48.5245534580443 -8.89980060607425 0 0
-133.174986887882 -9.87386864950639 0.67173472645699 0 0
-100.922136099845 8.24278407191406 -10.9999039663509 0 0
-45.2972085840068 8.16983637881604 -4.41500334709646 0 0
-202.737388621198 -51.4130689670552 9.41258686524892 0 0
-209.723451600771 28.9248915558742 -11.488181398366 0 0
-131.074930751074 7.52489531285661 13.8776602370622 0 0
-234.65941770762 -30.0461035617539 13.2878588112662 0 0
-225.416717001422 -35.6075849810128 -19.2512698014883 0 0
-190.330534608298 -11.8580104865945 12.8236094884567 0 0
-130.640993399042 -9.56325314313699 -0.193380742953776 0 0
-38.0934301536109 5.15273437295874 26.1473375314669 0 0
-211.646436422953 28.3687701379178 -1.77594823573986 0 0
-89.1093975950535 20.2914273033558 12.0522643190833 0 0
-198.27641588134 -8.46246610233429 16.2562549049213 0 0
-75.2162663534179 -2.20731149390389 -1.79888512626838 0 0
-210.139023829342 -6.92978598548134 13.5509279631116 0 0
-61.398241641615 5.2740648138099 -5.34565243848893 0 0
-210.209991503271 -1.20250688142821 -2.11458741514996 0 0
-27.3121246280279 6.96434768471717 -3.65461706370888 0 0
-212.166634016354 13.7772444698784 -27.9843221096746 0 0
-110.889089461392 -8.26057474986364 7.47330236586114 0 0
-58.0657210521381 -9.06137591808929 6.84434175379685 0 0
-28.2648357841599 -7.83967106036417 6.02172362257173 0 0
-178.382535733445 -14.2676053719267 -14.8328816353254 0 0
-226.540129192363 -51.1775537801258 4.31428614631565 0 0
-42.8998623245429 14.893156708098 3.36112157362031 0 0
-178.005271679302 -1.43464360582512 12.0650264428866 0 0
-166.769579512035 -12.3434039953289 8.55842898321762 0 0
-221.109049285292 -26.1070694465556 -21.0272599823442 0 0
-140.733990449259 -11.9332362140962 -11.6675315900094 0 0
-186.219666488211 -3.11893359709562 12.1961284221758 0 0
-167.058247110888 12.1937426265132 10.1588650990973 0 0
-180.822338147409 -19.4314009926748 -12.0622140086391 0 0
-154.872007570225 -3.82298328899525 -26.8974777223177 0 0
-129.920295475464 20.7743191533926 -9.93014299916427 0 0
-208.574414164283 15.5205196827464 -27.1778268649235 0 0
-147.410046787861 20.9967359322962 8.44322432989738 0 0
-171.486572233283 21.8620358512775 -22.9238713756012 0 0
-172.964359333788 -17.8501546396128 1.68110110171613 0 0
-152.56464962387 -17.4157599557793 -18.6090434196206 0 0
-152.991140917508 18.8953729860926 10.164027513562 0 0
-189.370844839513 30.4626792291774 4.71024815208165 0 0
-9.11429598670638 -9.47445658258771 7.59737389739119 0 0
-37.8920615890391 1.81357760367133 -3.40527772301437 0 0
-147.304624713196 22.1496933168925 -15.002674584942 0 0
-202.261502786072 -49.3788825251739 12.6375881855869 0 0
-30.8009869142451 17.2541744917202 7.88593262623237 0 0
-5.71566182772302 11.2703615270042 1.16360325341357 0 0
-195.261873725151 4.95863352193377 14.6078549750717 0 0
-227.368666935494 -29.2932373949904 20.8178653336442 0 0
-86.0374726870141 -5.32148877458263 15.6502168259899 0 0
-144.617418779042 18.5581571024651 -18.5382012651195 0 0
-143.515915912191 3.2150795447762 11.4835809752303 0 0
-107.819473746819 11.7248753825845 -13.275834068672 0 0
-139.938631636313 -5.56658960716663 8.14353332233792 0 0
-69.3642310415633 14.6790532505827 21.3438346142968 0 0
-84.2713608736075 10.6615121823501 -10.3651892493582 0 0
-155.381945761611 -11.8271602619245 0.56576499769833 0 0
-166.200674541653 23.6352459195704 7.92986188680319 0 0
-217.279322856519 22.143882467401 -5.03680205505733 0 0
-214.067920343348 -5.37761923631928 7.93165018060217 0 0
-114.796999857745 2.36483284045836 -10.0605260103814 0 0
-80.558752755691 4.32594493693907 21.9927479183936 0 0
-14.0397767772173 14.6831437785213 22.8765359855596 0 0
-208.497705527727 -10.8782088527764 -14.4368982629463 0 0
-226.807737799357 -17.4987479057902 -13.7225902291103 0 0
-163.245406680055 1.06525895742888 -26.1307357944935 0 0
-135.390632074611 10.6351161215333 -18.4636558682442 0 0
-118.990141054318 -2.20329313298007 -8.27221620284607 0 0
-204.338547449597 30.9001497516654 -5.57118465198604 0 0
-121.290666909418 -6.52644957549827 -4.61650211564993 0 0
-203.135048374974 -18.6902202879967 -16.517733779868 0 0
-167.865764322029 -10.8312313218473 -19.4837785942643 0 0
-209.528352799578 -17.5700538405017 20.5379531680724 0 0
-40.0608512592309 7.08053186679095 26.2136491007972 0 0
-195.562729822284 -20.8273325148968 -13.7710512298645 0 0
-220.280345943585 -18.9202245956382 20.640688220321 0 0
-177.673742615797 22.7614053202434 10.1348373248622 0 0
-68.5069184395869 15.3425623355555 -0.937305425839398 0 0
-132.173803093091 -4.5499160595129 9.13298489830689 0 0
-70.5042603925685 9.09833663783249 -6.74336240698678 0 0
-86.9489382173472 -8.39859251778323 12.2368363097933 0 0
-42.8904612110843 12.8815581994261 0.826209245374146 0 0
-116.595077235578 19.1133583528717 -8.69111463905718 0 0
-229.611840956735 -46.6702686406452 -8.7369228660161 0 0
-33.7443000798277 18.6091626535838 10.7367623678387 0 0
-219.384171702171 -17.6692059731393 -17.9172023594939 0 0
-204.916267717431 24.1640871557453 10.2475606751317 0 0
-196.83757923983 -41.5542587209339 14.0123971150657 0 0
-13.656445427695 18.0849377642817 16.5287834543899 0 0
-185.282045680551 27.5800325362142 10.4834009428062 0 0
-76.278052957901 -8.69767651634 14.1925850940878 0 0
-177.959862701976 36.3666383384685 0.196426509916329 0 0
-231.102163943598 -18.9197296104294 -10.3097095274419 0 0
-165.222344609387 28.7787823007375 -9.20917259823084 0 0
-102.557259809046 3.67907919281095 -8.61728190908633 0 0
-25.2604830150292 -8.373533774181 20.0393546131452 0 0
-77.7723515395506 -9.8937223277471 10.3937621275726 0 0
-138.90655237035 23.7921593560514 2.36919220273863 0 0
-71.9133680672417 11.9834602059141 -5.11711289603597 0 0
-106.439097479645 16.7539186828374 -8.48457207086294 0 0
-56.4087927796769 -7.60291572767753 18.518080822215 0 0
-171.075954559063 9.09666081667065 -26.9406505076609 0 0
-10.2480099997504 -3.58106060198596 -3.44047657471716 0 0
-147.045135493378 13.74789689308 -20.9191273618802 0 0
-93.4930900887245 -4.3950834634702 15.1713135916026 0 0
-135.737775353116 -7.29546547394578 -8.20909846117085 0 0
-234.353098004893 -40.6548158237169 10.1875964977351 0 0
-232.621831257959 -42.1794049878204 11.7981048324319 0 0
-191.224622999828 15.2867894506015 -29.5207044114596 0 0
-200.946980233186 28.0859628113658 -21.326461570586 0 0
-141.982975030717 -13.2665029673084 -6.71527070337009 0 0
-76.3349507418439 10.8660104560351 -7.95425058630964 0 0
-166.146167715695 29.6951596075121 -4.25754412738262 0 0
-207.281569038618 31.0684120717683 1.03381423738747 0 0
-172.642458821038 19.3688028246798 10.4975110517553 0 0
-172.90122883664 -3.84121360484551 -21.6073193908787 0 0
-81.4581361316235 -0.95961012446405 -3.53620715304039 0 0
-160.527123497662 -9.7530689609402 10.0225549585784 0 0
-46.6781497950825 -5.11266110619806 21.2157022958042 0 0
-214.980208693796 17.2482834989728 -7.18133232975091 0 0
-134.732991614738 -9.57589755888597 -1.38405953888811 0 0
-191.93873145386 -32.6272446526388 4.88242457255448 0 0
-221.160995555383 -9.12556363927777 -1.40017488646943 0 0
-118.634904706161 -3.8627440199131 11.6295059662461 0 0
-211.768482902614 29.046372208452 1.9804378136596 0 0
-45.4718260375033 9.87754849440487 -2.57857719491812 0 0
-228.161701508467 -46.1873616644126 -11.2941960210802 0 0
-163.728458497887 -16.4905057828196 -10.9720176365789 0 0
-156.819029853876 -7.2959500023581 9.26550270288189 0 0
-169.007964485269 -6.16066768482152 10.699427835154 0 0
-138.380998549742 -3.07773002240102 -16.872641387159 0 0
-140.920419630955 -1.84367921375654 -19.9075051348868 0 0
-229.403243213635 -40.3306248862533 -14.6678236951465 0 0
-156.704535987363 -17.2598496037303 -18.2858198475842 0 0
-206.682043534949 24.516200640211 -21.1640099477547 0 0
-224.014372316075 -47.1961425251857 -13.91483271549 0 0
-201.023121580515 -29.697879201567 20.939237629853 0 0
-217.72121631064 -11.4052604450599 -7.19737998020381 0 0
-10.6904265500304 5.97740238161711 27.3370942765838 0 0
-180.100284675898 -3.11510756770502 11.7599688495144 0 0
-202.998310819367 10.8603205955362 -13.1512247613749 0 0
-212.227583368099 14.0599164289453 -29.513221561068 0 0
-153.441240673963 -1.65901233316667 -25.6584136621834 0 0
-209.64946609583 25.5125660545797 5.94168685732497 0 0
-192.349398549904 -32.7923689044875 -2.82963285625731 0 0
-208.599721034856 -35.7247875952371 -21.8490576624093 0 0
-72.6405675661806 -9.51096966535987 13.1575657436359 0 0
-203.241832575966 23.2340511100926 12.5749144640563 0 0
-49.9067163300423 -9.98960273544533 15.1450817582404 0 0
-110.417128581586 -5.19894802176149 -4.13157088747727 0 0
-185.262831178284 -8.87737578248337 -15.9564615431866 0 0
-197.059489311607 10.3880336430085 17.5445395930846 0 0
-205.874423406489 -25.2721933390977 -19.2238224002686 0 0
-79.3421191992097 8.50706137027636 -8.77496299979426 0 0
-79.3242112529636 0.178038258022052 -4.19468049014781 0 0
-31.4893869689985 -7.2393239836213 20.6648140426981 0 0
-208.610635677845 27.4948563325667 -14.2182168946987 0 0
-58.0977840020142 0.0743193683946251 23.2504572801394 0 0
-19.1588300766619 -10.2381451434765 10.1159008621124 0 0
-181.46587500978 14.6991488894649 12.2679820105338 0 0
-125.854857559544 -8.80491451989126 -1.83399442700921 0 0
-166.993141773391 25.1327593710304 -22.0362598595105 0 0
-235.94810547861 -40.6324459900253 -2.65305726096884 0 0
-154.545167637189 23.0266342436941 -18.0705364677406 0 0
-213.418746441998 15.4157364034996 4.86389779765015 0 0
-203.925029590462 -53.6855030940795 0.434013029032161 0 0
-213.231887584141 -4.33728949782058 2.87056142095171 0 0
-145.812050821387 -3.65869064931107 -24.2443117446164 0 0
-125.956464627697 2.77007976341009 -13.3471542744158 0 0
-55.6555902366846 -4.22513011706727 1.24865313736104 0 0
-112.161103097186 2.25987528072616 -9.5371806527164 0 0
-190.275169067378 6.65564407571119 16.0886315064719 0 0
-174.665637745024 0.0278266344228147 -25.9446518434157 0 0
-103.223998221732 -0.0954654551332252 -7.45927788397964 0 0
-115.472251192515 11.4992811583291 16.4319527105651 0 0
-214.890987897886 -33.9336659488737 25.0247996732254 0 0
-190.084080257459 20.1237741262725 13.3334518305331 0 0
-181.940372858703 -23.8546645922762 -1.70039689755703 0 0
-227.909227581508 -51.5063106286193 -2.53331654770943 0 0
-190.738773936448 -19.5511880950466 11.9661860017767 0 0
-92.5849065836036 4.85679168083157 20.278191609313 0 0
-182.112306187257 32.8808469597249 6.42616944077141 0 0
-212.388001362529 -25.1839116380139 -21.910190825053 0 0
-187.521296221932 -14.2018149579149 11.5806197891527 0 0
-112.014202223283 0.292088557501108 15.6268477074543 0 0
-174.885121960746 22.4552812840367 -23.8371445171209 0 0
-150.662643542416 -13.1056613168257 -13.1109934403219 0 0
-12.8743372285187 -0.367807254587755 25.9595209171441 0 0
-189.526666378514 -22.3778906876189 9.65629807186106 0 0
-198.113389091261 22.2571340020793 12.0261978969924 0 0
-140.471892462483 24.241401432739 -5.82194401976042 0 0
-154.813879650602 2.92915583640962 10.1959093849342 0 0
-40.125421655862 3.63221818192388 25.8484212368308 0 0
-42.3825071052541 16.9261108016749 6.08846262830266 0 0
-220.162972775781 -32.493061222699 24.2708940137202 0 0
-21.0243795465467 -10.4045550096493 16.20569119961 0 0
-3.64952171031802 15.8217078715603 21.0957746437952 1 0
-228.004560420755 -27.5012191167229 -17.7541087469281 0 0
-197.094872258361 -11.5069792355466 16.3987583492469 0 0
-215.528417630105 11.1633944532459 -19.3402386433772 0 0
-69.9514807499317 -3.57811040341651 -0.241433890787613 0 0
-21.5204614188143 3.79204027420236 -3.85532341167575 0 0
-100.202930671511 13.263419498708 18.161573161555 0 0
-112.81602895803 9.06072290886935 -13.3645419682671 0 0
-211.935464534912 7.72481801412004 -15.3546092358262 0 0
-115.980037648941 22.6162894876434 1.07898114594748 0 0
-52.8620032344264 -2.79016510627954 22.0126179029456 0 0
-93.480485016721 15.1762294020456 18.0891978021518 0 0
-132.774287482739 -1.69615582817057 -14.067669185146 0 0
-234.932798288878 -37.6088902391614 11.4024413781833 0 0
-114.54050255284 -6.50805196827515 -2.85271296345075 0 0
-75.1271200686365 8.05107210714969 -7.58736704814148 0 0
-41.2970083332146 -10.1770028892541 15.1598964360551 0 0
-152.528237496477 18.6094660909656 -21.1809235573674 0 0
-226.031303083942 -10.2251583075263 3.53360004876226 0 0
-202.280756902804 -8.516635188814 16.4626975805497 0 0
-181.055558349962 -5.78695566251699 11.3617715553121 0 0
-102.828384709718 -1.51360206695025 -6.39697552924482 0 0
-30.3162407701701 -5.826690935664 21.9763152974516 0 0
-203.048966431033 25.6611478143252 10.8932661058129 0 0
-210.364763161554 12.0019138083871 -5.24147658829332 0 0
-207.620378986387 -22.8486769551373 22.5217402556389 0 0
-57.864445741969 -8.73042152711949 17.1044170751856 0 0
-206.531820434703 -54.5239035422664 -1.93624319080455 0 0
-110.59829613148 14.1407316481035 16.3956668193186 0 0
-52.6695405179226 -1.37439900754201 -1.49122074823489 0 0
-12.3752098241121 -5.51158717315802 23.4206580976763 0 0
-69.5695724161618 19.0016817882166 16.3962994133121 0 0
-83.9281912255696 20.7183182119191 11.5717283125574 0 0
-147.163723764773 25.2854003631889 -5.37739687661848 0 0
-114.911870998265 15.19428254917 -11.2934272774097 0 0
-171.36851684704 -7.80013252821442 9.91856916822601 0 0
-210.480475996505 18.5922767570972 14.0713794753165 0 0
-193.930403644921 28.5286168945108 5.17237889912824 0 0
-86.0980470122423 -2.48852503737631 18.0407944480117 0 0
-193.935343738929 30.8729206484788 -18.3155298295537 0 0
-37.8650567414803 -9.96604012689471 16.2366274608739 0 0
-162.153754805591 -7.34856586800071 10.645711300542 0 0
-61.1381442684938 -5.3358977912111 2.26432324733291 0 0
-228.956223413369 -12.7992956136266 -2.32199547550557 0 0
-214.311277398464 15.1938233785434 5.5042235725965 0 0
-187.638810344027 29.4244450460165 9.48528376445047 0 0
-65.5729087810569 -10.1561520187856 11.8202246636988 0 0
-111.067394468229 7.92952353753697 -11.3965694493868 0 0
-34.8880465323729 -10.1907174844622 15.4764637855389 0 0
-87.1183225188564 12.6095431636838 20.3336803151331 0 0
-229.335291287484 -31.4851902914046 19.5421307963025 0 0
-214.667286674904 17.6211809094676 -2.83096929368885 0 0
-171.627632772407 31.8136748937244 -6.712085574538 0 0
-199.068284723734 -3.16915361246114 14.5787317092814 0 0
-112.500394335046 10.7537535952209 -15.2205475692873 0 0
-202.242954477782 34.1120023749666 -0.522050252166946 0 0
-9.20024745048329 -0.925683026179966 25.8686220541399 0 0
-82.3539498657493 -8.62056110343396 13.0120453692715 0 0
-199.351614415101 -44.7239134712767 14.8500118855095 0 0
-217.33177206505 -31.7488612623247 24.8690359220523 0 0
-161.887182983097 23.6982861604394 7.38606405626237 0 0
-137.648666128404 -8.37215577397004 -6.40483359543346 0 0
-112.321391761124 4.61848507417024 16.872655255138 0 0
-61.4785924878464 -8.6398811459487 5.84932248106492 0 0
-157.278181846189 -6.27325813029782 -27.8969647069817 0 0
-209.009985440457 22.913176773434 -20.1379174184856 0 0
-236.375224188977 -38.1032918523871 -4.65856994289264 0 0
-8.21408644145979 12.2064265570918 2.2009888245609 0 0
-10.4037563884886 1.3118585437958 26.5478663454474 0 0
-210.019604546766 -18.6715777157483 -19.0098387035802 0 0
-146.105658407311 -13.9079905153068 -17.6634933672235 0 0
-134.682635899046 -7.85058594855741 -5.87004409940592 0 0
-39.1777797215076 -0.796291633271505 24.2607884190966 0 0
-226.869595919352 -26.6886744750256 20.688115320817 0 0
-103.061633736481 -0.739033344331798 16.6920935220469 0 0
-233.431686013292 -41.1971020269228 -8.90240544890533 0 0
-132.515091922579 16.7951438235144 12.3152887951069 0 0
-228.209946929233 -25.2506737200869 -17.0110806914671 0 0
-180.20743245191 37.2185808366187 -8.35324540314889 0 0
-32.4864154599208 19.0503482340248 13.0759929882439 0 0
-103.29080435947 18.9496259918759 -5.71309199705993 0 0
-114.62686579777 13.4012801540558 -13.7280703614283 0 0
-27.5941513331741 -2.52075763676954 24.1491298401378 0 0
-40.2716024182611 12.9748291049809 1.21089435532693 0 0
-105.312259446373 12.5454582096468 -12.195622523366 0 0
-82.4178672952489 0.181011704889331 20.3483189817935 0 0
-193.818473941011 29.7105367010185 -20.0818340469093 0 0
-162.082342670572 12.0201512440452 -23.2491753570743 0 0
-140.739729678195 -8.7673619612961 -17.5735317047409 0 0
-192.749571982558 -36.9759087112189 2.02751410254923 0 0
-175.228916052953 33.7923280515883 2.9615412154286 0 0
-32.3381362391276 18.2368587768302 17.8459272783285 0 0
-98.712413755593 18.0990709474481 14.9428984071896 0 0
-197.371740755117 -6.40202449209438 -13.8309007170691 0 0
-129.17432565317 23.0625810861753 -6.14132354673193 0 0
-181.6141038237 35.7937306399543 -11.8979997922953 0 0
-98.4435909915931 0.818618728715492 -7.15839828071203 0 0
-231.437088148283 -42.0493790642711 13.7426508790757 0 0
-91.2677661526481 1.82370136805856 -6.64487203046432 0 0
-132.561922874313 13.5210264282213 -17.3876576947957 0 0
-191.707200252912 17.9333464233823 -28.9237543127617 0 0
-204.941334827729 12.3221413207636 -29.4052224562876 0 0
-199.026290964832 -50.5006665733347 0.161711416094449 0 0
-60.3491779869733 -7.32652424859787 18.3666893375331 0 0
-94.3795864519031 20.7401024319326 10.8993222140019 0 0
-190.69983760085 1.04764067165601 13.5664620676402 0 0
-143.322331135205 -13.2226421313113 -9.89700137788726 0 0
-232.330481217373 -44.9235254393748 -6.38635274142501 0 0
-186.254517713957 37.7737200271513 -6.89166888951896 0 0
-107.34258757948 11.7719262573948 17.6047582538238 0 0
-203.719534677605 17.8574515227505 15.0113484280901 0 0
-210.020521029687 3.0479808221578 4.27872414132619 0 0
-19.3145651444965 -2.99008818990445 -2.587396904006 0 0
-197.222562782167 32.6775691308965 -5.90099639648199 0 0
-11.947912170081 -2.28647002717823 -3.75398627469785 0 0
-146.731044584956 -11.8843507532964 -7.71711901286424 0 0
-162.630202714145 6.37638208868516 10.0332379137763 0 0
-42.905324790188 18.6325856331845 8.88970288776626 0 0
-192.932336699228 -11.7878808188952 -14.6237990247285 0 0
-142.34192840221 -12.5956375792877 -13.9295110985357 0 0
-161.207783624034 -13.5680349547934 4.63117122279056 0 0
-188.578599647199 16.6070510891757 -29.5536656264774 0 0
-116.982667946343 0.288074401837089 -9.52813343261018 0 0
-149.646078313257 22.3856134320605 6.90658645100794 0 0
-154.645098008537 -9.79708059748789 -28.4373175864145 0 0
-45.3799662148675 -0.461312324848167 24.0151547413134 0 0
-50.4030854285314 12.9827064802708 -0.319347424899148 0 0
-75.539219488237 4.41390886244767 -6.01692119219279 0 0
-205.319684800634 -34.6511195184665 -21.012595015503 0 0
-166.257182545899 -5.61724192926367 11.1008346646759 0 0
-179.567776608997 31.9433535113149 -19.0530795731359 0 0
-207.654830619335 -12.9516535846219 -15.9353426528547 0 0
-153.491414126702 -15.9933559912664 -16.6038471837661 0 0
-237.095905796752 -38.3305163765329 3.44499475801119 0 0
-213.16913192208 -10.3623515294799 -9.80332053084099 0 0
-154.478157687234 -16.7823300282197 -17.9031697401898 0 0
-188.570803781371 37.7124303364747 -9.20883431427167 0 0
-20.3413677326834 -8.45082623905004 20.5757762637789 0 0
-186.914707623539 36.6608538020282 -3.99415873294067 0 0
-192.794196643415 26.9097418108205 10.1223382582344 0 0
-113.392181747622 14.273066968432 -12.0800769534968 0 0
-162.852812268284 22.4728820821452 -21.1055697086075 0 0
-236.615446846055 -38.5800383733809 6.01920872886263 0 0
-182.262356535797 -23.3833100626473 -7.64238506615658 0 0
-233.7904214268 -28.2236545060113 14.3113720824788 0 0
-207.046815870162 29.303849525116 -12.3235339685614 0 0
-30.0122628258463 -1.33288083585171 -2.66930342605228 0 0
-172.542076324888 -19.6265233058828 -3.85502954543785 0 0
-123.825381710665 0.635446582681915 -11.7936032385495 0 0
-139.078128932189 0.433617036042939 11.3951645569158 0 0
-217.165627035296 -9.36377222737266 -1.02051365702998 0 0
-134.642489750411 10.400063255983 -17.3220877889821 0 0
-192.946739141835 17.0347611218077 15.8104714845896 0 0
-193.381274593021 -21.3313338995073 13.811200151125 0 0
-154.984108782711 13.8500675836766 10.6283214592093 0 0
-85.1055415213402 6.78854901622571 21.6079297970569 0 0
-36.0660168972921 -9.5230541156687 17.2422036625524 0 0
-170.548874576196 1.55961737698724 -26.9556646987337 0 0
-196.775629361809 -47.8958634357691 -5.15497747261932 0 0
-217.723039322824 -34.9864866231355 -22.0909615480085 0 0
-49.7299572902165 9.9936111424603 -2.95423847823894 0 0
-74.4056757079136 -9.95002169012092 10.6656816387202 0 0
-175.217047218038 -3.08419328882331 11.6715904474032 0 0
-191.744447882215 -33.1314499925653 2.61286211936667 0 0
-193.335003504654 -37.9789478943378 4.25890462524656 0 0
-211.353950091627 12.1315776742388 7.04070907327579 0 0
-224.734219139186 -32.382742052218 -20.0677897932886 0 0
-2.40525785805699 10.0181815007914 26.4938293371754 1 0
-83.9375874791184 1.04300352687527 -5.69355366861207 0 0
-175.928492937444 -15.9995726199252 -14.4236396353291 0 0
-192.791102157997 -36.941995157983 0.332353860217398 0 0
-155.052879324246 -13.9468829271194 -13.9236557112247 0 0
-118.246922161205 22.8086933983281 -0.143191105601037 0 0
-191.901999742332 -6.78299374683603 13.1625030242604 0 0
-23.045899459818 -2.55310366119889 -2.4213088057813 0 0
-208.363047083467 10.4903401116505 -2.01503049678064 0 0
-190.882494072503 -29.674318292645 -5.23712545888557 0 0
-65.8644643955663 -2.35078838155198 20.8719632303416 0 0
-202.269383535422 -3.18754504579253 14.4534343740266 0 0
-117.979613603043 -0.42399705465328 14.3057309579823 0 0
-113.74591568161 9.9409524360395 16.8398257083352 0 0
-195.453666105269 26.7868041763576 10.5789860117822 0 0
-189.508557460893 8.12461762910328 -28.9480157975246 0 0
-1.93220798610172 13.6059767953121 23.8186609508312 1 0
-161.402932575435 25.1529756685178 5.55458380669845 0 0
-231.314843091743 -17.7117288371255 10.2249491149401 0 0
-200.22724971348 3.53018459870413 -9.62077871340481 0 0
-204.75337212259 -15.2045260774131 -16.2600516578077 0 0
-205.399846964856 -53.4435269480014 -5.07501574821484 0 0
-217.013235667861 -11.4556280551648 16.1560761377375 0 0
-78.6470363904085 -6.1008192124136 16.5088567869972 0 0
-125.255270553407 14.2219231388904 -15.1412043821701 0 0
-198.460974426545 -45.3964984103948 -11.1493353572927 0 0
-196.703973210516 15.1594048876474 -29.2342319644439 0 0
-184.180364579277 2.63145396769578 -22.4730779414116 0 0
-192.483464520171 34.1727744005342 -12.8597114875601 0 0
-27.3869435447795 16.9160309598296 20.0904280811047 0 0
-205.694203398914 -53.3966662149784 7.83718832009014 0 0
-127.320345056167 -9.50870091572807 3.34593449520594 0 0
-102.881161912948 16.4443201823766 16.0140890600522 0 0
-217.294449102196 24.8474522427864 -5.31664801434672 0 0
-40.0944743156161 -7.50847683621298 19.6589878760822 0 0
-205.813131624626 -10.2419409272357 15.743544240597 0 0
-185.713430458352 1.36470959694403 -21.1574420206867 0 0
-205.26170079576 -0.336981383518831 -8.17097770879256 0 0
-173.507689336906 23.7983964866837 9.05792701025468 0 0
-207.882075194016 -1.66018751353743 -6.42661819112406 0 0
-148.740585674932 17.5973409942725 -20.229839867222 0 0
-167.745356971626 -4.17805348084192 11.3380696061679 0 0
-230.004485296216 -40.8979661214578 16.6248859185509 0 0
-210.437327956621 -23.5318301961318 -21.2108668255679 0 0
-23.0820768185991 10.4814741803243 -0.350643072137217 0 0
-40.5930523321714 11.3857919170301 -0.741334656061201 0 0
-165.578328638525 -16.0077724667606 -3.39956056005064 0 0
-37.757750477149 -0.974024740074224 -2.07220541838831 0 0
-200.094520752115 -51.0555784509861 -2.60002202407184 0 0
-209.472518386538 -2.71265143047362 10.2606608693869 0 0
-97.2570791181989 11.6295298328614 -12.0514124114532 0 0
-167.640709070644 -14.6658406856039 5.4659630587037 0 0
-59.9585515329405 11.990648197964 23.6668902393426 0 0
-50.5383537317407 5.1178080500648 -4.99759099832914 0 0
-186.088676337349 -8.13255573011531 11.8496074845305 0 0
-156.326853065045 0.522744433736153 9.76681570551597 0 0
-96.0921046663221 7.25371824169273 -9.29063384049154 0 0
-92.6358895095068 16.41874527319 -5.69845543725725 0 0
-204.804054612093 29.0214564673894 6.30021290140239 0 0
-166.838287092809 -7.58522934116392 10.31289095542 0 0
-209.554827604427 -11.1457815820934 16.4435241275022 0 0
-196.314019800253 33.7736334653338 -6.54620134360874 0 0
-2.8882568368563 5.7386178023958 -4.60829164491742 1 0
-172.655650232139 19.6983921937043 -24.5567978431952 0 0
-18.0012239817434 1.58660564266204 -3.22516550003136 0 0
-221.52866020944 -12.6510332383943 -10.4847283111378 0 0
-28.4663563492557 -0.425398419275465 25.1552072190318 0 0
-59.8387926054972 -1.82705182660442 -1.28297113823925 0 0
-210.234429701846 24.2581484517762 -17.7071308320355 0 0
-214.242382343402 -11.536832082631 -10.9296982357688 0 0
-58.9850231953908 19.300805007776 6.90952559616812 0 0
-126.274605640036 16.0522198728627 -14.1158790391416 0 0
-97.7307003662197 6.74271543747923 19.5941318184325 0 0
-102.846332514816 5.90549431157418 18.6554907791365 0 0
-103.594294304915 -4.37891155937281 13.5594851335825 0 0
-50.6217741196377 16.3113667694085 20.7076978301852 0 0
-105.695995357062 -6.62265985422236 10.706452453519 0 0
-86.9250742582544 -1.49950195326791 -3.68647634607632 0 0
-210.810011794804 27.8671572793507 -12.5549233327527 0 0
-142.183204305073 24.8027543071383 -0.819087283987948 0 0
-44.0105503425574 -9.92166004715002 9.75183855423696 0 0
-204.919871300473 4.01522484440366 -24.0067827920448 0 0
-213.034762974608 -8.62471088024741 -6.81971071883929 0 0
-188.091181427996 22.1841762670783 14.1750421503505 0 0
-161.207308387155 -15.6997650321206 -21.147309427604 0 0
-206.049990016323 29.6098784834352 4.81103290884079 0 0
-139.28717779926 17.1539854590053 11.5250081848056 0 0
-208.716059832332 25.9988111181853 -16.3962163067668 0 0
-156.405555615243 6.07455739485371 10.1500710712161 0 0
-208.390319931008 -15.2214856881042 -17.2069421661356 0 0
-33.887399862496 9.23536172992656 -2.24668107495826 0 0
-112.452018126517 -2.08977267478655 -7.40847217949613 0 0
-197.75338519719 -37.1510666089178 16.7472346055426 0 0
-233.1349228154 -19.6396963527319 -7.31894083976069 0 0
-188.447741062063 28.298862049092 11.519780640193 0 0
-178.953913181247 36.5861429017381 -10.8032134912773 0 0
-175.973441277182 1.16978333610234 -23.8673353305974 0 0
-199.632652581819 32.2438579772172 -11.9415894853028 0 0
-199.847220255352 5.9330370559481 -22.5585637012837 0 0
-161.23368361855 17.5217013118915 10.500336361273 0 0
-169.573737804001 -11.8132655531968 -18.1309567070443 0 0
-183.507658366943 -8.68969615000722 11.2545753552113 0 0
-193.369475423334 -39.5624108534387 1.38973683734831 0 0
-100.147809206062 -1.28008924020777 -6.01617404636801 0 0
-89.7145888117779 -9.55471439984299 5.65667519583681 0 0
-2.31807023725939 -4.24398742779768 24.5431676293512 1 0
-45.5109832517341 13.4723076661193 1.1869246783408 0 0
-51.2171093998471 -10.3890891294433 12.5306671397445 0 0
-228.142208282965 -21.0908504050214 17.4453509228828 0 0
-151.549273015988 13.2772620317698 -20.57587078143 0 0
-106.901250724994 4.89972998431653 17.9104347558869 0 0
-169.224316829007 21.0256557233692 -22.839945997317 0 0
-199.471485922701 15.9109262333097 17.2587609931002 0 0
-205.672786770258 11.5310469690988 11.5138781443713 0 0
-38.9680780602677 5.32679779260564 -4.25943600758262 0 0
-70.1699060613551 -2.15331271220935 20.4487538432961 0 0
-38.6468701574707 -4.30752661612529 1.92342831017634 0 0
-198.035206646217 31.6428302097529 -16.0696443576141 0 0
-137.77845145407 21.0937914864354 7.78772835334162 0 0
-61.04058895883 18.6772975089738 17.1588465926468 0 0
-91.6915697693617 10.4936926507407 -11.2211319413567 0 0
-192.018743653711 -15.7380147866702 13.4657710314022 0 0
-233.347652876535 -39.5247626648451 -10.3381882870333 0 0
-129.627550797732 15.9669335372782 12.9783156294591 0 0
-101.622869648465 -2.92719539278869 -4.76858305125151 0 0
-159.174609223495 -7.26631316267184 9.95247916148893 0 0
-193.736943586873 8.24184658511808 -16.7814149504353 0 0
-187.547146744007 -26.3716295031569 4.15355297755765 0 0
-125.710617690306 1.02515168618391 13.5989323546876 0 0
-90.2892738764943 15.5892538796504 18.258073723541 0 0
-20.1534091302519 5.71576209706117 -5.0315791347185 0 0
-52.838786105857 -8.71157183881132 6.5025769382809 0 0
-124.20680389216 -0.487027335046148 13.2105717284939 0 0
-200.252831244442 -9.38528608585426 16.2116051247365 0 0
-190.593757723994 -31.261356677306 -2.20795547733619 0 0
-100.340094789185 -5.6243857667087 -1.85921650326033 0 0
-162.554948198616 -11.1021049506652 -25.2778714116556 0 0
-155.365251743481 -14.2282670789605 -26.9905132255736 0 0
-117.074749784231 -4.17744544709304 -6.63458540822652 0 0
-188.382434496708 35.3152306475262 -2.33595221030382 0 0
-0.0475347832622174 13.6168057357007 4.42218229265621 1 0
-203.484009662162 30.8593293941253 -11.7974816531465 0 0
-190.724144158324 20.2780484255374 15.028132711403 0 0
-89.3612361258011 -9.75634880557909 8.21905649352221 0 0
-202.481396682994 28.6395257811658 -1.35953853188021 0 0
-145.357391431739 12.4431986739805 -20.4699439458183 0 0
-191.235344559922 -32.5715603817969 -1.79247994954878 0 0
-228.048375897037 -14.4310839899495 10.9263805539763 0 0
-17.250775025645 3.15057918686214 26.9208209134567 0 0
-37.7432796165916 19.3523382057634 12.8054584664842 0 0
-148.303507899648 -8.16365817171872 6.04517405800831 0 0
-234.592560606106 -35.0951245643447 13.102628747608 0 0
-134.174929625038 13.3126157757445 -18.2560849008962 0 0
-57.8992936357165 -5.39840348372633 2.48221874949505 0 0
-173.645710115942 -15.3223246287229 6.61607535978132 0 0
-192.038141078291 4.66304803671544 -21.4477595380297 0 0
-216.290736331378 23.1829639935348 4.23017247882604 0 0
-161.439181296645 2.34301440022691 -25.5718353746229 0 0
-236.055173958081 -28.8870616992323 10.1271891204117 0 0
-90.4572429289161 3.22167316374896 20.282230048245 0 0
-133.623554496469 -0.258873678411617 12.0952020819369 0 0
-215.374044087818 18.8488895727911 -15.3700844223568 0 0
-202.208022699773 1.69894648788723 13.8039961883704 0 0
-131.003345645581 8.38050462533868 -16.0083466639262 0 0
-125.768802047995 9.25136179530147 14.8224141849981 0 0
-26.8786540919916 -1.90755119580331 -0.956644309605176 0 0
-20.1135729947997 2.10645228574367 -3.68802749715676 0 0
-178.198346270093 1.5473452823929 -25.9923618554812 0 0
-86.6809190409653 7.96949169682012 -8.98732067040705 0 0
-144.250785870414 -16.2973576829159 -6.10231743500723 0 0
-143.815761731135 19.6870356074015 -16.7820336302466 0 0
-44.776961275233 1.99588624030362 -3.58061550124275 0 0
-47.1381720088292 -9.88647770146128 9.63114667771625 0 0
-224.758904543776 -53.2183090575638 -0.731196233889897 0 0
-165.125960077787 2.91554987190972 10.8008773371405 0 0
-162.197109439243 26.7430630892575 3.30418660512572 0 0
-204.991988375847 30.7241731268501 -9.92457233586802 0 0
-150.866371440484 24.6662459534885 -10.4112189918872 0 0
-101.270344982906 -0.476990473572896 17.1766612187887 0 0
-192.561597612532 14.8828574301364 15.8739068137013 0 0
-169.710111879991 29.8564530142822 1.23683446888015 0 0
-213.756548954739 21.5526477831139 6.79445069321242 0 0
-22.9680677420628 -10.6018243793049 14.8241778915042 0 0
-181.855413998371 2.69863591318641 -27.1519852931384 0 0
-22.0281135025693 -9.54094344967103 18.528017989003 0 0
-226.018978602938 -49.8832445519413 8.16278017138517 0 0
-141.886123014779 -3.91844476307289 9.0392304508854 0 0
-39.5967680684832 2.75133953613584 -3.4494371165723 0 0
-220.812067645164 -48.3794140799267 16.4329320574559 0 0
-211.275648844692 -40.3731054496019 -21.0415658594243 0 0
-200.978918887027 10.9798020988214 -10.4179255764513 0 0
-208.838449521789 -33.5784982094192 24.5832480459144 0 0
-153.955533859566 -12.481322229062 -8.80494442670342 0 0
-210.015765801294 14.4817104919725 -26.9854397375462 0 0
-207.852933324546 28.0265590598891 5.2494365770133 0 0
-200.470316042048 17.8335447217311 15.1712329487096 0 0
-59.5479893724581 -10.019551175779 13.6256176380765 0 0
-105.522706872271 21.9433648740104 4.32001417958114 0 0
-226.383321210876 -48.1951604896084 -10.6133262478302 0 0
-165.490208931523 -17.3219916343613 -12.1846297192989 0 0
-67.6221292575367 13.4201634036848 22.2746482594954 0 0
-91.6307307820249 19.7877720897179 -0.0106314782114221 0 0
-47.7222864797815 16.5988571571918 20.4270211618352 0 0
-196.406080794829 -3.98217848937598 -13.5078115169408 0 0
-110.784953436272 -8.51201026521037 0.875864696951442 0 0
-205.121405623945 30.319024908792 -3.42493520402589 0 0
-214.334634883663 -43.3001431968922 22.191795502158 0 0
-147.271298125337 -15.4005733489745 -8.69712126481485 0 0
-206.771499373315 30.1611451845203 -8.77486444447514 0 0
-134.039637062366 21.5958537987415 6.63925456847623 0 0
-206.45005611117 17.5179861661112 15.5721389828267 0 0
-8.2613625219134 6.42861707270708 -5.10535206735447 0 0
-73.9120780024125 -6.09324244018254 1.89362977225498 0 0
-237.807736035456 -31.6439096134423 4.87641026242196 0 1
-219.698334336241 -23.4745138274869 -20.7367734569785 0 0
-200.468166260411 -23.7652013859071 19.0215581701883 0 0
-94.2752666108179 -7.71431954188277 11.330193477454 0 0
-194.989262290591 0.938867749614778 -13.116352415979 0 0
-184.868758305635 -24.7592579785384 -7.03493006141539 0 0
-169.313794425534 -18.8719474903671 -6.26681335675561 0 0
-193.4735819858 -32.763041854788 9.901006629883 0 0
-224.939244852793 -49.921842639612 -8.92466758330043 0 0
-114.333001804549 5.33415759570117 -10.9004618229195 0 0
-214.413587617382 -22.1377665663587 23.1457077866078 0 0
-70.7023971646285 -9.61574939284708 7.13031260600949 0 0
-77.0345576558282 15.9417717600518 -2.22453064100819 0 0
-165.396910833212 1.52739377406959 -26.4054391352465 0 0
-164.094573512621 -11.4226623884245 8.74394914021232 0 0
-225.187364173464 -44.7137588111159 17.6322107752635 0 0
-125.614172982999 -7.96246897373168 -3.34718299265752 0 0
-215.868424866091 -28.7236957965669 24.8269565357927 0 0
-214.632047541277 22.796318232754 -13.6504646068716 0 0
-194.152510922227 -1.10370470521643 13.7916993344468 0 0
-59.9901824270391 -3.32860952633333 20.8946505109803 0 0
-197.374354401843 8.93939772013502 -27.3378850124347 0 0
-216.095793883005 25.9542286862455 -3.52993614638841 0 0
-86.2087004724225 12.3703666197759 -9.90331316630859 0 0
-161.610751424074 -15.9591760115666 -22.2659709977321 0 0
-1.13877234101439 -8.47187439297276 21.5398640739167 1 0
-167.000247384716 20.0635634216952 -22.8387277810745 0 0
-217.285710371863 22.7333254492648 -1.64289228049795 0 0
-194.57166951358 8.61854107101704 17.0882339026678 0 0
-186.096286191553 -1.95136321288522 -18.5053231320317 0 0
-235.76008799351 -35.9784924756058 -7.86991381577894 0 0
-153.761155137253 -7.03485210558675 8.50374520702681 0 0
-33.2879766229865 17.0667248798914 19.9858030262776 0 0
-106.25409330449 10.4572795219726 -13.3038461295627 0 0
-183.345004623999 -18.6144088305719 7.91247308344318 0 0
-217.045026545742 -21.9418053167895 -20.7353239243769 0 0
-130.649182094257 4.68374324410647 -15.0782289006037 0 0
-90.2364430129127 -3.29060925634524 16.7339364143748 0 0
-161.8817663403 -14.5107446570291 1.82459180437793 0 0
-116.348786030392 18.8951428408726 11.9734714631125 0 0
-101.280817124545 12.9217787146751 -11.230279511277 0 0
-41.890956975206 -3.87142531066212 1.35043542139889 0 0
-34.0107477199612 16.350089985135 6.10116082628553 0 0
-62.5798948716468 -3.50692935033448 20.4791694417277 0 0
-188.620267381712 6.69873118893371 15.6174211582307 0 0
-215.303527511968 -55.7227792250808 -1.64415112471016 0 0
-64.5839611604077 6.12470275726249 24.2779847398582 0 0
-189.691690264716 27.0646714648139 -22.5231543498356 0 0
-215.709458942559 -10.6604888741533 -7.91022836120404 0 0
-108.048194108042 -8.9365323434571 2.24837666424405 0 0
-94.9327147207869 -1.92123139964461 17.2029290090438 0 0
-108.761561272829 9.88592224954724 -14.0777718905003 0 0
-143.820585508436 21.4580782837186 7.57916904857302 0 0
-230.039154361167 -23.7889986128745 -14.837808396198 0 0
-62.7572992340385 -6.99790289682097 3.75022945306499 0 0
-229.114563839797 -49.8980314391091 0.393581950352097 0 0
-206.654923340914 13.0653515337423 14.7223767924097 0 0
-222.290926975382 -48.8633740781486 14.3075131837825 0 0
-206.353637335716 22.69244334939 -24.7547086621623 0 0
-152.436496465959 -8.47578359540762 6.8714634632121 0 0
-134.087039437211 6.53288050011203 -16.9537403681604 0 0
-193.889815945943 -38.5240409721661 7.16046457743285 0 0
-212.570382954388 5.16625661062574 -24.9268848218768 0 0
-226.908982204881 -11.0332561152719 -1.23552215684896 0 0
-210.977841386945 21.6936930087754 9.49693575252076 0 0
-3.5261610229323 17.4908364378004 16.4018855491644 1 0
-91.5239915399391 20.7703102830873 10.7641005699744 0 0
-174.836322087746 -20.5458358910219 -3.4752280610918 0 0
-123.001691233396 -7.49535482360496 -3.4517774645485 0 0
-96.3361927666387 14.7396033868199 -7.55795275718031 0 0
-38.0579016681493 -3.10487810161469 22.9449902331625 0 0
-128.213817306398 18.3909135627973 11.5438888422919 0 0
-233.413132856999 -42.7703080579439 9.38930456570982 0 0
-223.295745705049 -52.1048124214509 -8.5104296446872 0 0
-48.5587319461108 17.9468313195322 6.54918148727674 0 0
-157.136405389948 -14.8194952192372 -15.0585299118187 0 0
-151.836108882199 23.8943382287945 -12.7798919391959 0 0
-134.774684279991 19.3606180172508 -13.7129212994484 0 0
-24.2886569390687 15.3885642824309 5.53029792498266 0 0
-5.99435184792976 -4.50377968189454 -1.26128691737855 0 0
-39.8239209648456 14.5741075654238 3.32630319267941 0 0
-51.0343550392687 13.264013189877 23.5370064011917 0 0
-228.674283432534 -42.8976538899278 16.3900926868473 0 0
-32.9368573370897 11.9939952308672 0.680466745582067 0 0
-182.853067804755 21.7383698976048 -26.434763361826 0 0
-140.128088891639 -9.95242503173065 -0.897145024040827 0 0
-50.136602958914 -1.83060829568696 22.9041826203185 0 0
-9.06908457978606 3.0222516143886 -3.94870483713338 0 0
-130.901061398064 23.9543849614917 -2.99606781564273 0 0
-182.264750945978 34.3043495737563 4.57702348393362 0 0
-192.511889262325 0.85205991781783 -14.1995708204384 0 0
-38.5442705709318 9.16635580965393 26.2016802813433 0 0
-28.8424228821479 -9.90837658644919 9.2828143640324 0 0
-210.787656476698 16.3929387316143 14.1013104282381 0 0
-221.769746904055 -52.9324136240649 -4.36073978752356 0 0
-192.838332730809 9.46271708624557 17.2884735496692 0 0
-87.9773499006451 18.2520699044976 -1.76707985244396 0 0
-186.22006884629 31.8890376408343 5.83027309435472 0 0
-23.6849484413917 1.07699624894106 -3.22769996259158 0 0
-49.9189806587307 19.8691063258633 13.379627428922 0 0
-208.126624357577 -8.76195822584457 -12.806014468669 0 0
-187.499634977823 -28.0564181537178 -2.01589316047042 0 0
-85.5839493375035 9.18733745765503 -10.1706079162552 0 0
-171.168560770267 17.8321160570781 10.4573763520817 0 0
-168.823837945204 2.60938272816659 11.5675117472679 0 0
-142.914771096675 -11.6823592072582 -18.2453858414893 0 0
-90.9271242117204 6.9193981338805 -8.56958073520492 0 0
-143.306308780009 10.3271068444205 -19.3828820327944 0 0
-204.495131654602 24.365119243285 -23.6693583805055 0 0
-150.327773848276 25.749501998955 -5.73566272308666 0 0
-16.647890033314 6.11364946377902 -4.57367792146171 0 0
