"x" "y" "z" "f" "a"
-21.9178229327995 -6.51130909954637 18.9703413877988 0 0
213.207075360425 -3.66910970555265 24.409718916155 0 0
171.684082158554 4.44853431783943 26.9302892826765 0 0
-24.0537295791314 5.46688778985041 23.5905068474487 0 0
208.418696650429 -45.0974493575062 -6.92275718757817 0 0
-38.2339655124242 17.3408505515187 12.6098639925286 0 0
20.1518425757966 14.1634553475587 6.57158550415964 0 0
210.667222139294 0.593367599065074 -13.9823588106258 0 0
151.71676334033 17.7046519976087 -1.37690654588094 0 0
100.841447705908 3.52851334716636 -5.99371103645141 0 0
-77.8117638072922 17.794709132263 -0.448386196321092 0 0
185.831518877184 24.4926562198505 21.5024152759325 0 0
207.989834074469 36.3405105268644 -29.6067078678317 0 0
230.176067103732 -11.1722754220905 -28.2428034788851 0 0
211.840751285512 39.4171535128263 -0.588500020139341 0 0
220.591614001201 -2.61967380707743 20.3196350448976 0 0
213.672711276305 -0.771909221578823 -9.75406459748299 0 0
40.7550517588387 -7.61769408768127 0.188952725361521 0 0
239.886253571518 -24.8087474445316 -24.4015233915764 0 0
225.537447798478 -30.1583826321347 10.4310302124025 0 0
-25.9835820356951 -5.75410120743306 0.63038766988067 0 0
198.059039197073 10.6112417090533 -27.4433731885189 0 0
147.340888785949 18.2758322265339 13.1387264655322 0 0
199.233361740235 29.1167543825578 -34.1927382758412 0 0
-95.7391946868541 -1.99740096775136 15.7263685730052 0 0
24.1858859658648 11.9962535210932 3.83991476889232 0 0
-42.8790888679863 -1.31193959582718 -4.72850481056 0 0
116.591985438349 -9.69639470730538 21.5835516731803 0 0
207.302302775239 -37.9968194312344 5.78819816509496 0 0
204.949466329192 40.3683378488944 -1.00582894410632 0 0
104.288024963204 4.98617998437435 -6.07027304446465 0 0
-92.9158104763194 7.19841786763192 19.3535696818206 0 0
157.173453718941 -4.92698955986321 24.5211968198145 0 0
237.729478205219 -12.1315888907795 -1.84600302782477 0 0
211.498385065468 -29.6696763820223 14.791330359478 0 0
216.438500328362 -42.079771160814 -4.35618341993136 0 0
241.772493909806 -23.6197411429959 -13.5702176308021 0 0
193.332781474102 1.19173486747511 -13.1831367229524 0 0
222.416352755711 9.72990198649338 -14.3794925186261 0 0
148.814398237708 -0.513270136364437 -5.50093655328487 0 0
220.336384970884 -41.434289830617 -23.8391670492787 0 0
114.206896708335 7.86530946300191 -5.86277733176225 0 0
7.9721546871993 -0.847283602141884 23.6219111730706 0 0
82.1890871196088 -10.1304602497422 19.9878991905479 0 0
173.237503975322 20.8812027906308 17.7967728400241 0 0
149.554192588685 -4.19846977227583 24.9298661743365 0 0
-25.3959054335293 16.8482275408499 12.0760761733088 0 0
163.384488597623 -19.6308690677324 12.4813007803298 0 0
-83.128744123743 12.9616081937886 -6.36500062208131 0 0
201.990462080936 -17.4041400642726 25.4188638532194 0 0
217.622795758697 38.1492542642799 -20.130402960765 0 0
-34.6178464281861 1.41682118749168 -6.31681774094742 0 0
107.552912987511 0.757942023349459 25.7817411314745 0 0
193.382664975038 -14.380573968329 -14.4211875894387 0 0
84.5610442252149 10.9043285002307 22.0906961011721 0 0
44.7737837727172 11.6971154903127 3.66782356545465 0 0
62.1489031625488 14.9663824787457 13.2793671559437 0 0
189.8622053483 36.9683805798726 -13.7127084321541 0 0
222.065558442439 40.3844399259467 -17.1952352528507 0 0
182.163111060439 22.2022793718468 -15.1973182617415 0 0
115.078353915406 3.86732483278856 -5.96430498315378 0 0
-58.2425540617719 -2.15384580949987 19.9405278983702 0 0
234.588489736791 -34.1570131418101 -11.9214777015538 0 0
168.960198905485 0.555301239050338 25.9676737063624 0 0
200.760149119898 11.2582284118403 -27.5735189685407 0 0
180.702666151389 -2.14216576564185 24.3995818143772 0 0
-2.06651077125476 10.6560041889562 21.4844923386812 0 0
-77.3554633002373 -7.96739252397722 10.3146918595783 0 0
-38.6037780644885 -5.96065013390066 1.67885752095143 0 0
234.021096675941 -8.88144851440415 -6.47295948438035 0 0
226.308966131318 -31.8186261551155 7.52402542454666 0 0
106.144207671863 10.1469340661035 -3.585770805143 0 0
172.713557364458 -1.25680641126414 25.1783474539266 0 0
-24.0883311278619 0.633171037924427 -6.24983373493347 0 0
233.181818776128 -35.4788739890941 -8.47235246046562 0 0
186.863237780518 20.4629419330422 28.5596427420081 0 0
211.679086168617 -12.0112670852204 -23.9254345775177 0 0
175.536789720641 -0.365051884640508 25.3596122704154 0 0
168.579708584952 -13.9405971819753 20.0345111776191 0 0
227.337188979059 13.0817532004226 11.4190601821992 0 0
186.180237441519 12.1604826685064 -15.1711809458108 0 0
156.295403706759 19.7683766709127 3.6457654001945 0 0
-91.5811394637632 1.95196112595123 -7.96285047883194 0 0
215.358756710149 5.9241832880297 -12.4709571284803 0 0
182.499711886649 -14.7149940455613 21.1517952266048 0 0
180.667274670246 25.3799536022007 11.8676788321292 0 0
173.8050522222 11.3840045555575 27.5779282003172 0 0
212.584152709615 12.6351757645477 32.1808733659225 0 0
41.4941319981308 9.54436731445209 1.05823532485382 0 0
187.266117553306 34.0158815832063 -5.22601939090114 0 0
92.3129421857964 -5.60167334758526 -2.05025712525132 0 0
122.215969845335 12.6112553846163 22.0547750796146 0 0
-54.6542664859076 10.7029299243764 21.0322739201479 0 0
-23.1183294271272 15.6555619956844 16.1352674983131 0 0
3.92795819363101 -3.59359922637368 -5.39931201636241 0 0
102.344870770378 15.6694385038261 12.6578479821919 0 0
231.800136147198 -34.4594081528926 -33.257803936347 0 0
171.571046805258 -3.02480410675783 -7.27933844654808 0 0
24.9776516808425 3.05296579937555 -4.51049781600718 0 0
222.535490288925 -10.4879715674238 -18.99356881208 0 0
-44.6263786483547 13.9313904097268 18.6445406340729 0 0
27.6156868155386 2.52573384930252 -5.28691136135881 0 0
-65.7399749051524 14.9019380884587 -0.724983727054467 0 0
18.1845832298306 -3.27016706362908 22.760100757184 0 0
129.323744500597 -1.66155476098872 25.7716537010567 0 0
-84.9550916842819 0.434539544814188 18.8711871286265 0 0
20.6806482213621 2.57715194228982 24.3097323686058 0 0
215.099012110207 2.05814732678765 -7.82969216310697 0 0
196.499969802604 41.5007186468239 -8.38732948849886 0 0
114.398224935764 14.2483716044097 18.8358498331908 0 0
163.981643035843 17.7200615497563 -6.51358080121997 0 0
174.631664135949 -15.6082661066618 -9.89396352099879 0 0
27.1120610796269 -0.746342691520197 23.9075906200717 0 0
-102.201941071655 8.20820313584857 18.2125694877585 1 0
171.848411758114 -21.6126081995208 11.9723509126457 0 0
227.117672605065 -29.3878956574481 10.5539266272137 0 0
161.224506372846 20.7597178450875 5.91052634312225 0 0
199.893838125524 42.5611943235987 -8.91080071493995 0 0
228.132676996276 21.317433751936 -26.4016819843416 0 0
211.158252851025 -25.9793584600603 -39.7770167347332 0 0
193.911947042894 -19.7402233113782 21.3811500539171 0 0
90.8391116298567 14.4805414484936 16.8223643772764 0 0
89.8458586536602 -4.62706766910536 23.9149383541102 0 0
202.536727441495 14.6967437039527 -32.4515289997726 0 0
182.099876703096 -7.39479639818849 -9.09222572845536 0 0
237.600552852061 -32.1753275928352 -14.2118541610209 0 0
206.15147498387 38.110332408683 3.30321662663099 0 0
166.124845929487 20.7584666871547 -2.55336177507169 0 0
210.761444868447 -9.51086943785484 26.5727066114245 0 0
-77.5667463586539 6.20389735721619 21.0979392949848 0 0
-98.3172451366648 8.89288109364539 18.3421639779772 1 0
162.54263639547 12.5393417231887 26.1369673458021 0 0
-81.352705322139 2.445636941178 -7.98359002326494 0 0
109.660094475124 -1.11503211766913 25.5397686331615 0 0
60.5750613804622 2.2650501671732 -5.61866142725544 0 0
-85.8937110403456 -3.91589733905927 -0.813659006282199 0 0
228.046761667566 26.0033906845754 15.1245557179905 0 0
174.570188738702 -4.525047339459 -7.5638510966106 0 0
-98.589674865434 17.9787375987225 -6.19717392443299 1 0
-39.3935779815673 11.7982666816385 0.483723934144639 0 0
191.238722306692 31.5488772848304 8.08496055017923 0 0
139.27895631017 14.3696447341212 -3.674368763672 0 0
167.419905367124 17.241830030863 22.4890048032521 0 0
2.29636866049511 -7.93317679689247 2.64737185571147 0 0
8.34529139831049 -10.5991503803753 13.9485907590941 0 0
208.991118676587 35.0828389997079 -35.1919900938898 0 0
232.996898650746 -34.4625339639914 -17.7937900622931 0 0
71.9039861418217 15.0061475611832 13.8161325760395 0 0
224.219700909115 -37.4838904066599 0.520012707278644 0 0
107.367938781486 15.3108795065035 4.09261985769203 0 0
-13.9267456457836 -9.22345577069191 15.7872880427448 0 0
-83.9373289700302 -8.1954388953401 4.64593576438562 0 0
202.668712346733 37.7366230878408 2.14021790939904 0 0
147.667329907842 -13.9342101373604 18.9554461097934 0 0
216.507354874212 -34.4367394917818 8.60210325506349 0 0
37.3624050430306 -9.9856316265716 18.2998211212614 0 0
82.6828655644987 8.48024533179916 23.73649600516 0 0
214.634289605496 -10.7096244014595 -27.3319100095297 0 0
22.151565627014 15.2738100660823 13.7048417602821 0 0
129.399010928857 -4.5767366401628 24.758005625418 0 0
195.048657926908 5.25795042455534 29.1211337673037 0 0
206.697786026739 -34.1821060630304 10.327215532205 0 0
-87.8603058956216 20.2297099508927 2.93973220352143 0 0
-29.934503221438 10.6300887849356 0.280826728095455 0 0
-71.5849119313922 19.0204957553469 4.13084732697852 0 0
178.516587105954 16.2306874337865 -14.0038975632792 0 0
185.020151757452 -0.0434477756627579 -10.4134439831457 0 0
188.645692534516 -13.9198431566182 22.6023866233376 0 0
173.53522086743 22.5620657045699 12.6224534250662 0 0
-56.7540131922602 8.39239125498598 21.9596517464594 0 0
19.0994757868712 14.4977132261788 16.2268662818241 0 0
-17.627721794296 0.765844558971646 -6.30963698517701 0 0
191.7835126579 -10.081462865693 23.7220055715342 0 0
192.688608550051 -18.1598312308355 -15.5647984921048 0 0
222.656643954135 -29.4842234219842 -40.2093057432274 0 0
153.854250736083 -18.9741290871941 7.13009995711457 0 0
109.653624807512 13.8672151369289 0.123878530843029 0 0
189.756768828049 0.0463624131614322 -11.5291923402705 0 0
219.03194213341 36.475519280799 -34.2775037752074 0 0
192.043006288237 -1.57204865378115 -11.2452590264308 0 0
236.881988168248 -13.7508344539867 -19.7256940153901 0 0
231.015533631241 -5.51886063557527 -2.5754799356574 0 0
-70.6515653030905 9.46466420344656 -6.05079337953753 0 0
-73.588174854168 6.97640636094455 -8.41092886766411 0 0
171.64307473399 12.0766425255554 27.3985239487841 0 0
104.897786117949 -14.858525676088 12.1978193843014 0 0
-41.1591174857098 17.2007820101205 13.2912746773868 0 0
211.52700997009 -33.2797752699528 10.5058624050803 0 0
118.845804784986 1.65054539455659 -5.48680437630032 0 0
198.798338584729 19.9003998205877 36.4943003458258 0 0
213.947995665412 -37.8143340561289 -34.62647226595 0 0
186.774885657606 33.6647623974876 -9.65229019086482 0 0
209.151927905031 12.1416518134782 -29.7770360923438 0 0
217.947924735689 -21.4773664285742 21.8801034097166 0 0
197.767991558384 -1.24951897284955 -14.3492573381572 0 0
147.570672436896 -4.61009162477271 24.7909757917291 0 0
224.623702196474 10.5577079411873 -18.8324090440031 0 0
202.480376936938 -43.6316201553999 -4.09890015247545 0 0
-3.33124249786083 4.81991294945527 -2.68108996173022 0 0
163.166077202194 21.1251367169157 6.77587084552338 0 0
190.658318725213 17.3514905454251 -23.1261569988184 0 0
219.443221182671 -29.6762094626498 12.948783769601 0 0
221.149434234953 16.7748132936257 26.1713627952521 0 0
31.3931670443677 15.0139897777219 10.0799418386122 0 0
127.850622008252 5.62755442200047 -6.0098746373232 0 0
0.795572582591338 -0.31212538200492 23.6585238081211 0 0
40.5549537957186 -4.99912549293477 -2.99975727624101 0 0
111.42349288264 -1.55225693321917 -4.4864105399609 0 0
61.6468338212522 -1.77274459953954 24.2296276124672 0 0
213.195166001301 -37.2212144697884 -37.8005548340278 0 0
228.02116779135 11.9174737990294 -4.56251735406054 0 0
202.186900061834 -44.5508578309491 -9.23651937008935 0 0
45.8323504664589 0.86080013806998 24.5605405327397 0 0
-101.327059767693 19.0576646632972 -5.70977198036876 1 0
201.559748792485 34.1799853431616 -32.2289507630871 0 0
226.276266325476 0.024475630947769 10.7781029128651 0 0
56.5764179396885 0.00819979854634325 24.5182777913853 0 0
236.829715933772 -27.8997338763596 4.37863463244742 0 0
150.412546980383 11.6523101835346 -7.07760223045396 0 0
-13.6920885460914 12.608632604514 19.3253701190736 0 0
-62.1322518375116 18.1025807359601 11.3232517748637 0 0
-33.5377098387889 -1.01164801135535 -5.49592455455887 0 0
228.7810542429 13.9031245805973 3.3379836895852 0 0
182.613500502626 5.15880837688236 25.9058460866378 0 0
-13.0300491256317 -6.81444874242178 1.46001739685314 0 0
55.0596564507038 3.64889894398094 -4.47868884787324 0 0
-89.8399681337756 18.3016713112105 9.16007271722955 0 0
235.274148832579 -30.1408613665759 4.25473650415165 0 0
225.625808030337 29.8557231596819 13.6118711994869 0 0
215.606400669486 -4.26236217712936 23.7855623063559 0 0
227.670471078043 -0.630130649778034 0.784433132983673 0 0
21.3654696590376 8.83798632697479 0.734320229971925 0 0
80.9406525391991 14.6741919923023 16.1248423746543 0 0
193.154179251295 -8.65087445651397 23.2801761185537 0 0
88.4221353532449 14.1106436069433 4.56109925247842 0 0
177.231472470722 25.3039078261383 6.26848966724971 0 0
219.388040502564 -12.2660607921628 26.166422105512 0 0
202.350981802764 -30.4996599671923 -31.9114673061379 0 0
192.705168197576 24.0253538920114 -30.0370685269907 0 0
156.443567163857 -17.9942195348976 14.0556273761528 0 0
126.064184982691 -5.166172732887 -3.39851585574723 0 0
81.6169309903432 -2.75776792817622 24.4143557214414 0 0
227.484700427639 33.2359117464954 -27.3477368355507 0 0
28.4317036845822 14.6920156911526 15.7732526278388 0 0
181.96212679134 12.1391734834874 28.8265956326165 0 0
195.726660873111 38.8577087146197 -2.41003943321324 0 0
94.7120366072757 12.7153833619565 0.559536207148052 0 0
204.223904984703 -16.8512816089134 -34.9126364524506 0 0
221.740900007522 39.6217277909185 -14.8186255321247 0 0
157.156984324516 -16.4343635236865 16.7741702164413 0 0
141.204642553958 16.9020961509468 0.217539142981721 0 0
204.633983676802 21.9231945947774 36.2302680175424 0 0
200.451898024254 -43.245459458879 -20.8939169973656 0 0
215.973111738467 18.8521330498485 31.5381214043883 0 0
209.70355928822 -37.065334891613 -36.4489800260982 0 0
204.844147028649 43.9068439657466 -12.3407736454198 0 0
233.00179448815 -9.98110126354713 -15.7647173710957 0 0
125.707468884883 3.29670333611762 -5.74854917424006 0 0
200.766900289142 28.4459640814919 24.3687792414307 0 0
241.53948027365 -20.7089370557003 -12.1758973802717 0 0
189.038542876818 -19.2175118401284 -14.0568958023315 0 0
152.615833162843 -13.0445716067704 19.9327433809722 0 0
-24.661117933815 10.885026897568 0.699857413887858 0 0
201.664579548323 40.7812238512902 -19.4059481559747 0 0
223.009248214973 1.14835168820425 -4.35241235698516 0 0
241.621101784869 -29.184678368122 -13.1196568459396 0 0
-59.4166662401447 13.1076343923824 -1.09153954134149 0 0
219.753768580528 31.5453129570924 12.0207756246493 0 0
188.786132494523 34.332570162523 -14.9758306655674 0 0
-88.7343376447231 2.04394859230711 19.3258075596555 0 0
-71.8645149083425 10.6976095194756 19.8239708483184 0 0
240.359287169945 -28.3367600320397 -2.82623755109071 0 0
53.6334291943641 -10.528882298503 3.59643560303655 0 0
212.145593377773 6.53332427458308 -16.4497827236702 0 0
42.2221691243968 1.64720704958185 -5.66054960125155 0 0
227.412881511124 -24.1284637167251 -38.5002996037834 0 0
232.353918510043 -7.54942698370755 -5.37955702445783 0 0
228.434178442155 35.9086420209299 -5.25297281108783 0 0
116.464340417708 -15.5179435446153 11.6510652540889 0 0
189.757959214089 2.15139622379007 -11.575498404024 0 0
20.861078057042 1.83076911915621 -5.9502094056852 0 0
228.568121758681 -12.9897991401693 -32.904558451915 0 0
-83.6240420979039 -8.52440801171158 7.57099335218501 0 0
164.673958956201 11.1866606938148 -9.00251270457146 0 0
228.889248720378 -36.5246675659831 -3.0757477217117 0 0
219.694675007949 5.73797975116925 -6.88398467847736 0 0
22.7613929285807 -3.54644217085879 -5.46845658119939 0 0
150.330625703973 -11.8392450024145 20.8955467708892 0 0
224.808241153228 6.57306172271452 -4.36378702444949 0 0
195.734645256372 12.979545578094 33.2181398676321 0 0
160.090934665604 1.47767524272458 -6.87563849423076 0 0
-38.3915982182567 7.79439189738697 -2.33789062676859 0 0
220.735520426942 41.4993468319294 -28.5254802908104 0 0
230.497662007715 -4.96182516436366 4.91460075037753 0 0
203.833844241344 36.0758145012875 -27.3509106649919 0 0
-1.59365383152635 15.1697461185052 15.5852092405415 0 0
228.463358072998 -38.0399516828948 -5.71884649719339 0 0
213.926641644595 11.0069672435137 -24.1094676146941 0 0
240.129300577835 -30.9510038276741 -21.6913437425445 0 0
-65.6077167040839 1.45074326766105 21.169507031318 0 0
-62.8785086198594 -7.49397021452222 4.3535463341421 0 0
211.175944418947 -30.9031484797581 13.7952343692411 0 0
50.0405679806641 12.0510359723148 4.00406426908097 0 0
208.384475517924 -12.5957695449007 -34.7122579742278 0 0
211.437001328007 40.5546825284323 -3.73936501821572 0 0
223.849731939818 -20.9392804525553 20.4455463354811 0 0
191.64190905201 -12.3764271524865 23.4306240895061 0 0
16.1070610379194 -0.294317960103256 23.8478918940842 0 0
179.469664982167 21.217762384873 21.56990390871 0 0
216.306998255621 -11.1081790222283 -19.0936264652772 0 0
185.276554388451 -10.8539866005161 -10.2679860180153 0 0
197.945761691646 31.2573504677294 17.5243063631767 0 0
229.870958381261 26.1624583932375 3.77004522215617 0 0
230.405034175705 34.4127273916419 -7.0597607875769 0 0
211.950254447851 -39.7912212217192 -29.3758509042548 0 0
214.717283155372 11.5181949182016 -25.9126945005401 0 0
213.940649668647 1.56354288603734 24.2434527489817 0 0
75.6588827803063 -13.1333840474321 6.77188494132589 0 0
15.8942866443325 -4.50426380088431 -4.07662883304643 0 0
32.7028724230619 8.26466365120121 0.0798325818762132 0 0
40.1514180051173 0.082026734794223 -6.06646608164292 0 0
227.755121907927 17.5260242136498 14.5612049965226 0 0
-13.7000503047663 13.7887601484818 4.5344442708756 0 0
138.882059846064 11.5096266558338 -6.26793155278515 0 0
-63.7530483624774 -6.13791875186662 15.4966776282959 0 0
173.042436258141 -10.851968577334 -7.34313948785497 0 0
-58.7574911414428 -5.68231869878913 1.96575615892732 0 0
11.4822227828353 -7.95028470995241 19.285612586486 0 0
-44.6093240912965 -9.30285005296904 10.1853187931673 0 0
-60.3419500274528 -8.81892081403961 10.1094430374337 0 0
-63.8821671176469 4.93638146146567 22.0625412671833 0 0
199.8402861443 -20.3606005422182 -30.0192611787705 0 0
31.6356192828355 -8.23939504063142 1.0197790454312 0 0
201.636939997267 -45.2606256261384 -20.3465257805342 0 0
122.954306945976 16.104584728395 14.5027484798858 0 0
209.080838267076 -11.432297576193 -27.2756107993931 0 0
223.839205720051 38.6675987975661 -30.6893639436457 0 0
-73.7601097149434 5.09408654518267 -8.37167579015702 0 0
216.01564872741 38.8112775810785 -7.85138292416182 0 0
232.608286764131 -17.1390717185196 13.7745374643573 0 0
211.935685698503 17.3170144739492 -35.6945832266703 0 0
170.908409802249 11.7963722927703 -10.421808287005 0 0
177.063814848881 23.2477012571377 14.3045896907815 0 0
203.569407216586 28.4662244024008 24.2438682656911 0 0
-53.4722539137089 -0.998957382314137 -4.59803295502412 0 0
129.148938346485 16.0659085646366 16.0647774440775 0 0
-25.5322361627858 9.96685975853238 21.9025607735248 0 0
-56.315254151136 1.49746096264038 21.9254251200304 0 0
-47.0318200878124 16.7629610921086 14.6261126414159 0 0
116.292695598258 -7.35375134874059 23.1201023649127 0 0
-12.0514496480335 14.4256929698399 17.3888176806262 0 0
146.546710002146 -4.01295989340761 -4.57512505378184 0 0
189.11311947216 -10.0224878162162 -11.4868993748724 0 0
226.532991963985 30.4527582276098 -29.1433992057373 0 0
-61.5520183361426 5.68151195391377 -7.0761198191887 0 0
132.545892157142 0.504921696018555 26.2771704272338 0 0
2.86116005516126 -9.47362261764636 6.17906498092718 0 0
202.476184491029 5.88056575652929 -18.5813454697708 0 0
233.061068379921 -36.0761034101357 -25.0913323941978 0 0
219.84577962218 9.98466054447631 -19.2552923937345 0 0
221.282178823334 37.6702160532541 -6.03987976477258 0 0
43.3293801501679 0.133547547212666 -6.10025582757094 0 0
197.699343198103 -27.0441368309025 16.4226596025578 0 0
-54.7014994252932 12.9814760566337 19.2316707967091 0 0
193.089699694507 -19.8278379836351 -16.281474916596 0 0
145.968822823514 6.56169467916899 26.732724559949 0 0
-50.9274884816052 13.8753125062439 1.03021313195573 0 0
184.502347302743 -0.134986644108757 25.1090581679602 0 0
205.610620433551 39.2682481683698 1.33713520834812 0 0
210.973213002991 40.1414964499105 -1.9753484144324 0 0
137.080317982959 -15.0161928600724 16.8270632119639 0 0
184.550031193094 30.6730243947375 -2.19348017223553 0 0
152.473426880188 19.2596376399263 3.88894275202818 0 0
222.982746088752 7.78345008859473 18.0684942071095 0 0
-61.3494339866417 -3.89186614019193 18.1561076240582 0 0
-19.6643851039882 -9.87295273035585 12.458021360093 0 0
11.6012540343227 14.5134039937234 16.3550751555468 0 0
88.4602347004023 -10.3456771907745 20.0405450756527 0 0
206.260696788479 -45.7750347000621 -11.778238377835 0 0
214.438387839453 -30.7094280506094 12.5504019256748 0 0
183.424570051301 -18.4680624671839 18.9684162311651 0 0
161.302917971887 16.4282234773973 -6.73793990990889 0 0
135.457214642299 2.45880750521016 26.554589460809 0 0
196.279893092438 8.82504383470218 -20.2547398582159 0 0
191.218262122809 15.1258788025042 -22.0321366832735 0 0
23.0878908992184 7.17472356534357 -0.653808608821653 0 0
189.975579937708 7.03959692366673 28.5301214871607 0 0
-22.2117066043891 15.7524600460847 6.39993086899548 0 0
-11.2002200719166 -0.572092553939029 -6.49595602148425 0 0
217.046960727865 11.2789520449172 -26.7959634487422 0 0
103.889202483982 1.49201762264222 -5.51950879600936 0 0
95.2993187885378 9.91156944920891 23.0940240650354 0 0
176.808711671652 -9.53377309871166 -7.77199487709204 0 0
184.686220775092 25.414903281602 17.5950363607701 0 0
-71.1274563847396 7.94854203475341 21.1596063922713 0 0
221.388134143617 -42.4965463773478 -5.26659222257044 0 0
229.4269988212 26.1758939819396 11.4180167873452 0 0
-8.75182889840136 10.5832670569749 21.6404207084888 0 0
202.135144551223 -15.4445121819804 -32.6556390784331 0 0
-78.9510955531858 -8.61441261934231 7.14985453434637 0 0
140.465278790706 10.0551755565519 -6.51767697600096 0 0
-56.0533203155827 4.55935558990172 -6.88317891782904 0 0
-42.7293770750633 17.8008142307752 11.0247860230919 0 0
215.413795171855 35.0170481452304 7.18069666981725 0 0
226.055000253012 -1.56964878891592 12.4197630048788 0 0
54.8454078144292 14.8613678603411 11.5626534912647 0 0
190.376702839532 37.5091356439148 -7.74462281298333 0 0
-11.0639335847417 -4.68035039193588 -2.82488147606351 0 0
205.705939046801 10.7788575016871 33.1263486725483 0 0
172.88095500771 14.8061051531452 -11.5569700213532 0 0
226.885383060368 3.66082733324036 5.97406512727971 0 0
-26.650371136769 -3.3499955824207 21.3558658762465 0 0
213.002868878485 35.1667101485042 7.85826438442256 0 0
-3.32321832466472 -8.84374515388104 5.26649556814189 0 0
98.5768151384483 11.384058717168 21.9136642247414 0 0
55.3190686720131 -11.2582692274264 17.0542218378523 0 0
194.866911536203 32.5005692380098 10.8944780514757 0 0
-51.7564209972499 -8.61136676615421 6.98349228526727 0 0
182.100805470089 14.9334513583242 -14.9389271507652 0 0
168.674072796697 -21.5710766217879 10.1495585049609 0 0
240.483412191362 -30.9458354541421 -10.0942497378888 0 0
238.34983254446 -15.8524930198847 -21.015369163411 0 0
228.342053432884 20.0351354559668 14.9432886017547 0 0
175.110229751308 -13.512890153216 -8.06302177123896 0 0
223.636808892313 4.49871649668413 15.4684060317294 0 0
197.294986813425 9.70245381100279 -25.7848763346101 0 0
229.540413665245 -38.2687375343908 -15.1503984022079 0 0
201.176934727779 -38.8790535310773 4.5350460554414 0 0
-100.748464187331 -7.74685762883012 3.90107179234569 1 0
197.158876802009 21.5706005653466 33.8685602357789 0 0
-84.0185130427349 11.1981787760924 18.469139396623 0 0
206.901685638355 -11.8359554133139 -20.9121472893569 0 0
167.294536136574 -18.8525320804674 15.0442089621002 0 0
207.2525198126 35.0537868272419 9.21421148059022 0 0
30.2447927252027 6.79748381069923 23.7120125471797 0 0
98.2660953291734 -4.03983858017417 24.2898133546904 0 0
76.413696820895 -1.85428483797818 24.5469945848296 0 0
-48.2510669951934 10.1007733265652 -1.72105399654962 0 0
239.036305773639 -14.2868663841009 -2.70579709262422 0 0
107.449299908503 -6.32031288139296 -1.8876522564932 0 0
200.720510444737 39.0111164467566 -0.291947867710397 0 0
224.95272784364 -40.8135108031754 -7.49025039693349 0 0
186.300228024867 33.0663773205049 -7.13536996062716 0 0
231.488649198912 32.1202066456069 -12.0220887433442 0 0
221.98402011706 38.4538209220805 -8.35239191631682 0 0
-76.124155553724 3.8867462754564 -8.20502142290672 0 0
80.3111365144276 -8.86423374184984 21.0063621567851 0 0
213.01307829707 -29.7100516971437 15.1509268463101 0 0
206.049916416843 -38.8154694535495 -28.4638288858803 0 0
179.178870431295 26.9115727402053 1.72221272327547 0 0
-90.7671899504796 -7.19938986660258 3.02438156339048 0 0
61.8634683466165 13.3862299340631 6.00729968956269 0 0
114.847967477973 -14.9837347814366 8.31553819333456 0 0
-0.679146330102235 -4.67568559921913 -3.26569758852783 0 0
117.943626213481 12.4737645327194 -2.9796920586615 0 0
184.181579565068 15.7582269849885 -16.0771783799882 0 0
185.214036662039 -1.89186335519213 -10.1884892084893 0 0
209.865349527099 -44.7423650673457 -6.39162076774096 0 0
185.991023040634 -9.00897368088526 23.405003453585 0 0
224.954284055935 35.7621767720707 -3.17145135488454 0 0
151.819139917828 -11.2945664431017 21.3095223665962 0 0
196.665922823193 -14.4298191466277 24.0607171944907 0 0
177.702158105109 22.7579876611351 -10.6874171018039 0 0
199.623474363858 -28.424862291169 -24.2306662225318 0 0
-50.6293331528517 0.0493704794230148 -5.74238643081088 0 0
185.521531152772 -13.9614269109972 22.0395151777073 0 0
-92.6308822871208 10.75080559587 17.9612411178172 0 0
-29.6277903178256 -2.43959815758895 21.6941700760034 0 0
211.693844373535 35.4905069293119 -35.3920980466584 0 0
111.358195732793 -9.08756003483511 -0.215973995146096 0 0
-51.2011630779192 -7.15133437567039 3.94546970787086 0 0
170.276531430718 -21.5792840088334 -3.32107687100105 0 0
207.20078064446 -29.9913540537388 14.9291588139583 0 0
190.396264055799 -36.4652489732768 -8.91906766213844 0 0
211.091246069575 37.4078965892101 4.1705803955391 0 0
49.6477399451808 6.28992581376542 -2.19714102455726 0 0
216.816436182031 -10.6833782370914 -25.8279901229502 0 0
231.76336268978 -33.1472061982775 1.83848190971559 0 0
234.812230176441 -11.3788530349447 5.53437742525357 0 0
205.103473074402 2.34266960830469 27.8759077771734 0 0
147.384398613745 4.73281055094546 -6.39660580801447 0 0
237.873978956279 -28.6776660962132 1.36547132620247 0 0
109.940554836426 15.2136078996577 3.15676062068778 0 0
188.19895959284 11.8341719048762 -16.0140366842951 0 0
201.619754874167 -24.8567556119735 20.2799699207602 0 0
40.8314040915253 -2.93655877457672 -5.63667159567113 0 0
227.821149761081 10.1435559521396 -0.853388901781022 0 0
104.847433156741 -6.11468736770987 23.4306692837937 0 0
195.293278782925 15.9051665123109 33.8873362838012 0 0
195.297737182156 -43.0668176083048 -12.9813419988247 0 0
181.935773508711 -12.3829343678768 22.0205300276398 0 0
198.585419312061 23.3307005146264 32.8397776974799 0 0
231.580353731773 -36.6397909405706 -7.78936843686931 0 0
129.279098903124 16.4903276907338 2.28253444783913 0 0
75.3473447114904 -13.4035009399052 13.4948294680194 0 0
-32.3520582042273 10.1826169091996 -0.176721744344333 0 0
67.7484337979371 -3.34094186170768 23.8900053010435 0 0
-94.0463507893767 -2.86910304925921 -2.69124370764328 0 0
188.567698586233 -34.9898915742162 -11.778466144112 0 0
198.339455151062 26.8927749554736 -33.9568118641944 0 0
211.763857607892 -17.4784871857522 27.1081775584853 0 0
223.511777868668 40.6365614111473 -28.7644736824826 0 0
182.667222152046 29.379183221647 -3.08694588650676 0 0
205.807792554947 24.5312107562813 32.9670723784267 0 0
192.574398692455 9.41047647302554 30.2943851400577 0 0
225.165855280979 -23.0201640522399 18.1589978599718 0 0
227.42012141192 40.8672559344362 -14.3286953122129 0 0
30.0458940252204 15.2369207831693 12.7758805536751 0 0
0.18829023787184 2.93430852373589 24.2331570321857 0 0
146.968790366124 2.25803370197089 26.691146254438 0 0
152.569891940805 -1.73127237039603 -5.52035517950803 0 0
158.201978702015 19.5031189279902 12.945354244683 0 0
193.187199257905 30.5289236719856 15.1137407836755 0 0
-12.7962094586919 1.75956276760879 -5.34045895259287 0 0
194.956067526293 3.0473782114727 -14.2552221619614 0 0
-0.455377702475768 -3.44090518272616 -5.33911766355578 0 0
230.155725318339 17.713717779873 -2.49942583109811 0 0
73.5439006754552 6.40209392014638 24.3107424966268 0 0
183.74210986578 28.1216665208242 6.47737622611683 0 0
-93.2399043617435 -8.24929308693545 5.67983255818986 0 0
219.752789601355 33.5984286141494 -34.5232170097604 0 0
-29.390471442866 16.3339794371792 6.77874746659895 0 0
206.469968431349 26.6689793112532 28.8504866667969 0 0
146.455101961677 7.22223672380826 -6.609163803455 0 0
216.162409397837 26.8071512316052 27.7388006848534 0 0
204.638279767308 -21.7081641516849 23.1662911293674 0 0
211.702561985714 -9.41916633585723 -31.5927355745547 0 0
125.342930458798 14.7019758778892 -1.0679841544304 0 0
55.3644050650592 8.75011436319846 -0.472809930926073 0 0
48.4147738377334 -7.60965107768955 20.9232067571138 0 0
227.138107431814 -8.33031896613705 -11.7364715224433 0 0
223.253726672154 -25.2109494616879 16.804389519618 0 0
119.589318509117 14.9496055618923 17.6841321585065 0 0
202.497245579045 38.8271655404553 0.744079431686817 0 0
-56.2508232642176 17.7524698757379 12.5355832091653 0 0
166.259349972854 -0.997902734710913 -6.95091458538104 0 0
111.606150890267 -14.6716718958897 7.8042673895845 0 0
-62.4035564818372 17.9683879941963 4.43997844697428 0 0
79.0232235008214 8.70949111751817 -2.23250499137972 0 0
207.785847946564 21.6812328396308 -37.3582261233172 0 0
193.741059488758 37.7236075651331 -3.7926251152893 0 0
193.886134173396 -12.9470952498782 23.7314148171379 0 0
207.691293683994 -23.8543829595985 22.0825221073553 0 0
219.255689168905 -31.4525371384319 -40.4763295805639 0 0
187.226931230079 -12.7324835100889 22.6786428525506 0 0
187.440689755541 30.6375910378137 3.93970678905755 0 0
-16.6827042489034 1.11330751654314 23.6353944988347 0 0
98.1666718960397 -14.4777734758507 10.6783061552087 0 0
206.209736080507 -35.7572637859388 9.18806561979978 0 0
197.294710905324 -30.941255569979 -21.4140796837551 0 0
185.081264186356 -30.9634359364203 -7.05413644443535 0 0
100.707698968435 -5.06345465837872 -2.54414781472316 0 0
74.4329463605606 -3.90940434604243 23.8232601664699 0 0
175.913832004818 -4.53401980090643 24.3293270113745 0 0
-32.5098780859832 -9.57078886568344 12.0429936547478 0 0
-94.3424897258938 2.29100661145864 -8.13923717111574 0 0
23.1699194975371 12.0698923495927 20.0131467019425 0 0
205.936897353496 -25.4348833525228 20.5970459459085 0 0
229.283049083271 -28.0315922434597 -37.3149660470484 0 0
43.7578893286651 4.09955729952611 -3.83116277480806 0 0
202.931687300958 -34.7641702958776 8.8869886062731 0 0
101.535175540454 7.24786517736269 24.8287629413363 0 0
-98.3833452438394 9.82923476241608 -10.7698045047182 1 0
226.582253209761 19.4883735228515 -27.714039248087 0 0
199.006464687078 -8.90488010630238 -17.1753672073758 0 0
68.6587275193469 -5.85253940961093 -1.78665797726323 0 0
174.712287003053 18.7491012688683 -11.7908652134263 0 0
233.599705801338 -10.779198488742 7.26156768188413 0 0
177.890093423043 11.1482076935301 28.0845028130984 0 0
-37.9132024272933 13.7910334819719 18.8925427921553 0 0
214.626963812351 41.3272197421407 -10.8863987553494 0 0
208.270115327995 -37.2443819954391 -30.8565576762743 0 0
216.863723906989 36.8390801079349 -34.648374615319 0 0
-80.980647941018 -6.71379394997951 12.1719906437086 0 0
82.8237766542708 12.1759243627804 20.7980597231512 0 0
119.230938485805 -8.81759399056857 -0.792787168582845 0 0
208.512974728204 -9.16748660097846 -17.6170209666758 0 0
212.346473653338 -44.5597607488527 -22.1816775368779 0 0
186.23822720363 22.3201220609016 25.7136202156838 0 0
198.350333011765 -42.9698639096334 -9.96607689613005 0 0
11.3216538959029 -10.7308337632331 13.7610705455424 0 0
178.923409267822 25.5858615063071 -8.88169904252462 0 0
184.131636055241 22.922594439607 -16.3468033856213 0 0
66.4777852031665 13.5956764530509 18.4918393398355 0 0
52.3970267392831 7.78879654683583 -1.14237859049328 0 0
166.859306449135 8.59416176256491 27.452932041338 0 0
212.110368568045 36.3838102672574 5.84036478234907 0 0
207.152632313857 43.9344786745459 -14.1995693624568 0 0
-43.274372357553 8.15613962656288 22.5628469840963 0 0
63.8440472970338 -11.9270476996138 5.44417898938289 0 0
206.876763082971 -21.2312253237786 23.4207295437409 0 0
218.163629203315 -44.7144851351922 -12.0542561351564 0 0
-95.5400481493621 11.5142681052999 17.2698301521179 0 0
219.492341790903 1.04186211517778 20.1312460990126 0 0
49.4016578701823 0.868967151974802 24.5589618440084 0 0
-70.9817315749481 -8.04256043606877 11.0164417016632 0 0
226.755686982205 -0.182708246686515 -1.96127505910287 0 0
-90.8555167125265 14.1611102181606 -7.33010265837692 0 0
224.736386449395 0.849456745528574 -3.31552483509173 0 0
182.814926594968 -19.028402616349 -12.8006060137551 0 0
186.245974307148 -0.397119068546273 24.99143014961 0 0
96.1675379326516 2.06112174603893 -5.81716550296976 0 0
216.179772974638 8.60742275810537 -13.8752886626811 0 0
177.158973635415 9.26413437834174 27.7878658705791 0 0
-67.0595169117966 -4.68694469405633 16.7506770009977 0 0
221.480505801298 36.0391489384463 -33.3091165560047 0 0
189.479002308804 -23.5510347581587 16.5895119192744 0 0
190.255457821726 34.7751448549466 -1.99280036970239 0 0
208.484680697471 41.7336700009319 -19.0446047876366 0 0
13.2887239274057 4.14820159450781 -3.01698263098809 0 0
223.435679250315 -42.2593034359442 -14.7872036549873 0 0
203.658659217235 -46.0935665479658 -20.2367933167492 0 0
224.825082393596 -39.1963843300487 -25.0190504609434 0 0
-74.7957165449085 8.64807606933871 -7.49046384558335 0 0
-65.3747758902806 17.7915170749025 11.8460093164529 0 0
-20.9824386623828 7.12711829074153 23.2974816037653 0 0
216.153857062393 -44.5167727605213 -18.4107534178504 0 0
118.83641259128 8.48071612412973 24.8912890856082 0 0
148.874198306121 -10.7059806106091 21.6856763178758 0 0
161.16045428758 -20.3041287309301 4.40088995435918 0 0
150.108138685752 -13.8054258607129 19.1732417493583 0 0
23.6227444954301 5.06763653670781 -2.45215129499511 0 0
197.578940852523 -0.385858321220195 26.6625642017865 0 0
-93.8016563512464 6.49200532209862 -9.91856638771323 0 0
42.7494810223488 -3.60268049777232 -5.18549373421921 0 0
186.737710303672 32.5443128154619 -2.61732708148459 0 0
206.708411773575 -14.8900620469802 -35.6104394225441 0 0
143.501099719398 2.01932893107662 26.6297798686281 0 0
193.751100202177 16.5135161505848 32.9093996333791 0 0
212.277648405254 1.5837700826531 -12.5038033937645 0 0
168.477763527723 4.89019472233552 -8.49536857810729 0 0
176.274855938608 2.57744630185218 -9.08362794029294 0 0
165.106954083468 3.4689859445891 26.9035489420591 0 0
229.229064887913 -37.8634740223235 -23.5808496893068 0 0
49.7610205193413 7.34017594379113 23.6164576586008 0 0
75.0650141935193 9.18729142589586 -1.50657052436434 0 0
209.991109181541 -1.00894419326273 25.4469253370139 0 0
230.752634010983 -37.389703716451 -13.9469323646173 0 0
-36.6706645110824 12.4905106534084 1.30374295773857 0 0
57.5643408063717 12.0988743838429 3.72432938162215 0 0
220.985321987045 30.9365879897199 13.2481061698541 0 0
167.14768608368 -3.85861142270371 -6.53350371416762 0 0
200.018035125089 24.8066976750531 31.3756154282575 0 0
220.140053454054 9.77267754344217 -16.8304039113487 0 0
-94.0658786768043 10.5209303660456 -10.2963449655241 0 0
220.257998684783 -20.5226439370061 -40.4276585112489 0 0
196.849507229249 -42.7155636687175 -10.9236686488766 0 0
201.761836651939 -12.0206323983484 -29.5407466517953 0 0
240.732330935519 -17.4314969392081 -14.0408925230279 0 0
47.5749095887798 4.45945024042043 24.4509471638519 0 0
102.303517777312 -13.7346496817205 16.2295306323257 0 0
-29.8290497190034 1.57605011130004 -6.01914021634881 0 0
-14.7807319758803 10.6802583446515 1.05048673618816 0 0
197.478222265634 -6.37078776257474 -13.1700614241784 0 0
180.08666197623 24.4684134442649 14.0548139861753 0 0
196.722368799345 0.51834739715109 -14.1065788482123 0 0
63.8247458233344 6.95908173737357 -2.43505841402403 0 0
173.229846722706 19.3246224370787 21.1669237304509 0 0
76.2676470871931 -8.671117677347 21.034686523267 0 0
194.892391313182 -0.267086795746532 -13.0862828539827 0 0
70.966647179619 -12.9925463216819 7.02371894600794 0 0
181.059836530926 27.7482353077517 2.68895231031793 0 0
164.876184290412 14.0656370573953 25.5409269412928 0 0
227.531751098121 1.29239201062212 2.48549854931073 0 0
170.978478681404 13.7740093588894 -10.8165021811683 0 0
215.447399867843 19.6072699123161 -36.4104721202853 0 0
9.58036621924153 9.78977132945457 1.45886432851793 0 0
99.2825850392254 15.672837167038 12.4448939545408 0 0
230.325901278849 -32.5080694512805 4.44184239002549 0 0
207.850776161152 43.7206462669615 -11.9401994137515 0 0
130.821318000836 11.8230247122217 23.3882163937904 0 0
214.979761347821 -28.533958831169 15.775704990346 0 0
228.130116332096 -31.9272027644258 6.66425632623959 0 0
133.580185372052 -15.9350071539319 6.71802907425154 0 0
198.808484207178 26.7527516933652 27.9357126311385 0 0
-85.8618268608881 16.847887296829 11.792186498084 0 0
-85.2158167695281 -6.33251592286156 2.25624147790405 0 0
158.132490074521 -16.9079824935537 -0.78607090410345 0 0
58.0630257690339 -7.93720536327835 0.426095702582073 0 0
235.455316601616 -32.68701481847 -30.666529881943 0 0
194.260808851886 -16.2051380688016 -16.068801449126 0 0
231.123552379307 32.0448669234612 -9.21398534920997 0 0
-52.1303619835124 14.3566908091035 17.7307059519823 0 0
222.566389260605 41.1595721858958 -19.2376833263177 0 0
144.913345463452 -5.7641638824052 -4.03180984824899 0 0
65.5871411688136 5.88730614070007 -3.31480932788191 0 0
197.055970693806 -22.8462509341241 -21.4439167508557 0 0
-37.7327313838691 16.790729947706 6.713891222558 0 0
237.764292706583 -32.1699568335574 -27.2502734531852 0 0
50.4971870209205 -12.4073578463894 9.07197883399836 0 0
198.007455816284 -28.3415835098581 -22.276995993804 0 0
-79.1071838712793 -5.02499260217772 14.6775453228242 0 0
38.4869648444525 -3.22957978347926 -5.61326198932199 0 0
226.29837638584 -29.0526239973375 -38.9133017181116 0 0
26.4295576840911 7.43951490247145 23.4688965221623 0 0
154.668684957605 19.6372346902076 5.31490132272644 0 0
199.85152257696 -2.57581731643372 26.315069902013 0 0
200.949037207566 -31.8530415520389 -25.0144155644716 0 0
235.401758189951 -35.0453976005339 -7.55380782176029 0 0
237.737033864417 -33.6805624632048 -23.2429904700053 0 0
168.699162499666 -1.91352198313792 -7.06809349701616 0 0
187.208480061676 -32.9341976223791 -7.10526043694531 0 0
60.3115455532779 -8.11539146447815 0.669030017892575 0 0
13.5653940292559 -9.04431459118486 4.04168368011632 0 0
202.194649340424 10.7517302448914 33.1932816489695 0 0
173.540970440196 13.7105522239128 27.1178661358812 0 0
131.643156110487 7.98529486388643 25.6764617861933 0 0
196.981356295839 4.25732269383224 -17.2704217143423 0 0
147.779754755624 -12.9475945208646 -1.11730102443851 0 0
205.9247161765 -26.3386895859053 -36.8395161377007 0 0
221.439467887715 12.7481261539219 23.6726857399581 0 0
-91.8942508329621 18.8459451489071 7.95574286017064 0 0
210.900864432365 28.7925569873931 23.9291905472802 0 0
201.168951974859 -13.5232890637545 -24.5305701581373 0 0
-68.1815481238883 -8.31780689151539 10.7140692073497 0 0
-78.477037723689 7.31990089165483 -9.08001332602958 0 0
178.075371058261 -5.47729338085535 24.0696976342234 0 0
34.2966315830617 6.87809580171137 -1.22532353417206 0 0
120.869771143966 16.7045105065328 9.32959453976751 0 0
-17.5317594144977 8.46351026068674 -0.813551807282617 0 0
237.095017995842 -33.8915618626184 -25.1544080801621 0 0
-21.0921309717355 11.5505510734264 1.36902489335165 0 0
-84.2742432188036 6.01445195531132 20.4322401975364 0 0
192.457521635016 38.8304220776055 -7.81185173030202 0 0
-55.0001724947531 -6.13254029777848 16.6203060638438 0 0
179.347032957559 1.32495166807734 25.7038632562915 0 0
188.180981567707 -2.15964479470719 -10.8341500434717 0 0
198.416455602399 -19.8311905753882 -24.9353830121763 0 0
220.310429556176 39.6140801316455 -18.0247075367683 0 0
220.216141032791 -4.97762060707715 21.9241910522442 0 0
208.714213786576 3.87163476316055 28.2574854111642 0 0
30.2914383743932 11.6617820285231 3.72652565511456 0 0
-82.2862557113254 -4.97815766627716 14.3082576285794 0 0
95.5378342350037 1.40182870907546 25.5246609720223 0 0
-58.4208766848266 14.940983149253 16.9882543668106 0 0
188.163527078487 -32.8388700448033 -1.84210222635915 0 0
187.57248491055 18.1918869369918 30.3146924921469 0 0
104.413443253869 13.929308105029 1.14054509167132 0 0
206.297022749879 36.1159322640107 6.94759862642094 0 0
222.951314654163 5.8939195845979 -4.99630029851923 0 0
211.914946782117 -16.1417663192583 28.6291468857197 0 0
240.180650437297 -20.8316354428348 -1.66975706097013 0 0
190.920010921881 12.7962089290032 -18.8596276571124 0 0
-95.6322518101462 -7.79200333377823 8.35834619377907 0 0
220.780637523912 -26.025396196509 -40.8099262620738 0 0
203.542017988158 1.24244528799459 -16.8906355974473 0 0
205.025966643231 -36.619364639609 8.08449154904069 0 0
121.817540768931 -15.3332985602422 7.85152843886884 0 0
-19.7740145337793 -1.36470752591148 22.6932898164727 0 0
197.791505952727 0.562690488460579 -15.1186349273479 0 0
-65.2785504408373 2.91651019123599 -6.98070385074369 0 0
231.747823305189 26.8076394699484 -16.4261006410753 0 0
-83.0545560408421 0.357764369549754 -6.3911888842553 0 0
-75.9148996035033 -2.63135042718645 -2.16425436770014 0 0
82.8949020413153 -6.2056084005708 -1.53868629746304 0 0
230.355253948028 37.0200937080957 -10.3095962118163 0 0
227.291464102941 -41.0752213039417 -14.2207036534511 0 0
210.888781489438 -9.42358892433092 -16.8239238856709 0 0
194.549278998338 -31.5056361052875 -18.4850989397374 0 0
182.163464260495 -20.141111687624 17.2554844024216 0 0
85.2225157268271 14.1143939047009 17.6895548743859 0 0
208.487463817873 -4.45454329414032 25.3411541536356 0 0
239.260386428698 -13.6456723914023 -6.87436390656663 0 0
196.552947244054 37.5273572738109 -18.149088780525 0 0
170.671045211535 18.1716685528507 -9.65738455124674 0 0
225.224407680397 -11.1074825237745 -33.0490912406421 0 0
210.228184248383 7.18898959417348 -17.9705175932032 0 0
190.431176503111 -35.3988938462168 -5.66342334751216 0 0
-84.3917097793414 19.5152874607056 0.309352176386855 0 0
219.235644436405 9.35160530374669 -12.0081349152403 0 0
146.831914982056 9.91765076754952 -6.83204772058404 0 0
152.60520119505 3.29579339867085 26.8714727143823 0 0
206.849031939308 0.842371059889996 -16.1081692917691 0 0
227.931319538257 11.70316071072 5.66064557391204 0 0
30.3363277014738 1.80776210632024 -5.94209607392497 0 0
167.506217657804 18.5486316079338 20.0954287351532 0 0
192.63220143264 -7.35940760015371 -12.5357141318092 0 0
50.8679758223006 -0.732671153610772 -5.8802601495144 0 0
181.662497029199 28.2836433471383 -8.58463979870083 0 0
185.626909892665 32.1116997499501 -4.67287276675334 0 0
33.0148004177512 15.1590994452477 13.0969894684681 0 0
216.180284343513 10.9908220811184 -24.6624710862018 0 0
-83.3209527486994 15.903700492632 13.3996427506948 0 0
223.083150266257 -40.9321698727399 -22.871806790741 0 0
5.7899391161123 -9.06804357910348 4.95589218905631 0 0
212.139686291018 10.9224634943858 -22.4829238122745 0 0
227.348351266578 -19.422060252703 -37.8134991876429 0 0
123.664813105779 -8.61977931720017 -1.26359115294918 0 0
25.7351745606355 14.5800397876416 16.0839423685228 0 0
179.371648967834 22.4836863498188 -12.8082076078073 0 0
169.555185711037 6.63479489628358 -9.01876340777073 0 0
-4.41820737588495 4.47422041931104 24.1028537639704 0 0
30.7256367582305 13.6395088590546 17.8880522575099 0 0
-63.9306825067272 -2.65559721599302 -2.12154646177737 0 0
230.077478154591 -9.4207545399908 -22.9322585813256 0 0
-6.20913837467988 8.24443904952392 -0.524620175852123 0 0
231.237889326781 -9.4481329318799 -17.2652915613166 0 0
197.091597132151 -39.7056779001264 0.131183400114385 0 0
6.55292031856853 -2.60499509863784 -6.16466759469769 0 0
192.821513613105 -39.1037640344754 -16.8256305621283 0 0
37.2856151631884 11.5874031541026 20.412030273766 0 0
-88.4030502349664 8.15015206606729 19.5247058109364 0 0
182.676062835284 7.23387040254238 -11.713064928629 0 0
209.423720025875 10.586430251259 -23.1133751332433 0 0
183.794807812344 -1.23332721571806 24.4664724549668 0 0
6.53327078107853 2.46865130658342 24.230811867953 0 0
35.6028303029167 9.64772644128074 1.39080301810949 0 0
210.315150415536 37.2604688652136 -30.8743856059352 0 0
141.939131311143 15.1238343723888 -3.09321840894844 0 0
193.2418732397 -12.0687371708699 -13.6715875376409 0 0
-9.24610515213704 9.55701393301513 0.429672903571524 0 0
205.379321628371 30.3088283239498 20.6839948168984 0 0
206.614855512543 -17.4557295261478 26.0012766197334 0 0
9.5844322026631 14.0139055262882 17.3454905911367 0 0
220.597549403143 40.0519573974346 -31.2996497702386 0 0
183.824218877992 30.171377156504 -8.88890588530141 0 0
27.5100392722096 -4.99600976325663 22.0858519969316 0 0
64.2467098988175 -10.1400316262846 2.68008371277785 0 0
5.72717175154189 14.1511218430541 17.1172109681572 0 0
221.583836137011 30.1301432728139 17.6754293648312 0 0
192.565490925758 -40.7712920816782 -12.2743080003528 0 0
-81.4103921121056 10.7825185858287 18.9843551431356 0 0
25.1203277302537 -10.929119590319 7.42123336234955 0 0
159.286190884764 -18.0034164181656 14.7322917207232 0 0
-91.3011032215635 13.5614337340659 15.8433534624997 0 0
32.1408394200361 0.80801112128544 24.2535800694874 0 0
201.486272002131 -0.957566827471657 26.7137537770842 0 0
225.52866004352 -27.5040353346998 13.4978327294719 0 0
145.44020605114 15.4682452599267 -3.36524082409081 0 0
150.675673728829 -6.56843557576538 23.93756001112 0 0
121.631363371715 16.5213520169348 11.7674888292934 0 0
222.014021631278 -10.6024640366648 -34.0626534513192 0 0
194.412600415061 9.06214302157958 31.0371344471222 0 0
209.51118115181 -38.9020244963756 4.73873029457788 0 0
-81.9589899296211 14.6457581083215 -4.76612898064426 0 0
229.64671884279 29.0440768898922 0.43456806018795 0 0
26.8169798418556 12.9265430801409 5.06109905455806 0 0
-67.1800901267605 4.44105415471172 21.8101801344267 0 0
88.6446775327451 15.1192474756422 14.8896304085442 0 0
60.8856366735392 -4.15625647939737 -3.26518506204335 0 0
-8.61619087528888 14.9992477020153 6.59877009460398 0 0
62.6623541473244 -5.50703625924165 -1.94771326638585 0 0
187.231396161418 17.3811089721704 -18.5437266205559 0 0
