"x" "y" "z" "f" "a"
-87.8036885207038 16.104871148737 13.9816217412464 0 0
68.5289740546103 6.04208218533396 -0.662475138897158 0 0
-165.108727610628 -8.54822116744624 -6.27093371499587 0 0
-89.3875902867355 7.73585933903637 19.2655000442837 0 0
-187.526333103793 -6.16129399285781 -17.4240777631694 0 0
-220.131942967324 -3.70662644545512 19.6859918528103 0 0
-97.5370106477798 15.0231944422115 -10.9480614342104 0 0
-195.19242844684 11.1754333231463 -31.2275741214734 0 0
-177.891280321437 25.6440362393588 -25.5176857929474 0 0
-236.313135597533 -47.3339971741028 -3.33472227944816 0 0
88.4246597405646 13.9431628499051 4.35250904580529 0 0
-231.644158303467 -9.02523293923215 22.1539308281652 0 0
-0.271647046928894 -2.75529671837213 0.855088760631105 0 0
-225.343487250914 23.2654636796346 -7.33738357709754 0 0
-54.5704239055117 -0.0710104651357674 23.0270298012989 0 0
-242.844749706467 -23.8264865216055 -12.528184964987 0 0
-189.709771692933 19.0928473466259 -32.2395425446999 0 0
-166.473454547514 -8.7640012249105 -1.39098037002803 0 0
62.5693146982345 5.39822589085852 -0.709738878928039 0 0
-135.790753930858 -1.40888153487178 -13.1458000196421 0 0
-155.606668023522 25.7047335157167 1.46767025763182 0 0
77.5173014113248 7.14932387090953 -0.27167017596745 0 0
-169.857422119589 24.9513755863389 5.75932720803729 0 0
-91.9234678984799 10.9255108198133 -9.86162374174749 0 0
-5.13903531986061 6.73069957293336 0.232455493093551 0 0
-175.912804695079 -11.2601258642481 0.0338226071309743 0 0
-68.5353046245914 -8.21786757321441 12.3670606726444 0 0
-138.884681807078 -4.55433506180627 8.11469018730702 0 0
-144.24614993737 26.0297498733383 -3.32829710977199 0 0
-246.507783712255 -39.0146325019997 7.10010048204914 0 0
-228.165476329007 -2.31438323452391 10.758650652777 0 0
-86.5622655700608 5.76740322955814 19.9574492735672 0 0
37.2019695166534 -2.27844930613607 1.44825789016038 0 0
-77.4627305547932 10.3782036139907 19.7446304703662 0 0
-61.7230543782697 17.7270432333648 11.0555282491952 0 0
-48.4781287232711 1.4608029824441 -2.56540896683216 0 0
-230.867726259043 -45.5747463290794 8.70913737900473 0 0
-245.572204595777 -34.6166410564236 17.0363286388567 0 0
-211.169602476121 -37.015356164198 -10.2526579258228 0 0
-233.089687251805 -7.8402663396138 20.2004627221034 0 0
-64.8344600253202 16.0194756708659 14.5384411719371 0 0
-112.842390694497 16.8046387630703 -12.2906285526286 0 0
-210.624418281167 -38.0569227298969 21.9043791668066 0 0
-240.363396734549 -8.13010651408509 -3.27778200999689 0 0
-52.4222238132641 16.4856181926584 3.46189870261735 0 0
-224.38930463153 -28.4177528284866 29.913573835085 0 0
-240.341370570846 -13.0559787583333 -9.9627497591296 0 0
-228.290372053357 -50.6892839703755 11.6865064827536 0 0
-196.187446223748 24.3208655245434 -29.751564386349 0 0
37.8416990753896 4.11997283997016 -0.94976014765058 0 0
-167.671025926838 -9.59234263644031 -28.170966534251 0 0
-75.690843134391 11.927494016694 -7.79605201315323 0 0
-207.543601315452 31.8849969257345 5.51828986971058 0 0
-237.507578143074 -41.5898248681484 19.4256379092941 0 0
9.94130329114345 6.62518785019724 1.04641098897535 0 0
-53.5043799658266 11.8337108511015 -2.01253300909379 0 0
-172.53677221239 -16.0065426042242 -14.8702307229892 0 0
-237.933928230548 -28.8604775131669 26.2301910166385 0 0
-215.955105213307 10.8636469726192 -3.62210386412295 0 0
-129.827824713619 2.03076569279769 -13.6808881006016 0 0
-210.724440330439 33.293084609886 3.51412763393089 0 0
-218.154430390368 -2.78262351779171 -8.63208802031228 0 0
-222.467126383125 29.4400015535478 -1.9804742360057 0 0
-65.2740702367074 11.8122569136924 -5.02667843440354 0 0
-99.6498985419109 13.6225945106631 -11.5129163383196 0 0
-181.898801400244 12.3682646026723 -31.5650721206444 0 0
-238.487247040967 -46.5352588584543 2.22296763778748 0 0
-219.2657202614 -14.5549526547683 -16.087753009693 0 0
-213.068834531626 31.9590908757126 3.55230745407914 0 0
-200.518750407208 32.7083224449148 4.98597138041745 0 0
10.3198340363342 -9.66937298429125 7.82533563264767 0 0
-215.528731006876 14.4700734920945 -5.63357289756976 0 0
-221.354163727558 -8.16346181525262 23.0896361617701 0 0
-196.672887927331 23.0150342705838 12.2174406952485 0 0
-212.589617057574 -44.7547010526849 17.0893778861599 0 0
-139.665945135927 -6.28973765937724 5.3541123413272 0 0
-14.4862671519525 15.3739499248063 16.4294251344329 0 0
33.1925465016789 14.3808005575379 15.4609296313739 0 0
-235.507721339281 -30.4439836889504 27.2557888896253 0 0
-84.7089756394751 8.1182061328754 19.8474062932199 0 0
12.0229701115362 12.7503805740379 21.2057767199903 0 0
-205.339330792976 -16.8538240630142 20.267390552672 0 0
-190.815798893005 2.04678568935544 12.8787935429539 0 0
-226.867609923753 -50.1344757418794 -1.15163349716762 0 0
-203.318951254868 33.420195279027 4.65413076516244 0 0
-183.481951038503 32.6526425388129 -20.7633884721778 0 0
-33.3669187614833 -6.48826973740483 3.94594663772575 0 0
8.67546824330235 0.116264750044701 -1.09722975877122 0 0
-205.074538468287 38.3654196649979 -3.3702285193456 0 0
-139.972585009044 21.4960721289725 -14.9231585596341 0 0
17.3910190856405 3.26329742379653 26.9410625023651 0 0
-249.77300908636 -29.1276260402148 -0.251253141898297 0 0
-233.512445854264 -5.0366063068373 4.00024352665543 0 0
-3.60362831724262 14.7247365937319 17.4911573364908 0 0
-229.293794601456 -9.17155975781887 22.9842899369704 0 0
-206.949165097963 14.1799142266873 -25.702303058253 0 0
-229.430372709874 -45.8637180295087 8.98811547551952 0 0
-186.926516260825 -14.9837242597077 -11.0999215668324 0 0
-59.8673572409393 15.4951964257915 15.6497940187417 0 0
-115.224971780565 3.34750467735217 14.7314389399252 0 0
-78.1715637927621 -0.658796193053172 -2.71013963787157 0 0
-133.470977359439 -5.54285910579588 -5.5106948011333 0 0
-166.46783165584 30.7267823155147 -4.36807340069291 0 0
79.7753057437604 14.204922852288 5.90224083010922 0 0
69.3159304213245 3.33199334845035 -1.00468216183478 0 0
-31.3001908642873 15.6392080404126 16.0407183473328 0 0
-209.001470698217 37.634727043474 -6.22491400593053 0 0
-163.034593717314 -6.63380356997133 8.16030071952398 0 0
-214.790054608919 -37.6650201982808 -14.9959332136349 0 0
-228.139717222023 -41.0297752300754 -15.1916112752683 0 0
-195.298840915795 -12.8806162959764 -12.678069546782 0 0
-72.1446830115564 16.4597338200958 13.6852870095585 0 0
-204.839491572001 13.512721976501 -25.8639388054441 0 0
-197.82794494984 32.237573790554 5.17034771095494 0 0
-248.442090586749 -35.8073012885768 2.47786616679408 0 0
-76.1419895756199 6.00230375615533 21.3541761530555 0 0
-166.246169469039 28.8528736152317 -12.764238497664 0 0
-177.801594166491 0.974649856796758 -25.3443086462791 0 0
-179.651034221888 9.29635671292034 -30.630725391246 0 0
-191.101524810633 28.4540522287267 9.01670641791642 0 0
-154.181354866739 -5.93211891571021 6.42347214345927 0 0
-220.165147655886 0.602066316895076 -0.973211785186619 0 0
-56.5830222955883 16.3280480680767 14.583255421321 0 0
41.9889432023364 9.34416618106511 24.9403141173304 0 0
-138.693669275959 -3.35706115890105 -11.4258223463264 0 0
-178.14256430101 19.2023844962135 8.08818745119241 0 0
-133.953702805633 12.6242429905714 -16.6906256807942 0 0
-177.927733522872 -14.4796465189845 -10.0865308532441 0 0
-92.5840626236217 4.32134902809819 -7.92381673619704 0 0
-212.38842070111 -33.9932872252783 -14.0616154842657 0 0
-68.3382825120473 -3.96911559787444 0.617981313259429 0 0
-249.779226883691 -23.0906197809794 0.138651589009749 0 0
53.0080358339624 -8.85675906380957 24.9368973847671 0 0
-217.029243444314 5.02091607030212 10.3665452712575 0 0
73.5519272265742 3.91652059881372 -1.06882319612179 0 0
77.54579140595 14.5148704694374 17.4108416011496 0 0
-103.546781641143 17.0796069102021 -10.3921561761622 0 0
21.9396578648714 14.0196565016351 10.9186424696903 0 0
90.6355200880939 -12.4810777047499 23.7817506355651 1 0
-168.296664337829 19.7625523305524 7.43118534292912 0 0
-218.099347629002 18.1038575682152 1.32268097836704 0 0
-249.210748184133 -19.4091536353881 8.47339183529997 0 0
-132.734740156682 4.8550563563958 11.8979678997401 0 0
-162.179413839547 22.2926459619857 -21.5821255355634 0 0
-215.325810536912 25.8926741033796 -28.2889803330791 0 0
-216.761016963283 15.8205361663461 3.85506333523404 0 0
-239.061253659252 -18.6216065647831 24.3892984630275 0 0
-5.5511524775495 -4.99275983843337 2.64219661176754 0 0
-200.142615242182 12.5934809813828 -28.6578948619697 0 0
-71.0229898764315 2.67753282636768 -4.74817352912456 0 0
78.024255392238 -5.12934456629207 1.43021793978678 0 0
-215.560424950236 9.44052552465398 10.1049028401289 0 0
-160.451090537134 3.56050728874937 -25.7555110942327 0 0
-114.449739518782 21.6918128181509 5.87947578145243 0 0
-182.888850704417 0.387201737255609 -21.426160256443 0 0
-183.578575700482 17.7108778699446 -31.0799736191734 0 0
-24.0170722810834 13.2131528147932 20.0428073293289 0 0
-194.188383450455 -18.4241371226332 -7.09392255357183 0 0
-193.212641655826 23.244872075186 10.6193109849638 0 0
-175.885022071384 -11.4710877586004 -4.64241011514502 0 0
-203.783543076804 8.59651870553695 15.3978805667843 0 0
-215.657105306687 4.67309374779297 -4.65987172217962 0 0
-185.311761298667 33.8611310665268 6.4440850708254 0 0
-209.470267331498 -43.1097115755879 -5.474696102388 0 0
-45.788693303493 -5.01403644083992 21.2715810847302 0 0
-106.116507931488 22.2012662137897 3.83962368509251 0 0
-211.659716444367 30.450810970696 5.13967894333585 0 0
-178.788442891307 1.04957523958515 -25.8010170299757 0 0
-202.431253181015 -34.9016171639151 10.6341101754544 0 0
-76.7576487309458 18.474736531375 -2.98301337547297 0 0
-238.67448286957 -6.21604064382349 11.5399888522293 0 0
-173.893766236149 -14.8635311001418 -13.1466416823674 0 0
-138.318713612076 -6.61676937276882 -2.88291907334254 0 0
-95.4333149272103 10.3756279838938 17.554154420834 0 0
-198.387279241505 33.3972133282989 -21.1921032147355 0 0
-44.5147915313681 14.3361825572044 2.66974022088653 0 0
-204.332719359661 37.844093541139 -14.5401038212183 0 0
-149.303101158247 -6.26085834221922 -10.1396280390423 0 0
-226.294625564627 -1.5630284113653 8.3646195479469 0 0
-206.008861957765 24.7422034963299 -30.0284071353324 0 0
-165.088035029304 14.8713239483134 8.05918136474255 0 0
-125.828466995469 14.6514618120063 11.4519064861892 0 0
-106.260526948789 6.94242490321783 -10.8448677635673 0 0
-93.2865709802539 15.6301534767083 -9.72023353996893 0 0
-225.393061425879 -13.7142599155097 26.6340093417164 0 0
-204.263060885618 -38.8641759083064 4.71632370389815 0 0
-202.269791674557 -27.2437422958804 1.70417709385578 0 0
-245.389693411289 -18.140315759447 17.4156706771865 0 0
-81.9250428942284 -0.351144759892974 -3.18197029482393 0 0
-199.303020019293 8.61999582974258 15.0476782232093 0 0
-170.756040322005 -9.67479611014064 0.0998380075338393 0 0
-185.108269025984 10.0508237924061 10.3173109302695 0 0
-139.808427609478 13.877507521127 10.1555200863475 0 0
-202.294295404735 -29.3065558256485 4.10474409713764 0 0
-50.7331350421113 -9.6328791526763 14.636025939441 0 0
-122.849090341561 -1.43495791775995 11.7178768924733 0 0
58.4445783178438 9.94090123117344 2.81877859839737 0 0
-195.904577481292 16.0873160274058 -32.408041849366 0 0
-84.8328313182268 16.6783775952583 13.3097041545579 0 0
-206.170712871339 -25.8265257208943 -7.34025405567627 0 0
-194.467125395695 -20.3018268014973 2.34111029064238 0 0
-207.816846673493 -20.6910924421699 22.3121954475301 0 0
45.8600858417812 6.58442005359905 0.783271255603262 0 0
-215.795573558921 15.2564243975683 6.6617625769757 0 0
-181.528517852049 23.1847639499501 -28.7225190652182 0 0
-74.2490068625893 -0.371537305175849 20.5833912600073 0 0
84.3903757290164 11.7156507659052 2.21664255628933 0 0
-110.952435971629 17.0226152642071 -11.7738023943265 0 0
-220.195087624859 -1.50263619252288 -2.4035640363264 0 0
-194.838562049995 -17.1696541784599 -9.64262609649681 0 0
-152.994993856045 4.68586255997886 -22.6150100501378 0 0
-63.0035687555927 7.59449301203884 -5.93267995415422 0 0
-163.56665230122 -8.04980855291527 -0.110278167310491 0 0
-215.820484228469 18.1778325515916 6.70265396103127 0 0
-117.022845538775 -5.2318140088627 9.53815802280849 0 0
-170.228283859827 16.8813212972652 -26.3903884357781 0 0
-120.412586547133 9.26528065991521 -13.5078574844516 0 0
-227.650931184551 -2.71120020362914 5.16125494264513 0 0
-170.377236470655 -0.74839679928466 -26.9489717130286 0 0
-199.833665176047 40.3277517539112 -11.0002557846916 0 0
-236.996855675859 -9.68103992465585 -5.85596816137046 0 0
-172.123041030172 0.311527875666477 9.28873116253209 0 0
-125.777447415722 -0.56911351184943 11.6299639344693 0 0
-177.00808801326 -5.00566753434653 10.4114033756929 0 0
-203.164027070706 20.123549831617 -31.2136767232779 0 0
-224.13370925876 -33.3645687564318 28.9826661706147 0 0
-221.365474416724 -40.2141786962186 -15.5325515793323 0 0
-193.844076426448 12.4399976356348 13.2981753508286 0 0
-145.340130387957 -2.65969010161243 8.80725575604755 0 0
-163.258443560949 21.3978064753571 -22.2181761603892 0 0
-237.160407903294 -16.5746037009244 24.8068523859205 0 0
-214.440331563179 11.093833414205 11.189199194236 0 0
-196.027149683318 5.99704212381402 -20.4455052980917 0 0
-209.278494907635 -10.2272822060226 21.1049819683611 0 0
-211.725473797541 -0.485831365678794 -12.4709466789959 0 0
-201.316033949876 -17.9487778345211 -10.6864820692727 0 0
-219.323921441798 -10.0636672930736 24.2343542759224 0 0
-217.01902852487 14.3474668746537 2.47553562792984 0 0
-6.48829590897136 -7.37321684976448 4.99103188921297 0 0
-112.803517637785 19.4010726446171 8.89967222602543 0 0
-199.006344382943 22.8384446340636 -30.3946720923744 0 0
-174.528029086759 -4.75095600306005 -25.8790562821235 0 0
-216.444731111493 -29.5442266776282 -18.0631838026932 0 0
87.0113762819818 10.8835131339168 24.3608684054128 0 0
-191.394893820835 6.90617648382888 -22.3463333324807 0 0
-169.985527840132 -14.6521644838696 -13.5956149990235 0 0
-181.631425841808 22.6938539920473 7.78841245824254 0 0
-136.196267469543 -6.2545363286336 -1.67011408560021 0 0
-218.20098972624 -2.65251622518158 18.5191834641298 0 0
-198.4144601714 27.9609241428134 -27.5868165142352 0 0
-215.158389382383 -9.05675506864741 23.4409129626654 0 0
-88.2632866037909 21.3247932106667 2.72181345459825 0 0
-179.446379992887 36.0952316482491 0.475061725872035 0 0
0.529303822836975 0.478232912103033 -1.20961771826282 0 0
33.5596234744856 -8.08533386883822 24.4914680046501 0 0
-83.3396546631573 18.4072594595283 10.5727982196087 0 0
-99.7997985148571 4.63124512132247 -9.08524835431682 0 0
-175.613529500258 31.6256769614602 -14.4308290534088 0 0
-167.373392321559 26.9978573710593 -18.0653808891114 0 0
-175.665231775104 21.2572666375992 7.49160995670022 0 0
-218.566047655617 -26.9854220738975 29.0509795212994 0 0
-165.150035701047 -17.0623789964352 -16.4792027826916 0 0
-179.736903800994 -14.6946037297666 -8.11261571348389 0 0
-3.08750996753319 7.83584946692836 25.2148503318906 0 0
76.9926684976613 -13.7494584766149 21.203517806088 0 0
-101.170936795309 -6.33779880187262 9.14058605468366 0 0
-88.7614195720088 5.87655773156522 -8.34704280903063 0 0
-234.825084230074 -5.05250366610187 14.4942366576452 0 0
-228.310520734682 -43.9438938764059 4.35116089792957 0 0
-34.8599987192144 0.756542615299352 -1.48283212597213 0 0
-200.925349291333 19.9929968573435 -31.1520760379749 0 0
-199.261939914081 -19.5851331052499 12.2536018477507 0 0
-220.339833315884 24.9165407658551 2.97728257414795 0 0
-209.586501215779 16.2448658561058 -29.8021574639191 0 0
-241.372336831468 -24.1799790202733 23.8011524643832 0 0
-190.451784882842 16.8595843622458 -32.6130752925524 0 0
63.7669120091809 -9.71382353571532 5.32115468880053 0 0
-223.33505032226 30.9754195996818 -9.40999276936706 0 0
-192.022924563885 30.5774156426804 -25.3955844780341 0 0
-219.714536535859 -50.9052285769857 9.63290110790227 0 0
-222.102497760569 -32.1273484388596 29.1784395220211 0 0
-159.329770290162 -9.37318674162862 -11.6453235864176 0 0
48.6134970102537 -8.0353368621331 4.78630751191667 0 0
-212.483186198316 4.51492042315506 15.1875640403779 0 0
-215.216657290586 -49.7143571410474 7.26773718902561 0 0
-248.887033777376 -17.8585126154391 2.70215832770294 0 0
25.0520804802355 13.0462057038735 20.5968317070598 0 0
-166.686039637951 -18.7995997220092 -20.3622136930687 0 0
-191.549963657726 28.756224898617 -26.9350044858038 0 0
-166.837875481565 14.627013738518 -25.9297769676667 0 0
-190.113223073362 -16.7482558307472 -8.56211551698137 0 0
-157.768470374415 -7.30886751189555 0.248861177118009 0 0
-153.348851612996 -11.3429119667627 -20.7353800878269 0 0
-122.56779920586 14.6920500049836 11.829962273912 0 0
78.2528722348716 -0.690108210092269 0.00249885326118275 0 0
-174.705347312765 14.2890078616938 -28.7179457742895 0 0
-226.026827057227 24.3737466710625 -9.73332987001211 0 0
-224.246057578252 -14.8730848066794 -15.4662527609415 0 0
-198.008718694377 38.2784080081565 2.67857015967756 0 0
-86.3856475173 0.648386223441612 -4.35982770669038 0 0
-25.2692774724097 6.86541159473054 -1.55393432465026 0 0
-196.393042657336 -13.3609219670182 11.9377941792891 0 0
-194.509586989529 -0.235182539622598 12.6492625452555 0 0
-152.08303269235 24.5053071256379 -15.1020786138022 0 0
-189.224072550866 14.8177035299787 -32.8219469027866 0 0
-222.064529602864 -1.60410936527018 15.0586192072493 0 0
-199.368535396353 -8.06478752614412 -14.3076936474755 0 0
-211.830137947765 -12.821262290637 23.7709964950983 0 0
-158.970756847895 -7.41664260299419 4.71806162707036 0 0
-244.907763581868 -39.7915809942855 11.0120635527447 0 0
-183.443752321831 5.82411389103573 10.0578008127765 0 0
-83.564681185123 18.1668808527501 -5.55978890123121 0 0
-143.853676257954 -6.88150281958235 -2.13423355001248 0 0
58.0146472205874 10.2946063940905 24.1173855171592 0 0
-212.302928924381 27.0272863809215 -28.199520111839 0 0
-140.629720225279 4.55003920257427 -17.7727430447612 0 0
-168.436162115597 -9.53022462729473 1.70473703371492 0 0
-211.159179983013 36.4550719718259 -7.46362909384851 0 0
-10.7737628485716 15.6182830852161 12.540410415385 0 0
-180.139093355549 22.0886215036703 -28.7457418614809 0 0
-207.388307579486 -26.1202436620447 22.1907624611141 0 0
-247.100115344988 -20.6343803047421 15.7766968101445 0 0
-213.086835186803 1.76339485923212 -9.93316936750042 0 0
-129.631119037441 4.25922072329239 12.2928405286454 0 0
-146.217563245768 26.5631479643124 -6.1411468496861 0 0
-221.684141448114 31.4164846300094 -14.7528028705582 0 0
-188.53853648044 -1.36310471769281 -18.7835165868625 0 0
-43.0853177488828 -10.1062645571139 12.445926114781 0 0
-217.801433491716 2.86691664151257 12.1215761005933 0 0
43.7045245045813 -12.1996010545307 9.94050041577296 0 0
-209.595381125904 -46.1029736830735 3.4397180840465 0 0
-150.286909865758 -7.31743474279596 -0.811996975241605 0 0
2.97778249928441 0.275152244770761 -1.15025259688071 0 0
-82.8909936465179 13.6068044711347 16.8094109346309 0 0
-220.227179707542 -2.22292623992999 17.9607481573384 0 0
-189.921804370318 38.587611098875 -12.7982889347041 0 0
-198.050800511733 12.6495907500861 14.2755215923726 0 0
-19.0633629985617 13.4984916216351 6.52344387372802 0 0
-215.139334111949 2.96184305285819 -6.48452081593366 0 0
-216.649005013809 12.4910132801646 -2.71296142383356 0 0
-213.85021873087 8.95665833863006 -6.39311104406639 0 0
-218.614031077763 33.2610648038269 -2.1160482794848 0 0
63.3742156992981 1.07576362215599 28.4004502538961 0 0
-228.628779129357 -7.16959620622898 -7.50938799674059 0 0
7.29438617786792 -1.13693703119186 -0.168651170914813 0 0
-222.877898058625 15.048002312257 -22.2381685809654 0 0
-29.3576706038364 13.8367001791356 18.9715659900868 0 0
-245.136521406386 -33.168850268571 -8.8084442043685 0 0
-225.187132185243 -16.2020770876993 -17.1360239620754 0 0
-220.573446565037 31.8097992585458 -1.67504879424741 0 0
-203.68083841029 -25.9434713259331 -3.53054725960688 0 0
53.260772061077 -5.42984654632249 26.8423385651393 0 0
-188.798456607667 8.76902549719966 11.6514442791211 0 0
26.311762283407 11.2562951835079 5.67532904592681 0 0
-129.216297694829 14.0067552527989 -15.6986982377082 0 0
-189.710924322625 -17.3679716889028 -1.19294107960286 0 0
-95.1685595321372 5.80019568178592 -9.37861351489099 0 0
-203.697083352912 -22.3974863091026 18.2639468631169 0 0
-104.344210844861 5.45604244210419 -10.3391612157519 0 0
-206.321510027269 37.8351887348778 -1.50343691720988 0 0
27.2726643461769 -11.5975547631243 19.3839454613274 0 0
-192.838519672444 24.8991824637953 -29.6860719320046 0 0
-167.372124533055 24.299364076407 -22.3235791889341 0 0
-178.525700654483 -10.3164520672561 -19.8633897464634 0 0
-120.440210119416 21.6931128992803 -10.3003072523108 0 0
-152.420316268087 20.5988193223895 -19.7421258299446 0 0
76.3587116627123 11.9692254303411 22.5260205352088 0 0
-173.674173201217 -17.062122444513 -17.0421020645576 0 0
-225.727096764784 20.1533276649519 -16.7514453228309 0 0
-10.7343173310087 13.6176208843835 7.79919285968279 0 0
-50.0303680968852 11.9918313351152 -1.06703544324863 0 0
19.7443039058466 12.1333787464567 22.0014978361613 0 0
28.6810674710819 -2.75607518317116 1.53055661887119 0 0
-7.08303207739436 15.2759647668826 15.6342759134051 0 0
-205.551984259121 -27.2267321559332 -5.28084433474764 0 0
-64.6576792261458 3.66384433297358 -5.49465511059614 0 0
69.1420443587585 3.23286420255922 28.4077122528742 0 0
-83.7845243712221 5.12415369730171 -7.23675642072612 0 0
91.9492833169577 -6.18360409703606 0.980195415538308 1 0
-133.804250430826 10.7159075451657 11.4862838267748 0 0
-218.389079542314 -39.9016496659618 25.0976225268295 0 0
-201.300247555912 36.2810497808835 -17.4050075471753 0 0
-155.435287788142 -13.0109397102354 -25.3285481444925 0 0
-219.852593710179 15.775890852158 -18.434646428596 0 0
-203.004869205708 18.4218384551361 16.9319430274681 0 0
-229.359649448717 -45.2002234047525 5.40300130160187 0 0
-152.933016616389 11.7184858569912 -21.8009258351072 0 0
28.1259562707934 -11.7803785160355 10.7435015463428 0 0
76.4322160967718 11.1225096218585 2.46658492811829 0 0
-215.96911121088 -31.2620969337677 -17.5871010881111 0 0
6.42621956226075 6.00324699501889 0.152957469239238 0 0
-172.38158022029 7.46122866123105 7.76875112888193 0 0
-217.748743810427 10.2128962292944 2.09430228020727 0 0
-162.624968962181 -9.91704638364705 -28.9291979984278 0 0
-125.68246184204 23.5994732483153 1.49493023245676 0 0
-127.889918471619 11.3461048546398 12.2663739676032 0 0
-25.0045743361686 3.36895463070486 -2.91454196156091 0 0
-172.700558223213 32.8810790433295 -2.86833579983555 0 0
-55.9335935837896 3.30764860738583 23.4746575013345 0 0
-229.353607827035 -49.7935595040618 14.6425782885605 0 0
-31.6960007753611 12.2737899550052 20.7889949240545 0 0
-195.62194017402 7.89343746602076 -23.6012954301158 0 0
72.7020098172943 -7.41722053172178 2.86112071749425 0 0
-38.9341022199225 5.4981232976133 24.5477668805638 0 0
-113.068541639769 2.57640451829972 14.8846425584931 0 0
-227.657125424722 -22.5740674983395 -19.6980103234956 0 0
-27.1483380809783 16.4046433668209 13.5039264746294 0 0
47.7189439833142 14.1476826274958 10.4223144646322 0 0
-89.0855791478991 4.02935850650079 19.4981883374227 0 0
-99.1065545407759 20.6260216327143 7.05092309692862 0 0
81.9343244536079 -5.8059333917019 27.6297497837551 0 0
-213.641178870442 15.9579618819218 -10.6061080047906 0 0
8.92957896915568 -0.634624527918266 26.568424085304 0 0
-144.044133932298 24.3313405766302 -12.7227165282579 0 0
-7.56984999121864 -0.283631775818552 -0.702300891777084 0 0
-78.6467019386697 9.35726730127858 -7.85863688926739 0 0
-199.353063688129 -3.52081836998051 14.0573354470149 0 0
-202.774122223402 17.7328243512672 -14.9694817243986 0 0
-236.725675201612 -41.6053460941068 -11.2862491136225 0 0
47.2380061740647 5.77288732154767 27.0986274048209 0 0
-100.423212105893 9.81715963035379 -10.8502489017747 0 0
-111.840239748766 4.32490060300911 -10.9041528098839 0 0
5.09929810364839 -11.1247035079605 18.3105176442898 0 0
-104.304452804978 23.2951013270808 -1.99813443103867 0 0
56.1508981977376 -5.36283025818455 2.92946573374925 0 0
-7.99087927455697 -6.44547787057999 23.3611214847108 0 0
-214.902268303618 8.52997922428893 11.3960987476494 0 0
-181.921737749057 2.33969892445732 -25.7007720737621 0 0
-250.450137304373 -26.452244122773 7.47674575907944 0 0
-197.031338009942 5.34671742681745 -19.2111243799362 0 0
-19.5227662647768 3.84084961404676 -2.65293519935282 0 0
-193.381479878291 26.5953540661002 -28.531907502031 0 0
0.933472985551511 4.24674346933405 -1.61615247420432 0 0
-234.467142715248 -28.943009131289 -18.0866992058367 0 0
-175.87695662028 26.1163810344477 -24.2438964695291 0 0
-234.044615520749 -3.97528041079782 12.5748913481378 0 0
-32.7533155107962 -1.5424738751587 -0.179358058529027 0 0
-208.571933816327 -3.55992577235642 -14.1060928700094 0 0
37.0470231312913 1.88705813822782 -0.810611681258982 0 0
-211.864668278845 -47.4008109413119 -0.0148932053512846 0 0
-241.714637824291 -42.7835508357576 11.9454547821787 0 0
-149.050410050954 26.7829715198802 -4.98049013973977 0 0
-232.728790159969 -16.1061625280161 26.7164502196931 0 0
-209.713412023177 -29.1904218711768 -9.70850199837744 0 0
-197.827610606411 14.39982785985 -31.3877599708721 0 0
-219.70063188179 17.8153146193515 -12.5302536365712 0 0
-210.238861058246 14.4709369938028 14.184789057797 0 0
-189.318042601546 31.9709344154181 -24.0591245079518 0 0
-134.336069642769 1.52427713913093 -14.9104826671144 0 0
-93.9477755493607 13.1804160955254 -10.6877085879144 0 0
-172.638600192439 25.1319150400232 -23.5086980895982 0 0
-221.280896596664 1.33998046485681 0.972407719860885 0 0
-85.4576922371141 10.3073947831823 18.8908058799096 0 0
-75.1377311045282 8.34133780200726 20.9102029715571 0 0
-205.714796718754 -27.6579813276036 20.4411458451816 0 0
-182.735844173065 -1.95191618106292 -21.3439493275259 0 0
-248.436262117698 -19.5179528494845 11.7709685827508 0 0
-43.6212666337199 13.0351102841597 19.5734679542176 0 0
-180.718743211559 3.84297138612222 -23.9233116294974 0 0
-227.043274227272 -34.032451598335 28.71187567144 0 0
-110.657494270314 1.59984877734671 15.0400423800038 0 0
-101.288627578158 19.7093746052645 8.76015726897171 0 0
-226.987621421985 25.7633613481476 -16.267639834702 0 0
-180.92615855424 14.0339872636515 8.85910972704842 0 0
-185.643710286934 4.52344826342168 -25.8412823350923 0 0
-222.363342327631 -9.33851473516418 -12.6943268516682 0 0
-161.499079489186 24.8138428745399 -18.9481893220287 0 0
-229.22321607195 -32.2916023902364 28.8674065023807 0 0
-181.955706687605 18.3604037303266 -30.2077159432274 0 0
76.4179885953138 -15.2621027728743 11.1845387256643 0 0
-221.062844126021 -2.64913512645905 -5.12116755645285 0 0
-1.90274713672351 14.9936260274493 12.3898919474894 0 0
-172.816614883603 32.8495481301348 -5.8259891268928 0 0
-246.920935378602 -14.1996513590691 9.21178215024506 0 0
-217.324854740095 24.6984370133364 5.94061327631488 0 0
-216.67869779583 17.6787435946401 5.04243370519267 0 0
21.6602328124402 0.453398834167894 27.0853129615628 0 0
-188.134589391449 -8.75308570134612 -15.8301319128448 0 0
-219.870757473752 -3.69605262373125 -7.74817637849715 0 0
-149.294380841612 7.69058138180846 -20.9627422034256 0 0
-94.7195230592357 3.27422861447507 -7.35127633433605 0 0
-212.324013712226 34.9951035375854 -16.3933922800118 0 0
-161.889874511691 -10.8640030284756 -12.6370353849696 0 0
-208.101465101616 25.5727325937847 9.157615657416 0 0
-135.082576521418 -6.42115746780978 0.796709087508153 0 0
-100.2501838417 13.9114658497608 15.0230964292775 0 0
-187.001933974483 -15.9707121807909 -1.09120103413865 0 0
-120.601620903233 -1.41785147923405 12.0448758309773 0 0
-175.628336870107 -0.308028141970866 -25.2500157972587 0 0
-205.715004555767 -5.76853613792717 17.7060819050041 0 0
-25.6058581109682 15.5616017510766 16.2298389858277 0 0
-221.910676978373 -42.3822437632174 -14.0070208998402 0 0
-226.521746366701 -26.1532885875495 29.9159339854027 0 0
-80.9189656094502 19.7254114955589 7.27396640751432 0 0
-38.0371927598611 -9.56283605646938 9.22948189267252 0 0
-34.0298930126484 -10.1778213281689 10.8016014758505 0 0
-41.859752329995 -2.56903908093326 23.1931097982188 0 0
-199.822478413498 31.4292940977665 6.152533301046 0 0
-133.014396015122 7.77286911289297 11.8847270389284 0 0
32.0756900652939 -11.6870369514816 10.1063821754043 0 0
63.8305709851574 10.4839629890118 24.0132538249866 0 0
-202.747461259226 12.8563638812932 17.5116913835435 0 0
-199.526968775271 -0.934466632739418 -15.6935857567105 0 0
-83.6361611712492 1.7302272802928 -4.93887546285707 0 0
-203.662481679946 28.0887547679452 -27.7698694042976 0 0
20.1822496426987 9.65866352447709 4.13137546769927 0 0
-203.668683549308 -34.6526426357334 15.2858654011445 0 0
-118.674700175571 12.3345485495299 -13.9423361967291 0 0
-226.853224695624 -51.4551449357682 11.2594188245453 0 0
-118.647755810808 -5.45133004585185 -0.244843030118004 0 0
-158.295622740999 7.58065013678129 -24.3249317125699 0 0
-162.230727664749 19.1302533712936 -23.0534499448257 0 0
-198.500812682762 2.90819351596694 -16.8927274259963 0 0
-247.005489959134 -13.6860433534821 3.61780218397835 0 0
-238.719056499939 -42.5576821165171 -8.64567109697565 0 0
-14.0564757192051 6.28060252790908 -1.07686032554532 0 0
-17.5917637897744 -11.0423421347706 14.0745551327374 0 0
-204.911940660835 34.0872738870123 -21.7801036032205 0 0
-200.544461535609 17.5370492002285 -31.2590076252887 0 0
-232.349199530002 -46.2537885978472 11.6597376038213 0 0
-199.108188213948 35.6031069669209 -18.7759395873137 0 0
-35.8264654011927 14.3114462055666 4.70326646203995 0 0
-198.138009600296 18.9350328557874 14.0248569049698 0 0
-34.2841369720661 16.758855297564 11.8904174512198 0 0
-209.797086044189 -44.7251025163424 -1.7993235964755 0 0
32.3929591922856 14.2980536214276 12.6991512798828 0 0
69.9222429731467 -13.7557238020429 9.10978641334744 0 0
-218.305897397342 33.2348998460483 -6.73340018871354 0 0
-208.09313669852 -41.9219441822131 -4.71211390545631 0 0
-153.012112991763 22.710929355916 5.29860354291594 0 0
66.0684702322041 1.91915181981942 28.4579922257246 0 0
25.9495540309812 3.98876844677447 -1.26233598846546 0 0
-191.478430629591 14.0786711286255 -32.6892149536629 0 0
-45.2365681355648 2.01972130539376 -3.03970388560995 0 0
-206.501902960007 19.3584152996369 -19.19774088149 0 0
-226.423635159665 -20.431429582996 29.2703479713876 0 0
4.35948995505373 4.09651794729691 -1.80748827942497 0 0
-217.497300010805 -18.841009253608 -16.3751955386142 0 0
-198.72272556691 -20.8413932320474 9.91194632436955 0 0
-219.573573190855 1.52192801154772 11.6310775879322 0 0
-166.121782638061 -4.64109714415806 -27.9108498962816 0 0
-208.983711970524 36.327015027324 0.522022266266258 0 0
-173.786064304376 -13.2313425472505 -23.2472346207522 0 0
-91.0289891089445 9.58439875196612 18.4535020407178 0 0
-136.045681841331 8.56383534739833 11.3575927049689 0 0
-213.982779008647 -12.0337100253887 -14.6101567207177 0 0
-211.566468103111 -24.9321112140798 -13.2452994060101 0 0
-210.527737824723 -1.94083160035858 18.619180375217 0 0
69.5231813162894 13.1204233657682 20.1489268997639 0 0
-119.889052275556 -2.47390754828408 -6.46503155240852 0 0
-56.4856416170355 18.0855122934449 7.72869356591739 0 0
-219.299087780044 -29.3614151008367 -19.0614818910409 0 0
-190.195061626353 -0.361186940063656 -18.5813187756766 0 0
-158.813278114603 16.2876473979707 -22.9352501359191 0 0
63.7115529600442 0.22271667821068 0.0028492581270967 0 0
42.709849848494 -6.22980284049781 3.75360722598717 0 0
-219.694618574536 -47.3469601841812 18.4008013680948 0 0
-226.445582121456 -12.0009484888615 -14.0221860737045 0 0
-233.489478775827 -47.5987247299477 15.953214590706 0 0
77.1842939278195 -15.7069259418039 15.3611345336229 0 0
-117.971330107552 20.7065187594598 7.21685639907514 0 0
-209.484404895963 17.648073753357 -20.2482972718296 0 0
-186.612874561403 21.2970759448713 -30.8981825463173 0 0
-204.291043211479 -22.8531550592108 -8.00422261054782 0 0
-105.282129864868 -0.759864054437023 -5.65656369857449 0 0
-136.997780954266 1.56487499320018 -15.8971340244952 0 0
-246.170896199494 -22.7296398511715 -8.32892661021138 0 0
-167.8156406128 -3.45115229166803 -27.5186666486288 0 0
-143.665871129608 23.61844574052 3.08960783928453 0 0
-76.928858331415 13.6317087175853 -7.50197064714579 0 0
54.1023675726369 -7.2875602516928 4.18720061061677 0 0
-191.517766835474 -2.88341904288 11.3000809692538 0 0
-160.568922033414 -5.89369152624814 -27.8928528957955 0 0
-156.681264047687 -7.88647470098896 -9.87005984830243 0 0
-215.899758249754 0.0308504043565104 16.7988235672641 0 0
-163.006539273679 12.692404672193 -25.1802384330408 0 0
60.887539194245 3.18808031903316 28.1642042741998 0 0
-138.333417044366 -2.48874627738712 9.51257201890995 0 0
-217.166820097864 6.56388963419361 -1.72499624879481 0 0
-22.0059018865163 -4.00352566214683 1.60490942325405 0 0
-105.773321279331 16.0846714608896 12.7895307747228 0 0
-115.323257580439 5.17640761186334 -11.752538129066 0 0
-119.492950378023 2.73335331468365 -11.5685119533189 0 0
-13.0829159958755 11.1199166954695 4.12121224036736 0 0
-158.540250405956 1.34641300686169 8.93521408207546 0 0
-216.565514210839 -13.8219604814155 25.5193183247266 0 0
-188.932513882726 4.04074070223705 12.3856928275177 0 0
68.5600349194041 14.8076845308475 15.4368264003451 0 0
-227.478876503886 -16.0141556406081 -17.5569780403913 0 0
-212.570017413437 35.8336130811254 -5.58049430166856 0 0
30.0276757197697 -10.7552423812877 8.53061598542886 0 0
-214.709239355645 34.628488243329 -8.01971015919054 0 0
-201.042827336681 3.99726743584471 14.5737034165127 0 0
-121.262295551578 19.3168087960778 -11.6470653287406 0 0
-5.73708775152446 -1.85884216957228 0.268360025640737 0 0
-214.668825287677 -31.8112086265901 27.1199785371151 0 0
-215.277111990102 21.0714518421534 9.59070907596652 0 0
-68.6201617802482 6.38729102059476 22.1545152457969 0 0
-223.870203563838 23.1229938064013 -5.23385064584963 0 0
-250.514893208393 -26.3212680805083 4.08809606069728 0 0
37.237930166701 5.07726496409533 27.1190893684571 0 0
-214.986173853378 10.416249668457 -5.04625254640054 0 0
-195.533850726262 -5.35445807179681 -15.5868418794448 0 0
-92.3155959970963 13.6968110814018 -10.4748891943891 0 0
-180.305743054191 -6.04475719277831 -21.1947803029969 0 0
-103.061812138817 -1.66888451165305 -4.2742104758336 0 0
-135.451889709768 14.06503686886 -17.1657692869714 0 0
-215.73807464666 -35.4135452493501 -16.4868141767664 0 0
-95.3607344874309 21.0817233698934 -5.613189890941 0 0
-118.802003662243 17.917217206466 -11.939880980042 0 0
-75.5679090799634 0.0651326475605647 -3.14537703001488 0 0
-15.5167134432703 15.8439270071667 14.0017707062974 0 0
-142.058051863211 4.48500296149659 10.3916050244475 0 0
-224.557355893267 -51.3820437521052 10.348663856021 0 0
-15.4600672453014 3.33667241722818 -2.51117625586742 0 0
-213.351578076661 20.6882657212967 11.5651560189454 0 0
-24.2041550245194 -1.15331004848378 25.1698898619804 0 0
34.3364704379361 1.77011865293622 -0.859176849083907 0 0
-226.706799098414 26.7548322379128 -14.7104342389542 0 0
-58.7440702632512 -2.61370801650158 21.4108534904448 0 0
-215.918701187183 34.2549893855266 -12.0614010995379 0 0
-106.985410062811 10.7660757839734 -11.8718117066175 0 0
-207.606066043142 18.3715002045548 -20.6848495604076 0 0
-245.148102009315 -19.6134770628122 -8.77788333196587 0 0
-134.811595146775 -6.69566435028143 3.66261635324593 0 0
-202.281775333838 16.2791813720871 -30.5636875443032 0 0
-208.350080177462 -35.9916960652017 20.9377640028978 0 0
-178.425785571191 7.37074341839478 -29.9347722099653 0 0
-216.721733328055 -46.3898572921653 18.2556383443408 0 0
-119.346170866435 14.6419284647332 12.2475761940764 0 0
90.6204108330337 16.1310242411696 12.4320989442352 1 0
-98.445880284969 9.02051292416095 -10.5339410859432 0 0
-149.731057843721 20.3938808369096 7.0022621340261 0 0
-212.669970824918 23.8583422555534 8.97843028653405 0 0
-205.419730004677 30.607410013507 -25.5945851091166 0 0
-194.690002989429 34.6132523191911 -19.9953082324398 0 0
3.2775324678864 -11.392540969636 12.4034893290684 0 0
-62.2244923743319 12.3227431465105 -3.8213854050426 0 0
87.7293214939226 6.3556709724911 27.6847545428791 0 0
-49.6958034068955 -4.31398689867417 1.54539938987927 0 0
-155.38392896193 21.848784214149 6.20518746934444 0 0
-228.656205326353 -17.1295049220416 28.0937825615696 0 0
-188.746345940087 5.10254569952885 -23.1893502318281 0 0
-222.003958814807 -28.6497369825279 -19.7370691987213 0 0
13.8309418329716 14.6845401189946 15.6429829424588 0 0
-71.7167724153254 3.11352889977355 21.8427918871118 0 0
-224.102470871218 23.8963917620674 -22.563849172881 0 0
-223.556818021227 -35.6795917519687 28.191933811307 0 0
-206.208321864955 19.4806183389329 16.1855423188314 0 0
-76.4976864759241 4.52165128627596 -6.27725283897965 0 0
35.6018783611422 -11.382095709367 9.15467375669256 0 0
-228.565288646432 -49.0351048368447 -6.69808358060934 0 0
-71.8153187197379 19.0040601125018 8.40932421318313 0 0
-131.389106912416 22.5543994912648 4.24239235329661 0 0
-143.841126716526 17.1431860006701 8.86871981398851 0 0
-224.311382116971 -3.30307513329851 -2.09417343818595 0 0
-215.04417662229 -2.56648947402758 -11.4016306538075 0 0
-154.256815457974 27.5540063949603 -4.92241430788204 0 0
-243.962482014559 -10.2094390717981 10.061069977934 0 0
-248.40644834135 -17.5769728627732 -0.0401181641644396 0 0
-208.242649464396 -30.6959472379857 -7.14753990820573 0 0
-229.271402474323 -11.077356361401 24.5420189956911 0 0
-158.869112564921 21.2161594687103 -21.8778705705427 0 0
-221.679506567908 -12.874777007549 25.8791760442135 0 0
55.7547063776955 12.0299922179979 21.8011669732332 0 0
-104.088076380358 3.94919114221827 16.8361488670501 0 0
-233.952255867207 -17.8746506982804 26.9513081030918 0 0
91.0503433140106 -14.5832536395146 21.3569299739332 1 0
-224.750001044332 -48.304260402133 -7.62725511620729 0 0
-123.65036874668 -6.35842838552141 3.27274606350784 0 0
-170.081220123275 -12.6856061892651 -11.1820826760301 0 0
-96.7632174506753 7.50276253778439 18.1348702638942 0 0
-159.377188488455 -4.83055708110123 8.37571904871889 0 0
-234.907040698898 -3.87211319075286 10.9133511902441 0 0
-215.79475104287 34.1027278025847 -1.73990559957102 0 0
68.8501536128473 -6.24024683999814 2.46647753789916 0 0
-171.492054530074 28.9175903165862 -17.0944018491675 0 0
-201.906501497871 -29.8154387273194 6.30247312037667 0 0
-211.269532700806 35.2611769847337 0.614683967012786 0 0
-230.091513628139 -16.2656098174057 -17.3003349947887 0 0
-154.026479637374 -12.1161621929024 -23.4136373664602 0 0
-83.57585847585 16.5796603826647 -7.0688382593577 0 0
-207.369531935975 37.912771595393 -12.6320585325628 0 0
-122.719104955128 18.132526555579 -12.9344984621565 0 0
-218.168806888619 16.9483629016331 -2.37538025564939 0 0
-247.639013631007 -34.6360589135258 12.9358175548417 0 0
-214.983301936457 18.288415686914 -30.5853965756792 0 0
-29.3249527453073 1.97691898978618 25.3868751818036 0 0
59.3565829486187 -5.30898910877755 2.73148592567365 0 0
26.5455633506045 2.4060504124403 27.3212738576666 0 0
-216.922081638386 -48.4890677594692 -4.08731729404886 0 0
-184.454783550275 -5.88008554025002 11.0423521440837 0 0
-196.77963930922 0.542424075006063 13.1201744729083 0 0
-171.601439351621 -9.53685801432176 5.51470986620817 0 0
-201.393375649386 38.8275782105367 -13.0476236746391 0 0
-167.260836263546 -7.30649714319551 -28.3062712786008 0 0
89.2667353071349 -4.19124636562944 0.370577071894398 1 0
-71.5232355529582 4.31719204028628 -5.79682674308691 0 0
-126.280217225494 14.3421549965864 -15.3244233861121 0 0
-135.273944017791 5.88098581039736 11.5326802520156 0 0
-209.112427397892 6.86738216031917 -10.0040412276619 0 0
-227.195357726993 -40.4355893217134 25.6187262830918 0 0
74.1080834936991 -15.4780289456167 14.845452137464 0 0
23.3453392400325 -4.36853547643286 2.4469325270016 0 0
-220.70598807127 -6.12873677660769 -10.6437621640353 0 0
-168.920053344783 6.76063415708014 8.06449868418862 0 0
-40.4205607729515 9.91844664516989 -0.793517147765926 0 0
-215.790036267198 -29.2631782325484 27.9863336614308 0 0
-217.993762164513 -1.13073623558875 -6.47309332035852 0 0
37.492990450664 -6.49306266886361 25.7088545431416 0 0
-153.784031688085 1.32186749186664 -23.3636048700422 0 0
-219.820123566505 -16.4601240213523 27.2243615124045 0 0
-195.865365137717 41.6754320157945 -0.0680265294386861 0 0
-176.644178286552 -14.80843813904 -16.6719230138171 0 0
-193.506370092514 1.89558072308554 -18.8036390087769 0 0
-101.894753785825 7.10751840973172 -10.2776068831195 0 0
-165.797561231101 30.446937833051 -7.08166534078884 0 0
-116.203919901798 22.3522313683497 4.5656483596551 0 0
-140.601152035552 23.8531900880191 -12.475719037465 0 0
-191.875280395533 3.78136292275206 -19.9407636989493 0 0
-197.312184221395 34.9711668817812 -19.746693873746 0 0
-243.189945271785 -16.048326455588 19.2077546255034 0 0
-242.150178363987 -10.8660567213896 15.5609622555339 0 0
-218.235339422361 -4.67873091062859 20.6501901548763 0 0
-203.180862938811 21.2133681325202 15.316483161341 0 0
-213.258835252758 18.3679212298903 11.303595122143 0 0
-233.92453240455 -17.7275763607248 -16.9370087746015 0 0
-245.120447922284 -38.9952182527476 -3.87465094416346 0 0
-178.765010896008 1.90397160694547 -27.689839874329 0 0
-149.735963081551 18.0003797679715 8.16033261988248 0 0
-70.6480941439569 -2.37934445732323 19.9841501442325 0 0
17.8370037363956 7.46298688792663 25.7922923929405 0 0
-107.47702081981 23.4889870760752 -1.39684102499375 0 0
-109.8078081114 15.7295017985311 -12.8139521271731 0 0
-206.034111594317 30.454505927749 6.87368387368531 0 0
-34.1386011037686 -10.4960200091989 15.3523078486955 0 0
-221.317489396677 25.6189216551661 -24.4488109426732 0 0
-227.241567885173 -3.46904390753364 -0.272507291350969 0 0
-153.960526880128 22.6469245298755 -18.3168188681934 0 0
-171.25255060701 -13.6833733644061 -25.1751942711922 0 0
-48.4198102886054 15.8482763033046 3.68730523139738 0 0
-29.8340202986484 14.4199951716633 6.12319023340428 0 0
-180.994839373012 32.670419817598 6.35268398794816 0 0
-234.899045233931 -4.65923294918615 3.26564506095436 0 0
85.9275137548265 -16.4362731872153 15.7076561241425 0 0
-126.637492907465 -5.91497738524692 7.57265089324921 0 0
-217.527435337185 8.14732133569024 -1.72251183613848 0 0
-82.1318637762293 6.40809731342375 20.5343106410014 0 0
40.5982786056568 -11.6985271125287 20.6666922645638 0 0
58.0224785499718 12.2257634409113 5.26935910487588 0 0
-196.371429345915 3.40519066106453 -16.900369924048 0 0
-99.0291098931746 12.4770100536679 16.0599310034595 0 0
-69.5148179392529 17.4563666203145 -1.5488564679075 0 0
-206.183540149845 -34.8513099020921 18.7903370462662 0 0
-103.84689189559 -6.42471721892732 4.40861789971351 0 0
-206.078400528683 12.651456911248 -10.3220538512276 0 0
-216.735073254124 -13.5228871629927 -15.2183599783372 0 0
-127.460010750232 20.113317200633 -12.5130232493185 0 0
-210.655954704902 21.7054370052039 12.4028299571535 0 0
-200.911371447477 21.288976708782 14.9081251976481 0 0
16.6912615147709 -8.28014695563622 23.2298133978754 0 0
-220.21211448147 26.7702175526451 2.82884501379743 0 0
-230.542981558799 -46.9557482726044 0.0182450994630455 0 0
22.9292376316061 1.88708402033651 -1.66525383870434 0 0
-93.8803865426099 7.85630510334436 -9.83790832755345 0 0
-216.73198082328 10.2556302104429 6.38676225720262 0 0
-97.8902325840997 -4.21975098373028 -0.503307118886356 0 0
-140.938664479641 16.3495438401428 -17.8075325037153 0 0
-177.725561503114 14.3583372538385 -29.9167756079865 0 0
-246.931118566625 -24.154244309985 17.3690564582996 0 0
-180.803103262264 31.2169456743353 7.39127083459206 0 0
-147.060153906151 -6.06909914746579 -5.94063532412439 0 0
-250.431081326977 -24.4369031209233 6.35328583872029 0 0
-137.510744279509 22.3820422125225 -13.3370044420518 0 0
-157.178477389269 28.2543305835309 -6.38545615473457 0 0
85.7034235294011 -15.5680943938459 18.8243903282373 0 0
-61.2577172138847 -3.20165257793739 0.113888137709888 0 0
-31.2221505576244 -10.3143129610331 16.9288204234754 0 0
-182.777241818578 2.96512467754544 -27.5690434893367 0 0
8.50083764238438 -10.4269235490728 9.27901832732144 0 0
-236.368035493023 -24.6721324270327 27.130600780466 0 0
89.3190173752099 8.60546653616412 26.4007030416376 1 0
89.3200775602705 14.4845592282184 18.8290872078522 1 0
-177.981716930762 0.47527590059975 -26.8512162078045 0 0
-115.701703986865 23.9811127478624 -1.46837656941041 0 0
-167.345623643863 -17.4602984543439 -15.6813705084598 0 0
-156.622572199267 -1.44191273439193 8.79681054174262 0 0
-88.7684943847482 13.5101066455862 -9.80319935705633 0 0
-236.814314009252 -8.2668929344256 -5.95422379758817 0 0
-19.1813702049071 0.853471015093094 -1.43123329522397 0 0
90.5643753979403 8.7695468302055 -0.283272947538961 1 0
33.5289215233016 -12.7701284417317 15.3390136938129 0 0
-227.263209635484 -26.5174924969647 -20.0468676856235 0 0
-7.5217591378078 2.77374362787392 26.3043815321524 0 0
22.428866206053 -7.47151594603865 4.88912015249259 0 0
-226.961937647592 -46.3400815283122 20.2677594818268 0 0
-213.639249297931 25.4668322236211 8.10897059078008 0 0
-163.999807575644 25.9122016404654 3.79100831898507 0 0
-244.646884502465 -29.9555568574078 20.4258903174368 0 0
-156.945243395442 -2.6509232662843 -26.1177679762253 0 0
-173.58866530258 31.6659406580341 -12.1609170989799 0 0
-220.704883075364 -22.6130945415123 -18.8046348887827 0 0
-147.028510674811 -5.29707644660312 -14.9407554049978 0 0
-179.668607463811 36.5063424982025 -1.75348268212397 0 0
-177.748188752365 -1.21874915192933 -24.8232262915275 0 0
-245.665039275296 -27.3180439585987 -9.55672159000968 0 0
-220.300815752732 3.27277982942137 2.46584751539283 0 0
-217.951119383299 25.7341202509485 -27.0184496691338 0 0
-221.788839414428 -18.0355432169693 28.2455754327466 0 0
-202.588277490891 7.23077954619004 -15.2920774732999 0 0
6.45055000045255 12.2155336765205 6.77146888651236 0 0
-73.491044310062 -0.708740188430646 -2.46042056788833 0 0
-240.619856787804 -45.6300679110321 -0.257449490522266 0 0
-166.813738382669 -9.6635136247427 -7.78664836395378 0 0
-205.563852674351 -42.2103406923501 7.56298151738392 0 0
87.6725601579383 15.24771402879 6.90801519153016 0 0
-159.439778820673 28.561491885583 -8.44349237764181 0 0
-169.528660625595 22.6275628861342 6.66301109295013 0 0
30.3685094506904 -1.20948501089037 0.448002030339675 0 0
-190.79154663163 41.1000892264036 -4.22095908456811 0 0
5.74423848131493 -3.31883838055277 1.35418952718328 0 0
-88.5872817679008 7.49255214313383 -8.67806665373774 0 0
30.9414801093576 12.7323491991809 7.69621448952152 0 0
-200.582092701907 -11.349827647137 14.7861438571002 0 0
-185.715613807173 29.681742748694 -25.3763044130504 0 0
-218.387582125959 4.04010809511191 -0.283261817489152 0 0
-220.387579423333 20.8594056880185 -28.4104111652595 0 0
-232.681609896472 -46.440590586374 -0.177901869879395 0 0
-158.980642713257 -7.29759319107626 -1.65745523254307 0 0
18.5991145312056 14.1404124611951 11.3291745959351 0 0
-168.967003499786 28.4646326276296 -16.0622513151992 0 0
-150.422538465714 9.68316396357011 9.36612736280129 0 0
-187.316509181187 40.1024120280039 -8.57462876714072 0 0
