"x" "y" "z" "f" "a"
176.330576373683 21.0414954708722 -13.8267255040951 0 0
135.240315732188 10.9080833395187 -1.30969944620899 0 0
35.2638796083665 -14.2984699937261 12.4205907879797 0 0
164.679647346888 20.7279684053925 -6.30427579221132 0 0
61.6814156417134 12.3637784993925 15.2975372814455 0 0
206.271147774369 -22.8971089606399 24.113282658619 0 0
-41.1252990593495 0.964866674954744 18.6280519231055 0 0
-127.215544997985 -20.2292712675361 -3.03940013334235 0 0
24.7398086566091 -0.714359790102191 -1.51404645059169 0 0
163.778780840304 13.3768396432001 -8.38236320801174 0 0
183.676768786697 -26.2341013343824 -24.5714168167047 0 0
-81.4671952169075 -18.2523705900429 7.6913919610024 0 0
-81.283154895527 -2.44883176582736 -7.28652951982629 0 0
175.951734789335 16.5058945909493 15.5913192752009 0 0
175.881805632417 -25.4285611051026 4.33174909665783 0 0
-0.287070920785184 8.3183124854751 13.2852413370715 0 0
204.257864777814 -34.9140884508434 -11.6871993291833 0 0
80.9508561583339 -13.0829494743013 4.32071776312119 0 0
92.9192933535568 -12.4811176121303 16.4089905289066 0 0
-80.595179651809 -9.03613368237612 -9.61538472952636 0 0
120.987108231315 -14.7238812391831 0.647473855306134 0 0
100.329212138086 -3.18437037108138 -1.52754934463395 0 0
177.126523460225 26.8284572204141 -12.3696736039808 0 0
87.6016919957855 -5.62546144315972 -1.38084808779933 0 0
10.3505714783477 2.00869087719165 -0.771346783732595 0 0
24.9906875025397 -3.05005525724986 -0.275720129141034 0 0
112.356099934859 -15.6625753389943 7.04506006404362 0 0
141.781170350918 -16.6256367309439 12.00499123536 0 0
-132.70687583358 4.55681676559958 1.29011737583105 0 0
203.401219033676 -6.15424042216597 21.7737815926077 0 0
135.598877811584 11.3817985932813 17.6667393287002 0 0
157.122176156283 -5.66993907342144 -6.39690573898698 0 0
70.7674778901035 4.66990834889215 21.4338219162092 0 0
202.774367887032 -32.6267306558143 -27.4848770700994 0 0
184.280819562326 -2.63245542347518 -13.5011711912861 0 0
-138.056075334294 -8.70618050893079 -16.2316563314808 0 0
199.699291479368 -35.9402394202081 -26.1132835534486 0 0
0.0102244592111139 -11.8682586786129 2.44740488611714 0 0
-104.395258614698 -2.7405690932807 13.4866054126512 0 0
187.941977737211 -17.5583866328667 -25.4615447115553 0 0
-57.6475561458847 -0.542632801191136 -4.28528251742325 0 0
25.7997289569108 0.389945300739085 22.0821211826502 0 0
170.101663118384 18.2041913882436 -11.1625433375333 0 0
198.200946303509 33.9890310831181 -28.3288510409887 0 0
-69.5039667292242 -17.4750869532324 2.34503712910983 0 0
29.79474386469 -14.3347675904731 10.0747193722349 0 0
188.14320710477 -12.8025603330423 -21.9837351382226 0 0
215.477517767311 20.8689888666641 -34.2851750704589 0 0
206.694824865134 -2.75065906475418 -15.944900145474 0 0
94.1966947219721 10.2205838364036 19.2201066625302 0 0
59.7521088701468 2.22953800599451 0.286111918445012 0 0
113.068634490569 15.5342665637418 13.3622295728798 0 0
139.153893643962 17.4902642062369 10.2621530609703 0 0
183.640144129742 -25.5391607397187 12.8501141233736 0 0
100.938205474801 -7.14822819721081 20.6016944807555 0 0
-133.127308480668 -6.28469659833409 -14.8647143431152 0 0
-114.418353788423 -12.4151770283774 -13.8602829423974 0 0
-77.998405082154 -0.90947583549488 15.6709666119481 0 0
189.033267180693 12.7513178528233 -22.2762866545428 0 0
-82.3704577440356 -1.04272817902741 -6.06925428938201 0 0
-36.7803563488672 -14.6944063153421 15.2192254329856 0 0
189.011779908783 24.7708283023657 -29.3115072900509 0 0
206.339174546505 20.9161517196886 -38.8553476092413 0 0
179.037024295841 -22.4095199452514 15.6372998019073 0 0
131.765317079166 -5.51466775616073 21.1216262056516 0 0
93.6378383054606 14.3558591295679 10.8736436798153 0 0
138.212096243166 15.4757005201363 1.44456471785495 0 0
223.368354888628 15.4545537964418 -6.0159676608886 0 0
155.609142767928 15.3091823941819 -4.80955277053955 0 0
169.868028363091 4.69020757852911 -8.970932653956 0 0
124.299463595971 -8.7418800916588 -2.91803640976984 0 0
132.815830274674 6.5763010437418 20.0301020434651 0 0
-32.67275117557 -12.673799756598 17.1708663602383 0 0
213.393447747686 0.692114689275166 -12.0628318278946 0 0
-51.7909391531162 -11.9481827873188 -3.23683327344688 0 0
-32.9816349217012 -10.9011182103743 18.3399839533857 0 0
-130.197720204127 -0.724107426773329 9.82739740789233 0 0
-136.708487649962 4.30451014210834 3.79563889511452 0 0
-72.7340848837053 -12.2479721655646 15.6790022519592 0 0
166.38562363737 0.881795688007421 18.8220708672471 0 0
195.227040375714 -35.346345312454 -25.5434059429237 0 0
216.186191002967 4.99415182027017 -11.8759381800996 0 0
174.528157127571 -0.204709047903124 -10.0758826960419 0 0
64.1859218954762 11.4518740364356 9.89609132083189 0 0
109.206996563022 -2.59213764160431 21.9339180816377 0 0
171.790979658264 -2.42478458936397 19.709848206088 0 0
-86.8741503662148 -6.37084283482942 16.0885545910879 0 0
209.911952278829 35.338323829577 -16.1882080274195 0 0
213.023272603494 25.8840090576583 8.54219912615519 0 0
219.562720823317 7.82997995193464 -10.7548873980294 0 0
168.379932456738 -17.2120553432107 17.5342657093549 0 0
-34.7354539174203 -13.5980631926538 16.3041240450056 0 0
173.981858282474 8.50134466387122 -9.61842967382554 0 0
-83.8014180049249 -15.7956274945068 -6.40124295892277 0 0
26.7695481901448 9.58708165930789 17.1206807211925 0 0
197.19756167288 -7.34741048463222 -17.9181960310884 0 0
196.854840561897 2.39971116357993 -16.3605419984787 0 0
211.688831780587 28.2774816747103 -38.046818879844 0 0
-64.4228697292672 6.25377868824078 7.76986524832167 0 0
190.310406416141 20.1012533904584 16.2001330627099 0 0
183.809304302408 -19.5340110983064 22.182736053424 0 0
157.199998519881 -8.06431515979204 20.409589813301 0 0
182.367436606547 -9.12988345888708 -12.9657593084975 0 0
-26.415688034324 -10.6250089376345 18.7858018993166 0 0
192.417939598949 -37.449475667884 -13.034632226026 0 0
80.0148033282538 4.98269590860429 21.3924004936846 0 0
171.757167795466 -21.9244458939148 11.6123096782782 0 0
154.772959347297 -12.9443965018502 -5.70358213803911 0 0
70.6221971816347 -13.8510914729971 13.1910488086205 0 0
208.663730519876 26.6583907687963 -39.0589131124692 0 0
172.376474317693 22.1868983546169 7.86438486180638 0 0
162.455638934772 -17.3524650031275 -6.3177185628442 0 0
-26.7085390284439 -15.0516222434194 4.23988258133167 0 0
216.004286033102 0.768340391345435 -6.50928193092567 0 0
187.624928424364 -2.14926762392528 23.1529842956745 0 0
-96.5875616748796 1.90650471645828 11.6809278074102 0 0
216.962638925686 -8.00102339029046 -12.5282973683862 0 0
204.571604283835 -30.3392237391709 -27.182728864149 0 0
-135.73202781021 -20.6691965212143 -2.84719311206964 0 0
-70.0236792261382 -10.3815982899639 16.6807143967091 0 0
154.601225894714 -19.4844953814733 8.34364836683964 0 0
183.228031998095 19.929309387546 -21.1267605557274 0 0
-100.857378209265 -18.0785806610724 -5.30461177201224 0 0
187.116460345325 -15.9776350467573 -24.3914179229188 0 0
161.579298044513 -12.3733970746375 19.8668751384115 0 0
181.622475675228 13.7054473796952 16.2811564955182 0 0
206.62854828366 -35.9447136895161 -4.16109560851111 0 0
223.250471787306 31.2146224905215 -18.3837458288032 0 0
212.614388212553 -37.9331872270888 -13.2909838519096 0 0
195.169435705754 10.8785314702549 -32.4116685794208 0 0
174.017322000406 -7.49617771847737 -9.70776129975004 0 0
6.12561590102116 -4.15223962628949 21.5470791332486 0 0
-53.4681294507866 -13.8798930507349 15.6460158591288 0 0
217.31536555042 27.9529108483779 -34.5675259535025 0 0
43.5745780933914 2.0122768417522 22.1118982665318 0 0
-12.7004112958561 -5.83841785486133 20.8707122558832 0 0
168.650615004135 0.502604850118715 -8.51422948651596 0 0
118.890783295215 -7.8793049752032 -2.59144944517983 0 0
32.3998811905726 9.84560170539856 10.2967917674872 0 0
214.727188357509 32.2078631118971 -30.2418828192363 0 0
184.785579584497 9.936546141125 -15.4721255561925 0 0
185.317607680597 10.7144915981922 16.6243319786568 0 0
77.4365631642238 -5.31594065508953 21.4558213548634 0 0
184.28312539276 -8.02528711996043 -13.5138198860414 0 0
190.342037036181 -15.9200641242259 27.9395607589292 0 0
-118.941938487072 -1.19004450293828 -9.70561892161199 0 0
-43.8340479743689 -4.25734338889695 -4.9185470841649 0 0
198.101895752879 14.2451062644169 22.0078310555869 0 0
142.658856681634 -16.3730600894351 -1.47542771290583 0 0
142.037798707977 6.26248029035456 -3.90277395910881 0 0
-124.925016164524 -20.12675572864 -3.76112615335405 0 0
225.853888470401 24.6227888415746 -6.21604608853812 0 0
-30.8811387915734 -4.03729197644164 -4.33262860393411 0 0
178.804126816333 -7.95851386467218 22.4983609132219 0 0
209.334946248981 7.38077308611527 -16.3095202773778 0 0
185.277542978056 -32.4183586599017 -18.4529265075202 0 0
-85.7807325551506 -14.2571115625323 -8.39852549872022 0 0
-59.5205779842545 -15.8943671349968 13.0837937090748 0 0
209.510535700395 34.7107310642126 -24.1997202236372 0 0
-12.2944237807636 6.1458264791853 5.53339637998967 0 0
220.535412969533 10.5233542938621 -2.80156606602084 0 0
194.21904542079 2.4585953748882 21.3843216864362 0 0
-79.1852406118509 1.31173829805026 -3.18173998926217 0 0
207.075638855977 -11.8971071644307 21.9217914557943 0 0
95.4784135524299 13.4247319062638 16.4607304846808 0 0
-130.697524426989 -4.90889543425582 -13.8600477249899 0 0
216.826696295629 -23.7663034769909 -16.4045902638091 0 0
199.031161617017 -23.9596189921227 22.8739122698036 0 0
211.956336667923 2.65479491207609 10.4534783774843 0 0
183.517749282909 13.9709258896828 16.4527073294248 0 0
213.984796837537 -34.2785276141691 -4.48356523837898 0 0
193.454808455507 17.8608299554629 17.5006967305585 0 0
-81.1271710661731 -18.2918178538895 2.95900347168175 0 0
-14.6070955930304 1.35267563242119 20.3724350703887 0 0
-23.9996280683011 -6.67906820560937 20.2796922216237 0 0
166.580587959222 18.0375575063329 12.4294560534686 0 0
185.589906666872 -12.2845883457057 -18.67852615753 0 0
-71.1264032988843 -18.1294472250318 5.33357280260907 0 0
212.958123592387 10.0091912175865 12.5053723040892 0 0
200.433548201072 9.35587776087915 -18.9395216143315 0 0
223.067443645605 22.7754722718118 2.70261461237787 0 0
-129.960042465951 -13.9798127246197 -15.7759465095773 0 0
187.012316501382 -30.8589607284105 3.10786021831965 0 0
68.3458468349053 8.10755838067635 20.091335814293 0 0
201.542740397343 34.9034915218684 -26.6134611254389 0 0
-3.65138788530275 -15.4834317867687 9.38855795402234 0 0
203.60298205764 36.986962027809 -11.7694597701517 0 0
-37.1617529275561 -15.9561626675111 13.3053526316092 0 0
199.735113784707 -28.9740262234841 12.5474222664665 0 0
177.471904396938 5.21888925636007 -11.1522477363557 0 0
121.887815867615 14.840444320394 14.9689173399232 0 0
218.702139135216 30.6379109208681 -4.99782867025648 0 0
152.168926344611 14.5129961271335 15.1742359631645 0 0
177.453149240934 -5.98132613086745 21.6529717705127 0 0
157.670694754182 -19.4681365773147 9.92276365070472 0 0
29.5802148861106 10.160262515381 11.5671713401689 0 0
195.357134436598 33.1200329126478 -0.921699434463324 0 0
-143.215689859576 -18.9978223926035 -15.1969796768003 1 0
218.676583424925 -25.8073656085635 -12.2131076529024 0 0
182.191466684982 -21.6976749354092 -21.0272586911139 0 0
168.261661250266 -2.04157233142649 -8.41043129475746 0 0
205.451739734436 -9.18827533641048 22.0027553339287 0 0
185.654287934751 26.1159309083293 7.69718275400922 0 0
-113.245740056143 -19.4833484469106 -1.57401613755454 0 0
-47.7518293837657 4.2902349687508 1.90908808950249 0 0
-100.260625898656 0.860518819903555 -5.06651242005838 0 0
175.107901653593 24.7040879630354 -11.3909572591226 0 0
136.015880242675 17.3771212100553 6.26307248959237 0 0
-41.4968558698531 -4.12251363907719 -4.72955823230379 0 0
86.9405707832301 6.55539241954116 1.88308712563372 0 0
34.2048744168756 -12.2012080332779 17.6812982669474 0 0
-55.5204171667435 -1.3992705583397 -4.98797540122929 0 0
40.6333662696259 -12.4650936888479 17.0555616648791 0 0
-9.83990625659151 -0.639984819319894 21.1494636465131 0 0
-139.303875641533 -17.464750842562 -15.8546266874403 1 0
152.101083612704 5.45670868107657 19.3831162930362 0 0
33.1375313312642 9.84219915563557 17.5071930283317 0 0
-75.7095633192258 -16.7473448137095 -1.57810322463826 0 0
164.380839007661 3.30302606065061 18.4821790698917 0 0
218.785207996794 5.83575731484556 -2.6449792053585 0 0
-48.4611732625398 -17.259270724923 6.95646201215761 0 0
201.601381534237 -29.4728500389708 11.6460541338858 0 0
14.9314602535334 -0.902230976099329 -1.73355837646272 0 0
196.962154035105 -15.3624307636907 27.2726726074745 0 0
106.13428267045 14.853965978011 14.5397789025272 0 0
212.769576823505 -0.84090056276653 -13.7302935726818 0 0
178.658926586738 -11.5530516485754 -12.018985450784 0 0
209.812548810965 32.1120427219973 -3.85221903859962 0 0
48.8117492035888 -14.2632230167793 10.210829360687 0 0
182.729929759749 -11.8253387904217 -14.4633621222547 0 0
84.0778625620822 5.98845746904831 1.50276505834501 0 0
215.524374898457 31.2793541063012 -7.29192857229664 0 0
182.718673317372 33.5284541306225 -17.6559766328634 0 0
-46.0572629105509 -6.43967582387126 -4.7752725196856 0 0
144.079873816773 -6.17170482270795 20.8946121940258 0 0
161.148312234624 14.5092247106548 15.5302878182891 0 0
199.360761935922 37.5376265476094 -13.0494052350434 0 0
207.719286018433 18.3666669515541 -38.1019180382307 0 0
194.718902799656 -10.2431266422508 25.3714641288003 0 0
193.747198792996 -13.4901773908097 26.902260944368 0 0
68.0061762076144 -1.21308957447632 -0.481047084750373 0 0
-88.5348534201435 3.90349141305125 -0.0303734606577398 0 0
186.777809407319 33.7435190834102 -22.8044147993541 0 0
-25.7258483738769 -4.57282351546745 20.516152136331 0 0
-46.9189883903132 0.677143412774268 -2.5669746760083 0 0
222.020975332793 20.0413322588844 4.45593948226394 0 0
199.424509726116 35.1914617383581 -5.26947105972617 0 0
60.5881286020183 -14.2503100596161 8.84892475528071 0 0
218.603406608244 -29.1335321774872 -11.6774420693545 0 0
-45.8001200092565 4.71988451627374 14.5000312756787 0 0
-47.8346368473531 -1.54896436219681 -4.39894490983905 0 0
139.032119090112 16.939408814149 3.41237221709941 0 0
183.233387643712 32.2023222341657 -11.7560179432397 0 0
-17.8287384672846 6.19986819598307 16.3055879276402 0 0
-26.8248937785752 2.03811450908305 -0.783623868225947 0 0
218.53489557128 -11.1859024699241 4.02372386155542 0 0
180.693261192422 -20.4686768695049 19.4994133988596 0 0
-22.8001563738389 -1.47007063940654 20.6302664741609 0 0
211.21273007791 9.62748651240373 -30.5524055599921 0 0
165.448062650756 15.9509894395305 -9.32489757185905 0 0
182.259262046488 -21.844019637139 18.5962588534702 0 0
-7.38867791638833 -5.6708854650179 21.0341008219791 0 0
-107.187637312758 -14.7104180903349 -11.8409908253924 0 0
218.297069196738 -33.6804860004911 -3.46109542146574 0 0
120.069565996479 -16.0177092594559 7.68802775196893 0 0
130.52803057336 15.4134409252574 3.80409003799916 0 0
220.830669402717 10.8995944973972 -19.1106792129977 0 0
211.632035754415 31.7087196199438 -4.31341820100016 0 0
188.962290102704 -34.5915666748002 -14.2090571453095 0 0
139.816473668884 13.8656619962916 -0.583747273102509 0 0
219.6799584464 -27.0257841498842 -8.67222631225732 0 0
-7.63710569761245 -10.9984950989277 18.7122254672441 0 0
4.42313422891629 -8.38869788502065 20.3305295970743 0 0
137.090649949736 13.5013434076447 0.0242546685125479 0 0
-9.46998652030409 7.30253513809051 15.2382694048174 0 0
171.800139011587 25.4129676026766 0.815933855917973 0 0
198.232294240299 28.9032591339499 -38.3574210191522 0 0
192.120646029599 11.2634184677573 -22.0344070775196 0 0
-63.5550662248671 3.51339765363085 0.50961753475072 0 0
211.585748750703 -17.6545294053362 20.0682014920117 0 0
217.750454619694 4.43189026262815 -9.72867635511625 0 0
175.57009604682 16.2338533247765 -13.6838776659564 0 0
134.716405664916 14.9943996571669 14.7975133232817 0 0
81.8058109115396 7.78167698449264 3.26010924652506 0 0
208.810319808301 28.9251955865201 4.08272017345138 0 0
-33.3781573206227 -14.6158314785361 15.1570104078856 0 0
148.945090946927 16.9238889746316 11.9933356324925 0 0
20.6412969538984 9.86640038814238 13.0745700953196 0 0
206.950853965955 34.4797449794607 -8.9613590664263 0 0
79.9822129433525 -14.2890561151285 6.949445147827 0 0
83.2915354578287 3.36174126681236 0.233089327688055 0 0
90.3195322067707 -5.4776611976388 -1.59669930780868 0 0
162.468755180782 -16.9479523522132 15.922167344311 0 0
193.075114223845 37.1341737474523 -22.1059238181883 0 0
-88.8196883338716 -18.281724749427 -0.623449922751028 0 0
119.27505144095 6.16703700548988 -1.19516770620063 0 0
-7.81503210346773 6.47162037906181 17.0859773483299 0 0
164.072119947785 -17.7172389816378 15.4079040089998 0 0
202.319741697744 11.0571515189007 20.2457140675147 0 0
45.4015631259277 7.60016469026072 20.1879422472144 0 0
168.24912023473 12.8760051283824 -9.74997242111635 0 0
207.541422566644 10.5193746909445 -25.3912837635172 0 0
-95.4387882973233 -11.0541034835207 14.4127059595256 0 0
190.475189173989 -19.0639084011584 26.8377205418072 0 0
-92.0259614919434 2.49269998513337 11.6664424592565 0 0
213.625538462124 -25.1632769174047 16.703235149837 0 0
181.460811176291 -0.55704237052659 19.6509445571041 0 0
216.701540609816 -33.1645980769803 -2.01045888797485 0 0
186.54222416716 29.2188828974688 3.0308574373988 0 0
15.487888967983 -4.40300830304289 0.0102553316993108 0 0
207.051390930521 32.9936079467887 -3.33756703836062 0 0
214.93036620053 -0.804582120720543 -10.3934086327495 0 0
199.574016025042 -7.12615594773349 -17.2696504264588 0 0
-42.9763761813863 -16.1304364765027 4.06750810221384 0 0
196.561496283218 -24.2251715983169 -28.8138563764448 0 0
-56.636415402637 -16.358795137173 1.70650508454361 0 0
195.703926918786 13.3765137154835 -35.3489970816965 0 0
178.321424854472 29.4006279413368 -7.03183958927782 0 0
-70.1608005592212 0.907539176073197 -3.1657353191874 0 0
217.936152382833 31.6763709232981 -29.8725979240052 0 0
172.36016212714 7.14062895862975 17.2434803960996 0 0
205.692846154859 32.9839762036718 -30.2454364803514 0 0
162.26390851207 10.1724603353627 17.3210023252548 0 0
219.258341941068 -17.2674877802111 -9.23927270446527 0 0
212.656980363951 -29.0575479810837 -21.6831635858373 0 0
178.500494407951 22.8552144975807 -15.2955523561681 0 0
209.912462638702 -6.21524373191303 -19.633468111922 0 0
187.58911145239 23.1602685512958 -30.2727086152814 0 0
206.530318756729 13.6691093506042 19.3411193476993 0 0
154.268872350951 -17.6522721544263 12.7633111817713 0 0
-81.7992438335329 -8.201002847699 -9.47667062031004 0 0
187.377111878221 32.8071418515049 -2.72979072155501 0 0
204.91525788803 -34.7469390425465 -25.9254741590346 0 0
217.425307742818 -25.5533751519552 8.46016871296049 0 0
144.286302506105 13.1459658259091 -2.23715392276657 0 0
216.173104564845 32.1256688944346 -27.7748135209989 0 0
202.174418570305 11.4530353991872 -28.7700998534659 0 0
106.12223938833 12.4631159173378 17.5826527463532 0 0
174.735161767193 -6.61563980938935 21.4130965943279 0 0
102.824985172674 -14.9948547928553 6.25960602814568 0 0
-73.1088793232246 -4.12353231665168 -7.3005970756297 0 0
179.574117161372 29.4719754653682 -10.6795068168618 0 0
190.488632460813 -1.60849295629347 -16.017419908306 0 0
180.050685668924 0.293449403407565 18.5598480163734 0 0
94.0747299322269 -3.55665633070776 -1.35583909627541 0 0
63.0411645538729 -14.2942854766993 10.4655111862736 0 0
205.340408436449 -11.7474537010536 22.9269543632107 0 0
-9.93222173576998 -13.0574509660811 3.08858732339466 0 0
192.88679210402 37.3808636582836 -12.1928515109223 0 0
197.121424784421 9.77829294978547 -30.7784545731505 0 0
215.345922141001 13.1715695267922 11.4039778877934 0 0
188.208407016054 11.8005254791365 -18.7997921303988 0 0
-86.3202231848085 -9.69687943543238 15.6703071391288 0 0
77.2746651921293 -10.3289404674104 1.75541315510891 0 0
176.499476249343 -8.49767068692792 -10.545613880194 0 0
199.013502364858 35.0541880605171 -26.6171037586506 0 0
-103.599978553608 -19.214519863358 -0.0221514786231209 0 0
224.804200160665 18.4525404248843 -16.4793513977223 0 0
214.10227271139 2.04240734699311 7.47243698774184 0 0
209.928557163886 -35.4929190670537 -5.87623762160094 0 0
174.956956900932 27.106556667888 -6.20704489320531 0 0
83.4670597456626 -9.47698583858581 19.3189775935781 0 0
140.750035983716 14.4529723578824 15.3419440527334 0 0
175.444283491586 -24.6001451103976 7.04525848721573 0 0
-5.38335574964962 7.24182078105003 7.82866742415827 0 0
-120.405095598306 -6.59287236595161 12.3560717681866 0 0
-83.0755893743216 -18.1569589799868 1.70092250166665 0 0
110.024607678077 -13.6467869353164 1.49628206317327 0 0
191.847155474631 -36.3406022776863 -4.70461584920595 0 0
-137.761564511252 3.56169651801594 -4.93140096049724 0 0
-49.371063945683 -10.8594964111148 -3.48499437262871 0 0
72.0013318393502 12.5969972979376 11.0265359858423 0 0
200.567318783094 11.7783363438395 20.9848966126013 0 0
167.828015794655 17.5456692670572 -10.0578725229176 0 0
218.21884902618 -12.1045175149586 -10.3921983730459 0 0
219.110564881833 -15.259010794508 6.59075000896703 0 0
214.080805944641 13.594277068284 13.0755602822935 0 0
205.963942630583 -15.030399735851 23.4875928663928 0 0
192.383043204923 -20.1123721546084 -27.364122958936 0 0
128.257123202025 -0.42555431072907 -3.28003392870779 0 0
146.468698476976 -7.49271365554735 -5.14542319803329 0 0
204.179567334628 -34.7125475280697 0.56598930002621 0 0
-51.0714149643711 -5.75769278675819 19.1265196072182 0 0
9.70567239356198 1.96708406123213 21.4347506303947 0 0
182.845707439422 28.4374375180302 -21.0279790450918 0 0
77.6624929177611 13.3230215309824 11.8324297915805 0 0
200.213045048645 -36.3517216429637 -1.37347049870972 0 0
178.211162993055 24.222281783139 7.17204336897773 0 0
11.9463324382715 -9.42104187653642 1.77731767436534 0 0
-51.5608427671354 -8.18123516926081 18.6507519650637 0 0
174.953647184611 9.18766996414954 -10.3764945903793 0 0
28.5851190566543 -12.1255296802191 17.7282232476678 0 0
-84.5919566320122 -1.87045247456314 -7.12438286455191 0 0
-6.84501147195228 -15.5908745183148 9.25426115027211 0 0
139.182691365926 -17.7867952099271 3.59050860837176 0 0
214.433110188352 31.9899955304504 -12.694563270624 0 0
120.279986332248 -13.2161718229579 15.9437736578547 0 0
213.947459907574 32.4979057961166 -23.6746451464074 0 0
200.712048006455 12.0865878604291 -26.0251496777564 0 0
191.826701512101 -16.8032022168698 28.4665116604815 0 0
196.307886487502 35.5498721383918 -25.953913980799 0 0
11.4306579652786 4.69667019362838 20.5591962739301 0 0
122.846137963852 -4.09398494533812 21.430733118601 0 0
179.980836904121 19.2837652308744 -17.0828640636806 0 0
198.753214141761 -37.3703516244679 -4.66757586072437 0 0
-72.6792100077098 -16.5170619420546 -1.43095614967111 0 0
163.863934631255 -14.516140432128 18.7801347996631 0 0
137.935048457559 -6.31350900891337 20.9503317372202 0 0
171.382032746415 -1.47467889647172 -8.7346611413875 0 0
-102.712355262132 -11.6641345146972 13.4694654410344 0 0
188.287882897166 24.4445624702247 10.9835347512945 0 0
-105.922259750186 -19.0978039687228 -1.71917057190372 0 0
-76.6328933105245 3.21591199229129 12.743445047216 0 0
191.345244254016 -29.1512872329785 9.94615601398098 0 0
-117.599300508687 -7.42953555787377 -13.0241191440827 0 0
-31.1646502358956 6.70670692643211 12.605994197723 0 0
3.86573217489809 6.67189964639866 6.03495854602979 0 0
98.14846120951 6.74593372057399 1.35414735038884 0 0
194.894971038247 15.5631818120665 19.924452646297 0 0
207.876876880117 30.3244853040038 -38.408618930374 0 0
159.00865634394 -2.87974676009256 20.1198167538769 0 0
163.327763239549 15.0488106952857 -8.10264552223714 0 0
101.881295541406 -3.1430335421364 21.9216334485775 0 0
-73.3522817551583 -16.1179413356786 12.3300856945127 0 0
-111.836589002319 -19.338116065391 2.09556998485466 0 0
-13.294724159771 -10.366350512198 0.375136743070122 0 0
214.907469673553 1.37802505452745 -10.2737937615016 0 0
148.329371864391 18.8389994179542 7.41212075268283 0 0
-118.790028040344 -9.36630438089824 -13.8965312135917 0 0
187.756761728347 -27.8312167526763 10.4446836107044 0 0
158.000160451525 5.83575803690009 -6.3610012931548 0 0
185.401689675471 20.8297026077102 14.5876764461316 0 0
186.266255458532 20.6825135461761 -25.4203477143241 0 0
-6.41793221480492 1.87178786695379 -0.948829469077798 0 0
-116.593302770293 -1.49291342220916 11.5260121313807 0 0
166.435184611608 -17.9710651341142 -7.55523825280924 0 0
186.705333313021 28.3506546793922 4.39617134271761 0 0
160.150227742352 10.7349107858654 17.242752542458 0 0
182.903521292142 -29.5399232723201 1.44819257450377 0 0
35.1221785264914 10.66712047211 12.091315143059 0 0
168.935366381386 -3.88118561066004 20.1309288660125 0 0
215.54615546598 -14.2544025950058 -17.1433438853743 0 0
146.167904509924 13.6237959366762 15.954034618076 0 0
208.476104534197 6.66046777533773 15.4210604394696 0 0
-140.452696590906 2.46315662033924 -9.31776435135509 1 0
-43.7279259393971 -11.9605949716168 17.4886183845913 0 0
178.60079188279 27.8329852735133 0.735780397561238 0 0
223.068356499564 17.3701212703612 -1.07617249000412 0 0
78.2633612351122 11.4251782263767 18.0540459659442 0 0
11.3772813064936 -13.8042026784243 15.7874475986534 0 0
158.565537256907 18.1614887163843 -4.77731537435046 0 0
29.6918119740003 5.88285934143773 20.6484112035545 0 0
220.0258370614 -16.9401524796288 3.844980948459 0 0
217.135100240262 -20.0052345059386 -15.3622819266162 0 0
-131.360928516176 -16.9353431918779 -14.8784983461613 0 0
-39.7443717500971 -12.7044010110056 17.07284136612 0 0
210.899079961178 20.0614905495946 15.5103269892314 0 0
-73.0726743057113 -1.72252221711082 -6.49669430755892 0 0
187.147521566895 12.8629357492037 -20.2316415544363 0 0
217.814032068666 -8.52481581622691 -9.4440694973169 0 0
139.357362841394 16.6246156875863 12.4426709678328 0 0
-57.5846457386653 -0.107723142222127 17.6116839464594 0 0
-49.5109927532141 -11.5735976849674 17.4864690251141 0 0
174.060511583373 -10.3826265113071 22.0607388974805 0 0
-88.6063951235289 -2.48740163155145 -8.09118144400525 0 0
216.309968917659 -2.64761524944445 -10.7819396407678 0 0
213.949906094453 19.120032446443 -35.0825826829711 0 0
156.48930211586 9.21886437703977 -5.89129209150078 0 0
180.774977228584 -16.6155667411159 -16.0016952154283 0 0
204.129454099486 -23.0473023096183 -27.6581837202123 0 0
212.679735040058 32.7071916217489 -10.1559719179298 0 0
143.767651588296 -11.274438337991 -4.4119017038497 0 0
162.166151515923 18.3696869783646 10.8647216104544 0 0
-95.2819492200217 3.86696518004984 -0.335328602653083 0 0
104.342574192461 -15.3071702797456 8.01269510667801 0 0
-57.6735094175544 -2.3848640550818 -5.53815622166735 0 0
123.828549862863 -10.7600659728759 18.7093572587789 0 0
-136.81569283349 -10.6962007458104 -16.4591096425879 0 0
-77.1590580512175 -12.074985743803 -7.96165327285052 0 0
-84.4034799754787 5.44806808971491 3.66690633939887 0 0
197.083445815622 -10.8569123843808 25.3604328614368 0 0
205.77017390023 -7.19542433065839 20.8044878746435 0 0
164.363173054586 -4.5702377919585 -7.62009217336138 0 0
168.132368249803 23.3285177798944 -4.89203241678578 0 0
111.218335909274 13.137899331259 16.9595293381286 0 0
158.662632572994 -17.6235451334731 13.9661523163999 0 0
12.2141190722297 0.665235281221038 -1.79269029604904 0 0
184.638043535101 12.32898526321 16.8092653479053 0 0
-72.2444915016944 -10.6630027029243 -7.26475259070823 0 0
-85.006905456417 3.25103793953305 11.7066279563458 0 0
-19.5160342641896 2.77588342048547 19.3715316976914 0 0
-92.1546187220579 -16.3437958544619 -7.60361884373919 0 0
-104.705510727794 -5.51486868036165 -10.8860533860293 0 0
41.6438101055983 -3.14046469218097 22.0545736286099 0 0
176.49636122754 0.435337110448879 -10.7081063858121 0 0
-112.042859173356 -1.93189372122752 -9.70581840165618 0 0
184.717179923235 -17.1963153295745 -23.787863318949 0 0
207.389822264326 10.0273321289034 -33.6987962361597 0 0
181.400235516462 -30.2935512376463 -2.78817592045832 0 0
-137.526691902721 -20.5240700244379 -0.59205910824439 0 0
71.1974004158262 6.01645057387966 2.23556765633925 0 0
37.9573344414448 8.60495962653663 7.34566077025118 0 0
207.062399100712 3.71998665628246 -14.6289895014324 0 0
43.2718026018517 -11.5700694883308 3.93924592958265 0 0
170.288017786764 -7.07022778839795 20.8027325574198 0 0
208.102553366439 8.55268941189262 -17.7760316097412 0 0
201.735190181072 -18.335606901548 -27.0328112857173 0 0
190.019534186726 28.2272046929376 5.58241496987583 0 0
169.828600420667 -21.0107436633167 12.4296887913278 0 0
22.750942522308 6.02635266519874 20.3703873983963 0 0
177.055213658543 -26.875844740326 0.162507170008525 0 0
-130.820814735329 -10.5798521933609 10.799785779518 0 0
108.47900626113 15.5982761753305 11.8589555004033 0 0
164.655287640546 -18.1520560719627 -6.79789898523901 0 0
-21.9287214077692 -6.26504436301872 -2.52644716757105 0 0
220.006336850022 13.440081448039 -25.0035135059882 0 0
70.3906240371461 1.27800475380426 0.201714312050074 0 0
205.636595846361 -24.70929869749 -27.101821998983 0 0
204.445330492638 21.6923044246214 14.748594496098 0 0
150.428186221394 -16.2335684919658 14.3812934694298 0 0
211.813576593549 -16.0189295952281 -21.3029571366788 0 0
-41.1038228610948 2.50425582324848 17.5756408686834 0 0
146.150247081951 -16.9243446533103 -1.68993013158938 0 0
-10.2176013739158 -15.4034318618401 8.0177475613935 0 0
168.265829513034 19.6621641933035 -9.08043559400941 0 0
-77.8444892067906 5.93138626849535 6.13049988766064 0 0
57.4419973937371 8.77263911022526 19.6965653807562 0 0
210.82867934331 32.29902794622 -5.52141597615323 0 0
146.391343018949 16.3451124201175 -1.01601909672156 0 0
-52.8218528290575 3.51918719929558 15.1669870665923 0 0
208.493572931416 -1.90942020803627 15.7628523117641 0 0
98.0921799196989 -12.7343023440538 2.10148487992454 0 0
-53.5266988866632 -2.9418177776662 -5.52452632245448 0 0
170.015382481324 3.00044586305523 -8.9011082832275 0 0
207.18037265272 15.8878971286264 19.2698206315078 0 0
187.477403934693 0.373523249048609 -16.1677475429128 0 0
-30.9276073861708 -13.7086109941365 1.66660149075863 0 0
-108.276034906208 -19.331321562287 1.38069516794153 0 0
72.778280445917 -0.448862293293802 22.1442096215427 0 0
-114.442328257519 -1.77782482939959 -9.93123610767971 0 0
147.959919035253 -15.2091205825375 15.5909929565811 0 0
194.159616045755 -32.5285365382159 4.5469446252754 0 0
192.822600645527 -9.01516079747647 -19.5016763077039 0 0
43.9957059938832 -13.9926296534164 13.6643476948733 0 0
105.590909527367 1.00165244593498 21.9571127857505 0 0
157.378096693057 2.82810528314675 -6.40136423052618 0 0
-132.323554700778 -20.2003511012421 -10.3172013313471 0 0
134.473313118694 13.5220366146222 16.2930877125093 0 0
196.907998907992 -35.2540048397613 -26.5542340157856 0 0
200.258717305445 -36.956611969311 -4.01465388362594 0 0
129.888725418474 5.34572149506362 -2.59570919945054 0 0
-129.713278301751 3.27407946272034 -3.88306596439841 0 0
211.576574931414 30.8167398522434 -1.34068835316228 0 0
18.4080934821111 -14.6507105849782 12.1471976029104 0 0
164.592453894107 -22.534568433618 3.15137661416468 0 0
181.373574721308 29.6209045841203 -0.78088818195407 0 0
72.8030694590221 -2.9961901116754 -0.9083720699675 0 0
192.074794317215 36.1535945130509 -6.87227979527249 0 0
208.088049432242 -5.56263171115393 -18.8604464692318 0 0
211.983497510366 -24.5520105664791 -22.6908199529054 0 0
172.723396552883 23.442324042368 5.52158946067587 0 0
186.016947967865 14.3280148914306 17.2373617116495 0 0
187.6646685825 -8.2037458587394 25.3403713901011 0 0
-68.8532977549973 -16.1304225504334 12.6633930163255 0 0
112.083008958355 -3.35265824862652 -2.24020548448397 0 0
200.878068881276 3.29596632147221 19.35642110344 0 0
98.9664509040686 14.3708835169051 9.53314892665953 0 0
204.519349920867 -29.7246638359039 10.5103196252178 0 0
191.139537469766 33.2580788989927 -27.8869656619944 0 0
224.816797770462 25.8697531585389 -2.07989771076721 0 0
189.536398822718 33.0591755776546 -2.20299197102666 0 0
198.895111393615 -9.37295357201214 24.5013112777663 0 0
98.9159011583715 -0.105838426148862 22.0732195232482 0 0
176.578519604794 13.5268668852566 -13.5065031910521 0 0
76.333947656234 -8.79145973957882 19.7877649128988 0 0
179.226341653053 -24.617120459115 -14.5117681711005 0 0
90.2663161165795 9.20210417778174 19.789596143302 0 0
136.499323114691 13.1370234457536 16.5183885904448 0 0
-1.12652268048065 -14.8717231485983 7.33565353035065 0 0
122.785662842053 -11.0301163617852 -2.70548428077265 0 0
185.747363071202 30.0998481413666 -23.4852892360207 0 0
193.090955977217 25.9511409555361 9.65863811091669 0 0
20.2397971427365 -8.58693274194124 1.76303514963519 0 0
224.456951882457 27.3117632250828 -1.38414589520767 0 0
168.291213401651 -20.0954151727832 -7.55379875664205 0 0
216.488393265699 -5.13221443600832 -13.9609502558991 0 0
180.682022008671 -32.5588491193007 -8.81953329053064 0 0
156.053174604138 0.48872710346966 19.882075557389 0 0
129.997339466005 1.60333864347458 -3.26943502367438 0 0
122.59816735864 -9.05190824011738 19.7667752526719 0 0
141.55928602659 -12.920743423155 17.6386197200869 0 0
48.4049511309634 -13.7017434445634 7.1816530975839 0 0
19.2048104518346 9.01273820892676 10.0979389717907 0 0
68.2998553298416 10.7284948769212 8.02324073578257 0 0
76.1605483206255 6.14164262239379 1.98421640384126 0 0
89.9182507335573 -12.1075611269889 16.8488263563294 0 0
88.4849940507607 -14.3023748184353 12.4450030594487 0 0
-120.140173964999 -3.89355688756801 12.1148321131426 0 0
-53.052532103956 5.06217240370988 3.09304726330251 0 0
202.746980580752 12.9337347610761 -36.935580275658 0 0
-113.016721776019 4.96823133996932 3.37791535462896 0 0
49.9581262483467 10.0621915814806 18.393330022333 0 0
75.5919319917035 8.41107890067968 4.33674960111582 0 0
188.822875511075 -8.74842199019049 25.3597997338792 0 0
-1.59922867559062 -13.8030257943462 15.9775375761874 0 0
190.472771419026 17.6565555724791 16.9113038019791 0 0
-133.977885035609 -5.50992923583839 10.8357083943243 0 0
192.89032778895 -20.573686435019 26.0810226084693 0 0
-50.7047402672092 -16.7701664350098 4.16903997189666 0 0
190.214796008731 -4.31916992994236 -16.8565881499411 0 0
194.602613151037 -2.30189282515711 -15.987141357403 0 0
65.2755364378266 4.05078040549489 21.5248658022568 0 0
172.323341458134 21.7326059086362 -10.6150023522864 0 0
215.668059535941 -26.5084495333703 -18.3537232127477 0 0
-76.8288827810044 -15.4364133820006 12.9261486666781 0 0
184.927081025335 -36.0952522876885 -7.52815306284965 0 0
211.322616421562 -36.0091223552688 -7.00562633507647 0 0
210.37949674426 -22.1730680927376 23.1629417283907 0 0
184.953944385505 -14.3258757370862 -19.0294033428585 0 0
182.964475436857 -27.8731403845495 -22.3478211578734 0 0
99.9383946407897 -14.8822109090816 6.43244976570205 0 0
125.34109735423 10.4391580961711 18.5920826999007 0 0
114.553613944636 -15.2608503882833 11.3069271798203 0 0
87.8426521183187 -12.7245430466611 3.19078281646415 0 0
189.32942853414 -34.1098227201644 -19.6375920741485 0 0
204.751958691739 -27.1419299810972 -27.4509674487019 0 0
182.927934845285 7.77027612807063 -13.7304053659734 0 0
216.612017050622 -3.05828032703954 -5.87709848109344 0 0
149.129142171097 13.9511555683668 15.6361258206462 0 0
148.50212099049 16.9518924753052 -1.14619808533939 0 0
182.745555819166 13.6006890798571 -16.0893567666883 0 0
209.774733658707 16.8125859215442 18.403970074935 0 0
-85.6198675008021 5.7945202946261 6.95886055368796 0 0
152.911672498594 12.2903526106955 -4.62110039578524 0 0
195.172331590634 9.13061998302098 20.7557135979474 0 0
42.9970240578597 -11.1286225139614 18.4291844629561 0 0
219.72666645729 10.9294515980248 -0.319330854763822 0 0
-58.8983656532312 -7.50010211420415 18.3765385852006 0 0
-133.40849371451 -19.9217124288784 2.08988025057128 0 0
80.8761292583717 -12.6195584917027 16.0469648444801 0 0
172.637868258531 13.2248386039878 -10.298640480972 0 0
-65.3055731217661 4.89965408118739 11.8545530621714 0 0
205.671669803478 29.0095322216527 4.72252315681115 0 0
181.502291933212 24.7813084296645 -19.3650622558614 0 0
204.270602946435 -30.7418299861918 8.69210472419185 0 0
219.8406401132 -28.7710455165387 -1.4926112309652 0 0
130.016191746445 -1.82532446885928 21.6244855480857 0 0
179.497025868461 -16.4440770804558 -14.5237974098006 0 0
175.990115734663 -20.289313192304 17.2361121893689 0 0
48.5678843511854 -14.0684671315766 13.0360757857067 0 0
40.2206077972254 5.02136005322378 21.3625101426364 0 0
208.763566175602 31.7425449407676 -1.71645218370404 0 0
208.345172827179 -35.8637068442478 -17.627724228212 0 0
225.3891839607 20.9756435534702 -7.29784215244112 0 0
208.586995927871 20.579937335144 15.9989592678154 0 0
206.472125223824 11.6263780751001 18.6350027664868 0 0
-122.612375333039 -9.49550816462159 -14.640576611772 0 0
211.467644674446 8.6947973816709 -18.7560060471087 0 0
32.8358968454983 0.54964689526824 22.0974091135578 0 0
-110.372684519719 -8.29275573860598 -12.3854218607316 0 0
188.087368164032 23.7764810192599 -27.7393586818446 0 0
172.706506066297 -23.9936834428814 -7.9543571729234 0 0
62.2090303729025 -3.02739257628904 -0.761703233113398 0 0
146.513222325624 -18.8984729775862 3.56167932495621 0 0
146.05534687015 12.1345401201916 16.9868231492753 0 0
193.456852244398 15.2254342540924 22.2994465583912 0 0
190.318290482449 -35.7252767733557 -12.6350345647905 0 0
106.798770995527 -12.930951700772 1.12545407250762 0 0
197.027875150057 22.2707480481887 14.7281687063626 0 0
122.082755254628 3.88941530560657 21.0917644603967 0 0
-46.6958621581218 5.65541165461381 4.32234404652644 0 0
151.02170723984 -7.7263442400871 -5.66348344637745 0 0
225.747602029579 25.6266142940499 -18.4124871150408 0 0
-62.9401836172218 -4.50901349374244 -6.61322384019586 0 0
39.9255707295307 10.0684300165193 17.8215275249204 0 0
183.81719702135 -30.5424472846216 0.208187092443375 0 0
210.509032111553 -36.1512622624908 -18.9875358244241 0 0
157.846569647581 20.3134873249113 -0.88280706038219 0 0
201.280007293005 23.9262550864407 -39.0213239689283 0 0
-72.266287318828 -14.8004129625495 -4.89148123503284 0 0
132.040365463404 7.8171261536576 -2.15574135163662 0 0
186.717799963244 6.64489891481293 17.0061535097959 0 0
212.690280459831 29.7693227560543 1.45091598223933 0 0
-118.117254347917 2.54508319782744 -3.87693698719552 0 0
81.9902560043042 8.06671833343643 20.2614097330343 0 0
219.220636363247 25.0794980074931 -32.0306765054492 0 0
218.143002108425 -20.5334348390491 -13.3987076032227 0 0
-121.406040074744 -0.630908086212199 -9.38606141492883 0 0
-75.2087760284439 5.74323793012018 9.17690925258625 0 0
-66.9882366222664 3.39994176255403 13.5326938091851 0 0
-81.1440252536569 0.131493544001329 -4.73686973961751 0 0
207.677846456669 -21.4454486677944 -25.4194557734495 0 0
225.86579510357 28.3272296875254 -10.5396664776127 0 0
118.923822933762 12.2176864951799 17.644133176377 0 0
219.123542400526 9.15170990393084 -19.4256885331784 0 0
196.637126604517 -36.5604146354673 -16.5525655559488 0 0
122.845460239623 -2.30385072334593 -2.96077698353679 0 0
168.767370209093 6.95798814935895 17.5474128062076 0 0
-47.8950039636903 -9.86854039563755 18.351115038726 0 0
161.497455221701 -10.3298036288621 20.4160899650658 0 0
220.305505068511 -26.0422463475308 -0.982738792247053 0 0
-123.749896826551 3.81024761653132 6.61707954050111 0 0
216.001628200957 -3.68890461779514 2.99749785336898 0 0
99.7015895051231 -4.30141117350528 21.6767865189335 0 0
122.345878944699 -16.1642171418218 7.73699032054484 0 0
101.359951253271 -11.2503396616623 17.8987033973098 0 0
197.475214636336 27.830603540346 7.2733880001411 0 0
65.7155241430267 7.02360914748459 3.5638184426585 0 0
211.022837914665 -28.2975480356386 10.9166808729901 0 0
-46.283448175218 -3.79039151305238 -5.00729159544813 0 0
170.270920055639 -18.0405377130455 17.3327801026079 0 0
179.599333986863 25.4208585095336 5.71310142114212 0 0
225.794760077126 29.3077141488606 -15.6366433377964 0 0
124.942894327344 5.91572234629532 -1.90810787372263 0 0
161.958169159407 16.1250759317879 14.0153696888302 0 0
169.833582329017 -3.70914796411316 -8.79568365798006 0 0
210.760774496451 27.9622902500376 6.15838264895948 0 0
-15.8270032556117 -9.57501282317097 -0.258410518616984 0 0
184.631941201636 -30.5005890962815 1.41820164207996 0 0
94.5220014296208 -5.5129748637983 21.422548392326 0 0
-113.280153192869 1.06288914163984 10.4769642620758 0 0
169.795344413645 23.6777456215191 -7.60435976168285 0 0
49.1604495029547 5.38854077146993 2.45184103981298 0 0
217.993769833157 7.40093667386648 -18.8194904194201 0 0
176.354194231192 22.8761480986548 8.58575919144068 0 0
122.350058488778 6.53005606997036 20.4046748094369 0 0
175.501228988371 12.0124432571064 -12.3523842987257 0 0
139.065237744469 -0.462061757873555 21.3033927826192 0 0
-5.30318008594802 -10.7099623663737 18.9287481278226 0 0
-44.8876623005514 -0.389298448063927 -3.56606186952635 0 0
193.959799153132 35.1446867870756 -5.63637120019179 0 0
-96.3817248812291 4.96528620014868 2.30407347580839 0 0
-127.936566556849 -11.878058867693 10.7479032849362 0 0
174.303359682363 -9.23395026701711 -9.75864486153982 0 0
172.56384323599 -21.5703480024751 -9.59732576432165 0 0
-59.2823707523238 6.37558107693661 7.45721852786287 0 0
199.284724890459 36.0331468982261 -17.4672819470754 0 0
-77.5023276673042 -2.48934660699031 -7.03125553679227 0 0
200.645363357331 -32.8478299952471 -27.9126812703024 0 0
181.493119876355 -23.4501630209728 15.4082340257475 0 0
209.444097878527 -21.8571890555925 -24.301054265351 0 0
192.64514187732 -31.8961136914352 5.16512800560075 0 0
-133.60816788726 -20.6237642045858 -5.1162702451783 0 0
194.160752290283 -26.4331115008343 16.2396797719203 0 0
-126.736016681684 -16.6236456446824 -14.468814624218 0 0
185.831508806758 27.1560184496178 5.99708151281285 0 0
-120.856194265526 -11.2905436606207 11.6176885405919 0 0
-69.4693888030997 4.28801513919989 12.2862988702134 0 0
223.431853062605 13.7993064643032 -11.2149115142841 0 0
160.25284837523 -12.5038189411872 19.6478279957149 0 0
179.760867020995 -10.6532285744409 -12.4439968225347 0 0
-44.4459235978641 -10.4172975383457 -2.97009940785346 0 0
177.508838618222 9.71544076063444 -12.0222103135385 0 0
180.537883425818 8.06964207571835 -13.0077420125733 0 0
-84.3285595152312 -11.7956096599748 15.0504872605698 0 0
133.04293453636 17.2823892150254 8.35508033420463 0 0
216.621047805405 30.6371424302842 -4.33863839000373 0 0
157.570146036611 19.5450134968736 7.86788182256695 0 0
203.895834553889 31.1778741087234 -38.6411586317616 0 0
199.472433712276 -36.8798654009823 -23.5350944736703 0 0
187.324111380311 22.4362988976409 -25.9551242223358 0 0
105.404224326888 8.45640887381801 1.85262545229195 0 0
60.2316825053407 -10.2309496565482 18.9303197460119 0 0
149.281646534226 -3.20996469872807 20.8083245037283 0 0
188.784332888611 12.0825975060426 18.2790310839947 0 0
105.548793044981 -14.679256674402 12.5050114997355 0 0
202.028716265886 37.3261176019245 -13.9794768509963 0 0
-2.02240090707202 7.1489111494465 7.43627576869479 0 0
179.846115284313 -24.7818690448494 11.6081864973156 0 0
209.588879375883 -17.4921897632163 -23.2272113632341 0 0
-19.9547728083187 -15.5501616171859 13.5122211999579 0 0
178.056310515629 -9.51395557436626 -11.3497254655907 0 0
140.470420240924 -17.4749472616613 0.864669042706344 0 0
-63.8169697325587 -17.2277806886316 10.8545541296164 0 0
75.3947119471449 -0.541042759238725 22.1126005430918 0 0
198.600915318416 11.2314807199225 -22.1555820175895 0 0
210.42751668468 32.7105003329508 -31.4118032038838 0 0
-43.22021669044 -7.24941531616625 -4.19407993365858 0 0
152.811595604415 -12.6380248283353 18.7304649594595 0 0
185.511300363775 11.4594049106372 -17.1001932477002 0 0
167.257382817729 -16.1125728363144 -8.56593960405012 0 0
62.875469508753 5.64518751515331 21.1248033368453 0 0
-54.9507689046991 -6.48705432745893 -6.12841326551085 0 0
195.134211498365 -8.77880696665926 -19.6975466740972 0 0
131.487846140798 10.6244466619228 18.3266904957817 0 0
190.693216481808 10.0840755579533 -27.5354742849632 0 0
146.068411185902 0.92192891806755 -5.19427051491539 0 0
187.779113394692 19.2769638420378 16.0405434871237 0 0
-113.011563794158 4.64025463980279 6.48076705683386 0 0
-142.377773526213 -21.1603867330682 -5.2393668291976 1 0
211.697120436827 9.53003191128463 -23.0432987161336 0 0
-8.25184411488311 5.11752364342387 3.37804020373463 0 0
158.192304185125 10.6048504387769 17.3822673370892 0 0
184.11175877992 -1.37800001078309 -13.5595176337191 0 0
178.118329935635 -20.2612790030063 18.4222194495361 0 0
70.1143260196658 -5.5251903188363 0.00558388004394229 0 0
180.131323701555 -14.4880226453244 -14.0785101823048 0 0
-23.9241804097074 -16.3939347000241 9.26934077315567 0 0
200.436482755751 -23.3157369741296 -28.656532322038 0 0
179.039033610731 20.6091574753972 12.8160730467369 0 0
198.595316373989 -28.1052139734723 13.2178547771667 0 0
-95.7161317189603 1.72667994400237 -3.60250345738232 0 0
-20.053385456374 4.85028218268251 17.7043541391837 0 0
178.174693088574 29.2755924296028 -2.61503316467339 0 0
149.844563481724 -2.33343553766038 -5.61385486250419 0 0
50.9758120324039 -0.138263544807978 22.2961219361621 0 0
187.416957211586 13.4544714862575 -21.9293675479457 0 0
180.406192979276 12.715528621234 16.3806635616084 0 0
180.531672479862 21.097154633564 12.7906350877695 0 0
210.773404521277 -28.8367742056536 -23.4867905382067 0 0
-74.5477486083765 -15.7725380770018 -3.88525185005191 0 0
4.65440549359697 -10.6681004112118 19.008799966724 0 0
183.228423350166 -22.2315625577061 -24.0931251244659 0 0
147.569308785745 9.72380757288325 18.1900472065231 0 0
188.044742932599 9.24592002007867 17.6995535230402 0 0
170.798923540013 -22.885600704875 8.07206959201567 0 0
132.046227723731 3.08126971930819 -3.32114416717546 0 0
195.080635975619 -34.0634500884758 -21.7959165312579 0 0
-60.5524855982467 4.2979401342985 1.80278841810482 0 0
184.622502144342 34.6654563296379 -18.057267260083 0 0
168.042387548625 19.5408725197598 10.5737757114796 0 0
182.13323985446 -7.02528284083152 -12.621734976556 0 0
-95.8523541308551 4.06923887946635 9.79020837444922 0 0
183.866394560586 -28.3974800497651 6.14882578313638 0 0
213.163014754205 29.2308108465356 3.14412704478866 0 0
-25.5751060563796 -13.6535918427967 2.16963750726799 0 0
27.1777732632876 7.10089896959255 19.8935884851285 0 0
0.320176060361074 -0.439535305265637 21.4664479790157 0 0
214.790917481731 -7.5790964758499 10.6634250905202 0 0
110.33478139778 -9.96696057491294 19.0889099738279 0 0
-15.0257178664497 6.64526152890179 15.8983432851405 0 0
215.011955366911 10.4855204350155 10.1894486727807 0 0
202.890090416781 25.7228925990495 10.4832213702009 0 0
189.437230897122 -19.5626843215754 25.6511281282562 0 0
139.041012420535 15.2648072277928 14.49315650178 0 0
165.386034523183 -20.4313602475172 -5.48268876073657 0 0
63.8678673179068 -8.80662600827211 19.8908866394414 0 0
168.90307219933 -23.9742009951183 -2.43798974010188 0 0
42.6650450261157 -14.0390437613387 8.53597034103287 0 0
181.213319526517 -16.1469370234888 23.6494696576024 0 0
-79.5485973014594 1.51536756302476 13.8320698926569 0 0
