"x" "y" "z" "f" "a"
-123.410575491371 11.0975065952727 11.4438697933051 0 0
-205.683006747737 14.6490994165039 -27.0689159771728 0 0
-108.577622540709 17.9452818756586 9.83182913352908 0 0
-182.3094644397 11.9602879770194 12.8071534706326 0 0
132.204579005444 11.1664245897059 22.1921253005545 0 0
-199.764361306298 0.22838002822052 -16.6200136454517 0 0
-127.6586079299 -5.53319150038468 -6.98370689081426 0 0
-192.234467128595 -8.74399292079035 10.0722130673051 0 0
-251.329830710527 -41.131736489366 -9.03641341718091 0 0
92.0544034522571 4.72964032414972 24.6394513136681 0 0
-83.6622859723034 7.00995427338666 17.8148680232601 0 0
112.73528469838 8.64514771509003 23.4278086849773 0 0
19.8823223624904 -12.7029078629166 8.26966299731123 0 0
-247.728688886913 -40.2907247285983 -13.3737082544877 0 0
-219.425357374084 12.6936221564844 -22.8552697158272 0 0
-153.279745507155 22.1788903242722 -14.0758186194089 0 0
-213.327601493861 11.630962754326 -20.901145117246 0 0
44.7648264153636 -6.22059789207988 22.1257773378024 0 0
-159.137723318359 26.4425637278658 -8.4466175158391 0 0
-111.861737623296 4.52474451716632 -12.1522078100115 0 0
-234.503984341371 -9.04500185771638 -11.0528478764386 0 0
-70.6369387789856 11.7571761987629 -6.36064336642231 0 0
1.80964988711772 -3.32224963803868 -5.55582418370571 0 0
89.7100931374131 -3.92224534822806 24.0756820125058 0 0
-227.037339510487 29.4746974712081 -5.9222414762747 0 0
-242.207729208413 -9.52950504837754 -9.11163182268346 0 0
-232.147264366202 -46.714669150015 17.4505557809061 0 0
-55.186141373022 4.12690203206024 -8.76459689916005 0 0
-174.827841537092 12.365687125353 -21.7401752068099 0 0
101.303066093658 -4.24280619989865 -2.90585758886248 0 0
15.1496996557602 -1.7155530323134 -7.69166111518343 0 0
-219.932579448079 -1.30450743101233 -10.4352693913745 0 0
2.9337938999472 -5.06919888312221 -2.30820875329482 0 0
-113.081215134485 2.38181451997081 -11.5623199068523 0 0
-89.9325997146512 19.3908200337626 1.55358517724974 0 0
-87.033464213535 19.267081232536 2.04948098994844 0 0
-132.96676607181 -8.15049092919125 0.212060189938164 0 0
-228.712610914383 20.4480765453118 -6.17057931087442 0 0
0.0638438992844082 6.67020966443454 -2.18237218225222 0 0
-167.497201893441 -8.87958202781214 4.6144458071283 0 0
-41.5215671112353 11.124661432086 20.0819523649791 0 0
-64.1006748805957 -4.19301901519401 17.4443341945978 0 0
-163.467001080929 -8.90316791554166 -20.902172264889 0 0
-128.081868995698 16.3161346990778 -14.2206833269114 0 0
-129.634727093735 -6.2973800874379 -6.12436844986534 0 0
-150.696250578209 5.51009856890895 8.02502465432694 0 0
107.337072886764 -14.299537241495 15.9915108148188 0 0
25.5334992498464 -2.49820771673785 -7.52646820940273 0 0
142.706781157929 13.5261485352282 20.3570017093892 0 0
-199.824276691144 -9.52443431067223 -12.0316642669696 0 0
71.2447043999845 6.87184118523095 -3.21551453899968 0 0
-223.110385122631 18.9354403049143 -24.6313800385183 0 0
52.5683706815229 -13.4639397391029 15.254745482193 0 0
-213.527400584977 -11.7312988551933 16.7063415716071 0 0
-176.215067203311 30.3172713480118 1.51287296477161 0 0
-249.308185294346 -15.4179462923476 -11.1988219806304 0 0
-181.55314308209 -12.7787635250513 -17.1430459858252 0 0
-147.761092478899 -6.30442117288651 6.72612609402733 0 0
-34.1748083701774 13.1507801174368 2.45787989103499 0 0
64.6630739242749 12.6538511387032 18.1477345305946 0 0
-173.460915199255 -2.76783746446786 11.2986251950291 0 0
-103.221619018286 6.36567167404941 -12.332318099078 0 0
61.4481122582152 12.1895039073583 19.0791206113151 0 0
-42.4169252671341 0.274927486753127 -8.27308142962826 0 0
-175.47665973808 5.34458860002428 -23.9236290537208 0 0
-67.7923802010183 -3.609352371485 17.2281867727739 0 0
-150.360980795177 25.5191304217128 -4.11663630512107 0 0
146.53910249428 -17.9678820103025 11.7519574854638 1 0
88.6847569858837 3.4376700977458 24.8916922420706 0 0
27.7885206235406 -9.84309308401169 3.33166298475101 0 0
123.526142025638 -15.4232711421371 4.87509569289228 0 0
-211.962805754031 15.0452644977667 -25.1926229074715 0 0
-173.995054915315 -8.43602582605337 2.10783496577479 0 0
-131.407888169739 -0.755310964620337 -10.7400486161161 0 0
137.999619716983 5.06902556096209 25.6906655252105 0 0
53.6437744224406 -6.19828471370246 22.467875375184 0 0
-196.278266345808 -16.3797618703038 -5.80380129411262 0 0
-226.484248310494 -34.2597576330862 -18.9946257600066 0 0
-100.396169559968 0.0257204906135322 -8.85027092015541 0 0
-258.628221748171 -25.4924900617204 1.42411918028348 0 0
106.425011061645 14.7881079870745 12.0974430317095 0 0
-38.4712282232028 15.7786470165799 14.1300676493105 0 0
-185.913358537707 -11.2986971931798 0.314700740606759 0 0
31.0953652738628 -1.68637202933435 23.6006079359745 0 0
-191.351476194325 -4.24356002441783 -17.5009219111561 0 0
-158.104482990698 -1.88755725003932 -18.8909830537614 0 0
-168.568377883334 -12.6204856690305 -22.1040634959429 0 0
121.193154519634 -10.5738019852308 20.5936074985603 0 0
-84.4866788226242 18.2746254280943 -2.10544875880279 0 0
10.7245212059011 14.7387367502353 12.9805709983835 0 0
-217.280751627723 1.01009438180868 -10.6366073103713 0 0
-105.435481005178 13.1640365906562 -11.8211297505909 0 0
120.896057187151 -6.32776163352259 -3.09546197638705 0 0
-227.466000970767 -48.4745980285854 -7.23482220984341 0 0
128.234335870368 -11.1495000603981 -0.771616608360342 0 0
129.907939886271 11.136605407992 21.9995439725332 0 0
-216.863570704921 15.8189330498745 15.9310151142874 0 0
4.74810421335374 -2.17577332573174 23.0514459676536 0 0
-151.308750238691 -2.19484556032013 -14.7964355204888 0 0
120.389253859005 15.6457477096643 9.39743913209455 0 0
-187.995544686149 8.93960694036661 -24.8169956027756 0 0
-222.809440016771 11.5993178805256 4.52500025965203 0 0
-231.20224881449 -15.9809386073888 23.3830757704467 0 0
146.132158306659 14.7650247124363 18.456820888777 1 0
-164.163377523124 -6.496249864184 8.10179846314853 0 0
-65.1777315447853 -6.18733260911127 -2.42363022844393 0 0
-180.642258040205 9.14854067907664 -23.7675216884392 0 0
-224.62324736352 -0.780775470531824 -7.34463367510281 0 0
-65.1683132785408 -0.244490113936318 -8.27992322702041 0 0
-252.714345473447 -16.2721614773112 13.1992084619806 0 0
-130.096661090141 8.93226296539287 -14.8261866493727 0 0
-16.3527789483019 13.8892528017285 6.33584206170112 0 0
-240.200892774853 -49.2683464562204 -0.471731666494774 0 0
140.922201961663 -9.19352026859427 -3.84159152499466 0 0
54.2406034389967 13.583902070406 9.52610591482262 0 0
-61.5531463770084 -10.7177624435278 8.39596057100657 0 0
-54.20545842978 15.1082460905982 16.0076552758573 0 0
-236.392438769684 -5.13998731462842 3.73358604878956 0 0
118.381370286728 0.224137891698053 25.8563949389025 0 0
58.3824605427474 -11.4243869844812 4.30899761153354 0 0
-53.2402808628881 9.01041427147634 20.0571419130659 0 0
-177.973404665206 -10.6931945912922 -11.795263430941 0 0
60.4108377896827 7.57567481422434 -1.88200381977367 0 0
-209.236925960772 28.1312807457962 13.7765248741813 0 0
-235.425564555104 -2.67290987949398 6.06418309426059 0 0
-177.108632528789 0.721832031332669 11.9813654067593 0 0
-108.08355025771 -0.329308576495212 12.487960693314 0 0
-46.0988069488382 0.0959079638502112 -8.36190785305433 0 0
-182.555286617794 -9.90330461401217 3.21336644973728 0 0
-26.1484807085291 1.63444109250394 22.533576012279 0 0
50.7889325983022 -12.0977641032532 17.9694798232152 0 0
55.1943078043763 4.71393768059125 -5.13216758951477 0 0
-22.2970568514551 1.24009640357529 -8.18430521140666 0 0
-85.3946145281401 13.6927392942067 -8.4915325082737 0 0
-190.986772399266 2.74322872508307 13.6241650816808 0 0
127.323251013088 -12.01495763521 19.5934648089022 0 0
-77.0377077411636 18.529408943582 7.64498961392031 0 0
-121.781693456207 19.2784919737408 -10.4200218895859 0 0
72.2265957800577 4.46577096588747 24.3040524050825 0 0
-203.247273802864 16.3660189274316 19.1819396096454 0 0
81.9920253940849 1.23577319084097 -5.42316834858705 0 0
-75.123138717546 2.83057355112351 -9.74075441845631 0 0
-225.520258381923 -26.7216340720641 -18.8411909876715 0 0
-161.750436798853 3.20856227817412 8.22798746011211 0 0
-189.723354623959 40.1528337870796 4.17913163147219 0 0
11.5662325555609 -2.79137340272383 23.0132386183103 0 0
149.263339247794 17.7056867940708 9.23643410567214 1 0
-201.473907963909 34.7674035502397 -17.0553477040043 0 0
121.651969826453 -15.7288218884638 5.79164165290068 0 0
-185.787232286292 12.3621967280355 -24.1314931584451 0 0
-237.755265236452 -13.276966675062 -15.3463640236482 0 0
-224.239602395726 -7.83972740159873 -11.4996447537001 0 0
-97.1985268473232 20.1363598991075 2.31625541550152 0 0
-152.53586917915 24.315466195619 2.22264959496922 0 0
-107.263356140132 -6.54329638725079 8.87271109701217 0 0
-238.33895706314 -50.0034974203491 1.90454764000663 0 0
31.9202608369411 -6.61144060074303 -0.24962518551083 0 0
-202.97255605492 36.0421108855142 -14.8358974610191 0 0
-255.7936165611 -28.0848571780513 -8.91274042984793 0 0
-257.973687491321 -34.4533914883451 2.89880807742015 0 0
-203.519730226474 42.7159892211238 -1.59016876123175 0 0
-214.817224522627 16.8798925388811 -12.4868988581451 0 0
-111.275137002383 -8.24206480331106 -0.13196763139549 0 0
-57.1449439239261 -2.75164842785387 19.2158818379021 0 0
81.9264562877763 -7.58019376785029 -0.562270400985082 0 0
36.6333877397254 4.44020363230314 -4.97831420047695 0 0
-116.252660068433 -8.11226380636846 0.00874746803292069 0 0
-106.809358955025 12.3847069577241 -12.6634848224027 0 0
117.624385386456 -11.8396330006622 19.3474264499248 0 0
116.718941451411 -16.3695281829849 11.5359568246922 0 0
-52.8142177176095 14.5749368719051 1.12120256130658 0 0
-42.8291974700312 6.10747487952107 -6.33089514942893 0 0
-230.271131580034 -43.1686620319279 20.5406955881829 0 0
-193.629204910087 -3.85974978977195 11.3786606121135 0 0
-170.259889294511 -13.6408221349323 -16.2989221433852 0 0
-74.1172447305664 18.4405893446417 5.30207968334229 0 0
13.6594364093659 -11.951934394915 7.04736992640304 0 0
-245.56016446839 -29.696685897403 24.2045627801097 0 0
-147.019081641275 7.50428414105883 -16.4550173580732 0 0
-111.742630579144 14.8996937211118 11.8141404434534 0 0
-179.074007312587 2.69056444028895 11.9417766256631 0 0
83.2826551723882 11.5698060494486 1.37100465382648 0 0
-187.38879380963 -10.2616585983684 -14.8612606223896 0 0
-171.306039696754 -9.03902850277286 4.71710756672464 0 0
-128.885032780907 -8.10973799758255 0.762762706346766 0 0
-205.986850907898 32.19975601559 -19.9122315591516 0 0
-48.3049346762712 4.58083821675925 -8.92914921416241 0 0
136.955303476617 10.0826631413794 23.4584468027868 0 0
-169.053062753476 -6.61161663051118 -5.65719498734133 0 0
42.1509680580032 10.8189258341641 3.12847045037719 0 0
-212.438041990853 23.0468735021064 16.8665122764795 0 0
-233.975083912176 -2.36960229082327 13.9152520483094 0 0
-228.298965139873 27.8618963144754 -11.4013952855252 0 0
-226.87242771049 12.1185261064058 -19.3113787791835 0 0
-102.541923036399 18.7404860185397 8.86633333776772 0 0
-96.7104595339308 3.43447123333042 -10.9850960359331 0 0
146.534721264999 17.0788644393659 1.04131435051663 1 0
-107.439119829687 20.8019109639047 0.589241804173325 0 0
-223.353118537 16.3913648266308 -24.8707282955176 0 0
-254.271954949394 -41.7372539075506 6.2127103708349 0 0
-112.628034761283 10.0190942689096 -14.7471275624028 0 0
10.6068308872847 -12.8555093005218 12.9203583176011 0 0
-188.727493830683 17.6460762121503 11.9907178720337 0 0
127.913873618543 -16.9978167731695 9.30564401599018 0 0
-0.619505317466971 -11.8592840804875 15.2523516915544 0 0
-218.221922771383 13.3812347155996 13.6110615323825 0 0
-216.504793423448 38.2585487639185 1.5226241538302 0 0
-238.740565445639 -45.528797609669 18.6869711293262 0 0
35.5100665937377 2.40907092166211 23.9465303957992 0 0
93.6245708208912 -7.26863317321441 -1.11686521685626 0 0
-222.8337227651 -15.891801236913 -14.4066109238661 0 0
-173.754370185937 0.461045190581144 -25.5324644426506 0 0
-41.5647648375232 -8.70479574383815 16.0205122594463 0 0
-188.752037290353 19.4341562109988 10.946359855015 0 0
-228.793485876814 -1.69098129160517 -3.36046245168838 0 0
-206.560153740817 -16.7720088419811 -9.10014773802689 0 0
-146.57331440983 -1.00793787860579 -13.8804071785986 0 0
-80.5068543553857 17.0993505048014 11.7980231967986 0 0
-171.046654815567 -0.314218941340859 10.8818605811385 0 0
112.382738247528 2.36376994822806 25.8034047190121 0 0
133.401391183044 12.8125261486338 20.3773794944579 0 0
-43.7078518927588 16.5073474978619 8.61867388862816 0 0
-210.91137339897 14.6342989731882 -8.74589111350128 0 0
-86.8868449372069 11.9506064841936 -9.89083344053295 0 0
3.55234447446115 13.5220152225971 18.9050715766282 0 0
-18.6756317657109 15.7236119621791 12.8931781019445 0 0
-195.619956299711 24.0437503527787 -23.1198581707956 0 0
-184.543706548733 36.5767497059246 -0.713563656631076 0 0
-195.296440010055 41.2938921445796 3.60944660278965 0 0
-45.0430773239985 12.1751146310055 19.2684051016789 0 0
-126.492115378829 21.5340732428763 -7.70221136242132 0 0
-61.4237117980171 2.27356401541441 20.2874710228867 0 0
-201.885070120642 23.6963906673889 -24.9466663448902 0 0
-176.113174429211 23.5834747256551 6.62003270840151 0 0
-130.507644635674 13.214497158688 -16.3483817150198 0 0
118.977414702483 14.1764827833714 1.22950382366035 0 0
-57.02567734527 4.26713636770041 20.673197714147 0 0
-170.400899282567 20.0943102781644 -17.8697632046305 0 0
-157.369269779146 11.8341868556195 -17.866918373774 0 0
124.880934341751 -2.80854695661891 -5.29244767087339 0 0
106.395948936454 -3.25673094943787 -3.58389683786208 0 0
-225.589057069364 -49.3725875987478 8.06352117703053 0 0
-116.93553270526 18.8812916723562 -9.94660787325759 0 0
-242.232063244815 -50.0251034980303 -0.762250368145059 0 0
55.2325052125336 -7.38635238152793 0.166881036983189 0 0
-58.8101675930423 2.8536993128072 20.6021343658979 0 0
32.0097984985121 13.9856207431451 16.5834906524592 0 0
-223.372129923013 25.6203943490061 -20.9303765308629 0 0
147.14709570869 2.07923413017743 26.1303583555646 1 0
-120.24074842998 -3.76345130215548 -7.94768955262921 0 0
-183.602265098997 -9.99716757936161 5.71307887353406 0 0
110.875330964211 -1.82979935702793 25.2721091288241 0 0
-76.7741418148173 8.79266035737761 -9.69573972597897 0 0
-145.292531917431 23.8933027124321 -7.95392786507852 0 0
-172.311481712344 -6.70612376270906 9.54022611780972 0 0
-200.329117472512 -13.3581573281126 -10.1800938957417 0 0
-202.892618923428 -3.76355739336233 -13.8621168750973 0 0
85.8130936959969 -8.37815887704575 21.4740486884019 0 0
-113.597796857294 -8.58713476734971 4.62003025514756 0 0
-163.398603150033 28.0251951835967 -4.24933265779915 0 0
-186.143405300075 0.718475915869049 12.4762596115754 0 0
-241.93177069912 -42.1426453867986 -15.4640675166833 0 0
-254.394839040728 -14.8058369631967 5.18836275964002 0 0
-177.278674409881 15.4809992256186 9.2447354666409 0 0
-246.340504166082 -42.1721237214043 -12.9129167174455 0 0
95.4826358681066 -4.70717321728046 -2.56150922136588 0 0
-227.577437550049 28.9434305762473 -3.92641968089183 0 0
122.923716333264 -13.9306114834806 2.76523505134241 0 0
-176.150368674917 -3.69771068453042 -26.4921254308779 0 0
-133.641517123573 23.4911837616522 -3.28182828149729 0 0
-52.1829854961556 -10.9828091572796 5.21290742359648 0 0
-104.575498012414 13.1852565792872 13.4017565133515 0 0
-163.398201826501 20.6226903986549 -17.1172221480465 0 0
-208.057222822484 -3.35173066684572 -12.35873160307 0 0
-160.465251376946 5.21580133594424 -19.6390235740903 0 0
11.1820510570679 13.8123206030028 18.2992149804217 0 0
21.4008855743288 -4.5572706158843 -2.47497667769129 0 0
36.7302564443058 -10.5917638425198 19.2656477403978 0 0
34.4812079589706 10.6742654078345 3.10875564262609 0 0
-233.744904408633 -37.1719718850167 -19.7176425360081 0 0
-92.8352062729203 -7.06324043885043 10.3366259559719 0 0
47.6467217230507 -5.15161649834408 -2.07693408660641 0 0
-149.82715494286 24.4969409855204 1.40667170580495 0 0
65.9963179079799 -10.9384330329148 19.8450886011145 0 0
-85.1031006863562 -9.57312575450969 2.17257373828967 0 0
121.880771995698 3.73624398211432 25.7283754570854 0 0
-58.7223525894672 -10.7276507948547 9.03761786558329 0 0
-122.683566613106 20.3143088050023 -9.07197504135015 0 0
67.563063025186 10.7738687886987 1.55461552992938 0 0
-166.045213135577 -2.81531188034768 9.52103220507464 0 0
-237.767213266877 -9.53016180518127 -10.4088442874863 0 0
-127.185499011352 19.4741125423731 7.18948638357648 0 0
141.411934004634 -6.29163378898675 -5.43729525626126 0 0
50.789984928032 -2.97554693991178 -5.16226527528679 0 0
-14.0383070347879 -8.36299193224938 1.36833524187381 0 0
-127.776555223991 16.5674025328702 9.26028247565068 0 0
-81.8016299017889 8.74956747319818 -10.5831152157406 0 0
-104.592440071033 9.67005055717463 14.5193290271669 0 0
136.109665913537 13.0111360807788 -3.96897706680277 0 0
88.8055766912241 9.81432654543434 -1.40648092489391 0 0
-203.995530274478 -16.8669023834593 9.35920032814309 0 0
-221.643769772208 15.7906192597441 10.6658513679243 0 0
-170.959712735976 5.78509973320321 9.23479598266086 0 0
-190.657012107274 -11.7462207171084 -11.5204083321057 0 0
-215.796579714274 -22.0600996919354 -10.3200232980038 0 0
-229.817520682023 -10.2866239277603 -12.1239447591115 0 0
53.0391419406671 12.1381759199098 19.430313844326 0 0
18.3928320067834 -9.57313175082209 19.697928644284 0 0
-49.7230928930341 -5.09480991180348 18.6584988033516 0 0
-117.382343029249 5.26184294855924 12.5936410164326 0 0
-9.17544508690365 -0.566819357557567 23.0685103236208 0 0
-73.0702188943909 18.0205456600412 3.00812512670115 0 0
-188.081853540412 39.885054776292 -0.516203827408475 0 0
-189.057129097643 4.33294359485355 -23.7624213101633 0 0
2.36714555372985 -12.1904950738051 14.4921882380343 0 0
-248.493859733443 -47.5912064987632 0.622419580432321 0 0
143.995873268745 15.5784163288163 16.2215035224205 0 0
-185.02273606989 -11.01579130453 -15.7166251316688 0 0
43.3128675323401 11.8343395735699 20.2528803717872 0 0
-239.270553221594 -28.2670845323498 -20.7288622173159 0 0
25.7255951567474 8.10067529357883 -0.0635252431044705 0 0
21.6294046958382 -11.6808761399407 5.93925793148586 0 0
-196.128627171644 15.815964203041 17.2002718307784 0 0
59.1041641228454 9.61614961213363 0.636402376433364 0 0
-236.298127671286 -48.262348643979 -2.84084606023394 0 0
-185.185749823326 35.5745723837267 -8.62582547343266 0 0
83.6484906606867 -5.7597090400523 23.0175888392844 0 0
-62.7839059166546 1.09540658451542 -8.79108212138139 0 0
-174.217389770162 -7.93765773628637 -5.68578144492228 0 0
-148.962830432483 7.86706105470787 8.16003205507638 0 0
-192.748899752371 -7.39868164527314 10.8738090595637 0 0
-214.160163739461 34.9816355128355 -15.7467243662666 0 0
130.327938634871 14.2374645828482 17.1759848121438 0 0
-110.816551247433 19.5903667780179 -7.44225077748513 0 0
9.73848003440727 -9.53008673439111 19.5883080326888 0 0
-131.314427641843 -4.88537552443125 -7.72832793906307 0 0
-133.148667587331 -7.0851901845184 -4.4500766490703 0 0
-89.3466247179537 -9.40152923876141 1.94352364181345 0 0
97.8538019315908 12.0012547986719 19.2526619359703 0 0
-194.856817136748 -15.4781484805168 2.04088724539317 0 0
140.454654075889 10.2244924567226 -5.86365655359213 0 0
136.588940205219 -16.2548275953837 14.7276197327428 0 0
-221.246528420635 4.32965696710737 13.776731164116 0 0
-58.817300459996 17.3486616957402 8.10491568001916 0 0
-69.1674567698809 -1.50874698613412 18.1570012299426 0 0
-206.998341477144 28.3688266888635 -22.4300901514344 0 0
-166.376339690954 18.0132788815747 -18.0599827873443 0 0
144.513021405688 -6.11917025076866 -5.98512991751218 0 0
-57.4614415930904 16.6056329907638 12.6352559578432 0 0
-256.566218517506 -36.7540711706653 -2.48011889977854 0 0
11.3056208887791 -6.45873504304115 -0.450307650843629 0 0
-105.847296711089 -2.5309471852839 -7.39796139071667 0 0
110.696516521683 -7.20349076577723 22.7566068303377 0 0
-239.632290234225 -47.3702623326815 -2.22115250592793 0 0
-191.801909114188 -4.84346467234654 11.2700655465405 0 0
-43.9542748552003 -4.49598588928257 19.7206216352403 0 0
-134.704619432935 18.1077840903002 -14.5025975039876 0 0
-88.8748706578696 17.978328663851 10.3373435522241 0 0
-117.022964383038 -0.681109206643086 -9.71681399891227 0 0
125.846156957103 2.69302287223743 -5.60381641631326 0 0
-95.1302327638203 3.33785387834279 16.0612982937198 0 0
-81.3668126890623 -9.82931988447621 7.24677934063892 0 0
-216.577706574835 37.0834617395796 -1.77592348042426 0 0
-225.576524482046 -18.6367490158417 -16.2231303133771 0 0
18.8566048523456 0.562692132664104 -8.54242423808041 0 0
4.81663378096065 -2.98284127540901 -5.82581448955892 0 0
-138.055949969962 20.0604306579837 -13.2062702824011 0 0
37.236419490194 -13.2622747277327 14.5325185151178 0 0
73.6513143231482 2.42927851090594 24.6993756145747 0 0
-100.659944970727 16.9920689693237 11.2471321779612 0 0
-216.018322884529 20.5870517525363 18.3305257396875 0 0
-192.882879160485 22.4924407856468 -22.9580444863698 0 0
20.8471773150567 -11.1486526382055 18.2522506363362 0 0
-191.524182103759 19.4171994564647 12.2332933859284 0 0
-139.045608795041 -2.32884200461029 -10.2055855993832 0 0
-70.4947677406724 5.69834021131328 19.366634190725 0 0
-188.597507374407 31.7913221943925 -16.8149140226261 0 0
-244.994990561855 -41.011756087088 -14.6944369833523 0 0
-209.00311865637 -14.9030375923253 13.4162915813589 0 0
28.4580026586316 14.3936269605494 14.0279729595248 0 0
-176.888145001702 -5.71627528631593 -26.414380378568 0 0
89.3826695192199 -1.10039026793953 24.9943121427944 0 0
-86.1099031603589 -1.02073735884658 -7.24327631242245 0 0
-160.738286848439 -7.04286379800951 -17.4281413488288 0 0
-36.727616069931 -10.3322621260339 3.82017694885651 0 0
-210.348802144202 -4.45994359452835 -12.10784949964 0 0
-185.252118581027 29.5604872230089 8.05304248191029 0 0
-180.428335938712 -12.5389477955515 -21.9046281922324 0 0
-20.1663148048317 11.3125182147121 20.4850900488136 0 0
-98.156383359506 4.92779575412061 -11.2780519335264 0 0
-150.95883313411 -7.24982943539098 -1.17565795556279 0 0
-32.1315781118528 11.6023954131373 0.481434459824789 0 0
89.8628850374055 -14.220170668014 15.7822622222883 0 0
-206.766161983774 -1.14669573797959 -12.781539046081 0 0
-66.0545384276054 -1.55130268821315 -6.5137820318682 0 0
-224.673762445916 32.5580353538742 -3.28367304445089 0 0
-76.8317502872142 15.560369965315 14.3030430267043 0 0
-18.4009397779786 6.71155147497997 -3.33964328412052 0 0
97.6178464445914 13.8167874064949 15.6880850230068 0 0
-232.421964095081 -2.67418112066536 3.89049062099726 0 0
-180.242350863051 -4.59176699051219 -25.0864285741083 0 0
-168.986358515778 21.3243033797146 6.37732537159075 0 0
-177.61696616271 -9.17706040262208 7.94638341131047 0 0
115.986290400097 14.342675114898 1.93082609923602 0 0
89.309934125562 14.4996296993368 9.48280646935813 0 0
-253.749338532969 -16.2056370403878 10.9819193602372 0 0
-187.290124422427 12.2294901023556 15.5769809953181 0 0
11.5622101072329 12.7234916752414 6.19054040947413 0 0
-227.883314555822 20.4106598893914 -19.880241566131 0 0
-204.91059370992 -21.5888062170387 -4.37667020320714 0 0
-194.884141366472 -7.70539735851018 11.0609901711873 0 0
-86.3972061744086 8.17527303457931 17.2451165589537 0 0
-186.707246158667 -7.49734075713194 10.5860987196509 0 0
-46.729967679446 -3.01857225675708 20.1748428112959 0 0
60.8192953289315 -4.46746522270913 -2.40924557894659 0 0
-197.425550578603 2.90370943038959 -19.0386025262854 0 0
-134.125386081856 -0.303059403023785 -11.3562913570926 0 0
-89.8216936493216 3.1580148769784 -10.1396109331676 0 0
-90.7517764590218 5.15531495315023 -10.9952706031141 0 0
120.514763051419 -2.54563063489177 -5.05138681852226 0 0
-230.35311278264 -10.9583854834475 20.9994480930274 0 0
-242.54303114295 -28.8691629698269 -19.8658490557483 0 0
103.394439988793 -5.29276800438878 -2.49631385102491 0 0
-141.731719223777 -8.13066644921961 1.91994991993809 0 0
-239.407673995936 -8.42224865396554 -3.7490145044065 0 0
-103.406359692438 4.4452646241952 14.9232148650843 0 0
-44.299682578603 -7.85159855242417 -0.0132887535353886 0 0
-100.651605511546 7.02813376332235 -12.3437434264699 0 0
-25.4693279424244 0.666405875150537 -8.11680630699882 0 0
-211.761495106264 17.3860022757026 20.0338119557526 0 0
-103.603850306819 20.4047013583682 4.42035758387144 0 0
-233.166439109859 -19.4597451134357 -19.4172628807326 0 0
-235.855226971562 -44.5336609621786 -14.8639741414055 0 0
1.26357473350013 2.46364146088745 -7.42266724570872 0 0
-227.090866164298 -49.5753591073082 -4.01894197428887 0 0
102.549473767467 -9.61947367660037 20.8301122246822 0 0
-194.414571173401 -14.4494677051705 4.41794110088392 0 0
-204.344341528868 22.3570159348296 -25.9283990957726 0 0
-231.990729832394 -5.65358520783469 -7.52319675011521 0 0
-119.989718153256 21.4317738725432 2.89596308755076 0 0
136.677915437852 16.6381044188094 6.88947615988819 0 0
-53.763527556396 17.118794440904 9.78280905764608 0 0
-200.75183598104 21.4130885428814 -25.5540660418479 0 0
101.576147322821 -9.52174318914183 0.0727603581017156 0 0
-102.049684120533 2.89524453784463 -11.3919110033475 0 0
-111.727072841977 18.3759733418926 -9.67424755428297 0 0
-79.8307922800744 18.6818462468592 7.39789512610952 0 0
-167.99238985467 -4.34120702562443 9.71869284309171 0 0
-238.964115213782 -43.7956290634841 -15.1304084021413 0 0
-185.753863835336 37.2609598133847 1.64174718469984 0 0
-193.73254005987 -0.113803563337056 12.2784092554217 0 0
-178.099770471297 -13.0244323600502 -15.1944467629811 0 0
-67.7159648901265 17.437954614202 9.84940766319312 0 0
-233.303518380072 -22.2167269361531 -20.1598120207876 0 0
124.847200397089 -12.6850069017543 18.8624981226436 0 0
-42.1428693179681 -10.2025231775497 3.36102628361456 0 0
-187.372862824593 5.54347469649224 -24.4598189991224 0 0
-195.619228243851 18.6992941140947 14.3848589066337 0 0
-79.7825629211497 5.04534528530306 -10.5528350934042 0 0
-211.819150367196 25.9351400525643 13.2770652002771 0 0
-171.546009796885 26.2386801833033 -13.7361771751791 0 0
-212.958449118707 16.7632813931263 -12.3112106315877 0 0
-226.757644494766 30.5560568378537 -7.61152341679825 0 0
-214.951460677854 24.2639704915145 -24.6310947293849 0 0
-100.932684227921 -5.86018992050569 -4.47264945135331 0 0
-174.903412993548 -14.8565001521225 -16.1982851634057 0 0
-145.06653176976 24.7733513901857 -4.56737497913753 0 0
44.1433758551035 -8.71201236557051 20.6659150087986 0 0
-71.9417233694423 -9.20320149146644 10.4600293255024 0 0
-232.033749176375 -51.2476968942504 8.05773226200855 0 0
-224.972878716769 -15.295190100976 22.1545113730703 0 0
-128.186726166264 -1.326521197877 -10.159168805621 0 0
-216.173130258666 -31.4283004165858 14.9039193467302 0 0
108.708421278197 -7.66697337687414 -1.5226838211375 0 0
-179.636059632773 -8.99399426108182 8.47256780196857 0 0
62.6050031208042 0.689085352765588 -6.22364513540749 0 0
-165.790960235961 20.1777312862073 -17.3393759669081 0 0
-104.888071487258 20.563675641263 -0.365518003290437 0 0
105.922893820536 12.0090444349705 19.4771265354739 0 0
-235.693036811544 -34.1734554127716 25.8790329493312 0 0
-197.542227681319 -2.95393063563928 -15.904444804249 0 0
74.6949057700395 0.721256616189291 -5.876778347413 0 0
-258.346672628671 -29.1834881081835 7.61317754879593 0 0
-181.272362969371 -6.87968370987822 10.3451023894366 0 0
100.783460056145 4.20802113964604 -5.40512711630378 0 0
-203.427849203379 33.5657506461396 -18.8543531577116 0 0
-227.115355718272 15.6223371268024 -11.027205374357 0 0
122.040288698717 -12.4611636024327 18.9615502755561 0 0
-159.811334402762 11.1286423011494 -18.5439165631854 0 0
9.64007672955931 14.7745760641844 15.7574870444766 0 0
-223.634453754302 32.6465121776406 -0.539071316660328 0 0
86.1960433047555 12.8091434733431 18.0646098096083 0 0
31.2521713623554 -12.8580870511471 8.15292727265064 0 0
18.7097368256859 6.22058223712733 23.2003038928801 0 0
58.1303594409488 -6.56684014333912 -0.686788922175507 0 0
-194.939904106657 40.7749076103585 -9.22097284910348 0 0
-23.8340257243163 -1.98738853504461 -7.41902133118294 0 0
-219.512789973078 14.5126899911695 -12.9662200955594 0 0
148.333590701024 16.4067410395273 -2.99541869432672 1 0
-183.792138390749 -11.6371778998574 -12.1598637855756 0 0
14.131096120487 -6.48851893364077 21.6639643218434 0 0
-250.950068622115 -19.4872877894059 -12.6345628246484 0 0
17.0186430442798 14.594420536524 13.6553802174451 0 0
-224.373184144365 4.97351767776846 8.81121802268758 0 0
-17.8254479480665 -5.27915122240925 -3.276776196629 0 0
-60.8269842122612 -0.375460235305327 -8.19390381956079 0 0
76.7117710537622 -13.4188102197453 6.78590067125443 0 0
-177.472440018195 30.5733108655973 -11.1457757931347 0 0
-47.8853146312187 14.2164219470221 1.68830382608795 0 0
-172.030056961647 13.8426365575888 8.58641917378108 0 0
-221.821780603272 17.906796858 13.2624604976332 0 0
-131.421133861178 23.1828046718828 -3.57602126913209 0 0
-176.704715351527 -8.694829189684 1.93736203208176 0 0
-5.76658275388755 2.04207689478423 -7.73055026754172 0 0
-105.50589089319 6.18282757308897 14.7386676888921 0 0
-105.20316704709 18.858362259447 -7.40216748930864 0 0
-229.324458054314 25.6577836169094 -10.7124173719585 0 0
-218.201811188154 -42.644611128191 11.30245644171 0 0
148.711808439871 -15.5669779685837 16.8245896098075 1 0
-210.238578437797 -6.7261296905886 -12.0113071671115 0 0
-203.28299168017 -20.1617422553581 -5.33889853932576 0 0
89.0567734549644 -5.00918552657001 -2.22324853488382 0 0
-201.108963298428 33.2807033441574 -18.9785635524516 0 0
-85.2584575615778 -7.56783616720049 10.7798454725004 0 0
-223.265047320487 -37.1122663411786 20.9100560593494 0 0
-248.150555277689 -38.2018796340091 19.8169735556869 0 0
-165.779096857038 -6.10388832343838 -8.35713263822071 0 0
-212.182484684937 -20.8737489598142 -9.21185022567183 0 0
-156.571737121419 20.6038029626175 -17.3012446504227 0 0
138.307356068796 16.6652465818563 9.92819781229751 0 0
-13.1358816084126 -6.52378268362021 -1.34216417660091 0 0
-69.3830842320569 17.1697881408596 11.4064952191117 0 0
-98.8716027659097 -2.44787244717732 -6.96894807000256 0 0
-229.576165984911 -26.2879686160114 -20.4313665536682 0 0
-251.93674709575 -12.988743180215 -3.54791802273702 0 0
-218.062556348916 35.5566345163209 -9.12825839003849 0 0
-250.766920861744 -38.7324284324001 16.8053857594074 0 0
-191.368357479989 -9.90588211982687 9.21426096053581 0 0
-129.908912666645 4.41086267002361 10.4701801379926 0 0
144.384033048974 -18.0577355616418 5.97237764488841 0 0
78.157243581061 12.3852715946092 18.2515887513687 0 0
-4.24985980110526 14.7542702344975 16.2731478333431 0 0
-223.568341208944 -49.1143915933854 3.17121349217023 0 0
-212.710682115704 14.9765186860244 18.3804732779028 0 0
-191.778484650655 42.3273109589549 0.820789405376077 0 0
-121.536063755351 -5.4243184338343 -6.7196350173196 0 0
-206.051147911777 34.5157625248589 -17.4853470367099 0 0
32.8815784817419 -13.0848902704683 15.2492967638217 0 0
101.778481486502 12.7356321489568 18.2256208673148 0 0
-31.433956405726 13.683704784321 18.5705163044354 0 0
110.316004825706 15.0591288423755 5.71000988803252 0 0
-200.002570260541 12.2552692207442 -27.0351226043788 0 0
18.5040670119455 -8.87859659722489 2.5501300141053 0 0
-161.583755681026 -6.31191166660291 7.56834213348478 0 0
142.205059198791 -17.2854725067741 4.32578591933467 0 0
-210.221726997907 16.0282380650757 -9.31851796898374 0 0
-216.698484239514 -41.6407115682331 -4.30355763065166 0 0
-62.8979514915934 16.4114741163184 12.9271525818483 0 0
-205.957412698505 32.7292743988574 10.1194100553455 0 0
16.3466791829537 -1.7194798732538 23.374611491614 0 0
-124.644440072901 6.431254759059 -13.6414282984269 0 0
117.107418523377 -12.7737017628425 2.04637506901578 0 0
132.953926566742 -5.51848202198688 -4.82327466665249 0 0
-222.555392558956 -43.7015457259062 -10.9345961690479 0 0
-175.434992630185 18.8875535303772 -19.4682805506991 0 0
-207.462687288736 -10.3674268665553 13.7966704227966 0 0
-166.871168066274 29.0244970196315 -5.49684848458705 0 0
-230.241423387257 -29.8452797705958 26.1082522256497 0 0
-192.472950968567 38.2850606052908 7.82045778406398 0 0
111.696108587059 15.2588007677106 8.32186047131474 0 0
-254.768363238361 -20.9368917322073 -8.48459110781884 0 0
-212.492622254897 14.5538750491961 -17.7778332397769 0 0
-196.273728859557 -2.21071077107321 -16.7483159108786 0 0
-252.152149541152 -34.3076990823899 -12.6069687227685 0 0
-233.496998670109 -4.78195168440702 -1.76445737693617 0 0
-179.939698158868 32.7063169241945 -9.17741324501482 0 0
-197.270799046286 37.0753797197085 -14.6678355410756 0 0
-33.0482310431197 -9.61251798397746 15.7093059504824 0 0
-183.967293166473 -2.11935947750816 -23.5044972450219 0 0
-106.304013202818 20.5860853221236 -2.21372150861744 0 0
-227.810545277118 0.81010975346712 2.46188487948539 0 0
-177.986501359163 2.67532259962836 -24.5153763574588 0 0
97.8362992870323 14.2498411127311 5.21008135542334 0 0
-165.171294236171 28.3280659297862 -7.22710429820557 0 0
-122.776972950015 9.32173698302697 11.7390347528413 0 0
-156.576712636385 25.1249789257542 1.59088138725509 0 0
-16.6583302134275 -8.24095528342729 0.950766468081894 0 0
-195.728385161667 7.85802286109096 -25.1904805422488 0 0
-246.745188754344 -36.4527846838237 21.7821145476686 0 0
-255.422705458438 -16.0526933898921 1.918047201743 0 0
-167.383167888556 22.7059951289138 -16.1371032400914 0 0
53.7220613846543 -13.2844292712051 8.3740285720593 0 0
-185.669980611323 -8.64405338676434 -18.6302113243918 0 0
-193.689154984149 2.35137012473696 -20.5075575341457 0 0
-156.066590573142 10.2700747518411 -17.5970956935159 0 0
37.6534959879778 -4.36745374672373 22.8030574953978 0 0
-71.1939397288406 16.6263916366061 12.7722930001184 0 0
132.78725026866 8.35768230377716 24.2376485209734 0 0
-211.341187511331 37.797710602527 -2.95066269993433 0 0
112.433917018706 12.9129348125406 0.0330245364374878 0 0
-179.12945620879 16.9580236162511 9.26186758115554 0 0
-246.546140445721 -45.7632667499877 -8.17932543819192 0 0
-167.258570790521 24.5197887241524 -14.2666114073336 0 0
-110.77727459042 -7.2408070578366 -2.90534962458002 0 0
-185.170062905404 -3.58248714370187 11.5355707837921 0 0
-222.715087701714 0.822194221907322 15.8981204204747 0 0
-118.865141921945 17.8165943652447 -11.4137932040224 0 0
-186.850536513819 36.3263201903058 4.7897050763035 0 0
-45.4484842327593 -11.1659879838519 5.7440243727497 0 0
-190.430734307218 34.4831256284986 9.81798970384806 0 0
-216.347475653232 -29.2674622829688 -7.45959931312225 0 0
-79.4876480021213 9.890079779714 -9.21400277048367 0 0
-203.419382424388 38.9586612988873 -10.5411911913857 0 0
67.2453771674214 0.0227791620119581 -5.98130997536938 0 0
71.4774294875142 11.6086922653013 19.4311111579793 0 0
80.6118941615615 -2.29739447321732 -3.9119464789142 0 0
73.0215434417828 9.41233322467393 21.762410606408 0 0
-6.16062073914133 -6.60066411758315 -0.767254053950135 0 0
21.5306833790032 5.87791020976673 23.246290442103 0 0
-181.794463880209 31.7287553588862 4.63365426795232 0 0
-94.549041848399 -1.46568254641307 -7.56316005791392 0 0
-198.608707391734 42.4675102355647 0.209723389367642 0 0
-49.7695987257215 15.7024028215276 4.01619989203781 0 0
-208.286913384975 -20.9702641536671 -7.38987648284601 0 0
78.7114498911453 7.5859102939335 -3.07711912953992 0 0
-3.7124206127774 -2.76686196517603 -7.11313785600056 0 0
-214.249633487778 -8.92289426550027 17.3765015979408 0 0
-139.155572019802 14.7564512108845 -17.2931346253719 0 0
-13.9302842214875 0.426026111958535 -7.86442436557737 0 0
-242.958506905396 -11.8158670537758 18.6631807755565 0 0
-103.342257674 10.1635046785106 -13.5595958092776 0 0
-110.737694924858 20.4730448573059 -5.07440008521841 0 0
-238.549837765198 -34.6696173897463 25.5418502697019 0 0
-176.924844850515 28.7013616315462 -13.2597866753744 0 0
-60.6007247413234 -7.49643480289076 15.1418729978205 0 0
136.277484101979 -9.75245553868626 -2.72214664482437 0 0
-221.20688180533 15.5496757716443 -7.09610841576933 0 0
121.099673587321 -16.5215496950815 8.67119252137586 0 0
-243.814674322955 -48.1140014941819 -4.23845272496871 0 0
-220.059278018073 14.5715074933455 -24.4232905137102 0 0
-222.736524390693 -35.7025718519472 -16.7036418872041 0 0
-78.2932186650509 -3.8655639246629 -5.13252557214061 0 0
23.3207349650219 11.7299553651001 4.80471322113946 0 0
-197.229033927784 -5.58914647122958 -14.3995407970859 0 0
78.2005194716311 2.16973976590348 24.853833652017 0 0
122.859599935157 9.7208910959242 -5.00938307140823 0 0
104.735954991627 9.65429579570972 22.1736287857065 0 0
-113.988689798443 20.7454376272762 -5.2650254753433 0 0
-196.761456156458 -4.04474169374077 11.9639112939237 0 0
-176.201606147328 15.7677356390657 -20.9124992133117 0 0
-172.46325528758 -7.49565690984381 -8.17435465523964 0 0
121.126328005246 0.0967358119425782 -5.2158774612595 0 0
-215.980928036051 35.8650751080535 -11.7715811061895 0 0
67.862889772389 13.7897702138509 13.605361597199 0 0
-193.488082885061 29.9153999064519 10.872053966313 0 0
-254.208377056526 -29.9478367118094 -11.2847019329802 0 0
-225.767746739787 19.826515234893 8.16860407016452 0 0
95.6592865267528 1.96584500235666 25.3424594258456 0 0
-247.006016101897 -12.033637136891 -9.60266728032944 0 0
-182.99792686689 -10.0316291232389 -0.853311461086788 0 0
77.5432420660963 -4.3018541217253 23.6783110533243 0 0
-249.717259041043 -11.0415593345599 9.13152439547854 0 0
-174.222117854726 -5.97371797964263 -27.0916929707006 0 0
-206.545026865396 6.1535702336949 17.3513048294955 0 0
-45.0841790613947 6.74511088778896 -5.9612170506747 0 0
-169.355033043246 7.38392217498001 -21.972677395063 0 0
-63.5534481156795 -1.03821922660116 -7.28670044448769 0 0
-9.45129590176988 12.9101984542827 5.30219986210812 0 0
36.1117215417407 -12.8849285767135 8.01471467649736 0 0
71.861779706717 -3.1314760341903 24.0645707915651 0 0
-226.646996821558 29.1563948870401 1.76680618603731 0 0
-158.973842202066 -1.10567190897362 8.51327338060775 0 0
-48.3935587519247 -8.87965844581179 14.8919089123298 0 0
-194.383522623794 21.217094994209 -23.8965701736513 0 0
-115.614913890634 -4.31797385454709 -6.74164428645148 0 0
-218.767484319126 -17.660645321654 -12.5001674926328 0 0
-212.545666466123 -1.15318876491447 16.2569465056264 0 0
-234.902387574174 -21.6840030667059 25.7852899114733 0 0
-193.877552367748 25.5081461032031 -22.0305538779248 0 0
-14.0654996778935 12.1369171489052 19.8891345915961 0 0
-38.1392600836918 -4.57814254005754 20.1568727483176 0 0
-123.222612003289 2.24207570030363 -11.6871886996746 0 0
114.450556163061 -1.10639155882852 25.5475467201147 0 0
-226.6093791819 -7.37592212422467 -10.6795263243868 0 0
-204.757599161741 11.2720894983584 19.4707744104708 0 0
-198.346842803013 25.5696776150009 -23.3170220040601 0 0
-234.622010459962 -4.57534573164977 -0.269008474327171 0 0
42.7695842499413 -5.90535961125421 -1.23790122300522 0 0
-113.5072904841 13.1064640767845 12.3855982958843 0 0
-178.585398728186 -13.8984715598511 -20.9758254076446 0 0
-49.2265093627429 -7.06541199776843 -1.12883690007916 0 0
104.548457510059 -1.77462814807722 -4.17630611175634 0 0
-250.087780304419 -10.6219658047445 6.26924696761436 0 0
85.8473205597506 -1.79441375377688 24.7726635965938 0 0
-177.146228838519 -8.49303345547734 0.0404961967779473 0 0
-74.6439814756562 16.0425592507325 13.8426630362607 0 0
-65.439305242899 17.5293086719548 8.89944699174 0 0
-178.889655825401 14.0261169580625 -22.1638929711235 0 0
9.07854188297213 -12.611900616194 9.86989583153787 0 0
-175.263129443812 27.4531670801999 4.44038766176134 0 0
-105.611267700167 20.2198289341669 5.42737053480001 0 0
102.934056047766 6.14003359130834 24.5014700207959 0 0
-60.703207190555 15.8521888841071 1.47160601482854 0 0
-205.320851610762 7.14305255428077 -19.1447210739672 0 0
-192.423819981147 15.2896905985904 -25.1092712804896 0 0
-232.545974699161 -51.360109558804 -2.68552793372464 0 0
-225.356524465075 -11.8298319446238 21.5539592413239 0 0
46.9579372239671 -6.73742801138959 21.9049055473074 0 0
38.7996262893969 13.2396265480182 8.09808615096693 0 0
15.5062024188368 -12.625373215193 8.41761377985417 0 0
-234.519209839056 -2.33236399398009 10.9102731947464 0 0
-201.930373547925 31.8605728568684 -20.4452110005596 0 0
-166.314730221885 0.500446730391648 9.31718329120433 0 0
17.153506015107 -10.7991843750944 4.78348310413879 0 0
-29.0569886807608 -11.5387947783019 11.6603570424761 0 0
87.0789958881383 10.5305352935392 21.0541566204673 0 0
-178.170609990381 31.8181678994691 0.513176568303664 0 0
-188.253556376044 35.293020772385 7.99397063694331 0 0
-220.852133477167 -34.8966887766177 -14.7414307889562 0 0
106.981338164834 5.27183212783207 25.0899486720852 0 0
3.90930165028692 8.07298246486602 22.568372203073 0 0
-164.151488884433 16.5049610708459 -18.381962882408 0 0
-141.37041574287 19.9275629290707 -14.3485846285981 0 0
-226.988562274372 21.0514510391536 4.27581716606437 0 0
7.83129579519946 6.24981328716948 -2.26004823377768 0 0
-224.628410782427 14.2696176155382 -23.8781647052151 0 0
-214.321251807744 -22.57868074402 15.5387321569114 0 0
56.3377168844244 -3.81994973830248 -3.39362216807141 0 0
-75.0544885768824 -5.91756411380609 -3.21878468444965 0 0
-239.455954826097 -11.3035019426392 -13.0256481123672 0 0
-252.441253292818 -37.3284421332414 -10.7362852636553 0 0
-52.6633674251979 6.72577886377741 20.660958796771 0 0
-233.410316549788 -12.3265852919834 -14.3009096445646 0 0
-117.488122969342 -3.46009397715648 9.86224731442433 0 0
-219.7016860684 -25.3050939717073 -12.8789691280584 0 0
-212.336339676712 -28.2825690569459 -1.74560235291618 0 0
-188.704874970646 39.8881559322767 2.17302086716526 0 0
-253.533728312582 -16.1985239050936 -6.11189829505123 0 0
-186.74903736819 -6.75410774579319 -18.8079793807672 0 0
-225.181948880864 -16.2926091363405 -15.6965984904127 0 0
-148.22687040078 23.9538649689524 -9.41230904635 0 0
-215.703638896293 -21.8572575642263 17.5295845957314 0 0
-92.730130398387 -1.50982200615606 14.3603403642835 0 0
-131.839188018427 15.6785084723639 -15.6599910040401 0 0
98.99946630383 14.7380640780125 10.7365621069762 0 0
-183.548344639354 0.473941767878476 12.1554417649356 0 0
-180.164090515405 34.215410457426 -4.70511944402573 0 0
-7.88516779828223 -10.4296003742351 4.95707978215014 0 0
-245.059461283854 -19.8242012060755 22.8915407361121 0 0
109.124846560745 9.71699605359577 22.3307410151011 0 0
-148.638686656873 24.6717200612896 -7.50190476383336 0 0
120.778873976669 -16.5449204170108 10.9513779601768 0 0
134.494950111914 -10.4740797391673 21.0333658578569 0 0
-86.0250954669316 2.49329689482054 -9.84888645606993 0 0
-138.956105152121 12.4580572818671 -16.3666054235147 0 0
-201.774714553671 28.9320520492246 13.1515433232789 0 0
137.067841333768 0.682865015995915 -5.93509024661337 0 0
139.837165768331 -0.914642406988616 -5.98844566833589 0 0
-124.014323072864 14.4495290055672 -14.5633340638951 0 0
2.43534768854287 -11.351005864822 17.35479987736 0 0
-123.596295789162 6.76401218418719 11.6684167040604 0 0
-181.219634089487 0.566507512781898 -24.6307688678728 0 0
92.8864323027729 -13.853712263804 5.25786129997868 0 0
-189.944128903807 15.7268293453899 15.5451692209659 0 0
79.6009030008343 0.321514400257831 -5.39276968650859 0 0
-138.394198394434 20.8329813433593 -11.9130883286819 0 0
-80.576841822161 -8.06972779837678 -0.893355692239431 0 0
-152.604986663887 20.0344622805056 -17.2666714022004 0 0
-198.566874962981 -10.5224676255047 10.9674254119167 0 0
-243.914726478438 -25.3482948713702 24.8010948750821 0 0
-209.574688825973 7.01247351795185 -12.2476134918421 0 0
-126.769557747554 -2.90294558425969 -8.95706050166426 0 0
-222.988093764107 14.4227369673003 3.877751052996 0 0
22.6078228846277 -3.22739351045043 22.9760028764634 0 0
36.808541589904 8.48554334777545 0.240612411712258 0 0
-96.5384772140408 1.48600214521343 -9.98334897357221 0 0
9.59468830023553 -8.61701243314144 2.11514956786538 0 0
113.427537815159 14.6252659262156 13.7517612078389 0 0
125.916180717327 -4.71264011862878 -4.56098146704978 0 0
-185.635278857683 34.2769730149987 -11.1154769727614 0 0
-209.005108731983 32.253599038994 -19.6974349983277 0 0
39.7718041267571 -11.3164551081388 4.69928079344405 0 0
-145.958184688015 -2.7790526678547 -11.0789727670401 0 0
-89.4131471083569 -6.92996903042537 -2.9122343977172 0 0
-173.792114780462 -15.0608604155696 -17.3375054234082 0 0
122.317098254241 -3.43868274605635 -4.88501787268426 0 0
-9.37991441557443 14.5414909150913 16.7083680359588 0 0
-145.692274202012 21.7759984384824 -12.7964902392543 0 0
-171.541290552593 -7.65976688758296 -27.0925582748676 0 0
-112.087368388141 -6.06974583501072 -4.72622522558526 0 0
-255.00380711624 -16.7593636192013 -3.20772834473414 0 0
-225.614325684986 -2.54230429179313 17.7710636751596 0 0
-82.5414793212368 5.21512645337528 -11.1920585673359 0 0
54.6870672043998 6.75488894430271 -2.50299019352453 0 0
-79.1579457766963 15.9007694802257 13.7763630133291 0 0
110.442369048417 -14.6744692084609 15.5257971405553 0 0
-114.120171603254 1.05051989073442 -10.9562213579382 0 0
-198.426246196685 5.51244115947652 -20.6356860720336 0 0
-7.05208617941298 7.16182584722727 22.6048142308518 0 0
-172.684059095002 11.1833597429281 9.16242736360763 0 0
-134.210986958437 -1.87561740980231 8.81308749910777 0 0
55.3130666060921 -12.0377822094151 5.30518110332911 0 0
-45.2028894132395 -8.76613584351568 15.5424109926873 0 0
-57.9340969012176 4.08626860500246 -8.46707617467311 0 0
101.72574747389 14.7088076309958 6.4957675158189 0 0
-19.9479103717795 -11.1046838376883 6.04773599208736 0 0
-106.542662223475 14.7983137223992 -11.2570345178288 0 0
-230.901957881776 20.3711594056473 -14.6572917967105 0 0
-155.986262273151 22.0870441845122 -15.0183668101144 0 0
40.3134727456223 -2.90275491064126 -5.75960922110949 0 0
-227.65779504012 17.2301561893676 -9.46389919712022 0 0
97.6012712820128 -6.03054957959391 23.1184173143983 0 0
34.6719988146176 11.9120992364124 19.8644590444053 0 0
-220.870218201432 -40.4926958799215 16.9889564085467 0 0
-249.320983291258 -34.020071404526 20.945796181934 0 0
-136.149486054442 7.31667877276894 9.75709786461736 0 0
-96.733572775704 -8.50497889043923 -0.504218725997431 0 0
-225.226641175192 11.1131984480521 -20.2905730218229 0 0
-115.309470215082 10.3218136261338 -14.9693225022409 0 0
-204.428242951518 17.4355633344468 -27.0271098240003 0 0
-124.650929632524 18.9661974708098 -11.2847471410624 0 0
-93.6676487191841 -4.36418077510289 12.448284014838 0 0
52.7866642726325 3.68364212213591 -6.54319941757381 0 0
-223.464600875707 22.2239368669389 -22.9496762679758 0 0
-34.1128262471171 13.8854844657237 18.0963740954898 0 0
-18.9986427512859 2.10657420332427 -7.78039993920621 0 0
-51.6691711357036 13.7770158637042 17.8941153637793 0 0
-205.774204503134 -8.67845418083497 -11.7529834779751 0 0
70.211047245066 -14.2866609442414 13.141844907062 0 0
11.6354641554218 -5.13679467882083 22.0913823971783 0 0
-257.120996399194 -33.7210304463509 -3.91153055998703 0 0
116.028353503583 -15.4095860621796 6.0138021305298 0 0
-67.161579399112 6.21378745818449 19.6221929375506 0 0
-170.945048983767 -10.8391790451875 -25.6534712803605 0 0
