"x" "y" "z" "f" "a"
204.52045507163 -34.19382373194 23.9914333843192 0 0
198.739969272653 -44.292804827142 16.648366868785 0 0
-49.8776077272741 3.35551936183141 6.7904980297312 0 0
57.9790432507568 -7.34722407707175 1.62171004176707 0 0
169.94020351865 10.4393665136124 11.9631066720983 0 0
24.4100616126696 -9.5975257879999 -14.8149703332519 0 0
-53.2033144700597 -2.28094897318141 9.3464315064559 0 0
-16.6252862223569 -12.6081042832943 -8.95611766984241 0 0
-85.653350889858 9.43724464833579 -7.1282247475456 0 0
169.184739305359 -14.8925777820757 -23.0732458330617 0 0
17.3227348292264 12.1620339351006 -1.73831719809827 0 0
159.264431279992 6.82439456136509 7.71637491259504 0 0
61.7309269099147 6.96949439980443 4.24653229110107 0 0
91.4992388884058 -8.27937876652278 -16.3223781066882 0 0
201.918217233528 32.0177727340815 -3.33608520665313 0 0
192.715822670627 -15.6637449306359 -34.30031607427 0 0
194.543330344835 19.1632159734718 -19.1275049022107 0 0
204.777869078705 -10.8842420922521 9.35606633059417 0 0
150.591333479137 22.0214223356108 -3.50933044841696 0 0
177.867349262445 -29.786506864502 5.57186789142924 0 0
213.878699037354 -33.2614808985568 -11.0486912101302 0 0
10.7752309635961 -10.1372492570914 -5.57123519573033 0 0
191.05925753105 33.4217830730121 3.63973381001881 0 0
213.922162395034 -3.27440659203859 -11.5262039590534 0 0
133.278017714848 12.1323900695221 4.5745341822328 0 0
99.9083521486966 -9.04234269130112 3.97170260485027 0 0
210.928240414779 4.48185901442693 23.0591615502674 0 0
209.033687443309 -14.0131128600042 11.4590789572544 0 0
212.807720938782 -25.8411997368798 -21.9091679428783 0 0
209.813720117055 32.9926286437022 1.95018435066798 0 0
212.328355067841 16.5856582222137 38.033220831924 0 0
-16.1228718351369 -3.70106547347145 8.04180887097586 0 0
-44.2660554743797 12.2794921983497 -8.6277414015576 0 0
178.696372763516 -29.4616461986471 8.92752696401546 0 0
200.772639201885 24.1364050646733 38.9243273546822 0 0
154.534879168527 -16.7947534612287 -16.8224690390922 0 0
197.032204535123 -4.49325111003154 -29.8755743664554 0 0
-7.50433638112533 -4.04598815368636 7.43632761571308 0 0
218.116623310836 -24.7805033161367 -16.4674970524049 0 0
220.29627484165 -25.3033462423031 4.4296388397028 0 0
14.8199926572242 4.68385354393438 5.97338853888332 0 0
-31.4424418774985 -2.1444747701108 9.15491146631812 0 0
175.956196331859 -17.3457402905789 -23.7770236132122 0 0
215.954398941375 28.6109990288017 -5.59816662889834 0 0
215.349936365975 -40.8782412491292 -2.46684490564711 0 0
85.7294085964142 -9.20896457559985 -14.5331188767488 0 0
-69.3365142677083 5.76271469773775 -15.07512172585 0 0
206.191858001094 -28.7814784291985 -19.3689125300132 0 0
136.068847381052 -1.36077159195942 -23.566542011624 0 0
74.5034801191386 -10.4201672133883 -6.36009920819132 0 0
187.446298247833 -9.89920380536562 -33.2848776613326 0 0
117.952273063164 13.8302838206704 1.61013956897113 0 0
5.83201477400877 9.98899108407382 0.693988600078882 0 0
185.52207201677 27.7213606440048 21.2481644566648 0 0
165.804160414601 -23.9346417796981 -6.34320725884862 0 0
196.748948947351 29.0382044380941 34.1818545137322 0 0
-62.7912962353067 -7.57101000846385 -14.5909014621895 0 0
203.964457062486 29.543462214334 -7.38550928782808 0 0
192.301162168914 -32.2684046877725 23.3080684404302 0 0
56.4359703920744 -8.28759938203151 -0.677327921041047 0 0
71.2887225821478 13.4520756891847 -16.5175281117268 0 0
-10.5342393769654 11.1478329031802 -1.76626699815306 0 0
11.5252860467494 -7.81465409683098 -0.705868527925234 0 0
174.032420451996 -26.7392227591446 -7.97853552564173 0 0
-72.453264385663 -8.51072884712199 11.5039674225548 0 0
195.052000386733 28.4828317059763 30.5718569796365 0 0
15.7993601353895 0.971132232451502 7.17473624054975 0 0
212.176104938516 1.80211899445629 -13.4704029890305 0 0
-75.6318693409613 -17.6539885395383 2.78516358602717 0 0
188.730634975796 -28.8205638899578 -19.0056551505147 0 0
211.166754282155 7.56185916448798 -15.9845322014249 0 0
225.496400450499 29.8036894483522 11.3858793463693 0 0
51.2537081398381 -5.51451686105546 -18.3235005703452 0 0
221.433165403798 21.2988869371863 32.8264137306535 0 0
221.024581233828 10.3973005578459 26.5261692507573 0 0
99.6277765106991 8.95543631954902 3.66877300596356 0 0
-75.0454125765944 -11.6345196227294 11.3871312012841 0 0
-74.0537106652224 8.83529891731224 1.58625737533714 0 0
-13.5973076657677 8.17305255547343 -17.9341092805712 0 0
208.981382232049 8.3861325243602 -17.5083188456952 0 0
171.787835261155 -14.2508108771173 -24.5548183598702 0 0
187.213430498547 -3.95960118393407 13.6180868632383 0 0
170.486871803254 8.56059276411484 10.146292372317 0 0
-8.08712490949772 -2.54257064342055 -18.8060771939608 0 0
-63.5802081703649 -3.4903093437177 10.0062411540674 0 0
218.56897893787 23.8591564374909 -10.7649745989686 0 0
55.0607451114361 -9.74982544544206 -12.681415502872 0 0
0.302752895127573 -5.668252891604 4.82928763517699 0 0
193.575176625793 35.0379089475384 25.4649533919095 0 0
153.585884095556 -19.8972372728938 -9.73556179800149 0 0
69.5711843761797 15.2832611493191 -14.7462617074235 0 0
193.523068604226 38.051337777032 14.9900554762481 0 0
-90.6044880349077 5.62268588468204 5.97845806201872 1 0
218.643104601663 -32.4937618227166 -10.4531734904439 0 0
90.2200832544758 -11.6293774514223 -7.27337786795825 0 0
211.675421277439 -10.5165398664501 -24.4210647528165 0 0
3.19172025214414 10.8988370676374 -0.701051200274294 0 0
218.110672947646 32.9054443169079 16.8464348760812 0 0
210.368781701891 34.6359225691027 19.9865491011319 0 0
198.661598901089 -43.7307585452797 -0.740875761372168 0 0
176.964077549188 -8.20922733902205 8.96112929802697 0 0
124.530953856966 -15.7561598953541 -4.8472510783766 0 0
5.61424876611816 8.40088416452111 -18.3667078053632 0 0
61.0631269920678 -7.03964362928033 -17.3927852505141 0 0
-77.0605504352017 -4.29556518711022 -15.4302660499393 0 0
85.5185988983099 17.3968388698116 -7.2799985833129 0 0
-48.7386207741308 2.45386644028474 -18.0607830820515 0 0
204.006561767685 27.5415854217378 40.6736172479744 0 0
13.4845173889826 8.71585712468992 2.70503167515048 0 0
-11.7427255532827 13.2992968946997 -12.5421409386486 0 0
175.162715828574 18.2157484476433 -13.8019045423509 0 0
161.16394208447 -22.0933288081795 -0.445579124553691 0 0
186.949057896355 -33.8748155787165 20.4771733420999 0 0
-21.9995759208427 -4.96815795193976 -17.7565499857048 0 0
8.07920754055007 0.841068874655973 7.24520883094071 0 0
165.950211609415 -15.3574048949216 -21.695429494883 0 0
211.735327431624 32.416627127958 0.329327862663646 0 0
69.7554234981082 2.76589548749363 -20.3354716604576 0 0
153.090281690078 -21.2004763432861 -4.09282341516834 0 0
125.742715487927 15.7098178523686 1.42389941064524 0 0
116.800164162855 -11.6574530581229 -15.4017109235411 0 0
204.05242484415 -5.90793015714937 7.65877466019233 0 0
-36.0575229563314 -1.25670493871237 8.9070411956388 0 0
208.494736309166 5.14273838805421 33.1693478182127 0 0
59.9624414541489 2.36939409530976 -20.1515606022976 0 0
29.8372347065267 10.2874064662938 1.31124109485851 0 0
-30.8262772620992 -10.3556620947233 0.905267749173107 0 0
187.586668565392 -20.7031464743728 19.4216540138688 0 0
184.049195007888 31.6466595825889 15.1495172181992 0 0
93.5955714560018 -6.73970615415368 4.71106285000734 0 0
31.9449755667182 -9.74368445061624 -6.40158751143409 0 0
207.994974338743 -22.310237514487 -29.0483132292801 0 0
184.106338360803 -17.0320033484246 11.8997321608109 0 0
206.727967454097 4.66391375307369 24.2218444481624 0 0
172.840235043208 -18.481393306748 8.35558005391398 0 0
163.071329125405 -22.848847958984 -7.25791964577161 0 0
158.000327930196 -11.9197498962113 -22.8613188255057 0 0
-3.83291440235273 1.11729046947496 7.18974642030306 0 0
97.3969888384969 8.79930525160719 -19.7763821493339 0 0
194.459888264053 -42.3355862490072 14.4765308357877 0 0
158.667061920903 13.1470408502848 8.44950499333202 0 0
214.346916657918 4.55692181572999 20.8087281010481 0 0
224.632554611524 18.6580605493353 -2.92398232660917 0 0
137.082704951116 -8.02800256145846 4.88134206390194 0 0
173.464537188079 15.6208654326514 -15.6403908206319 0 0
197.572631715446 31.9130418842797 30.8498265009382 0 0
50.9225861452993 14.4927202742161 -15.7058084599894 0 0
-1.03624357769584 -2.85263824010555 -18.881921825355 0 0
37.6433182397103 -9.89263290503426 -12.9632987978789 0 0
208.629812633741 -17.3079599977077 14.7275209464818 0 0
211.346287609899 -3.47197491129298 -16.6587199119207 0 0
-30.964525898444 13.0089270735705 -6.32051617097281 0 0
207.197900710652 -15.9340430272537 13.2130045753156 0 0
149.713468395123 9.49464680037411 -19.2385110532436 0 0
220.178767566952 28.0039088545114 -4.94567471572221 0 0
-86.8485641863755 -1.41927849902602 10.0085768098937 1 0
189.093473709436 34.2672489188881 7.97347876983063 0 0
168.265993524144 20.0390398723359 12.2737446490443 0 0
216.889167260087 11.3946778990613 -12.8300908663198 0 0
156.288931618061 14.949555935579 7.77880631300982 0 0
24.522307089081 -4.93491817714651 5.52835171862504 0 0
91.5004583280594 -5.34399769094459 4.9378202914078 0 0
134.434532923061 18.333116671338 0.606638594480327 0 0
-30.8676308419661 6.2318006911549 4.79572283758682 0 0
214.228821248881 -6.24299235789825 -13.1699270293811 0 0
228.362887592712 28.8095141277027 9.62246629748958 0 0
117.254625959589 -14.7031773731898 -6.6750817758587 0 0
154.184741664384 -2.41249436376936 -25.0248095863039 0 0
98.0231689646763 14.3835477682808 -0.814906195186008 0 0
87.3517187583385 16.602639649437 -4.63216825533101 0 0
30.6249698075246 -1.05524888793388 6.93881867915618 0 0
169.100694347602 24.3926139993118 9.74008635853932 0 0
188.630289460334 18.0237928098489 27.0135878881289 0 0
167.631964986157 22.3707685456259 -6.32079632348619 0 0
23.4515275145712 5.67874639017107 -19.3796536396868 0 0
204.545477168647 -33.2754594783645 -14.4146158210395 0 0
171.295707075712 26.7506977143979 5.02759259021495 0 0
227.674089125146 27.6505720431625 5.69115166393215 0 0
174.985207355077 -18.9626390956065 8.75718334530889 0 0
-0.843279736339354 -10.0391732546978 -3.05648090806435 0 0
213.43877982683 30.8572820647557 34.4733576637351 0 0
164.410278012128 16.5080256359938 11.0421767980883 0 0
185.030585484536 -5.99384938825676 -29.8653242592935 0 0
1.77205418069105 0.660453919905512 7.20470875115598 0 0
216.975110004558 30.5021925075505 33.2322568454289 0 0
154.282151744806 1.20624990497619 -23.7340298937433 0 0
145.721453891303 -19.5376889320505 -1.80420795760455 0 0
206.959101737784 13.2369311695874 37.8340375278173 0 0
178.252481778565 -4.11605919826445 9.44175224349808 0 0
19.6739205836052 -7.97782463439975 -1.4573660942373 0 0
173.688689583141 23.1041830905502 14.6474448628446 0 0
180.19913822845 4.31323585415899 -21.6134351028821 0 0
169.906002908422 1.35572675398963 8.1916581144233 0 0
212.756664190285 11.3342858850017 35.5907190267679 0 0
183.411505507455 30.8751862801143 6.66299814811847 0 0
207.514690616776 -2.78650628686296 5.7134679920895 0 0
69.6401851037814 -2.99591685424031 -19.5704882058069 0 0
135.041190198656 -15.4726427038453 -13.5944293870885 0 0
110.365548037969 -8.57026175701109 4.39287890572146 0 0
-9.20904783723276 -6.89181566741488 2.99501709852396 0 0
172.261685360994 -3.07666636625188 -26.2609250398379 0 0
-75.8343241311287 6.93873739552866 -13.0464134291853 0 0
209.530759421504 2.39708497143317 9.24822946200851 0 0
215.924855805589 2.33027977041446 -6.49879982509501 0 0
195.235217902075 -20.4742535054737 19.6280815308113 0 0
4.61081684963407 4.09360300233545 6.42222304808148 0 0
58.9036068975788 10.8351572060973 1.00757831524249 0 0
214.034066507692 32.015357705421 25.3399062116068 0 0
189.001406955171 -14.6786565254004 -33.613401078199 0 0
53.3785337754945 -1.5569065553954 6.28770474044586 0 0
127.4897543795 -3.49216927055533 4.87915656296723 0 0
35.9645377237099 -6.67602544347778 1.62179646340991 0 0
217.944213921882 -14.8110645129506 -9.52716640184233 0 0
42.5218364610672 14.7653570603542 -5.105728054939 0 0
203.179531230774 -26.1927773583864 -24.108510058453 0 0
35.2638156521571 14.0731324868434 -4.48829237299729 0 0
-16.5648081482511 10.4521711227915 -0.825783737478158 0 0
-65.5644117243046 -5.84541138412848 10.7196692355411 0 0
179.801813142783 -23.1203253525902 11.1799567135437 0 0
182.369787109854 -14.0188676812641 -30.9860189424446 0 0
-52.6951347903646 -1.88774570371103 -17.604335487007 0 0
-19.24660479117 -0.0474786878306881 -18.9723295121804 0 0
194.482415248221 -22.1386061669919 -28.8704500116134 0 0
198.686936462336 -40.3675385847265 -7.49042308970522 0 0
215.643090040435 -6.95294279995055 -6.70427064049656 0 0
-37.2445750514272 -8.1885955272489 5.01934049545385 0 0
196.22867176833 1.51679822860695 15.9595172433072 0 0
154.607716917893 -1.40538556371594 6.47094256184743 0 0
215.892503501788 -44.3513523374679 3.46545396992871 0 0
85.3061497767201 -7.93144441627725 3.42298314458622 0 0
204.672526547503 -21.7747168747748 18.0096762357132 0 0
32.1947650657131 6.94189919441722 4.277631816314 0 0
214.439355509984 30.0615948226508 -3.19608216321529 0 0
5.61013689189373 -3.19630154438191 -18.8844146696804 0 0
49.0408600804093 6.23221806715181 4.94603541834655 0 0
187.808164682487 -35.9789359331199 -9.81938227952458 0 0
211.062971860694 -11.0794956033223 7.84405811292099 0 0
99.1402923635814 0.406787096567331 5.03812010542538 0 0
219.541658378233 -19.4284949744666 -11.6704838843492 0 0
8.0083204844743 -10.6381997370117 -6.44536775425459 0 0
218.903990862437 -21.9586074587547 -16.2032209505353 0 0
172.526103734459 7.55664642639132 11.3466061538721 0 0
4.67484752931302 3.25422865121037 -19.38239629134 0 0
15.3671679802864 9.9072859366979 1.49076767980598 0 0
43.0716203040599 0.869380234911622 -19.9231046483333 0 0
191.729297386306 29.0084820813379 -6.15769671627849 0 0
158.679255170643 21.9794831271632 6.14017920086743 0 0
149.774344694153 -18.6696245475641 -11.1190984309348 0 0
154.498458941038 22.7035225858936 2.82260871442162 0 0
90.0806911110544 -2.99930258607435 5.09220274145298 0 0
206.995504925494 5.08074105247729 16.6680753659307 0 0
101.450062809971 18.2120780841745 -9.60893450416105 0 0
208.812940902568 -15.4792624217779 12.6001611362686 0 0
179.245632349198 -24.7935810058039 -16.5233427818755 0 0
197.762172032378 27.3712831432964 -12.4296221472344 0 0
201.597247184336 31.4496023548243 -5.5773907668581 0 0
74.2901964220476 4.58977637539931 5.4080982617391 0 0
15.9205719849495 -6.97146663050511 1.15217452457192 0 0
-6.234373767015 -5.50798243675894 5.3100817039399 0 0
183.708550991291 0.738238238957571 11.8554976825427 0 0
181.8644228154 14.5844955386088 18.1710315171288 0 0
167.440819466172 13.242366009908 -16.818966671966 0 0
214.534963599375 24.513646829465 -13.312706414044 0 0
185.429548996458 -39.3242855215844 9.34245723619642 0 0
45.0561704013616 16.193297569123 -12.5366605453946 0 0
129.902685931469 -2.52804088444467 5.07345590161247 0 0
17.8029393685591 -4.94282659010648 5.35269978078365 0 0
194.013512807791 36.8243003094852 6.76271829295101 0 0
155.896128281503 8.01920801791011 -20.2100302797648 0 0
-56.3697138302598 -8.72903566171009 9.0276773929514 0 0
193.217228787257 -34.5377706957949 23.3831415567243 0 0
185.067622587723 4.69943521985883 13.5605535688472 0 0
191.809921345349 6.13716347366759 19.6119288318856 0 0
215.853135627536 32.6087271816906 20.6167415166092 0 0
-75.5255266588612 -6.08986112035296 11.0126766943004 0 0
16.0958627557428 5.41686296226187 -19.3583768505942 0 0
164.226172273986 -13.6269764974961 -22.7844296809332 0 0
177.938822121145 25.001494352687 16.2072257889044 0 0
194.491613331979 -0.275966927796052 -25.117548348494 0 0
196.756002468706 28.9906045703319 35.2434465226424 0 0
172.893077886901 -8.43654053760037 -27.6409532331128 0 0
190.721808313622 -41.8792874286909 14.1418852979443 0 0
188.582560481812 1.37774673050514 -22.8405504692337 0 0
211.45597778128 32.9521911001136 25.1498681450734 0 0
181.515470002121 -33.2581187100993 -3.50480605427484 0 0
51.3000450863575 2.90276842218175 6.56132254631701 0 0
202.480999033092 -34.5560570967618 -13.6914886201046 0 0
127.715797885073 19.5454109078621 -4.16774648000544 0 0
184.950284530555 6.02529789473384 -20.5163834734122 0 0
215.257419163247 -43.4941719606446 1.40842910668285 0 0
2.76962084808513 12.1279573387262 -2.60599372398744 0 0
106.749202377344 6.42584553486591 5.04712946631889 0 0
217.275735703588 -12.4939964769648 -5.65785900108922 0 0
212.46535653459 13.1146857951274 36.6245734382882 0 0
32.979962455096 12.3748325541263 -17.2160202300019 0 0
202.889770264485 7.99942400161945 -20.3564631658467 0 0
214.941857271223 6.78243476804137 30.6625730417045 0 0
119.458379117761 3.37872379754438 5.33386996010933 0 0
205.169328418457 -41.3910381293118 4.69991065681605 0 0
156.148119549248 19.8426804162771 6.37396718217453 0 0
195.379987664023 -9.90729369426852 -34.8768610442103 0 0
-74.4391589158813 -13.0642930920834 -8.84538934081021 0 0
109.35165149487 -1.39292395158686 4.93365014650573 0 0
200.362252572124 -28.6642958333016 24.1665160973964 0 0
116.54597670628 11.731631910221 2.76796789782017 0 0
15.4194313571716 14.0897258180752 -5.94955702145967 0 0
226.032585946105 16.6612542898147 2.02159931794032 0 0
38.9398590829444 -10.0081937200245 -12.0741974750363 0 0
80.2198542133967 15.8288719603423 -4.06556846108105 0 0
27.0538479045786 11.6798155478597 -0.615426330605106 0 0
210.362695745138 25.569061226766 40.3406977106656 0 0
34.5597440917162 -1.36025358648462 -19.5023808220499 0 0
223.168723657763 17.0265637341995 27.7842611624173 0 0
168.524213372497 25.8819723001405 3.27641593871156 0 0
217.534518183691 26.8910804276541 -7.6789414373977 0 0
179.900145663346 27.2237757515493 -1.29371272106168 0 0
194.610985712262 -29.0187505335719 -20.3655914800232 0 0
31.5457185411551 -10.0983167544051 -8.38029300612227 0 0
148.214008212131 14.0365692636659 6.41212552290269 0 0
28.5903353322454 7.33709760419142 -19.1141831683379 0 0
220.389380268314 -27.3084227006106 6.18497119226169 0 0
207.938380974457 17.0797719175925 -20.9452456765568 0 0
213.846544443169 -11.5695783885896 -21.7718293857871 0 0
-18.1350510743581 -4.82513205761197 7.34164773526373 0 0
190.7215927676 -33.0175220685867 -14.2656838830295 0 0
-16.0460562581682 -11.9559155839973 -4.57114429780579 0 0
86.0715404962333 17.4892012212947 -10.4024643375121 0 0
216.72214965016 3.63829862951108 19.9968949338875 0 0
213.03523040691 -42.7679956896714 3.01428471330918 0 0
186.045062692513 -37.3750966044513 2.31016513162794 0 0
218.74910587782 32.393106000961 12.3729278175269 0 0
192.757146935349 -42.5214834988886 -3.91824362835416 0 0
134.675871318527 3.20420457834192 5.7690339380664 0 0
-64.7950220894046 -15.7030190001046 2.95127560703534 0 0
187.730047195472 18.3161863815251 -17.7800627788894 0 0
-73.8717034251755 -3.52341689831887 10.2905998147226 0 0
182.575791110601 -34.9402778376576 4.3869956839079 0 0
47.1990382180105 -0.768055972203042 6.40466071104145 0 0
151.446259268594 4.88285188921664 6.70293948008218 0 0
25.6160520738682 0.179637178763747 7.04113046831323 0 0
191.597010579313 35.6680340406368 7.77582368942853 0 0
59.6815158853367 -5.1109960678497 -18.6435042117196 0 0
147.704999036179 10.5761160297345 6.54570148722866 0 0
132.720405455501 20.0036852804089 -4.82181430808215 0 0
-49.8049535148446 -13.3092560766098 -9.6796808551515 0 0
185.729604389233 -25.6876203698988 -20.9395393670553 0 0
198.928902561626 5.09550709054628 27.6157150432483 0 0
44.1205391958766 3.68445715825378 -19.8171579653749 0 0
107.41858994771 -13.4276051311156 -4.15839456146186 0 0
22.6601499242496 14.9180727661171 -14.0310519268939 0 0
181.42692400675 13.2034170003087 17.5156846856905 0 0
214.014140475462 -2.55391030143856 2.76453228234358 0 0
19.9151446710104 12.6429725865836 -2.5324492041817 0 0
136.635638562124 -17.4631646935518 -3.29103566167247 0 0
124.948590143176 -4.0219367045871 -22.4392052226065 0 0
200.434814899771 30.3312845239156 -7.45154061173149 0 0
24.9110620631225 11.8829307810229 -17.298084738724 0 0
-9.42885368448848 13.8502232744792 -11.3953218927082 0 0
-45.555342398909 -6.51335783444557 -15.9932028596674 0 0
201.823592524081 -33.4131176432069 24.4400113636022 0 0
186.84290284831 -7.85840699274668 12.9057382644428 0 0
49.8460701514664 -8.88947382615969 -3.55447860377328 0 0
-63.4313666173989 -16.2545037597225 -0.574440210594095 0 0
-71.3665724365682 3.72763709787248 -15.9241337680348 0 0
-66.671513108745 4.82180997809955 5.8748694236236 0 0
170.628583941138 6.09324382435042 9.89437838492717 0 0
38.6056727568857 -5.84545084381129 3.52293476911923 0 0
-22.8735419896582 -4.25265295350706 8.40043769476629 0 0
165.284821526251 -2.89445512325993 7.29887767903951 0 0
-72.7618260355635 1.51170035404395 8.77324429365914 0 0
49.1824710196107 10.1408261028443 1.81740326080516 0 0
-29.6545640518622 2.87136390479853 -18.7581769611728 0 0
21.896290372858 11.9249805829174 -1.25039543830353 0 0
209.306873186742 -8.53821122472575 -25.5865546879432 0 0
101.96392969439 6.16995719098416 5.08656233835364 0 0
194.783006845751 -18.3941255457722 -32.7222355428186 0 0
137.800475010421 18.4921397710564 -10.9410154621032 0 0
202.821459036534 2.35417398099748 29.4370618815704 0 0
34.9339411863352 1.82216334571191 6.87952570458606 0 0
154.127010323647 -21.1592038484058 -5.79825808642102 0 0
211.301449974469 34.802670995133 17.6485146035804 0 0
226.969614258225 16.1285302155726 12.1478232602787 0 0
203.107316763177 30.5992945236235 -6.56829199634022 0 0
-14.2707417986803 10.8130827599217 -16.127602047208 0 0
61.4750207771826 4.18621268367318 -20.0001001025114 0 0
185.576807881022 -26.4642223413349 19.765436276894 0 0
220.720172981197 30.5906917461938 9.50416111476245 0 0
132.878257556357 -1.52342866454567 -23.3491662018763 0 0
204.903514279185 -40.6256765357186 22.3964487904779 0 0
158.5695835221 23.7451285280446 -0.344434305002731 0 0
220.515445725905 31.4174789937843 11.497279160167 0 0
-56.1363997092544 4.53868020867346 -16.9346119555829 0 0
180.709150409884 10.2100582668092 15.00078927514 0 0
-75.2831610041811 2.78619527931189 7.84421582513194 0 0
152.664947981539 8.85130935680335 -19.6497816990697 0 0
-80.5499252571798 8.6366934470423 1.66085030717563 0 0
226.587547019231 14.0068020363337 11.917417494701 0 0
-38.327381859269 -0.710350830594903 -18.3893650704465 0 0
185.425211280029 22.1471509000392 -13.6849914162012 0 0
203.678107660555 33.5316547642493 -0.691014211335867 0 0
146.485054751339 -19.6358274526076 -4.07540055861513 0 0
79.0338215030269 -9.18851945612822 -14.3267482735572 0 0
96.0172309690856 -10.5032835420237 1.49975747302219 0 0
170.791820758967 1.09195776099044 -23.8044207972237 0 0
-9.9452175855975 10.369440363602 -16.9046191528883 0 0
-30.9999649104032 4.28698759833277 -18.4918923181855 0 0
108.565929630963 18.40839898396 -5.59566577293632 0 0
42.4055783846268 5.30748552229878 5.92162016021092 0 0
-22.3530256756317 -9.37299645902005 -15.2960424156504 0 0
186.656049886785 27.8750440342961 -5.14347332924085 0 0
107.237793184239 -11.8924598495378 1.37083238189863 0 0
196.904504985082 29.0629190404515 32.5256647999784 0 0
205.715732892977 5.24545689352183 22.0391098905096 0 0
165.307769669462 -7.70893689881844 6.91053037411199 0 0
202.441056574169 3.52531716735697 -20.4408668854082 0 0
213.950469098961 -45.2692462271759 5.52567745974087 0 0
-68.1576097805553 10.7204110708391 -7.7128211813031 0 0
202.398950807475 -40.957215057795 22.742967369231 0 0
-63.0057098574573 -11.5223531861732 -11.3038645867762 0 0
150.068700081262 -4.1137591773177 -24.8830111468669 0 0
91.0103335464651 15.9140245538035 -3.04595315461613 0 0
149.106963025971 3.408294991678 -22.5190399917543 0 0
190.503214184469 6.57672846274987 24.4907890836212 0 0
119.746305339472 9.67304335683069 4.11631367491676 0 0
-79.2955229765988 -9.66891096743807 11.5970960959482 0 0
184.511511247168 -22.3771946188976 16.7028520177144 0 0
34.9783863354722 7.49430743648814 3.75215064439417 0 0
13.2646051243848 -9.61027610606373 -4.50240373709191 0 0
136.212824452933 10.6140217982396 5.47871490155226 0 0
-78.9705067145334 -16.9596150507875 -2.54200144396617 0 0
82.4385781669075 16.9638002069934 -12.0022878649289 0 0
-74.2681129977651 -7.55113822881392 11.354538485974 0 0
157.851903969557 -21.3426391811764 -7.92483136047778 0 0
207.3729574122 34.8083850927611 19.235379096757 0 0
167.009587039238 -24.4315825609349 -3.36782746386274 0 0
189.898257379792 11.7487186665397 25.6179970898035 0 0
196.904418682604 -21.8989978846707 20.5885768195855 0 0
161.439038521552 -14.957617528694 5.91524924647301 0 0
4.0072066127245 -0.221251328579682 -19.3528362302613 0 0
-44.6061096812243 12.3443709282397 -5.55334382415082 0 0
213.799385351462 26.1644289273905 -10.8095559330434 0 0
205.720248764749 -16.7006504237347 -33.5272740640096 0 0
161.138989534681 -9.68314234681659 6.49682640855548 0 0
198.792466156331 30.4703799286164 32.1316218548302 0 0
197.502683622762 -43.2009385717237 1.91316092157465 0 0
169.013195983191 8.02720396324218 9.84647894270441 0 0
202.359826369019 29.8818456003022 37.579465249203 0 0
216.232139962179 5.72474525034237 27.5896651880738 0 0
203.615895510897 38.0317581849225 9.94619675548816 0 0
-5.73035116079522 6.12277372024303 4.93175554943591 0 0
155.399804336554 23.3321091887595 0.722436535239484 0 0
161.205728861235 -1.38241045421738 6.91331223882376 0 0
192.98071823358 -4.36471583356675 -29.4898132125642 0 0
64.103268264051 4.26393110761195 5.71948348962392 0 0
192.725816349572 14.8572527601143 -19.5796976228074 0 0
121.062436646057 11.4592367019689 3.35078640139182 0 0
-78.6130398366525 9.99288903933337 -6.93768498505355 0 0
106.437937623078 17.361587969636 -12.1912891812469 0 0
198.999823275896 28.9760268104344 -9.59268874416476 0 0
146.288796742388 16.6758458467999 -13.5087359300487 0 0
-44.0324326227808 -14.6799265778538 -6.1387354687163 0 0
-38.7703525673981 9.3026776387827 -15.5813477974808 0 0
53.8572893381658 -4.88862709105338 -18.6159037467702 0 0
-23.1739349998288 -13.0825859598843 -7.34306792392058 0 0
80.5416459672799 9.9165827471868 2.50143671808435 0 0
3.06452779040526 -11.7011848582567 -8.59621618264322 0 0
124.341567424937 -14.7729373610636 -11.1620079448395 0 0
163.940505319741 12.9709162152824 10.545736524214 0 0
203.406766504721 -16.966945776217 -34.7183882010352 0 0
208.301144455214 35.5258501104089 17.5428080340299 0 0
192.665083207009 18.07799090115 32.4312842202211 0 0
168.063714730783 1.69182334030321 -23.5559752912311 0 0
199.214880253875 -42.804268129207 -5.0830832659442 0 0
-87.6883950836029 4.60216887137338 6.93799163423336 1 0
183.091124847539 27.3957716907613 -3.42504967273761 0 0
189.23787851537 3.68797210434741 15.8948583923753 0 0
-6.52589871977662 11.0528650492106 -16.6849001158457 0 0
160.604249456495 -8.03655519802008 -25.210975437166 0 0
90.5337853005884 -0.419688476376135 5.2084108293948 0 0
213.65996274082 31.7529391426401 0.709121325429648 0 0
203.270716351353 21.6870767575558 -22.0624899463122 0 0
74.8254348580901 17.0657184405559 -11.2036704020799 0 0
55.7738382725169 5.78307501086062 -19.6592641613508 0 0
195.472653810498 14.841644873379 34.518581900006 0 0
-76.5502433908406 -8.25816278377223 -13.509099983725 0 0
23.88589265899 -1.55383775904055 -19.4597033108523 0 0
188.449179740773 -39.7975717640567 -6.33781900967915 0 0
174.987799202611 -8.9543684199743 -28.2554815575842 0 0
164.984141335585 -20.5572571110067 -14.2946545151061 0 0
154.806081602483 -11.3401825618802 5.56283537314633 0 0
199.702417077689 37.4454536879585 23.6836038772472 0 0
-25.7461250427757 1.29666069063817 -18.9691920872706 0 0
-46.7104846364469 11.9323300412967 -9.67594230664916 0 0
204.398052188524 35.0363845847891 2.89111028230672 0 0
192.03124751489 -7.58496180869865 13.9558837348388 0 0
-61.4004081956411 7.40523607723478 -14.7487781436758 0 0
31.1670791404596 14.3573321505664 -5.38198798082747 0 0
216.309304768752 4.56695406966828 23.6373682460748 0 0
171.21878894597 9.5139421570591 11.96904085871 0 0
189.053769043512 -41.164077180159 16.7744914676885 0 0
220.624196976302 -38.5953718311789 -2.10219476794645 0 0
198.477792164918 3.07593097646361 16.4649725451028 0 0
111.904646011719 -13.9755759767081 -6.73380923915581 0 0
35.4618827097805 10.8582624542062 -17.9360923839538 0 0
208.43530413245 33.1284415680705 2.1530682516393 0 0
-4.88894148966805 3.9420102459828 6.35084487389536 0 0
178.535590357885 27.3828688544926 14.7827622174609 0 0
42.5909776772793 -8.71352577056645 -15.4946537354182 0 0
199.442022773853 -40.7640199246803 22.8771682184877 0 0
182.821726785701 -34.3191109999015 -5.05806964842344 0 0
131.651575491953 -16.7486410314747 -4.10609995228374 0 0
-89.2079765586304 -12.9473268958954 -8.20968564904691 1 0
42.0467854062103 16.1027204000867 -9.39221957322991 0 0
64.1235797410975 -3.85672572587799 -19.2284221636759 0 0
205.03744007234 20.7951727301314 39.6506816179247 0 0
188.422726016178 3.06384468656779 14.8665469207201 0 0
184.851183508154 -29.2093370155101 19.5704400774532 0 0
171.520509122293 15.2199597214417 14.7173961606011 0 0
174.735445916899 7.36280955346101 12.1635334234066 0 0
-21.382412198779 -0.949507093485786 8.25999252294702 0 0
209.693965047467 -0.668656656885294 -16.5408553560123 0 0
92.9536816130211 -4.44527271061128 -19.7679918445039 0 0
195.937165706464 36.9305744649172 24.7507462501952 0 0
195.269033507378 -12.2131398023458 14.0608357951945 0 0
41.4858164477884 -8.56067245132974 -3.09133113585377 0 0
106.954615647311 0.205796141566591 -21.7646581870476 0 0
200.206547951314 34.104820568823 -0.087259345322276 0 0
206.947738686575 -36.9858586899875 -10.0587481576118 0 0
217.328212280288 -16.4564699120449 -0.220474506508677 0 0
192.722538394635 -42.1844054821414 17.4219315387631 0 0
183.33226011173 -1.17820057332895 -25.4785485181613 0 0
213.987787116254 -9.6548439398593 -19.0925803074966 0 0
12.1604967324633 11.4067243581094 -17.1750668170216 0 0
36.3148780674088 -3.13854074195519 6.32748247100877 0 0
84.7008769391335 7.06193986335855 -19.9905163726232 0 0
187.46695321996 -23.3826869024911 20.2568547589192 0 0
154.546353449792 18.6505056045809 -10.9468498104584 0 0
34.4368638456735 -9.95849373847442 -12.8055079767616 0 0
-47.859714025371 9.77639656186859 -13.9972114755158 0 0
89.0591663133004 12.263243878914 0.709874871518905 0 0
151.755613753101 -17.0185310331606 2.90948523312172 0 0
165.625692270787 2.92218724383028 7.87788088644179 0 0
225.549663336555 11.6842970766015 15.6796414466068 0 0
144.350478737492 8.97078582076523 -19.5858966402508 0 0
205.004700948685 -30.9022104083857 -15.985708980369 0 0
179.678747937143 -2.87033542613906 -26.9009771442395 0 0
-42.6905902729248 -3.78019360830082 9.3806538203925 0 0
1.48220597018632 5.37286774562022 -19.1226884528821 0 0
-61.6393145507142 2.68648030581505 -17.1241507126018 0 0
150.779568221093 -19.5230428231864 0.154251786259297 0 0
196.940768171541 -41.95096205836 -6.60043253536079 0 0
224.87164663433 11.416042053174 18.2540972083475 0 0
210.6855729053 -41.4803147806165 2.10155185465608 0 0
216.873100593289 5.93422719285689 13.2566237653703 0 0
205.252332412486 -11.8332818031353 -32.245890811698 0 0
175.948178310112 16.876448062411 -15.0998585725487 0 0
149.031981747557 -2.52118468412453 6.07864306408697 0 0
174.602815241827 -24.4678598038112 8.05819333819688 0 0
219.804841095499 7.94179696887286 26.0111426662663 0 0
31.0361997892901 -1.00822517722438 -19.5676182318485 0 0
152.924221639731 22.7025135637421 1.21695886905451 0 0
45.5499736636844 -9.99852902684781 -9.53817421306772 0 0
134.267921297693 1.17047249134092 -23.0454919868123 0 0
14.5208170481103 12.3815299587517 -16.6687209120776 0 0
221.039828721384 10.2386755254987 -6.36929759737397 0 0
67.4447413375686 -6.53794807676571 -17.750805315729 0 0
212.663329716731 30.2222026231002 -3.48809137416355 0 0
-28.698674429097 -12.7746603195326 -3.80338700950619 0 0
116.088729235255 18.6896329665693 -9.50747732882665 0 0
185.696461836619 -23.3573121829163 18.8557087765071 0 0
13.6971771321089 -7.53113697497048 -0.21531052106584 0 0
165.133691351008 -23.0002795706835 -9.25797951154346 0 0
168.768946947571 15.287335917149 13.5582712269901 0 0
-70.7619407058651 -10.8179798225142 -11.5173788802868 0 0
214.319119253398 33.814071242611 9.65652400786955 0 0
181.397066294632 -1.31843559187969 10.2901547809589 0 0
-85.4214285371688 6.34503269101163 5.15706974810803 0 0
220.421478354849 13.6627296510167 29.443428156196 0 0
25.4822344928087 15.6224676321297 -10.295018956476 0 0
-23.2514048314488 -11.6851956456901 -2.74805833311913 0 0
180.857267913208 -24.6024724692657 -18.2182702245953 0 0
29.8003210391767 -3.28026279258076 6.46122248478651 0 0
-1.80856676529603 13.473892304435 -14.4035866655563 0 0
189.109509396618 35.2306148204226 10.8364501293187 0 0
-58.0345574093371 -12.826533725865 4.79516549820524 0 0
206.90836775116 31.0594282793389 -5.3413589149955 0 0
189.792282790711 -6.26044301068663 14.1920275463937 0 0
211.730758675887 -5.36004215945695 -18.1721327061329 0 0
200.12080160836 38.8167737240553 12.6710573457013 0 0
218.686334075559 -40.7601390518811 8.28958485436348 0 0
193.807297968875 -7.77843938162 -32.9004624681974 0 0
205.135314131926 29.4076867398451 -8.52951804138392 0 0
61.2790668998532 12.7255052210672 -0.860564745527181 0 0
217.404368625247 31.6145416847587 6.54025421786653 0 0
126.48781628849 17.076821131222 -12.8240003895548 0 0
178.62467222891 8.64978760155561 -18.3130126149514 0 0
-83.9475067362623 7.00930616515306 -11.7231259159874 0 0
204.504045726367 38.8126955522493 12.9607308719399 0 0
200.484343401003 29.0537878664185 -10.0525325606148 0 0
-66.8044681510044 -16.6250943749748 0.124727184621759 0 0
208.363036648358 31.3274030152959 -4.16210028707538 0 0
110.454017964839 -13.7507840009427 -3.77031870206703 0 0
193.088861144477 -21.1129465465891 -29.8723019408508 0 0
175.446581587646 13.5061970424423 -17.4321064260988 0 0
-70.047215663268 -16.7385792363456 -1.35211853354138 0 0
82.6280549860841 12.9787216124168 -17.0181082758882 0 0
185.866456261408 -1.92367124372144 -26.2165183449435 0 0
149.169415698883 -17.3358938804918 -14.1830683967513 0 0
-28.7888110590949 0.565574667460664 -18.842374755536 0 0
11.6059019705443 9.30619403715248 -18.2398722494257 0 0
217.441950200955 -31.0672598930507 -12.5001486647622 0 0
-8.35671124704361 -1.79166448467851 7.97949237750922 0 0
-9.071869701378 4.15352327008457 -19.0531352929177 0 0
159.92052181191 24.2314199877795 3.24493047767153 0 0
198.737943483106 -25.2277407205939 -25.8556908774744 0 0
76.0211486054659 -4.52211164536581 5.14081674408135 0 0
228.408208875108 24.0755596452482 12.5937018273839 0 5
109.223656380774 -13.550892894269 -7.72982544071192 0 0
-55.0918668711912 -12.494251661828 4.25223958914012 0 0
182.353608837688 -6.72095519054107 -30.1235019743413 0 0
209.86402477484 5.61071476031198 17.0418730857056 0 0
132.645125991232 -0.781159336052985 5.34886735928954 0 0
161.858053717345 -14.6395986899674 -21.3295960076243 0 0
189.785500746636 -22.0983364832947 20.7728945395573 0 0
210.828732210299 -27.1252117562718 -20.3584343016152 0 0
3.52184597088275 13.3736038604958 -4.82970425765234 0 0
32.2779070780786 11.235829588116 0.18043066361348 0 0
192.116556186914 27.0821128934548 -10.7121027170779 0 0
158.576524016765 2.21366392423697 6.96290957242561 0 0
192.659749089133 -13.3732484933432 14.873991406433 0 0
126.008641268745 -11.4681555398829 3.86632589469873 0 0
-31.4722156360237 10.4373390841175 -0.645787553073638 0 0
62.2146489228536 -8.63464607343673 -15.4310064553614 0 0
-20.4429764807353 -4.22406500673462 8.09391271860296 0 0
191.349528718152 10.585770556569 27.2749656000791 0 0
66.7046709818846 -6.86245449712709 3.14450095372193 0 0
38.1566769410788 2.67460239351271 -19.7939242163256 0 0
-54.0664996257028 11.5104891712683 -3.22950180580045 0 0
58.8784719092389 16.6440638451922 -8.28413434483705 0 0
-71.9758305229359 -11.5802967674828 10.6429478544398 0 0
225.372784966091 18.9700075790615 23.7887847904269 0 0
-12.0429086512372 11.8513917194779 -15.2739141005998 0 0
161.384524592404 23.049032680511 -4.04975217469769 0 0
207.224645862369 23.9368142174509 -16.8812455459257 0 0
182.815688407237 -8.42630639973415 10.14739230904 0 0
201.796350931419 36.9097557543826 23.3105296319124 0 0
-22.1494866929122 11.9120928900584 -2.95183538925067 0 0
188.153608228057 -1.87249152100322 -25.8911860031675 0 0
219.579922009946 30.925495311967 6.64326996055037 0 0
114.306874538242 -0.624220515941549 5.00938169109133 0 0
11.2084495281599 14.3755661955344 -7.03177518000372 0 0
142.794708652723 20.9414095130523 -4.94272275877993 0 0
183.617878351604 -36.6793550373376 7.15283078236267 0 0
199.713636085321 19.754866817302 -21.8559581141922 0 0
5.75680518445745 13.3893270899652 -4.82559739168822 0 0
87.1797452723116 -10.3658734361257 -12.0145564518568 0 0
-12.2495289110531 3.67596779338093 6.85145336773373 0 0
189.386339201283 7.50223096166441 24.2319114594634 0 0
192.46517606565 -25.092382980013 -25.1637800555562 0 0
100.847645368503 -12.7284615028229 -6.09082331264818 0 0
156.700181408605 17.691119831646 -12.2371657816974 0 0
208.208745794016 30.8693345997262 34.2182380817325 0 0
192.597678184992 -29.8263574322071 -18.8895669732772 0 0
221.364381876441 31.339097328012 22.2970319413555 0 0
2.45083683234152 8.52227904977358 -18.2501570037264 0 0
179.504171247364 -7.43951024937317 9.38805282564982 0 0
196.30018334226 -30.3051901131399 -18.6278243727089 0 0
215.282163191301 -1.09124811756455 -4.26645998766588 0 0
18.9256158644148 -1.53738759675012 -19.4329783282983 0 0
0.511953342253261 -4.74347595230596 -18.2147235419576 0 0
-54.0866672524822 4.73814539803602 -17.0478017457496 0 0
199.93216668595 21.2723976876417 -19.885398427053 0 0
6.34225372875718 11.0447260034796 -0.921433116287132 0 0
164.429541332025 -19.5419739248458 5.19598684031211 0 0
25.2024319151255 7.28037435304184 4.08092054343284 0 0
224.649839371559 20.0919630602616 26.6555493722059 0 0
33.316271615896 9.07487600508409 -18.6266235645631 0 0
188.503027112512 36.5541724438876 18.63516296325 0 0
93.437892597373 -11.1742640809609 -10.7623454502372 0 0
-19.3263087203602 -10.3385890131626 -14.3847951074181 0 0
21.3664709935601 -6.57134966869481 1.74796886166128 0 0
222.15968702123 24.0041525354195 32.6447408462931 0 0
217.458091595922 22.4059993683979 -12.5672426401925 0 0
192.740696296769 30.2414070561037 -4.22634622119335 0 0
76.6766788127414 15.8112631113868 -4.31865855081755 0 0
25.3226940424398 9.60003211770293 -18.3468814592547 0 0
217.797073440723 31.1521202846789 4.3510874580488 0 0
-47.2321318775167 -2.84166037591332 9.25491520611562 0 0
188.340019307592 -26.9455680747741 -21.1964544507867 0 0
147.77239572668 -14.6600192188506 3.58176439254708 0 0
-30.8145802305107 12.0628525595487 -3.39791172540472 0 0
27.8205944297337 12.8588282237561 -16.7392415641183 0 0
184.802341233557 -3.11751826520315 -27.2945127703878 0 0
84.2556116829192 -3.68852859880069 -19.7061843670254 0 0
202.134083860002 -6.58332989528482 9.98943567268221 0 0
222.339035719793 9.97899144664765 -2.74892373641044 0 0
224.557135124649 23.5921156053403 -2.29466269373653 0 0
177.796625838312 -29.9282683227397 -1.53618227964009 0 0
60.0706949931578 -7.30878633726781 1.91685145385795 0 0
-4.68225402411134 -9.76727626287418 -15.4895592650304 0 0
29.9712315989963 15.6515225696612 -8.8935370592033 0 0
168.422272364517 -10.7010340841878 7.00539997595278 0 0
217.221064836405 31.980812656733 22.0600146755762 0 0
187.219970725447 -40.8809187226226 10.3395656987936 0 0
25.5362255732931 -2.96153749140041 6.66727703146773 0 0
61.1566458473447 6.62976680376922 -19.5782646230558 0 0
38.8981148592378 -6.90417541132359 1.24973786350875 0 0
55.7666724634575 -6.26330738520643 -17.8645855234282 0 0
-15.4909152176232 -5.64972883422232 5.83905718594999 0 0
26.0421004909667 -5.818859341244 3.06465880509178 0 0
144.427523664979 11.2882790172468 -18.087759775059 0 0
33.2955418931777 9.03544706272492 2.47810709680957 0 0
84.0434523799796 -10.786297707669 -9.6933393769179 0 0
194.109634386724 35.132519045591 3.74158359507019 0 0
217.900030444058 -14.9129196244709 -3.84476587287726 0 0
163.672300959387 4.60622377538563 7.86432589132874 0 0
200.41593858168 7.72038202749256 34.5639631356059 0 0
-36.2426524108443 -12.8870391025682 -10.8254226739255 0 0
107.356657843378 18.6126197754232 -8.46794337917965 0 0
92.8487150927282 -9.76256190857177 -13.9909359685723 0 0
-8.53574847768783 13.434805759645 -5.64518704430952 0 0
-79.4223224557536 -7.98070186938337 -13.4750291723297 0 0
179.283245033711 -0.613700790592591 10.0400850749531 0 0
204.48716799155 22.540514565181 -20.6803977885999 0 0
172.577266361191 25.8533535352652 -0.521897996770898 0 0
198.551618598297 27.5719669701533 39.4818802290263 0 0
56.2602513294375 -6.74538906442513 2.84872215426574 0 0
-75.8354414283055 0.248015625676243 -16.1837676838061 0 0
218.91112067612 10.4966312865304 29.8683207076446 0 0
176.174606240645 -27.3047280694909 7.33119718310077 0 0
20.0391103706632 -9.99142758971059 -5.95861193701023 0 0
188.093887608249 -18.9403398309546 17.1347016998553 0 0
202.211832124643 -23.4425286187845 21.6830002021018 0 0
179.092107727132 -8.8709768852953 9.51046670184431 0 0
180.563494124687 -32.6948119060572 7.46455958700717 0 0
-6.97040421528226 12.554054499386 -15.0132460208355 0 0
189.997308506493 -19.7133128004671 -29.9584494415433 0 0
195.004675144166 6.80970792076629 23.4614202527049 0 0
203.011140550377 -9.97160549660392 9.70137339676424 0 0
-45.6698504104883 -10.7540444012029 -13.0987256924999 0 0
189.271251616933 -39.322073050954 2.39976851974107 0 0
184.845775827237 -26.1902776046481 -19.3098755536999 0 0
174.078524557164 13.2077817803745 14.4761004341012 0 0
227.221103232806 21.9172194336125 19.0594116390246 0 0
190.235266740742 26.9946042723372 -9.4635457973348 0 0
75.4697787930177 13.24867693407 -0.761003244746327 0 0
51.4826957066832 -9.50515588173132 -5.92853781136825 0 0
109.646733957249 3.65337951100592 -21.6476044398628 0 0
199.300724992355 -1.35934673361534 12.9421531740428 0 0
200.558877720936 -43.6956301360054 2.38968214057179 0 0
208.5805866195 -40.5954544129409 0.666991935104396 0 0
-48.2752201019832 7.0245932308153 -16.4439472096268 0 0
140.631873726746 5.30801885759544 6.1208591113341 0 0
224.531474240483 30.1090031925228 9.89363713475495 0 0
-73.8682162660389 -12.882224093512 9.97002513398932 0 0
65.4889776187794 2.27287399368436 -20.2279213871279 0 0
48.5654149417545 -9.11717560587962 -14.856478237589 0 0
215.419195499809 -39.4505276021234 15.0350395105288 0 0
204.43260274641 8.7944586007448 36.0991090399638 0 0
214.639142554301 28.1868462464139 -6.66859399298507 0 0
100.942601083086 -5.39929220046546 4.62607270966386 0 0
53.6944381315204 13.8050205958633 -16.2409034522753 0 0
141.559355415384 -18.1005154808319 0.128798536930378 0 0
226.47675325863 18.6027992481931 2.56854427802871 0 0
32.707516840942 3.59304717453227 6.74360492806025 0 0
164.417397922326 19.9571013369172 9.55890608972254 0 0
138.619632478159 9.14955880903724 -19.53749878403 0 0
-13.9372429058859 -7.63489043099341 -16.6232217336646 0 0
16.9252582318443 -8.6633003738332 -16.1646076011899 0 0
219.613957365155 -41.8022374252471 1.81508761342397 0 0
159.446537741676 -5.51781133656412 6.66105262149047 0 0
203.708451792701 26.3379525303329 -13.8000429665321 0 0
-81.1942459522454 1.38211603340507 8.73841338199379 0 0
-51.2420351001077 -4.4076609725071 -16.8336430181845 0 0
95.2064596037311 14.5725943171183 -15.8567894756751 0 0
-83.5849886320298 -9.32872850561549 -12.3579018104525 0 0
186.850358671005 -18.0018113083001 13.8594536281754 0 0
190.655415705886 -34.7230889138828 22.2650776974946 0 0
190.634092360745 25.1169474632671 -13.5291995628886 0 0
205.296436264848 24.2398822065333 -16.3669319505894 0 0
203.840591760301 -26.2632118865046 22.7869624334893 0 0
142.759587550147 -18.7734590676137 -2.9241604414896 0 0
148.958161193102 6.36785868279123 -21.0372838037069 0 0
206.685042043651 -11.3928629318735 9.18262425764336 0 0
88.8707133177622 -8.07638463377173 -16.4463040373065 0 0
220.549747506637 8.06981477243915 -4.52813794548914 0 0
185.710634864363 32.4161355767705 8.62249679980109 0 0
82.4517691106812 5.39272815744701 5.1598846389101 0 0
66.954664595975 1.26184569135914 5.85805717161013 0 0
-58.0076131084524 -14.72613765299 1.78350578886338 0 0
202.603256381857 28.0152154502589 -10.9983738054751 0 0
204.163500281104 14.3244019816931 -21.198391453951 0 0
187.192243233681 -29.5291843257764 -16.9477016019966 0 0
128.566130962253 12.5930094114375 3.69062990060009 0 0
130.75458288072 19.3832587393015 -8.4416869977787 0 0
59.5566077205375 -8.1665037150078 -16.1482595740667 0 0
62.8390885890208 -5.0967604660509 -18.7332372168881 0 0
226.296317289202 13.1002871783972 9.18437237235614 0 0
-38.4693766197748 12.7494722461105 -7.76405318073991 0 0
76.6098509262814 -8.35795651569574 -15.8038241203379 0 0
210.032540984515 2.56772724288289 -15.6309203032739 0 0
59.9869911153994 -4.30824861290656 5.34765471279167 0 0
222.374868561201 30.8229772164392 11.9009870976483 0 0
187.973865641657 10.3139555953269 23.5490661950247 0 0
-90.3220971737149 2.93610194778497 8.18685854661518 1 0
187.958367650961 -7.6965688318242 -32.232388199291 0 0
68.243000846557 13.0608317670567 -0.816556022447532 0 0
223.762801048345 24.9053113494292 -3.53348446215544 0 0
179.224940971859 -11.6880486273106 -29.5161458908132 0 0
205.952808885396 -20.9921583558999 17.5026572685981 0 0
25.7584936386683 -10.2988550421347 -12.1722976549119 0 0
54.5041046136154 6.22022272852502 5.1082520820809 0 0
227.324277949668 17.5302421622138 10.9777233289685 0 0
-56.8135680369017 -10.9337195194111 6.56763072302972 0 0
187.10514021637 22.5543970721945 24.1423685937911 0 0
134.438917676744 -5.4335227785075 5.02222624803481 0 0
187.760779068547 14.7343078990968 26.1052245545199 0 0
226.185332706942 29.5599596196868 9.96525360502132 0 0
-14.1298467216663 12.6145690910722 -4.18911692244405 0 0
-32.6085161625202 -10.2970948702333 -13.9707559457919 0 0
70.1230111000361 10.8847240209159 -18.155116574325 0 0
201.757607606133 -43.2726471345912 -3.44489912050601 0 0
-44.1929971717495 10.2166301601587 -13.8801152754176 0 0
219.794940333539 -20.5147768488457 -8.05463856517613 0 0
69.240824129071 6.05745156445879 -19.8469157960322 0 0
146.47523519589 19.6430457954588 -9.12808248874932 0 0
189.296911171397 22.4351736454921 -16.0860887959742 0 0
217.02759875308 16.6229445115798 35.2991389570873 0 0
202.770872806658 31.2543015304509 -5.18066601184326 0 0
46.357170309457 4.90403499391037 5.92054118058603 0 0
186.745068727991 7.58634424617601 -20.0374885639633 0 0
12.9078127673554 15.030891928929 -12.6055182592344 0 0
190.980558309019 -16.7311013331333 -33.2770273428611 0 0
184.591737074025 0.146916528951931 12.0747658393906 0 0
220.499532305929 6.99687253070948 -1.97359237313779 0 0
113.027947328847 4.57768025429808 -21.4949100604947 0 0
191.367292910214 -2.82747403381689 14.9964794422747 0 0
185.120293162958 -24.0307419651485 -22.6698211944328 0 0
219.822204626929 27.2044972201992 -6.80567353175629 0 0
214.675652182558 31.7188454927192 28.6440387283875 0 0
-57.1224894794572 -5.64913072893837 10.1229853467561 0 0
139.517372240634 17.3835038735381 -12.5944304504518 0 0
202.940695664344 1.31116978235423 -20.8278108845452 0 0
