"x" "y" "z" "f" "a"
-94.1249631985944 4.83608613074563 -10.7702120824902 0 0
-135.619601706989 -15.00176980393 -15.5661773538239 0 0
-178.705982081116 -28.5125804914536 9.54189658497669 0 0
-216.348336289418 -11.7209442946296 -1.68948270272491 0 0
-179.40262360147 -21.5686197488812 -8.01141803761103 0 0
-160.96482510851 33.9547722702953 -0.861023665637392 0 0
-111.257015021373 16.9684423729325 8.35857633238487 0 0
-176.660497718136 -20.0202276272641 12.5933264448636 0 0
-40.3272669927722 11.1531175155201 20.300835623843 0 0
-218.856458023808 -18.0056313596278 13.2405490120094 0 0
-181.517542578007 -34.8227460828769 -9.09928688515238 0 0
-71.1926517263341 22.2733434491619 7.837226828924 0 0
-101.983348325636 -5.4970656906385 0.350531819297952 0 0
-180.698152640093 -36.5446766242578 4.40354338158425 0 0
-200.23288074708 15.8191040906523 -12.9659674250844 0 0
-169.355840454681 -21.0622250499881 0.573091701842719 0 0
-193.449168068376 -49.2085089495605 -1.20359349012769 0 0
-210.223088637133 -3.97179804831224 -3.21965449290475 0 0
-173.141157988439 8.18892204021997 15.3537056884441 0 0
-134.527588209158 -8.49374971418225 -1.50060044409807 0 0
-46.8165375900597 0.373830331059854 -3.65297556376325 0 0
-197.072877177509 -43.1474674251146 20.0205015544139 0 0
-163.354587267031 29.0641973203159 -19.3753279075137 0 0
-47.8029522940166 22.1039875418189 10.1655440174835 0 0
-2.27522538652191 -4.38333835398943 9.57511210563947 0 0
-173.941958657773 -1.08207769905931 -14.5620005928462 0 0
-103.96075810543 2.19060024049137 -11.1154780462486 0 0
-211.938888031009 -27.8023751826307 23.6180579706484 0 0
35.8935733578155 3.16215249175986 -4.96439733048544 0 0
-11.2375613241669 -0.26953106658943 -1.91472933015479 0 0
-207.210064667358 -3.55692774250536 14.0327300464558 0 0
20.3787862475123 -1.00068278845925 -2.52474090395537 0 0
-168.194135588522 38.1259113318856 -0.2151178500088 0 0
-122.47030910575 2.70786979641976 11.7556821790278 0 0
-14.9186753768311 7.97946217251544 -6.31683619921665 0 0
-58.3995207595607 -2.61417665306805 11.8026539386736 0 0
-206.179507318458 -21.0492414678202 -17.0923152710897 0 0
-171.322533838318 6.98954444208857 14.6946879835854 0 0
-189.120786518452 -18.6078303851954 24.8719377518974 0 0
23.3155150964166 1.11749429827482 -4.92303838974105 0 0
-73.658278772651 21.0218177914075 9.51000272361429 0 0
-137.485614863904 16.7817041219989 -17.8032450528779 0 0
-194.101118685026 22.5420733331011 -22.0449174335218 0 0
-102.123517914437 -2.76632322734627 -7.40010850691564 0 0
-174.600584436357 32.1667351067418 3.75043228531221 0 0
-178.461943026348 -29.7164548119797 7.0740237384913 0 0
-178.264198390772 16.5750209478832 -25.8386369144432 0 0
-54.2762872729713 2.73250645871256 -6.60964889531733 0 0
40.6607903740714 17.0506903876038 3.75772093315784 1 0
-20.2330053864329 -3.16273586628468 4.37523179803985 0 0
-59.166266410742 20.9965614714521 -2.30045133595113 0 0
-28.7062267901507 2.11915007742234 -6.31873371667494 0 0
-215.102959195718 -30.3699582736701 20.6841749168953 0 0
-185.463454543152 -30.1498254468508 21.8363272216074 0 0
-187.729307810988 -22.2811224674487 -17.1812509976445 0 0
-195.854857541062 -49.0094155876326 7.74213987664245 0 0
-11.9470411242496 13.4935223912177 -2.41679864074855 0 0
-181.90708342801 -31.8483551929424 16.4594209531176 0 0
-184.490036749577 -22.0811108814831 23.2183900386543 0 0
-177.66707902879 19.01240777199 -25.5194193066075 0 0
-163.068876617376 38.3253322603706 -4.99654843951986 0 0
-177.267831174431 -26.478326186488 8.0481380054468 0 0
-97.7758439720046 18.7542687357339 -10.0067913543174 0 0
-197.601439509012 -23.6170336696395 -18.3090198270726 0 0
-191.909912810428 -48.3156975930338 -0.305619279778097 0 0
-144.49799195294 17.0666302659202 -18.7717346305077 0 0
-191.223253232159 27.7793042226627 -20.1766479109621 0 0
-183.730421349878 -41.1390038253429 15.2165100950802 0 0
-190.930763964964 -36.8181074708399 -14.4335461813755 0 0
-115.674457163237 17.6733117870119 -14.2128103327603 0 0
-26.2176352834605 3.66694468438698 21.6566904039512 0 0
-20.0232240614726 -2.06180787905076 1.60475786202949 0 0
-132.314946633078 -10.4676878762761 -15.1986598303762 0 0
-188.16212023268 -46.8816283286088 0.0733831648359101 0 0
-156.32233595884 -15.9883923356553 -2.05774718635445 0 0
-46.6134798143188 1.87947197674323 -5.55208102578048 0 0
-117.241226268121 22.0898400285969 -7.85043298819171 0 0
-171.005703982154 -17.6884176782101 -8.07894757929355 0 0
3.43808387506517 -1.60368917165103 0.0922004975136531 0 0
-192.772669874157 -25.6653934925479 -18.0555403852864 0 0
42.3477867229709 9.2532465962763 -2.81425227302129 1 0
-170.653476051793 37.3777574388639 -8.7531262794723 0 0
-169.107668443044 18.0973085605309 -25.2300903599788 0 0
20.6860177597962 2.58286886000447 -5.30826723110878 0 0
-195.05658167467 -13.8212550165789 23.5822789209903 0 0
-12.3921341211869 15.7647523811415 -0.823048860779904 0 0
-179.099808308238 -18.3316257295678 15.2463436815685 0 0
-125.922501150174 -7.12026186297824 2.69459052860176 0 0
-38.8198222773059 -3.69487520923152 6.23365140961583 0 0
-121.200550755078 -4.90229067543127 -10.7966269375518 0 0
-149.233350156215 20.9834889874528 -18.8339295164069 0 0
-45.7857689098884 20.3121641801408 13.2322989928885 0 0
-182.832619718153 -41.3379057938519 13.5140682584027 0 0
-155.20436861846 -16.9722835598414 -9.62101611543547 0 0
-124.762288820807 7.84848863519988 10.7100095758937 0 0
-66.9322950437322 14.7692412040059 15.6384057979804 0 0
-90.2451427908498 5.30827712827578 15.2185094491371 0 0
-169.920741634115 -18.4014153038741 7.70553358468704 0 0
-209.658390905087 -26.7883251469292 24.9673199550352 0 0
-220.62577694286 -34.6371851508095 1.60116264511195 0 0
-173.032964507624 32.5122705834636 -16.9372921324854 0 0
-158.541857878091 3.41669962208071 11.2546127605279 0 0
-112.011378228174 22.9762346131648 -3.09010782037316 0 0
-185.795360127725 -8.10957484697734 -12.5528738532475 0 0
-44.6635245573602 12.0570831821266 -7.57123562789677 0 0
-164.524714576093 -0.564814014779643 12.7511169870063 0 0
-64.6359983611743 7.2476387824396 -8.71681039824546 0 0
-179.693729386427 -36.8745636629759 13.0804420175072 0 0
-164.668525729647 -18.9251267252395 -2.62357943203141 0 0
-125.580334079764 -7.34549529058833 -11.5901232501779 0 0
-167.009815254358 34.2821309798239 -13.9565252927247 0 0
-26.5933770520504 22.6143374192062 9.01656502868678 0 0
-191.027618254991 -13.8366771832876 22.7704400955681 0 0
-166.308613672543 37.4214987387961 -7.89361859307692 0 0
-182.671803597528 13.1485039084898 -24.1258596718813 0 0
-181.9620977719 12.0155624130719 -18.0346010942658 0 0
-176.259577115558 -26.3374961103013 4.89650134150358 0 0
-155.239821970997 28.3223830160221 2.11940604317839 0 0
-166.503981356052 19.9390521651337 8.36665221310572 0 0
-172.291519351173 10.7995087563074 13.9538673631402 0 0
-185.123539217836 -9.52470470391861 18.2133493361465 0 0
-185.919840119263 -42.8767214467121 -6.14800873056801 0 0
17.0469361663842 -3.9150065442855 5.72427537785493 0 0
-209.628780805115 -1.56469140005828 2.06781285651709 0 0
-171.688824980519 -2.05573210905193 12.3850674851658 0 0
-138.218148028709 7.49309611922746 -17.9168459990511 0 0
-178.901884058395 8.81325512341535 16.4996062801594 0 0
-52.2552136913412 20.6607313529263 12.1657791131009 0 0
-166.187355067395 34.725450201408 -13.2235322037663 0 0
-78.7681551312872 13.0421809279737 -10.5818768758139 0 0
-63.9794596064295 9.18307583109067 -9.14457501644053 0 0
-138.320076596471 -12.7667296787719 -6.37935286944622 0 0
-82.6206564303093 11.682486248515 15.2125964260517 0 0
-178.18297632676 33.9888511783503 2.88647127921212 0 0
-194.269542652758 17.223991513071 3.00322587279852 0 0
-181.847127596213 -10.1848549623952 -12.2350225049009 0 0
-127.418864281367 -8.16309084717484 -5.10226083335679 0 0
-89.6697875015605 9.06456480614985 15.1112819037992 0 0
-184.248067865157 -23.8462249581637 23.1224515230397 0 0
-173.295142839275 4.00095958632003 14.3251579370492 0 0
-21.9288117150955 -1.19382159747335 -0.29352966586962 0 0
-145.366019104712 -8.70773738212922 6.59525539270799 0 0
-181.030168669418 -28.2711842069104 -4.92509712835809 0 0
43.7101167329016 9.69207655886362 23.4358400936803 1 0
-196.954023316746 -6.03731397917577 -7.34989949913171 0 0
29.1659277964956 -0.384167345129469 -4.29695538561364 0 0
-44.1342181367238 -1.60198057189684 -0.514126815450559 0 0
-200.692681611097 -0.684496578869678 14.8700809360631 0 0
-139.294014542403 17.3438558583944 6.6248434617439 0 0
-183.434368243423 17.1571640523151 17.3447953383317 0 0
-49.3367987983572 0.13976644440268 17.0719223010922 0 0
-10.485211736661 8.34918119837347 -5.83411621650688 0 0
-162.795416655858 4.3157148876057 11.7779023784994 0 0
-110.729205984265 6.33001127742066 12.8642486930862 0 0
-132.525346031898 -3.82655001760159 9.13545763666185 0 0
-187.952175795717 -2.85372141535841 17.9804031292793 0 0
-132.005585159965 13.7781205039134 -16.9961907314006 0 0
-189.162356625467 31.4022897852878 5.04154421979303 0 0
-32.8821427335682 22.5786431298572 8.81450540162001 0 0
-173.323045045958 33.9492575410856 -15.2630204424712 0 0
-61.4963286382229 -2.79115970857156 0.0946829883037783 0 0
-179.063944623828 4.78923680866918 14.7182038711777 0 0
-183.937307265669 -22.0750522431376 -14.7454495628192 0 0
-78.3955697307447 7.04108466562811 -9.68946677010764 0 0
-128.61351248718 -2.61735403504058 9.50724603532261 0 0
-185.127161976918 -12.3346468878053 19.164955358061 0 0
-115.625077828619 -7.02753304676657 -1.71357541139995 0 0
-67.4981536262872 8.07485343850344 -9.20477780751697 0 0
-126.314027793412 20.8723533802363 -11.8937468214037 0 0
5.61396413388933 14.9081618497525 0.0268350845867705 0 0
-104.611811721273 14.9908544028569 -13.1417345181609 0 0
-198.208721329608 -2.98486591103004 18.8761708796414 0 0
-118.048204411058 23.0505477559108 -4.50337021663171 0 0
-37.5374909710954 1.18511280130256 -5.05763899926741 0 0
-184.654014047075 -28.2648268252026 -11.6567403356207 0 0
-181.936484854134 -33.5884198904405 -10.5467636748919 0 0
-113.143257236302 17.0548239510435 -14.2344763598596 0 0
-212.975434526221 -7.74935236009954 7.33218991707392 0 0
-184.145992042971 14.4761470349734 17.5141129608859 0 0
-180.306053334257 21.2045239848664 13.3380063574999 0 0
42.6914524823517 19.1109741277407 8.46645010733148 1 0
-196.52746137237 25.1011116971507 -17.424734575205 0 0
-6.06393627022695 -3.3341268061758 5.30417969568218 0 0
-123.524375810844 5.48047895964289 -14.8323342839107 0 0
-104.412340298823 0.254696938889634 -10.1976578243741 0 0
-184.620081425855 31.2550608840145 7.2052748506263 0 0
-75.3446764507663 23.0983011852902 3.47308502721248 0 0
-191.20996927037 -39.3503111413825 -12.8974755194047 0 0
-191.146473861142 -23.3645406195321 26.4955790487577 0 0
-113.934733766129 -0.194622484258204 -11.3808976332839 0 0
-204.836342344677 -30.4857197242421 26.3456243803884 0 0
-128.061809111772 -6.52985887340369 -14.2281449886967 0 0
-82.2960079843877 8.29679344771364 -10.3749812659049 0 0
-216.934941462234 -31.8279503777197 18.251310229205 0 0
-192.030029674072 -5.91271514570004 -10.0943850126843 0 0
-53.722721128714 -3.71969759407696 7.24601908983592 0 0
34.4325042259333 -6.07087861226695 17.4479421564468 0 0
-105.105659791901 23.154415556282 0.0636991257441057 0 0
-115.159704995297 15.2536919225454 -16.2804258909703 0 0
-25.1011806147733 0.537548460553926 -5.46304417389422 0 0
-149.157859564686 28.7527461088928 -8.37784240663686 0 0
-183.29891292293 33.4119216049625 -14.2234449197631 0 0
-218.690358007449 -22.4484614354942 -7.58122183368655 0 0
-150.12289519689 22.6219281439546 -18.2395609867824 0 0
-106.128941242445 17.7141122262742 -12.0201557070531 0 0
-190.641155631544 -7.95975454584961 -11.858767399765 0 0
-178.640595682878 37.3034073576404 -2.09191055616866 0 0
-19.7584384062217 -0.756157032258404 -1.14133801169131 0 0
-195.605983471377 -41.6158658458069 -12.35702177101 0 0
-136.49863133074 12.6406343279826 -17.9913117678088 0 0
-129.8399907257 13.8360015853955 -16.7547760414209 0 0
-187.934294330226 18.5367704206196 15.2931147721098 0 0
-196.61649273252 -14.2007200145063 -18.6389318984116 0 0
-192.371848669922 -27.3531478220657 -17.7383697407481 0 0
-96.1286384512213 11.6432759895612 -13.0998769843615 0 0
-184.198498102217 -30.428990253755 20.1902294247359 0 0
-149.353878526165 28.843138400882 -5.8452251079913 0 0
-193.342298288523 23.844338896634 7.38994361475186 0 0
-195.731387411991 3.05508474154823 5.82239818188572 0 0
-46.5164172641891 22.5946948718962 4.06995709235538 0 0
-45.0814211726979 7.71230900295499 -7.70458245057575 0 0
-190.116170059013 -10.3170019659011 20.9420103093889 0 0
-192.140677079641 17.0319582521191 7.58892398138798 0 0
-156.366915056753 0.0971463424984269 11.9386322554923 0 0
-219.077079588296 -22.2800468625151 15.5025514250649 0 0
-186.188894353044 -16.1828491236388 20.8378385483543 0 0
-189.553025163274 17.5264347726033 -26.0893554552596 0 0
-159.804528422143 -6.6691940378121 -16.0159808759228 0 0
-50.5360711087323 -0.730154194729083 -2.43809151111076 0 0
-36.8552294256059 -0.426714080663645 -2.21513148342982 0 0
43.9268068775495 -4.11720543941586 4.1527865292448 1 0
-140.747103134495 -6.24574498060033 9.25899509830747 0 0
0.756438978493147 11.2158117597131 22.4516378772769 0 0
-200.086920783438 -25.079916745257 27.238200801422 0 0
-198.962525486556 -12.7776269156647 -17.7487081105266 0 0
-181.640656074148 -39.9672776546211 12.7075603050851 0 0
-156.847773814569 23.6571122234296 5.50010263521457 0 0
-168.140265790409 21.5611844381332 -24.1599375994004 0 0
-210.60997246635 -3.11550731000109 5.33878818572969 0 0
-107.230914531835 -5.14024985175531 -4.73252024517896 0 0
-61.8907071945908 8.05878399754396 -8.65360044184389 0 0
-87.5559473196535 -1.88606687928382 -5.75988750287721 0 0
-52.927651009034 6.85127643479676 -7.74560858999936 0 0
-25.3228778555235 22.215137744206 7.18672020973911 0 0
-57.0194499090607 -3.72520321528444 7.35269565156504 0 0
-193.997087199232 -17.0773811562099 25.1012401651903 0 0
-102.082674977894 18.5905936738139 8.28563938757414 0 0
13.9999696147494 -4.56310460785685 8.35686601009484 0 0
-107.017450617694 -2.4798549521439 9.23090721175276 0 0
-154.622416421471 -13.7835556728165 2.03370332191582 0 0
-80.476990071456 20.2968088971811 9.48185478936079 0 0
-205.211756089488 -12.0214151836638 21.8357080792894 0 0
-42.2955878566411 10.5132407522575 -7.81516147769977 0 0
-194.093550098699 -5.44025698370474 -8.80447752113159 0 0
-190.166066238711 16.3982854410629 -7.53732362388061 0 0
-17.6531523657141 11.1083363265542 21.8132740811918 0 0
-167.501504862416 12.4869884755798 10.5497333507285 0 0
-191.667935023101 -28.9292022418612 -17.1695888600956 0 0
-151.82342517539 -13.0215646255992 1.15657722628873 0 0
6.3652847714095 8.37037667114601 -4.62275143773807 0 0
-175.982346836427 17.8540214439481 -25.879547326636 0 0
-179.603423262828 -29.5922888585874 0.370509354784044 0 0
-134.691400732029 -0.125654984342594 -16.7829225325122 0 0
-184.567074371143 -31.2997538291424 21.4849105534548 0 0
-201.195345234004 -10.2983488156994 21.8828117793992 0 0
-188.517218343323 -5.11956127601595 21.3499163842148 0 0
-101.439481441107 7.65207950845643 13.7980312947445 0 0
-193.370139060137 16.121887004698 4.12822336760784 0 0
-192.037108905332 -21.1226732895114 -17.6828491998542 0 0
-200.985765840449 21.4810544680785 -4.9082892098949 0 0
-106.747777193333 7.58903810554397 -12.9017185282106 0 0
-182.443661748958 -39.7948590200321 14.6918298267564 0 0
-147.903284176091 -1.86113240824712 11.4005534272517 0 0
-195.568285836646 -3.51122020858586 -5.96991681410486 0 0
-179.867983829196 10.1227259595657 -22.5496216107018 0 0
-90.7952766572202 12.647840825454 -12.8454897129177 0 0
-85.6605372381338 11.5688252310154 14.8652739883754 0 0
-164.682671452959 32.9029134697418 5.68549576483606 0 0
42.0276615692139 19.3466966752868 13.7780257921274 1 0
-109.912527619688 9.75276577876103 -13.5498513731767 0 0
-29.3621869974732 15.0591296010055 19.3828285497947 0 0
-99.0159551533961 5.64101515769532 -11.7573385755003 0 0
-182.660073914268 -23.2112753905814 21.8713631364343 0 0
-54.551744461349 15.2893976932707 16.9277321440325 0 0
-182.655022207449 19.9323065939924 16.1567125165968 0 0
-92.861461779162 -3.86277412086796 -3.55991336478257 0 0
-163.33808002002 8.79278755909733 10.0538585691804 0 0
-107.997260631877 5.83965869403572 13.2112869300252 0 0
-176.423004668939 20.3645051294619 -25.1927604129172 0 0
-204.496716760892 -4.94916356958802 17.1417827298876 0 0
-207.897437567561 -0.584663773079679 3.02857550089783 0 0
-184.855581624482 14.4108808141309 -24.65393896163 0 0
-180.103268118979 -33.866460261055 8.98416957098048 0 0
38.9445555127763 19.1734951581603 8.31006453706611 0 0
-175.103687160154 30.6786108064845 -19.4980677428705 0 0
-171.062395256649 -14.7644341656459 11.2350849753542 0 0
-11.0346140543823 5.54388011150347 22.7494943643484 0 0
-80.3096562644852 -4.21651647187861 0.678251203445297 0 0
-197.853428134549 22.1907044871517 -0.243039286165754 0 0
-183.152473470177 -32.8233326804834 -12.4682995319076 0 0
-168.9667135938 32.3447847065486 4.60519815704487 0 0
15.8142394435614 -3.1906487968205 3.47166491067613 0 0
-81.4223430906586 9.22575726834691 16.1640088854243 0 0
-20.0848295010312 -3.63446735400542 6.21558014933307 0 0
-190.166330052723 -5.9193764793153 -10.9455027841086 0 0
-92.5785802681734 -2.42969439457931 9.69785445588044 0 0
34.5301393093235 1.23599852584734 -4.7143315599251 0 0
-83.3820757147143 18.8743607272203 -7.78110453851057 0 0
-205.425362298957 -14.2792718505133 -16.0258793993166 0 0
-205.276057702734 -8.13498543080226 19.9625643172489 0 0
15.9752388339238 0.529872293119892 -4.73326735306485 0 0
-166.989357748415 -7.48311411038778 -13.1870442671179 0 0
-78.5034127940323 1.90208818365849 -7.71311143075946 0 0
-211.794427862668 -38.150331451651 -10.5191959132485 0 0
-103.930017130848 9.66820669127345 12.9331939328211 0 0
-25.095142297769 17.8452982731905 -0.247817580983959 0 0
-127.79402257486 -9.83276144425238 -10.4706044718948 0 0
-15.4890910462766 -4.13186596284886 9.34515615291491 0 0
-201.102558685359 -39.464977216713 23.0510378468653 0 0
-173.208697383129 34.7552448496817 -13.5966284289568 0 0
-185.557569387887 -28.790092689486 21.4091084490719 0 0
-135.372312558225 -12.7561471882333 -16.5182927454302 0 0
-209.713200434622 -2.07395215942444 0.202388540673052 0 0
-182.224699002763 -30.9329806495074 -10.9819697187923 0 0
-83.954892610238 23.1523978679141 3.44887075483884 0 0
-211.41032203533 -15.5055509579284 -12.3360271134502 0 0
5.67860685444961 -3.48311893692212 18.3526146750967 0 0
-93.555307220743 8.88082783181844 -11.8343982996892 0 0
-63.7705789027134 5.51544579322655 18.424636309149 0 0
-190.246018883604 18.880612245045 11.9965599297242 0 0
40.3413067968769 -1.12525721146858 23.2057703996656 0 0
-103.286440156066 17.2417397655567 9.09926161792309 0 0
-131.980431537732 22.5710984141336 2.52242743283642 0 0
23.557214961836 -4.45171092469843 7.12143317785778 0 0
-184.940471630986 11.6839646901497 -21.8309141025096 0 0
-192.090147860003 24.8917032401207 8.99394329360336 0 0
35.6351089701535 18.8202673563426 6.93602704717191 0 0
-212.902585837249 -9.45514230240981 12.8352668965097 0 0
-201.63301514731 21.8810977512429 -12.7573258464973 0 0
-58.1002293843134 11.7311741960341 -8.94289505940563 0 0
21.3458272801345 -5.53252404397006 12.0666924196032 0 0
-185.843745832588 -20.5189777666213 23.8531491886063 0 0
-199.991910985555 -49.6240781034207 -0.853759705976867 0 0
-175.312154623248 -3.58527306365055 -13.1483069630595 0 0
-142.220744061593 -19.0914895864006 -14.0900617995788 0 0
30.948590977868 -0.176696055158935 -4.50657068316282 0 0
-161.320648335296 -8.91622996571506 10.6289849764296 0 0
-209.856836347443 -46.2372082893166 0.214000903268439 0 0
-179.834857901809 -40.3091523904083 5.7421430269081 0 0
-179.437089525067 2.50942014955185 13.838997081376 0 0
-116.107055500164 16.3879717980226 8.2482310778909 0 0
-193.112305851373 6.28776635165242 9.20424289904412 0 0
-72.5746601802982 -3.55470600373673 7.51067114383897 0 0
-211.938681601637 -44.8161256184143 1.45042332664097 0 0
-156.025971790705 -15.5099026298681 -10.796752232608 0 0
-153.660518494364 10.5596476764446 -21.5128996745246 0 0
-57.5550012822236 -1.68986560209524 13.9838414405853 0 0
-158.291441510244 -16.7485323186188 -2.75660296103171 0 0
-85.2996495232872 3.38739674590619 15.4382740011501 0 0
-130.759643444766 -12.4259692877849 -9.45026395152508 0 0
-106.274764594167 21.9869451022431 -7.05559329416853 0 0
-161.873482179599 -17.8594086133969 -3.18016018297428 0 0
-149.464073681036 19.1262200632418 -19.4201453541262 0 0
-51.2503589391302 22.2454095915815 9.49435521051667 0 0
-178.44810901114 29.8654010765433 8.33726025431734 0 0
-33.2838379545401 18.0588191788307 -1.37159957779529 0 0
-163.522885236748 -0.630282761370477 -18.6993404068228 0 0
-25.5398426849077 19.8933047975781 15.4953655586733 0 0
-159.402442773503 1.10339854884393 11.9439890883118 0 0
-203.177595918498 -11.8471633286435 22.4514171190384 0 0
-171.509528962436 -4.37540682663669 -13.9357928360865 0 0
-27.8657997331023 -3.83850211997408 8.32905647526408 0 0
-158.134591596643 25.8832381471107 -20.2219285007667 0 0
-63.6407529730993 22.1443247047272 8.60013529394473 0 0
-78.6730524980636 14.6870355704696 14.1470137023056 0 0
-68.3622043378892 -3.86022062948263 2.3693505478092 0 0
-166.713996489665 -5.70305371878119 -13.8915224493212 0 0
43.2858125184565 7.15294746716018 -4.4547397585133 1 0
-124.70071990978 1.51438288557949 11.3683368295061 0 0
-164.287257469444 -9.89907400410067 10.741753504943 0 0
-216.383940763966 -38.8804147637497 13.7660900643723 0 0
-164.510194003108 -2.68945146448498 -16.2485778953003 0 0
-132.999742061984 20.6471021543075 4.79733091526515 0 0
-102.906859878417 11.7088742238053 12.3033535630709 0 0
-186.997272338771 13.2951164658029 -6.71764228822932 0 0
-29.6968447616475 17.7716742053102 17.3404337808152 0 0
-211.934738173907 -43.6148308236419 12.7005504897457 0 0
-109.219973000597 14.3888794660297 -14.4458155467147 0 0
-219.298291787589 -32.0496937731008 14.6230852460971 0 0
-205.812144994573 -1.51373326966062 12.6559304928549 0 0
-127.826236648667 14.2102849520175 8.43755384487691 0 0
-154.855037252378 31.0376066617565 -12.0029557046839 0 0
21.2730304169641 0.136582545844373 -4.36990698271671 0 0
-145.146709084234 6.17465635483823 -19.2511614721172 0 0
-214.620597990353 -8.98185690637532 -0.917681095146719 0 0
-196.98399479035 22.8778451480077 -18.9622514542477 0 0
-192.246228578313 17.4898166915329 -25.2545681537931 0 0
-99.8590282302872 1.27982867754388 -9.89832457196161 0 0
-181.640420631412 -12.9185784611555 -11.9946838690044 0 0
-146.736170773129 -14.1207915685724 -4.70078131074036 0 0
-162.323183579236 -1.67367042040576 -18.2701620639364 0 0
-107.908306062092 8.02180575204841 12.8680293089295 0 0
-194.244561459271 -20.7361694931632 -18.162648325101 0 0
-118.465706194746 -5.90461388224752 -7.5365774112927 0 0
-87.5193746881717 13.814158505854 13.4202915754086 0 0
-10.218946571895 21.2076175372652 14.4510473196512 0 0
-90.9264624847287 17.0471733277096 10.7965091949726 0 0
-178.220376069472 -36.7216598638259 -0.961862007714944 0 0
-169.784443070848 2.37792005663064 -19.0911230036588 0 0
-150.107359913225 -15.3475774556246 -5.12118876307389 0 0
-167.95292021019 6.24110064936878 -23.3918411523958 0 0
-17.0265222458449 19.2546747657821 2.4241019346205 0 0
-192.116653158906 32.2039808413928 -9.66989332672197 0 0
-60.3520610964749 23.0926295510372 4.43645890078052 0 0
-180.544135110934 30.6266578710133 7.60670428039775 0 0
-123.848942853224 19.1581824645868 -13.5208345128243 0 0
-109.645995901449 3.79424819337542 -12.3214233321481 0 0
-201.172989955033 -48.0118192622036 -2.3320847699068 0 0
-214.971835501897 -8.96256908715504 1.30106656091722 0 0
-167.444646109152 13.4458420082457 -25.4262689133496 0 0
-213.932361785324 -13.8744720674986 -9.01079028231778 0 0
13.277154459995 11.2810779227746 -2.09910318882122 0 0
-13.5537884838972 0.337788856141482 -3.55530567477617 0 0
-128.42254330152 -9.09820119355251 -6.1843275810628 0 0
-199.358216993745 24.1551322580703 -13.9174633309986 0 0
-137.561808853907 2.87339798778208 -17.5635022280693 0 0
-214.201478982486 -41.6188090272845 -5.34031763642517 0 0
14.9090368206143 0.812350332671882 23.0101368991758 0 0
-7.07143954206966 15.1727750883569 20.3696136005305 0 0
27.8365910645358 -1.90149396694327 22.2998726474067 0 0
-214.959864930238 -10.682324761533 -2.98246437718486 0 0
-161.014427533644 6.83198642642528 10.3205175562445 0 0
-191.07990976008 14.1784447776012 9.33227289821044 0 0
-220.269085961356 -24.6142890171332 13.7481131192407 0 0
-182.34881772707 32.8979122423623 -17.076039079092 0 0
-17.0817165682625 12.7359701989895 -3.50060312051635 0 0
-68.5614318842449 22.594375974651 -0.386873041385514 0 0
-69.6461794773997 1.75660700141549 -6.48481440122334 0 0
40.5381928179175 15.1625075677957 1.49716390960669 1 0
-186.508232581436 -16.3402593047745 -14.5140448069932 0 0
-180.925314196544 -15.5461793095011 -11.3893923028521 0 0
-74.8045314612571 -1.81306741255824 -3.57634744639335 0 0
-185.600752860111 11.9467907107245 -20.174984984612 0 0
-155.431664412333 -16.2546693530762 -5.08892336209186 0 0
-150.984458007434 -13.0953047978847 -0.153617826050774 0 0
-194.237948904384 18.7490259998326 -3.03632874348139 0 0
-184.860209979176 -26.5498574709369 21.2073836855475 0 0
-204.922727748719 -5.06153241996319 -10.509018572263 0 0
-189.341644994616 6.82923232904254 13.1995542641181 0 0
29.6022903149516 -5.65129227096792 10.3989984833693 0 0
-135.111310312951 -11.381197285075 -6.22149573909616 0 0
-206.06524957071 -23.5822695559703 -17.4861118359969 0 0
-105.879475242648 19.7548731296438 6.9241995910946 0 0
-56.3325028298245 0.259845885967228 -4.07871359072124 0 0
-185.220750409458 34.2059193720712 -3.52617907140583 0 0
-97.8982306886411 7.53975334732199 -12.0801870095698 0 0
-111.558680388486 10.88402230727 11.4303912896412 0 0
-32.2241418623432 16.6283221835585 18.1143574017006 0 0
-189.257336706668 15.0360567034749 -15.1024926855198 0 0
-130.902461308499 -2.18303721193487 9.84042704578555 0 0
-40.2418416691535 -3.7908686762732 8.47719042640003 0 0
-194.015370856519 18.794253984136 -23.547151247349 0 0
-95.5781348793819 8.27018936085035 -11.9915515213418 0 0
-203.961952658413 -47.7777715052696 -6.04231422207091 0 0
-205.153140933659 -0.595975962073271 0.598996996645069 0 0
-32.6985547726045 4.09753956209871 21.2457986970652 0 0
-167.751757810744 27.8562931581313 -21.1807979317748 0 0
-188.507934988029 32.5606096216154 -11.9428750139692 0 0
25.5081554426806 17.5799218204851 18.6860590434316 0 0
-200.473040412504 -4.45462079479531 -1.98202488916443 0 0
-192.635269487922 -30.0144411111635 26.2982036969007 0 0
-181.21100896835 34.3887604258092 -1.58414793259206 0 0
-166.617463530003 38.3354024220926 -1.28853607541152 0 0
-44.9644036719452 18.647802942191 15.2116607758241 0 0
-213.879894981499 -11.4206580167066 -6.41003217723236 0 0
-3.64504514781201 -1.74920495118099 0.838773015497041 0 0
-32.3420911351948 7.61424076617354 -7.2048014479103 0 0
-184.736652917572 1.32176247148063 -11.1098160735875 0 0
-158.511920828851 24.9641931131689 5.50439566122331 0 0
-28.0772647281862 22.3323105419937 11.0596795860107 0 0
-16.8581935984948 20.3108630099462 15.5626856699231 0 0
-189.867144407131 10.4590503911723 11.9923837262843 0 0
-18.0350235362363 -1.63641655871113 0.617945985563169 0 0
-208.728660482261 -7.41040922110168 15.8055736779756 0 0
-211.643280861027 -6.78000556838388 10.7363109826859 0 0
-194.633195670421 1.09519722099668 -2.11508647359708 0 0
-128.816197344848 -11.0385324005552 -8.65095679930444 0 0
-144.628791304354 19.5590058924849 -18.2774622104144 0 0
-216.835536723978 -26.3061651914048 -10.4743272198863 0 0
-122.811233456778 -0.569221093227874 -14.4524023515817 0 0
-146.133320883329 -3.74281552666511 11.2535147758295 0 0
12.7816648056565 14.5166554364285 0.106080487892992 0 0
-58.7973190898985 3.84354764051427 -7.43243019578865 0 0
-193.689846026702 2.53559399275708 12.0221176006604 0 0
-196.256364414491 -43.6879191952027 -10.2682075273864 0 0
-195.771866971058 29.807706313361 -10.7609921982966 0 0
-204.517280706593 -2.36039100571598 5.41895102958688 0 0
-150.09897819484 1.34168756069803 -20.0888021843248 0 0
-200.2764941177 -47.8156276639478 -0.569400820899269 0 0
-184.909694723096 -0.883510502276434 -11.5986208395781 0 0
-141.657440511359 -10.8706978109701 -3.25816362729731 0 0
-180.587314607138 -38.0254167259355 8.22109401262425 0 0
38.5054341420912 13.9536811382582 21.5657049956707 0 0
-199.080413872209 -48.2120825182286 -6.36465206239273 0 0
39.3469592863604 3.95944756742754 23.882229511814 0 0
-156.828564130086 15.4723022384188 -22.0181093724296 0 0
-170.214646040766 22.5164779910995 -24.1877497451489 0 0
-117.995437245059 -3.16024002316663 -10.7826513404092 0 0
-179.27692856245 7.94548812832276 -18.072866279443 0 0
-215.933512130056 -15.1578753284153 15.7527824068548 0 0
-176.697741436924 32.1788001752438 4.25540984116686 0 0
-24.5886240178916 -3.5202335148926 12.8536787696538 0 0
-170.194146888702 -2.24126581559834 -15.3223774885336 0 0
-21.0841936333701 21.1215820099303 4.88695661777205 0 0
-174.489018542434 16.4412547664297 12.3169856468974 0 0
-181.287052422591 -34.0523074624725 0.0323069503482916 0 0
-185.901895123451 29.7635035934498 8.7904714817567 0 0
-101.495068976512 20.2335881380453 6.96853424775742 0 0
-158.401971763992 -4.31943564442492 11.5731526236634 0 0
-147.870365518925 3.57025450185051 10.0455652911061 0 0
-140.76240266841 -4.36769760867923 -18.331518864147 0 0
-131.254833296897 -8.89916158753894 -15.0895025006969 0 0
-155.726065000292 -0.0726226381964746 -20.254048004229 0 0
-187.375140826428 -19.3338549624273 24.3508397089116 0 0
-137.117573871807 -7.08551240888969 6.81963383923364 0 0
-156.71792092671 2.4205644492768 11.4182151823804 0 0
-154.382640457836 -6.02253586398218 -18.8800493459694 0 0
-166.32256647819 -12.3210550821998 -11.0228449033565 0 0
-145.66152470729 23.1265860587737 3.61862323509626 0 0
-170.945382892972 18.9251108290139 -25.3614377588585 0 0
-40.8452179019563 16.2665746899606 17.7245257211716 0 0
-17.2999989681608 -4.09374807606271 10.3288289102346 0 0
-195.002504146351 -49.9677097615701 -0.000372513203293673 0 0
-180.402465627086 -32.5151530816178 12.6915638366857 0 0
-211.810984009582 -5.81202629566261 -0.0414917166901398 0 0
-204.239078176528 -45.979886054525 1.50392874715197 0 0
-220.433373202592 -31.5018626991158 12.5162148912504 0 0
-197.42012004823 24.0140816302143 -17.1895263422666 0 0
-165.113674492664 -1.48121275067019 -17.2295529881266 0 0
-49.5071204131652 -2.68242477259549 1.44678899772409 0 0
-112.29752110373 12.3787541692631 -15.2095259527875 0 0
-192.641954365654 8.23967998102476 -1.20163855041461 0 0
-193.193056542685 1.42619029807002 -4.44579282282196 0 0
-205.806372119174 -47.4971798091976 1.10915564471644 0 0
-115.839978515668 8.57490154222374 -14.1376535424405 0 0
-164.908505545136 29.5781708762039 -19.1324839943461 0 0
-194.812391938673 22.565621533291 5.76083639502924 0 0
-132.489540921588 -6.19971687848876 -16.0634019502552 0 0
-11.8260015613255 17.9561562127832 1.46947003815566 0 0
-100.227932839555 -0.992635590812403 -8.52613850168675 0 0
-162.229493628035 -15.9516124215677 -8.1297788195111 0 0
-174.22259358359 -18.6210825029941 11.6456169133507 0 0
-45.0875443914664 0.661747622628727 -3.92704009832783 0 0
-201.283129805854 19.6135193407527 -9.83922065226968 0 0
-9.49407082778598 13.6456710894256 -2.102126215881 0 0
-184.368629404912 -34.8421858312142 20.7355374184812 0 0
-180.861814659106 -38.5192555388181 6.83344467916266 0 0
-23.217071937739 1.16296523441857 -6.43376617721085 0 0
16.2088020331878 15.2451331931744 0.811001923206705 0 0
-182.680849410964 -34.7663038225616 -10.822392966411 0 0
-204.641084025413 -6.87202683752514 -12.7553254228432 0 0
-118.270826576076 13.5954953030786 -16.4386052072253 0 0
-104.475270807136 -3.41488822201345 7.43791230225059 0 0
-204.470964198295 -2.31600987083083 -4.9097030269873 0 0
12.1936262042299 7.34989444823309 -4.94594636033029 0 0
-167.235644645064 -18.9904119880904 -4.86381761082591 0 0
-181.415962774678 -32.8033110294096 14.938363797474 0 0
-119.001287722753 12.0680771352607 -14.9728060302117 0 0
-211.807217637811 -18.1766023616382 -13.2955985324442 0 0
-37.1227793707611 7.11942265265305 21.2108607057146 0 0
-59.729544440584 -3.8108413724395 6.78399339298338 0 0
-173.13990335074 15.0913826142553 -26.1788842369435 0 0
-165.559859959923 2.41597279638849 12.9531673363469 0 0
-160.420010062995 -2.4761742717923 -17.9784921867534 0 0
-175.638238956136 -15.862191021693 -10.0639960180881 0 0
-216.286622121617 -28.4176961006825 19.7908027066174 0 0
-136.418224543262 24.8887161749915 -6.5705783939768 0 0
-201.853214636649 -3.70456746272478 2.77181696125842 0 0
-71.3304016981878 21.2588733728208 -4.1110382142644 0 0
-181.943112324194 -31.6809771704821 14.8812992188842 0 0
-125.24897629374 23.4392702370367 -2.44110557297388 0 0
-113.77870897498 -6.18152573038063 -4.6270534223009 0 0
-31.3344123443829 0.262760276120998 -5.15876639109932 0 0
-103.997175181115 16.2053996453828 -12.3463108991274 0 0
-218.629766417651 -36.8514670247747 11.7708578649785 0 0
-192.382191491241 -7.9465169121741 -11.1849355757208 0 0
-192.742070640382 21.2208600210919 9.64724583821553 0 0
13.4669883178079 -3.65646270840008 5.20365367563918 0 0
-197.944124660643 19.7149566459419 -20.1769355319757 0 0
31.2815161300795 7.59590306624919 23.6687415687652 0 0
-181.53377726423 33.7828293802571 -15.8947067101925 0 0
-126.202561413638 18.2768903019144 -14.6215972815328 0 0
-202.527880313743 -46.276869340369 -7.37455602224115 0 0
-161.180695473269 22.7275128147932 6.60386512312148 0 0
33.064851434476 8.82978653419719 -3.36689027164619 0 0
-185.525477309321 -44.0649550270837 9.75261071084815 0 0
-130.589673983498 18.7321858193882 -15.0343163133963 0 0
-159.469331632433 22.2864625877918 -21.3722823936162 0 0
-99.1933879100388 -4.79507832763275 -2.68810928902806 0 0
-88.7717891223879 4.86375327538208 -10.1741659543823 0 0
11.3436905241024 -0.168921474643401 -3.59892104217894 0 0
-21.8525079103773 -0.12140117677762 -2.3403143501465 0 0
-148.466751938962 -10.8914397440971 4.08097437361708 0 0
-221.030785765983 -25.6382114513605 12.0262159633063 0 0
-183.961561755287 20.4898359378223 -25.1904239738156 0 0
-120.584538768283 12.9202228908293 -15.4299309627263 0 0
-189.606208109021 13.9028545190572 11.5159960137993 0 0
-59.9994610444816 2.67843582577823 -6.45869418294176 0 0
-206.829218682544 -38.4844472205304 -13.293465967151 0 0
-165.053625257609 -8.63881276518996 -12.9389212556122 0 0
6.51146115461618 18.9680207993873 17.517777125506 0 0
-76.1567688000147 16.5640764914343 -7.98217606142217 0 0
-54.6252770411416 -1.72362314135453 14.0891735913691 0 0
-128.087652033493 16.3518237165471 7.38599485619329 0 0
-189.898147755086 -47.2476510205552 -1.07770453891936 0 0
-205.911285468908 -4.46238431152639 15.6778507078845 0 0
-190.246249158179 -34.235919836496 24.5106027116159 0 0
-95.5574403974227 15.5160860570527 11.1375033428535 0 0
-180.995578647106 -26.7648823369234 -6.09699153598965 0 0
-197.442092166606 -45.3561427850908 -8.34149101157917 0 0
-71.1623715976813 2.4363658531196 -7.54031606895246 0 0
-148.184606699061 -10.8975681948239 -19.5166625572131 0 0
-96.5759610823874 9.87677477130189 -12.4680903388712 0 0
-197.352693307214 22.8093723568605 1.33587158770192 0 0
-136.913917564259 9.07003510701226 -17.8525956628913 0 0
-144.602232303025 26.8391518914971 -9.00016799614979 0 0
-33.5160731953051 10.7669689472306 -7.2293264790117 0 0
-74.4810066680098 22.607422943186 6.66497000077455 0 0
-186.857576949861 1.31181776848477 -10.0132526345998 0 0
-167.934942178437 38.7401231153326 -4.15278047355252 0 2
-199.276310897546 22.0282509563885 -16.6783930030438 0 0
-182.63345612437 -25.6140104849082 17.5860266753255 0 0
-96.7909274408092 22.7995418262937 3.64047639828513 0 0
29.211197264715 9.4037796618521 -3.05874963569218 0 0
-191.48687904283 10.2599492795502 -2.68701841292506 0 0
-132.828779907623 -7.74220705548914 2.09186227167544 0 0
-182.764436962971 -11.1487465553347 17.926671082149 0 0
-218.628696231007 -33.770500264155 14.8544565196008 0 0
-176.620970525121 8.00357050404267 15.5589422411716 0 0
-187.606358884123 -4.72891106140943 17.6096227971729 0 0
-170.127857022567 -7.07748626730578 12.5525485188557 0 0
-182.158431618236 -29.4172196609187 -6.17509085716247 0 0
-116.381096076552 22.7048687134671 -5.93443679001263 0 0
-12.4802493811295 22.0294944139439 12.1695221563593 0 0
-174.625435361342 14.5793370551354 -26.0505718901997 0 0
-157.94949599814 31.8391518790236 -13.9534565724205 0 0
-155.941418368043 30.1509163132037 0.392288796791403 0 0
-64.5865592369384 -2.61721033841114 -0.841171108511243 0 0
-167.816014525114 -18.2077593573707 6.28948426815255 0 0
-72.1241039700427 17.0313977798221 -7.38860487519927 0 0
-178.168314754647 26.341386818306 -22.9078671013849 0 0
-159.976172447505 -13.7855209758116 -10.5251567496542 0 0
-26.6950574114528 1.37687772677068 -5.89965342392095 0 0
-222.31145898218 -24.839657714099 2.76383508607609 0 1
-178.288757657052 28.3075897519388 -21.6608948927861 0 0
-168.077543431881 -13.3490155148741 -10.5276433547531 0 0
26.0322606945141 -5.82166662003717 13.0599743567613 0 0
-113.246448027705 17.9794205468002 7.57615836824821 0 0
-196.356369531056 -10.5839030950907 21.6404122592414 0 0
-200.476198478223 -7.70892441329923 -8.17353662878614 0 0
-65.4572388898083 20.6641423988611 -3.9200412701905 0 0
-184.628312182874 -14.4834163357348 -12.5257407607052 0 0
-160.70324511386 25.0340449182525 6.09843646791996 0 0
-203.63234039498 -38.0344739405932 -14.6852322062787 0 0
35.213382885608 6.86842802273649 -4.73913590716421 0 0
-215.591046802174 -12.5879797613794 -5.26880811606439 0 0
-86.6169034385428 10.2661264390895 -11.332118218812 0 0
-215.973664316229 -12.5093344241043 12.484460538668 0 0
-177.905005168424 6.8902463297189 15.7191968312624 0 0
-148.937779553807 15.5351003727562 7.19847922472535 0 0
4.67377547007654 17.0425429047344 19.3213843004627 0 0
-80.7486074334651 4.69797000875576 -9.25887960722031 0 0
7.64751836856899 -2.80926277770545 2.89190211172185 0 0
-13.3747870908066 1.90591386072931 -5.48800441925116 0 0
-45.6388205311054 -3.70241507509239 8.34967363417902 0 0
-174.078172498552 11.6749770170453 14.8140560247428 0 0
-178.476821894534 36.7141887254907 0.00535414217122801 0 0
19.6227669801675 18.6193240558767 5.1879773786138 0 0
-199.788387944365 -20.7863443771344 -18.2670316953974 0 0
-184.343972380115 13.3174908325259 -6.43988870786325 0 0
-175.137638091019 -20.529722736299 -6.64607085040574 0 0
-9.3723660094022 5.1205956029352 -5.91122590040496 0 0
-192.03837449169 -10.9500109163954 20.9863936705065 0 0
-181.101134421188 11.8110800577377 -23.4776511784564 0 0
37.069603817451 -4.41223658204843 5.57438325800243 0 0
-4.22644958886398 17.9125503587737 2.13156315451116 0 0
-201.943638155211 -47.9191386951361 6.40983423711523 0 0
-3.99330273146657 15.5648445802797 20.222644592248 0 0
-132.606591269208 -8.19246001097103 -1.31350295739301 0 0
17.2551499442033 20.6502430239381 13.9080282396389 0 0
35.9649499574863 15.6950443677173 1.89422889945935 0 0
-190.917993027144 -19.0659817666926 -17.9202545366886 0 0
-188.73319362058 -6.7262129755436 -11.9238907074624 0 0
-194.406924793652 13.7046230515414 -23.5579286015999 0 0
-102.903135775597 22.737760456946 -3.44898834427497 0 0
-38.4543730199324 6.42613742443324 -7.2703203896657 0 0
-192.699126633615 0.221515141320389 15.0340427037836 0 0
-4.55426381266134 4.64609597576106 -5.64378612086266 0 0
-219.843883703408 -34.0648981333223 11.9207942974168 0 0
-37.8135442646481 2.12349455778325 -6.51573421487895 0 0
-181.260251303219 15.0759503651288 -11.0686430684514 0 0
-141.658884023287 19.044108065147 5.87149923549925 0 0
-68.6509742029238 17.6848335593768 -6.7252837373698 0 0
-148.413066145995 -18.6478803821872 -17.2107295402122 0 0
-22.2091281804702 17.8013340600081 0.0585106106917353 0 0
-13.7785593639562 19.4111390469765 3.0878423216099 0 0
-69.6408620931375 21.1208112550325 9.8546194315211 0 0
-151.236873234547 20.6668093466557 -19.6211574999869 0 0
-172.896090997848 30.7338432432676 -19.1645401528387 0 0
26.5054068922538 17.2844487957365 3.55149739023607 0 0
-164.873225233241 -19.078749402377 0.680062203685494 0 0
-129.620468591144 -10.6025628061446 -12.2605402333042 0 0
-213.952718459851 -17.7868615041295 -11.3947916908057 0 0
-7.0424481011639 -3.08138023498819 17.2705409139855 0 0
-147.645327832982 20.4891314215251 -18.5137294147683 0 0
-86.9447749273951 0.128338208230315 -7.57302910622023 0 0
-172.943595647965 36.798053679452 -10.4448984339062 0 0
-180.324515356903 -35.9320296297575 12.0710417414341 0 0
37.4929197663834 13.9481932676071 0.407497563923862 0 0
-183.725356460876 -26.4336371246552 -9.18426807312849 0 0
-165.73853418546 -0.519014825270941 -17.9873208688185 0 0
-201.368428481455 -5.80067713555748 -9.21639073629557 0 0
8.15615602532456 -1.63354600722752 21.2083624999638 0 0
-113.934138278853 -2.22930868054253 -10.119119948854 0 0
-39.1510602985318 17.4359166475166 -3.05273924875855 0 0
-187.458325627365 5.82797178885535 -7.65250018535438 0 0
-150.128113491558 6.58198329767035 9.17513547220301 0 0
-156.782193682095 7.6276969855425 9.23655383566555 0 0
-164.083803161309 19.6419259242331 -23.5032539619032 0 0
-34.6583736759415 -3.77021600600115 10.3278780972254 0 0
-183.007945575181 33.8310340881054 0.820455590958997 0 0
-136.673934609495 -17.0371902903328 -9.42871590475338 0 0
-189.466488056298 -20.6269895846104 25.646176305711 0 0
-118.552770370272 2.71009148756048 -14.2048751616457 0 0
-213.511685644908 -43.4903289119481 -0.0896690202775992 0 0
-143.846398482016 21.2881460025673 4.77810324281038 0 0
-190.404835514535 12.0653392406039 10.8001733681443 0 0
-33.6865051584123 12.5124041098638 -6.03131090448284 0 0
-144.448908785991 18.4825132337796 6.19516733194224 0 0
-120.844492003618 1.76112326860163 -14.5280597922333 0 0
-128.166620485225 23.5348392806314 -1.52931467086788 0 0
-23.6158748955578 21.2203183508684 13.8479126143673 0 0
-191.437398959025 -25.7004158445769 -17.5468617750313 0 0
-201.906838587457 -13.8950270162258 23.5729019082936 0 0
-154.59248907131 -10.1501049261824 -16.7766016316981 0 0
-159.247769033533 27.3561860177834 -19.7418873234615 0 0
-135.116183147685 4.71700438939412 -17.2761863680269 0 0
-167.077396801632 -12.5390428681966 10.354858870344 0 0
-191.619050489005 -2.55460602542624 -8.61989013256582 0 0
-198.636596171121 -8.40126838808527 -14.4639387252226 0 0
-170.955083742297 -5.97377667605715 -13.3835253037793 0 0
-159.206246589088 -3.67288933350105 -17.9584462162341 0 0
-66.5449454656868 7.50378407856401 18.257727131265 0 0
-181.653038501155 -38.0264309644388 15.8155932103675 0 0
-112.765186490449 3.11134802142429 -12.7763293008179 0 0
-172.82820252725 3.99528531553209 -19.8479431752739 0 0
-73.190825539401 19.9282652617198 -6.15103443809126 0 0
-114.101116481755 12.6587694858032 -16.0799356100888 0 0
-161.677906457394 -3.50566543719405 -17.4701502384443 0 0
-47.9418558323115 18.5286129280618 15.0002083414082 0 0
-177.933657045941 7.50666663377751 -16.2201200772354 0 0
-167.272847963319 -0.517023806749186 -16.9643706428674 0 0
-183.146458510812 -28.507060918642 18.2997026881342 0 0
-173.52728537342 1.36968010143935 13.8216368019939 0 0
-176.885373897017 37.8394934848688 -4.32009400408681 0 0
-99.4076025960525 16.2668713804496 -11.966347929847 0 0
-182.554503878278 15.5966355852189 -14.8623264305151 0 0
-200.570846462492 -5.91092052160247 -12.108521126605 0 0
-148.617216408293 1.1477411456667 10.7024613938299 0 0
-176.766655298607 32.92223467238 -16.7737681104358 0 0
42.7162909351386 0.242234762051508 -4.30735518104602 1 0
-73.4617897964134 10.3547716358053 -10.0602254995264 0 0
-117.108393176646 -6.4536377073938 -4.45136552574981 0 0
-77.232548765164 1.55024971397727 15.5546440971685 0 0
-113.863620492982 4.68519144029757 -13.5779822396654 0 0
-189.735935173242 -26.1036260762611 26.270214322046 0 0
14.0901726035317 2.38646648515497 -5.18839538144537 0 0
-196.146569762581 26.4710572703678 -16.5045678336641 0 0
-176.008974138825 18.5919834697547 12.2403754971883 0 0
-211.015061377761 -6.08883952879092 7.59281478816417 0 0
-187.806934237471 -14.5962678366451 21.2440378297255 0 0
-197.651598167056 27.8295307635513 -6.10522568292916 0 0
-128.818802034032 -7.20945713394807 3.26346773144251 0 0
44.612476414842 -6.58813352711022 10.7964365265752 1 0
-133.982560629396 24.4673796988484 -4.18578829966712 0 0
-148.860489855464 -13.3318175736076 -18.933388840974 0 0
-191.566594439157 -43.8585931898895 -8.52937549989281 0 0
-86.2687761313364 -4.60690071155874 1.09353000465889 0 0
-41.3814324453242 -3.65169905761007 5.58073426101096 0 0
-183.229352541119 -26.9689905852565 -14.2013331342819 0 0
-162.696459607937 25.007120535343 -21.7568957532121 0 0
-134.379486900321 -9.60443164612376 -4.99255771095125 0 0
-204.146293853928 -47.3038924613343 -0.00226517650880119 0 0
-18.7703586851169 0.746475967950527 20.9135858061571 0 0
-27.0154418806299 21.9761774268566 6.1016631568312 0 0
31.7018687400288 4.86509254385738 -5.31048259781891 0 0
-169.302481901137 30.4232822751383 -19.2855890751119 0 0
25.5554415478372 -3.65117788741734 20.6515601381846 0 0
-181.922189791768 22.5434268506883 14.3461461206608 0 0
-190.447483974076 23.9508673314316 11.6476494982534 0 0
-197.771517357075 -10.0618664596974 -16.7022385721317 0 0
24.0996555577873 8.31054307022322 23.5276962298125 0 0
43.3714999457023 -0.0184956169972375 23.5491306695103 1 0
23.0685179142264 -5.1800030182668 9.51256431853056 0 0
-177.060652996524 36.2459407861587 -11.8699380362485 0 0
-101.423372493728 14.7409641818875 -13.2753395723303 0 0
-72.6224008514488 8.75850645252017 -9.77764274914165 0 0
-19.1628136676915 1.73470925701982 -6.15498513272378 0 0
-220.831148572644 -34.6941829344156 5.84613548664039 0 0
-95.2391363396235 -4.97857907183843 2.83262042694487 0 0
-151.396496209649 -19.5646007007098 -13.1938738826767 0 0
-191.271085434018 -9.09019156191504 -13.1284697929185 0 0
-179.816184782783 18.0994730046814 -25.5755808665516 0 0
-84.2427089930254 -1.44597130272603 11.9903269126249 0 0
-125.763169924252 -7.56763300386048 -4.45599522935287 0 0
-198.46373207651 -1.1187491368862 11.6152679414704 0 0
-160.875772086588 13.1425624260231 -23.4448499189149 0 0
-174.466976455853 34.6288596941548 1.64730767034761 0 0
-198.135710903762 -42.0542224605273 -12.2359206158658 0 0
28.319900436585 1.62008209020279 -4.8369276114037 0 0
4.61768274580729 20.4738832151835 15.5602713060926 0 0
-97.4644969424019 1.82696490135566 -9.72681841216805 0 0
-105.637718235044 7.52171305381765 13.2829987012895 0 0
-185.082683199331 9.25229666916018 -8.27897796312049 0 0
-201.499227245831 20.5578818244951 -14.1066634840589 0 0
-34.1661448957486 19.6619907197881 0.354961990901897 0 0
-121.551316362621 10.7177324178174 10.3689061593795 0 0
-185.526428374912 -44.9046709670268 6.67327743894749 0 0
-178.695630442344 36.8047026284658 -4.27522163927864 0 0
-84.2664551503107 22.6775653388204 -2.24482428242461 0 0
-108.244864536026 -3.6576948379828 -7.45658053540861 0 0
