"x" "y" "z" "f" "a"
212.572621862699 40.016076319191 21.5320955342192 0 0
178.213285300623 -3.41628004256797 12.652382341321 0 0
222.932336537253 -23.4303718618596 17.3512238290984 0 0
36.1800497720014 -9.65653090664661 -24.742495597328 0 0
92.1386863057785 -15.979271607994 -11.3010584837797 0 0
-11.4645794849869 -1.1524856895415 7.5953664642714 0 0
5.37116849109586 -16.3054921412105 -17.5689994633266 0 0
174.002541461175 26.2202914908576 12.1895960503701 0 0
182.180434114097 33.7516630987898 0.313264689772426 0 0
84.3844730565317 -3.6620027509414 5.91278953996302 0 0
207.655881070528 9.26417931974313 13.1096606414822 0 0
117.796559739292 16.0011090040619 -6.01858882780318 0 0
206.316063551345 -26.48768840275 -28.6826610335747 0 0
206.088846984688 -30.7254300550755 -20.7265960732749 0 0
187.116062732777 -33.2793509468272 25.6441272509534 0 0
148.650809686428 -18.683134319539 -2.10478189627406 0 0
214.440083242003 -9.20539098951039 -17.8918968662512 0 0
216.647579709073 7.00597663718105 -11.211146073245 0 0
65.903614623578 -14.2552009441455 -18.188139687773 0 0
11.7683915831072 -3.76150354153876 -26.4011846569998 0 0
79.7425472609057 3.55057162147888 5.03509002839131 0 0
183.051523315157 17.4152721966435 18.6932779247287 0 0
29.3243416180568 -12.7860867270659 -22.7874157036758 0 0
177.185646633257 -28.6000387019483 3.0490418869972 0 0
190.324879287054 -30.8885687271559 -15.1594143010191 0 0
197.435700744247 22.6085062246884 -20.4387677036639 0 0
204.842716867086 -31.9889592651804 -14.7602667139819 0 0
173.520898009988 5.5599285402947 11.8542132409369 0 0
211.135628039375 -9.53015106472175 9.57054468634354 0 0
210.575294896075 40.8109415289326 6.95325278840031 0 0
66.2859974244704 -15.6949734199999 -12.5491644865998 0 0
221.784577720547 -22.3192677882621 -8.80872879449314 0 0
198.254380953634 -26.1110701032952 -31.4904581789574 0 0
3.24233225150959 7.61175900979106 -21.3593745974482 0 0
177.601892798554 -6.65871077565541 13.185876724033 0 0
172.65074688313 -10.1964962561037 -26.6653782278964 0 0
9.32611969924619 -14.1886637724382 -6.28736631505036 0 0
196.37201984677 12.8605809965856 23.4126638904966 0 0
-33.1634315538512 -17.7092755523328 -11.506470927925 0 0
-38.5272085691958 6.13789497548306 -6.04727990994453 0 0
91.0243062946483 -14.3860319889838 -3.13847936755723 0 0
172.989079890886 -7.01608579759935 -25.8506849794443 0 0
43.6986399645744 -11.006311210498 -2.08923289203429 0 0
210.19207442681 39.0794364778389 2.46039650926942 0 0
157.36867402771 1.6689374077067 8.61720990946225 0 0
204.771010573954 10.3251756664275 34.5188233051165 0 0
110.453739742988 -0.956245724012037 -24.2898603961236 0 0
196.15523503099 -9.54461922937536 25.9908590016345 0 0
194.372750259985 -27.2183067294839 35.6378340382525 0 0
122.069684846401 16.667638755635 -13.3600947178153 0 0
63.8328796763173 12.2145050056692 -9.71690671347106 0 0
220.764752190915 36.31930974229 2.14705168882615 0 0
188.645915892064 38.1487096284142 23.7365739977559 0 0
140.285966920848 11.1251340670947 5.83107331213244 0 0
161.421781333199 16.0129236683473 10.0349657474453 0 0
175.996446708561 -10.7056144275804 13.6995052270086 0 0
19.5598711305959 1.69185152606248 6.36101569496021 0 0
14.9379562948699 7.5174035397301 -6.17039430055462 0 0
210.443102082422 -11.0791920729466 26.5705928803413 0 0
177.968555300161 27.1558322543787 -7.83139748276666 0 0
184.840915917704 5.39040179714614 15.4694737192986 0 0
191.552291213057 -2.48234828713096 18.0796058923434 0 0
187.646978710122 -7.87375674511632 21.6542696598886 0 0
205.815944426529 39.3780905376575 32.83962159584 0 0
193.855491216245 -4.33131540794322 -29.1152014518961 0 0
-24.4129236331618 4.94198149008429 -22.4565203974164 0 0
180.711042409487 21.6849240256839 -16.9331603059955 0 0
181.848404446367 34.7279512295926 2.80156418314239 0 0
95.2030997743821 4.01326932292251 4.83010648693082 0 0
226.705143206485 28.5304795335162 20.6016631468306 0 0
201.300121664068 -33.7591186019961 -10.1047728982025 0 0
176.800365775655 5.27755240150451 -20.3091231363647 0 0
214.801303754831 -33.6347501608946 31.9254075098435 0 0
137.636694591656 -17.7122616021517 -6.43401054074239 0 0
222.983371611858 37.8324083198105 14.2421021863715 0 0
160.402387484513 8.89641570969595 9.30317093469621 0 0
136.625294243468 13.3109303109572 -18.1558165858055 0 0
92.5517496258766 -9.22046069614215 2.86543719078394 0 0
204.721897091125 43.0255824415974 14.2979683338297 0 0
180.305049974697 36.5117531213172 16.0089350120356 0 0
223.567772327785 -25.9918759082309 14.8275620160229 0 0
205.636762519923 10.2146245350488 14.6269240739524 0 0
187.747089751784 -34.5330455610106 24.1725191211527 0 0
192.440276296854 -39.3708322129664 4.0869630384624 0 0
223.618069343759 22.4707229304232 25.6542323148153 0 0
-9.26597401894247 1.78911119744275 6.29834269306219 0 0
187.573913897694 18.8146759794098 30.2225910203423 0 0
216.849975002667 33.0560637950333 -8.76055031595926 0 0
12.1740300640659 9.43683642121851 -13.8724585608225 0 0
63.0772216645108 -3.08632040961738 -25.4605544830107 0 0
210.265944799996 12.8097811545218 22.2173624981696 0 0
205.364910038881 -2.70649636592033 7.62089494031786 0 0
204.813599539615 -24.7493354255673 -31.177730507393 0 0
111.655871982589 0.975818278391588 -23.8856966498937 0 0
222.291459030635 -26.094127900859 20.8583271979589 0 0
22.030047382866 9.83543134911062 -18.8449288091245 0 0
194.668609431046 11.4712973291768 20.1907253101273 0 0
86.1363422998684 8.50318065261977 0.782973443381353 0 0
-32.7633634154256 -16.0213820194755 -21.5806520442354 0 0
-35.6438040082197 6.46247301567947 -7.19324849321128 0 0
46.0191515651419 -9.66694991163372 -0.907362485415751 0 0
160.800120664881 21.8723153281117 5.30402178671358 0 0
217.302355189632 29.1991645159554 34.7718793587644 0 0
208.724352513387 43.0307016335975 8.59810262787842 0 0
219.6274430288 38.9667821748658 19.6056970274282 0 0
185.309348454936 20.5167447488453 25.7826822918797 0 0
204.456824474194 10.944996772293 16.7262016589291 0 0
163.063649407172 11.8530261567657 -19.3443153231041 0 0
166.000967189452 10.7534809343006 -19.8573539414877 0 0
192.539373270606 10.6823593604688 -23.5760213322221 0 0
39.8735553193308 -5.72792712248803 2.49933264682987 0 0
180.273900379161 -6.08653316482344 -26.4684837421931 0 0
199.519303209965 -41.487747961406 13.4598690709209 0 0
89.9412433666781 -15.487995672654 -5.88197254979317 0 0
176.465307502256 -26.5094378667606 14.6887079692131 0 0
201.279981479954 39.2439826570282 -1.89536798810615 0 0
-17.2707213352604 4.74461616205946 -0.920725834175837 0 0
61.0620632430121 -13.2091302489836 -3.8789096144582 0 0
216.611120677343 -24.332898799342 -21.0347415715095 0 0
174.695622225636 -24.4861050772852 -9.63855356915599 0 0
87.8082677075176 3.98637493278742 4.78857724825447 0 0
66.7243773224911 3.07374280643079 4.93113945539737 0 0
168.099797959252 -21.8790938017965 11.1038511952732 0 0
209.412831560648 11.4747807370126 16.8158643466709 0 0
221.302774030883 -17.8887383743508 15.4160115969859 0 0
61.2122482278133 -10.2606263303902 -0.893708496007202 0 0
205.788727762858 -3.44564004590067 12.8213039474724 0 0
24.1028289339911 -6.47317131032518 2.43549186638674 0 0
214.109437767148 -4.82826039276974 -12.1720435863168 0 0
135.801662684001 11.9227904658235 4.72162118293196 0 0
220.925560139724 20.7162771727314 30.0889216342271 0 0
148.478681722745 1.66688027742405 -22.8244554757875 0 0
20.2864343805419 -11.8479401507599 -3.04795815336332 0 0
187.51301868873 -8.88663361917242 -29.4770844401429 0 0
177.164253363795 25.6091498853666 -9.85281754534578 0 0
76.7570480702216 13.7503919989504 -14.2046385320849 0 0
221.653252021122 -18.3946893659394 8.85129202451105 0 0
118.158328160777 9.09754877992339 3.81763773689017 0 0
72.7065568268885 -8.80166126537194 -24.0495964044483 0 0
-26.4617492547296 7.33344096868237 -17.7466511904588 0 0
181.046955550297 -12.8678102054578 17.5880390722877 0 0
185.844055733566 8.16460704015978 16.5869065595647 0 0
168.340812675219 15.1170569111409 -18.2032502803837 0 0
0.148514721364117 4.62814937987802 0.323765147913827 0 0
152.497359769746 -12.3136487277454 8.77485165006854 0 0
171.534212776564 10.0268512629166 -20.4389030651081 0 0
51.7261739353976 12.0504263566109 -14.8867976550125 0 0
184.285166385701 2.37479312455679 -22.0069498204876 0 0
190.128926285452 -33.7474669974302 27.4251372340649 0 0
-22.5928286261231 -8.84386511884539 2.16073236037095 0 0
125.104075856834 2.21061564979983 -23.2674919885671 0 0
125.804286199186 -8.14975405622581 -23.0657877230638 0 0
215.72790834709 31.545304093846 -11.4920180954848 0 0
216.08544387731 -16.4903214994026 26.8620688002538 0 0
80.836765872448 -14.5821391160521 -4.55715128612005 0 0
208.938114498849 -4.70212848524163 7.29688515452475 0 0
52.1526343822658 3.76011108498644 -24.1475811253504 0 0
199.627385142669 -27.4558411298733 -29.0251401696173 0 0
60.9760820586346 -12.6382014526376 -21.176155041261 0 0
212.638646217194 11.9317865051085 24.4774425300726 0 0
212.29217386414 -9.27291644894192 7.64024086162257 0 0
207.787827217246 -29.5404372261272 -23.4739832185485 0 0
35.2096178150949 3.15465446290553 -24.6440926367463 0 0
192.946379697969 30.6154452099221 -11.5677986970359 0 0
198.698977140089 34.8760263584651 39.0174751867706 0 0
199.730880788037 -6.33019973410879 20.5368041132198 0 0
218.339412986128 38.8978454701766 29.1872280507057 0 0
195.734538042276 -13.7136692878881 31.9373679512525 0 0
12.3310638910691 7.34834637949313 -5.95204525437932 0 0
-29.5207846115374 -1.43529755653988 7.27073556212385 0 0
208.61152763363 40.8288573474232 17.4858836598165 0 0
20.2705927748271 -3.95759576104743 4.70371038613365 0 0
211.711490483334 39.8624307256857 6.31157754082923 0 0
114.396511119978 10.2013044929854 -20.0293110568507 0 0
189.39614295458 -2.30786201716104 18.871035121123 0 0
5.4942536135089 7.18092229175736 -6.06909337463257 0 0
191.375183701257 -2.75197255118258 -27.8695346179563 0 0
187.722029950328 -9.52761119951091 26.5354224045808 0 0
46.245063529987 10.0271460457541 -20.6900013710645 0 0
9.58927103883015 -16.5666529324605 -13.7017130343377 0 0
220.635865428938 -17.4510710891532 18.0446886169729 0 0
187.044728111982 -12.9336325807417 29.6754237639394 0 0
197.88188006337 -15.8478549183128 33.7651220341119 0 0
210.910778776575 -38.666878161274 12.0931029421695 0 0
187.51578714132 6.17119459234171 -19.4726175035656 0 0
179.20565623495 -18.3177498077364 18.3242844436365 0 0
-12.2666115344382 7.87711007236681 -9.95590853227558 0 0
-15.8858162315019 -9.02298445726741 -26.1463289044425 0 0
-41.9744172304978 6.68075839725803 -15.9848443756913 0 0
145.249943870209 -17.4854335109208 -12.3209171873867 0 0
223.238626428839 -26.8652118592311 17.0309564427046 0 0
27.5144389674345 10.5447270897556 -15.9538881831363 0 0
177.046006611937 26.1237906246328 14.5281708751494 0 0
106.415537782901 -16.321698823926 -7.24053788205589 0 0
169.187959532901 21.946089128414 12.4668113852979 0 0
167.203480861252 -22.794725531831 1.39663432266092 0 0
-7.19711770727949 -4.27956571031629 6.54359792664745 0 0
-31.3183586081832 -13.9405709880093 -3.19458780307549 0 0
185.988843791959 -24.3928267730112 -27.5300860678464 0 0
157.740239248655 21.6685071943768 -6.64551559631367 0 0
223.645263187721 12.8099836631533 12.2962530137489 0 0
-8.51646194236297 -16.245763357897 -9.94174146129707 0 0
187.766797276134 -25.3408522419449 -27.3064182867714 0 0
207.862425270026 36.5128594247241 38.6202636510457 0 0
202.607979791493 -11.9418254444849 31.1262370986618 0 0
129.885632405937 -7.1267513649555 -23.4971578706962 0 0
182.379561544965 22.4723442611769 -16.995930937999 0 0
134.058380315952 -2.42414936686761 7.38513656322309 0 0
115.815187031064 3.863131810788 -22.8771958679975 0 0
-28.192720462849 7.41711361399487 -11.1666651418821 0 0
170.74803461515 21.7211857546425 13.3749883521531 0 0
76.0597368427215 10.3807691692034 -20.75185642425 0 0
72.9727355587538 -8.63437537226013 1.42464891312722 0 0
75.1790705615519 -15.8578809650837 -10.6394302045093 0 0
221.525436388691 30.3949393206342 -10.2672152184662 0 0
209.26271981764 -30.0963297921907 -21.1759625416604 0 0
0.0093617609404424 2.3968970606179 5.37226417341759 0 0
109.510752002539 -13.9952722778677 -0.0866745802147166 0 0
205.788201586544 9.79852356321888 33.4874383846601 0 0
214.927930331376 4.38085585000814 -11.1957885524287 0 0
216.52046814319 3.56366935565286 -7.0844480884324 0 0
-29.9258410606521 -8.61710592524051 3.01069009068366 0 0
-28.1763101123141 -0.324945894497033 -25.4316227192277 0 0
55.625625177862 12.1274358769243 -17.4139816757433 0 0
44.7490438782835 4.55191613141061 -24.0773901863852 0 0
185.989433079658 38.7843117873908 4.7358113984519 0 0
138.648255167787 17.0678712808017 -14.1140762325406 0 0
206.02397630512 -10.876414426814 26.5612139604766 0 0
165.417901152759 -22.2736354641596 2.47187361500078 0 0
197.317101057256 -39.8961629978866 2.5537011671527 0 0
34.2725231456153 -1.24245884316237 6.8535682631116 0 0
-19.1998254444878 -17.073949921151 -18.0964261556701 0 0
140.206869324886 19.0414649815559 -7.71018171893404 0 0
217.572503880293 26.591571306804 34.4337291677663 0 0
-18.8556443291521 7.34126897880019 -19.1763779314002 0 0
193.245871373303 -13.7871701081661 -33.9705151777696 0 0
-8.26086404866821 -1.76391454419242 -26.3483663927373 0 0
189.347737002553 -36.0124014033491 0.0312797328484804 0 0
161.624157671091 -21.0561049984716 1.72638856485621 0 0
131.293379620728 17.8543113418268 -11.1121035381388 0 0
208.858340397499 -16.1300742808888 -29.758955080181 0 0
187.547960736698 -38.3718758890561 6.86714709290467 0 0
164.397082566267 -11.0911742924648 10.601014737962 0 0
161.215054167531 -19.667812580298 9.54237377295619 0 0
200.677406886943 -9.67654163690195 25.3668395810818 0 0
-43.2044772212949 -18.3495317033492 -14.3637922274393 1 0
187.117437935667 25.7226657838054 31.7228450022662 0 0
-20.1402006640369 -16.6016520711504 -19.7276512075951 0 0
131.997975378209 -10.4679464012312 -21.9619771332875 0 0
220.250060578297 -39.9820737905962 12.1426842876433 0 0
-13.0000211220681 -7.70748631632586 -26.3943787661831 0 0
-34.2225852167756 1.98235658781259 3.02778979504137 0 0
169.498354013752 -6.87827554503356 10.8297300808768 0 0
203.266663986967 30.381777295007 -13.6064566435888 0 0
82.7981973249928 0.680028597534208 -24.570720997684 0 0
61.4011348629214 -15.110185175315 -7.37554741834781 0 0
169.098186246992 -18.9884859674162 -20.7260046601789 0 0
142.317403540613 -4.38248445479839 7.73271054222075 0 0
187.436200023732 -4.25390678514503 -26.5786183862639 0 0
184.082078957684 -14.0593177994729 28.8760917609283 0 0
195.100024838912 14.7900128283818 35.3926705651547 0 0
74.9323302179184 -6.78737269159419 -24.811172734683 0 0
210.317771511421 11.9903386003637 25.602344807812 0 0
219.998354038687 16.8535000001929 28.2404203409406 0 0
60.8980352243814 -10.2610242412079 -23.5495886865859 0 0
227.302150143113 21.3384155910286 -0.286956346146216 0 0
206.660028515727 -36.8968782378373 -0.513120505604371 0 0
207.035585399721 7.35367203005744 -20.3361938863557 0 0
121.559858643914 -16.620487592833 -10.5118084770739 0 0
189.723783985397 -8.36075483130283 22.9878077986903 0 0
201.443087230803 -36.6070518654819 26.6152337167789 0 0
45.4178755190924 -10.5444257541273 -23.8820362805466 0 0
125.288206017181 -16.4657124672654 -12.1000992249771 0 0
181.096365178141 13.1044156255 -20.5713564148112 0 0
209.61910445144 24.4434835502399 -20.9333455161792 0 0
216.081609974982 -38.8433747153222 9.88583074957467 0 0
212.211912105352 35.9270668812938 -3.66440651577883 0 0
179.170043349521 12.6512172572692 15.8213058238611 0 0
68.1787183650373 -13.4679038758526 -19.604000295455 0 0
214.598980027458 -9.8390198503241 15.2854130172844 0 0
142.267407807045 -7.17557943597136 7.70317172073977 0 0
197.352068764735 -8.93494111597231 25.2096623806035 0 0
215.805985475072 -21.4647967147691 30.2755282573685 0 0
214.183857671157 -27.0416992047015 32.8346492838713 0 0
193.332068814617 -31.4817592478662 -16.3647930150387 0 0
81.9263720417465 -13.8323094507221 -18.2315517970045 0 0
200.515925284251 -3.28987509673385 -26.925354076409 0 0
214.944338539972 38.1104403861898 4.61567198621509 0 0
108.806569497047 -5.33533871881512 6.97215509599166 0 0
222.855697066747 35.0818356718664 -1.53961662219445 0 0
146.147376670523 8.81156849960977 6.89002651949387 0 0
225.512350214364 22.9800755067078 20.7805255341152 0 0
49.4425219346991 2.53010963622743 -24.5420728827386 0 0
36.1903322416962 10.7373012737166 -11.9585190004441 0 0
209.496284556045 0.56408846589636 4.85500746500727 0 0
87.4540243900865 12.9250969093396 -5.94163040352755 0 0
187.800236212591 -5.85166473566068 -27.9312646112745 0 0
125.237629891047 -10.4255430603027 5.64847255778217 0 0
183.08061215966 18.972152996181 -19.6230492982658 0 0
192.681634251086 11.7258852118748 21.3535789698052 0 0
33.3580167212751 8.45881905671804 -6.11246230991417 0 0
96.5142965819582 4.1404060046936 -23.2539749209893 0 0
220.052044444125 6.37639828743016 -1.05314107587232 0 0
142.535610777717 15.2140864847436 3.49357074958098 0 0
124.094433652683 -16.9229228562014 -7.96007850787686 0 0
112.004711441951 -16.0117102324178 -12.8568142216671 0 0
203.468401317051 2.82895682347518 -22.1996202710931 0 0
173.183409478546 -24.1327583213522 -7.34890828731697 0 0
190.146489413602 -25.3989263910907 -28.771021713594 0 0
182.485494209831 -33.9191256555276 19.0324027416275 0 0
207.485397623964 40.1849396921834 27.1605804093442 0 0
105.131314855483 -10.8904624207562 -21.6013890284762 0 0
182.405971875234 -17.9386734585618 -29.6117722408466 0 0
193.174571170216 -31.2887927506257 33.4747288288832 0 0
75.7271496784434 12.0216422651312 -6.40108694431495 0 0
-10.4098960409935 1.62811636192812 -25.3308054321692 0 0
223.739418738196 16.5250572587886 20.7231004891178 0 0
-39.6415657486258 -5.92016813118751 6.68048495860587 0 0
195.919258686017 -42.2621380736469 13.218580479848 0 0
65.927426216537 6.23852484788804 1.1186594659961 0 0
156.040080167513 -4.41976348491384 -23.8182097557769 0 0
54.6338508534308 11.2301300623091 -8.89896297839266 0 0
180.911471912326 11.4341662230278 14.9388952146086 0 0
179.739238795664 -34.9095842832937 16.6370750448662 0 0
132.484217827132 -8.34071743196664 -23.0963849464162 0 0
217.109056018338 -40.4373291693738 13.5545689228942 0 0
-27.4692904979366 -17.759025851245 -15.1136252589094 0 0
193.563312034227 -33.048304565075 -10.6050686189654 0 0
196.141790121306 0.103742019828255 -26.2199384132636 0 0
4.03610167845853 -3.44889391442798 6.46615518529964 0 0
89.0991534550187 -12.4611198348306 -0.875453073223398 0 0
106.670657763386 12.4145377215572 -18.7476158760076 0 0
194.157132921869 10.0361460998896 20.2087403683996 0 0
170.961436847376 -23.2810603605681 -6.81485752483004 0 0
197.685450114032 -39.8688478619811 19.1572897534124 0 0
188.26846355297 -0.728458437113011 -22.8849395329248 0 0
195.154972846449 40.6616488154027 -0.129741481679758 0 0
227.157461018169 32.7955048047472 19.6244442347151 0 0
111.191416710176 -16.4304011261827 -10.2620064330063 0 0
194.741606782472 38.426657438368 30.3002343114884 0 0
224.393475408827 28.9349762097618 25.9046267859697 0 0
220.452148933329 -12.6157747005594 3.42433365222872 0 0
182.579495740648 35.8519319400746 18.1095769359404 0 0
206.578317319561 -33.6924930657498 -8.11547965979734 0 0
129.30904523071 -16.1222852302231 -0.175916811731706 0 0
165.358051828266 13.0691865494236 12.1947008050741 0 0
-25.1176569064457 -17.6427862588407 -14.2183569331844 0 0
31.8328776797469 -13.6503441924582 -5.52349599459558 0 0
79.5725742109635 6.76290042659614 -22.6082067123078 0 0
113.782342872085 -16.0089282158323 -3.64644599859002 0 0
217.659337124477 32.8013784919113 34.7416721671359 0 0
149.635993386698 -12.7094463614399 -21.7862251825871 0 0
209.199069850341 -32.3275790664612 -12.2508191691758 0 0
18.1409627758157 9.57856878842933 -19.0443778120932 0 0
184.908303590845 -1.00434147711408 15.3967342531168 0 0
98.6406099314568 15.4964279484926 -11.6762296961604 0 0
-41.6043067522056 -17.9799828616105 -16.7813623790814 0 0
105.791821213487 -15.0594216030524 -15.4966511102129 0 0
24.5310600815989 4.04899130417929 4.54488987635275 0 0
-5.27235073547466 -12.2680134121142 -2.94160772940228 0 0
203.802418037707 -3.29924956757273 14.0856555351536 0 0
-11.0479596157164 7.46336873881511 -8.12160434764673 0 0
192.502822726167 35.9284970514011 30.5447210400487 0 0
101.612335612074 -11.6935585162966 1.51802941417783 0 0
179.720945098299 36.8827161560736 13.6480164600828 0 0
204.750384447776 29.8095902521541 40.330033651428 0 0
183.217015593197 -27.432747977996 26.0992402030795 0 0
184.932318300141 41.7344207866173 11.3599606259523 0 0
80.7041476950191 -13.014390327861 -2.26544596612955 0 0
-4.65207878074981 2.68132531585921 -25.0231300565099 0 0
188.319493767281 33.5262316415343 25.5156927834399 0 0
149.31097006223 -1.07005063841851 -23.4767322226708 0 0
178.404333518469 -32.6262638328831 13.8660335978709 0 0
179.58827572153 -35.7340708551811 15.0643307650973 0 0
223.957070736076 12.7149139008178 -2.56585901668078 0 0
53.0933093210808 12.0833801703487 -17.0093608497055 0 0
21.7030972375069 6.12011323925475 -2.25347360349221 0 0
186.277422444713 3.93111516668825 -21.6492794898606 0 0
198.07239669997 36.8860202180855 36.8533607278207 0 0
57.2217292085495 9.45087698998386 -4.90390395215207 0 0
94.7733775308396 -7.25086951483036 -24.1196269924167 0 0
205.205683215005 37.011915951714 -3.61073202836745 0 0
167.798777242709 -7.53636701206353 -24.9225501427366 0 0
184.96277671569 -40.3152478336038 13.7583157433895 0 0
-40.9610650323937 6.89027035606408 -10.9906279266962 0 0
202.977675368191 25.2531448096684 -19.6855818719876 0 0
176.874527179593 27.7245747980339 -5.57702176985184 0 0
93.3521246736969 8.72125792227909 -21.4348743254139 0 0
-25.1669955658964 -10.6401693704153 0.31554905382834 0 0
165.855423145678 -19.1791920831471 -17.5911768062362 0 0
-29.4300009676182 6.57641798300568 -19.2144997298242 0 0
182.474058337997 -39.1064957310372 13.8882374178845 0 0
220.807542510114 -25.4921001953514 24.457439941468 0 0
6.31449978443298 -12.6346474064824 -23.9167685540328 0 0
227.080378529094 23.654559440992 16.1580007372479 0 0
191.483002803083 -8.21412499137283 24.0882792745812 0 0
60.2030070263327 11.5588514337453 -19.2885693154312 0 0
179.262397129593 -28.0524815121664 17.0187108899553 0 0
207.651320284111 -7.06097382295683 14.7121137014654 0 0
90.7198709369125 7.87855894390165 -21.9043512335399 0 0
-7.42858875954071 6.34711920236392 -22.1079866727422 0 0
97.3632010288068 8.75555703224485 1.71102906980694 0 0
1.37558251183024 -0.406622901619432 -26.0017489303369 0 0
150.920191916347 10.2562127768745 -19.907840809416 0 0
206.688977810362 11.1688413329498 29.5805969738546 0 0
204.261304999138 -33.3802919607453 -10.5702092906729 0 0
15.3658057366774 -13.2022764835275 -4.94831020205497 0 0
144.487291989096 -16.4724491027598 4.4597825267445 0 0
142.075878971577 6.01223842649674 6.85427034346118 0 0
189.001659561299 24.3543336086676 -19.1567637316947 0 0
-39.6825059867232 -10.0080520677711 2.44151845048473 0 0
203.75851669227 42.2702988762318 20.9686858608659 0 0
44.9772285216529 5.52014908714898 0.551633730116315 0 0
-45.9103237806042 -8.20359100684967 -25.7818189496457 1 0
108.066753560069 15.9050103136237 -8.83599354623506 0 0
126.124487746465 14.8204741643115 -16.577356569415 0 0
-32.4761792480882 6.11300100081693 -19.6968429411712 0 0
185.770508945452 -30.6455943990246 27.3094038346984 0 0
185.736075302857 -34.845449956561 20.8201750250454 0 0
-34.9381439375273 0.838279069388523 4.52891680388322 0 0
196.166426563745 36.3720273830755 36.2127199525891 0 0
193.706532287648 -40.7896858438241 5.52766237628094 0 0
197.726978059174 -35.1800091502178 -6.36117253506847 0 0
191.474228808247 28.0734104557135 36.1764707484696 0 0
210.030379593881 0.515226887106521 -16.6205387519642 0 0
219.084791727192 -12.322107505844 9.88998212135883 0 0
13.0639571117654 -1.599794109764 6.81125170118119 0 0
199.928908538247 -40.2598529796677 3.87435501219348 0 0
120.892315953525 -6.12589434355791 7.28233900625299 0 0
175.787994713342 16.5327885943975 -18.8586966530208 0 0
122.536859107372 1.49504054520736 -23.5250011660882 0 0
-22.7248455749964 -17.5573859577343 -14.0224302248179 0 0
10.0724163078199 -10.2385344404372 -25.2057518665739 0 0
121.395577726614 -6.41924730323676 -23.7171178308374 0 0
142.182455777094 -15.7690595969058 4.53741035094228 0 0
22.1380394925506 8.07755296181027 -21.9611821277664 0 0
119.564517629214 -11.1901192667662 4.05607128683364 0 0
-45.1963096248818 -0.376072838358286 5.91021009225031 1 0
222.959523167767 -25.4994310866035 1.2852825465879 0 0
-44.428033459323 -13.1928576899892 -24.0784983669316 1 0
202.484485103418 -5.24182024202134 18.7132971612535 0 0
67.8559184623969 7.70384142436279 -0.717488754451339 0 0
138.688874553806 -17.7633854576033 -4.18872466784577 0 0
222.65447415457 -19.9229972235767 -0.379228202254634 0 0
-36.6755556105024 2.2505932187596 2.60476344368918 0 0
-7.25748260381967 3.77953221137694 -24.3720915501926 0 0
140.287810248621 13.7441230861851 4.36760540709058 0 0
197.438168261279 40.9219966839742 0.598439418871096 0 0
115.562375355265 16.5394399577435 -8.57771680194733 0 0
65.7181493142113 4.99958870688404 -23.511167326352 0 0
134.759705525165 -5.73230787584242 -23.8653452849887 0 0
-45.8667134566011 -0.0487190048454775 4.99900082682221 1 0
-22.492436306431 -10.6619778313532 0.103108650231499 0 0
204.86127789201 -41.9401517500588 10.9459267395071 0 0
182.131795037215 -25.056694487108 -25.346221801489 0 0
31.6406894095861 10.6871783744776 -17.7004178760542 0 0
224.263837454621 12.1011755070289 6.67340967397213 0 0
-21.2140123773795 7.95973647216769 -12.3567489045648 0 0
34.6470998573435 0.308104296245142 -25.3232171759079 0 0
214.154737651969 20.476583386193 36.2180736232347 0 0
226.630303315092 16.1169023692336 2.80191887138708 0 0
200.15039779166 20.3690882263626 -22.557267322834 0 0
188.211907273777 18.1318701136039 -22.0123716674983 0 0
10.1411022341711 1.9446014132773 -25.3535502562468 0 0
163.861993777004 24.093590492177 1.02809833499384 0 0
213.22230860436 -1.26695203746004 -11.8188040912786 0 0
191.55925312656 -41.6147167499458 12.6224740156898 0 0
216.453983574686 -37.235287098344 29.3385011133184 0 0
-36.0262299624219 -17.4165826104453 -9.20379313049771 0 0
211.616852920487 -31.1231138284298 -15.764751052556 0 0
190.775426938927 -19.6938013978961 33.8074132387141 0 0
219.778324441363 -40.6502711502549 15.5530678314247 0 0
-23.1592428268932 -3.86867026451112 7.55456804637903 0 0
190.564841280377 -29.067011666875 -21.3706342502689 0 0
131.467908569863 12.1345669290228 3.54889461916416 0 0
84.1597766578706 6.68070792993372 2.77083018616342 0 0
184.889884544732 13.7069614835949 19.7323661979499 0 0
226.806349984438 33.4734018657644 3.15343971994467 0 0
179.519046609321 14.5991459314749 -20.2392612630387 0 0
-25.4382036325326 0.315857514987268 -25.341322112717 0 0
199.723620489851 24.1048761788905 -20.2995815129389 0 0
166.685417134061 17.8891659573653 12.7828054875251 0 0
102.644873909633 -5.78142435720198 -24.3258740458276 0 0
169.153351837021 -20.2344179568244 -18.1208894632543 0 0
201.376663209304 -7.97735505236079 21.8303459182353 0 0
174.52305563284 24.6221896601264 -9.65067100162998 0 0
166.989458310366 -14.1730152293498 11.8324956130085 0 0
211.525061639766 -29.6144116553103 -20.1042067937504 0 0
228.549578817052 31.5617933521188 11.0344634301496 0 5
196.208403483276 37.8227492764197 32.2438438427785 0 0
161.095233741377 -17.4424156361733 -18.4438605573413 0 0
115.226974419988 -6.06633249726036 7.1087799345332 0 0
171.229658423027 17.6346034250619 -16.825792293396 0 0
72.3492936122972 12.4615795825466 -18.2918581710176 0 0
103.84893788068 -13.9346281672689 -0.736535204508162 0 0
-21.9134766927942 6.16643539036295 -4.9531801532555 0 0
102.763575737363 -11.4367463109988 -21.1307095027811 0 0
202.337741830232 -32.6935463108507 34.6364429337294 0 0
170.999030311596 -3.31390132334525 10.8676690284835 0 0
171.381013356536 -25.8160904526248 9.03924844721223 0 0
211.476663937884 -9.08410468788511 11.5686726713814 0 0
211.046763478711 12.0560385061284 17.6096031576311 0 0
57.8996559001525 2.11200204654722 5.83829365481179 0 0
-15.4779457272271 7.35279260589914 -19.5539510234454 0 0
39.555396264386 4.11408381728532 5.39738242692121 0 0
158.844814225577 17.2235992586003 8.60425393650535 0 0
168.85938361231 3.9253702720481 -21.5572484784806 0 0
181.746595109207 -20.1352127645855 25.2894998626049 0 0
139.211108996494 -16.8998095424622 -13.2061091787846 0 0
10.5121903731486 -0.928709774064487 7.05718321724205 0 0
221.193452191997 -32.8625596656578 0.820677266675826 0 0
82.039629291496 5.12345531434523 4.20142555801059 0 0
199.86350968252 4.21423579502635 14.8589276693104 0 0
183.299629501485 -16.4871232681599 -30.2182430484222 0 0
182.100734980082 -31.9455071734869 19.0541990566942 0 0
155.016953014417 6.92025334899284 -21.0121933414813 0 0
224.770244378379 23.4730242127877 23.0614989006608 0 0
184.174266239178 -33.2034231359366 1.96142281872442 0 0
204.89817199646 10.7593615061581 31.367239917471 0 0
186.272567791772 -0.80494399807853 -23.2128151757602 0 0
204.23260386151 -0.962094034025003 -23.0264538023001 0 0
213.746087387118 12.1927652974639 -17.6358475976096 0 0
218.02098359416 37.60619680334 32.6196358865137 0 0
29.4754363624842 -15.7550510149962 -16.4822271853841 0 0
215.431132974331 -14.1411190867297 25.3729059147135 0 0
209.467837157966 -29.978863108733 34.958777864149 0 0
-22.2737563430198 -10.3307502072862 -25.8287521414715 0 0
207.673611016009 29.9563884037458 -14.2155858469875 0 0
211.85927870386 12.7116029319705 22.6114633837077 0 0
114.77853418201 16.4645539144524 -12.6785332193385 0 0
192.438853622803 20.2398403941871 35.8072170093851 0 0
173.851680412566 16.1369163225531 -18.5773572301873 0 0
-42.2601691615293 -3.55859809559114 7.31060104618336 1 0
220.179722271303 -15.8657260798276 -10.359999645575 0 0
215.689602082803 38.7168354433283 14.9077672117399 0 0
202.894405905123 39.6397104482625 31.7707465414823 0 0
153.551927950628 -16.7438030293428 8.33234264066226 0 0
138.150752713161 5.57881971888984 6.60547525497284 0 0
-7.76386374315095 -11.9624419656225 -2.43745591913013 0 0
183.395338044218 17.0214845956287 -20.7113447581744 0 0
158.405427464239 -2.38024501291108 -23.4632514506472 0 0
34.1408202534958 1.67782146839197 6.8060479431108 0 0
9.50019621781623 9.05302205509015 -18.9189574015566 0 0
67.8535585005955 -15.6609775910609 -9.24118414149903 0 0
145.839900309501 12.1843417312313 6.3917478260946 0 0
45.1930118550921 1.34862341925233 6.75736212182799 0 0
217.825558029811 39.3531525102651 25.3744445375793 0 0
182.029786254358 28.4813045247794 19.0948549625078 0 0
168.754262258597 -24.0600496982136 5.95093178278652 0 0
223.148928335479 10.2595270286647 0.720819598116558 0 0
185.236053264726 5.63133240167803 -20.9545832076638 0 0
113.54741566503 -7.42634592376132 -23.5964321616275 0 0
180.13970026114 33.0809328405714 1.55970671698005 0 0
173.567589228955 11.3019627503814 15.3609829835479 0 0
167.340178996317 -16.3110821788249 -23.0192882415375 0 0
191.401449376845 12.644469957671 22.8985842111746 0 0
196.611133382791 3.02664494519222 -25.1294098779554 0 0
190.981941463173 -11.9268082495804 -32.4420193589037 0 0
147.162270446648 1.37357224498008 7.71841295967626 0 0
95.821359502674 0.56484575037637 -24.3644070742441 0 0
217.762136306329 11.1117386703452 22.4011999605931 0 0
176.791954005846 31.3670802229421 3.5880331675292 0 0
28.9803670096319 -13.708694839593 -5.68368713027579 0 0
190.078552551636 23.7606947106705 -20.5423839095702 0 0
187.668310983325 20.5763990257625 -21.1362949894603 0 0
173.039549638849 0.803247297297561 10.948311587397 0 0
29.3778956621563 8.87798233325415 -7.46230570733428 0 0
210.968363164279 37.6199065613846 -0.630507066563307 0 0
100.209787327377 9.75152288633133 0.816562827391038 0 0
188.291576833169 15.4199885974382 28.7908542759041 0 0
176.328025930669 -21.5511745616022 16.1538190003907 0 0
157.701267430295 15.7212796684673 -16.9769286899586 0 0
35.8054739268788 -2.67066536855153 5.2950659180758 0 0
186.124245931347 -27.2919560790747 31.1012185868139 0 0
135.079874681573 -13.4892261226636 4.89992113023457 0 0
184.648995220625 -2.05573988207317 -23.0629309372213 0 0
190.194166476873 31.9711678783181 -8.58470826032896 0 0
189.530749701437 1.48311404864434 -24.8501732919472 0 0
43.4649949424827 8.72263408087568 -21.9475293490726 0 0
183.689353303506 7.2768082007284 -19.8008810674761 0 0
211.595961616731 10.8196161584716 14.0062613197031 0 0
-33.3023241345006 4.77599926681116 -21.7862125362615 0 0
202.210674115453 34.4693195491844 -7.66002872442863 0 0
186.133075798973 2.35693246945458 15.4565114147439 0 0
117.099541573156 2.03745091464547 6.47555625599548 0 0
206.473084806229 -19.6847788500257 34.8212228226225 0 0
139.6622176107 -14.6170761191697 -18.6622948043565 0 0
189.127866857004 -36.1481086358538 22.2365638411326 0 0
201.05941468966 41.5355317020815 2.79315469122326 0 0
220.792826974812 37.069301871451 9.73192661697285 0 0
198.385110290674 -36.8675469283298 24.0967709966438 0 0
42.8252772103947 11.5587965875306 -16.1114231445531 0 0
-45.231407013534 4.88812413124982 -2.42743216188725 1 0
197.596571861859 -35.2313272628181 26.6805497671657 0 0
145.224756162616 8.57542638939375 -20.5612597701194 0 0
200.955460792295 4.74055483944831 -23.1939897272547 0 0
192.808111181505 30.135395159481 36.9978148101353 0 0
227.16071570555 34.9073618929697 15.617696177982 0 0
215.445849231876 -40.6560101740448 17.7934717189421 0 0
219.851103168282 37.0472063800011 31.2273889978764 0 0
-0.129096323088672 -16.7690413314299 -14.0916041278471 0 0
216.849443531506 -9.83673898123399 9.82808508177273 0 0
111.698777792884 16.4562866467586 -10.5143145662015 0 0
191.297257733116 26.5673372148834 -17.0967863826796 0 0
120.60923260442 9.32692253695714 3.95291100438133 0 0
77.0533769773108 6.45845114012604 -22.7985121281837 0 0
131.287596407119 15.8439430553014 -1.77105759659578 0 0
192.828783923205 45.6966256033688 12.4633816451566 0 0
208.889863618965 41.2983694526628 6.27712712548911 0 0
181.710950564919 13.0216240857693 16.5042011723297 0 0
165.362692589287 -8.54938597670496 10.4413220866111 0 0
224.004660726263 12.2109314481558 8.76937422564351 0 0
-17.7825804572475 -17.2559618621097 -12.862752595529 0 0
205.06594508139 31.8073595402451 -11.9543273417702 0 0
205.252902299469 -35.5497888574361 -4.48064194878203 0 0
-25.5426133083479 5.90699178398535 -4.38810008476156 0 0
0.072561166854941 -15.4784535116605 -20.8279296165403 0 0
188.121471259495 -30.2270619289401 -15.198272940781 0 0
70.8667752255452 6.31071066758272 1.77683459471428 0 0
221.584099716562 15.0287567584447 23.1774696879554 0 0
178.786209395857 -20.5906306061944 -28.3838398617709 0 0
178.012927806308 -21.7373969461341 -26.3069857873025 0 0
160.581589613141 -0.485631025357753 -22.8898415093889 0 0
208.234967691777 15.1074965725005 -22.4919439345445 0 0
212.979468239577 31.9262717684443 -11.2026834478754 0 0
193.902973922949 35.9371264662632 32.3354977746904 0 0
-4.00751395383038 -16.2590706256564 -10.153843470979 0 0
91.7992402261387 13.7329698007871 -6.81115003606655 0 0
33.3015363104337 9.57974249732086 -20.7103168844351 0 0
127.407860421363 -9.31047473873602 6.85567115326404 0 0
225.352243276312 36.7566281574652 14.1524887680992 0 0
160.270451875913 18.929324216102 -13.8111640364438 0 0
202.79474232177 -13.7501324366407 -32.5651850863061 0 0
227.359010504608 18.4438681780067 3.93509802888212 0 0
193.965029359748 -10.8894746956847 -32.9609468810026 0 0
181.658961315489 2.19777052895684 12.8003804192466 0 0
206.660533181615 40.3402421985984 2.91358474183778 0 0
106.724683687293 14.459135244561 -16.5349011082862 0 0
183.558441516578 24.1398956196137 20.7446363964198 0 0
159.571200852516 6.80480111046532 8.8947380053597 0 0
165.267029445928 23.9584426902505 7.67578455382582 0 0
-29.4686030783566 -16.61495458128 -8.26573068315337 0 0
86.2139867136824 1.30057574271369 -24.3729216562156 0 0
2.3972083834116 2.76041044203186 4.21739847220278 0 0
218.644479738462 24.922597611806 -16.0767841566609 0 0
107.240562488368 0.703201286259079 6.59552412605903 0 0
69.7615697012597 -15.1788052223815 -15.0502648838982 0 0
208.305744669906 -14.9940764020882 31.6983252338338 0 0
98.3127969874656 -11.499327539506 1.30372607414529 0 0
225.835544072085 14.9215916664618 0.833443517864206 0 0
-13.0815244915913 -11.6920603004525 -1.85118522510539 0 0
197.190403762744 34.8246452200321 -7.80942851236812 0 0
206.939275874571 11.5372633456049 16.395395927383 0 0
211.481720565203 -34.6217048699988 -3.76698986322374 0 0
225.348861423917 35.9429559995596 8.16914281698078 0 0
63.656426229666 -15.4864760216687 -8.72607799238835 0 0
113.522109435264 12.071254744955 -18.9098310409489 0 0
200.001732832498 44.435667569889 15.7742859886046 0 0
218.803207445651 -12.8968780106085 13.8181607966527 0 0
206.503088490953 -5.55374638481738 14.4253570485214 0 0
205.523036352946 -42.2042365246539 8.44452903915805 0 0
183.848626478173 34.0107759659855 20.368636470606 0 0
202.440243876846 10.6362400871837 -23.5918100359247 0 0
204.698598132919 14.5943507884617 37.4333968143077 0 0
222.843231642975 -30.9666489892661 18.8654621926131 0 0
80.3487495075877 -15.6770411455419 -7.73542475361915 0 0
228.801748716138 25.9233650310307 9.36746261703598 0 0
204.82199385758 11.4910408091438 -22.5880778929598 0 0
1.11594493535191 4.0196017348291 -24.4556252959963 0 0
175.283584383571 21.7317495393358 15.3675647638835 0 0
0.56299536105517 -12.1892443032596 -24.3908801598503 0 0
173.49160367623 -8.91286227577509 12.260723101486 0 0
198.015198818209 -32.8474622390083 -12.3820170014678 0 0
-5.5948875733405 4.55892286873487 0.127359445602459 0 0
17.4724437464908 4.33898822069517 -24.4748251844451 0 0
177.223109409281 17.4563249437972 -18.7508505734587 0 0
205.115397966517 -8.05827319414263 22.0844183923957 0 0
172.365098190444 -13.9429731485712 -26.5541589118293 0 0
133.264836585416 18.1329473715283 -6.7022193729894 0 0
51.2873310209069 -13.5876701627823 -20.2342040852807 0 0
187.415871502319 -31.1520647125365 29.2609531898812 0 0
59.1828145806869 -7.65581785234474 1.36105360805468 0 0
187.724583046775 10.9358460017169 -21.0582674285031 0 0
164.514368938924 17.0622509200307 -16.2980952227388 0 0
86.9384505372182 6.78040339645724 3.15387941128035 0 0
45.9899729134608 3.76060547797377 5.22007820858873 0 0
115.513299586422 -9.95287903682695 -22.1373599247815 0 0
169.166467107984 -22.4436083936571 -7.64098040051829 0 0
206.904208100652 -4.39504376007185 -23.2492801607244 0 0
76.863870261596 -2.72020058183633 6.03069396434383 0 0
114.849177235705 0.101542741199193 6.81661485658784 0 0
30.1944788185876 -3.26215300187548 -26.0216588501714 0 0
179.419569024336 -25.44159910459 18.0861627875692 0 0
88.4877287471818 -11.6474893092426 -21.1850434962146 0 0
197.584990786373 7.67706600981224 17.4438089839299 0 0
-17.3859079327809 7.8700075955996 -10.6608686962551 0 0
123.343492157086 14.1253524921028 -17.2489268358723 0 0
186.86037259106 41.8732478859719 18.9818938884496 0 0
185.800000710709 -28.3109195509308 -19.4491165096266 0 0
116.177635695191 -16.5196597710119 -5.63286039739085 0 0
208.9896866735 -2.75057888789683 5.27345761216336 0 0
62.6294661213263 -13.9695822146365 -4.8311164128953 0 0
152.824463770848 -9.96765880333776 -23.4203841658938 0 0
193.326996144066 12.5831607284967 30.5950773661918 0 0
184.254637342997 -17.8330256791933 -30.8510805292617 0 0
209.877306752356 -10.4307472444401 24.7511019790119 0 0
17.8260721840202 -11.4336870945536 -2.50783136375005 0 0
-4.95662078900531 -5.91032680442311 4.26171338646015 0 0
153.291029235486 -18.6366959580167 -9.9808456900162 0 0
206.502750448943 -7.04032994238622 16.8033715882696 0 0
169.92431076147 -24.3965718448119 4.02939794943548 0 0
131.130503948289 14.0399075792468 0.986992883222808 0 0
-21.8319900910001 -17.4190749734821 -16.8637566877161 0 0
78.89087178309 13.0777083110902 -17.6142693277255 0 0
212.79718194044 10.00385231598 11.8084358375313 0 0
-25.1133227741706 -15.8518652971338 -21.5267003995908 0 0
197.52620121924 32.7442910983111 39.203260504063 0 0
220.833750997444 36.85347820888 6.09920019553536 0 0
195.203121770145 9.99811994785355 -25.0690769224715 0 0
181.359734441691 0.295711043801646 12.9163620616097 0 0
198.061849400928 1.93992396867696 15.889022027504 0 0
-39.5866126416736 -0.868380224450572 6.72447165600111 0 0
184.633720666388 -4.37060231287449 14.6130895254584 0 0
191.304716103458 34.0941229410459 31.7551065917786 0 0
189.402520389895 -22.5274246034218 33.6795980423013 0 0
165.159210292723 -21.4027803402106 -6.00456409851168 0 0
122.397584854457 -7.93262834729912 7.03595087977111 0 0
199.70733405702 -39.3140154133747 20.6578484478159 0 0
224.738628537785 35.2689821212495 3.14178277112958 0 0
57.065111279508 7.02195956828291 -22.9539295114777 0 0
124.809787850126 -4.04043707822867 -24.1104853367028 0 0
197.349710859139 28.5667819946142 39.0834588478881 0 0
-33.4114868610012 6.33468669513959 -6.48693997411996 0 0
180.281702487996 -24.8169575223495 -22.4983326540906 0 0
201.166458879976 1.85249578768666 -23.700718171963 0 0
40.1783923717706 -14.1244103178402 -20.1774302038772 0 0
206.680410775619 -32.4798789023443 -12.899702659741 0 0
190.811370083062 37.6241700308503 26.9773153101093 0 0
183.656591592197 32.8800109277271 -3.02695105305131 0 0
187.690016055617 -33.6751244965003 -2.49779275372906 0 0
199.954845855467 27.5027434077968 -17.3321564305062 0 0
155.607596951699 20.8952997457157 -8.20984300803087 0 0
158.005061471165 -18.9712583929625 -11.9812211328825 0 0
95.0256539182765 12.7842111226686 -18.5060538829039 0 0
216.567205352038 -39.7981340954438 25.3554084677769 0 0
-0.89624430701755 -6.16722309406746 -26.499162661875 0 0
186.320310783135 5.59996101045542 16.6850392725986 0 0
28.3437472377914 -15.7257076511358 -10.3325773496697 0 0
-18.7663988540872 -17.4278596515176 -15.9979112360265 0 0
208.147289910028 -10.3967731557732 25.7674505222332 0 0
72.1415977006725 -13.0157470921724 -2.93604295356671 0 0
54.7633676932512 12.2615006280394 -15.1434761841753 0 0
38.8693904209834 4.22412696822861 -24.2761175723028 0 0
-35.1582114345547 3.40352223456177 -22.9898685276855 0 0
196.560081362245 -35.9582744439632 24.5758506168743 0 0
175.648143091751 -7.72972544780666 -26.3676501048279 0 0
44.7596608127821 10.6590047717648 -9.2504294319398 0 0
218.323622128439 5.55850700085832 3.60178928981355 0 0
203.137711276769 -27.9502350528559 -28.1172818467095 0 0
208.534570577212 -34.5730432489407 34.2228275913378 0 0
109.229005862525 12.1078495408444 -18.9303303219286 0 0
181.776961027112 25.0189380935989 -13.7786620108594 0 0
17.3148356383716 9.8538251640764 -16.7728393161453 0 0
149.1004044238 16.3212668597672 -15.9378975113421 0 0
143.139054328159 -11.6066839900221 7.95046593686112 0 0
190.588073235383 -29.9872515956306 32.9978368152554 0 0
190.199171841703 44.9806756174667 12.7519304686547 0 0
169.836198054752 14.0185706925074 14.608976251275 0 0
200.570234296667 27.8578048053681 40.0306630397042 0 0
184.941852366795 22.2310336675549 23.6679653239836 0 0
225.761321144815 33.1205641619665 23.6360437358715 0 0
109.289581224607 -11.2492319704409 -21.1818142034988 0 0
101.900676476542 15.5955337232288 -12.9743709683454 0 0
-23.5219984508031 -8.17348307206064 -26.3573103682763 0 0
36.5484993106861 -6.71027585198908 1.62588994228143 0 0
64.0917859506988 -10.894703806974 -22.9054930682135 0 0
214.192360944196 7.24059709000234 -14.3419876199289 0 0
112.059232512977 -14.2806668929377 -17.2289602580079 0 0
128.078351202355 0.02543407681721 -23.7676020048964 0 0
190.88553005952 16.6222498816507 -22.0978785267747 0 0
132.10553432632 -12.3166840185926 -20.6842377396288 0 0
168.906542945675 -13.8426226088475 -25.1899244542929 0 0
-27.4065592616852 -10.6032661553654 0.521470500449744 0 0
201.666500689943 29.2968003562386 -14.712892866855 0 0
159.56820027427 4.79235125961868 -21.553468020433 0 0
203.990583456357 35.0623791732109 -7.06972735898684 0 0
-9.95300681338339 -15.3599510784981 -21.5078380065908 0 0
170.24000702231 8.72323409082441 -20.6349286070347 0 0
215.371610742151 -10.6447553827313 17.9625130340245 0 0
171.298239527247 -22.0262287916935 13.1967614413454 0 0
197.643879274718 -4.58569788588603 -28.8120855486422 0 0
182.974828008852 5.58751744408214 -20.7979041680795 0 0
166.037197692586 22.8304759096302 -8.33678256121847 0 0
134.824161810402 4.59421002645035 6.53710994346803 0 0
155.477954724141 19.4244070187512 4.7698823101899 0 0
200.203681696626 15.8833774619594 -24.5249179231923 0 0
3.35447782306294 -4.902253873288 4.88112260746668 0 0
211.493466998866 -39.021693847716 21.559865253607 0 0
91.0990115912744 -2.87577687638654 6.52157772364535 0 0
183.921268195887 -31.1443561392155 -2.50309324003896 0 0
211.375408828832 -37.648019586509 2.95539561512455 0 0
-28.8893037001003 4.74756625287348 -22.2764709891895 0 0
174.317402464924 -12.4624127744503 13.347828690431 0 0
186.654746538781 43.3869919253965 15.6806582312736 0 0
217.732411446735 -21.0901135439247 27.9227564172023 0 0
212.953395422858 39.2342550093933 7.18858552798657 0 0
191.073234203821 -39.8876753768328 5.76103516851233 0 0
98.9716350730542 14.2751275666246 -6.58986836364799 0 0
159.250737945283 4.8566093617431 8.77099055432565 0 0
62.3528548945607 1.42002014222542 -24.5363493487368 0 0
191.540831571078 13.5193147170225 28.5750113541664 0 0
165.578918549062 -21.7331448465043 -2.91139366794286 0 0
181.819362857676 29.2658362026486 -7.4026078354594 0 0
-33.252245103299 6.82179045556221 -8.55239427701155 0 0
216.447643641411 -38.7853067391852 27.8357209777351 0 0
194.448025306741 -34.0692380578309 27.6802693322504 0 0
30.5812680614648 -9.37505622812255 -0.404169809630132 0 0
-3.69031669153143 -15.2050951620506 -7.65229987998147 0 0
128.795512310262 3.57999509823951 6.47457281948755 0 0
173.338056609667 1.22635927039333 -22.1634569112939 0 0
179.708703185554 11.5475728874648 -20.7456152317543 0 0
198.990325473162 -11.3496803026591 30.1865541031192 0 0
132.349346762734 -16.2251981725418 0.404628427928423 0 0
202.395107997305 -13.3696599878722 32.2249139911061 0 0
121.088473318007 -15.107225041945 -15.9361564386713 0 0
175.343853414278 -14.2681768045964 -27.894733956074 0 0
208.721310860209 -39.4114809083186 30.3250513478791 0 0
36.5322368984507 -15.7864536626652 -14.9956625329573 0 0
-11.8848794620783 -10.3888562076479 -0.290033890672305 0 0
189.146427432523 -40.290990893008 8.99689176830758 0 0
220.262421995236 12.9264317677206 22.131278347969 0 0
169.81818240307 11.2627481553255 -19.9672228007155 0 0
20.6904256440307 -14.0449739743356 -21.8383094593724 0 0
-27.1009695315753 -13.0479295596215 -24.4780370793632 0 0
7.99986764512463 -6.71052976482599 2.78153276180298 0 0
12.7429930894346 -13.8439298478644 -5.86170590124783 0 0
178.346040565381 -15.6938971195413 -29.247634479322 0 0
193.586403100773 11.6396011017003 -24.8147795628231 0 0
198.300494703333 28.4221307383877 -16.3351483538813 0 0
44.5692560009793 4.53849876386191 3.40965726533854 0 0
191.563681520184 -17.1326292872987 -34.3795106225302 0 0
178.624898773827 33.4583447891662 9.08390908963128 0 0
123.690527290469 11.9666028800841 2.07228078033544 0 0
