"x" "y" "z" "f" "a"
-124.572188207077 0.0710494300729 -13.0532747494317 0 0
-167.485157569428 7.47575793408588 -7.58520685115507 0 0
-191.412504056396 -35.8007700512227 11.3879750606321 0 0
129.319302893273 -18.86111090386 1.41364545031236 1 0
48.2047211847735 10.7837447820044 -8.20151316915519 0 0
-194.844968618455 13.1668801344187 11.9027097994999 0 0
112.727624309146 -9.2879798053044 -22.3354758820465 0 0
130.384335546948 -10.7211296728066 -21.7869550410568 1 0
65.3833110176222 -7.23465226443961 -23.7346889984716 0 0
-207.472192146271 5.0890124987533 8.73161138053929 0 0
-203.196317414016 -3.21095490676812 24.4729135191591 0 0
-215.274309350844 46.9025608957846 -6.86980939542396 0 0
-101.533497323061 -18.3127849600059 -11.4004179661186 0 0
128.248094947952 -12.0434585483239 -20.4454620154381 1 0
-193.87011165743 18.2893330418704 -17.2524955825909 0 0
94.3357143462742 13.1121472824555 -19.3274685127447 0 0
-40.1727716916567 -14.3082237737608 -20.9576758415415 0 0
-24.1841470277998 -0.724368129742001 -24.7317183782031 0 0
-94.4154251589567 0.371771145226362 5.09175983737494 0 0
53.8163647576511 -14.2385746012652 -14.1901645187976 0 0
-22.0370424354202 -13.479241681335 -21.8608959458711 0 0
-80.5318238604749 -19.7576789225137 -2.87814461836009 0 0
30.2667420294292 -2.72253817854131 -25.2906595225181 0 0
126.640243885111 17.2297284365097 -15.8278704569442 1 0
-117.955084170406 -19.0999922386148 7.72031244843978 0 0
36.3810310892865 3.95486509099142 -1.25840520224967 0 0
50.3181206433414 -13.4057640111507 -7.76069740633025 0 0
-77.082348952382 -19.8066132794359 -9.03659268288472 0 0
-62.1688420899546 0.998351182019757 -22.0940731278794 0 0
-198.999832248398 -24.7789148808482 24.5880509302167 0 0
-206.189524475396 15.830910505565 12.3534517195349 0 0
-85.5140973160368 -3.41726099740265 6.35376977830364 0 0
117.926521016372 -3.81635851439969 3.18756194773473 0 0
-200.982844055525 -17.8392157606022 -6.94735382758339 0 0
-187.953167330762 16.5331724683496 -11.2615583484699 0 0
-194.370262961802 -18.7932381416372 31.0510020517057 0 0
104.951690841446 -15.4537744876572 -2.26861218284137 0 0
-84.4045865130243 -18.3655089994611 -12.7538974219518 0 0
-138.476641554767 -0.206127888232962 14.651658931546 0 0
-213.909213337947 13.4894136518906 5.6025807468992 0 0
-105.344527398622 2.67951386731506 4.62202702076262 0 0
-203.774995578847 -5.37931267779908 32.7158678659278 0 0
-190.675940938729 7.11845840350872 -10.4776939551216 0 0
-191.631446318392 -14.3581960894191 31.8867724823195 0 0
-215.063027108419 31.0933738968137 15.5649639893006 0 0
-26.2407109544745 -11.2767653528358 -2.37173774244067 0 0
-175.046994891979 -14.0987121607932 -6.38893629667674 0 0
85.5924992604174 4.16982985315436 0.511287935548695 0 0
-81.092986368478 -5.37811658789861 6.20739680242812 0 0
-66.4184230551065 -16.9768669815132 -1.11739825465962 0 0
-192.520390478357 -10.138087705798 -9.36210316789131 0 0
-76.3536165715616 -2.54163256524222 5.35180082999875 0 0
81.6081057465377 5.41864975788379 -0.514922357366852 0 0
-203.751164055247 -23.6359033880151 23.9890460319561 0 0
-39.1682647817716 0.108157584724889 2.07814842393832 0 0
-153.935588370582 8.5967011844267 -8.53639399051895 0 0
22.6755412276195 -5.91402351036015 0.472332839454241 0 0
70.0995590936234 0.762127813380854 1.24804943899138 0 0
-127.863162780313 -19.7355560687448 -6.91913494447766 0 0
-178.878237401211 -35.6558532557914 7.73442783089354 0 0
91.9957166476779 -13.2357885343965 -16.8499543929791 0 0
-174.509894231657 15.3323744189686 -2.30279579661692 0 0
-170.956583077809 6.92122800942587 -9.51174560247792 0 0
-205.684757539726 16.837783562466 12.7071796560346 0 0
35.877448726685 2.52090996023348 0.549311470810452 0 0
-213.15361499291 -18.5115052730473 12.206886386223 0 0
-118.730200714791 6.02411261875331 0.143562502949689 0 0
50.6546662327292 11.0417611898648 -19.6659798985743 0 0
-209.363946628565 14.9037437581699 11.2375773990897 0 0
-192.415523856241 28.3881843136362 -16.2429487902062 0 0
20.6800372006658 5.40103439027034 -3.86007601763722 0 0
-175.077448245388 -28.3319558473931 -2.60812523777922 0 0
-53.1117608096678 -6.0408270591119 4.83511946438512 0 0
117.649488551783 6.36428868671665 3.21649560841528 0 0
-201.530632777383 -28.5883314107266 3.9618970631207 0 0
-103.964421575513 -14.9560722394284 7.75774404988713 0 0
2.72653404763208 1.22506155635787 1.34735884812978 0 0
-169.608684989408 -10.9234607307776 25.4292663856053 0 0
-88.2533456743599 3.84628636935892 -0.288707464931423 0 0
-47.9246922969898 -4.22235504380972 4.00577663469035 0 0
-10.3500203314116 -0.429174235731111 -25.0049045862843 0 0
110.489829280601 -8.53283040342541 -22.8405483242307 0 0
-170.653029499157 5.25760960322427 23.247542246591 0 0
59.6655742616623 -5.91707871450473 1.77905706097881 0 0
-165.506425352233 11.4543403807342 -6.10877948189559 0 0
87.0951793612456 -4.0477183057416 2.27326749068912 0 0
-140.324782844651 7.5539821386795 -0.151542983567207 0 0
-97.8627257384695 -8.16862180835832 8.75887645306951 0 0
64.8331184479435 14.3476242219327 -12.0097509165199 0 0
12.0193452606624 9.57063879835451 -10.808490163838 0 0
-107.550906896716 3.4235931409677 4.09151376269987 0 0
88.7452604446161 -10.271909161455 0.38405749103582 0 0
-199.748734967655 16.9191645510361 11.9119640870964 0 0
-37.1208646171552 -9.46549401783529 0.595701465913786 0 0
-226.662186536684 27.1249990100594 -17.2004459306813 0 0
-65.7814167077859 -16.8842075380442 -16.5439365243221 0 0
-208.898029641391 -3.44045493102118 3.38025252042056 0 0
64.7726992799118 -7.38730797707738 0.14925588525196 0 0
-81.7506113659051 -2.54416988229476 5.66121364929568 0 0
-143.658602289205 -10.4415893845496 16.736939809882 0 0
116.00007292884 -16.9596974463292 -5.93300171968128 0 0
-162.963607568397 -5.42721689696448 -8.58427708962066 0 0
82.8818242636172 12.3624393463428 -4.80863196648292 0 0
-153.715581559061 10.0776174975437 -4.79029731527973 0 0
-222.597233681594 33.4238461318148 -20.6638262489063 0 0
-209.590181724071 -21.8420316960355 5.52651295882576 0 0
-162.003935499604 12.6996835529643 0.936651706816379 0 0
-211.927404358368 44.4363202396485 7.98645597231422 0 0
115.719472787385 -3.78887298294972 3.07815227477264 0 0
-50.2737899897367 -1.8405724532544 -23.9590496602242 0 0
-164.727466158679 -24.9385632911648 14.2972873205495 0 0
-81.0079313717699 -19.1291582406164 -11.2788410397731 0 0
-135.655937283093 -1.39132121633784 13.8832085653248 0 0
-173.566678147626 5.11640980809001 19.9501352878988 0 0
-48.804901647205 5.77680054913406 -7.00482993105896 0 0
-166.535364110648 4.80876536945953 23.0023695605704 0 0
-97.361988803284 -0.769957331137956 6.43442819509377 0 0
63.111437268041 3.21372136477354 -0.256550001878043 0 0
-202.376817685554 -25.1943545700273 22.2139693584239 0 0
-75.567353412687 -19.1944813353062 -3.4253715622826 0 0
37.8565634611257 -4.58418619296123 2.16452731591568 0 0
-1.05556915896577 3.72863579643513 -2.54801939679677 0 0
128.703902849821 -18.4815464330424 -4.99155470154991 1 0
-183.421391978682 -2.86388793118495 29.5405645205646 0 0
-62.2810247943433 -14.0039050393779 1.16996155294693 0 0
-96.7859511031002 -20.8715089367793 -3.28942263209912 0 0
60.3230480582034 -13.7321721817338 -15.8455672464221 0 0
-131.1342603258 -21.6409992771959 -1.31209202188039 0 0
-32.2818560432421 -9.95572600529916 -23.829426016946 0 0
99.498765771931 2.36574857490084 -25.0132755771366 0 0
-110.465860093959 -4.52681978208485 9.12706749701649 0 0
-93.9931951372311 -18.9306594068654 3.02031394953655 0 0
-196.33020912656 -5.73653744635371 -10.1151816592772 0 0
16.5493298898648 10.6580789217548 -17.1369132851789 0 0
34.1214441827623 -10.4244292080947 -4.05872768586448 0 0
36.7646508414837 6.11271313205692 -3.64871412967516 0 0
-101.417845327759 -19.4384672082188 -8.59597914717535 0 0
76.4397884118142 12.9154448273822 -18.9002267688874 0 0
-62.0884190306412 -10.8016220760078 3.71803968921477 0 0
-23.2366891555905 -15.0053450751662 -20.1199995708882 0 0
-135.423951878233 0.977740202804242 13.3380930206781 0 0
-15.0200770741974 2.3007205225025 -0.941694844897727 0 0
-72.4649794288856 -18.5468559361685 -12.5737622625949 0 0
107.674300115939 6.3783279145778 2.11328083757999 0 0
-71.1188163353307 -9.31096722076657 6.31257813375553 0 0
-171.161878097634 -4.84871880025686 26.4454936245521 0 0
-100.813314538116 -13.4107755635288 -17.3658323668999 0 0
-205.340365417241 20.2662937495351 14.169905233372 0 0
-38.7919308456007 7.2094744838452 -9.97644892703938 0 0
5.11582346069576 -2.73776099275628 3.06874232865802 0 0
75.5918883156169 -11.9284750220478 -19.0676098222061 0 0
-168.136620407113 -0.518114719392033 24.637798183316 0 0
-95.8875928733237 -3.801400031529 7.42600244236751 0 0
-153.78181961441 -24.5572644941735 5.30421904478295 0 0
-200.996528330821 -6.95093165021573 19.0523183133131 0 0
-130.431116060245 -12.3125601850857 -13.2118286048401 0 0
-157.287027339954 -21.324640108308 15.2334515089536 0 0
-20.3045269047065 -13.775743125525 -6.89298975541231 0 0
-70.1727411588483 -2.55638123822444 3.64485813233322 0 0
-22.945450695511 -16.4255401659343 -14.1192855110163 0 0
-68.6530717418738 5.93578124618112 -14.4199662897049 0 0
112.93390338507 -0.703417929566229 -25.1694588591592 0 0
21.692709066515 -12.7539357097043 -7.10101073282961 0 0
-178.540261353226 18.1489570743019 -0.344043772909573 0 0
-210.67631471756 14.2908005949477 10.037031802271 0 0
-212.39583353564 -15.7400294613823 22.7815976242928 0 0
-220.069290272223 37.2585818863821 10.823260353523 0 0
27.1631323574882 -1.09173029459824 2.23350485184121 0 0
-209.735449366633 -7.97696562136925 7.158351428439 0 0
-25.5422473735587 -2.31944866026741 -24.9258405048948 0 0
44.9871589197187 -3.50197624789813 -25.1688931695587 0 0
-187.625336055349 -20.5918147364752 -5.0877486311795 0 0
-143.626110518646 9.17674099632704 2.42522228780176 0 0
-191.248756327416 -29.9218799769897 21.8446572144306 0 0
110.406442659331 11.8351790903871 -20.5422927501668 0 0
85.0396710740952 -13.438530960919 -16.1219881663927 0 0
-166.134736490202 -2.12981230767842 24.0537304682249 0 0
115.79334588664 11.1042123273149 1.66819364918062 0 0
-70.8838409386539 -17.7139964260506 -14.4223569948058 0 0
-132.558294995268 -15.595490843582 13.4006142967751 0 0
-177.743648584344 2.2957747690518 -9.26181984844096 0 0
64.8991252103756 -14.2331013817922 -12.5787511659673 0 0
-55.6821616275405 -1.11686412019236 -23.478629293678 0 0
-209.103588833854 -8.79507780134385 11.9519260090784 0 0
-175.1040809076 3.13528165433137 -9.54615964742133 0 0
-53.1109578364362 4.43756265690376 -3.76347056361589 0 0
-163.097614228099 -11.7529383808001 -8.13355338954296 0 0
-195.585085750561 42.0888782516276 -12.6850899484609 0 0
-209.311579402522 -9.43591998223493 28.4486742181454 0 0
-207.53501837481 45.413417330831 -7.55131199586269 0 0
-169.431825472225 -8.54258085678853 25.5540101608579 0 0
-142.054717624365 -19.2761937328856 -7.19838402302362 0 0
-8.6165910812823 -0.0841572224100359 2.53331855637906 0 0
-83.8614443550286 4.49682828048059 -13.7129859132362 0 0
-171.970702121225 5.42621761094712 -10.1317991596618 0 0
22.4300847669403 -7.48064245268222 -1.24309183994285 0 0
76.3885450009029 -10.7601871259539 -20.788991890423 0 0
2.10463940369837 -14.421813702949 -19.9412052699767 0 0
32.083453495013 7.91502403893647 -21.948458869867 0 0
-126.489773811283 -10.9144772566951 14.0236411532002 0 0
-151.924161581135 14.3957352047069 6.8823152351951 0 0
56.670517213486 -2.34758399984351 -25.2961456639369 0 0
121.786591987469 -8.60194274074673 3.60423065085542 0 0
-189.021497598179 -30.1511723082165 -0.0808928962965367 0 0
102.216497529963 -15.8342804390491 -8.03253341341356 0 0
-81.1673071388445 -9.77125442055061 7.68767510338513 0 0
-206.772812720155 3.03958043071436 -11.2071027199973 0 0
-185.652316940951 -15.378665774473 30.3376472969257 0 0
106.014989598532 -0.783499067787361 -25.3011861373782 0 0
-8.13731168979921 4.79160628053252 -4.08906558705954 0 0
-176.887248957436 10.3425203140485 -8.03344399509075 0 0
-219.24053323324 45.9672223038752 -6.40098317312715 0 0
125.236575389081 8.38005554189134 4.0798767299261 0 0
-173.289932485423 -29.4675294497139 -0.590771871419182 0 0
-64.2354956678416 6.20271000359652 -9.43227531711572 0 0
79.8919029275222 7.9431465674904 -22.927281990862 0 0
-197.84111970749 -6.99998353799364 24.1944200587442 0 0
32.8109958182981 11.5733678823209 -14.0072880003156 0 0
10.3036643581357 -8.3950272610799 -1.78190923303887 0 0
92.5419039050917 17.4981747589825 -9.71453430177512 0 0
78.3259193360367 -5.82632696473101 -24.2756983382694 0 0
42.7238128987917 7.48976243631765 -4.6474728296319 0 0
107.072011518676 -15.7071292064445 -2.23585376838697 0 0
-29.6931917967665 -16.0783679289972 -10.419976600753 0 0
-167.055659324154 -8.88503720289812 -7.75947106898789 0 0
-20.4165729616854 -2.70828789621684 3.87316271651076 0 0
-115.331270772583 1.06995477147501 8.05782276504611 0 0
0.732675250407156 -9.07654310767414 -2.16001987454599 0 0
-197.609265127365 -21.5168827895607 -4.14297161056129 0 0
-139.595415136608 -9.31022767178206 15.393872662401 0 0
38.1480879326094 11.7427868145945 -16.5745727833176 0 0
92.21972820612 -13.9627626569782 -14.9159107863219 0 0
-190.409914198301 -24.2856351238151 27.1107927210687 0 0
-84.4058734130438 -20.1871712825802 -2.88630552285032 0 0
127.41825561128 -15.4255624641741 -15.2070457879601 1 0
-51.4152997482313 6.27508369793213 -8.34981425198228 0 0
-166.747442599258 2.91693915692295 -11.0748962141483 0 0
-153.528182818824 -6.3001333995082 -10.2278890988886 0 0
-132.289901336864 -20.5929108216337 -4.84125782967341 0 0
-175.261127329246 -3.88453991492702 -7.71962671153883 0 0
-21.7028988529506 9.04257596249967 -13.6597092893075 0 0
124.920988185758 3.24114522107684 3.94002141462579 0 0
-222.448940988938 16.6783548139369 6.47497528291594 0 0
-95.663288852896 4.63492611578214 -1.44229044342247 0 0
17.6620657930246 1.87837411382755 0.0803095321149417 0 0
-211.947050609915 8.41055135723485 2.30953268841402 0 0
-93.2321273462547 -20.8163709449393 -2.48392266427573 0 0
-210.498270481692 -9.41809395574644 15.8129895557329 0 0
-186.333845280421 -28.4931322750621 23.4066633833324 0 0
-157.899209462729 19.469932318529 15.3820414961782 0 0
-44.2360247939909 -14.9033643320763 -3.80526348280942 0 0
54.5977017073809 -6.57137826553553 0.402865921318325 0 0
-191.345419635408 29.9000478569069 -12.2360966247447 0 0
-186.427590716505 -12.662410836657 31.0062342007916 0 0
6.30461065003612 -12.9781155255301 -7.2127272774486 0 0
-202.286082847242 -13.7391609932555 31.5931660369387 0 0
-16.7148131517452 -15.1698430103587 -10.5587717586966 0 0
-208.361610420238 -15.1450999141466 -2.62301533023934 0 0
-125.890662114812 6.13599210401225 -1.72596175551948 0 0
128.559168243225 6.70792353051441 -22.4675271816241 1 0
116.256178520678 -5.30073181396538 -24.4569358443941 0 0
-3.29376091706787 -8.59842392281417 -1.55104838634004 0 0
-99.2741031147804 5.10283659875693 -6.95547184321495 0 0
-112.247787278216 -9.58401106049221 12.0194495086674 0 0
-190.521830838174 37.7104267271987 -3.67111156252282 0 0
-132.978379848531 -9.86892473329621 -13.4415747925435 0 0
122.47700083853 -16.3953279530807 3.230096527292 0 0
-119.895645722108 -21.1081149038642 -3.44673423562271 0 0
-10.2235185175326 -2.15860701110335 3.47520241282806 0 0
-98.9708776331177 -9.63208595440281 9.74257891080574 0 0
-190.631197097386 32.6491037172859 -9.93551695643839 0 0
-112.340247202823 -16.0660159142807 8.59467961032451 0 0
-113.91512197071 -13.7819500323982 9.74389655251595 0 0
-181.834041810253 -7.42543908115348 -8.19674355523981 0 0
-199.309705625514 -17.855438197189 -7.69010216255354 0 0
-205.554707905387 -2.04963055620644 29.8127675634286 0 0
-226.597263265388 39.8703793833571 -6.0624112078811 0 0
86.2523194777276 10.9460581614416 -20.9653038001239 0 0
91.5048464288787 17.4692320215694 -12.1125610031407 0 0
97.2344409867284 -13.7510475306173 -15.8634129761506 0 0
68.7777365945208 -8.91038366115124 -0.92542365599277 0 0
-174.768347374677 1.22193241325185 -9.56065536180443 0 0
-114.611642386286 -12.2083395170093 -16.0442386124159 0 0
30.2284811253827 -11.7041590866919 -5.44438745288464 0 0
-193.082061991051 4.23830481235131 14.5259168491566 0 0
-127.750062623107 4.39683059551539 -5.73763701218112 0 0
-77.7188040957084 2.4772508032103 1.27742303646585 0 0
9.79862634731364 10.3198008243035 -14.9819246493777 0 0
33.5976518445115 -13.7767162397439 -9.37204274924956 0 0
-84.7845179896375 -12.1223262503756 -19.8439153803564 0 0
-126.807053641501 -6.20925507449561 -15.0133416198627 0 0
-31.3008627545388 -13.164370662383 -4.13777082408562 0 0
-211.774408242193 -11.4933316225726 4.62379758647362 0 0
124.710300526718 -2.26110216305268 -24.8816291031268 0 0
-149.324934693904 -23.2200939545151 0.473885698638611 0 0
-181.713956585751 18.6415187001166 5.64545052424467 0 0
-189.530966177027 -31.3125748869051 20.0450025883091 0 0
-202.002457792096 -19.3104141831506 -3.17980834084702 0 0
-149.763565899537 9.83231363802947 2.70580078296056 0 0
-61.4816829047611 -1.22370425834234 3.99781865724507 0 0
-209.023424303037 43.6154782906006 -5.42031548219075 0 0
-35.3558994882016 -6.40773244008569 -24.6124787931477 0 0
119.154612019824 18.0000134924312 -14.5690503367046 0 0
-145.863814251275 -10.6151484413883 17.2897972190924 0 0
8.24613287698423 -0.411394625772214 -25.1433780205768 0 0
127.273557540975 -16.6142807990119 -12.2453400458084 1 0
-186.724623861562 -0.796133803860791 23.9525588335981 0 0
-9.68971660979178 -10.4852808008542 -23.9883153217387 0 0
-100.879113406375 -21.164531138239 -2.23011852486897 0 0
-162.530584398925 9.1896835864193 21.8827726236038 0 0
-160.51476931049 -7.97981850214726 22.0099627755303 0 0
-210.119882934443 -9.02139899143373 17.699921958252 0 0
-192.662309317778 -30.3435538037063 21.0171948313707 0 0
-191.014831135976 38.0834200840232 -1.96423057433456 0 0
-204.457373676492 23.2927364489154 15.5180081450221 0 0
-26.5149501905727 8.05572836453176 -11.2671096797299 0 0
112.251018235552 0.577902839492872 2.95463814329045 0 0
-179.711167809097 17.5861594120547 6.39478569613477 0 0
78.0744502294892 7.05347892528693 -1.64601902710768 0 0
-0.26241752655751 -1.78281714429877 2.89621023411454 0 0
81.8580939505285 -12.9667902163983 -17.0287798031241 0 0
-199.5679354036 4.13300589492418 12.8842082670809 0 0
62.6459831770441 -14.3109133194377 -11.1082329540986 0 0
-8.15657232956758 -11.1233442243788 -3.74749617229489 0 0
-211.031278915433 37.2816241138436 -23.9438462849974 0 0
-53.8177892146365 5.75976548100227 -6.96543835249644 0 0
-72.0112380879463 -19.3152234163951 -10.4312005144436 0 0
-62.3194216124468 3.67484060473183 -1.52345305158358 0 0
-141.303858166866 -5.90100142034544 15.3281234395928 0 0
-220.20921864709 13.8598439656002 3.89155960197791 0 0
12.4856221746855 3.24263477845159 -24.1408262651295 0 0
-13.9077313148736 3.05406069321977 -2.03406224619414 0 0
-222.224151433991 35.7387812922686 10.054798349805 0 0
-179.702492178061 8.59859422531854 14.227592536159 0 0
-192.258494939476 -20.8199325268875 -5.39737259580612 0 0
-182.805894190497 -26.4629200423977 -5.85660601686682 0 0
-44.2665203074368 -2.96692278095577 -24.3688613256766 0 0
-158.09278541643 -2.13448554026251 21.3685880532122 0 0
-182.509478025217 -11.0676528964017 -7.02527396534984 0 0
112.7205581929 18.4583186580788 -13.3608123025678 0 0
86.4788875590722 2.51503034167601 1.28806870526707 0 0
-146.707838096831 -3.4150394616938 16.9102622850052 0 0
-145.458238839793 -14.7650616216701 -9.92639099234301 0 0
-175.925681160822 7.2272757698123 16.5641290429916 0 0
96.5747818851229 -6.71251855577407 -23.8659001454626 0 0
-145.721528935591 -8.66792165853789 -11.3948379649337 0 0
-115.24744814472 -4.22719324479062 9.71410827355574 0 0
-208.602336030817 27.0965956374254 -26.0984283536801 0 0
-224.449272214496 13.2652211776554 -1.01443929832639 0 0
-192.859994560379 -5.28128961262375 30.3783920393763 0 0
-221.030837871091 44.6221816034492 -8.92482435169726 0 0
38.0359791408093 -12.0766852538109 -5.84469263240466 0 0
98.4453850406105 -5.49460981101614 -24.4179991400271 0 0
72.1488660537396 -13.4826931108669 -5.59010962151374 0 0
25.6746157286737 -11.1386179716775 -22.3569191428167 0 0
84.5758239174918 13.6644168805432 -5.75388884431144 0 0
124.469506989309 5.7328705491695 -23.1277943519524 0 0
-130.617832588368 -16.2499942630211 12.4273260042974 0 0
-159.311270694216 2.86561330344174 21.695291652535 0 0
34.4131342289527 10.6293402002753 -19.6646531849182 0 0
88.0500716006682 4.85820791228199 0.37321989771119 0 0
-99.2142632235501 2.29462659682421 3.86090697438917 0 0
-194.160028808633 34.6381375605537 4.31952116756769 0 0
23.6552324804198 -7.12411123614084 -24.6747568967402 0 0
-186.758568973552 -10.7669770569014 -7.96276341006629 0 0
-207.571127896031 37.0104599303399 -23.9140524596929 0 0
-4.85901520788581 -0.450265503715748 -25.0714346713351 0 0
-117.495242810923 -15.0265119735911 -14.1611684186357 0 0
-203.995730671308 -11.7296709284161 31.252068169976 0 0
-24.5572328689809 -9.98621999027672 -1.17611980672455 0 0
-205.62530801631 -6.98591181116055 -4.54588490727755 0 0
68.1137148969804 -12.5835134175237 -4.6452841172048 0 0
-55.8850359080583 -14.8597470958254 -19.9338466315923 0 0
-225.200716931092 25.2253465860788 -18.876394008633 0 0
8.09465703829626 -13.5381017680744 -8.7861051554914 0 0
-25.2223277604891 -2.7892443637756 3.62067422679967 0 0
108.092463380618 10.80764612604 -21.2420453041251 0 0
-181.988757470354 -17.9373401054407 29.0696826027196 0 0
-164.321476742589 7.90628358902555 -11.3098191372777 0 0
40.2658424178971 -0.877581347179622 1.9665479618333 0 0
-230.594616059323 29.0691987688597 -6.31545873271408 0 0
-15.3757474691908 1.22808470004791 0.913155706666392 0 0
-109.644206584644 -14.9820447944788 8.45695434055538 0 0
-194.943089994823 31.8285933963353 3.59001322283822 0 0
93.9916334313483 10.0733201733549 -1.72976781245692 0 0
-143.669201821968 9.44073219834275 13.6146509762832 0 0
-194.383741616547 -5.76835652003477 31.0293284745089 0 0
-23.0672553867921 -15.4645576209209 -10.182305859811 0 0
122.091686909459 18.9343992097612 -2.65488355383441 0 0
120.291296902523 -7.40542218679361 -23.6163290061184 0 0
-4.9311120317116 8.83650360204898 -11.4941422121127 0 0
76.8263093770089 -8.93168174975125 -22.4449982026647 0 0
-125.094954123278 -21.6831154557465 -0.525661026037258 0 0
-9.84784893641503 -5.49398159624515 2.31892202245711 0 0
-153.362898496686 9.76219114625656 -2.84617289256741 0 0
-79.0125350244012 -16.7634135673169 2.33008864869144 0 0
-184.2794593867 -35.1860418176239 3.08298346816685 0 0
-198.727520568643 -20.2474776043037 -4.478624665529 0 0
122.841903415647 -8.94014856548973 -22.7712852425104 0 0
-63.5859657988202 -12.8520223944433 -21.0974298770242 0 0
-207.883507125759 -3.46140643842533 8.38138452231868 0 0
-102.097387541443 -16.1610422710102 7.18042019086228 0 0
-45.7593533767562 7.69086113841551 -16.9767159117342 0 0
-134.343283834893 6.86887968285992 8.18389071962222 0 0
95.5481969063261 -8.20805728605589 -22.9502914529447 0 0
-184.114341429561 -12.0085708032415 -6.91731178866754 0 0
5.21534642896065 -9.29708991690258 -24.3729274654236 0 0
-168.674381671285 2.6076497094112 -10.6894873700645 0 0
-59.9529527708589 -13.1646967693165 1.42044963369773 0 0
59.0855116743966 11.0501199535939 -20.0777946715272 0 0
-76.1987522377073 -13.4764604307877 -19.7775243886345 0 0
-191.267251011128 14.4190300864443 -13.2113548117219 0 0
-71.4094973940117 4.64921782820447 -17.5143241918287 0 0
-122.817337286137 -13.7243328218809 -14.006519216638 0 0
117.298284207521 2.39644512542399 3.23335177316553 0 0
-149.082996333372 1.26134528916551 17.5114164920529 0 0
-187.483815105134 -7.14737036740402 31.0557475136275 0 0
-180.157567343397 -23.6236011938305 -4.45679034486442 0 0
14.688921908872 10.0238265053079 -19.575108480401 0 0
-164.316698407836 -26.6959048302168 10.0325409433851 0 0
-215.807958234339 9.57065566217246 -3.26955899174973 0 0
-50.9525640372816 0.770524017962501 1.87570721951378 0 0
-185.199897461922 -35.487200606916 13.5992489823626 0 0
-201.276975449078 42.7891508763454 -17.4405008596433 0 0
-200.4024259084 -7.56595265505442 20.9346793211443 0 0
-15.6392292756997 -3.60908430629181 -25.1738192689361 0 0
-135.698525838764 -4.64647043164536 -13.3517504637715 0 0
-210.420225805642 -9.57851437806803 14.2267750032499 0 0
-128.52420110586 2.01091305740112 -9.9022094035416 0 0
86.437664175198 -0.055374129939082 -25.2929766768873 0 0
-199.791796848727 1.29108120815858 -10.9766472570055 0 0
-36.9403875280767 -15.3865596482445 -19.8373553645716 0 0
-180.967749358972 19.3086724647806 1.33024565836943 0 0
-66.4377831991141 3.66115393601507 -19.6810348167174 0 0
-27.2967858015108 -10.1197088151369 -1.01720747679915 0 0
-137.59092199119 8.59327342976074 3.41751804041707 0 0
129.491687013519 20.7299464810883 -2.81948399840305 1 0
17.3989998614453 -12.5122408881589 -21.6463984870812 0 0
-195.616599497549 27.260282096737 -21.0085137551191 0 0
-176.675383541372 6.24274564461731 -9.11772245392272 0 0
-201.420662387166 -6.38976135458166 17.0215330720195 0 0
67.7106963018391 -10.6203978431502 -21.0143548461084 0 0
-7.17320237594869 6.70883684601547 -6.81014551229879 0 0
-145.900116882552 6.6904231102658 -3.76865061523951 0 0
-176.080427297734 -24.034843409976 24.6478727102012 0 0
-50.2241823671338 2.49541205763095 -0.442476994050422 0 0
-119.556887542402 -12.2156027118464 -15.18832923602 0 0
128.020741537201 21.0476856295335 -4.82680860017101 1 0
-163.932616574207 11.7926268360625 20.8384327282235 0 0
-204.598273053138 -25.3316121656847 2.25360624187229 0 0
-132.835234847092 1.17986804176164 12.519976656717 0 0
-212.402767143052 -14.4969138990596 8.72752151801955 0 0
-157.83010328551 14.9771075795364 20.0455963106831 0 0
-169.71000683868 8.36608248400967 19.6492251486517 0 0
-79.0723501316094 -4.57395106556292 5.83959894110896 0 0
-196.820106815127 -0.976505220479022 14.7810927685836 0 0
-148.745050046677 -17.9370733771994 16.4510687432673 0 0
-92.9069476067273 -9.16373636259434 8.18809228952596 0 0
-124.422674026295 -18.695284362381 9.08657857902234 0 0
21.0356503243895 9.94554985071525 -20.1792364623458 0 0
37.0197772478963 7.92104555124871 -5.45222649849144 0 0
-193.055896009972 21.9320105841086 -17.6218593861664 0 0
-183.343749639047 -3.50606605034081 -8.79905454696571 0 0
-160.867474062322 20.0142337645552 14.8338885814371 0 0
-149.303131939183 -14.1563352610684 18.4486790773364 0 0
72.7512587336018 -9.77045984969149 -21.8640262072969 0 0
-180.54124132958 -0.296421460555297 -9.15810644836268 0 0
-222.496989051012 19.2028460291469 9.2875178795824 0 0
-18.5149580138746 9.40361638387006 -15.2442815312099 0 0
60.540259715918 -9.40560567232064 -2.06894851837455 0 0
27.3306807957692 8.3142282119677 -6.57933017697891 0 0
-32.4819552824888 -7.59285367757705 1.92449931246416 0 0
-212.383284158732 -14.4150400086577 3.82266502687964 0 0
-211.205145492342 -18.0166194090404 23.689425110709 0 0
-2.15284734955298 -1.07532825849202 -25.2037798061939 0 0
98.3066437129279 8.50893119875009 -22.6213580226628 0 0
-35.170416361664 6.0644495544599 -20.7945248773495 0 0
-10.8629912061007 -15.8118586663328 -15.4684349798039 0 0
-209.59922728397 4.65991650847443 -11.6389833385209 0 0
-220.329621218618 9.55473717049402 -7.34662071080983 0 0
-103.745833297364 -2.14384718796666 -18.2968516502766 0 0
-214.288165076541 -20.5800226216361 16.8343137712446 0 0
-118.571188197983 -18.800190468625 -9.16529364291001 0 0
-229.949454465334 22.2786091179255 -1.73130673634715 0 0
-25.7933403657448 0.649746665311397 1.44894907809879 0 0
-225.715681302337 40.1182306298624 -9.61969664584852 0 0
-4.81390555087598 -2.34073395957265 3.25850620587538 0 0
-125.480301752568 -18.7762392869527 -8.90328456705483 0 0
-161.572646460538 -23.7532569388342 -2.60099576394465 0 0
-40.547067581232 -5.70860562494737 3.58637185398305 0 0
-8.61640651586498 8.28566433227724 -10.1911382137833 0 0
-155.698651773687 11.6159554126422 2.87662828358535 0 0
-1.20509143617711 -2.92934237301799 3.15974856672534 0 0
-20.9130863032718 0.181291787225417 2.75452248462219 0 0
-152.500693249539 3.70180480590236 18.9734306141041 0 0
-32.6818662543828 -13.6563787819356 -21.7526945652458 0 0
19.5497381675942 -14.2701197359103 -11.5226820677756 0 0
-54.6818389832154 -6.8731262084765 5.07102318836458 0 0
-30.5468200119122 7.0492211697736 -8.93462813635341 0 0
-182.063436112128 2.89684543088864 18.6403524224067 0 0
-30.9616717222893 -16.4033215450552 -17.7301123859021 0 0
-200.600134021602 18.9643432327646 12.3732801329804 0 0
-24.178695078912 -12.8260288015595 -4.50161023046651 0 0
-112.795354351426 -21.366115905471 1.40660687551547 0 0
-27.4899718729404 -16.7038939909106 -14.5128659217692 0 0
-222.824272016332 41.5401283090713 -13.1804683676852 0 0
-198.772068712953 22.8675761686489 -22.7411474300776 0 0
-50.9163823752487 -13.4943934608804 -21.3428166315162 0 0
-203.43132697882 -25.9176973790008 20.266815504467 0 0
-83.6434693553223 -0.518233354683174 4.65468073466098 0 0
-153.578310009554 -1.64086476220424 -9.9894130585674 0 0
-175.454929747214 -18.7647891444062 -5.3619062572687 0 0
-145.35548228395 12.8145349985185 8.80850706550839 0 0
-55.8447548764066 4.87057528659611 -4.64799832759074 0 0
-176.528838871817 -7.25050138202384 -7.20807321391909 0 0
87.6257511750151 -8.86938039693591 -22.5114647286152 0 0
-115.669780944261 -12.705441411426 10.8788078042789 0 0
3.70600419863656 9.33254931291306 -11.6149236657169 0 0
108.686395246065 -10.4024288107272 -21.3514231980462 0 0
-99.5488252372579 -14.0524440243281 7.31705683139918 0 0
-1.64725678001833 -15.5272610979686 -15.2434176042069 0 3
50.0805079937578 6.4474201212107 -23.3400702843826 0 0
95.5367286156904 -1.62405883330396 -25.2595621200613 0 0
-100.452231238693 -1.2348675211415 7.15625646650398 0 0
-5.70689298708216 -12.6250994487604 -22.5380283703121 0 0
-210.175929112348 -15.624409667645 25.3438389026621 0 0
-80.1678152064268 -8.40790849545538 -21.6098335187048 0 0
20.8709313533242 -10.134165288001 -3.71199636203528 0 0
-211.160499286005 8.06845489685865 3.9749657831191 0 0
-204.888326869656 -6.67098369636212 20.1478679198231 0 0
-191.224446225346 11.4122671946615 -12.0773934616775 0 0
-170.818631684198 -7.03429992813616 26.1728353538655 0 0
34.613821064281 -7.3966625268503 -1.23950009923843 0 0
-191.798204180164 7.51151261066944 13.5989293741976 0 0
-206.047246991607 6.07436264966872 -14.6784390939464 0 0
-92.1549516182206 -2.93185373749101 -20.3899835459115 0 0
-204.192646055086 47.6807548294027 -10.1746745455445 0 0
-155.441692352158 -3.59106708441484 20.280511942851 0 0
68.1152341592264 -4.11022514492474 2.26304207832981 0 0
-170.078223077628 -19.9404767251193 -5.56336261723597 0 0
-230.13464150462 23.591501814598 -8.08794377096896 0 0
-80.0390189899038 -5.76885149382868 -22.0102549830746 0 0
73.9199046534368 -14.4794185648976 -8.80738795313293 0 0
79.9358309503198 -11.3517175986717 -2.01950841735602 0 0
-119.456870146474 -2.20516968293539 -15.653560399841 0 0
-154.306320312488 16.9995533612009 7.55267483168997 0 0
-91.7177562241421 -14.2706377407452 6.11428067102267 0 0
84.1145825575905 -7.10655875343165 2.86874634106108 0 0
-122.71183814232 -19.4718152032635 8.18387447478951 0 0
-189.095805192519 25.6881050415096 -3.60975559937796 0 0
-81.2049200545143 -18.9900048620428 -0.467936688714225 0 0
5.91739290555781 -9.53073502321848 -2.89871350976748 0 0
-194.103587937249 32.9729514344313 1.74716834284972 0 0
-157.800320120208 12.9863489387243 5.01268328215574 0 0
1.61877412994116 9.6724757928823 -19.1383471802649 0 0
-208.364701574271 45.3670215544975 -10.2683617573333 0 0
-155.277316647066 -13.7170433164426 19.7160163156981 0 0
-78.4029764113778 -12.0640419628859 5.71103150042497 0 0
-184.032262802718 -34.7607190966089 16.072326206939 0 0
-97.1261391325184 -18.1034887291309 -12.3317161663848 0 0
126.384206897632 -10.20946783953 -22.0180023621845 1 0
58.259218687133 -14.0819275906899 -14.5162140775389 0 0
117.162074969854 13.3112539181289 -19.4278764319189 0 0
-84.1042968802506 -2.55539796875212 5.95718548074473 0 0
-182.164132521902 -5.53904331631233 -8.73390226410253 0 0
-216.853799496386 12.8175460183493 1.89458853205665 0 0
2.90031594381854 3.14188412011573 -1.8955356208334 0 0
-208.506724932881 2.13369543115891 -2.31158878155496 0 0
-99.846473388946 4.08302271258226 0.972876047929283 0 0
-205.9622859715 -21.1539433622097 -0.646775880940943 0 0
6.44839579329669 9.32707119346542 -11.13189812316 0 0
-161.029256985865 -10.2610282679445 22.4498513501499 0 0
-91.4555522690607 -18.7498765256659 -11.5895788245095 0 0
-84.2241839558868 -7.7760558317767 7.20926245356512 0 0
-139.253516397164 -2.20990390869516 -12.1612230963094 0 0
-170.77796923313 15.7872254866355 9.34237322700889 0 0
127.263073685254 -7.78461611026043 4.09485467536119 1 0
-184.066027508343 -32.8789365195417 -1.0710108732876 0 0
-185.44239258028 0.69895812833651 -9.50790050124132 0 0
-181.038328733535 0.617330734538107 24.8681752099099 0 0
120.534563091126 20.2927073257383 -8.60922015969202 0 0
11.7275308410081 -14.9455492235167 -17.4182468899341 0 0
92.3820542017794 -14.8769925111889 -4.8295088967209 0 0
-203.579211441651 16.2234175310191 12.577521738394 0 0
40.3736408102483 -13.2088943719309 -18.363842935739 0 0
-204.453878127188 18.4902434732876 -23.5558885074603 0 0
-34.343689694444 8.40967348792297 -13.5190962983184 0 0
-101.34405993412 4.89046799792214 -1.29653625950666 0 0
-196.441967432156 5.15916915573395 -11.9343766974911 0 0
-178.225899359281 -17.8802702719544 -5.3769142729207 0 0
-58.9204350660943 -11.1075014167155 3.05690380574466 0 0
112.031330811385 -16.0441756946922 -10.7490497111707 0 0
-217.925777627869 11.1963085294914 -0.0441358157439941 0 0
-212.455921812866 -15.8151884920361 16.2025084064896 0 0
-91.9550199730469 1.68639612000558 3.52841471690318 0 0
-120.97787397451 -9.08252575216185 12.3288079198909 0 0
-3.23107950479783 4.94882407262586 -23.06668286224 0 0
-188.938891751139 -3.50332232851217 28.8970625877646 0 0
-47.1787787719324 -11.5372877889257 0.179113579201304 0 0
-202.825178364505 47.0758017310918 -0.00950430113675579 0 0
-28.0407854100465 0.463523990112396 1.63927305761416 0 0
-85.1984367357638 3.78819009756637 -0.339542143201503 0 0
-54.218047277308 -3.47223504324514 -23.9580288776145 0 0
-209.227124829481 19.8509485575625 14.2111100780786 0 0
-202.226042376284 44.9945950371021 -14.9266095857911 0 0
-146.232121628458 -0.506167845297362 -10.4108505148865 0 0
5.60711166662136 -15.1948157853727 -17.3089959632748 0 0
-108.880242855733 -10.1285002202618 10.4910124116811 0 0
-177.745477820886 -29.7206626067997 -4.96790723473327 0 0
-194.911172140101 -27.301929187252 23.7471303624595 0 0
-10.2115864161353 1.2071089631154 1.19119662666631 0 0
-228.281951788079 19.1688674061959 -10.4568613583641 0 0
110.624218261744 17.6899741395424 -4.35153629416244 0 0
127.241791554017 20.7915005480176 -9.22313939799 1 0
-42.4480967945014 3.53925680970488 -22.0183717715791 0 0
-190.460099256646 -1.20914088606554 18.3849975495203 0 0
-191.075379378931 30.68082336725 -5.758707247223 0 0
-82.5811522071191 4.20063919497232 -1.13996576960629 0 0
-143.539243261823 -13.4601608356132 -10.6614498768357 0 0
-209.001953830878 -7.13283988851156 8.02886067435825 0 0
87.6972759634003 5.78644772082706 -24.0031791754813 0 0
-190.425353580081 25.5721820269976 -11.4270116764705 0 0
123.278847094949 -4.89869570231618 3.57235978320455 0 0
-160.748639715359 -5.91357727046319 22.2432232426986 0 0
-124.418947133239 -12.9537394416772 12.6660256045824 0 0
-129.407255214438 -5.09692145480481 12.6837996637431 0 0
-206.909284533985 -2.12407671655749 24.319279847812 0 0
80.575110186838 -10.0293037452211 -21.4018634095624 0 0
-184.701786879293 21.5211067531107 -4.27289720363468 0 0
130.422255248035 -13.0462038541465 -19.4572702313489 1 0
120.336339727906 -17.1957602070101 -7.29033824645219 0 0
-55.4854038070797 -8.61532880035685 4.56699016657338 0 0
-24.4833345932506 7.33205061458254 -9.39248070183705 0 0
-131.107317021088 -10.4084691124663 -13.6403810112441 0 0
-164.19694544122 7.88374606292402 -5.90233301926351 0 0
32.2815478912461 -4.29256172323878 2.51964624555357 0 0
93.9529971434245 12.198428881333 -3.03911331643702 0 0
-214.463861820035 14.6585236654235 7.25880262581032 0 0
-181.381885326451 0.776549714914513 22.898594714763 0 0
5.60331886426389 0.727050399791954 1.90137110962499 0 0
-222.547903859478 14.8029106087097 -16.4712098496507 0 0
-104.923945740111 -8.85236463136866 9.54491213212822 0 0
-179.095105353041 -1.32781366970798 28.6327119633609 0 0
98.5914417572271 -12.2980136859042 0.20560005795523 0 0
-106.124215623673 -15.8524319919199 7.86538714352201 0 0
-208.182887850009 -7.06985333471722 9.35344482976071 0 0
-190.240120858465 -1.00033186179403 -10.0068573422173 0 0
-23.7061981332924 -3.83808645733554 -25.073593496048 0 0
-201.370135671326 -28.3218945543446 13.1848896644517 0 0
-74.9046233836934 -19.7746868907974 -8.85964065009278 0 0
-221.138763621509 20.9494651779261 11.5915276024007 0 0
-118.097337542044 -12.4202381465443 11.4985090015893 0 0
-158.084960642302 -16.9257467378984 19.1564883719472 0 0
-8.84862075778092 -7.21721721103169 -25.0292299786519 0 0
106.1031474952 -10.5626870316518 2.84577521845058 0 0
-150.559943278591 13.8048328471238 17.2514440520894 0 0
-228.713267922347 31.5687631312182 -12.5268684202087 0 0
-218.843976667656 37.3660809819721 -21.1732854826852 0 0
-220.581327324734 41.8091058630275 -15.6815093204766 0 0
-203.640212625544 47.1123716539918 2.58880606634938 0 0
93.5340933020751 -9.9160665554718 1.80602008197854 0 0
-81.4999202511186 -0.64689712618143 4.53995932282849 0 0
-199.175083185851 -4.52054457565328 15.1887285393373 0 0
-117.647661836659 5.12138964563148 -5.23700629176501 0 0
-172.696286779897 -28.9804384505416 14.0566663376765 0 0
-112.264828745418 3.73819416917047 -9.50542745992642 0 0
-200.631286580032 31.839330935186 -23.9304411895779 0 0
-86.4929455120748 -9.42274223204462 8.23747060156427 0 0
105.467870728595 18.5844946393402 -12.0871244796133 0 0
-150.785720317766 -4.88414844052039 18.438430040749 0 0
-67.3614552089259 -3.90761399243694 4.42235714237 0 0
-155.567682223329 -3.63239932124881 -9.82423483364508 0 0
-80.9446280859347 -20.0450065037284 -6.42160286180389 0 0
-153.443708379105 -12.4232717991301 19.5681651023542 0 0
-6.72531087192128 -4.76065001384361 2.92866560678983 0 0
-198.515373489064 43.9670936234488 4.16172367094902 0 0
111.350377337402 -16.4266925895545 -8.04447006994225 0 0
-111.99072979408 -12.3178356819106 -16.4257374674435 0 0
-208.246137438935 24.707325169359 -25.8777290365278 0 0
0.409685191512092 0.809178001890086 -24.837023147648 0 0
-175.46087503869 -33.4317754949219 4.13429100949197 0 0
-85.1161436185949 -10.3469350025257 8.01899199606463 0 0
114.994611129762 -8.30837025617961 -23.0768004938771 0 0
-52.3581225577914 -12.1784475952385 0.596907259799284 0 0
-28.5256016213227 8.74086267902742 -13.2057208812335 0 0
-205.941385496027 43.0850864117423 -18.9527085751814 0 0
-24.8027817799289 -9.7379090662602 -24.1515126267288 0 0
-119.097639980833 0.244289450141689 -13.9352202853655 0 0
-130.149061700554 7.35649278676169 1.4429887491906 0 0
-97.5725633968204 -2.58955158405944 -19.4830315611453 0 0
-68.1099178283952 -18.5402982349749 -4.10115357788052 0 0
-65.1646122415273 6.37565205430318 -12.071247172391 0 0
72.2838922952079 -1.28102604582442 -25.2882266255985 0 0
-187.500386995214 1.65015389749346 18.3307487565802 0 0
93.1683582817754 -15.3768061734513 -8.42880247236522 0 0
-205.017909263806 46.7631098957273 -4.53218010295596 0 0
-208.1425034381 -25.4264562266432 17.9880449913102 0 0
52.7774754406712 11.8673148430494 -18.74941233528 0 0
-214.221090549899 44.5601873465052 -15.5452169250345 0 0
-13.3886792492229 4.08761524197986 -23.4780218300656 0 0
-198.26043185356 -31.8145261305493 8.48972188167479 0 0
-132.795447797445 -10.9505366669095 14.6452407000701 0 0
120.839626034847 -14.642200412761 -16.1853915758826 0 0
-212.320702904419 14.3914302299888 -21.6887855427323 0 0
80.2519494558512 -8.06864058661072 -23.0668149478012 0 0
-188.373406200131 10.8573904618708 -10.7703267943539 0 0
-140.231114259131 -22.6632251193467 2.43811609105736 0 0
-118.342305554105 -9.455821974755 -16.1038678909865 0 0
77.0591443439338 -1.00803678881151 -25.2298455066411 0 0
92.753480937214 -14.5219740443108 -13.2832078524342 0 0
-204.696831248037 46.6426799217972 -1.49500276799562 0 0
-201.918261860951 -18.0480051220445 -5.75426808955142 0 0
-207.280322029088 35.9583789973024 14.8912716452183 0 0
-209.867958049655 -23.6523339541223 10.1290542942498 0 0
-183.614160591942 0.367653461152472 21.757971242773 0 0
-37.8009587711858 2.55809523044294 -22.9849354786329 0 0
-155.855170527793 1.85079781419284 -8.78744618743314 0 0
-76.0655980876379 -14.9483078913102 3.45659619822559 0 0
-112.303562863487 2.358690998948 6.57858581661742 0 0
-64.9633278547968 2.23273744816191 -21.0097947146015 0 0
9.09597957717129 10.3707057974162 -17.5884840923888 0 0
-167.930073301973 6.72908785028123 22.3515680629996 0 0
-62.9319765474416 6.59727254267191 -13.0533789659958 0 0
-176.296185606291 -29.4797788773816 18.6606924518745 0 0
-92.1935319965909 -17.5705583562555 4.23996031919756 0 0
-17.4772078257595 -1.16579591347643 3.17551847475072 0 0
115.81298899465 -9.44146557528828 3.27118415347602 0 0
10.4226392050997 -6.54197274868453 -0.0577001487730336 0 0
87.0866390386769 14.1008223577711 -5.706163800636 0 0
-214.55036315702 10.3870951826062 -2.04687900356816 0 0
-181.715851172038 -31.0981513826833 19.8210816696285 0 0
-204.850471196353 -4.55126307066734 12.5875607728312 0 0
-25.2567102852584 -12.0601463501944 -3.3559646312098 0 0
-194.420716107591 37.4425015461489 7.22553313069008 0 0
-183.586549370051 -7.63009283384117 -8.70002062702727 0 0
116.523930496738 17.1008938719102 -15.7649506992952 0 0
-100.654771155799 -6.1378377896684 -19.4160796053062 0 0
-198.79683487038 -29.1900650653235 3.68242730474005 0 0
-157.151851969706 -17.0889935136183 -7.60688710150731 0 0
9.5967527702098 -11.0175243392841 -23.3260730445321 0 0
-209.075266458393 44.8979048570072 -3.40538264738406 0 0
-132.482946016156 -12.7912493159214 -12.6909745370749 0 0
-98.1965235551338 -5.11772814895435 -19.8192784923312 0 0
70.4577668658356 7.85139803920033 -22.935432743743 0 0
-151.740566398298 -2.91707962779618 18.7787759856698 0 0
-190.732181190576 34.2964290853129 -7.11273015993706 0 0
-146.321805924053 -16.8723659989032 16.7276498787069 0 0
-218.422062429148 16.7111365741854 -21.0783518883242 0 0
-209.099312563385 44.1250202533072 -7.82584845347682 0 0
-216.148813165889 38.0697265194106 -22.1276270803519 0 0
8.68702731993777 -0.278024748021861 2.53335673051787 0 0
83.2853356035768 -14.6398853377163 -11.6357421624296 0 0
-33.5082918001897 -14.3922903557195 -5.62907269381227 0 0
47.6557322771767 -13.8291653503848 -16.6980383908048 0 0
30.4388861208436 2.70483248948415 -24.4555253071992 0 0
13.5318871978625 10.5225760820697 -17.3756741194998 0 0
-21.538221971999 -7.34141111419702 -24.910035817264 0 0
7.90405907521754 9.83751537465659 -19.3460700904487 0 0
-57.6485470297304 4.2975724117035 -20.3045975730896 0 0
-74.1320150162584 -3.26728597016602 5.12346413956182 0 0
-188.721798989631 -1.45712065646136 24.9223587454089 0 0
-65.9707047479496 -13.4404819332986 2.55579407447331 0 0
-165.081026965395 18.807358017053 11.9451829738748 0 0
1.93828888707905 -6.88660055593039 -25.1908396275367 0 0
-9.77794126862773 -15.2827841006558 -11.9706426939467 0 0
-176.856878859827 -31.64096800339 -2.62427279058226 0 0
-170.559331358031 -30.3960264339229 6.78162080954972 0 0
-28.972146129949 -8.28522199957321 0.861283939885519 0 0
22.1001706340352 0.637276210062464 1.52939080561763 0 0
28.7380960810388 -14.3714624617686 -17.2856408399859 0 0
-174.151372884335 -20.9613268648548 -4.98799823313832 0 0
-196.407579420708 32.3112839100567 -21.0403064532409 0 0
9.19698240376911 -14.0650222939201 -10.8737336584331 0 0
-140.109002062669 -19.6427909384532 11.6324943298131 0 0
-9.98320021915671 -12.096881480474 -5.00317458293545 0 0
21.3442400773822 -8.97167863236262 -24.0524136900888 0 0
-189.743245344722 -18.6270243497709 30.2440651381267 0 0
-110.325014797589 -11.7717411206481 10.6423824779104 0 0
-134.761576871318 -10.9606432019204 15.1166962661707 0 0
80.2123635514476 -1.9229941087757 1.96083979402508 0 0
-212.93731835249 46.0711781918297 -10.6962501397956 0 0
117.354852110416 -0.989673387557201 3.22005610474084 0 0
-33.4676869683808 7.63337748440202 -10.8397603970784 0 0
91.709252750979 -9.20205738767912 -22.2780600647069 0 0
61.7499931151934 6.2459004731136 -2.05175851753204 0 0
-156.128657426859 5.3092423199214 20.5591903764106 0 0
-165.592858928389 2.69204880934517 23.2507306980687 0 0
-206.623130735697 -11.4536464158503 -3.23208070368998 0 0
119.049125498702 -11.9483418947185 -19.9887988508984 0 0
-229.152876997632 33.8212091552011 -9.05655715807145 0 0
-212.245729883759 12.3827641606968 -20.1090660226237 0 0
-84.4118740735971 0.830518999486613 -19.2820754484503 0 0
-24.7017269918146 -13.6171772925431 -5.8237504351432 0 0
-19.5954073615577 -0.97409263273043 3.24137040844986 0 0
-119.956131955374 -0.424663864137526 9.75746826671117 0 0
-17.6875671387806 -7.15494971244356 0.975664886903054 0 0
117.188473439859 -17.0930729848509 -3.30892542831839 0 0
-147.265600045746 -19.6028561617339 13.9113278258085 0 0
-141.313293493363 9.20736596054924 5.90059605981506 0 0
4.23286390214206 -1.40589216347697 2.73737696759094 0 0
-204.675681336901 13.3483310603829 11.3421715120942 0 0
-154.877623892775 -24.2032591658419 9.22564161648589 0 0
-204.395035238484 -2.16990167006552 -7.91913753658578 0 0
1.93600234205013 6.20644487114576 -5.4554725982605 0 0
-179.172377250594 -2.01024447692809 -9.10422482349665 0 0
-127.591705764504 -7.06900308091377 12.7027436893248 0 0
9.75370937907761 -8.79090281910925 -24.4713075879339 0 0
-60.9622851308124 -18.2557759626126 -6.52700304553408 0 0
107.227789081391 18.8163131423305 -7.55512253080082 0 0
33.4774331215101 -5.67131624597925 0.680415623856198 0 0
-21.125684443801 7.96682941491254 -19.6838817846521 0 0
82.1445253204525 -11.2392365393743 -1.61827329855057 0 0
113.62092842257 -12.7472472014478 -18.8264776942291 0 0
-11.9350368971319 -8.99682089762957 -24.5643921782306 0 0
98.5046891619481 -14.1442460526255 -1.73187824787589 0 0
-173.388932891992 -1.45310266359496 -8.10820043857254 0 0
40.1435124784947 -5.90193078748989 0.476964422376184 0 0
-82.0268419829777 0.346359417106063 -20.1362882676388 0 0
-196.932711468572 -26.6505110367707 23.1924090166508 0 0
7.0808132672067 -2.46653571359569 -25.3982568682977 0 0
-200.324459976484 46.6742364779915 -1.29051662959831 0 0
37.4489688186728 9.63690380642125 -7.70427139718272 0 0
-203.236113223089 -3.13876690289475 31.2092339845793 0 0
-143.448404950287 -14.2406349118887 16.9251159266172 0 0
-159.803643078498 -14.9014808463606 -7.96161076279291 0 0
64.9739078046065 -14.2779215221287 -9.65954794911082 0 0
83.7714525845263 -14.9086339707612 -7.91133916317592 0 0
0.458366753139175 4.64604347507797 -3.49615463723791 0 0
-117.178702025694 -19.915571774359 -7.18248280168498 0 0
41.1111915953515 4.7562545144428 -2.18052360020793 0 0
-46.9540400745187 7.40750159617093 -11.8709855973993 0 0
