"x" "y" "z" "f" "a"
22.2803715457018 15.3266820862017 -4.47196855698042 0 0
129.609948108345 19.7387600260658 2.13561571617899 0 0
-60.0937716011527 10.1324349311433 2.20831426302419 0 0
136.741629092607 6.76512938996577 9.9072521706573 0 0
187.209241037286 -42.2544162857598 22.6939762409085 0 0
168.199553986703 26.6286707485766 18.6763839701638 0 0
209.43250708574 -7.30658935422523 3.72517422334508 0 0
-80.7009922755206 4.40744545487579 3.20804078249739 0 0
201.360759867016 -33.6563479776346 34.1610064583048 0 0
-131.811729729933 -4.02093168263101 -7.6128884960439 0 0
174.157445408876 32.8188014636178 -1.94733700293266 0 0
-38.8743884863154 8.60650627209138 -22.3735930177912 0 0
127.519270749988 18.9044240008633 -9.31865061258842 0 0
197.199130631013 35.080654051713 25.751063568632 0 0
193.655988779384 34.9712849456381 29.004170963022 0 0
195.863897325312 34.7739307502898 19.2378472136111 0 0
-38.6113651695022 -2.30247087900788 -3.2754590492185 0 0
105.825899396416 11.8801495948074 8.09719787943556 0 0
133.778660536047 -6.69070523969963 6.63104546720625 0 0
175.80000773796 -3.66222002124871 -21.105323797947 0 0
172.653849798798 -4.01306029012213 11.4811583885786 0 0
147.195695796742 24.0578105693031 6.42708185736066 0 0
-106.511662346511 -4.0320390852355 -6.85918396986043 0 0
3.43347758650554 10.4369993418639 -0.32746024321871 0 0
190.044352432584 -45.4109942772072 13.1205208027835 0 0
13.8555223240448 -1.5158424940388 3.46941356366151 0 0
-4.04639734497216 17.6166693725778 -8.01405636113149 0 0
-105.285982729597 18.0105497069196 3.94996669303289 0 0
180.768257816751 -38.4930615726583 -7.08885093785596 0 0
159.84651591922 -3.18134161130729 9.51856083763055 0 0
199.142468679788 36.2771830126676 20.7357155730425 0 0
145.691384352788 21.8484704638021 -6.27693792620709 0 0
183.461383585546 31.2224138001275 -17.4454306147446 0 0
200.614646603542 -37.9652924134435 34.018353631012 0 0
216.082973858683 -21.4220679409404 10.2557691418321 0 0
111.178842613529 -12.9254497119631 1.21929729882891 0 0
148.849456927196 -15.8017154148036 6.64507579491187 0 0
133.004641153083 -17.9739519157465 -9.76558530250511 0 0
207.795040257626 -11.158748423243 -19.379981120565 0 0
-84.6962191635184 -0.812644545471625 -1.79277532266984 0 0
185.66941477105 -24.3899676296817 28.4201819428776 0 0
89.8920818470145 16.5518947982803 -0.653259852134698 0 0
130.489163477018 16.0867080954713 -16.3975678990663 0 0
24.715104484735 13.5539154991135 -2.09365832429862 0 0
208.503328367389 -9.57279085137036 -17.2340909520191 0 0
206.762250437496 -11.0576738246195 4.83038270406464 0 0
-132.460903400122 11.5321766255581 -15.3634499981884 0 0
209.275842772228 19.3225849678676 -15.6899535283508 0 0
135.068141908075 -13.5605356103404 -15.5477689665015 0 0
162.184043404416 23.6261184360903 -14.4338924949367 0 0
65.5857935517427 0.133039042123057 5.30987350665443 0 0
170.079990658804 -7.09245734598675 11.1720654859259 0 0
131.721171402136 -7.55442831480528 -18.207820307132 0 0
193.325282847139 37.4648257897658 3.71965754652371 0 0
41.6593899681596 -7.71283301431412 -3.41580330037461 0 0
182.70869061266 0.628017181613989 15.6858058075318 0 0
173.204431851735 35.8940496401908 15.0270373951156 0 0
148.066212526795 -24.1985145073005 -0.290745359169973 0 0
-117.158193774575 15.9568877018137 7.49007846346974 0 0
196.806837979579 -33.5191527887501 -12.2733593485517 0 0
206.158182883075 -17.4748639038428 -22.0986748583354 0 0
180.947977733248 26.089478878704 -26.0067392099767 0 0
52.347284136236 3.97176140289692 5.62576136613145 0 0
175.593474322974 -19.8641077674097 14.9112287063307 0 0
43.1717567379216 5.01708516259768 -20.8377552863676 0 0
11.1186680003354 -6.22064632082617 -7.39048173416725 0 0
209.172223546737 6.66480995157477 1.76466299268091 0 0
-110.95228945976 18.3397690485732 -14.7675827911324 0 0
-139.627020047874 8.48121354276703 11.6290922800322 1 0
186.542427579491 -0.0453245369985921 -24.0861768490383 0 0
206.419965924185 -40.1721454585803 28.0843189705153 0 0
105.07930728701 17.9471240475298 -3.37960253860396 0 0
215.120331419934 -19.1150268804643 -9.8890386210801 0 0
-41.8020938043484 5.30493143764917 4.19025493532593 0 0
213.069245749563 -39.722158912013 21.760767635852 0 0
198.490657962539 24.444955206222 -26.8489055304351 0 0
-63.8240883001255 -0.60338180573054 -1.81145518414278 0 0
-75.2990734674852 -1.39414922008142 -2.80949426617281 0 0
174.689802457751 2.15766088072862 13.1687033245238 0 0
-33.157782649031 4.58927846919633 -22.7131670957213 0 0
205.900930787255 28.2536317822149 -17.1510790051199 0 0
-131.363234408409 17.5810462290091 -13.781780494619 0 0
130.728217005509 -2.44664887925459 7.26182141677356 0 0
182.448609267393 35.1280096817109 -4.35943511634249 0 0
-129.31005536641 22.884413612238 -2.66319286623307 0 0
170.151258481657 -33.7779550280498 -3.5666259927364 0 0
-107.949459150391 7.84221036034719 6.85845782635774 0 0
196.398087172633 -16.1256785412887 16.8962525072101 0 0
-71.827562249303 3.85216325661515 -21.2479346570626 0 0
207.910443187472 5.56231498044464 -11.0098813381083 0 0
153.51522480406 7.22838227699292 -21.6927197358966 0 0
210.523824209159 12.097266937102 -6.35867666482154 0 0
211.294937735427 19.1206454365793 -10.6872473817688 0 0
-104.723952450271 19.3112541680297 -13.9410139178664 0 0
155.826310480422 15.8846337922071 13.7994342780128 0 0
206.144792800975 -15.1169208504201 6.92214496040897 0 0
-63.0235720561191 1.76163023972645 1.32635509267682 0 0
174.337366535676 -9.35048185545373 -20.6008907442363 0 0
185.241848942944 37.352115163963 1.88954750996675 0 0
197.903942993785 -14.9901131277964 12.5267608955026 0 0
200.270549200478 -4.94064778567344 -22.8151154116273 0 0
182.197945431525 34.5159239196797 -6.23391378377015 0 0
124.7037865162 5.48643472739216 9.12374155520686 0 0
-71.6949332939154 18.3487185638924 -16.5963915062517 0 0
96.6637700046368 4.30837037328858 -20.8939277364513 0 0
-97.6946211014035 10.082334962241 7.2418209352882 0 0
198.311068570555 21.8188541526497 -27.7820528478111 0 0
161.929119557482 -14.8611085269543 10.2391810520406 0 0
-83.6217153115431 -3.92354127401393 -12.0721952463098 0 0
215.905513089053 -35.9046172630126 21.3310889808222 0 0
153.198456052207 -23.131077398484 -7.85380162716855 0 0
191.670954655978 -40.5717314597291 31.017163364563 0 0
-100.195698545352 -3.89029401993486 -5.92820459827367 0 0
175.199258507069 -29.3468428328363 14.7417926631616 0 0
179.168949726137 25.2045118477845 -25.8612000020975 0 0
186.456216163051 -41.5473557114682 -5.02232494549597 0 0
204.790082945514 -40.2654401831275 29.0235113101876 0 0
209.966788865285 -4.92725025139696 -4.93717131415511 0 0
204.016313358278 -32.1982581531862 -12.9261567192205 0 0
139.749537212051 18.4509913284572 -14.500333441381 0 0
136.925249421472 13.7282160826192 -19.3318899710586 0 0
152.336782767106 24.4147965530653 0.586545882787675 0 0
204.783384845883 -44.1802389463431 19.1958274046305 0 0
164.20084375765 -18.4909380946977 -16.6169316950615 0 0
177.206913083919 -34.9214072594001 15.4892502143483 0 0
57.3587632318075 13.0746646731287 0.814807992532627 0 0
151.432784213149 10.6920123344737 11.224187428983 0 0
83.8957515000084 -1.43911318621783 -19.9287245754571 0 0
49.1478358556147 0.634956618715206 5.11686826867699 0 0
114.659892385624 -3.78630562898472 5.90936424432314 0 0
156.042528876726 8.54929666788922 -22.2598813578014 0 0
179.290402715037 34.4474133714187 22.4572548386038 0 0
-45.8606332241265 -1.36492741618531 -2.26880980178405 0 0
-11.1298944002265 5.04640645089298 2.80399653819159 0 0
15.2597204715767 -6.364208372342 -6.75904906159221 0 0
73.4002937740261 15.0845503435692 0.0388553423437168 0 0
184.895213461231 -11.836310646476 -23.8038162563413 0 0
-44.6289674640179 0.766131673826637 1.02207571235618 0 0
194.539697707408 -15.7883245878403 16.1696427147314 0 0
-59.5956579802158 17.6792888213523 -17.1515577797934 0 0
169.530593072656 -9.30880988836365 -19.6386094240257 0 0
204.533073618713 35.3714999579089 -3.02902492103172 0 0
178.507882930034 11.1384823668191 26.9384054833703 0 0
-98.1717143707324 11.9026671235796 -19.3980271298349 0 0
203.275725881734 38.1055302410825 22.0578686328579 0 0
-59.1503258423441 -2.59920127765212 -4.76432021480109 0 0
-91.3223813384245 13.7333434516652 -19.4682758824247 0 0
-14.8736379424983 -5.09038763278368 -14.8273656667625 0 0
169.416495526586 -15.7527417839854 -19.395906158164 0 0
-32.6518469980798 6.5087927646561 3.45736311291881 0 0
127.737195464963 16.2508021935134 -15.6696255793379 0 0
120.865676371779 15.8799452547863 -15.0672254215687 0 0
-95.5782368675575 -4.2521048895059 -7.61863501388176 0 0
149.52271753713 -19.3910705835096 5.76525594087191 0 0
174.402236673086 6.13683436184432 14.4631364341925 0 0
136.304762075784 -1.27222434605547 7.96100397236354 0 0
163.427961664956 -23.4700638886986 9.48388916339674 0 0
197.198312528433 6.88660220410688 16.7580859664082 0 0
173.4241278018 -38.3797317273087 1.09462067837649 0 0
168.942840843509 11.5341154760108 15.8108731813682 0 0
-101.01422396649 5.98292657494105 5.47128522611617 0 0
178.411609726598 32.4199639985048 -9.9721010790527 0 0
156.10240896751 12.3860804148121 -22.6592892004548 0 0
-130.91727367844 17.6614878410226 9.19824008304986 0 0
186.930161960721 -0.228986245467729 14.8972632043423 0 0
-12.5826728908204 -5.31750884109437 -11.9545205970347 0 0
73.3304585967233 2.49520858359237 -20.6859536453748 0 0
95.8497655666717 2.20248963453653 6.94868908599465 0 0
82.8178630006603 -12.9802229864397 -6.4539353990453 0 0
133.753757422058 17.2105217496798 9.54779310804758 0 0
18.3980398593133 16.4664381794513 -6.65870191975429 0 0
-95.6280389525253 4.08860542734059 3.55078393639052 0 0
184.905542955916 -42.618455300943 17.9706491192895 0 0
172.161623791843 -9.29941279376556 -20.2353779628387 0 0
-126.820296203641 20.1391337359015 6.10183784011895 0 0
-51.414459273533 14.0620619485362 -20.1850996491434 0 0
159.892555762336 13.817625842037 13.6466273710703 0 0
187.134508603324 -42.4350340703533 20.6255483031816 0 0
209.309844551983 -19.1338546135856 19.5813927776643 0 0
181.543560371936 10.2720428286225 25.4768944347446 0 0
150.813757881172 7.73242255858886 -21.5968282757788 0 0
-53.7256715181561 -1.6172643021904 -18.4108165753547 0 0
202.96155626739 32.9419312904739 -9.99073173956336 0 0
194.683439550222 -3.13103755437411 -24.6053358446824 0 0
153.106295232407 21.5789190161855 -12.4056760707061 0 0
176.479348756896 5.62414052682538 15.2327933123988 0 0
158.885180415876 22.8494744468615 15.5861076832351 0 0
-101.704062035975 0.615449071224431 0.808351402205114 0 0
175.197150057763 32.5158494765514 21.6754299332919 0 0
135.652883664488 -9.40527694890539 -17.5794422754996 0 0
109.010479592625 -15.2797485983119 -4.93547853698017 0 0
139.352721389542 2.74903785213835 9.10541884661676 0 0
71.1456846772893 -1.94802869228079 4.68632347523081 0 0
165.32316473877 -25.6637655002765 9.30682089980852 0 0
170.927613917216 -35.4189580703423 -1.39474359550969 0 0
172.69881189221 -2.90098569688006 -20.8405391788211 0 0
181.817441150071 34.2644403463747 23.5958129296635 0 0
-98.1690238002637 11.8069950010354 6.9312221263229 0 0
155.00969694712 -9.75094246492036 8.37373770229213 0 0
3.8818151983444 17.7982035587101 -9.65411431109395 0 0
180.320124779428 -0.852229705023795 15.3081990292166 0 0
-111.497168422785 20.5294391644194 -11.7407396764307 0 0
181.074826707778 -1.90926493887078 -22.7992431591167 0 0
203.140617184242 -10.6975623075647 -23.3442869251985 0 0
-122.830902368382 -3.95900986517173 -7.3720050258155 0 0
120.012455135303 -15.6523050864407 -1.16146099255268 0 0
197.588866629505 35.5719299103688 16.0065694095029 0 0
157.035083515827 -29.0922932095795 1.13806453328255 0 0
162.816420493124 20.8862829131759 16.884892457747 0 0
-101.818292890299 22.1829908462942 -7.66447764001496 0 0
-37.3332681447154 2.31861565498356 2.66110953239438 0 0
-13.2624668292492 2.07382205036891 4.4996242371834 0 0
202.777042850733 -16.4454618686511 22.2975498691665 0 0
197.028352841982 3.64190942410884 -24.1410701731735 0 0
117.686705628227 7.21404627453931 9.01585874054545 0 0
186.08028179107 -42.1959185584976 19.3274049859446 0 0
187.888051951002 -34.0188959705248 32.0909220477671 0 0
183.175395050263 -36.1596309286142 27.8645118721689 0 0
208.582751074683 21.7399638798408 -16.8595850118473 0 0
-26.2561339999633 -4.11801580279834 -6.55716299777866 0 0
211.878328897514 -13.8919758730188 -15.1562232738287 0 0
154.283858936506 -27.1326330173735 2.85221228965208 0 0
151.514936465405 19.7265055391811 13.463106183135 0 0
171.073023796068 -17.2841366204522 -19.5480537804495 0 0
214.052131370785 -14.965176063013 1.56984620073335 0 0
167.754442639162 30.2013330680572 1.26356795346984 0 0
63.0048432427116 -5.71528596242528 2.9267134088102 0 0
-21.0039216871026 10.1468012627144 -21.5711220972923 0 0
-52.6912976332025 9.83780766031611 -22.0053895474094 0 0
199.6802600426 -35.9644407749748 -8.73445420961085 0 0
-114.791942047166 10.2482698879536 9.06554870426783 0 0
-21.3507728394524 -1.23062212071407 0.478911874011655 0 0
-42.1852095827088 18.0711082313473 -16.3494422378671 0 0
37.7954275334509 15.6631192827659 -5.58904196877516 0 0
8.40739014111232 -6.19845996918718 -8.52363773233722 0 0
-102.534624411793 8.71855048057095 -19.2302499018652 0 0
50.1080452389123 -9.52883593198909 -12.5034636615902 0 0
20.4634949470271 16.7367259964712 -11.50002003788 0 0
-48.9259461333349 7.98560893358302 3.06227089759243 0 0
139.151271672222 -2.02126515171543 -19.7015091416811 0 0
-43.3230658899867 -4.44786575591919 -11.6623481650708 0 0
174.00079360636 7.60459219573966 15.1803146339095 0 0
138.221031961155 -9.37901835973574 -17.6254498401651 0 0
206.638139719782 -36.6960145029035 -5.61472319381667 0 0
-50.8720380777836 17.0373795704815 -17.7370343570838 0 0
153.43395635832 -9.51711335313664 8.23276056133959 0 0
-128.570603685038 -3.33473439406622 -1.59042620496363 0 0
214.804415897179 -39.1531341278569 15.7539769086606 0 0
-138.023958380665 23.0262505302059 -1.10815486533634 1 0
212.966442060709 29.4315747793128 7.81474975711288 0 0
150.670219529436 23.1052851360814 -5.29887567056467 0 0
-86.2561496755723 0.732794284875375 0.20659873290434 0 0
179.537150473844 -42.9298044591918 -0.651173061418927 0 0
131.981938505382 -5.40716605459101 6.67015571497833 0 0
149.615322311961 -23.9194951061408 -3.4655595747957 0 0
50.7888536269752 -8.71155194439098 -15.6676216333416 0 0
-18.0889258551747 2.6857226295982 -22.5300581042783 0 0
89.3717871476763 5.5510766427782 -20.4356984560451 0 0
181.345018549639 -6.9808076843724 -22.4423823449321 0 0
132.822681102514 -12.8318890915606 4.67702983756634 0 0
-70.2041400956374 5.1592333594781 3.63088080789725 0 0
53.9254491823688 -4.97669074947328 -19.3521481303591 0 0
155.355094194174 10.9686884306954 11.5744381788421 0 0
161.257951806169 20.6641093280525 -19.5437693564802 0 0
210.402432643541 33.2058511737239 -0.661366465740695 0 0
137.786774952765 10.538939441873 10.610964739624 0 0
98.574706662016 13.1032629739582 6.50107521594926 0 0
61.9765166249632 11.5978492395554 2.8002043649414 0 0
206.023590552565 -8.3670884598931 -19.8231705111052 0 0
175.408866694206 -18.2261179567878 -20.4730627594848 0 0
192.481088233348 -27.8052260677022 33.2743094720458 0 0
179.916680198729 12.3883695305651 -27.3413042406853 0 0
5.6471487115088 6.6906306411142 -21.8000411988082 0 0
155.286438530295 -14.8106269213158 8.38442914160745 0 0
143.923220978563 -13.1459264053694 6.3237535285085 0 0
209.045788934916 -18.927906535314 15.0655891116206 0 0
184.866144884316 15.0754622466707 32.9609168151237 0 0
114.511728111947 4.25740806212795 8.11170970648107 0 0
166.842585317983 -1.98124006654585 10.6500415283598 0 0
99.1688823728478 13.2060406346063 -16.3231752159886 0 0
194.22148189676 18.6163328162779 34.4652497584698 0 0
182.131390466181 11.6584046268086 -27.9461344402797 0 0
172.757113026961 17.9032855434541 -27.1152598533756 0 0
204.563333732957 -41.403793102803 6.35694260925526 0 0
11.09438926774 -0.221159148729439 4.11254876825572 0 0
180.490787008808 -30.2762539211515 25.2273339419231 0 0
-49.971521702296 -4.12212366327006 -13.676293351187 0 0
188.453193866943 -18.3704163967083 21.119468872142 0 0
95.0394261877423 -12.7934819454488 -1.96226647581572 0 0
-21.9759551464922 -0.335458801041708 2.32952058075118 0 0
152.805371044041 -24.797817011988 4.49084873555046 0 0
-29.6575319521439 -3.93552517154212 -6.1588483679831 0 0
193.025532673233 -44.276183183842 6.10920299633863 0 0
184.940266608459 31.7803650346573 26.2703795409818 0 0
163.397010192187 13.2798095578446 -24.0988155547022 0 0
-95.2338022364271 21.7496695545731 -4.21695862139593 0 0
53.3711929460999 13.9207008100142 -0.810393541450193 0 0
123.745803557255 18.858750292499 2.16610978116554 0 0
188.880805471954 28.4354464299478 -24.3393802054937 0 0
197.23353075463 -42.9251890075486 7.15198768880802 0 0
208.763325816662 -7.8534683370598 -15.4860095198528 0 0
-97.9003160119672 18.1222874105273 -15.9700605505991 0 0
185.363630867252 11.7221122806385 28.3170680398088 0 0
109.680603100409 -8.526309717121 -17.9475971643638 0 0
177.478114082265 -42.6372903014964 2.04550147626612 0 0
216.817610411579 -21.3580441215718 -2.53795358221103 0 0
-105.340291569585 13.1291555912959 7.58953510502203 0 0
103.979320747796 -14.7530309422953 -10.8575412240196 0 0
-102.790534487035 18.2349667648243 -15.4407967048396 0 0
145.457455903068 22.5344373903488 -2.02252240157281 0 0
187.827352741759 26.3886272079481 37.007989230587 0 0
-23.9588363085818 17.5957684814395 -6.61201369800409 0 0
-34.0046427413237 17.1792049613954 -5.17347930464271 0 0
215.490504617242 -18.0960411319433 2.12955898382838 0 0
172.155547281054 -22.1374931302694 13.049314719389 0 0
-114.420602096811 2.5633920925392 3.92484969319698 0 0
209.041204603738 -1.03297149627002 -6.03604247887602 0 0
193.321864727222 30.7235064618731 36.191274201995 0 0
195.966966696873 -43.4958385758819 9.36457195318952 0 0
-130.988783781304 10.5956870395114 11.2549432997014 0 0
184.463372730894 -20.0995456942935 21.3050044039815 0 0
-138.608039560377 -3.49524263858986 1.99309359048143 1 0
-125.878141479261 16.2179505957936 -15.1209901389022 0 0
208.206769341605 14.5927003510713 -16.2381064095273 0 0
-79.7540125371794 21.5810501408989 -7.96084884387423 0 0
197.986772200549 36.8153507529115 6.63861095703153 0 0
144.712958781663 21.322664398052 -8.18942734805848 0 0
210.622220105315 29.8874272390576 21.0390868544634 0 0
84.5404424736557 -2.78466909155025 4.85791362717819 0 0
196.688574280972 11.4881145105687 -27.2322238847253 0 0
169.89455755819 31.9264289036605 3.60737172811154 0 0
-33.1044880457142 -4.09087250606421 -7.15899472820364 0 0
71.347786927556 0.929003739377027 -20.5173958695746 0 0
172.547643441674 5.35373552828993 13.4181666039991 0 0
195.667890792645 -39.8047733569223 32.9699992302467 0 0
90.9940395112395 -13.5062436554392 -4.77487653956023 0 0
216.139996562512 -19.4122210169608 -2.74207275764097 0 0
151.970750756318 -25.6049165258629 -1.73166004384837 0 0
109.0705036897 -14.9441753321452 -11.778421641985 0 0
171.865618323764 -24.9406814418497 -15.2002651320495 0 0
154.17720903217 -15.7252446919194 7.97987139833786 0 0
123.754185018873 -17.2587108884763 -8.38465018061195 0 0
209.991155198193 9.02268167777726 1.79920279870611 0 0
144.143217208522 22.0111742807576 -4.07202242537147 0 0
181.611611234887 30.0797305981955 32.7605014606709 0 0
194.954783957197 -9.22279862470362 11.7163656312192 0 0
157.350473580885 -28.2368396705189 -0.945630655671775 0 0
196.458583238636 25.5744873298637 -26.6284244101968 0 0
4.00331325795051 -5.6777610124031 -15.7998147072326 0 0
188.770206157789 -44.8746425287037 1.64543868451562 0 0
178.238670916173 -34.5211795019611 17.0640073240924 0 0
199.824297142324 -12.0848497531826 9.03721522777987 0 0
-72.4901761063883 1.61466255051495 -20.0353259751276 0 0
25.8579404468709 14.040633760439 -16.0015800999856 0 0
188.701740005019 -11.184824141268 15.5236413875831 0 0
-19.5700312596757 -4.16377114636697 -16.5740034462712 0 0
58.2015389368092 0.248208600257785 5.22868128041821 0 0
-12.9492266267671 13.2593848644557 -19.5100363860701 0 0
116.99765881369 3.7149941894213 -20.9360607227068 0 0
40.7997830735059 13.4657433170482 -1.23790270894938 0 0
203.762862944746 27.9111083885821 31.4173183812622 0 0
183.019421227309 2.28075421748174 -23.3654946966667 0 0
122.59358843409 -12.5494530803374 -15.9564334739444 0 0
-92.2503511300671 8.85703100554435 6.2796505651884 0 0
-6.40460141743945 2.07950643646307 -22.2758255245137 0 0
-30.5329633112938 4.26188680704504 -22.6988248484476 0 0
207.727386595267 -18.4075480907099 11.1674324123462 0 0
54.7342347345214 2.90936178331555 5.91358182169503 0 0
44.8542410114811 13.1358491774277 -15.9638336957136 0 0
-61.7954822214703 0.394126071997952 -19.7997293355281 0 0
179.879179698451 12.088115789537 28.4997376257489 0 0
205.685762311012 -1.51811207899273 -16.4483930255453 0 0
100.193873916991 4.58307690625719 7.72404372473127 0 0
165.836330947291 20.3485404103985 -22.9264197367322 0 0
192.757638225873 -15.5216233742608 16.784973598475 0 0
201.189505817686 -0.0492681152180449 8.30161657723106 0 0
-114.257269296639 16.7920015814846 6.35370502852541 0 0
170.25848957455 0.643892806824477 11.6594223727501 0 0
116.766599690107 -7.56187744318709 4.88752135604725 0 0
-132.611478352585 21.5011389935392 -8.95008577142717 0 0
211.011863970343 -11.7946695803519 -15.1962592498359 0 0
-130.216729229411 6.86986949906537 8.57428671327109 0 0
-62.9945801914136 3.49214540308121 -21.6363836521297 0 0
-61.9065941860381 19.493758202137 -14.6000191367763 0 0
-26.9849582477818 19.2861542185931 -12.8951594062343 0 0
190.213856489772 -18.0968711090837 -26.7231021838049 0 0
207.933540844589 28.3800327377893 -15.260329627221 0 0
156.905656308305 20.9440349079552 -16.2863376623104 0 0
178.877668061933 30.841119689291 -13.1646626002901 0 0
169.403182428276 -35.6870811049703 2.58868532089681 0 0
189.069930765832 -13.948920266714 16.7388540324164 0 0
148.400366859352 -10.6380224085017 -17.6846754742669 0 0
119.945169919703 6.63674753014365 9.04113614484221 0 0
189.985096347155 -16.2977061410976 18.5730085888529 0 0
86.0536560804352 12.3078419654573 5.40683527256401 0 0
-44.3539044324124 20.1510796179112 -11.5380396761777 0 0
-111.739361473539 5.72908218928695 -17.8583922266539 0 0
177.271258964679 -15.4350602893842 14.6023975718409 0 0
-97.1163306550731 2.20596816700403 2.03820170488453 0 0
46.0086033902936 9.09393436430003 2.7715189347881 0 0
185.33595856886 29.7871160953788 -21.0978455150433 0 0
198.578456776072 -38.2227189869371 34.2413564427863 0 0
194.597923466567 29.4789667953823 -22.6517141896101 0 0
60.9510818626497 14.8513337794256 -12.6312238132323 0 0
81.9780175039306 2.97840933727872 6.61566833683295 0 0
201.128902178017 12.6645994192082 -24.8649149999904 0 0
125.048447404576 -3.53443736834147 -19.5677447328362 0 0
165.912135976699 -0.184660372102294 10.5646362463533 0 0
199.096811341824 13.2853433542325 -26.5285424355286 0 0
190.345623427158 36.8666589531827 17.0243205767112 0 0
182.039461010925 -35.9795410826342 -10.0397439227364 0 0
-129.280769873773 9.57076387589871 10.5221879212345 0 0
185.387342500116 -40.9367173429413 21.2521511607802 0 0
-109.360148686404 22.4083708354328 -6.61254240679356 0 0
187.073190209716 39.4040476773883 9.85165359012665 0 0
90.684859532986 -6.70641371164915 3.53494091545142 0 0
127.101793058282 4.15477456055758 8.92753781331964 0 0
173.527031152052 28.6464718748065 -15.0089001071945 0 0
186.832319133342 28.6740806231195 36.4926233737244 0 0
208.161079161479 6.11178708098295 8.14379964386137 0 0
196.421690120442 35.9595162600591 1.35594102058309 0 0
112.267984433554 -7.88734049057146 -18.1924847485137 0 0
20.8559380606835 -4.55744175513178 -19.0696098522456 0 0
33.9311813559093 12.1421405376607 -0.304660984467455 0 0
116.837559001801 18.6801232243249 -3.53413159292945 0 0
167.684785149232 29.0918596017845 -3.72854964500219 0 0
41.0622772466064 -5.4423519667842 -18.7819617220568 0 0
171.657500848758 -7.5888985629061 -20.1685816393301 0 0
144.930218575025 8.20769510764302 -21.5404114681251 0 0
-81.6500904046774 21.5820584686002 -7.20304844715741 0 0
212.405738473484 -13.2701407290952 -13.6641862617531 0 0
206.869313735375 -31.685583294093 -13.1648601620854 0 0
148.632954371213 -17.8372277300905 6.02856996523801 0 0
180.541262705838 32.1111234289925 -12.6147384260084 0 0
83.3052140326578 -12.2088620115148 -13.845005555393 0 0
116.454147132944 -9.80048769316268 4.00437732644047 0 0
211.056025709697 -7.9762945701035 -9.80835785862653 0 0
148.651311065316 17.8440976969696 -17.6777956695471 0 0
6.019531100372 -4.00645831242229 -1.54064787448441 0 0
69.3938912407954 -8.26594885510029 0.625878548319085 0 0
165.737508998558 29.4519471126558 2.94544848630043 0 0
3.86673897233525 3.86999848386119 3.70272657989129 0 0
193.383045508808 -7.99465880155897 12.5549124974793 0 0
-88.755543842387 2.59944337142918 -19.0655164574352 0 0
180.630393813785 -11.4670246079186 15.7574605094326 0 0
75.8536819266063 -9.56839104506195 -0.295631323710856 0 0
-39.4436848413482 -0.508093498920739 -0.699298195810587 0 0
158.572257131537 -3.22666089831834 -19.610666721426 0 0
-16.8216493536933 14.9556695452544 -3.52257790302625 0 0
203.495631265074 -43.1654980252118 24.8260902515928 0 0
165.183682633673 -6.06242757623149 10.2527866430826 0 0
-128.055329443594 -2.71667774085088 -10.3949251157753 0 0
-89.7070576718981 7.60955393023355 -20.4320670820362 0 0
149.241739033769 -4.34555526291895 -19.1836956292401 0 0
197.073702099433 -20.7618685734159 30.5290539651481 0 0
-65.6061429459867 7.56555562996112 -21.9074940458336 0 0
33.8688693467348 3.76517204234499 4.46757107026296 0 0
209.720162761505 -35.4236806269531 -7.03829116639674 0 0
135.655440801077 -19.4176273525412 -5.52377836273631 0 0
186.452283887695 5.64688540532922 18.1851503072328 0 0
143.576726391096 -4.91996814596943 -19.0141865225392 0 0
214.520840073342 -32.106749666368 23.2827881121309 0 0
195.289791159064 7.03748199567045 17.4126308778272 0 0
33.4583244310201 15.5663524821681 -5.33730597017562 0 0
170.747422176645 30.8953355923976 18.2880867614334 0 0
191.495812387414 -7.98865026904459 -25.5172192506604 0 0
-83.4934287499234 14.5023717627755 2.33821746026465 0 0
216.115107409673 -36.1383614267313 2.17308700302859 0 0
209.07872518897 4.62012520752409 -2.24491516146593 0 0
-130.042606196985 18.6307792867357 8.2338039074946 0 0
92.2539341613308 15.6901548516727 2.26292434668143 0 0
190.114876905833 -25.3149436069453 -20.5840146282331 0 0
106.445825351629 7.5790210036893 8.61556380048669 0 0
210.359262833175 -23.7809854367205 24.9720783025502 0 0
33.8110346751677 7.01424518323126 2.68431876105787 0 0
179.070362552429 -0.223580902164298 -22.640684239816 0 0
-101.589025507938 -2.63300495818365 -3.15425875659093 0 0
118.876320906863 18.3792546460031 1.94004104180892 0 0
198.571789271976 9.24361324064135 22.0243312037438 0 0
149.859119374851 9.25469038966063 10.7786232219304 0 0
186.000977039083 -13.6757045135206 -24.4817266448417 0 0
28.7908007678922 -1.64405356675958 -20.6683460924261 0 0
-89.5044986677228 15.285553947581 -18.8460008942733 0 0
197.120297381015 -17.1414228809758 19.6675039153131 0 0
119.538363518151 -2.9427553492517 6.36079840839079 0 0
-27.0569905321352 2.83132217230561 3.74646709233464 0 0
35.7863889576946 -7.51598449128609 -4.72513912478952 0 0
97.127532081786 14.4551196977012 -14.8072275045642 0 0
150.193662718407 21.4982601991813 12.6938320546229 0 0
176.961994091475 7.95325055063252 17.9212999317241 0 0
171.638591988172 22.2761255080791 21.7321247421787 0 0
190.050132376183 -3.56055171305123 14.1866168772208 0 0
163.529186612006 -24.2396417711938 -11.2066498981961 0 0
-34.9627659903298 -4.07007912589934 -16.2052971372893 0 0
211.826829372897 -40.7035845348474 21.4772822506003 0 0
-30.460543251622 13.3163874469054 -1.55615158349672 0 0
-74.4824424296265 11.6723386746421 -20.9082816606752 0 0
200.876776974361 -15.5057156301781 -25.6020250664553 0 0
210.37633243246 -40.9725192456457 11.7165914416828 0 0
166.528644904005 5.83139740074324 -22.6522889870508 0 0
-22.4161929765773 10.7181040622976 -0.104759484257823 0 0
173.742396166234 -21.500779342258 13.9503581361243 0 0
141.190242160081 22.1708486346051 2.70626333136442 0 0
168.390652572477 -34.9112738999794 4.61830635300116 0 0
143.922636954744 1.83943107781833 -20.6428771614401 0 0
-141.79834386846 5.751304330087 11.0822931601893 1 0
176.297568834469 -16.7563566729062 14.7062519537987 0 0
213.050117470446 -40.8973522298619 15.9195773164746 0 0
182.208443093791 -20.9348482104702 22.9455430330806 0 0
205.364139801614 -4.72940602063726 -18.607539977795 0 0
156.305098036366 3.72150456361282 -21.0675497677645 0 0
1.24494699603686 0.0582184191864416 4.01320441182702 0 0
175.637293184259 34.3544183275303 0.43199078424583 0 0
-86.6298647655121 14.9360105826506 2.57228260617241 0 0
73.8832369832372 15.6834433003761 -10.8758158256182 0 0
188.003327293746 37.5982427039641 16.4921264986876 0 0
208.201293547906 -39.2594873929672 1.64854589596553 0 0
174.964616588097 -20.7784290419719 -19.560091257981 0 0
-97.9328433652089 4.07791995174199 3.61911699532863 0 0
198.893929134824 -40.8435436148316 -1.22233646665345 0 0
208.98300972583 12.3084961356699 -12.0294829901946 0 0
185.297421886769 -19.9042994944501 -22.1457662446416 0 0
132.670497721871 -8.16259887341239 6.09633026622865 0 0
-98.2070538726326 22.1903623559102 -6.9915839624604 0 0
198.21858713789 4.62913026314898 14.6595435112377 0 0
205.43838076958 13.9237787028004 21.8976143620622 0 0
75.044563774451 -7.56791157649949 -18.0637546090025 0 0
42.9441455601029 15.4231650092904 -4.8484714119283 0 0
172.69488207424 14.1208145549013 19.2630131931215 0 0
199.59687960851 -42.8801297446908 27.8584318258006 0 0
100.992519575097 11.4128186674782 7.69085256619257 0 0
149.221073390854 13.3777707702128 -21.0858419146775 0 0
175.309282503595 -15.4854683919432 -20.5327664296081 0 0
193.869273665231 -32.794120967498 -13.2657552878225 0 0
189.924635347015 -43.7291597250049 18.8761855106469 0 0
81.3311959728991 10.2367264149016 -18.2856547141751 0 0
129.095208105799 -8.94013925143482 -17.7612863690162 0 0
200.36574046927 37.3077944417518 21.3358834487763 0 0
194.801511504703 9.06466175726881 19.9263394962856 0 0
205.642473376881 11.6344274363707 -18.8443921027434 0 0
93.9327190002069 -4.80831793483687 -18.9729302111722 0 0
202.698936944223 -31.6718315583579 -13.8591851308714 0 0
-28.1533300989038 4.28481895431431 4.08313221780717 0 0
208.807380899106 -4.87889851854163 2.02200352960807 0 0
-28.51771421554 -1.09815375343329 -0.281246839170426 0 0
166.667439794507 -14.3289556553813 10.9155934540525 0 0
191.658206029801 -32.6468321043621 33.8137022603999 0 0
217.549641453937 -35.4114279303435 16.1095419294905 0 0
190.714006524716 18.7107506027393 -31.0740974270923 0 0
62.2649930784297 6.31904475961149 5.68884309237488 0 0
129.967344076124 18.8994123973715 -10.4185983315363 0 0
-50.4009939712883 5.26716369670079 -22.483806128147 0 0
-15.7712048806979 3.32811051923632 4.1196839715455 0 0
166.198531378895 31.0945942906284 8.47618289233216 0 0
112.366743263694 15.6770866323732 6.1009751361063 0 0
155.773379892432 -10.1516406607513 -18.5324763161851 0 0
161.813675154735 0.23202746596287 10.0838812845079 0 0
147.496815349985 -17.0821657208585 -13.6032198287291 0 0
-113.289137331643 22.4358904109997 -6.67163093853695 0 0
140.645320547579 -13.2151624178812 -15.9706264065396 0 0
209.730782041693 10.0955278511348 -7.28383737384328 0 0
-140.154141739115 5.43556396978177 -14.3789086361374 1 0
27.7614683081259 9.48291949040852 1.01082521208454 0 0
194.89994999192 -19.1735310316575 -27.1026531613356 0 0
-83.9210999021801 11.1696707342947 -20.5344985335298 0 0
145.224494692247 9.40601325098419 10.6690844033049 0 0
206.636600992574 36.1321545736357 6.73551862615307 0 0
16.9652500920724 -7.00501115161181 -13.4661078186484 0 0
183.589831023929 11.8043347011038 29.1703017218694 0 0
-142.409015102514 0.259283538054021 -12.3988324670305 1 0
-97.7473206217079 -2.40068489223868 -13.4998336463507 0 0
126.270039784181 -3.5497351280663 6.6411687766193 0 0
163.364584715974 -30.9895048952405 -1.02528320092909 0 0
34.5800942856015 1.76546571452207 -21.1200124633921 0 0
-121.002324318054 20.1635698852263 -11.8353950289116 0 0
178.246025767769 -36.8066046504528 -7.16897228493458 0 0
203.551193335704 3.42298277045587 10.9248858378255 0 0
31.0931630651462 15.1404710332449 -4.20504117612538 0 0
174.58004975182 -33.269959407332 -8.7507415218907 0 0
90.4040386773516 -0.837220148485948 5.84139221835507 0 0
211.67169192442 -13.0196842950661 4.20251452002601 0 0
132.70919210155 -17.0113773390412 1.97425582503017 0 0
168.845953269865 27.5272215173352 -11.5340992825762 0 0
155.781530159316 -27.8724114899022 2.98920267798315 0 0
112.978782498913 16.3547095852224 -13.1385452517973 0 0
212.738043596647 17.6640923514668 1.06015257645924 0 0
54.9455152816004 -0.527237361051736 4.99874914995357 0 0
-102.340554787318 21.0692479794667 -0.616272680998363 0 0
152.731693014626 -26.6983280214034 1.77568913752331 0 0
206.967176584203 36.3674547416175 22.2468239080549 0 0
104.300303867094 8.0552046815387 8.7180221426918 0 0
76.2876168799239 12.966843715263 3.37067321616902 0 0
180.551661327638 -18.8522103572116 18.5067832445968 0 0
177.13743465564 -9.13013923668395 13.639297201136 0 0
118.002296932036 11.7635673602069 -18.8444655167902 0 0
185.385131346983 35.7831046706332 -1.88605801231297 0 0
-96.5265830906633 18.2451796732563 1.89856928493915 0 0
23.5733084439662 -4.67086251001422 0.97541939606794 0 0
-21.6630978816413 0.222285469645469 -21.8741631777179 0 0
42.7589088581901 -9.01749200564032 -11.6818645231413 0 0
117.446245379571 7.58414162523666 -20.5845199655406 0 0
193.420870946155 12.8357774694308 -29.2609252157006 0 0
201.099363661582 5.07299412308063 14.4649223434175 0 0
38.4064773804973 15.9927749996712 -10.2700722456971 0 0
107.136700007104 9.37236573589882 8.90381735643985 0 0
187.79650648839 -13.1128070737872 16.6303354539584 0 0
-100.777156141905 11.1692921137194 7.71012206159553 0 0
192.474360692582 -18.5222453900167 -27.257818182462 0 0
168.906018408347 -1.12726176873925 -20.2465362710859 0 0
155.503556278035 24.7580592077655 -2.97532836411866 0 0
198.03307974012 -42.6158496768784 4.85061130506252 0 0
102.437625280962 -2.28722938581881 -19.915738740776 0 0
77.773989620195 15.2226709751193 -12.4427713731273 0 0
-10.7898267130013 -0.695382088034567 -21.5792599169267 0 0
-117.448234866846 -1.13572919299392 0.211882371874675 0 0
54.0589687361594 12.0481187760747 1.51254425070879 0 0
154.145407666911 -24.3330028921306 -6.11267175321737 0 0
158.999006108832 26.9254174546951 3.43529623496595 0 0
70.9034890843435 14.5008531376744 -13.7086997927691 0 0
-53.3325057496576 18.9870036833442 -15.3397394467323 0 0
-42.5377717382754 8.37453652349699 -22.4255272533542 0 0
-135.650955211911 13.6480886085472 12.0397950865602 0 0
-136.180521305051 6.51701149413639 9.95218282783042 0 0
211.659688469312 -22.7176005154211 -16.0055610893397 0 0
158.451454641663 27.4277486593301 9.01094805722133 0 0
193.283613858252 6.13608816505015 17.4134058442442 0 0
-125.827833371153 21.047604030287 -10.1906079603936 0 0
-23.187658894016 4.13596485826309 3.90232739759538 0 0
-56.1940793023991 -0.494272423873804 -1.52360484695351 0 0
136.651864281471 -14.837439710028 -14.5995216479721 0 0
212.248410634462 -38.32727276152 0.181801469270374 0 0
209.736620121734 34.4373983052243 5.41812627313554 0 0
-29.4407736690439 18.5722279702016 -14.9888133150718 0 0
197.74227272928 34.1998686029834 -10.7334483510645 0 0
-19.4135141686952 -2.93497134683173 -2.52999424198583 0 0
214.401016798653 -34.3982689876968 -6.04271672360654 0 0
175.888796248876 32.7604866229921 -4.53236027418501 0 0
165.401480502465 -29.7997419633434 7.2981465439699 0 0
183.606797777696 13.9655158226262 31.71563084228 0 0
154.353954980253 -21.0758779263584 7.04099326696177 0 0
90.1843904678642 11.7864925203691 -17.2097163573433 0 0
-5.54110973173217 3.18012924277597 4.09534512881506 0 0
-103.031956462141 19.4750806124441 1.9540649417462 0 0
138.276840691263 -14.2806026926371 -15.1442463104846 0 0
93.4920499799711 11.025429139586 -18.0011630179542 0 0
-134.767768280572 22.2542719156979 -6.87572970945464 0 0
189.440987822349 1.12468966894098 14.6000630525112 0 0
173.794195327591 -28.0072249579018 13.6689503398057 0 0
130.914022364643 -16.4659747247277 -12.1611485745458 0 0
-113.19285294405 6.4510757760808 6.39819610274903 0 0
166.398253758758 -22.0034668063699 -14.8294648802705 0 0
-39.0666532329631 14.6968031237438 -19.4433496664113 0 0
166.304681760701 1.87511283156584 -21.3217933614846 0 0
-123.920799365585 18.9754459836363 6.81633242149326 0 0
175.469211013263 -18.1492539657591 14.5583203816972 0 0
206.461312233041 -41.0693355300814 8.69795054665433 0 0
-4.74531090213884 10.937914713094 -0.595439600744744 0 0
-8.86633091739354 -5.3847663547274 -10.9593680753663 0 0
5.45919378266574 14.1599401836059 -3.09615058366061 0 0
199.465570502668 -28.5627289715673 -17.1392604178695 0 0
150.7133292999 -15.2651779957176 7.21674616908335 0 0
186.966181550127 1.62953060867657 15.132921977163 0 0
187.751572798147 -43.2113066549104 18.8171002135577 0 0
167.463027532882 10.3283632697978 13.5891758435756 0 0
-100.510240973403 6.08292438275747 -19.2285973163107 0 0
195.296474146037 10.9215932233557 27.5945231325465 0 0
-50.7942578563815 11.6333614250233 -21.4619240726184 0 0
109.648239298907 0.736268074257403 6.99761405141212 0 0
178.76412688621 -19.0657242703135 16.9595007638364 0 0
183.373388190014 20.2291321057214 -31.4381702087049 0 0
143.554032087212 -19.9188644100507 3.37468671170649 0 0
172.595064723046 -10.5271620967515 12.1112575026288 0 0
213.20267377098 -39.1692650796193 23.5497510618913 0 0
131.248473548724 4.40994752938009 -21.3023951438773 0 0
82.0349855153726 16.104879060134 -1.02823890291158 0 0
136.792174042601 21.196312538216 3.90970108607114 0 0
-7.53417354840175 -1.9096315265804 -20.7994778729408 0 0
211.603972670628 -15.1269483936287 7.37544623679969 0 0
91.4224017904948 -13.8566134839418 -9.0524962366151 0 0
-114.471148070201 16.2284956638199 -16.3998602866481 0 0
-56.0905583798817 -1.84570905438168 -3.49500161747233 0 0
-126.918623734732 -4.15923311181083 -5.50376515891813 0 0
-119.79612882717 3.0716998418481 -15.7320454568865 0 0
212.098892518233 -41.43383701834 19.2055338540178 0 0
208.011362017671 -12.4014991377959 4.85974229349716 0 0
-53.2497176100244 -3.82914206369856 -7.29731539253093 0 0
173.833619992358 34.581878224883 17.5715442025348 0 0
50.0652203732436 14.5406813890704 -2.16466240073011 0 0
111.98879679012 17.2909564070637 -10.5992574286846 0 0
13.4409891712113 4.96906721801961 -21.7801988899961 0 0
-28.2768017112222 15.9488464462502 -18.0037868005664 0 0
-86.3494691125636 17.142200178289 0.95855621031063 0 0
162.093637036339 -17.2962744362378 10.7363358155853 0 0
107.463234528391 -0.997130764169651 6.41809243687124 0 0
197.087057555896 -42.9551808632023 27.4420570225925 0 0
180.051862387651 -25.3534265434129 23.0487927814979 0 0
142.727100358227 6.4670870112425 9.85896415244203 0 0
190.425314736958 -19.4780271568823 26.531846030543 0 0
-67.8183480208383 16.646789949791 -1.18639757476152 0 0
113.303860144402 -5.17537929937074 5.39945098481906 0 0
-131.898147974119 22.7186051014958 -5.01930475753863 0 0
182.699071587467 -3.64002069161779 15.3933039659773 0 0
-66.8111009866077 -1.41305334661231 -2.82387594375688 0 0
178.994341652664 37.9874777720199 8.66715940070565 0 0
-118.76623562454 10.8096458866798 9.46886404834858 0 0
-134.505403872845 -2.71539823216908 1.5873895159445 0 0
93.2536833025241 -9.77124853189072 -17.0645968099132 0 0
197.014850189994 -13.2071317170847 11.7912749006925 0 0
15.4260971712014 -3.53360302208077 2.00446552717409 0 0
111.229008200006 18.2949898349297 -3.01007399838465 0 0
187.898720988661 -44.9419942486267 4.99055748859324 0 0
-116.255670983638 18.250631677574 -14.5810926853042 0 0
204.133630629181 -21.5276264702888 -21.8806549356462 0 0
197.433635511048 -4.46525173654837 -24.1119615231136 0 0
159.601241069031 -1.72296438906226 -20.132567305809 0 0
193.439383709785 -14.2973156158948 14.9707397119667 0 0
98.9468390557404 -11.0979225546851 -16.3214559960314 0 0
150.047455712062 24.6609423651925 7.72243494114457 0 0
-67.4375583076749 -4.33429735368873 -11.5580377226884 0 0
-32.3727473406181 1.36034219153603 -22.1079564621698 0 0
132.831466431649 20.0873455304985 -5.80037561765395 0 0
30.8028207218548 13.2064230116863 -1.39915527118859 0 0
200.029941538475 -16.3088277816734 24.5985079410629 0 0
201.75757843924 -2.83890947579052 -21.2480808168207 0 0
54.6695024128426 6.89342898439195 -20.1095466045403 0 0
-18.0147769378221 -0.101069240546304 -21.8125907364395 0 0
-12.7267382412057 6.94261714715477 -22.3423803081939 0 0
199.748607738591 -43.3651583051186 24.7378775955168 0 0
-24.1930561165477 15.7973116404464 -3.98602806112577 0 0
166.630663209875 28.9345173378631 15.5202221768246 0 0
184.004242028327 -40.398157157409 -6.45706467527561 0 0
-104.037531211841 13.4362875267753 -18.5211417412967 0 0
129.291822127577 4.04818114008545 9.04518984535405 0 0
-6.74289397301696 -0.893169434833546 2.9104825838908 0 0
136.935968266787 -3.42818157886202 -19.4258608113884 0 0
205.982065496001 -17.3045275951627 19.84553056367 0 0
-42.2376559986234 12.3494882574585 -0.414798587573783 0 0
204.739296071512 -27.3855348820882 -17.6076310594102 0 0
196.335109898677 -41.7584630843667 29.2329906528845 0 0
68.8483282234415 4.62534111552966 6.59903866539494 0 0
25.7280453240844 -5.37676659218563 -0.445570565578764 0 0
191.600312499784 38.5770614677764 9.54955302252124 0 0
-68.6979495883179 12.3312960842701 -20.8966093227653 0 0
153.067272657109 25.1256170908746 4.39728177729358 0 0
205.032227101316 4.25162153956911 10.2316051873346 0 0
115.482098834229 18.4425441874478 -0.421082605531975 0 0
98.3154870592979 10.1248984999595 7.83014558981553 0 0
191.35052725473 27.6434504126763 -25.070451049201 0 0
110.594246197278 -14.0284176787259 -0.880172224514676 0 0
149.022265393016 0.623513221396242 -20.283746738037 0 0
191.589875783212 -40.4719255551571 -5.25158008823894 0 0
171.79622033562 25.0524483189669 -22.0417013956405 0 0
141.146403238548 -16.2569979413005 4.78803668459711 0 0
199.187717547833 -36.0896124321508 34.5654749492795 0 0
167.692473460587 -6.60974504571039 -19.6677709891641 0 0
123.505706390919 14.6972025190545 9.27667517273644 0 0
212.418799632466 -37.0546898844441 26.8863581728026 0 0
174.353206239376 37.6850040816567 10.862351699711 0 0
123.202496285589 16.8349068320908 -13.8537481720086 0 0
142.99664602322 21.6790193399688 10.3131180636368 0 0
-50.9481620215026 1.91700049119311 1.70302184034021 0 0
-79.6033469093133 -2.2459031437281 -15.2526949128601 0 0
-87.3560937078086 21.7321124441233 -6.43300953507406 0 0
206.145386613354 -28.1985416458887 -16.5703229477525 0 0
-78.7381076773356 -1.41787913800983 -2.65815006585292 0 0
56.0241955610508 9.35517373196099 3.77017534660315 0 0
-134.833093724221 17.8392250529345 10.0072983168699 0 0
198.493676883816 6.04315373194068 15.6858900998312 0 0
85.9627823135788 16.754704365226 -7.56298781338525 0 0
201.573109869 -30.4729561734285 -14.8197456472652 0 0
0.667188234975443 12.3700859441163 -19.3993929920441 0 0
-9.40389673041588 -0.421564391045966 3.2175461047773 0 0
-23.6470300926066 12.6610298812111 -20.4141208332089 0 0
195.866483890828 -34.9935417318192 34.6578102708166 0 0
-127.825902298556 2.45054431308336 -14.7075895433431 0 0
72.5627268209016 -10.0838989224557 -1.38257232753419 0 0
-71.9749835969269 12.9719258364434 -20.6010415046232 0 0
216.723145799587 -21.9113148654034 -5.39806085159043 0 0
204.701423496883 8.91225287433095 16.4216694196328 0 0
151.108446737239 -19.5730066170279 6.25796382386405 0 0
199.341166919075 35.9432841191622 14.4066632054867 0 0
-27.8596573306934 5.53921601015274 -22.7269276839868 0 0
205.573902573619 37.7304066858542 14.3183468633838 0 0
116.841460608253 0.90685350085495 7.48860032420676 0 0
87.1408985072479 14.1353265526419 -14.6863809935482 0 0
181.246762470019 38.6674601574606 11.3523395577736 0 0
98.8555274575025 6.79748939930117 8.33810700692222 0 0
181.273687991246 -31.7288712635302 26.4574649062788 0 0
213.499381433523 -21.9866674277356 18.0904679948887 0 0
91.5326773153549 -13.8254310761657 -6.67800856824854 0 0
121.792235664836 -7.5213821562887 5.26043536581364 0 0
101.284077419573 -10.6452920279676 1.86598279054445 0 0
127.605210256518 -11.3937935315783 -16.639838528932 0 0
159.568338972443 11.5318204926264 -23.2180108974987 0 0
-23.7706057200846 18.0972722738452 -15.4678112786704 0 0
170.347359154407 -22.0159833957578 12.2142622753052 0 0
124.859024699106 -17.0700227397737 -2.98005421396551 0 0
-46.4584405097648 18.3826394229458 -5.68514181036358 0 0
133.078164974651 -15.3604371287666 -13.7059360902919 0 0
163.336804552037 -1.33625331227912 -20.6584307177106 0 0
213.611559739484 -38.9876578022564 4.43724477741977 0 0
208.250352536009 -40.786328937302 10.0133315854683 0 0
127.040301734216 19.6319090162171 -2.90515818637506 0 0
-59.8025130010834 -4.30755160229367 -10.0697347809023 0 0
179.955750802108 -34.4647483771828 19.5865051659348 0 0
124.46642738201 18.1575711835734 5.65518768444 0 0
147.125392723096 16.3050678271205 12.049809329856 0 0
205.24906214972 8.11982762473259 14.258911106248 0 0
29.1028353172369 2.51454284261234 4.97555161868887 0 0
164.016404030191 0.516226787344682 -20.2042256566562 0 0
-121.473604097712 17.6488962917011 7.20026161461199 0 0
178.623267619258 38.3472904363796 10.8203039562157 0 0
184.511272135489 1.93164819792872 15.7930585143764 0 0
-137.093671564988 20.9719605924977 6.53914703025472 0 0
176.632571714995 15.6132823279291 -27.918731140794 0 0
-69.1161041825298 17.1113964523751 -17.8094639286323 0 0
97.0010056255013 -13.7911917931272 -4.17184426331999 0 0
173.765379870271 31.1367734063175 -6.79658776877043 0 0
213.058726431465 -13.3008644357038 -11.9700621301081 0 0
171.256851290088 27.6483929923748 20.8540503469029 0 0
-56.477652231594 -2.00677410185066 -17.5982943277363 0 0
164.344171768197 -12.4110325504829 10.3092047150083 0 0
107.117634893018 1.29294418007751 6.9965996538242 0 0
165.281561670691 -32.5630837543424 4.33591021490309 0 0
87.3919491771342 15.8920407927178 -11.3687588335147 0 0
160.446165607311 -10.6270760145292 -18.7958110409425 0 0
159.529621257255 -22.8246415610381 8.25063746726431 0 0
14.9746663991417 11.5792728639798 -0.827421271801351 0 0
-97.323860259017 13.5145010113687 5.61855071287099 0 0
193.926998502923 -31.4058793580418 -14.8284638339012 0 0
0.655812421220024 8.49961256177772 -21.4516365752471 0 0
-17.441454271206 18.6313774427362 -13.6455430422499 0 0
138.852720557843 -13.6704901380814 5.30305641575835 0 0
45.9309656804655 15.3381659739208 -4.46039485596896 0 0
188.451283202247 -23.7407045672186 -21.0866240789122 0 0
215.528583248664 -38.3789090096219 7.63410657002405 0 0
218.298980996098 -33.2992130815889 13.9785108325655 0 0
6.42780908320795 12.4342435953618 -18.8999126951247 0 0
76.0026901475882 -2.90430477894301 4.43945177272068 0 0
203.665295846489 -43.789908954407 17.8529957858416 0 0
-104.630970557861 10.8105596764894 8.18527993950132 0 0
210.532623767215 -39.5291869532433 3.93184943127769 0 0
