"x" "y" "z" "f" "a"
188.638088193691 -20.8864811834168 -17.9647006475543 0 0
81.8001563023284 -12.5652784866942 -14.6103447576966 0 0
214.77494827885 -5.25173412670362 12.215509718351 0 0
84.9700884394987 18.4471098749682 -13.2421408126031 0 0
233.929166751201 -37.6702849986421 1.60674478409186 0 0
135.971874859081 2.56251692156945 -26.0470032466564 0 0
-131.48844827805 17.3278794645775 10.475133860821 0 0
35.296341044538 -4.90491161710507 -23.8903011150102 0 0
230.912653458277 17.8067608154912 31.0017856283406 0 0
116.995122993687 -9.15575014218539 2.80633479005108 0 0
233.9429632265 28.5916356247093 3.74906888718155 0 0
44.6608710751167 15.8721774544965 -20.916295097558 0 0
-11.7483320200306 4.79909562953223 -27.0113003042199 0 0
-0.382771554240627 -2.8650981464143 4.44576698760217 0 0
-89.7097156208712 23.6421662883991 1.04116690346691 0 0
165.42461280134 23.9980723705665 2.11448100615462 0 0
47.9401001221282 12.4677572153304 0.700264457135305 0 0
-146.368885123239 -2.28068957839967 -14.4180623079884 0 0
110.090389923628 19.4615435734082 -4.01638990171454 0 0
163.685333384978 8.59642366463192 -25.2467997381344 0 0
179.999374227545 20.8401727885194 17.2099989248177 0 0
-129.660639056895 6.40258695611756 11.6766108445596 0 0
213.61784741442 -35.9692524723494 -12.6373771606706 0 0
234.676197563774 34.1768562348461 17.6261977653592 0 0
204.875601087426 -15.0793528991615 22.9048553452096 0 0
-86.7188741561557 12.0549302082663 -21.5030950300619 0 0
169.407625094059 -5.21746759766323 -23.131584053793 0 0
-141.918204434219 -8.58278028185134 0.165127268697564 0 0
-69.070790913994 16.1958522505416 3.03230370605922 0 0
16.144281093567 21.9089457628091 -15.4791661483429 0 0
99.4608466906075 -2.356366972736 -24.651635949878 0 0
202.719233263355 24.4593303290411 39.4939979013854 0 0
-19.4529596004486 22.2803462789915 -19.0223282910583 0 0
231.3098313714 38.4981594911395 11.3634756044734 0 0
-92.8077401836305 26.4632673618094 -10.711284069008 0 0
27.2651042205205 11.4833009022391 1.0087507217058 0 0
237.836342333765 -35.0211823085316 -4.57156307318116 0 0
-63.6054246670881 0.540138547757847 5.57050039704077 0 0
115.508682756677 -14.0706777057651 -2.93840445427807 0 0
212.242981378111 3.13915005897087 -24.0789771960569 0 0
231.52000058672 -38.0524349651294 -0.00346766119821637 0 0
208.809289024377 3.57046476765616 -24.5713059176639 0 0
211.660413663073 18.6300764750603 41.2569806987991 0 0
87.7476343476618 3.1719093704541 -26.1570943066853 0 0
26.8566824384535 -7.88523398269979 -8.3342210592813 0 0
78.1645062793442 5.97977083507322 -26.1441299233932 0 0
38.5764569208209 -8.79742356733338 -8.29203778596353 0 0
-61.7025803060449 2.46177448936053 -24.6239279208499 0 0
217.85234464728 6.60552752129672 20.3732350404014 0 0
142.889027116982 21.6048093694296 -4.71265511214299 0 0
127.657045601006 -16.6803995972474 -6.99748432480949 0 0
201.518327041427 -7.03492452199169 19.1587043525362 0 0
141.928514715734 -14.5877871990707 -16.4080228247548 0 0
-24.5364467552864 -1.48346574925884 3.64713024144061 0 0
-105.303350958726 9.63245191057408 10.1511858834092 0 0
202.870638157515 10.5446400803867 36.0387312979188 0 0
-140.274483575072 0.483873980513565 -15.4260955925889 0 0
240.846227318149 -29.7020367881105 -10.2174106417772 0 0
229.98264792691 -13.8828025488277 17.3513225230027 0 0
227.848884777743 7.29940775643304 15.8621036658664 0 0
195.399925253022 32.2616646303367 -10.4045504613391 0 0
201.966804825458 -43.0495408014221 -0.0581303944286666 0 0
190.459253788762 -7.87308228871622 14.6479593428697 0 0
181.580772562982 -18.3377911227485 -17.8625861650507 0 0
206.306348448013 -41.529218345359 -5.85251416390808 0 0
-147.157797730864 26.842036860089 2.69940152283736 0 0
-141.841079150155 -4.51147132792843 8.87627354275711 0 0
-86.8184793606863 19.2086731605313 3.7884315114984 0 0
217.15276340682 4.34672321410311 13.4396922538672 0 0
-63.1512600089857 24.1114242655537 -3.30346145215694 0 0
218.039057116397 -23.2359764846556 -21.9489098894252 0 0
99.8287104304633 -12.2753392003706 -3.31711471963738 0 0
25.1636696047509 19.6233590478748 -7.55818348753344 0 0
66.3154033998635 -0.441731870441023 6.8986880192021 0 0
228.276204568254 -17.5607924290663 34.1443932441555 0 0
240.157033738227 -19.7111131342133 -11.9628775092937 0 0
225.197118164662 -31.1471894201898 -14.4593194555842 0 0
-7.522936680143 10.9455642664174 1.98081084428431 0 0
146.415484339882 -17.5987914790617 -0.587657939182961 0 0
238.118105179918 -37.4963400018056 4.10632738772805 0 0
-84.0963921155014 20.6551765898833 -16.4082916955408 0 0
232.190897368575 -34.8427414704954 -6.82768108505235 0 0
173.451919209011 9.17008609282497 13.9141782629507 0 0
192.757036522358 -14.6280172635595 -22.4561491216847 0 0
-117.899673639876 6.28733205262428 10.7673982917274 0 0
169.038761383028 3.92703813360909 11.6305903167979 0 0
-102.362394888709 26.2378545566391 -9.55728498514051 0 0
220.04631144573 6.75207214646053 23.3865927583386 0 0
81.4772732940404 13.0488946777554 -22.5595054480482 0 0
52.938631042352 5.03567432174035 7.07151859359894 0 0
221.190811066399 -42.5707177368289 24.3045942674805 0 0
225.701311428357 15.6307531775726 35.715212101727 0 0
224.351446936372 7.64540305757293 -16.3739567570306 0 0
231.215774896888 11.0235037713204 9.05523905084978 0 0
45.2373206151336 16.2367553884146 -3.00898605055668 0 0
215.147614269498 29.939087200201 -26.5793657416982 0 0
19.6732992297304 7.20604552545632 4.89674215673854 0 0
-67.1563336356181 19.0833650538927 1.05263720579981 0 0
189.808624194543 -16.8115605726958 -20.9793861779044 0 0
-84.9271371213123 8.15057476359781 9.6070358224189 0 0
-132.548417585762 25.478250957533 4.72699292836294 0 0
233.016164433303 17.7286700680129 2.3316883548801 0 0
-100.170253634706 26.1124016725667 -0.0440053810367824 0 0
222.756451939981 6.55931880273701 13.5428997740149 0 0
-70.6453874130655 14.8551717063196 3.93159676271205 0 0
216.047811920629 35.0734008388004 -6.7986360916279 0 0
182.199345080113 -12.4096060604417 -21.4455149950764 0 0
-51.7556077255149 5.8283855606479 7.91633417511363 0 0
206.011743326565 -28.3322609674279 -19.3678989507453 0 0
16.2004615608493 19.916910798317 -19.8195632107536 0 0
-21.9541959637752 24.5985933513277 -12.7072693602024 0 0
-51.5689590217246 -0.0136152750013393 -24.4695570439843 0 0
225.340763071385 -16.631621400723 -24.5920987128173 0 0
222.916066242207 38.0293071132156 33.8815100304747 0 0
-40.5918706487209 25.2775307960944 -14.6020563725987 0 0
217.856002854736 -16.4128775811114 -26.8736056532088 0 0
-64.5487918410061 1.92412791194542 5.52765088211357 0 0
-107.287461147003 -0.364496179998835 6.53298020439852 0 0
-67.4959748576008 25.509084614065 -4.44578831103341 0 0
210.278293315773 11.0777311775155 37.220131251611 0 0
-61.6852645536949 5.57285419051168 -25.0225269534954 0 0
79.4460077864237 -4.0988377530066 -23.8196680377299 0 0
192.983059314502 -29.7431797710742 18.1511697483315 0 0
199.694856231569 -39.5047738390761 19.9523745768729 0 0
182.129672647168 22.7069060475998 -21.3571718189721 0 0
175.862850147448 25.5801598039312 1.04506911058541 0 0
-87.9344292923167 17.5441462862303 -18.0189104395525 0 0
185.22565118868 -24.1730879816826 16.0311720272262 0 0
-43.6005254498965 25.7687789059319 -10.7975458273297 0 0
90.5913326340721 5.68651826990022 7.30994031812796 0 0
209.914472695247 -36.7280513520273 -12.4129776605673 0 0
215.294484027492 -43.0402918262943 26.2183314099093 0 0
-47.0802580585152 -1.4343191878538 -23.8591364954273 0 0
-26.0242450662227 13.4686467574199 -24.1099800152664 0 0
196.530352819206 32.566124992548 -11.7163082385104 0 0
-108.863010802152 -4.38036269307046 1.26397613746941 0 0
220.776693400898 -34.7334697426661 -11.6799522020715 0 0
154.201866749642 0.308369225168684 -25.0115646467452 0 0
233.392450578442 22.5871464835751 28.4848913008991 0 0
-119.697059531253 13.8616502013535 -16.5183341108728 0 0
18.9835657250871 -4.75400136581368 -24.010428161635 0 0
187.539677321427 -1.34359599237792 -22.9171068119386 0 0
79.5431458451863 -7.40567745291725 -21.7493349447533 0 0
-138.398816212322 -7.58112379311603 -0.797908111010694 0 0
228.334033037076 36.0663717212362 33.6322767319556 0 0
198.529216575934 39.1694464323945 16.4718725879638 0 0
99.4060804573518 -14.2619997152122 -9.33851366468356 0 0
160.953330965718 -0.934591196963187 -24.4765393444262 0 0
109.547131452461 -0.402460516148025 -25.4572819897178 0 0
181.185419104841 -16.9052129698518 15.7109222629888 0 0
-59.6195980214522 25.7501842319161 -6.54189056171421 0 0
157.320104740113 -11.0814247708 -21.0995697517837 0 0
206.441113971809 -1.4940976460859 18.8657604760937 0 0
-145.750328316139 4.99201091394078 -14.2247584207421 0 0
-75.7615350065688 25.7796063585342 -13.05027582441 0 0
212.205886633113 -4.26325634479063 15.5729707435602 0 0
211.118332939794 -16.3890883829175 28.7197488070004 0 0
-148.162964000463 -7.25794020824577 7.07082738282316 1 0
97.0044568218822 -13.7962757892104 -7.34645076186021 0 0
159.740241584957 -16.1160712306043 7.06261191500384 0 0
233.002645371294 37.1636982159424 9.15720550598791 0 0
198.643942885749 -16.1904098203573 -23.3691433853891 0 0
50.7354590032736 19.4364613365326 -12.15987668548 0 0
99.2181936343556 8.33553512237356 6.64272871195737 0 0
196.830430452731 36.3659893473271 7.54998242615235 0 0
188.506042773941 -27.6647456664714 -10.9734874318213 0 0
214.869223656151 -43.4397047254224 12.3293115093222 0 0
71.4817583516188 8.23057161463252 -25.7027668801392 0 0
225.216531359628 -7.76743327768976 8.79156385507548 0 0
59.9359431799895 7.31757710620773 5.06238730509468 0 0
75.0512266166563 3.70522638069072 -26.3411496354567 0 0
206.835940525817 -30.9687644930627 36.6086051818455 0 0
233.550792758873 -39.626497592797 14.0413314519701 0 0
180.394048909916 26.7287950124887 -3.64623371478689 0 0
158.739481201847 -10.6073684632744 8.34280492000794 0 0
-86.0693221939189 -1.7417030908498 -19.3316799618675 0 0
115.579046511102 6.4788293920205 7.94234454936782 0 0
50.6118492454137 15.0130991313347 -1.58340302509559 0 0
225.372217275481 38.7720401957449 21.5270161430021 0 0
199.399094892366 31.193019777122 30.6970573165573 0 0
-94.6977079980913 20.4145523911774 -15.6198889813618 0 0
132.277563408266 -15.9576162252396 -2.03988974009802 0 0
84.3823886230397 -2.84116528877747 5.71972389562254 0 0
129.915047303645 1.10758428994584 -25.8426934194927 0 0
-0.113698348367746 -7.76439612938617 -15.3113457212557 0 0
-117.904037100845 -6.28415117596544 -5.20017454662094 0 0
-128.150766313478 13.627158228311 -15.333093180766 0 0
-24.5785355712518 10.6571621796555 -25.5121796642146 0 0
59.5940372213044 9.26819917027801 -25.5444845654554 0 0
-64.6875069090011 8.62086869846025 7.45557568574127 0 0
25.76765166544 -6.72959079152017 -5.48134094670108 0 0
109.900656157779 -13.2692451315255 -2.91333236562286 0 0
209.674894813725 31.6183165754891 31.2412164342213 0 0
233.293088086267 -21.2228719464445 -19.109105408592 0 0
234.420466992848 -42.2979301975775 22.1255473930526 0 0
-87.9482662165203 -4.47977611998804 -2.01986774275332 0 0
217.346106144411 -43.0572820564708 11.9588490239414 0 0
-40.9911534469284 -3.53492056656846 -1.48790173298972 0 0
-62.6872626073206 8.95238439686697 7.07313942934249 0 0
29.2518052958553 -6.4887324404091 -4.5510780577245 0 0
136.050594000694 5.28047799790109 -26.1529883856673 0 0
36.6788225291728 -8.70778395626714 -20.0709676975213 0 0
-38.1636002763524 16.3483076460437 -0.251601978907256 0 0
108.82288350031 2.11583905610105 -26.0794620636317 0 0
-41.7305461861012 -2.55333624275157 0.772690756613156 0 0
178.825862627973 23.9578153585397 12.862857072149 0 0
210.336984507357 -44.8205426554723 5.4673283335738 0 0
190.336244047352 -34.9278176965704 1.10101747152023 0 0
109.587487085469 -8.50499123942803 -20.9011583341522 0 0
238.378698448651 -21.6181146735 -16.9595012869055 0 0
-103.938046362502 21.7011564813349 4.43914381434686 0 0
-136.158574391705 -7.27078816763226 -0.866058128285782 0 0
241.834823757909 -17.6422647109058 8.77923015134362 0 0
92.2224277622701 -11.178182825096 -17.839252666991 0 0
211.396779793063 -26.2926582329036 -20.8198582951761 0 0
184.347766277622 -27.9974611570175 -7.6122475648275 0 0
-104.605512397148 12.2416803226523 8.10314767063716 0 0
220.284791583811 -2.48325870872031 7.70696649375599 0 0
212.999265235631 18.8333400865822 -28.3167001459261 0 0
-95.5924941279738 0.301781915634581 6.21565253227385 0 0
-131.304512337833 -6.36305367406119 -7.01231134035596 0 0
199.822893267191 -36.0145106368811 28.1904315530904 0 0
211.244283490055 -45.0550610261927 20.7235858628005 0 0
35.8336909782071 -7.54097335024728 -5.7868839673426 0 0
-9.89785715578287 15.6776778067577 -22.8932449515195 0 0
195.61671398174 -5.2783243181966 -21.9216749958825 0 0
48.6055074266651 11.718277055434 -24.2964835780405 0 0
-23.5844277041281 -6.57838964410139 -15.4212554927729 0 0
146.009340994939 18.8212871613378 6.29476142875124 0 0
194.994829652258 -37.3280392101939 -5.40255184233708 0 0
-22.9121616106543 12.1764481549385 1.56128953233742 0 0
212.31301306057 22.6312260283357 -29.2063000258189 0 0
-92.0526217952027 1.17110635581663 6.85971608991608 0 0
29.3080252823515 13.1448605352353 -0.307937655477185 0 0
-139.425801743117 -7.36739771660354 -3.01362328280001 0 0
199.687906589116 -34.3186592748444 30.3737453190815 0 0
63.5167919096322 9.20614648587253 -25.5090860991858 0 0
-33.410799750634 16.7661151165536 -0.948153220822301 0 0
-60.9393005293334 22.4470863809014 -2.07972996376416 0 0
-19.2088181526503 11.6624937702011 1.82506297908663 0 0
-2.11022856604341 14.065594434819 -0.67291813433883 0 0
-82.3838639319725 3.86431532015206 8.05669342836466 0 0
32.1123573987915 21.0110248038049 -13.4462857784523 0 0
-115.172717648498 -5.65042986745194 -9.36732830348316 0 0
-48.3990180216871 7.98449409892426 -25.5859494575993 0 0
238.195896521485 -29.1995605964355 -12.7329845096165 0 0
200.648830221065 33.309750349102 -14.502900798275 0 0
58.0314720760114 0.368354284994831 7.22005173134563 0 0
149.640987953433 -3.68912678138376 -24.1095047776626 0 0
230.984081610001 11.7569119289991 11.7474539758208 0 0
172.580965882417 -20.8061440744487 -13.2645210166414 0 0
180.541335591389 -8.33212528057502 12.2436527192089 0 0
213.248375943554 32.9759111601027 38.5347054040613 0 0
47.1415455094613 9.04991846980027 -25.8044378795441 0 0
-25.2825185353927 23.8898887607003 -9.16015569521469 0 0
174.422750334912 -23.667929027629 9.40621734421721 0 0
54.2868844697403 4.56898720182232 -26.7389248002257 0 0
228.146754194303 13.7304539016759 -11.411652364125 0 0
230.767325305633 7.49938579628696 4.16256106498447 0 0
-115.268566311447 14.7207734579566 9.24093014451313 0 0
26.585744293981 -6.93992588435796 -22.3258239324105 0 0
-144.145021632526 -5.03357778164473 8.84216356922641 0 0
188.017585181014 -3.7191376977034 13.7615856550056 0 0
195.336960514042 30.2538161863528 -17.7936513768069 0 0
-133.752030828611 -5.97361880643423 4.13450558431628 0 0
31.9103003100596 10.4808796457256 1.90283200932524 0 0
-71.0317577744646 -4.59327986199948 -3.744039158818 0 0
-58.100988058477 5.22660350795342 7.85747824827488 0 0
-2.60303828887848 17.8840936556156 -3.9949088213583 0 0
-115.004976998762 22.1155313711969 -12.3537903592488 0 0
-26.466773600552 22.3298851072274 -6.61822084420248 0 0
11.6271867976428 13.0590936359804 -24.4598313020024 0 0
215.519214815222 -10.3463008706901 -26.735174248246 0 0
231.438832372748 11.5343721425451 6.38588527039672 0 0
133.392125877285 14.5293641034316 -22.7229092198083 0 0
62.8340406327801 17.1108792503098 -18.3126385730426 0 0
151.585264890021 16.8062112145311 10.330406785596 0 0
218.554978721359 -9.490475246786 -25.6942678289127 0 0
-4.62501993007293 -6.17495441030557 -21.318105885933 0 0
-18.811540825398 18.8809778964097 -4.09562457082842 0 0
115.886687863923 -7.60939037575075 3.83687331516796 0 0
88.886548771016 -8.50099919932494 -20.7712163036853 0 0
-35.8363019196397 -4.68047324818079 -4.4611174579734 0 0
220.222492707145 -38.579276014772 38.7306184988231 0 0
32.7898969963874 -5.76043837143929 -2.2753264145109 0 0
177.399457685568 25.9676287093044 0.768839178914168 0 0
73.1800524014789 -0.123329404170604 6.83466157547694 0 0
222.345789933146 -41.2481365010806 37.4982995350477 0 0
236.639682461118 -16.9814787891243 23.5607495289334 0 0
13.7249783030172 16.2613894023301 -22.1802768772183 0 0
240.860327938385 -40.0649993779834 16.5704343820542 0 0
-148.891606341889 -5.42189347353626 -11.4607744433204 1 0
-31.5603014912575 6.50553968131674 7.12109361984759 0 0
207.627948371727 29.8650044678691 36.4637201908414 0 0
84.9506769417084 -12.2462131714782 -6.24081052797362 0 0
197.959316594721 30.9398308326104 28.9676526513036 0 0
210.912791798733 -33.8497379274552 -15.177399945869 0 0
240.574085836277 -16.0682622755468 -4.33493227868852 0 0
185.623214430972 -30.7381468558903 -3.92486927381688 0 0
106.786172556384 -7.89612792249929 -21.3603640317557 0 0
197.495277241851 -19.2733623817681 -22.1199979163333 0 0
-7.41027929705786 -7.20668458131954 -18.7692034668338 0 0
197.665045927348 -1.18432948987228 17.3726066483618 0 0
-32.3816270905909 7.70564022302386 -26.3582659388629 0 0
150.980546163809 17.1622085718572 -21.5526804592417 0 0
212.656696506236 -16.743141399262 26.4829875846611 0 0
-151.102032792793 -7.29302148829972 8.37753100998909 1 0
233.830536211339 35.5053019555391 22.5409747465628 0 0
-34.7263572528166 -5.77242521566412 -9.49448569617634 0 0
210.168511747591 5.32976260058581 33.0276509513546 0 0
-120.258337901402 16.2849705207293 -15.1075216581023 0 0
200.334731517017 15.0164420906138 37.045721605252 0 0
120.189181549993 10.3101498426028 7.5564683435808 0 0
9.73686505915719 -5.24014223550785 -23.3234876062868 0 0
206.65140838697 -37.7516013175109 -10.7863835243019 0 0
-37.758209740173 14.5256310361053 -23.2688391070416 0 0
195.191425524209 -18.0981446231089 20.9070321932942 0 0
220.22512494428 37.5655689095586 7.74863529960068 0 0
-88.7606461939502 9.07700676304163 9.55550458714972 0 0
152.790640102518 15.5928256216565 -22.9731808542327 0 0
-126.67785538523 0.757621899306124 -16.7833111238017 0 0
-130.64504432555 5.07392612694438 -16.608688390721 0 0
235.676718712027 24.708578820577 20.1689720595383 0 0
-88.2707442921513 5.46057418799184 -22.6570766248658 0 0
101.91279204848 16.5535762217929 0.916219498666021 0 0
221.938135509244 37.4548282356114 11.7373153992471 0 0
201.343947818808 16.7823532954088 -28.5988526313766 0 0
96.4491986545701 7.32317911851309 7.01821488152022 0 0
-148.39635657318 18.706229246688 12.8967360317875 1 0
206.573229467543 -46.747838717635 16.3341944193635 0 0
-122.797001552872 -1.22798773700239 -16.472185490418 0 0
54.8873952662639 -3.68067766230476 3.78341859680897 0 0
3.0507941701355 -5.01786915160564 -2.84404927992157 0 0
185.716815202783 25.5555627846326 17.5177986539337 0 0
-140.618490235864 -3.486964366388 -13.9047157638599 0 0
169.827092241452 -23.8816740295051 4.17458046535385 0 0
205.279818556062 37.9641726591947 -1.35356504427283 0 0
-53.3970117405533 23.1104541197547 -3.59069816408366 0 0
173.872126648604 -4.05301499608026 10.9270707416828 0 0
-68.9870925636297 4.20109522453925 7.65135080244076 0 0
48.9085748085866 -5.897272613258 -0.76875454212343 0 0
-66.2156019171282 0.284619721928428 -23.3542125529865 0 0
-58.4729749142544 7.64391722245381 7.66810039151757 0 0
211.813438037206 -44.4691272955902 3.37022821395905 0 0
234.186334574193 20.4747929031136 12.4038547251153 0 0
232.882510083072 19.1922748451485 27.803184506185 0 0
22.6197831737083 -2.34957260489197 4.19265179416097 0 0
201.658130084944 4.74617268831459 -24.2444872637482 0 0
-146.498889460401 13.8811011588181 15.9722795063853 0 0
204.668282925613 38.9147790066393 19.8032176048878 0 0
215.407894911443 14.6018589878854 39.4680898641136 0 0
203.664118436637 -21.1262693535514 -23.3045540349265 0 0
215.876726275118 31.8238790536103 -22.5550101240738 0 0
199.582763167526 -43.0379058388674 8.88275485640595 0 0
203.041059075033 28.7338446406695 37.6932388772509 0 0
185.784131382495 18.7023034754876 21.4822314393006 0 0
115.660965294116 15.9434355812485 3.56485888842309 0 0
83.8234130933624 -13.1834140494997 -11.879958445117 0 0
-67.8572735263611 26.8309567434425 -11.5792939169292 0 0
-143.749428263149 10.8557622040915 15.5265804765389 0 0
44.9850994966112 17.8905461896177 -5.69812947853042 0 0
132.779945850913 6.61436361368637 -26.05847199095 0 0
197.898412848856 0.316632916590533 -22.6919469243241 0 0
190.812263054544 31.0066694205972 -0.891608801588078 0 0
222.939275143688 35.4779157662785 23.988953793297 0 0
-123.053365952939 16.1333043305485 -14.7439968036368 0 0
241.541852066605 -33.0748892864989 -5.21037705761017 0 0
230.370372517042 10.758052644867 19.0521090407027 0 0
217.32433194732 34.108667558369 27.5881426092133 0 0
94.1387025824275 -9.69672045920264 -19.5452369688354 0 0
195.349462657914 28.8042305333923 27.8593282778316 0 0
-124.19712091974 -6.17235542397516 -0.802515475170474 0 0
-84.52714062355 -5.65911763510254 -8.63693048351151 0 0
206.960739778739 31.1185263148731 30.9049300429412 0 0
194.874317383379 33.9228956101588 0.536762066570227 0 0
-19.5443585360985 4.64060463348545 7.02712088618762 0 0
157.170935769168 19.2834647223208 10.7701417501491 0 0
139.01588604381 -17.4816826662912 -10.0095386516569 0 0
5.130569529548 8.19570335655921 -26.714316711834 0 0
-134.167087639594 18.9555695034453 10.0460927217656 0 0
140.595562418372 5.71872583992489 -26.0886761590938 0 0
-92.3489621229549 11.6619033186706 -21.076413302617 0 0
15.6743099401256 -5.07469753051088 -2.28890112542014 0 0
169.536975962847 -6.10977080260735 10.2634732334447 0 0
183.785424184789 24.1261549152407 17.0836715920165 0 0
182.310713008542 6.49844685079482 -24.2507739331722 0 0
-70.2510197051104 -4.73035085680436 -15.2538269621542 0 0
195.924850131266 -9.79621216852498 16.3476520471467 0 0
235.955879005688 -11.266821146642 6.8796741812777 0 0
-74.6842453948084 7.88208459307781 8.94533959866102 0 0
-93.082540053604 -4.07102631146294 -0.395681559240532 0 0
235.153889655793 -13.3014229879897 -15.5343286097419 0 0
193.630813237715 4.45870912961263 -23.7511160937322 0 0
233.482925233159 -9.67511385973871 6.64293437246395 0 0
224.543271318028 24.4417492958409 -20.2771007580713 0 0
107.061344510089 -14.7730939729469 -7.50257133520601 0 0
208.33215088299 -41.2466410269508 29.0560569420881 0 0
218.103331900791 -36.5036253502895 -9.31857557067434 0 0
63.3195833983838 5.24738732021101 6.95377526228819 0 0
217.432984418228 37.046816533301 17.9295973892228 0 0
199.362542517629 1.24459519420219 -22.9678947565687 0 0
159.849556442293 -19.8074230907374 3.67941235542211 0 0
-38.4363824716156 20.8548083252293 -3.42865750091969 0 0
124.059176125727 6.97731439486818 -25.9749022196097 0 0
192.325915704906 -8.722841158614 14.9835501220293 0 0
-57.0065532915711 16.9217778037106 1.31658654752117 0 0
-51.5367760850269 16.3538688445601 1.06107570624889 0 0
230.423782741613 8.0424418227651 9.32343797716283 0 0
132.38558049391 18.5935486410186 -17.4814294786665 0 0
204.210314254182 3.04793233232121 26.0964075377858 0 0
-128.436228016932 -6.52603871848945 -0.801659352507157 0 0
220.561764453525 8.05405288064808 -20.7354145410111 0 0
194.095160777574 33.6975151136808 22.4644790311135 0 0
59.4710794754515 5.45817712632281 6.87251942624684 0 0
214.762482335611 -22.5184947871124 -22.4101723484194 0 0
195.715973249507 25.4490573901246 -25.9600349891917 0 0
197.174237823413 -33.5889295641887 -11.7019753535216 0 0
173.828502402661 -15.9544046744349 -18.6832969678533 0 0
-48.6468074442906 -5.81984287732455 -13.5604774215476 0 0
-77.2160388840811 17.682025149984 3.32340960623953 0 0
-27.6390869561244 13.8016810226433 0.660034022810805 0 0
-40.7781775354031 -5.28677320868279 -7.35464345665702 0 0
105.117894442403 2.39688810182771 -26.1572142674022 0 0
34.7472246433163 4.2750764429678 7.09679741173553 0 0
242.464991701684 -28.929420445286 20.7989228828412 0 0
236.904247576372 -41.817825483063 23.9549166909504 0 0
114.577057074114 5.55685880576673 -26.1412057862632 0 0
165.370179769472 -0.894328757897297 10.2809161381144 0 0
219.786356363749 0.850032234503638 8.45625034395228 0 0
208.055056895938 31.7721971647342 -20.4441740132474 0 0
222.267194748327 -42.3744248402171 21.7750868821912 0 0
190.031723735147 -1.29074257733681 -22.7520125429627 0 0
200.262638493446 -5.05645359572886 -23.2951398852172 0 0
55.4373056430028 18.0329672075605 -6.08125286088018 0 0
229.460659947992 7.67264437796978 -4.17873771728048 0 0
197.784968274822 0.0418543104608823 -21.4883656646244 0 0
169.731616794855 22.8232858021092 -16.5522652925506 0 0
88.0882089383826 -12.3510448205255 -15.6482799184638 0 0
191.214855010736 4.25411835983456 17.1857178049827 0 0
182.460372530575 -10.4451202918154 -22.0537938903423 0 0
-116.087719853781 3.84476717907538 -18.730337151173 0 0
221.950907113848 37.1344421715563 27.3562027551588 0 0
18.9281357692396 21.8275911491731 -13.2659478441834 0 0
238.074536192388 -11.1026932490081 0.821656517788154 0 0
151.191392238253 21.1099160176293 3.39949226150098 0 0
190.720493257061 -25.207643396335 -14.8485516340716 0 0
185.040007087504 28.2339673120566 11.0502888698973 0 0
233.474313093687 18.1882859279417 12.768666166618 0 0
225.229736053065 -34.3929039548864 39.0298435228012 0 0
73.0438390432219 -3.86274872303174 3.74308224944493 0 0
175.286933441471 -21.5155336706475 -13.0415729161776 0 0
-13.1729702816592 19.9361164118463 -20.921046843714 0 0
111.639135794535 -11.9875157395737 -17.2939954382318 0 0
-53.9050376518773 -5.74677017137844 -12.6503652879285 0 0
-85.8789186794359 6.25215462724935 9.09930073265627 0 0
-112.943924775521 19.8392952919299 -14.3330322828959 0 0
49.2561406509024 -8.75527789128842 -20.4596626182206 0 0
-113.684871790572 27.1778426458987 -6.15203467891428 0 0
195.305622530565 37.6370993223733 15.1928508482423 0 0
237.653679838732 -16.9053776615934 -17.3133569898805 0 0
57.608614437073 14.5217732947057 -0.801983483384748 0 0
146.345718260039 3.09452791239073 9.0720196658353 0 0
102.446822761641 -12.3823036606804 -2.9665155653729 0 0
-123.123845486379 11.8865081464001 -16.8070432369658 0 0
46.5992415864738 7.73700370956637 4.3647752524769 0 0
235.283513341099 -10.9799542084441 -11.8187030682725 0 0
-80.9130327096521 6.86657081893851 -23.3452329566616 0 0
224.716761868594 34.4711873404189 -2.83246843258873 0 0
84.1602246281519 -4.58132340461669 3.55962844554325 0 0
-107.074894703842 24.7778494369346 2.58395049197906 0 0
198.437572201864 -35.0563937396218 23.3085108678822 0 0
228.558581309894 3.01122172509732 5.30222125995953 0 0
-77.8066454867311 24.1404379176769 -14.5921024018691 0 0
176.413478535626 -27.3843040988112 -0.12315866828069 0 0
235.777325676013 28.2162805205252 14.1145093179616 0 4
-13.755169325729 -3.43753838838318 1.06654639562922 0 0
198.926705459374 1.20130181385503 18.2323773553592 0 0
218.527449241617 -11.5519279098706 13.2769155881427 0 0
201.469333603439 -14.5843238826992 -24.350111560835 0 0
-131.786510701095 12.4141201536043 -15.0913004269052 0 0
91.250216343766 14.9731181377576 -20.2334843094887 0 0
231.010767112517 -3.67598299721153 -6.71258636446975 0 0
209.674031325286 37.9035651662587 -1.44764250976913 0 0
102.178770666166 -2.53724352493335 -24.5937745359233 0 0
236.192089456364 -34.1727478145676 -6.71925105563524 0 0
-15.1602049059602 -5.00804664847703 -4.20757560967304 0 0
239.766502051791 -37.1337546542658 26.7938112335376 0 0
50.5615322763791 18.2379373595508 -17.729760018503 0 0
191.36150580676 -29.6146149662385 15.6126601140162 0 0
35.9874480124234 7.70210909103172 -26.5071792189004 0 0
163.00912529518 -6.78804703570052 9.28496557080422 0 0
-62.001558951697 26.5708952265188 -8.48389097813219 0 0
187.670457196017 25.8457694904735 -20.1008599695277 0 0
-148.472283439279 -3.89244273120683 -13.4326743285461 1 0
101.600395214783 8.53584081043518 6.6944036848734 0 0
107.948195361323 5.39083561010987 -26.1989235459758 0 0
-52.3753002576773 25.8237777622404 -13.6719820019036 0 0
231.411004223901 -39.158947327506 4.59177928629309 0 0
-68.7649960136421 -2.13236277318575 -20.9810296843582 0 0
172.922653384287 -25.6741266477416 -1.54753878160639 0 0
-41.6019973988605 12.2977187106446 2.42176166347499 0 0
207.844997834716 -9.05571607982389 18.7418977704821 0 0
235.335022929152 23.1157130152698 16.090339216002 0 0
-51.3778685555567 13.560069384772 2.42772973428546 0 0
202.81433411816 -11.3650722115806 20.7814632829299 0 0
190.940449284947 1.14721139013877 15.5616549229783 0 0
-150.070746778875 -1.61503282787612 -14.3753620858648 1 0
205.506939298538 -12.9439559481662 21.3496446738267 0 0
205.008065360319 26.3526917554028 -30.9278402368682 0 0
244.330036527731 -27.4921961529998 -0.623939461483871 0 0
217.608065521383 39.1750170060702 10.7163094187707 0 0
241.761419013141 -26.4773494692731 -11.1905301992361 0 0
-1.66545935581114 -7.01268118705597 -10.243372790364 0 0
-73.6308954764527 13.7307631172472 4.97830674548746 0 0
212.923850224469 33.4278457937959 34.1521227406198 0 0
219.875469812598 7.75513554991319 33.1519696421327 0 0
171.517462046173 5.91512336156269 12.5194337482635 0 0
133.583129470438 17.7995823079555 4.40764504170108 0 0
226.699986214763 -42.8304189103815 25.5166893736847 0 0
127.007202772594 -13.0069121264826 0.805458290018164 0 0
149.898120683304 -18.1344850445229 -0.187671857278186 0 0
19.6452913587642 4.56031337611 -27.0844186335021 0 0
230.861384639917 -12.9258135286147 20.2592929968896 0 0
189.788939558736 30.5834735463075 5.73509273818244 0 0
184.789331387176 -14.1487842507066 15.7452059888692 0 0
-114.580008973343 25.4362574420346 -9.10491070509649 0 0
-105.340024680846 4.09744964343234 9.22193206238526 0 0
213.076154411238 30.7826476965721 40.0725914585933 0 0
-26.8741817545875 9.10746214940556 -26.0624088823057 0 0
195.035856466507 -40.1768381361654 5.63065846367773 0 0
223.407270918175 -0.676803098035183 -18.4134966996178 0 0
240.711245899311 -21.6041708186382 21.0193627779759 0 0
201.158931232971 32.9044296731042 26.8955885183593 0 0
167.858686969374 -23.9502945150988 0.923197755714386 0 0
78.6230441025737 -12.3867236735776 -8.35185632464127 0 0
-92.1148667116747 -0.186423658314138 -20.1254236243841 0 0
238.80105667498 -36.0229250851156 -1.2946737193058 0 0
-121.538126877156 -4.1023718421193 4.24606829047956 0 0
-136.15929462619 9.40405557950093 14.1474902460282 0 0
237.774560583835 -40.0254049834311 13.6281578074579 0 0
113.009535435151 -13.9538896847715 -14.067653093791 0 0
155.476904129015 20.7454081061464 -17.4244331184323 0 0
225.030001497642 -40.753849031898 37.1950606499519 0 0
193.453231702918 27.3328378565905 26.0602079623076 0 0
228.848030736815 1.37390341206376 -6.99437766222866 0 0
-112.998361315196 -2.07811655243426 -16.4923568811826 0 0
163.762293999749 -19.6848002955886 6.24968349169824 0 0
196.111012122201 -9.75046871026968 -23.2637623105386 0 0
-143.757803689023 21.9589625825062 -7.60278033514356 0 0
64.2590043969521 -0.441482432283836 6.94942365706392 0 0
150.236983113011 11.6369300157567 10.3560345212829 0 0
96.6734241831115 -9.94866379244533 -19.2763673351931 0 0
222.466299556483 -16.0452938451689 -26.4932259019703 0 0
234.146720854804 19.1030309847245 21.7256071660361 0 0
20.8737279781264 5.30844721371125 6.78742495849601 0 0
100.24774016827 -12.9737418236141 -15.1124166205828 0 0
230.954174592423 -22.2540090096857 -19.6113161423229 0 0
231.191102053504 -40.4811244904745 16.3821464956126 0 0
162.521601336855 13.2711817380181 -24.5689317486749 0 0
-103.757177893831 -3.51222604365626 2.22566683828368 0 0
-141.580849745433 26.3058056284793 4.29236617494761 0 0
-48.9412543632689 16.4913493743519 0.770012227619543 0 0
21.6087282538107 -6.22188718631438 -4.66684277995755 0 0
130.1260908007 -14.1711531992179 0.175076270699404 0 0
225.858197022367 6.84965803810124 18.5718249089691 0 0
151.794815289676 12.7565028342389 -24.5342084310924 0 0
179.107353751841 15.0821931132729 17.8066053320085 0 0
198.223426955974 15.1041966627986 -27.4759733571248 0 0
151.731387338428 19.0910196456176 8.48667558163509 0 0
105.713642913393 -10.9449220346058 -0.381105535727505 0 0
153.323646042704 20.5976219898045 6.24165741462184 0 0
198.613169061183 21.1607891247417 -29.4950966706376 0 0
202.08324215851 36.9945075066046 20.19923173401 0 0
-132.609549519579 -5.5609287514761 -9.89167190436559 0 0
216.480885417857 -44.3291748384932 30.4218285802095 0 0
168.979031533763 24.7222142936387 -1.99106392805714 0 0
230.930372459521 -35.3284754708096 36.3719693007406 0 0
-132.580410479784 13.9170318694191 12.4763301402578 0 0
-132.43674856387 -6.95075388340243 -1.63474020921785 0 0
-119.977570568936 5.15307637719171 10.5382714757662 0 0
129.057903538219 -11.0066616594762 3.02682859369909 0 0
220.079409866076 -16.3588350315761 24.4295074265773 0 0
131.267895220413 -7.07113425471012 -22.620731791101 0 0
-49.3001936270444 -2.24380333938016 -22.882331336905 0 0
-34.795487556787 -4.41776608721094 -21.4931273124957 0 0
196.96837973209 2.1212408337171 -23.2323399699157 0 0
224.428229075479 -39.1088276406048 -1.5146133007178 0 0
57.9551619622761 6.58259154738334 5.87634911596587 0 0
-55.248768290224 1.42215601797482 -24.8479241641666 0 0
218.520606773553 -42.9163782893132 19.9220940471104 0 0
-152.109120344084 26.34667102117 4.93766399580682 1 0
102.381389860975 -5.39626497776896 -23.0569324503098 0 0
148.483600760914 20.0671351575518 -17.1079328568579 0 0
-44.2424516479482 -5.830133591989 -10.6652309525356 0 0
-48.219759070166 26.0916556883829 -11.3660887827838 0 0
59.372990131968 -11.777782421926 -12.9218002738618 0 0
186.885497830114 11.8436570848585 20.2174605699133 0 0
212.114242025028 22.7406523720367 41.7569003983765 0 0
12.5174989216664 -6.6231984545181 -22.0763720183198 0 0
227.682419461913 2.85601090759247 -9.8833774221975 0 0
-14.6925012730063 12.8208912655653 -24.6077648673988 0 0
128.461608114368 -8.81913273573388 -21.4151183775012 0 0
-38.9691356992397 -4.02987858608858 -21.6292693521383 0 0
188.244850980181 0.823210420308289 -23.1418711731103 0 0
4.97564748794847 -0.167171525027671 7.15889173419126 0 0
57.8521536616887 -2.08921494913606 6.01885191357587 0 0
118.803248742082 3.90263318930103 -26.2419305998199 0 0
200.641834747645 -31.6487127614273 -15.1837442461624 0 0
127.907904504068 11.8120643454358 7.92160863682935 0 0
-59.5370984457015 -0.875623054212365 3.60997107665125 0 0
44.32385054958 5.53314221830549 6.92241725755721 0 0
174.94750499535 -5.93838461673212 -22.8254758845722 0 0
229.711660129775 37.1031853244452 6.61086632623395 0 0
231.148014407429 39.280521999743 16.4382910470992 0 0
237.392212763533 -32.238700061425 30.6818381021642 0 0
-141.231933493094 -7.85152025739497 -2.02832403263819 0 0
6.84918371308028 16.1629047594105 -2.8543642690076 0 0
-95.4576666197558 -1.25463841965932 -18.8734674523061 0 0
105.225922659595 -12.6384522305349 -2.83839436622759 0 0
-149.943745471766 6.6762384912878 15.380187895825 1 0
-12.0315323999562 17.4232512583508 -3.15957265805725 0 0
-77.9891472948311 22.2607744539671 -15.9742128043191 0 0
208.875482187263 -26.9215383704413 38.0169900635372 0 0
207.123203394448 -13.6459927457593 21.6566972431455 0 0
134.12356770699 -13.1153568251462 -17.4947085438786 0 0
-122.027388464307 -5.42203708424619 1.6986432378695 0 0
55.4472411259049 -1.39408965722874 6.46928150666753 0 0
110.298788590353 14.7556242957538 -21.2339310149783 0 0
219.288256143276 -43.9312511736141 34.186573749563 0 0
58.6540306436125 19.3855865083015 -13.4382187206863 0 0
203.554191458277 -12.5918426272058 -24.435143024555 0 0
-19.1516887829203 -6.62555950678784 -12.1641191178443 0 0
188.938967565824 29.2400802228663 -9.46232769930049 0 0
218.643461991407 35.4719439779633 20.6302215841797 0 0
174.851706642203 -24.0696956981605 -8.2809785525652 0 0
197.620448178931 -5.29462845341955 16.5667481684271 0 0
173.433396988099 -7.51049164822218 10.7939602336557 0 0
234.182859497893 25.3896717660006 6.22323384600997 0 0
220.152072503592 -33.883509691758 39.8615031708329 0 0
58.66846250848 -8.98202925921938 -20.2661956535969 0 0
232.474940216725 -6.04199239234531 -7.86010336426764 0 0
-91.5060237285897 12.6769672365329 6.99517049106196 0 0
199.426285681482 -13.6382138710401 20.5296657386281 0 0
232.199087839319 -40.2223018022435 15.0628918557357 0 0
218.569737424643 12.8310937848983 37.5645243445738 0 0
-95.3851922957785 27.288312911513 -7.95749849240664 0 0
134.16846439834 20.0779257539722 -13.9150653368094 0 0
-78.0492113646279 17.7859275377339 -18.8329778314736 0 0
220.018336411553 -3.19171985660275 -21.5900331417515 0 0
183.765655941837 -6.27024715854458 12.7349621261652 0 0
106.09389470034 16.8074340241815 1.26145799087672 0 0
231.164655050871 -18.3418138450953 33.036826734262 0 0
-102.776434844193 -4.37080523275138 0.315175671156505 0 0
-39.5888213913321 17.0948521947015 -21.6551414708631 0 0
-81.0143363172067 16.8392368439087 4.2865268129715 0 0
169.255710588634 -8.69734731744501 -22.3861649289219 0 0
191.80902365479 14.4353676890242 -26.6310747053146 0 0
-27.0842933366457 16.1250696014369 -22.5371326548689 0 0
213.794237564033 33.114743497264 -16.1558309460677 0 0
-97.8764837764891 -4.33959658346908 -13.6874175406322 0 0
-60.559065984999 -3.04972994922797 -0.608398853911137 0 0
-30.1012107136746 -3.42734779773513 -0.433587225554611 0 0
223.985007445319 -37.6791096678901 -6.82884536134351 0 0
169.852899022431 -13.2586893819345 10.700827933937 0 0
196.32260722144 -24.7088198015541 27.2121043257096 0 0
233.467428383757 -20.2535205862077 32.5172502735009 0 0
144.624293811798 -11.1621408933803 -20.4382061581583 0 0
-105.841080752132 27.4254999446237 -6.52684841381436 0 0
2.38781847478278 3.76492159053025 -27.2279011780701 0 0
230.805989592372 -9.22978386756184 7.69567684636344 0 0
177.322901350001 -26.1858468563782 -4.90805140908052 0 0
224.988847480876 10.3529261457081 -16.4553740275958 0 0
229.076571561667 -42.8037267045722 32.7892495155787 0 0
189.784659613143 -33.3326973317451 -4.83218706747637 0 0
225.54996116352 -41.3048292031475 1.24160887696755 0 0
-75.4266572049365 -5.4397290630451 -7.68235882557132 0 0
-30.3568054110286 -0.136930460731211 4.99759511053123 0 0
190.473095234466 28.2826211891495 21.3020285577154 0 0
112.375317117558 14.0512316886594 4.75290751950068 0 0
-128.247879749188 0.197300508721246 9.93675222544841 0 0
182.513617031537 25.37295344238 -16.4628743285211 0 0
-113.496287053889 5.12585254877264 10.0855586223968 0 0
183.104273288583 -2.47049027113184 -23.0064112184392 0 0
229.373654648104 -35.0518095641727 -8.28411721683016 0 0
217.760195449321 5.57729698314231 -22.1617880984741 0 0
-60.5313744211821 2.33835129721221 6.6625317933604 0 0
-141.388344838097 -7.20890874867344 -4.83412481000231 0 0
197.322112352446 -40.8054885818606 -2.29738491896503 0 0
-28.6807482190748 15.7587876514321 -0.675292868204103 0 0
220.845645836699 36.1416626698005 37.2066802661696 0 0
-66.8924236105938 11.2634616495297 5.49633667525161 0 0
225.927314676582 16.6135780511106 -17.2775455178037 0 0
197.865395413832 3.88213319549883 -23.8460775118329 0 0
197.391994298961 -17.0582989870322 25.2432772067962 0 0
177.325075865124 25.9991474675528 -2.05082956821684 0 0
64.0819282084297 14.8382655592671 -0.744333716038468 0 0
-5.43866992487011 23.3062937291927 -13.8778369470856 0 0
188.821961275704 26.8586536756466 -18.9332896102115 0 0
-96.4065740183451 27.6215649021438 -5.15878665410373 0 0
180.80684094621 26.7405340647839 -5.72053875138383 0 0
202.038040461377 9.53191914771489 -25.9238452840781 0 0
187.110104498358 28.9493773203107 0.194746690898783 0 0
188.423148406488 29.3270783030919 16.9894749255251 0 0
231.519882768116 38.8070177066354 14.5042187640734 0 0
36.8525567842829 18.7968972805156 -18.0312992842806 0 0
-121.480914804179 -3.33281588348559 -14.8474346049951 0 0
213.271604518634 -21.702621982926 -22.8467658023844 0 0
180.641070420979 -26.0702748823599 -7.9598946460917 0 0
184.134596160723 11.9399493622087 -25.2371131925493 0 0
-50.674582725437 23.6991276496739 -4.68411287408554 0 0
53.3887593209628 19.3933494873641 -11.8382011898704 0 0
137.701044553961 16.0259160733339 7.29029621773069 0 0
36.5732379813795 20.6052816393063 -11.986605748119 0 0
230.09516359966 20.2290591558577 -10.4057414085634 0 0
212.482000042217 -16.9179264883397 24.8960004987413 0 0
233.640091115455 25.3295654937614 3.59604611522683 0 0
8.97664137989245 18.5012428008012 -5.34070278025214 0 0
-89.1862872241926 -4.10727329584674 -14.7560764081762 0 0
124.922386044956 17.5939708855134 3.10471136297961 0 0
221.102031249855 24.1234628828026 40.6607635073892 0 0
205.480949502046 37.0354588328802 -4.59927753536244 0 0
-118.312237025139 23.8547776931697 4.90862510316801 0 0
-124.104614172197 0.595965729690143 -17.0988823401288 0 0
36.8754422490919 6.90898672631786 5.28868988839043 0 0
224.850009408264 5.75643576408389 25.1664748924134 0 0
198.75690039032 -15.1311093041941 21.4003443312739 0 0
209.369332914378 34.2213046568636 -12.7146870677646 0 0
122.406475946682 15.9490777874324 -20.6197257923007 0 0
74.9895048249352 14.2855713930787 -21.219303615886 0 0
175.781794113949 24.1913572256577 10.0140803461111 0 0
43.2852640259409 19.6927338018638 -15.484940642429 0 0
10.3632511252667 -2.61788664080536 4.6729702495714 0 0
204.507560703918 -45.9020164891298 10.9638803638955 0 0
153.815024840277 5.93057099596971 10.0423285005015 0 0
121.520536857319 -3.88569010266714 -24.0871753814883 0 0
162.0801190906 10.6671917813339 -25.1646458558228 0 0
-76.603339913462 9.19319645250333 8.23366563762518 0 0
228.394913469945 -0.19958878856891 -9.29822440957291 0 0
206.772083154258 -46.2120678617645 10.5865902410268 0 0
61.8272187549069 -11.0403776342041 -16.9120571678316 0 0
181.911884490494 20.5703087196297 -23.4247169056494 0 0
231.430744171764 23.7156114583544 -7.00978833789969 0 0
-86.7720205121016 25.5129311752052 -12.7498449751329 0 0
195.121539894363 0.205918132116226 -22.5750934806103 0 0
187.68723612369 3.16941893724744 -23.5253571877335 0 0
-107.950346132698 12.777991329112 -18.6698046079328 0 0
-69.6954090858179 0.00573817575404005 5.42287775399487 0 0
234.590499303528 21.3384850627463 23.4292237569482 0 0
197.128670274044 -29.6927951190177 -14.839546666758 0 0
119.89274191403 19.2466970707539 -14.0856297568068 0 0
220.619948752971 34.0332501975368 38.669164066861 0 0
25.2907536747181 20.0190598333027 -18.2065133152706 0 0
-98.3602599899108 18.4637759728029 -16.4038553550695 0 0
206.385219561472 -40.038920398597 33.7819057576354 0 0
66.9869387935516 5.33327574712221 6.93446021000541 0 0
214.564041887737 26.830449547456 -28.466305841264 0 0
-35.4584383857407 4.29885090550866 6.7223851067835 0 0
54.2478509626846 10.0491362969441 -25.2088924025004 0 0
17.3156025026753 -2.32509752182143 4.00660416741362 0 0
-40.1853906378274 -1.53808446635028 2.88507396891144 0 0
222.98305468998 2.34280498595369 7.49421154722747 0 0
45.5318286473592 -8.47950676571217 -6.19512385847972 0 0
206.187367276246 -45.2048526321299 1.23166481796688 0 0
241.246123187724 -18.0332186977164 -4.98469355844664 0 0
113.220964452426 5.93347901581495 7.79432438114123 0 0
23.6405418827724 -6.85895953235714 -22.3548273539788 0 0
-137.630054090141 -4.02441449725354 8.55746140797873 0 0
218.374069312356 35.9907615067812 -2.08305897508956 0 0
228.540561133931 12.4561646105993 -9.61209920251976 0 0
106.372807655843 -0.0656392079946802 -25.5964948729516 0 0
223.851603358393 30.1633024388381 39.0537056686073 0 0
240.858644737155 -22.5006807718942 -12.200058815546 0 0
-70.9567797733132 26.8307026811045 -11.5408867737439 0 0
-86.7512322958285 27.1329017729419 -9.46546611889474 0 0
-34.3148427231715 12.0753989567645 -24.6178715631482 0 0
216.032363786521 -43.8625848500198 4.48565892247268 0 0
116.864368642808 -15.7278344993496 -7.69655320337651 0 0
226.895427274809 37.6454944357623 12.2807759140772 0 0
214.343018989681 -43.8366643166088 29.5564878562733 0 0
63.3156523461832 19.3135220754938 -13.3012372499796 0 0
154.639061837563 7.48220296319222 -25.6965956173951 0 0
-127.870091178465 9.17328775193556 13.0585415626526 0 0
190.708251818357 -15.1722501056645 -21.9470130234368 0 0
192.098937827101 23.3084333120146 26.1257168549223 0 0
183.688742626762 9.42944125873039 -24.842826712232 0 0
58.766109555146 9.58667554073129 3.42722776177185 0 0
1.7216704274828 -2.18854510711901 6.0823218798439 0 0
32.7550181017449 3.26766430137121 7.21531811981692 0 0
-48.5504455788518 24.3089659185636 -5.94828142137043 0 0
199.373147219634 -16.1751423797514 23.8759239199056 0 0
189.975218889902 28.6204295065313 -14.8569530091667 0 0
241.390629359427 -38.6114730979864 21.8135436507797 0 0
-85.3850107467217 14.2825104219412 5.87733037135366 0 0
105.868301120079 -6.14985020338573 3.84051281028154 0 0
-75.5622194497166 26.4978612896265 -4.92568123423065 0 0
219.148259294071 -44.2347955082086 32.2990556578799 0 0
205.147293176245 40.3580873724366 15.0214804816478 0 0
-41.8431128338553 -4.56467401702965 -4.4504676948851 0 0
193.560592000832 -38.2291062288532 5.09172892852158 0 0
-18.2300877210027 12.6514944402941 -24.6944842160268 0 0
204.376731979106 17.7540601676291 -29.2626967806901 0 0
-127.71976794827 4.45786653062172 11.2328982745615 0 0
83.9446865876639 6.7611551536791 -25.932633375764 0 0
202.069950219823 35.1713471353266 -8.05469234268185 0 0
-2.37714407866384 -1.53640752749999 6.14365716513794 0 0
171.40378733253 25.0642308174099 -4.74436625184762 0 0
194.865390968585 -40.0226924678205 3.64698092190068 0 0
160.125574338258 -12.5302636308541 -20.3248349794794 0 0
-116.406216282837 26.8524946566109 -6.6068702349993 0 0
216.538612087153 -36.9939754090394 -8.94109708118439 0 0
231.571747736265 -3.87331926036263 -0.701741476765164 0 0
-12.0712305473974 22.4880273016749 -18.3375202775232 0 0
187.677758698406 27.2423495838022 18.4099062813563 0 0
235.91723713981 -9.10957627182696 1.39049854364408 0 0
209.107088520525 -42.5433849272448 -4.42038237811112 0 0
210.160657295553 -16.8849519585476 26.7227384946751 0 0
162.948639908102 -19.509973608544 -12.8329979284034 0 0
229.083702670974 18.6037841473957 -12.0516242469812 0 0
184.943235068688 -15.7532922529853 -20.5126502486905 0 0
231.044154607757 21.4598503742529 -8.37319580225477 0 0
-29.9053080028294 7.84157605771025 6.24497614863443 0 0
-119.305926060517 26.5700608812139 -6.72780812117039 0 0
-114.738364046955 -6.13998680876956 -4.42455676168403 0 0
159.012926151945 14.2919849059968 -24.0856193691116 0 0
186.172983574567 4.6541813358714 14.8276480079512 0 0
-78.5471498495878 5.03918069498421 8.25390036476478 0 0
223.911665544176 -42.4484452572603 6.18387022718259 0 0
-83.5481620499303 18.268297518702 3.91642360240427 0 0
210.407010680054 -18.2105702388106 36.1896793780044 0 0
109.677175341157 -14.7158312147658 -6.20063563103292 0 0
187.921377323716 18.7956098532171 22.8011553472766 0 0
184.335358355886 7.08909237655594 -24.2458438291314 0 0
205.24306066489 38.6982242114295 1.74752163570426 0 0
239.654146442982 -28.0888815353272 26.3805377940531 0 0
-138.797745701457 -6.96222662044035 -5.04790660474801 0 0
202.055766190112 36.1645386935776 -5.51582762224886 0 0
206.953421053912 29.1155997193207 -28.5332110571409 0 0
225.578104112677 -37.2795816019753 -7.15279730166925 0 0
207.135111071298 39.6455309677034 5.18084510023246 0 0
-79.6869027399653 9.42652221681464 -23.001789695001 0 0
38.7147705641828 17.1588490417787 -19.9502106281918 0 0
