"x" "y" "z" "f" "a"
166.028858138551 2.38296766706918 8.55209979469347 0 0
8.31548939291453 6.40233272319674 1.24370092369594 0 0
213.186308990703 -18.6728472327788 29.8721132513639 0 0
178.602767562321 20.5002554158518 -15.2226936117109 0 0
201.888678270001 9.53541322903416 22.2697726948745 0 0
213.705400152233 -19.1911995250323 -10.6191448156179 0 0
197.928278113752 9.90156412456121 23.5986314272228 0 0
172.593720924446 5.14061289135434 -18.1509744540612 0 0
87.2706778386723 5.56968412538985 2.85589348837843 0 0
135.339548776181 15.1803262604872 -12.9403767832693 0 0
197.176590200308 22.3699939157127 32.5662148412102 0 0
218.502361407634 -28.4197439604606 6.55319690505591 0 0
164.831372274711 -24.0036207289287 -2.38636172233963 0 0
155.55090919855 18.4966877394021 3.0620269779718 0 0
186.162875309964 28.9941072338511 17.9383744108025 0 0
97.668153666007 0.321211253110189 -22.5256506832752 0 0
52.1341328421463 7.32454546021614 0.393827496602552 0 0
75.86034213569 -2.6397151021846 1.23263275764323 0 0
197.488505921907 32.3669454910862 6.27926570419368 0 0
-39.203180166915 15.6220642127521 -3.32009775887965 0 0
189.97312084976 -19.7785944384071 28.2729695262284 0 0
169.885306472384 -25.2788073470324 -5.18461177524216 0 0
188.99947532804 -30.424218242861 20.6940833371557 0 0
162.973961658019 2.36853251758249 7.9149293699445 0 0
141.81217920408 15.5280815065136 -12.6489502777174 0 0
87.7133791619694 13.7658309654467 -1.99138136408078 0 0
165.685865065212 -3.72997556990347 -18.1754244618302 0 0
191.410343590741 -10.4567123289205 18.3846951170747 0 0
167.155909060392 4.55921498784557 9.38829398242268 0 0
33.4057239752956 7.32904192872029 0.118606722216145 0 0
175.68243603236 -18.5239071060988 -15.1847051522836 0 0
-3.302983954371 13.2176419408413 -3.62883072386616 0 0
121.626625768857 -13.4506747296795 -16.6256068351035 0 0
121.791771612569 7.52213306589739 -20.6236947943173 0 0
191.444692070306 -37.1118687386952 12.3846994454918 0 0
-21.1061799001367 16.599199586491 -6.14650009910666 0 0
131.451180307605 14.0562024549999 2.73003348357808 0 0
181.014439957394 10.650953362817 17.0455651017848 0 0
183.932132096882 -11.7992185032945 -17.4107411318936 0 0
-19.5790750256622 4.58909776867537 2.92922634039603 0 0
-35.1028534789716 13.3248673349024 -1.45870084962727 0 0
154.349282013921 17.405535520255 5.25158312387664 0 0
178.814288065616 -30.8786664728619 12.93401757147 0 0
65.1503169747996 -2.24785199528548 0.652232780970819 0 0
187.362218617598 25.0692695344278 -9.71559472882054 0 0
114.267363196714 -13.46298500849 -6.33348534620022 0 0
203.039238285305 24.0036900651131 30.6394459119873 0 0
19.6415035254627 0.0535420255644616 1.10718308097528 0 0
8.57207966168935 2.97852330180754 2.65574700419079 0 0
-26.4967794938177 -4.64739677351634 -10.2033300817839 0 0
93.4663403514928 15.0261290811365 -4.18795761158472 0 0
83.7728555052906 -7.21396797702798 -20.1269735588212 0 0
194.800137124036 32.4513897527285 7.7585072048172 0 0
190.448938357632 -33.5396500466317 21.3063708061189 0 0
85.1097325002832 13.1737521502968 -1.39231464859147 0 0
148.067542128202 -10.7095164439444 3.35811443524195 0 0
221.682989729964 -19.1522506092017 8.4974125107902 0 0
10.7656774229228 6.15949010615486 -23.0825438230524 0 0
128.975415481065 0.101229434527125 3.83936668202153 0 0
209.61559214659 -13.759169610879 -16.38375731138 0 0
172.208522893032 -1.36747919413344 9.30070690321721 0 0
166.119125020259 20.5873117290712 4.13432743015931 0 0
55.0108921726292 -8.86877928764671 -13.6019286025627 0 0
210.37105310678 3.82660571720411 -5.54612472590113 0 0
66.547504337262 -7.02316742254585 -19.8207549527758 0 0
189.865188552996 -28.6873676359435 -8.21136610750014 0 0
-3.91898988312188 3.2616318039758 2.80795682529856 0 0
193.613029230814 32.2146678217246 6.28718531820611 0 0
32.45040123806 -7.14603030263381 -16.7096639767116 0 0
198.577748578902 24.3010898333371 32.2969153866541 0 0
-39.096843082642 2.95579530227569 2.69121398963992 0 0
55.3175041828782 1.48569042287332 1.82522845432286 0 0
205.124482791156 8.92655253510216 21.495500038978 0 0
203.126923099383 -9.01696222993876 27.4847501369026 0 0
174.701846671703 -13.1327068982875 12.6103906566053 0 0
195.199104189203 -11.8221471312637 28.6978413193563 0 0
47.0476558499772 -7.47182123597597 -17.9112181283117 0 0
16.0749750102568 -3.54295199373593 -5.30940498710569 0 0
192.976995863459 -36.9019830315113 19.2558148182789 0 0
53.4606569473227 -3.93182872867341 -21.5254882923984 0 0
146.384828092617 -8.41275529936975 3.63533505906277 0 0
174.036050663983 -6.12226201080325 10.2080981502137 0 0
178.847246733886 26.2564731233832 6.10304183196045 0 0
217.10712836601 -10.3344903281487 7.93778723979085 0 0
28.8628245702863 10.7177133198769 -1.92553403677474 0 0
116.901042659812 8.84065710981385 -19.9858275430382 0 0
212.342235273206 16.5791195062585 12.2995016644786 0 0
51.2371095964833 0.546401865045179 -22.9853848903555 0 0
148.766124675383 -4.18199627527558 4.81642298627769 0 0
196.076662689287 -23.1743128526058 33.7104656707857 0 0
169.644307988434 -8.58450628041462 9.06956667108792 0 0
152.510674925831 -0.656467614903178 5.85959975752582 0 0
205.779409230841 25.4815785665021 -4.14241462618059 0 0
175.863850271672 24.1070429222474 9.64109916734896 0 0
202.764150104222 23.9218414403928 -10.5420886953629 0 0
63.7617681235425 -0.313975846433872 2.16214181051525 0 0
218.801833052394 -29.1664659328513 11.2570476317616 0 0
79.5877381108093 3.91390448415156 -22.8105458294888 0 0
184.442704423464 -34.7381125401701 15.4266260681858 0 0
172.084098398893 3.37845387229485 -17.8414899087101 0 0
208.154589869764 24.1052812635922 -5.7376387311369 0 0
150.511180542066 17.7284935632106 -6.03506838443311 0 0
23.8017577413896 -1.76324631277819 -21.924044514851 0 0
213.177540565884 22.4531772360536 11.4325748001532 0 0
176.221937405917 0.448815001390625 -17.2791377335002 0 0
78.5906083114164 2.7847195297453 2.87458242719941 0 0
-0.871845763734074 17.9237327665606 -11.9731658321843 0 0
191.632412166153 -24.0427150283151 -13.5053634320851 0 0
195.845642404316 -15.0614227384478 -17.8867540292773 0 0
137.968322620594 8.795798159159 6.19421626288069 0 0
203.618210395512 -10.897931166034 24.4378770348122 0 0
194.064023370024 7.8067357560243 23.9178595063761 0 0
184.163922420538 -10.9021869607032 13.8088193584709 0 0
178.222971485732 22.2643585674914 15.8411805621228 0 0
110.193145798909 7.19078842053825 4.10082976836248 0 0
202.509412060302 24.7462800415798 -8.67703252895403 0 0
41.6820313643602 13.9422344495977 -18.8151104535809 0 0
-18.683817697799 18.7410159431045 -15.3891795361093 0 0
187.113695191181 6.59296516104301 22.1484341844188 0 0
200.55540994022 16.4192434941092 -21.8281613480825 0 0
166.260538522102 -16.9826506948498 -15.1228851066222 0 0
155.501010066882 -2.56272027784343 -19.2450230691509 0 0
186.343417095057 25.2747505655094 28.3840967512016 0 0
213.872674254883 -8.63305204016897 -5.6866944706803 0 0
-32.7591474152884 1.9057165027445 1.63879961508482 0 0
197.356378123667 30.0151629113196 18.9508965950837 0 0
123.645801824298 -0.323381352529768 -21.7274739360491 0 0
8.96797143898616 -5.07048883205333 -18.2682494950033 0 0
98.7250944381501 -13.1768477880493 -13.973689044093 0 0
206.917950796115 -35.7042935020948 8.26028128941028 0 0
-23.5481006840991 2.60762402567757 -21.9153971827388 0 0
183.209923493542 30.4874956320512 8.51025194011405 0 0
163.28025247372 12.9508353233696 11.0214328508953 0 0
162.32982278979 4.31108945510749 -19.1961827713735 0 0
210.525577820223 10.7127831132569 13.1629785328275 0 0
-33.3482755534159 17.512010461091 -6.2333205661559 0 0
35.4658760275768 -1.63884410252398 0.913234905650466 0 0
180.352951525528 13.9530835350533 19.802262285925 0 0
147.519612184146 -11.5956075855329 -17.8704458542687 0 0
-5.71876159716194 0.303040287778278 0.297740320511568 0 0
72.4622836894057 -10.1969819905223 -11.7579421916124 0 0
175.518175492341 23.2911567427116 -2.3450397976114 0 0
142.300307788134 0.169815976840794 -20.6825337867723 0 0
72.1407718589001 12.0528857468595 -18.8956319463508 0 0
197.463136750315 24.3469050630682 -12.4787454438955 0 0
109.360095385729 -9.68082050242802 -18.9729245465975 0 0
205.615871711874 -32.3943960861735 23.7034181930043 0 0
142.944397863869 16.1138667647297 -11.149999346229 0 0
171.539948945856 14.0228513181954 -18.8684314161965 0 0
205.39448528377 32.4796094118769 25.2449919681979 0 0
187.61737070094 -27.2465371625972 -9.76358598199038 0 0
144.838589197409 4.58487214179847 5.9931476687936 0 0
191.232727835577 -29.9562445705985 24.9582525275395 0 0
131.342384520868 16.5783045007707 -6.73776995551838 0 0
210.703324643434 -30.656446688797 0.270114977743941 0 0
219.316933273469 -13.7832725560423 5.10073761911626 0 0
139.0502169067 -7.33846512639377 -19.7627382700846 0 0
197.77305572567 -21.3799653050598 34.2320594705432 0 0
102.936182266939 1.99818505020153 -22.4668467205859 0 0
183.201339037231 14.4043631883018 -21.9220325491485 0 0
9.27823616442593 14.7420225940704 -5.84492394308304 0 0
85.5463530160704 -5.4108922888141 -21.0760887772848 0 0
207.756223004972 8.20061913381663 -12.4120999370798 0 0
212.173255409152 -2.9820541347473 -0.656309200478802 0 0
213.117726865471 21.0617386934566 3.31365278532382 0 0
154.75960399008 0.788725769245248 6.42552924973367 0 0
-40.0621448572601 6.49273466833642 3.44566163625586 1 0
25.3077661345319 -0.819817388815659 0.240227799310903 0 0
104.808806286068 12.9159859820401 -16.3389443412133 0 0
-10.0589996321187 2.55869162704307 2.39777385159634 0 0
86.3250092300117 -4.74329237136231 -1.09009102038724 0 0
160.935307156812 -21.8285013942052 0.469070310645559 0 0
22.2017333020876 14.8583880160752 -6.28584329366969 0 0
-9.06070010272528 5.09832915440451 2.7430433605018 0 0
143.574883201712 10.8981283433286 6.88766248675864 0 0
37.1785385339047 14.9459489685371 -17.5266458433022 0 0
201.462536373418 31.2380882146856 28.8831087123629 0 0
193.156068469695 28.2680129521515 29.1690606459891 0 0
193.086672994696 -32.592896656809 -3.09240639452704 0 0
100.516177674007 -2.82501027088237 1.32086886377715 0 0
219.621751464537 -14.3258688845404 9.58669129194702 0 0
44.4928663829842 -2.46982263900167 -1.40189175808462 0 0
29.1826641382443 16.4498334170576 -11.45788307283 0 0
152.047715499688 16.7421150044482 5.26213424866752 0 0
-5.29154028480321 5.08539478560948 2.63435889937912 0 0
209.777634125395 -23.9478084652259 33.1048752693757 0 0
150.013285595564 -16.5323088339051 -14.8104379359363 0 0
179.560995960552 -18.1462714637353 -15.9200325707827 0 0
-28.2598051829337 -3.91513401318466 -16.714358768751 0 0
142.961948756182 -19.0351958697062 -7.59378374997953 0 0
178.143170437809 -27.1076338219007 12.5737320149243 0 0
93.4899127919627 -7.70486547819096 -20.00869084614 0 0
188.716666089418 -33.1360339804936 19.3291991094259 0 0
2.27733916292852 9.1865153265371 -0.819015936752157 0 0
46.1800250920633 15.6411071565016 -10.2348352163534 0 0
185.747732782121 -35.5436415819231 11.4270430313801 0 0
95.5298871284865 -12.7166393400165 -14.6262144439281 0 0
48.5204166456481 -4.10581686898039 -4.36015909528763 0 0
213.05786447676 18.5557531816459 -0.886307724665476 0 0
128.977561751164 1.18682362422082 -21.5104676063073 0 0
182.500491432219 15.0082231749598 26.2611277163007 0 0
98.0628452822735 -5.42220126522731 -0.304802934724892 0 0
205.957794766763 0.425253148485596 9.45691560307479 0 0
195.354373550525 -37.8695072773252 7.20474971070161 0 0
38.8674154733443 5.33960280009205 -23.2352048505547 0 0
193.190350979601 3.19625944981901 18.4606172783489 0 0
112.562414854314 13.8127170620848 0.472693349518249 0 0
157.695390225181 -16.7052497406882 4.62470505784519 0 0
194.741111432799 -30.8967530035614 31.3736494559431 0 0
-24.0377038914678 3.41589475544355 2.32857204816967 0 0
103.991119771342 -13.556513613227 -10.0425597317632 0 0
13.6805506496685 -6.45961657208003 -11.8654029869117 0 0
209.750091719798 -32.1462861022723 18.6277520470276 0 0
-25.4606563318844 15.8632483740613 -19.3518226708418 0 0
27.4980489512889 1.93798821386051 2.3870742339869 0 0
214.239341358215 -11.6995696735078 20.6949676811657 0 0
82.9118043889375 12.9433432106792 -1.35062460039955 0 0
183.040852670983 -3.17706433727826 12.9668235102716 0 0
196.289741420365 -7.82954395358553 15.0788618858186 0 0
-29.8769163096542 4.01260263175023 2.53949611530775 0 0
146.272887346271 -8.61850335181677 -19.0236490699862 0 0
177.196910703839 20.1536492637823 16.6663363753247 0 0
0.814010379129235 15.7434660055385 -7.03664030181986 0 0
179.948482940235 12.3234977689853 -20.3309913449391 0 0
179.119853186836 10.6635721312059 16.0214607605731 0 0
187.275185711307 30.4192279590787 3.21819709407528 0 0
109.622499257204 -4.38855314040106 1.11469562864776 0 0
132.367842331164 -14.0894819754594 -3.03493275877772 0 0
220.608916476571 -19.9895361563951 0.0350881955969624 0 0
202.948262708546 27.8149963914285 -0.740228160078673 0 0
208.904839391755 -33.44457299492 4.03967870403089 0 0
-21.2242368765752 -4.94752651399693 -14.3381269372602 0 0
-7.59287103793398 1.4397355687549 1.52675134060288 0 0
190.113385335364 27.7887262542387 -4.01081414116843 0 0
109.224251366675 -14.2527984508685 -12.4406856072868 0 0
71.1746613210003 13.3064764971379 -2.92837914481825 0 0
9.1961106113026 -0.301678065494805 -0.107262027092981 0 0
207.147510551758 27.9414369203077 2.21241455674867 0 0
202.86472184481 -29.3013154668988 34.4122174983344 0 0
109.747474897259 14.2807022758455 -13.8783066485982 0 0
153.019591305405 -6.4371337761299 5.05937128377657 0 0
116.079464481931 16.1003101640568 -6.38173703441334 0 0
77.2405299060981 -8.8595804422037 -18.5627788813228 0 0
36.6421156091213 -3.08354651465663 -3.15827944915244 0 0
-37.5368274169241 8.09074835528715 2.35585811440874 0 0
186.939672020757 -7.26721175370101 15.9355727670921 0 0
210.345005468699 11.9911811273474 15.039872417737 0 0
210.319236014946 7.548783092335 11.5732010868816 0 0
208.138890332501 2.58479212709436 -9.88162967688233 0 0
218.775913666351 -28.7649697789084 9.0854578859258 0 0
191.824157433901 27.7679356449319 25.5226283580173 0 0
200.519699252829 -35.7362627573513 14.6220781440284 0 0
157.501983891444 9.25657619937168 9.04272784230334 0 0
192.500538265019 -33.3123985281769 24.0259903157006 0 0
171.671565402213 -12.3811133886393 -17.0289752420887 0 0
9.42486242653269 16.2164296950962 -8.46730954380401 0 0
7.33396341513567 -0.573258993595125 -1.15778344058137 0 0
167.46982357592 19.9543630894414 -6.02271482755983 0 0
9.31179015927595 15.581122221846 -19.1605491612617 0 0
176.172953417604 -2.50051311562037 10.5494083709074 0 0
204.492753130288 -10.3454572320298 -17.3337451676031 0 0
66.8560599963251 14.0567634217783 -4.69378772324579 0 0
207.983887486611 -10.6850670954137 26.7663214357204 0 0
175.255516310674 -26.1589570777653 -6.69660786975243 0 0
138.049939735875 -16.7285693874634 -4.22187617837554 0 0
135.644189439554 -5.68148239042306 3.06889059734696 0 0
73.8852230540606 14.8568367723663 -6.52616300035733 0 0
212.953859326648 14.4449283230941 5.58729864147389 0 0
210.633303098902 -31.9922687105708 26.8490257315343 0 0
210.226730554405 -13.6006587051479 29.0857436995338 0 0
214.288249614799 -8.61758492775916 9.7270189937778 0 0
176.426365353893 4.06157829415602 -17.7857097601456 0 0
99.2425858826201 12.5055564041524 -16.8543043013907 0 0
90.0586812469178 -11.3611598760873 -9.0203367273268 0 0
178.547759604995 -18.0844967367384 13.6750144924345 0 0
54.4897036908889 -8.39036309067701 -11.1081540780754 0 0
209.881646876728 16.7021488090428 21.8656247310741 0 0
189.149716961101 29.9434488371091 19.9319153235034 0 0
-1.02981234630077 16.0240818162725 -7.41079673250728 0 0
141.742722645153 9.81071343834995 6.72808242351867 0 0
165.948814411826 19.9289714011674 -4.30002670727064 0 0
151.314532409348 -2.51123187495683 -19.709912099892 0 0
-30.1327544477445 17.1882851922255 -6.15550312604841 0 0
204.908114728942 6.12716903420795 14.6591123010853 0 0
3.55375953389192 11.0855399630197 -2.00690759473337 0 0
39.7954288236809 3.08500743608385 2.35155105234404 0 0
158.898669156357 -22.123632769018 -6.26830700010887 0 0
147.43529958227 10.3141891490282 -19.1507146097577 0 0
207.344167642807 -33.074276118209 19.7702665585595 0 0
156.664689381489 -15.9990348237422 -15.3183119465417 0 0
193.69905198293 -8.97910861820216 16.3655700638294 0 0
107.361684244448 2.45982360944382 3.24872735939355 0 0
136.013281648043 -12.9843901114758 -1.11982674328237 0 0
188.110194775157 22.1363482680116 -17.6126441103273 0 0
95.4542074577271 -6.36728992229894 -20.6653331053155 0 0
184.792496396341 6.38926654182112 17.1508086484888 0 0
222.04113873987 -25.7550440650279 5.58668580848288 0 0
212.259452898481 -28.3362746352119 31.4684497979084 0 0
176.045089061661 -28.2518308230554 -1.82651208010137 0 0
-40.1035626870984 -2.58940279488161 -4.5767673723384 1 0
9.32963135362621 -0.0124113251933961 -22.375631032821 0 0
168.813296278155 -5.53558960533458 -17.9615366925995 0 0
177.657650402247 -3.28818455716627 10.595844942698 0 0
2.07276867870228 -5.92258632999904 -16.0561848683892 0 0
87.3258174938738 14.9562685045272 -4.92895132496929 0 0
175.795601565035 21.0097009720822 -11.0637259779825 0 0
72.9753192321343 14.5186192460722 -14.3252417406027 0 0
170.244518690403 -25.8951054558753 3.13124839284133 0 0
211.177366441858 -32.2437413814065 3.78145548050298 0 0
-19.5164878599411 18.0740919841157 -9.13404585207715 0 0
77.6304426759598 11.4688242426212 -19.1206960790128 0 0
89.7581788415969 -4.31229335159672 -0.402704930509316 0 0
-9.2291276388121 13.108766737789 -3.3243187174648 0 0
158.733343168207 -19.7197866200214 -11.8366258582328 0 0
210.786513101962 -31.5766012912917 22.5789451641491 0 0
196.349257505397 31.8874049069058 7.84561413822413 0 0
29.0183255600222 -2.44657440466675 -2.87882332107116 0 0
180.757416202402 27.2530363751591 3.68787403357759 0 0
162.542024129267 -7.55461463734935 -18.102607134008 0 0
153.691945826621 -20.9458867361557 -5.28883793895586 0 0
194.161178448863 -3.76676235034417 -17.6859964073623 0 0
195.300171679045 19.2173403398304 32.3365546658884 0 0
137.008834068256 16.2111511344508 0.27727540257013 0 0
150.360282153001 -13.5942748824089 3.07227745402094 0 0
175.590473184801 0.404990885956925 10.645055739307 0 0
173.873792928797 -26.8934081370461 8.84807908439401 0 0
209.463217868414 -7.08120414226303 9.21196091113021 0 0
14.4982278387897 0.980111680127062 1.95323570559505 0 0
25.0797563893887 3.89963919897949 -23.2690509954448 0 0
30.4774007139472 4.93855873173906 2.72741431024488 0 0
216.877810975215 -30.3551839710381 16.3701533136029 0 0
199.991873134859 -11.5974471441713 -19.0247388382654 0 0
218.849352439501 -16.7629729432349 -2.75062264278898 0 0
-32.9088337611631 18.7467468369265 -8.3892541611697 0 0
44.1580258396354 6.34467771979682 -23.0479108018778 0 0
187.652134440883 -1.74959511482568 -16.7109579291243 0 0
76.4923427198449 7.40969191940872 -21.8640033860223 0 0
192.641730325397 -37.2467981323726 17.2296433572657 0 0
193.09998161331 29.9431561631606 20.793990942308 0 0
175.420535563407 -6.96743089757571 10.9980453636222 0 0
82.9759504527987 14.0864634195296 -3.15714896055009 0 0
219.419121899949 -14.5215169810919 12.1630735191247 0 0
202.045428538526 -7.10322088047132 -16.7657941385698 0 0
169.292461335062 21.1160080710015 7.86090710239728 0 0
189.316233103854 13.5976138879228 -23.4533127094577 0 0
29.4155213634964 5.66709124042023 1.39557537255773 0 0
1.75781121579826 13.1609945038692 -3.71882743737297 0 0
65.174004436094 14.2882656209494 -15.8378223639905 0 0
197.02001746685 -12.0471625614116 21.9407206208913 0 0
-4.8303292976798 16.7940062566128 -8.42961416042741 0 0
211.813867416507 15.2267568227398 13.3116608290007 0 0
221.257545644522 -19.6165356227639 3.79500862152658 0 0
160.299558150575 -22.4775909067788 -2.44015183957638 0 0
203.704478053169 -28.6131302424677 -6.68969709709715 0 0
216.155957877858 -29.0154925377649 10.6448560505678 0 0
207.758020497456 -14.4982003266714 -17.3774336603195 0 0
11.8427680047493 3.86650702634896 2.89051028830459 0 0
204.182991965823 -34.9108291018912 15.3746483937989 0 0
22.8603997076991 -7.067957689072 -13.5211132823573 0 0
195.06936696436 29.4082147868775 28.0568077518104 0 0
170.176106136449 -5.82498913744896 -17.8124273949971 0 0
185.567424983118 -29.0723748837361 -6.1435894112038 0 0
201.544536715544 -24.0246370334262 34.9518753824361 0 0
112.361059540384 7.80446119617098 -20.6424981360137 0 0
206.682352264491 15.3147148152652 -16.3403934298092 0 0
216.346924364392 -27.59584925969 1.01585685802656 0 0
21.7493215190844 3.94995242838463 2.89870099569067 0 0
152.973258544609 16.4256634641977 -12.2245668902787 0 0
66.9069094646162 5.34956342151071 1.8016532578629 0 0
64.9298088490831 -9.49956344410217 -15.73243941591 0 0
54.2982349315462 15.2713463052239 -9.08306982527511 0 0
189.910237640883 -2.42140575665366 16.2019961865041 0 0
147.406147511442 -13.4306292757996 -16.9209275277907 0 0
211.768211759465 -5.25513534638948 7.71440816266126 0 0
187.290388405834 -17.9100193489912 21.1343406211013 0 0
161.647423973595 7.02999639659423 8.93924015072733 0 0
50.0037383362967 15.6851453875942 -12.3361153941976 0 0
211.746792738003 21.3895677957107 -6.68253682441642 0 0
179.976027961639 -28.4581709495345 14.6665949199329 0 0
56.1601011490347 10.7648403899797 -20.9921643728099 0 0
178.765174910425 26.3921919439491 8.25979955305394 0 0
189.515646800691 28.2767580111937 23.8722252760268 0 0
-34.5355218133721 -4.50827439900706 -12.9500938237112 0 0
75.2569629021755 -3.64285284802895 -0.180640708161663 0 0
132.020087423378 -17.2966423244654 -9.61106246986924 0 0
188.669942891152 6.47295301756059 -20.7714774375718 0 0
182.081789840835 30.6367430460103 10.5361008887795 0 0
-4.91540578502047 1.62327023603964 -22.4748515473545 0 0
189.082658837044 -35.668864323093 18.4979679045149 0 0
132.275171998399 15.3578361205114 -12.314369726383 0 0
73.0973790971266 -10.355060907248 -14.6763840960523 0 0
93.7351159157714 1.44730439854732 -22.6749508254968 0 0
-5.22084263243771 10.796697351318 -22.1093131188794 0 0
65.8096187537051 2.88699295618822 -23.110699334844 0 0
157.791330639373 -11.4345603081115 5.68049685542734 0 0
-41.0391940625406 -4.0118718549617 -14.2470625768621 1 0
132.144445996767 -16.9627282982911 -12.0969866471576 0 0
176.604966567689 24.4103463234478 2.25374924901152 0 0
48.9815200214965 14.1210686560448 -5.52472260987771 0 0
185.970727284509 15.556159656793 -23.2560221330267 0 0
165.375239883055 -15.0747740812311 -16.059055662271 0 0
16.9338292716423 14.0720357023493 -5.07216654204855 0 0
147.543067554164 0.321928388512677 5.49870509351297 0 0
187.504115954114 29.2426148199252 20.8756831366649 0 0
148.236941349658 16.757053017351 -10.0365474081512 0 0
53.587861757893 -7.56244869205331 -9.15253754059978 0 0
205.969355033972 -32.4487089481 26.7127426294628 0 0
171.081195696038 -8.86496855413137 9.75126927161401 0 0
17.7648647197061 17.10721874101 -12.2834086792472 0 0
79.0124800578395 10.3469857311043 0.460995495213192 0 0
69.1169402651074 13.5979259727878 -3.60867322469752 0 0
208.345782971472 -15.4857195946699 -15.8899011482629 0 0
17.2169701171979 -6.79577825714094 -14.8348750050666 0 0
-43.0962526196771 12.2338795417811 0.192207709746237 1 0
26.6900519280247 -0.065142831713588 1.6105775251754 0 0
67.0935727495086 -9.88732446652669 -14.2647723055549 0 0
180.320737223027 17.0914483626342 -20.7282532257308 0 0
73.0322211248356 -6.35812039572017 -4.23270298537775 0 0
71.9675407735395 15.1707076359937 -10.0174734116715 0 0
198.370645379375 -30.2051438089091 33.6217313399674 0 0
212.419852884776 14.0545008864204 8.10258973632487 0 0
126.787847071581 12.2115533391578 3.64620978293405 0 0
176.103308144555 20.0967623111807 -13.9606485385301 0 0
211.297975653859 -0.0377732457912504 2.98950514465636 0 0
181.898980278391 -11.0107812477696 -17.388781419158 0 0
77.7427781762618 1.35775750998661 2.41078955653417 0 0
-39.1299670713478 9.24509093018473 1.67813980150344 0 0
-28.2715930242669 19.4648958204709 -11.352785656046 0 0
202.075654493585 1.44360666091414 10.4222317949968 0 0
77.2765165908256 -4.27306595977053 -0.993189106814177 0 0
-16.7566423177188 18.4010806741669 -16.2003412937282 0 0
133.543240378344 -17.0058698047383 -6.30621446188297 0 0
184.597436124483 -5.27100009692341 14.7674008793512 0 0
126.786836435473 -8.15083961694174 -19.8287692117816 0 0
46.0607017622535 -1.7975934591532 0.364985552276655 0 0
212.271491555092 22.351795408522 -2.71893282591172 0 0
182.170657638415 26.3678481947091 19.1710043503078 0 0
130.755523097438 14.4981144120973 -14.2095128380364 0 0
162.087926002481 -22.6342691557687 -7.31360391090352 0 0
195.600960523864 23.5714039770607 32.6919712852534 0 0
162.070372962879 -14.6909069340159 7.23959655958553 0 0
16.3741209309022 -6.50893967648094 -11.7168646492015 0 0
16.8082836406181 4.09164351894278 3.02047744083832 0 0
169.999484059468 21.8777160511468 5.73273634487421 0 0
192.058483724512 8.05163183618821 25.776186972857 0 0
185.677069000942 -30.5663388803167 -3.86017385094188 0 0
189.507589268472 24.9889934789323 -11.2514699564037 0 0
-13.2430169692489 3.0939682122519 -22.43686760971 0 0
201.66272322048 -16.0936088966311 -17.4992910104859 0 0
34.8855503533674 -3.97486005808637 -20.9731629935237 0 0
18.8156928033986 3.36944173027946 2.64264857843814 0 0
-42.549535110369 17.5950726653915 -5.23483315138744 1 0
199.313637046288 -34.4992977179091 0.432367728538718 0 0
25.6932678664343 6.16285883789523 0.933844400905828 0 0
-26.1546443474914 -4.85228490992859 -12.5139153748858 0 0
69.0124310700769 -2.49375562128988 -0.0776349728446341 0 0
134.996885083415 -2.70906544908108 3.72470950752258 0 0
178.43245319643 -7.78274837575663 11.7926971187082 0 0
204.356476858469 -8.33540445756431 -16.5640049008359 0 0
200.17707844672 -9.72907363667728 26.3217998455379 0 0
129.438063406506 -16.7072588084175 -7.65901818766825 0 0
-9.03579707214035 -0.190301883758362 -21.67423544777 0 0
141.124231534178 14.1805124533721 4.51516151486184 0 0
188.164789697928 -6.070431080084 16.242887612613 0 0
-22.1381633270642 17.9755193558281 -8.42300710145831 0 0
168.17298413899 9.72369243260566 -18.9381527084785 0 0
-8.59617141188554 8.7419556640746 -0.175396046594278 0 0
178.239327450768 1.92533292778459 11.8054486076794 0 0
103.322173773532 -2.35166635167436 -22.0303693379552 0 0
192.404762574885 27.9754789941246 26.5315240230356 0 0
109.744660808292 12.9514015528701 -16.2838422728354 0 0
169.774164259227 20.2713925562002 -7.21880125754818 0 0
207.935793885091 9.00292250171474 18.4414942704943 0 0
19.3168520849589 15.353792333869 -18.5778148637024 0 0
200.189607517964 -32.4226923307561 28.6612344067637 0 0
77.9894230016392 -3.45566415976317 0.521271739546278 0 0
-35.7901194702286 3.39908961097088 2.38979359572516 0 0
136.446946437423 9.23907458621985 -19.6753474587972 0 0
156.269160748384 -4.81648718307058 -19.0234538483347 0 0
160.431985779121 -12.8342918086406 -17.0574180278606 0 0
-39.1766944349833 13.6975124312145 -1.30552102048346 0 0
204.832211495864 17.3973653390592 -18.5845792063408 0 0
179.902665072553 -7.41784217861966 11.6419026856837 0 0
193.830539090487 33.1279854941899 9.12309612867312 0 0
201.319437517744 9.14975411916595 -18.6989470784689 0 0
163.649561687024 -23.6248313103136 -4.69979091617102 0 0
-14.2118159968477 4.1119672714936 2.88964832170653 0 0
17.4852345137259 17.1252291259318 -14.9194647817654 0 0
186.249283757066 -22.2415343174468 19.0531160515838 0 0
215.63985483079 -24.0398810277827 28.7543666402038 0 0
156.332736848861 17.441689630992 -10.2241608809421 0 0
208.886435048596 -2.3919107208567 8.11756361837532 0 0
168.758033803791 21.2496981965946 1.09713373770069 0 0
204.426482703118 -8.77822037121806 12.3815780420816 0 0
70.5989554396667 -0.983093269458285 2.21149455522592 0 0
70.7514510700711 4.18570893174939 -22.9000775415024 0 0
212.029857311552 -30.8870758652473 2.16708546934647 0 0
17.2300919462956 13.8199113795929 -20.4187141535112 0 0
196.599367226665 -12.3743607648704 20.1738815918194 0 0
163.5352350188 15.3378452236646 -16.1698086581355 0 0
210.982133988395 -24.1189469198926 -7.99940941369449 0 0
23.9934082495333 0.895354780462736 -22.886360018868 0 0
182.208726640086 16.0454864828444 -21.6593972915654 0 0
124.891309041447 14.2027871259613 -14.5779822853864 0 0
74.2029984773649 14.105171140561 -4.02992131904628 0 0
154.810031566064 16.81942548102 -11.713090823972 0 0
50.9947628986696 3.64130250619643 -23.2586707559715 0 0
194.434036838459 4.58962033742272 19.3510456962569 0 0
-26.3900135785111 9.84507096461981 -21.6918915721728 0 0
212.362119635889 -32.3762819002765 11.0099323926224 0 0
205.23486244392 -34.7109089189456 3.6621746015238 0 0
208.326657327344 -6.35313444375841 -12.8039178616935 0 0
116.666731132336 -15.042994122638 -9.73689089096414 0 0
86.7181036734931 -8.33190832395326 -5.04758220539784 0 0
183.450659030071 -5.71254186024353 -16.59921658783 0 0
181.422302853821 21.0751072706574 24.6513302333243 0 0
-39.3313620303179 7.8246873167739 2.85810257509247 1 0
183.824995757651 -19.775973844597 15.6821804851236 0 0
56.4488295810625 -6.04044611389872 -6.131217528476 0 0
163.563473196853 -2.76974057326664 -18.2961107978584 0 0
80.7870884788912 -10.6168368761808 -10.0082746798835 0 0
62.7140651001398 13.8798976072342 -4.67473178443538 0 0
20.3009876261834 8.39204894221536 -22.8111145145195 0 0
14.9916776801834 -0.150813514462932 0.566488613382695 0 0
180.163461846669 -32.5688704493107 14.2451800430148 0 0
1.57812188513834 -3.22995778302061 -20.015211708024 0 0
207.987069776294 17.444278390436 25.6844008934638 0 0
-31.1256705963599 -4.28826330249552 -9.06656384061702 0 0
-14.194414146874 15.1290037446851 -19.9444544696691 0 0
201.24578045133 31.6724973049135 21.5745197492676 0 0
146.726938145588 5.21890772645059 -20.5270881909917 0 0
177.047655444388 2.48383305100728 -17.7183498296123 0 0
206.415776829856 -32.1721666132982 -0.38057778354582 0 0
100.269334271606 -1.92870749744245 -22.179038073096 0 0
195.136011873405 -3.03855987706504 14.5264738847893 0 0
135.654328994468 13.9575048481556 -15.3257802044924 0 0
153.73217606626 3.27558677022293 6.86261411892054 0 0
192.861142641244 30.7613137924955 1.91308184284009 0 0
200.873867909244 -9.73920278981234 14.1373601293349 0 0
150.326258196432 17.89175531131 -3.55796859538001 0 0
125.960158995252 -15.2241654678063 -14.9001061280249 0 0
47.6597993218603 15.7738971313019 -12.4762492524779 0 0
-14.2787201912392 18.4557155494725 -15.8739726830214 0 0
208.228879605923 31.1410569093909 12.6483819024562 0 0
193.574134643279 32.939261255768 12.6750795583793 0 0
188.150841816624 29.0148898353999 22.6470411927176 0 0
202.270122694486 -18.6678389450818 34.3332238641762 0 0
20.8400965096471 -0.634244570797592 -0.0763003677919214 0 0
108.49744606714 -14.2063010472827 -10.3433808548645 0 0
-14.217233425177 -3.99703483609312 -18.2911093538529 0 0
162.594441512771 -23.3263815076049 -2.88811001827846 0 0
26.3693573420687 7.25231565575049 -23.0251392107081 0 0
204.877731407921 -33.4465412271734 0.397547354329515 0 0
165.895485973453 -24.0102189829465 0.874082724282067 0 0
219.854717164773 -27.263053315229 22.0474252588167 0 0
7.1817466761064 15.6518325513586 -7.22029452927251 0 0
197.022072885952 29.6093935969849 0.339738486703904 0 0
138.147747850593 -13.1004039092937 -0.510250791895808 0 0
213.809053438313 -30.3208843943386 4.41126569267712 0 0
207.890422446268 -11.6502961095833 19.3001793246612 0 0
219.687847517192 -23.5508464543537 22.4999165241785 0 0
39.561222660532 -7.87317008523763 -15.5641248857197 0 0
137.190889779638 -13.7567845125087 -16.736759068931 0 0
171.008484398668 -26.0621550400199 5.33499619834642 0 0
203.314219457385 7.45808081938947 15.7322951742774 0 0
214.013211219276 -29.5704915333413 2.36866978295613 0 0
209.848243778415 -31.9156411175678 24.0178651210042 0 0
-1.36786355027984 -0.280469849496681 -0.818186307978351 0 0
191.560533365461 -37.4730048750249 15.7167934307931 0 0
25.3078880599805 14.1986244973225 -19.5262644306874 0 0
179.444609064757 -31.0835685442167 10.8749116261161 0 0
151.923489986033 1.68468780733266 6.26489132568563 0 0
147.321041346732 -17.8374284225111 -2.07489349310162 0 0
-11.8662314414094 12.7826952825318 -2.97792084353301 0 0
-19.1607365221088 17.1172193673844 -18.2173786846248 0 0
68.7587212134529 14.5421991483042 -5.69077167357638 0 0
173.482234844238 -1.04360127227048 -17.2593928797981 0 0
-15.4084272616647 1.15237971645492 0.906196978488195 0 0
72.095688679961 -8.21773422943785 -7.06794743125881 0 0
204.35188716558 2.2004466781462 -13.7232749648372 0 0
164.635272573063 3.3718239042699 -18.6024075602477 0 0
213.44175144255 -14.5087670510694 27.0345458775561 0 0
207.711347504529 22.3377543167323 -11.2525206195555 0 0
209.384583688978 30.5308501607742 8.54975822707788 0 0
211.879898551348 9.75328883221313 -3.12830718631892 0 0
192.151780320606 -29.7224366984135 29.2535852000097 0 0
203.195565931596 -11.7071824699836 21.9880288698111 0 0
201.977717117332 30.1381177151043 5.77900102215045 0 0
-35.5451780401504 18.33296489775 -7.18227097196654 0 0
-31.9458799850441 -4.22808636285543 -15.1815414794527 0 0
189.06128178766 27.1740375850478 25.8182427261783 0 0
160.654306385859 19.4381068298087 3.3599948554788 0 0
125.385853705223 -11.7286475440653 -18.0230551077471 0 0
172.413208740194 11.4855185111294 13.2786335624505 0 0
95.3930179915073 -9.08500498618945 -19.1232466070329 0 0
36.9233205251898 -6.0393170475803 -19.0745751350313 0 0
193.852426195183 -15.5017493954071 30.6159699452009 0 0
209.396135681982 20.8918521239764 24.9685190749294 0 0
6.2278026036102 4.89812143607078 2.8093310201159 0 0
144.955632178918 -16.129002713157 -0.999051849665271 0 0
-8.62969409372613 -4.78788066801669 -9.36073669726725 0 0
186.862803557925 -35.9407226521528 9.95451691063026 0 0
19.0664671716949 -1.29812461730267 -22.0469846509925 0 0
58.0573996706069 -5.89363113124793 -20.4093356820758 0 0
32.3161173653887 -3.61744943823575 -21.1449396919672 0 0
175.551866051979 15.0967378871814 -19.3593733609618 0 0
155.941710546606 -9.28581380688775 5.38459546115628 0 0
208.244757415248 -10.3256195674986 13.5268478922617 0 0
11.8618113295552 5.50608793703298 2.24960190812069 0 0
198.604528568689 -2.68431497189738 -16.7913156607669 0 0
121.883438492637 8.21935039535843 4.78353989332201 0 0
188.421391860827 -27.854263543311 20.4056292061863 0 0
201.767332843414 -27.9676981334282 -7.97138322731349 0 0
63.496262620924 -5.33806725004102 -3.65760720343721 0 0
212.204096486384 -15.4008744043012 -13.264099370961 0 0
173.695690621367 -11.6229026891413 11.9183958470625 0 0
202.136835429882 -35.2888244500182 2.67543982513262 0 0
88.3845809124629 13.4713188230336 -15.5439007140186 0 0
189.782945531673 -36.9262908732031 16.5680632454563 0 0
43.3854367663383 3.87533932807235 -23.3098358214554 0 0
4.57186790167298 14.0240976738336 -20.5527619162259 0 0
-20.8843086344405 19.1572230552195 -13.5338389499326 0 0
211.228114461615 -11.0724694294258 -13.6718008482532 0 0
118.781595810461 7.75091204897655 4.59247428157901 0 0
216.03122675716 -29.6140520486222 12.9081212968532 0 0
133.506077771276 2.38709599583356 -21.2969172947248 0 0
197.909953201487 17.794475605974 31.7583381782782 0 0
191.375491889277 23.9157432550715 -14.4509537782096 0 0
0.0100065644517553 3.42082400884259 -22.8604084619271 0 0
189.781109545245 -22.7373315300168 -14.8071710809728 0 0
7.22807220572052 -3.47704074428222 -20.0454382231948 0 0
199.356041323479 -12.217966294935 19.6797279736109 0 0
108.899892146135 -12.6566345367055 -16.3515073486592 0 0
193.330198124839 -10.3171341849056 17.5950096637652 0 0
205.339008572729 -11.8409802915125 21.3417559262946 0 0
169.459663775958 -25.7372895240967 -1.90227947723969 0 0
-9.22168304298227 17.3164331395654 -8.90353380934698 0 0
191.832200222722 -28.1281546804854 29.873105857157 0 0
-3.156141899864 -5.58086622389632 -11.3629982202269 0 0
-21.7962553383161 12.6589145801164 -2.1779442870489 0 0
201.398735110703 32.5147309949459 27.3633141203098 0 0
221.567054899861 -27.500893699578 15.7952821187135 0 0
153.266812496373 -2.04346442363661 -19.5940782954546 0 0
158.669993828168 16.5938068724508 7.76520200453463 0 0
207.634498203709 -30.3299741775853 33.1718119840423 0 0
41.4262427563018 15.9337772645121 -13.4714596668094 0 0
137.740234972546 -7.3343753604534 2.81265868332312 0 0
205.097995573312 -15.1081934916318 -18.2158311994584 0 0
178.289419236696 -30.8801632474967 3.13054442376757 0 0
195.03076285557 -31.8698053463718 29.7433126719895 0 0
194.985378774383 15.1436358102287 31.1936947261498 0 0
-41.659459323281 16.4241929157935 -3.92269524480691 1 0
181.994137664101 -8.30063447522371 12.3534683612278 0 0
203.983928308152 -11.2588519139858 17.4425185581871 0 0
117.074620399983 15.8944165306769 -8.85863360959086 0 0
209.364980221424 30.7033233903212 9.89788525409828 0 0
173.593287203813 -8.31009850650554 -17.2737974969027 0 0
67.6619721831753 13.2771261108822 -17.6282377348694 0 0
207.57682268427 -11.3412179290654 17.0298631211788 0 0
-19.2403843428316 6.15330339027734 2.38274941871847 0 0
177.349686038577 -10.5288633884245 11.3684057493177 0 0
200.383736323115 -6.1033341862993 11.8448253743262 0 0
193.637188210658 27.4588625710751 -5.29276645094473 0 0
112.166687021945 13.6756190224185 -15.1860720961693 0 0
176.846415720793 -22.7693372377211 12.7901850272499 0 0
171.109724493256 -0.32308048132629 -17.617033828093 0 0
164.554150559658 18.5934008071076 -9.88764514199298 0 0
124.414564585892 16.3207381309945 -6.37017389081593 0 0
140.375145385558 17.1117448612311 -3.35542030012451 0 0
179.766293246336 -14.3130887102081 13.1717276702782 0 0
161.191145271755 -9.03356885958465 -18.0584426251861 0 0
118.618513738733 1.14005488826198 -21.9833255938285 0 0
182.759306981385 -11.7847576990169 12.90589382834 0 0
185.763034710023 23.894036091296 -12.2731153517489 0 0
-29.7440480883549 13.1834774811286 -1.94132507142432 0 0
161.175476343207 13.4353270671481 -17.8792991572149 0 0
168.489082927367 -2.6731283308974 -18.0240758908276 0 0
49.8985370186525 5.51548928484351 1.5043652527306 0 0
114.967651363364 5.22422066332431 -21.6706334772933 0 0
185.156087408692 30.758452310095 7.16835184430719 0 0
176.951601871104 6.77626852409494 12.9314805932888 0 0
177.299469063722 21.6950272264779 -10.8056220796129 0 0
167.576809380439 -24.3570349552668 -6.02137089264036 0 0
62.1257352022798 -3.46183778419223 -21.8561099805577 0 0
106.925604010016 13.8995858510059 -14.6341663809903 0 0
199.695695858399 7.92360786016319 19.9616057738019 0 0
141.121929251354 -1.04821622597242 -20.63867404576 0 0
105.722258983755 5.77411006445071 -21.7357963052063 0 0
164.645168192031 -6.51944942399168 -18.0274146306106 0 0
184.42830963289 -31.2659099030696 -1.99666053564638 0 0
171.117608745387 -19.342484675245 11.4362788633791 0 0
112.277955866648 10.1237220726836 -19.1723963659995 0 0
14.4222176402327 3.26356531438254 2.72741332136411 0 0
-13.8355127774495 7.83864302849095 -22.3953367744746 0 0
174.39327510796 10.8948708207322 13.2018336729759 0 0
196.244349572296 6.43140061760866 20.6897121732465 0 0
217.027879808874 -10.7560784134769 9.32368845840887 0 0
204.963872274784 -10.6574512964124 14.4170894521094 0 0
141.757913419587 -17.4293228523411 -13.2045054385886 0 0
215.790746943584 -8.41462731755947 3.59982344578858 0 0
33.6579418970953 15.7672083876673 -8.78399385217628 0 0
47.9185286167219 -1.96821928770495 0.322542128546842 0 0
195.162318716807 -37.6499078781401 14.0076658286953 0 0
58.2969900450966 -7.70240220109882 -18.6549631346773 0 0
194.861438267533 -36.5611322539035 19.1283660464705 0 0
158.939052436731 15.2722527652886 -15.3001645745395 0 0
141.374725394323 0.696691513764792 4.94660493467252 0 0
174.523857139844 15.419809310161 15.3158832414568 0 0
-26.8213361308523 -1.92422039395524 -3.81037530016013 0 0
5.27936902202101 14.870692147189 -5.79997743209366 0 0
32.8372742850668 16.2663493534408 -13.2819360730507 0 0
-41.8002178370543 13.7026981613991 -1.00495470556935 1 0
52.0266366094087 -8.10609299166126 -10.7448348418385 0 0
-8.41208772224478 0.13348438929937 -0.270956856771236 0 0
185.707543584024 -18.9497127673102 17.949776288122 0 0
167.737052052709 -21.1131117317277 8.49045431472894 0 0
55.1039380062801 5.24441584902965 -23.0013612999672 0 0
65.2644373501458 14.6536951753446 -6.38751195166495 0 0
142.484301812438 -12.0351789912179 1.82411552606245 0 0
163.866265889262 -10.3891354199378 -17.6155220466458 0 0
-14.2362360487916 16.7606804435233 -7.10566500915777 0 0
181.102340698112 27.9315519135109 6.16996787569225 0 0
192.95158795505 31.7979393310888 4.26428914063929 0 0
54.754053902503 -4.40374241375707 -2.83936733297455 0 0
127.447192702824 -4.17672147522507 -21.0551839261522 0 0
122.31489842963 15.7375533354859 -10.2463663767515 0 0
202.947037309001 30.5586901158436 6.56173530770115 0 0
176.916059803715 -19.0276456681231 13.3048752721294 0 0
86.7263121048041 14.3420770287489 -13.317888105806 0 0
190.759310917531 21.7501973451543 -18.7502768401576 0 0
18.0813929706134 11.5245754862314 -2.48014383222025 0 0
221.042852535215 -18.3401765800846 13.1844449047779 0 0
43.2140075209452 15.3113507304283 -16.0555403468232 0 0
118.562812127148 -15.3482490278977 -11.0183293278254 0 0
142.419904405842 -6.8484101074112 3.50496019089724 0 0
17.8940865847402 15.083903537128 -6.54507091140983 0 0
150.710781444966 -0.783957884713852 -19.8939557358629 0 0
167.317194979791 -12.8302362237734 -16.9202437513937 0 0
169.023312174604 20.2112577312539 10.237209373055 0 0
189.839015324963 31.5547602530339 4.5272950678124 0 0
184.526640415258 -23.4966550294574 17.6849977285012 0 0
181.430259098732 -15.0013723294461 -17.2788937134715 0 0
169.016572567246 -11.9377273959792 10.1696271050382 0 0
172.774337493631 22.0772390197028 10.2415125320168 0 0
-3.88090213870622 -5.45840006980012 -16.5466236923758 0 0
75.0674300617978 4.57966597939298 2.86902474369697 0 0
190.932226744754 0.187411088620118 -18.1177932019488 0 0
113.836523892208 3.46939197713034 -22.104280412492 0 0
66.3780712878352 15.1675181638329 -8.92976026158283 0 0
183.564413183302 -31.6962310403497 -0.617565748725229 0 0
150.695730112711 -19.8352400981075 -10.0975967347254 0 0
-23.3770041038677 5.46065116032586 2.90279540981867 0 0
172.15154346972 19.4138930644842 -12.1836737046443 0 0
183.786775332975 21.7216692706031 -16.5786507819052 0 0
146.650763415537 6.00030478837011 6.54147295883137 0 0
179.656883296804 25.8846020262357 13.4780329487119 0 0
206.018298758724 2.99778864317995 11.8907502523629 0 0
40.0788221258294 -3.04602376701262 -21.7139605127782 0 0
200.426403207307 -30.2647760093548 34.0615163707727 0 0
42.8712753324849 -6.98716656506744 -9.43459017995752 0 0
-29.5128731619003 -3.48185456393165 -6.55284254459393 0 0
107.757226297068 7.36692839143153 -20.9964679846 0 0
209.451374887381 32.1424128786233 16.4894344306966 0 0
135.282266826745 -2.36679053876704 -20.9310743852585 0 0
194.477944507173 31.7059386801044 4.00049706229764 0 0
207.39946143096 14.6211069723976 24.5010798275654 0 0
196.17129096024 25.2709834896003 32.4875674908659 0 0
62.4647623349866 -4.25275827588848 -2.23563323692072 0 0
134.17891536188 -7.42455313000132 -19.9026327508048 0 0
186.907040524827 -32.1625412190793 17.9765815566395 0 0
221.695547404398 -23.4954578026524 2.18771113123807 0 0
168.399004603731 -17.6470447680257 -14.8498267593242 0 0
53.2884237607627 -5.36736790007214 -5.55112929631072 0 0
134.848621841288 -17.6927136546227 -7.97606081858336 0 0
159.804216249163 17.631277627305 -10.6814239894355 0 0
197.008637013562 -10.3114250059881 -19.1818590327756 0 0
29.3754098381106 0.557658410728143 -22.885750733325 0 0
166.940082504959 1.20443027174963 -18.3734559411192 0 0
202.566295827921 -35.3893056825514 13.9115690978367 0 0
31.3724075074753 14.3502556270156 -18.9337235988839 0 0
45.5831992610998 -0.0156793741905594 1.52652181782855 0 0
186.813837117829 -1.76690364666879 -16.7520549002547 0 0
179.230884766565 -15.7735368675985 13.5251937433469 0 0
171.938441851837 17.7036692548165 -15.6691233436453 0 0
149.000527203371 17.7309936643907 -1.37925698015589 0 0
161.638449402803 -18.752154413072 -13.2337523865341 0 0
205.211044605653 30.1295983650105 13.6689015519178 0 0
183.474881293129 26.7662591518844 21.3921646882012 0 0
-0.456261502059506 0.815363239871341 1.40835473082103 0 0
144.973885119241 -1.21160250986646 -20.3342135570756 0 0
35.7498840553075 7.95250458094955 -0.201892799150576 0 0
209.760626133567 -11.137550948708 17.8685276708663 0 0
99.2298912697067 -13.2701950922023 -11.5432854616062 0 0
213.289511080899 -12.0808960272683 -12.8572897463675 0 0
183.243419225091 25.4293161139391 -4.65795795590059 0 0
203.44621376244 29.5569708970423 13.7216046398573 0 0
38.8473207987452 -6.28997108982403 -8.4626226370189 0 0
199.580370148786 15.9771040809565 30.7740232327175 0 0
198.379483004938 -19.6306464878552 -15.8976075915676 0 0
180.633903893757 -2.93993433368484 11.7847700601407 0 0
65.3260088273031 -3.49358163874081 -1.63898781924724 0 0
149.338788472791 -14.4579568648667 -16.3076096953109 0 0
60.2122673960947 -3.86368351060133 -1.93040161242948 0 0
10.5835987104489 2.08395031363546 2.48551433687139 0 0
172.508805414294 -20.9792938527239 11.6389884964297 0 0
201.815494125494 22.1991964284104 -15.8134259855638 0 0
-29.8797949942659 19.645669008881 -12.300333398669 0 0
55.553876793106 -0.506577925816812 -22.7690473999572 0 0
137.981552024552 -17.6428830786298 -11.8711457402111 0 0
164.741713720987 19.9012995196476 5.91976104433765 0 0
80.1124469965908 11.2768636472608 -19.1634949960524 0 0
178.92882705002 17.5768211416846 -19.6342478774471 0 0
212.871685212833 20.7433845459052 7.41196466555442 0 0
210.393952729957 21.7458342438889 23.4075196775272 0 0
193.192701001638 -32.3737536994028 25.5958582371615 0 0
119.36295873856 12.537893968836 2.50627057302329 0 0
160.87130289499 17.8268991543553 7.47856352131327 0 0
68.0626840341521 3.40186260887413 2.88418209395694 0 0
184.168264952536 -34.6530657181522 11.7801415142859 0 0
197.635166587165 13.7127432020865 30.011408452603 0 0
185.787661143176 -5.96168778579209 -16.5277837451324 0 0
-35.3184058699628 -2.76716145946321 -17.799106503521 0 0
3.52452027884368 0.595388115631416 -22.4103113494027 0 0
167.438824727468 19.7719652419632 9.09010560079355 0 0
-5.79205901558324 12.216054284951 -2.63232179094262 0 0
209.253283757732 -29.9728174436748 -1.86164026068216 0 0
213.717763315139 -14.4713660595405 -12.4753315994064 0 0
137.42800923084 -14.8320544539396 -2.40304464706055 0 0
134.416748654568 16.0325865175983 0.0410202468235801 0 0
169.559733957316 15.3986947601286 -17.6644125648583 0 0
177.410836156499 -24.6266248383471 12.2652172803771 0 0
133.510983417413 -0.588001396311281 4.04986463468578 0 0
63.3935872791072 -5.88185385790807 -20.5697257258945 0 0
201.683878191547 25.7966888610207 -6.6869675330104 0 0
192.750566038708 -5.25134397512818 -18.0723658598549 0 0
208.549017247601 24.8462159327773 -3.56506188120494 0 0
172.797424789368 12.6870458473941 13.9523153534123 0 0
161.992568946576 -5.22793739563929 6.47560258197926 0 0
12.8809891232193 2.42872002968668 2.60279085780134 0 0
206.733593387559 -9.21567936079451 12.2440702150924 0 0
75.5507513665254 -4.67974894297133 -2.27254968461031 0 0
147.356790378914 7.78249930347448 -20.1481068615012 0 0
-36.8990859964936 -1.58879208376728 -18.9660854921181 0 0
