"x" "y" "z" "f" "a"
-31.1161577550574 7.18023153119994 25.7503246112028 0 0
205.759810384118 -3.16201731377781 -23.4230552030808 0 0
231.785811437713 -1.23488108939567 -23.4456771604319 0 0
20.325995446286 -7.39627978838478 12.6613679235208 0 0
162.781350363646 17.7629729069961 18.1885170852963 0 0
-36.5496067451336 10.0637919843461 25.6866649631005 0 0
27.7778923217073 8.98327063266302 -3.41445639681818 0 0
230.493429770337 1.0474760869716 -8.84735478482842 0 0
107.60176107204 -10.3781300137815 13.8156555405767 0 0
188.599060315085 21.1361611475885 16.8506658541318 0 0
169.601403719743 -12.3692883241247 15.591341721736 0 0
197.318129775026 25.9754708182343 13.537604018869 0 0
67.4332801099666 12.5389960842121 23.7666798164961 0 0
-28.2353395871662 17.228433421606 2.3720582783056 0 0
197.773342030298 28.4285703113711 1.82284917688353 0 0
-10.2296361048233 19.3603432799927 21.7491626197074 0 0
71.7107170793372 -4.47189617003105 -1.28043160945638 0 0
51.5241241442732 2.74059820703603 -4.83255160893125 0 0
14.158345581352 -4.48338042519714 3.37081001867682 0 0
13.0758729985918 17.5420803585018 3.10977997399108 0 0
-44.1971513297624 0.31037117491838 -1.92338848486265 0 0
-42.2079188738776 19.2023623703835 2.64090690145337 0 0
230.132192812329 -44.1049485949166 -12.5774390745895 0 0
210.355854467944 -31.3676329385251 15.0940964525685 0 0
-3.84547391164502 22.1616651227414 18.4887483619848 0 0
222.357032109611 12.059308465879 17.0110752123281 0 0
-20.085759438219 23.974456181853 15.2449168378464 0 0
-9.58568446468631 23.3947833929415 16.3547867405239 0 0
134.15038796894 14.6453865892314 20.5070318517208 0 0
202.894970894618 -5.0221050485641 -16.6836585304514 0 0
113.827970961441 0.725712133883181 -5.71762094485029 0 0
186.12453589108 -23.8734014235976 -8.66843892948289 0 0
12.274150546066 22.4871042720417 9.84465067711484 0 0
216.396871368192 -38.9233269946754 10.2344206449634 0 0
189.394961821466 21.8982295891027 -18.7176240872352 0 0
82.2899347989188 -6.40737435636603 18.1242346213589 0 0
222.386988834151 32.987232665091 -24.3995741309333 0 0
-31.8242719328718 23.9966706377158 15.5919648121426 0 0
180.380525850843 -4.0326684715016 -8.83497683808447 0 0
221.425371051702 -47.8591268721372 -22.9678859703216 0 0
34.9112700295504 10.7844441460626 -2.59463899734552 0 0
93.9050488927469 18.1097308911251 19.4671431167812 0 0
202.979907745067 -44.3581326391491 -11.0933156677974 0 0
209.734971503816 7.52104399264261 20.2011151509559 0 0
-30.0462312035189 -6.30877198898763 9.31048333146527 0 0
64.4424354043112 11.5746019842527 24.0143805800798 0 0
185.776373338732 -28.5846940397604 2.29147570402144 0 0
84.4462165208232 21.4610077009298 13.9116280846745 0 0
190.301043636107 -5.24576850264862 18.9442408562832 0 0
84.7785002045647 20.149231185136 1.48930743330294 0 0
102.37111430395 -8.56804316125791 0.737225110292072 0 0
223.123322584179 -0.944026481756951 -28.1372429174906 0 0
181.925596579979 15.6082890867625 -17.6131185012864 0 0
74.3706653417306 12.4048582243545 23.5843088627177 0 0
164.105240099515 -7.80488268071578 16.9831310646182 0 0
227.05645597111 27.5344783958264 3.32349163471839 0 0
201.587242513112 -16.9200055406885 19.4075229730201 0 0
-24.0122235751434 -1.15039482605165 21.8882639093438 0 0
231.023340998584 -8.03493146369584 -7.27775427270025 0 0
146.203041778083 4.32327519898751 -9.56900616616906 0 0
199.059635213186 -16.4189895708475 -12.8924111414528 0 0
162.948176388669 -20.298232938498 5.08205837035885 0 0
-37.0873768368127 -1.475584239469 -0.321865212092005 0 0
203.189524776722 26.4212253046126 16.5504253431129 0 0
94.5117659516987 13.0190515130937 -6.40759075815402 0 0
228.210957608025 26.2475226025297 11.2309035689028 0 0
207.587095120152 6.98006770160148 -39.6470783805464 0 0
8.94547490837572 9.74706475266751 -2.58258226585046 0 0
6.0050260058587 13.9006068564503 0.177970888037122 0 0
-34.5261485487134 24.0203756010629 9.12867475449833 0 0
143.805130199705 2.11090862316297 20.1311037134352 0 0
173.278071434797 -25.259742802311 -3.5319200207212 0 0
233.492626090051 -44.8718041206889 -19.0806090347305 0 0
49.3903564131866 -8.17647646504615 12.333071661656 0 0
140.062620482156 -13.4317628271507 0.865456222716475 0 0
7.81375380225269 4.46584845475044 25.3320197980519 0 0
210.149977403896 -38.9964596781861 -21.424768874706 0 0
36.0304495360767 -4.90652600994965 3.01897977794671 0 0
16.3688082360403 -5.99193669600545 6.26774727765732 0 0
50.7252940081383 -3.05740243618275 -2.03674566412128 0 0
168.230465031664 -16.4061973608962 12.8554438058834 0 0
224.572197168892 1.73738145963541 15.4057160316154 0 0
34.3556609789862 -7.33873188758077 15.6410890467407 0 0
228.45449374613 -42.2719875424516 -28.073175219368 0 0
202.27015399074 -39.8225005074 6.68737379972778 0 0
244.030978411463 -36.3862008821529 -8.65939977177497 0 0
170.97608086172 9.9952410931547 -13.9757017044697 0 0
112.297742956889 -11.6687918151201 4.95138802363103 0 0
99.9621653681854 3.63195656905172 -6.37668488685034 0 0
215.602165861533 31.1775119614619 -2.33065908904392 0 0
184.14811491932 14.8287279212576 -18.5842390460659 0 0
222.79216992606 -20.5563359942113 -21.3826079743956 0 0
-17.4529115888614 -1.4694441036743 -1.28342597355965 0 0
178.609667031252 20.00442383539 -14.6849350463698 0 0
224.38320738102 -16.9884577772293 21.9788980156487 0 0
221.466253744485 -19.1066100474235 21.1807025482338 0 0
30.3351294303968 20.1054976347808 19.6125994396012 0 0
205.843509489886 -9.97595639719664 21.7963195154697 0 0
220.829461350196 28.4953597925021 8.62892618624702 0 0
162.885811933831 -3.2250564085067 18.1848994694416 0 0
195.946182277694 0.793972685957808 17.1552381664444 0 0
161.132974119631 22.5341174750458 10.4028995508947 0 0
64.685530515939 18.0671392510134 20.6126360438467 0 0
233.383300297893 3.60928344294392 1.1491933222002 0 0
-46.4704750150729 4.70235987578014 24.8423041517938 1 0
90.2640518272946 1.79473728848122 21.4995475992492 0 0
219.053958962749 -32.5780440470107 13.9322653027606 0 0
133.626100445984 6.30514576814001 -9.57640279661616 0 0
212.513099185603 -5.7845886471087 -19.8601866471188 0 0
52.1693749149898 -8.11430888463943 10.2075093245495 0 0
-30.7488518280036 -2.0624379694663 20.9545416568035 0 0
238.499151408961 -36.6120728840682 2.57460970401101 0 0
170.73404397948 13.1187406674218 -14.4702923177078 0 0
130.20922136686 -2.82535815471221 18.7538285133204 0 0
-9.57609550854448 -6.59433824455055 13.3253827481124 0 0
184.02204326437 1.81457654487615 -12.6273061369378 0 0
212.655029121031 29.9733482317274 2.89092752786293 0 0
226.211542047734 31.0164257320186 -18.4185687681685 0 0
-21.9908626296778 3.95609764428178 -4.0236760035568 0 0
-11.138641714579 -6.63136184776141 11.2605884928328 0 0
22.2894493206151 17.4425097110007 22.4635705901446 0 0
194.312032922648 -3.34931573416142 18.8246170694766 0 0
224.286887455565 -37.9042907128385 9.24773183956248 0 0
193.38841839925 -8.75528670925766 19.1566300554927 0 0
-25.6746221967412 20.8782367732951 19.9785921054293 0 0
206.003034743091 25.1495678349821 20.3693656709575 0 0
197.464720589523 27.5076551478836 -15.7076129358123 0 0
86.9800403140306 21.2724609844943 14.2065934340582 0 0
190.825950639532 -34.3866915480829 -3.96847268105612 0 0
161.653159127529 2.97305275563685 19.6875324473255 0 0
228.940795190674 29.3379313450862 -15.6621349665702 0 0
202.520754647476 29.2791252012346 4.5351525628405 0 0
8.07385598332272 7.14013361510164 -4.20919326147249 0 0
-39.6316815241978 -4.63295871218681 17.5521431381456 0 0
234.632537688918 -37.4913951494992 3.510140713277 0 0
220.358386756079 32.8033793333676 -14.2715904940776 0 0
220.356046798598 -23.7392469441584 19.4591412611421 0 0
181.885058439002 18.5219932659507 17.557035813776 0 0
149.258745915272 17.8542251907918 17.9421292345692 0 0
-35.4911677408319 -5.69989994800526 16.0029577070466 0 0
133.948379317184 12.7001854165396 21.1499581893397 0 0
105.143687841672 17.7389369316959 19.5803267355202 0 0
235.308476957833 -14.9865899508552 19.9612854566743 0 0
93.9603120080864 19.9459148164292 16.8054501892441 0 0
231.705575178517 7.03264335548676 6.72929950826708 0 0
230.82539253089 2.52978452917325 -31.8654700099811 0 0
213.949003124934 -30.8038561592794 -29.5417784909298 0 0
-48.2998825873647 12.9540518542124 -1.37491825729774 1 0
54.6627995321687 9.43173927304114 -4.82931744477567 0 0
221.867434388114 -0.888164791923681 -34.8682693949878 0 0
16.9818340391227 21.9265789312875 8.83198413208914 0 0
-35.7594870956682 -3.04587492188952 1.57118731059557 0 0
229.739823470428 26.3507977407602 -4.64812116060977 0 0
238.105702775045 14.8976581688694 -17.0396626145645 0 0
185.960769267172 23.8462206135945 -8.35998005649056 0 0
169.411156900303 23.1276012629188 0.735082565306319 0 0
244.384057099363 -25.4492238017543 -3.35570612135492 0 0
10.2475601385309 6.12407006766194 -4.9108523281741 0 0
224.226386789225 27.7670724895227 10.7834519364303 0 0
-7.5462083242469 23.9262705860844 13.4469465335157 0 0
230.134176807112 -42.3801395152898 -4.02882438457645 0 0
207.400309593194 34.6796642720673 -25.2067575723418 0 0
214.342989790667 -45.8930746307242 -16.604087013264 0 0
233.958247793978 -38.0271159678841 -26.7921580502988 0 0
-24.9336725857361 1.2588407867479 -2.65127378329559 0 0
132.958744100907 -2.15285560155396 18.842769809118 0 0
208.664680101579 -12.9745314601372 23.4079774612044 0 0
144.335815000563 -13.9881954095041 0.391040793870324 0 0
172.463536975041 -9.38705652087618 16.7100812547117 0 0
217.403745633021 -31.2220333145235 -31.0726101463894 0 0
159.110333142269 20.9350451715357 14.317077990102 0 0
-47.2139170829476 16.3989042998561 0.428919517052882 1 0
37.6759084412389 17.9519164638062 21.6026107857597 0 0
233.333619211816 0.999535954125853 -18.163324286078 0 0
134.434512459711 11.4335878954996 -10.575827802203 0 0
178.674044804129 -1.35197396856605 18.5448200598634 0 0
-1.33929811538316 -5.51147895542583 5.50496149720459 0 0
158.826953181257 -2.18729351102817 18.5446962281747 0 0
8.72183838236538 -5.46665814354186 18.8949707785863 0 0
203.700546177447 -17.2768515065142 20.1159685479793 0 0
199.178374528186 11.0052446554475 -29.4556818424076 0 0
216.288710362364 -45.6056815747607 -3.32721376088216 0 0
84.7895530739331 -4.83135754472951 19.1835872712332 0 0
45.1748342057417 18.0815083324412 2.00573234838285 0 0
162.365191641203 17.4108388728952 -11.7215014279336 0 0
-17.9777005924785 7.45376801021964 25.928735547071 0 0
-8.58759215581604 7.35617437634098 -3.93910942768423 0 0
91.1584292025874 7.22689619556223 -7.49637621663487 0 0
201.814310499972 24.393792223795 20.2635393252202 0 0
159.817744648427 -12.3783685766202 -3.37930880908 0 0
207.942089351361 -3.86309601880935 20.1327956184329 0 0
45.644086327113 15.2513587268059 23.2954944285889 0 0
135.605585029189 -5.87750201219274 -4.52470527444868 0 0
229.346076514241 1.74156293027298 10.2293947901885 0 0
70.5056895752887 14.9345129381004 22.736882385382 0 0
118.070463084571 -8.15822168593761 -1.35161574428073 0 0
-48.4925043829249 23.2322460394873 16.6242101187902 1 0
83.9994418610262 16.4712856479877 21.2046217647161 0 0
42.9611371201817 22.0984379562077 15.2921415799341 0 0
13.8056159918801 19.5067004856214 20.8176919820668 0 0
218.68622864567 -34.0822877986093 13.4391733477252 0 0
27.3138928899397 6.84879227331377 25.1487040979956 0 0
210.954390992151 32.4149386236062 -12.4357965547118 0 0
94.561029638126 -6.65721910247706 17.778415684103 0 0
170.339602166688 -10.6050124142091 -5.26931824492052 0 0
223.056333961918 -44.2093237846135 0.278057464303531 0 0
136.185842777187 17.6366930328699 -7.41080162440773 0 0
205.967950716587 13.0749133802791 20.7698615369832 0 0
156.43002592274 -3.60434626323215 18.0600901752909 0 0
57.8111553546638 -6.59112148711016 18.3455862431085 0 0
232.279154684692 -9.70473790877233 18.4400356265796 0 0
206.244962662575 -11.9207187775641 22.0215976953772 0 0
17.1381619689145 4.94774874048006 -5.07207529873121 0 0
217.041672955092 34.1611643487443 -26.6442545440265 0 0
218.252578803685 -9.91227885851557 -14.4373484235962 0 0
212.891332746214 -0.176218037529734 20.42851235494 0 0
-42.6234963894402 22.1801174108468 18.4779588435429 0 0
233.204909275299 0.605124418140513 -21.7618603321728 0 0
82.4112986998344 13.2228654551917 -5.20760430534326 0 0
197.257759536008 -20.3587154978239 -12.7384841636345 0 0
235.331048085948 28.8458275315419 -22.1053052775097 0 0
-47.599317200901 24.8998617341708 11.7768695204432 1 0
205.450887412968 -45.0909030724635 -5.31395868154473 0 0
177.935714613561 -27.2431511388526 -0.690289755796223 0 0
39.9771313552511 -7.31516173471198 15.9479265276814 0 0
213.953056890135 35.1807164235534 -24.7838421890878 0 0
242.331861316648 -30.8969815126035 9.7380537172333 0 0
201.499219169132 29.7366511867504 -8.12581939380338 0 0
41.3339651222336 -4.86672204596381 20.1658795373868 0 0
141.896954587726 -6.7954524502264 17.1460953601088 0 0
204.798645842177 -8.16069681279911 20.8564322359261 0 0
48.9211518258127 -4.94206662648405 20.0670728205527 0 0
37.1526033451181 0.0972557969194608 -3.77847540311798 0 0
190.588741944682 -13.3241928005178 -9.34394187137442 0 0
213.737390873334 -27.1418580219627 18.2197901969631 0 0
208.16469493342 -10.5542599317941 -18.105225719032 0 0
205.060406911736 9.20600133486779 19.4707532732229 0 0
117.461765156231 22.2242289971408 9.14901112701976 0 0
54.275881749623 20.0259366192809 3.96781524957896 0 0
227.843916622705 -10.9303600884445 23.4293385749598 0 0
96.6846941474923 5.75320570641589 -7.28655025396707 0 0
235.2744972108 -20.3956134254296 -21.8732796770212 0 0
193.308787886081 25.1006017935593 12.8634513654595 0 0
234.521573588814 5.82730015197635 -11.6436074593783 0 0
212.292781723807 -13.7536510089251 -17.5972578726077 0 0
123.431481357854 22.1232817053543 9.14551632439777 0 0
40.3239854170554 -3.45059954551013 0.233835641135691 0 0
97.1145750199116 11.2435413662453 -7.17152560488429 0 0
135.07765741433 17.7084877823472 18.5266227185871 0 0
86.4882598034666 15.9306863159024 21.515248189994 0 0
238.350097141983 -40.1327284824582 -21.8694553152253 0 0
194.808337709555 -14.1038764058273 18.1394056698615 0 0
69.0488509589791 17.0823548632325 -1.21984683016627 0 0
52.5262885061119 21.4768334568255 15.8411182902768 0 0
140.827018743065 -1.51810323287453 18.853175631425 0 0
-3.15836854533086 15.0071121618784 1.18189102538026 0 0
-31.0706977822252 1.23772615389725 -2.33578027364644 0 0
228.297097565664 30.346817954009 -17.7643023551881 0 0
218.890646293293 27.0754985738466 16.8560814222935 0 0
170.885306795859 -4.09735516496761 17.920814217695 0 0
144.615737598876 15.9189232826246 -9.73974312880604 0 0
168.233295790936 -11.8472445521569 -4.51466950482743 0 0
84.3699478085508 20.3324841338281 16.4955591413334 0 0
200.033043440787 8.49629507086201 18.0757347055547 0 0
199.586927952804 24.5957202734884 -26.2446621633638 0 0
222.206272179162 -17.0053708869905 22.0607524854186 0 0
241.149998084961 -27.7055603183398 -17.9801254038413 0 0
208.012097735662 24.5337354773945 21.5910684728321 0 0
-9.32029344900974 0.70556891053833 -3.54064867690261 0 0
157.69250880476 -10.156265683665 16.2130246004277 0 0
116.730815320505 21.6731419234101 3.79628394865729 0 0
55.5095565684701 22.103174177111 10.3036156001902 0 0
197.111065366936 -25.1789346381331 13.5491385241913 0 0
62.7404672780677 8.63603106774256 24.2165653605311 0 0
228.283612367514 -43.2468494144179 -5.8582455136267 0 0
202.32338508777 6.81194656612603 -31.384066450261 0 0
102.098073292015 8.68517476050448 -8.15660188015135 0 0
32.3883675943347 8.4867215849565 -3.80681290008919 0 0
-21.5887002370564 -0.497044017089185 -2.92578088338754 0 0
211.361681600413 -20.2938779570394 -19.7269037421568 0 0
227.219093068701 29.0002379179795 -6.33744558293835 0 0
226.497713117492 -2.53677027634658 -29.459489566445 0 0
218.362899859231 -18.4700554401076 -17.1423424891599 0 0
180.633122055377 24.471811911891 0.155407402149577 0 0
18.6941685095476 21.5186918331573 18.1818662278179 0 0
-17.1841827240619 10.3753219248201 25.854479171694 0 0
5.98129255099831 -6.70737887562296 15.6969359744696 0 0
95.0419461183549 15.6193355082373 21.466371768609 0 0
180.51995169095 24.6168454160782 6.85776372289931 0 0
224.938712509453 -5.35856351219587 -8.57864177873223 0 0
221.509358123087 31.2341995162285 -6.36932518753869 0 0
126.350923304357 6.55095014761883 -9.09247467206821 0 0
186.363882119715 6.49766757752483 18.0891590818482 0 0
151.135562834713 -9.05842444293115 16.4547100354332 0 0
2.58244087884552 19.8776096944188 20.8323447123308 0 0
110.055063376001 21.656327847866 4.07778140051044 0 0
77.1130349215993 -4.83582799803583 19.4749520676436 0 0
174.777090108999 8.63750458551645 -14.3338724195872 0 0
-20.0974930648923 -4.96907251684797 5.41652142604086 0 0
54.6346306983899 -7.90646804609911 8.52325084791405 0 0
226.524835898218 -21.8015241671516 19.5652463500546 0 0
147.342080092223 17.712718411562 -8.36526414609066 0 0
3.43845959318925 -3.90707409170932 20.6496989644376 0 0
244.085244933779 -30.1887701892274 7.47586869121806 0 0
206.586855039731 -4.92056503241686 -21.5769327248749 0 0
232.75575833705 16.8509622498591 7.96987407392231 0 0
209.350691663062 31.5753727492198 -4.13808359057625 0 0
119.929258796446 21.2060887473146 1.2669699402952 0 0
178.164715630601 21.751718743089 -10.7508046322193 0 0
130.259712203538 9.62164322325239 21.7382573960994 0 0
154.486283710714 4.78753955875439 -10.3186169597222 0 0
93.7562364056492 16.0066643370284 -4.63463014896303 0 0
75.1751984690178 16.3208832486198 -2.45522549992638 0 0
-40.3012345802698 14.9186506306863 24.260895485278 0 0
-46.2577097099861 -5.73491503444827 15.518803672678 1 0
234.527279334009 -43.9336486492639 -23.3058127513851 0 0
3.32727184501631 10.7377490918225 -1.93290689353972 0 0
197.207538985893 13.6044507056244 -27.646100859672 0 0
193.315836135992 -33.9238074269032 0.980896410272768 0 0
160.161570650715 19.083757677844 -9.16116267830517 0 0
228.727043879588 -0.845812612818194 12.757107966119 0 0
183.768473426269 -15.7172661254105 15.1718828625523 0 0
233.556680064263 -5.75100961535187 10.3246446496691 0 0
218.061386865922 31.7201740274345 -6.52997847000488 0 0
200.156186183241 -13.8140501812086 -13.5368029079748 0 0
197.938215120237 28.3621030471881 -4.49204194731422 0 0
53.3145829330185 20.0096044294511 18.6826017583732 0 0
171.636308103312 23.2297303287739 -0.147968700137636 0 0
119.243000473013 1.28711715547562 20.5560068104048 0 0
173.433219847917 11.0727468760528 -14.7775356234714 0 0
190.79990417674 24.7949090390388 -15.8330241973335 0 0
167.637774182152 6.19349838253335 -12.1970542718519 0 0
10.5745046795337 -5.30160192094734 4.81204958504834 0 0
4.38643816487041 -2.69916210416271 0.154766071692472 0 0
158.985530385607 21.145550781485 -4.10023019533942 0 0
71.7839826784226 -8.76369908075887 7.54057738592447 0 0
177.481861862358 19.9930027437613 16.2662383301482 0 0
217.300421733083 11.9217927999473 -44.2341122712103 0 0
9.66359444389737 17.5910529562633 22.6533192647822 0 0
192.390147556496 14.9532929525306 -23.2099899542109 0 0
224.149873132517 30.5642558621542 -7.05202247185769 0 0
150.911265580981 14.7277572816664 -11.7459023673483 0 0
245.031412747007 -29.9770184588727 0.0990116907227356 0 5
73.1864427874031 21.4220547894941 14.7966899032956 0 0
213.038792422198 -8.29362763235292 -19.1121714022167 0 0
227.585571063382 21.132102574907 -43.3395239798927 0 0
125.949734965085 22.0169364512933 6.48398912737506 0 0
-11.6668949066624 22.313925946252 8.13794744389856 0 0
126.398270135667 14.1169008612059 20.9060752627298 0 0
220.243267146191 -41.7984217436089 -28.9279093221726 0 0
202.144066772403 -31.8499177145548 11.916503948981 0 0
20.6239995404017 -1.63338552098988 -2.79572359209889 0 0
22.3389771482869 -5.04194405106816 4.27009294199775 0 0
77.2886965044748 9.4104011264447 -6.05888641501666 0 0
119.380975909638 19.9502116943252 -2.38947258132044 0 0
73.5511321750661 22.232932542379 11.02085000063 0 0
190.959320589358 -7.60074602394606 18.8587588128304 0 0
-10.1453753084086 -4.77201669823377 18.8425385419584 0 0
186.060310509287 3.81557945258961 17.8750783492797 0 0
72.5468654295416 17.1552934452908 21.1425973344302 0 0
83.8520783212901 10.2337587217479 23.5775532579804 0 0
203.750634453646 23.0953495941946 20.9446027938633 0 0
108.727386544542 20.6896937050368 15.8217963449349 0 0
234.911717145072 -9.0477416160765 -7.06817259568181 0 0
239.95295003647 -14.7455432148091 8.82666493541925 0 0
-42.2049679935127 9.56629802516534 25.6143983692748 0 0
13.8364909919311 7.95789539581809 25.560923838648 0 0
40.8296201852589 22.4440418639449 11.2840956227294 0 0
228.309411133621 -17.1687955322638 21.9442151037816 0 0
202.476395482809 -13.0121555098238 -13.8749846240979 0 0
-40.6041775981624 5.82734638926493 25.3094573803436 0 0
228.281125132037 16.4883390562784 13.8909083151595 0 0
67.2812844795211 22.1020444435831 12.7168207210999 0 0
144.70983668343 -15.2977243620184 2.87690564361303 0 0
131.029950828468 8.41668676351624 -9.88591202907492 0 0
9.37802007061984 21.5752461825839 18.8318622749329 0 0
176.19491451607 -3.65784683133893 18.1252891730733 0 0
170.043705699375 -7.15930129341822 -6.30060024928656 0 0
194.083012381271 -9.07693289372132 -10.1538627710837 0 0
204.375899595554 1.02464575979993 -26.5418499536043 0 0
225.222358653219 0.200714556769113 -34.492129637442 0 0
134.832110039692 2.73586426456017 -8.33874846958074 0 0
179.561022943362 23.4257728999478 -4.67263983142771 0 0
218.490663221681 27.8046698884127 13.8323681429652 0 0
32.2231347597144 2.79140288920458 24.2118418402244 0 0
115.468709733277 -1.81282789796189 -4.73846348546605 0 0
197.587672091371 -42.6405773559817 -7.63644237403338 0 0
199.520004521456 -37.4413710149818 5.80456773431383 0 0
202.484927723613 -42.7062653527268 -13.0811979785701 0 0
19.7356820812621 -4.81121845208911 19.9645887237967 0 0
159.748537059408 -16.2799561958385 11.8484100273157 0 0
38.0688021731207 22.4207898547744 10.9707248544872 0 0
-1.63772937512141 -2.81697871389137 21.4055811974753 0 0
162.693138877493 22.70681032922 1.74333627297373 0 0
200.251014748254 -36.257378543076 8.08372349054289 0 0
184.356757825329 16.0087597036953 18.3966095162473 0 0
-30.2622426685645 18.3152899126577 2.95432063519337 0 0
167.216767529755 18.7394821945268 -12.1047214014579 0 0
141.422917231818 -15.2891988809609 9.96736949701231 0 0
185.306693445887 9.50741175294992 -17.8537540139667 0 0
198.116522608899 12.5902733450649 18.1886368604508 0 0
-43.7717337969321 2.95721684106864 24.0897240340047 0 0
200.858491502647 -20.610194260821 -14.1211680507581 0 0
168.70588751767 -21.7904803282429 4.82516751052248 0 0
-34.6042333041688 13.664243393977 24.8957858142979 0 0
-38.4324351765899 17.4256481690979 22.8154505327371 0 0
189.17269115046 -27.4801845095927 -8.94817132387244 0 0
165.576332483894 -19.9330501436008 7.72237039501823 0 0
32.9467722473842 20.8899249650299 18.387933520022 0 0
192.748097015631 -13.2907722652472 -10.3548394516384 0 0
30.0975452250805 -1.75308411145358 -2.90701762566879 0 0
173.307373820624 -3.43403573572323 18.0882553197278 0 0
219.518592625206 24.1581282983432 -38.335830894714 0 0
223.862712749041 -21.0467724355121 20.4781952247341 0 0
209.501280840184 -17.5180025440525 22.2801307795472 0 0
216.77481701937 -35.458115365472 -30.1764581918817 0 0
200.78168113558 0.248612539207663 -19.8256883860544 0 0
4.7838191130698 10.0522293478294 25.6693696890158 0 0
220.938376734196 -40.9677930385212 8.02041311916904 0 0
64.9723682797559 3.26702047797635 -5.00358805359046 0 0
198.596523361333 -1.48862841870133 -16.5756176269055 0 0
-11.9280004701225 -3.50701313592096 2.14687127393195 0 0
152.075344062808 22.4648278097568 5.57335604420828 0 0
234.789306426843 -44.8324644115362 -20.5043934994033 0 0
199.43957441563 -10.9056689793646 20.333488750187 0 0
178.119613436444 -23.7717935836687 5.73227471812101 0 0
129.366723356412 2.27220792793843 20.5594247578057 0 0
199.751859239855 -30.9841243918533 11.2352871682403 0 0
118.739834316252 -5.71289083123682 -3.19733260225646 0 0
175.361951812668 20.5232389290643 15.5911380934149 0 0
88.357659692664 10.9877325108054 -6.55553647361818 0 0
-33.2536760224913 24.6401924003783 12.7420211101356 0 0
77.7700638110799 9.05520512141421 23.7975542055491 0 0
224.184969237711 0.456837866687584 -23.0132370616186 0 0
190.335905800916 8.44670984101213 -19.7011387282497 0 0
87.5437006535822 -3.04887676561897 -3.07097023017081 0 0
208.37771532937 -27.7336590084577 16.5723757768658 0 0
119.628089483657 -12.9045178265477 9.61053740548221 0 0
172.993765796347 -5.88177775298395 -7.09177359451104 0 0
77.2144073069888 18.0820528442687 -0.940111156315937 0 0
236.551676575938 -8.44636360435988 4.71070295745763 0 0
207.69552770584 -11.0201842221127 22.7392238602643 0 0
203.848137447674 14.0750930624239 -39.9853031169081 0 0
231.956677072513 -45.2978801362071 -17.2671364381764 0 0
218.272383079601 -40.131374165765 9.48186681030301 0 0
-32.1289151442604 -1.27218987022121 -0.646596360086582 0 0
104.785091700414 8.76745561180009 22.8321923367415 0 0
-35.400283214572 8.80750055768055 -3.88757209944328 0 0
210.837144540595 -34.071910223964 13.6630016141554 0 0
216.586840052997 -10.5310896862709 24.1145602846067 0 0
209.875298166504 -40.998242039766 -19.8851143254115 0 0
188.339377980324 25.9221131202881 1.97702278996114 0 0
198.517483972446 -14.9673507893646 -13.2053814263366 0 0
236.151105714003 -16.6773494695655 -15.3450945435931 0 0
162.257332723375 -3.40389033751791 -7.13812447682531 0 0
229.128843632172 -13.9381182291884 -10.2615242125527 0 0
82.3937070192232 6.69823618211071 -7.01064013745786 0 0
214.351391740736 -41.1307346332317 -27.1001323982026 0 0
92.6496896204739 -2.05115611259406 20.078849570415 0 0
67.3749308868352 -2.41749990924124 -2.62548230570978 0 0
71.5836534744196 6.25569083707838 -6.38489035915001 0 0
84.5013958527801 15.2599999433603 -4.29877481193493 0 0
209.089277696384 -9.70892230257895 22.7534894936625 0 0
181.807513159128 22.5562975939662 13.5793804904444 0 0
222.636005882692 -15.5988362790856 23.2321720015402 0 0
236.823718881081 17.6500803028155 -6.3279404693934 0 0
216.366190931389 -44.230695972097 6.01327287315606 0 0
206.971839844344 24.9081488819595 -34.582412500884 0 0
-17.4032482853049 -4.92296342059716 18.215412053724 0 0
190.604530048652 -5.70407932807677 -10.4678676476033 0 0
228.905273022603 0.508963510702439 -32.0093709129399 0 0
197.357453345756 -34.1700461025966 -11.3662407554965 0 0
238.305725782524 15.0104097011227 -19.5522670201294 0 0
216.13115148001 8.87078787098947 -43.0768067918718 0 0
175.857738488728 18.968315795391 17.1281269959201 0 0
196.361076546523 -0.956461553742979 16.0944071695337 0 0
14.9734868112203 -5.50166118120094 18.9410612967718 0 0
1.8943483258458 8.27342739295233 25.8340653683863 0 0
193.54381917281 -17.5108642702804 -10.1088551333321 0 0
24.6403925177702 20.4270262679066 6.23906335141303 0 0
204.681327300263 -45.1016895438735 -7.46372733994569 0 0
22.3342570934226 -6.17748334731598 17.8670226968944 0 0
207.353332718712 -24.1341708415659 -21.4870179484315 0 0
228.267506477845 -26.1836395156907 -29.9239477272118 0 0
209.617920553508 5.51217421725385 20.2585957082439 0 0
232.313145462062 14.0466275603534 7.92267056927252 0 0
94.0844727415582 21.8522113602606 11.7788919627984 0 0
231.128435599989 -30.1094758320661 13.2778342194864 0 0
226.645807865894 -0.759928889863591 -32.5443889949815 0 0
138.812718460359 14.2794352232984 -10.138288534813 0 0
209.391606890137 29.4870010627937 4.34271374977386 0 0
217.762637692251 -47.7027586118173 -23.5080486221326 0 0
81.716113918179 21.0014447113273 15.2747791510298 0 0
234.633349790892 5.75761977316707 -15.4195401550006 0 0
30.8607933483677 11.5729533573417 -2.04113970758822 0 0
197.170286244536 -23.2499273540476 -12.4893165238627 0 0
172.541832049401 -18.4366941317068 -4.00843577165941 0 0
229.871203478135 13.7783451990086 11.4509306346274 0 0
-33.6894678287043 5.14963399872986 -4.2373467912748 0 0
207.977574883975 31.7191729255188 -7.29363448916872 0 0
230.634611179726 -39.1629274002318 -28.3045045885145 0 0
89.9640569575486 -6.68072355363909 -0.247637673517821 0 0
231.912666051168 26.8594392907061 -37.0869355751815 0 0
210.400106646519 -15.7518337451101 23.1407270731269 0 0
46.0527080492298 17.6868499426442 21.5519957427558 0 0
149.120964201496 21.2644292201578 13.0148981561502 0 0
-43.6405933441942 -4.35962232066235 3.68019181505103 0 0
107.741429681159 -8.27081261274436 -0.337890455353018 0 0
210.110029968776 17.0757291276196 21.2607508390392 0 0
-25.8790369382867 13.4673777486253 -0.0422451006613488 0 0
200.916804378603 30.7158055695864 -26.0543539698584 0 0
181.75798977326 -15.9855182318869 -6.47905192175955 0 0
223.286997982334 -25.6982906950055 18.1648348099802 0 0
106.654047728186 -6.08660887361926 -1.9170307290817 0 0
227.986030499926 5.83685288986033 11.749033056989 0 0
232.683552385738 27.5383755071563 -12.7764192781316 0 0
218.448005025424 33.3425690929257 -14.6053462654032 0 0
226.888659056554 27.5931584897844 6.11041320882548 0 0
192.464087282527 6.52485728103627 17.5157789017451 0 0
228.812183486742 -14.1299997817847 23.6863075797543 0 0
125.341136062041 16.7265240000767 19.4896510982846 0 0
169.368612346299 -19.3088507160311 -3.12708967364178 0 0
188.962365318997 -29.6198129912847 -8.11112437116317 0 0
175.050340138707 -23.2264991326672 -4.70231278004579 0 0
-41.0615887198785 23.7640603667516 7.84164947204411 0 0
122.084042868355 -0.964179044711861 -5.55709773638094 0 0
220.204459228084 -15.7632870256154 22.8156810281639 0 0
-4.38471524307557 23.7863988348656 14.6302708245102 0 3
203.496995088518 6.66705311790413 18.4326370602902 0 0
95.5727651122443 21.942538938824 6.84389432490962 0 0
193.094795992634 26.6752341659551 -3.14784567575841 0 0
202.551031466045 32.1317281276691 -22.2293600651346 0 0
85.0650846073122 -7.06903675360092 17.4001544723397 0 0
-47.3124857199831 6.73127107063706 -4.36399451106355 1 0
13.3310350590594 19.7473509785263 5.59683756219017 0 0
203.735507413588 25.2779197211393 20.0832544486507 0 0
180.263071586181 -11.002878619525 -6.81927811873697 0 0
216.401768487335 -16.7686425298097 22.7734981763107 0 0
206.22507440084 -37.2411241656815 11.1789076498531 0 0
49.045924268033 -3.70877021477529 0.126702613764817 0 0
5.80536950999436 7.17301323395264 25.7356202913474 0 0
220.833216278087 9.73848670290263 -43.3245122429063 0 0
86.7891652006289 -7.87278444706224 2.05942222947644 0 0
33.9714509288732 5.04099406939979 24.5975234936827 0 0
235.637293542819 28.4277513428642 -24.5921668330453 0 0
-48.6064616597908 1.6609430142227 -2.86818057281266 1 0
179.886767478458 -28.1250716507349 -0.979269427851245 0 0
198.132926649005 25.7538281568987 15.2339627293551 0 0
7.99927167459245 -0.215642716303204 -3.18548869443918 0 0
228.132117464699 20.8843712681849 14.2654812330481 0 0
229.844878517462 -18.2544431824901 -24.7386075632109 0 0
226.048114552167 -15.6680242450539 23.2418263616435 0 0
184.749042401665 12.3648900615902 -18.8121854180203 0 0
-19.4834764917995 22.6227067639075 8.03598994442507 0 0
158.269218981065 22.5907549007628 9.440436719959 0 0
226.340802402721 -37.2984104389543 -30.2816403506434 0 0
158.213817304916 21.8781544861208 12.1963488551981 0 0
17.185293802574 -0.648990874804102 23.2040639393857 0 0
131.130412631519 21.3189233320897 12.7352318633871 0 0
80.8369716176768 11.0226920106927 -5.87417999627218 0 0
-42.0117658487732 13.6374026854918 -0.603744653048486 0 0
-14.3247534452207 8.77926281291838 25.9327653334809 0 0
181.297802381392 24.8284348997441 4.52896224451509 0 0
215.848984721593 -45.1744347883389 4.05266002820895 0 0
199.416743212818 -16.1107913787749 18.937044930033 0 0
81.4216601701456 22.1461947083668 10.9051865195192 0 0
190.865560893425 -23.542854497464 -10.3468722022862 0 0
139.415756099754 7.76777648457557 21.2868946801454 0 0
193.980096997803 4.9933867665209 17.3658185077539 0 0
230.88487508001 -46.3401415281735 -22.2977545578384 0 0
223.119067068132 -6.93678725972626 -8.86325366895558 0 0
205.601877039103 16.7983949183662 -41.0837231096796 0 0
225.064181625024 28.5223565049634 1.81937051326956 0 0
178.791592824934 -10.198638861669 -6.66889404365913 0 0
211.53915645201 -43.9763167986126 -20.2336335374304 0 0
201.245760175941 31.4619184157306 -24.2011390568756 0 0
221.972604357252 -34.0075763161388 12.7719612082892 0 0
228.448905997277 -0.198190787696395 -9.50924160072586 0 0
170.939455888825 -23.8459052866857 -3.27182076469426 0 0
124.216469383503 -7.85252705097227 16.8146475443902 0 0
197.956002120354 -36.8200834477811 -11.755053238162 0 0
217.148913533613 -19.5799578715497 -18.8971697052134 0 0
212.39946580636 -33.6707790792465 -28.3397109320811 0 0
191.302848146375 4.79336652293014 17.509757545662 0 0
222.109437360142 19.8679240410669 -44.9566364565274 0 0
165.019308025599 -1.97279047373333 18.4996770530982 0 0
219.603812529932 -29.3398980149027 -31.566168879133 0 0
231.682194755332 -36.5119146802183 -28.3727094055819 0 0
218.045937081752 -35.4839489453027 12.5840673815981 0 0
-18.9052098927914 -0.781982343837443 22.4523205673116 0 0
178.471068244695 -12.9307661909213 -6.24069325730554 0 0
54.4764842554232 -2.74486119067176 -2.32705373297791 0 0
208.091046322754 -5.71509920304721 -21.7029520215299 0 0
205.172974761999 33.5662019459906 -22.867815800145 0 0
161.618521828193 -1.61329230678493 18.6501168272014 0 0
179.092866896876 21.6495950641903 -13.483193148897 0 0
196.809093839708 -38.3631261093513 -11.0604127739515 0 0
-48.0993921542471 20.7056582616127 19.8771515226769 1 0
119.157127087599 -1.30234374030913 19.5935753020478 0 0
227.083464949589 -9.56085059433871 -8.61614286791888 0 0
-42.8268792520731 -6.37255387222678 11.5467218864132 0 0
209.491090273602 -17.6954068684142 -18.2313298931206 0 0
110.160716297708 -11.9676824196746 9.11978518592914 0 0
201.705968514872 -27.7829187177137 13.7830893809629 0 0
-21.0895409321669 7.77530627493033 -3.57018640418335 0 0
198.916207786477 25.3130772402424 17.8505244464595 0 0
198.510152078951 27.4752157809441 8.23494446329898 0 0
138.434569866562 15.3588185421132 19.9301314538007 0 0
214.95773551774 30.0288523907587 3.28300612648512 0 0
-46.103136683985 22.303268300368 18.1104042186705 1 0
-30.1999091688728 23.1666144913091 7.79098622145918 0 0
234.416900703652 13.5352920260598 -35.8744928716005 0 0
108.093489513373 4.14197413161414 -7.19837496416609 0 0
48.0014511638414 9.2337001588935 -4.36942980628175 0 0
146.172372435905 -13.0823825835373 -1.68634337411843 0 0
43.4871460580332 -3.44308441389753 0.0130159227109215 0 0
26.1393287523747 -5.38164736322042 19.2954857731706 0 0
226.708618618765 7.65845264273456 13.2724168522374 0 0
-41.9046414862423 8.94511900834348 -4.02709517566549 0 0
100.760646217584 -11.109274096721 9.03216162119075 0 0
238.22382878104 15.016406915053 -25.6230433130884 0 0
55.2670519675358 3.5611350709386 -5.18167418815546 0 0
52.3219086420274 13.0199918273964 24.0503668324978 0 0
-29.9861204768332 22.2992705236795 6.55265925188308 0 0
217.777768413257 19.1395582918946 -45.0350882502835 0 0
-38.9400351923568 4.44770201377399 24.9467935170459 0 0
43.6579744004977 20.1943102443865 18.8156395017673 0 0
209.634609762904 -36.676762306673 -23.1655080443 0 0
-17.4485863146569 18.9930338757322 21.8648937278919 0 0
224.72678397327 9.04311295095864 15.1099529796478 0 0
221.486155067938 -28.0380181530751 17.2115661827291 0 0
196.431256511797 -21.4145123330533 -11.4806224475623 0 0
182.873779048151 -10.8921486017127 -7.34696513240037 0 0
217.507360684177 -8.26563322209656 -16.0606981587583 0 0
5.9104327138686 21.7747311443716 8.3188783923609 0 0
154.994113628495 -9.18387821800636 16.4977944886277 0 0
225.076776283832 -43.8484347956512 -0.917086609964284 0 0
198.188392303877 23.7383297764697 18.8752489452401 0 0
18.5289439216638 -4.42213437854772 3.13233576163127 0 0
238.145297423038 22.2212772251128 -20.178222678783 0 0
114.46542615248 14.103479657772 -7.82544416267536 0 0
10.9146526785599 19.7187000989827 5.55946479683158 0 0
-34.1169941135557 1.73455474569384 -3.625065543474 0 0
234.045100047789 -42.8014554476661 -25.1358270919864 0 0
-38.1117473993136 -3.14660755065415 1.68855758681075 0 0
35.7780629745028 15.9227660355271 0.564460716473475 0 0
180.365410365372 14.0979867164133 18.9422207354354 0 0
14.9237267888544 22.9035272956946 11.1624791092843 0 0
190.858456254069 2.16301536126118 17.3965092582892 0 0
94.8370908780734 21.3825186122249 3.91092165085583 0 0
244.717936726641 -33.4010379949591 1.91420909226962 0 0
-44.4521477803706 18.1196178091321 1.65782529320962 0 0
111.687046439578 -7.63057224080065 -1.20546542181261 0 0
171.363120435177 2.99116767566799 19.3007608493882 0 0
160.871509143859 5.31707668119532 20.0763842992002 0 0
79.5213631710519 -4.06020779790876 -2.09492381395713 0 0
207.351557394356 31.065252979948 -2.39812851676533 0 0
201.977799020269 6.23999375312438 -33.2586561289559 0 0
194.478055713626 24.3544556899185 15.9445258398813 0 0
116.953765096315 16.6330429132114 -6.71568640664841 0 0
98.139653199158 -2.1886251804392 -4.01910260223714 0 0
134.598339034033 -10.3392737407628 15.4806219991534 0 0
189.806438110368 -15.6240301610334 16.2942700386135 0 0
157.458652972569 -17.0495022246544 -0.911006714245353 0 0
140.15657996442 -14.5941895575434 3.17371263301136 0 0
212.218814135126 30.642945392499 0.636047132942163 0 0
221.945057280872 -4.67715819041162 20.9972161019824 0 0
235.293170759365 -7.6547126467311 -3.84588802197007 0 0
136.430699749662 12.913188186657 21.0009764457645 0 0
201.855251700785 30.4368108711006 -16.8345984956466 0 0
205.043669756584 30.92903093319 -3.74820379745278 0 0
152.742523886841 11.791782568437 -11.997500323276 0 0
150.386550961986 -14.8607954799519 12.3756800782521 0 0
28.9854889971806 17.6063730240798 22.1845031898814 0 0
233.720113161646 3.36627048785516 -13.5671658555296 0 0
198.789163663339 -38.7738814327317 2.58150342934062 0 0
193.841273085363 -0.591768334088888 -14.2602861351237 0 0
67.4834802780334 20.1841734053758 3.0322155698378 0 0
194.313793025586 -23.419821653769 13.6476675495453 0 0
242.817001317761 -20.9734973612721 -5.66731887171255 0 0
225.196300633578 -1.96537092828018 -10.2071091791449 0 0
-47.1902593178832 -0.154492713477497 -1.32845935121454 1 0
-32.2864901838877 9.00558433666639 -3.32884562449549 0 0
234.603598661734 -31.4498434320536 11.0830643184941 0 0
138.074595726509 21.2699831890262 0.0864426736297717 0 0
188.956972135015 23.9603520675272 -12.6118644382742 0 0
120.874135867043 -7.19807814644095 -2.42273101387901 0 0
12.5756049494313 3.22468919203111 24.8923918346216 0 0
193.660414866394 4.32267524362524 -17.8648938399781 0 0
199.997008495839 13.1195718059169 18.7674416643117 0 0
53.0205842920656 -5.87960243183529 3.48303684313201 0 0
140.079783085772 4.88622611724896 -9.49426945970001 0 0
159.431890044813 9.81175603607663 20.4715119411171 0 0
240.389331465347 -21.2703409795238 14.3404640433776 0 0
163.674233210945 9.51698924418517 -12.6684431822587 0 0
195.840784916912 27.6353525309638 4.09764753295498 0 0
54.0710071348 2.41038702698222 23.3425885783253 0 0
78.5934820973346 12.9033035698245 -4.91706553995468 0 0
113.573654527546 14.0270416474445 21.5488473705109 0 0
62.2132267041927 20.05889915791 18.3071391173801 0 0
231.761416822666 -11.9149667849106 -8.77762101787831 0 0
164.175254527886 1.45012798104016 -9.62454318386925 0 0
234.628465042745 22.2109265552922 -2.62066439955662 0 0
224.980903335194 -29.4120676513555 15.4446763183492 0 0
232.445110625134 0.146876585962839 -25.1634620570234 0 0
201.341506649381 -29.6392375853838 12.6578536999081 0 0
57.2203093066084 21.7568570647295 8.39138418099648 0 0
214.692595803077 -45.6598135457651 1.47317541541888 0 0
182.545694107146 10.2790848036431 -17.2545972773554 0 0
194.182932471382 25.4613604813167 -20.5817501159791 0 0
222.270789397672 33.8397701435603 -22.3973937788155 0 0
188.869762814958 -21.3601084460145 -10.0488607653215 0 0
182.167670080814 11.9620557761222 18.643943032253 0 0
-26.3788728258296 15.6501827614504 1.37445541249508 0 0
97.6498071065143 -10.5915187157654 5.98249653293116 0 0
222.786435787112 -47.136298771408 -21.913400553662 0 0
-19.8047900113196 -3.79878826512036 19.7982845995211 0 0
191.998555795706 25.8846678237469 -6.90452906669062 0 0
145.618780583924 10.2282566276495 -11.2972644690022 0 0
17.5718788880571 18.7961527448996 4.36665262382869 0 0
160.828681530693 -18.0384614867185 9.72176973862947 0 0
178.870964493597 24.4346004658795 2.64675871257129 0 0
-39.5092139943247 21.8139569631596 18.9460223333749 0 0
202.556109124329 -18.4249042834623 -13.0972796544043 0 0
224.349224926742 -47.4030398850526 -20.496827744174 0 0
209.032585150174 -2.94540884149852 -24.9762187649826 0 0
220.621041038355 -32.857183803864 13.2400496385729 0 0
230.027865120368 25.222077835734 -40.5853904856931 0 0
-27.6863139683191 1.73701874252786 -2.26831128314024 0 0
114.758486769947 15.9304434219441 20.5012062566993 0 0
234.122941443126 25.2168729204207 -35.8927526441924 0 0
223.950523051254 -42.846593436727 4.85112205678904 0 0
220.307600712872 29.8564624797698 1.18020421370793 0 0
205.0748125723 22.2645418073562 -35.3521730194754 0 0
-44.1728472832268 5.59775357336276 -4.09803114083715 0 0
215.494612520578 -36.2207076068974 12.0666368095368 0 0
215.290165925203 -32.9761266423689 14.571112756351 0 0
37.8506584743059 10.7774841752243 24.8750560373153 0 0
223.757988242403 -0.414767861659655 17.5219330814337 0 0
197.70501524124 -3.16990625626554 18.6506298574884 0 0
230.50897296619 -38.2699224088543 5.26281278992182 0 0
116.14898055885 -6.55519417060843 -2.3532344930373 0 0
-0.919730808724719 7.58400751651765 25.8791237657227 0 0
199.883920777584 -43.3979945695107 -7.09538677389121 0 0
181.603322197536 -8.63887073604978 -7.51707031241515 0 0
137.922553767736 10.6485629060467 21.3319993168011 0 0
175.159326407364 17.4865890820912 18.125210021131 0 0
-10.745782991413 -0.0248248690396526 23.2203838867709 0 0
218.113066710648 -6.10683104843855 -16.2198188619504 0 0
6.28169621178719 18.3629077729542 4.02492860614264 0 0
22.1118428973417 21.7396025610521 8.50533457944542 0 0
177.515028311045 17.6645303669621 17.9111332969913 0 0
184.466457759751 23.0180546445435 13.4435949995045 0 0
128.251579202872 16.2990513183522 19.7181887281024 0 0
222.6196073412 -31.0086519106624 -31.681841806562 0 0
221.962372175819 -22.3977368661044 -29.9322346523334 0 0
187.216313167916 -6.24000714840462 -9.49498431510098 0 0
223.321248027735 30.9602306075757 -9.19566288197756 0 0
135.047086109972 -14.854159411078 6.10458518128275 0 0
73.5758833111104 -5.58285938005065 19.0689186722606 0 0
243.675485472945 -32.7590311905031 6.26727605320114 0 0
198.977036231673 -26.6936375712045 -13.4285513374108 0 0
199.946659427826 -12.2311195638853 -12.7951158447352 0 0
222.368655271068 -11.3052735984584 25.521561783626 0 0
240.646330151485 -19.2771174880231 -10.1601819104679 0 0
210.459410838173 -23.041206476953 -22.9718299242915 0 0
219.851070468323 -20.4355173425588 -21.2183775251088 0 0
-43.897521609969 11.4658422237184 25.3072249555512 0 0
18.7377973139436 -6.96468405720349 9.30068567678822 0 0
198.477737163366 -24.3375160579011 14.4692400947005 0 0
87.6878441409863 19.842954894418 17.1571160918285 0 0
212.912280116454 -41.2839959734252 8.49880007965637 0 0
220.261048288918 -0.0868291045311717 -25.0700510947128 0 0
234.196557218078 28.6196802637332 -26.6783397194753 0 0
48.8879760122432 12.4405427384562 -2.66117322158514 0 0
201.843834964286 -43.191366468311 -4.41252882559167 0 0
114.855141511861 21.8977896913238 5.52030324091351 0 0
149.911722499466 20.6735018134873 14.3766646541241 0 0
206.139484708728 32.3351547783457 -15.4518470452904 0 0
235.427761489381 8.18822535923793 -6.76187519573627 0 0
233.979279367784 24.2032533292608 -3.2852103305252 0 0
155.219994727254 19.4424383131158 16.375175257626 0 0
-11.5446639577345 11.0583225580095 -1.41960542740064 0 0
182.797679809952 -3.76896133696229 -9.36260531949292 0 0
202.970936003372 -0.567538841739581 -21.6241521872106 0 0
162.913214936191 -19.2272267878968 8.22688750773372 0 0
-29.6007504518019 9.12706446977056 -3.04078135996552 0 0
194.109852970862 23.2172426277159 -21.5032983509555 0 0
157.289470663837 20.2032000261252 15.3962939871632 0 0
224.417036655393 21.815694999804 -43.9977769637912 0 0
237.206234330113 10.739393240318 -20.9477588852361 0 0
222.26082522437 -39.5703651472262 8.60045988634178 0 0
216.785038757897 -23.773223156454 -29.8777733329245 0 0
205.49422932595 -45.7636483643567 -12.2868215649688 0 0
222.35405801997 -3.93635817949053 -10.2995486909646 0 0
204.5283277626 -35.6531567871322 11.1654525338971 0 0
211.419361478602 -45.5274637877734 -18.5005898246608 0 0
147.583620127876 -5.51053687387388 -5.23682848220881 0 0
235.409926167954 22.5058386275043 -7.40174973229198 0 0
12.9353664592149 7.20555361933341 -4.26258666287302 0 0
153.879606048976 -3.68082230804619 18.0288480036396 0 0
38.3263892917823 22.122158198103 15.8564933261912 0 0
232.875006474014 28.457774118062 -30.517360588369 0 0
185.941215937035 -27.6765314065926 -7.71073945138646 0 0
215.037228603291 22.2028858285545 -41.1879784809102 0 0
236.457409356228 -13.9412388115281 -9.36058936884538 0 0
197.695776597303 7.43868234761155 17.5671218171967 0 0
109.751970658118 22.023944612868 11.6148664470135 0 0
-6.15214288856328 15.5772970470322 1.65187517079386 0 0
186.50582976655 1.15879547871322 18.2209640165829 0 0
158.364036755465 22.8004661527688 6.53006855706522 0 0
114.490967455817 18.6775321060568 18.2159274772797 0 0
-3.79123002823049 11.8392458652953 25.4560657367513 0 0
231.150162919348 0.716850935285632 -7.09048992764316 0 0
205.925494242841 -28.947946565726 -20.0814834931195 0 0
7.85223523372142 -6.96195303336106 9.76869847445889 0 0
237.776741924945 24.2566383122891 -17.9633713251201 0 0
218.109354448731 -25.2987179140436 19.0112652821277 0 0
-42.2756347318485 20.0836645773065 20.6624239933436 0 0
219.90581010509 -1.64999743353989 -17.867006820125 0 0
223.579452846128 -2.60535340265919 -11.4823009470905 0 0
119.015164698131 18.4983340041348 18.2184505108086 0 0
-17.2162039587122 2.65120282592393 -4.0929621561901 0 0
-19.0522836642807 12.1439894857338 -0.729301160835371 0 0
67.3741159078985 15.4905850173032 22.544136360147 0 0
178.409079279747 -26.4213018992215 1.64164445941439 0 0
240.933355226935 -16.7719621853439 -3.1658727119224 0 0
-11.2549241237229 1.6582625366814 24.3709189085299 0 0
229.089597154972 -31.3333384920483 -29.9483880455781 0 0
192.306582081152 -32.8169992362566 -8.3435310624725 0 0
185.018817349922 22.8644652274017 -13.3644620574706 0 0
202.266201561531 -23.6772614193304 -15.3083301266392 0 0
182.610034559256 -30.2715303066033 -4.19684163141923 0 0
210.334985918749 -44.4808398106378 2.58218557343233 0 0
194.629407111263 -16.7235778158008 17.1938361010782 0 0
201.188383380506 12.9107238599884 -34.3794837137891 0 0
195.918106306173 10.0369557248361 -24.6502428145705 0 0
196.327841699521 27.5154564092093 -6.96896576841276 0 0
82.5913068454758 0.742779483492929 21.4559770984695 0 0
-31.8876940403848 4.89146857060134 25.3016615986848 0 0
0.20409009677046 23.3548453588078 11.2804070615246 0 0
-44.9268978460295 20.583911283197 20.1576678568797 0 0
157.848864520396 -8.10970043011102 -4.69552406672744 0 0
188.193958683053 -17.9323526733004 14.8956003814417 0 0
