"x" "y" "z" "f" "a"
-2.41456087604738 -1.70785190165669 1.32736898418045 0 0
202.935214053158 2.02421018550238 -1.38088340906186 0 0
187.544453982437 -41.8227701929246 22.8891346484686 0 0
120.330586579449 16.8673987563249 4.34933973315346 0 0
109.298257581952 -7.48829514274667 0.199934691061234 0 0
197.820699004478 34.3817275947116 3.04926711584163 0 0
-61.1179068032246 -5.56733912877118 -2.72509493300881 0 0
180.550808385155 5.66474145961383 31.1105663101133 0 0
197.398453680328 14.3178242025855 -16.5924056676835 0 0
-36.7454456633702 2.60888635899054 4.40325238512466 0 0
-79.4631098370979 8.15911688773829 7.79285480283818 0 0
162.765633663244 -29.1271961514991 -2.33415014586027 0 0
38.850535391274 -11.9643041093877 -19.5291622759624 0 0
189.701173922957 38.656455391026 8.1655576729619 0 0
143.049428990839 -12.5836596874055 -18.5362605586237 0 0
165.067046025293 -17.3987429276643 11.5123450219094 0 0
171.796947684994 -26.0209294310897 14.5419278767741 0 0
-69.7878498466176 -0.958687582156963 3.69814476088913 0 0
59.5555529886509 4.05110195114278 3.04657420157553 0 0
214.307163688842 -16.7849450669524 6.11640948872666 0 0
-71.9136856242167 11.6585741621662 -23.2825147367844 0 0
-36.723733787138 -4.9491888563482 -3.93429677650461 0 0
-56.4752238497289 19.5767225555503 -11.7169224757487 0 0
99.8141492671181 0.369600439611369 -24.0888307887945 0 0
203.386038018308 0.175211514477594 -2.44053735761283 0 0
200.502174367662 -28.1851973158172 -9.29164678752212 0 0
196.17077730902 5.60500655865817 11.1360247836845 0 0
156.507028992691 -16.0268434597499 8.04535373639177 0 0
-83.9438588677194 19.9582843325849 -4.54407811360307 0 0
176.398746288908 24.5733562102609 -24.4369703849388 0 0
145.821185214406 -7.79944440536994 -19.252333600448 0 0
179.186153118403 -22.3328448394474 29.4400512799319 0 0
-67.5199601253288 17.5314164378334 -19.8782505234754 0 0
155.258145155105 -20.2988761844229 -13.1428034435302 0 0
-39.2897576965877 18.6778256920319 -18.2999762979268 0 0
190.399389068417 -41.7169249483193 23.6035400488957 0 0
179.797391446007 -34.0665712532162 -9.50138203129937 0 0
48.596521631447 4.40749873987394 -27.1954612354378 0 0
202.235450793803 6.24007897885682 -3.02480311515144 0 0
63.7200669473177 -13.3605074248425 -19.0380882859967 0 0
198.013494601609 36.8069033378057 15.3298958812111 0 0
215.133309642814 -24.4343760249121 -1.03653428124868 0 0
136.78401706442 -0.150325382283673 6.03282732187201 0 0
184.161130022409 28.5251896965683 -20.7079052099519 0 0
122.773452489524 19.0906809176892 -11.3040114645378 0 0
148.080965765051 11.8068088994046 11.2427607371695 0 0
181.075149964065 -39.779597127585 22.2017817507116 0 0
203.437337318001 -16.3321720002618 -17.4505239307183 0 0
43.092398903711 2.84495700347112 -27.278631468108 0 0
-46.5528011742901 -6.66242434571509 -9.76240237623028 0 0
68.2572109954852 11.0337305977537 -24.5630040422785 0 0
185.370929212893 -20.4211430957752 -18.9686904071702 0 0
144.395062619102 20.51259599241 10.1278897891892 0 0
204.736185415852 14.8252787260042 5.01559715342764 0 0
94.0545238904924 3.97533162220175 -24.8337194107547 0 0
-72.5853044640377 -3.57003024007889 -21.3147501523028 0 0
37.7836948226431 -11.2565848213999 -22.0488638902625 0 0
68.7195364867701 15.1664487123625 -3.42724224229264 0 0
94.2367512706029 6.88796461820767 4.59305233180414 0 0
108.692251254462 -14.9892161576067 -17.9919415653408 0 0
198.413346204866 -37.8680255987606 0.123252635960029 0 0
205.778234622763 -29.1709661838255 -6.24143205454171 0 0
156.670595894838 25.7528013556063 1.38310207470888 0 0
146.409619118902 21.8796543288038 -10.0503414491458 0 0
185.963608246222 -12.5169428692083 17.4348395297618 0 0
6.90966301682319 2.54465502536506 -27.9274200217168 0 0
199.016242265911 28.3023745408753 -16.5808376908762 0 0
-83.9008727687909 -2.94015209562504 2.65720191557459 0 0
150.032415689511 12.4754128427141 11.9367225076776 0 0
182.984678931659 12.8652168504204 -23.9356486130022 0 0
126.701244533845 16.6785709121039 5.9323477462305 0 0
202.419495707898 19.1702248321213 -11.9841685087876 0 0
204.932809994007 34.6122874232938 18.9753040923001 0 0
9.52602033628661 2.87812845312838 3.64106552582536 0 0
10.7357204512529 5.71073344971843 3.42740358153262 0 0
142.638116661789 6.37832353937898 8.58711590833149 0 0
151.464422302926 17.9152191557927 13.3651249491299 0 0
107.910863526783 -1.53061085545317 -23.1708803453922 0 0
187.585985149621 -11.9456315804902 -21.703933873701 0 0
197.494249358569 -32.7303107718447 -7.18290789876448 0 0
83.3396365930421 7.46305674619493 3.33636711586719 0 0
83.2878986337221 -10.3705450801356 -6.07519412570985 0 0
24.054962917147 -3.9847079723353 -2.43260831779526 0 0
116.557010068451 -17.2394444687892 -14.5735793116648 0 0
157.730524813791 11.8213167488491 14.5872091957791 0 0
134.01430346169 -11.3438010182826 -19.382359099572 0 0
195.211066347674 35.8371623125565 11.7400391763365 0 0
182.000221882063 32.062615060881 -12.5527748582826 0 0
-65.0246972608979 6.68790458807074 6.12648734878194 0 0
-82.8015052749204 20.9206865349852 -9.37113604616387 0 0
-62.7366188911559 19.9744609180104 -12.0558532421705 0 0
24.1886690808252 -7.25744041802923 -8.56067151488911 0 0
188.175305364368 -22.0606739910164 34.9276401008562 0 0
113.364144316161 -2.60020663973788 3.16333338308928 0 0
191.304077720548 -24.7926461913753 36.0966627181903 0 0
202.474698184524 -17.1987413639537 30.2547896954585 0 0
176.266077328642 40.923877493252 18.0703562896399 0 0
151.295643223858 -18.035614179733 5.5554256811159 0 0
134.028275405545 -1.89337869825397 -21.0475318559533 0 0
199.212844249577 -35.8620373439182 -2.29017577032441 0 0
107.25908145661 -13.2931145487286 -19.5333680722749 0 0
194.194557131189 4.60701362648359 13.4446407406988 0 0
101.881849033675 -4.51977872134996 1.44554870701433 0 0
14.8311254427516 0.672818862063949 -27.6954590914989 0 0
197.11972220198 -15.6155937268812 -20.9462651474766 0 0
60.2306539446874 -6.88858476796184 -24.9266620740404 0 0
204.028256591729 23.0525924628501 -9.70954342549945 0 0
199.054196870705 7.48941542870187 22.9487159672965 0 0
67.2840596514431 1.98412667150508 2.48828464433551 0 0
179.471254951616 -43.8793645594134 2.19705422544741 0 0
3.88996853874073 -1.72663549217168 -27.4974937852821 0 0
111.667244235424 -4.58315862754682 2.13343488238622 0 0
186.497544401697 34.5762861214148 -4.66809633977805 0 0
146.464269704315 17.4694598750152 -18.79240077444 0 0
201.146047229364 -39.8632810128033 14.4449084906024 0 0
58.0776118820928 -0.227821008349341 1.65592106153591 0 0
176.726357429796 37.8932524006841 22.4450610218981 0 0
122.501414392932 -10.7670601782872 -0.248339926875194 0 0
198.770868276957 -38.4488900325911 1.13537307003477 0 0
-23.9721709583469 -7.36745637642806 -13.6445778800503 0 0
198.312269774783 -24.1260183385348 -13.4460820762607 0 0
206.207467719118 -35.5664567662367 5.73629982384548 0 0
47.2918200685261 -4.65343225684914 -26.1210578970121 0 0
148.840333112964 -23.7132977431234 -3.30928798590272 0 0
18.7970598692892 16.7120357268707 -18.6543862067134 0 0
179.202703396239 23.3709119947226 -26.4866979901624 0 0
202.942274711121 12.3317614435071 -4.06401276517758 0 0
158.091566784858 21.6183889163404 16.7706729153188 0 0
167.209976887748 -15.164536024986 10.7152522036421 0 0
199.538784792445 6.47004640445335 16.6147060830737 0 0
16.102656324524 14.6829179434943 -24.0437891764572 0 0
163.705501069191 11.1499260494073 17.0439787531352 0 0
-33.9455601357177 15.6000472398165 -23.5283104060346 0 0
148.050166883049 -17.7134843572709 -15.14398813037 0 0
60.6848548614998 12.0202640728182 -24.2401413482873 0 0
190.621787769597 -0.433667786295022 -19.7134028198248 0 0
-35.155851642675 -0.591566783981362 3.63417771798114 0 0
-81.5881414489857 1.53278542787145 5.35364293278379 0 0
197.610879263197 -1.70721077528166 -15.6771649716435 0 0
214.610468287447 -32.3400381432365 10.9930770783274 0 0
-71.1456841063923 15.6700592334606 -21.2516559504217 0 0
31.3856664439389 15.3139778320645 -9.13071166514514 0 0
195.680521708888 14.2312614497442 -18.1711511096875 0 0
7.34545920747119 11.1726721970512 -2.7206610610768 0 0
163.728705657864 -17.1731396677157 10.6197577848769 0 0
200.509274929977 -40.6740962735959 26.1236236613425 0 0
147.574157374634 -10.6448805036447 4.65970434423213 0 0
173.346052853708 -29.6074716143806 16.5970083232817 0 0
205.480201044613 26.2571241299594 2.86419719951271 0 0
28.5396120199519 16.5971506058064 -16.2764509539846 0 0
139.561340332861 20.879380129944 6.34769636393918 0 0
207.629228149686 -10.2988066601522 -10.5671100339736 0 0
189.481618022955 -9.74566604334775 14.134421705518 0 0
171.586306711876 -31.235052548776 -8.15939872571114 0 0
164.033124679319 -14.4724207890801 11.0461804973684 0 0
56.3612665575813 16.2711374402035 -17.7823099014105 0 0
-54.6162272629076 -1.48880960445399 2.40156669171396 0 0
202.487523051907 10.2617970104675 -4.23648647993364 0 0
117.371906038494 10.3568402807347 6.52937413912247 0 0
180.150489186103 -17.3144277914036 27.414287765263 0 0
56.5433100362114 -12.1221162019539 -21.2581090652827 0 0
111.227682358842 15.9508612581016 3.5328223261298 0 0
-78.5394588799444 -6.62617221046817 -4.79015526697183 0 0
60.8140237072487 16.3536238625104 -9.32044677927827 0 0
-2.76499024772904 -9.35695891369829 -20.4913203970374 0 0
44.8793648025798 2.64101366078808 2.83239934081134 0 0
142.311730303974 -9.522026092344 -19.3238397674801 0 0
176.70554808452 -0.426455898192807 17.5930159560307 0 0
200.819768577842 7.1900892520815 14.9783160577146 0 0
-68.3145570417041 17.5645634976211 -3.79472506233826 0 0
20.6204820923691 -9.26163584577059 -24.3164213297431 0 0
195.11902322228 -20.3493762309421 34.9073525277484 0 0
55.2301980434149 10.7920389344699 -25.3235454331273 0 0
123.066666881198 12.6633777621661 7.08458271657245 0 0
-24.6279092672319 17.1595748199187 -10.7733455140784 0 0
96.6260178401167 -8.98329363787379 -2.68054322736103 0 0
17.1622953975526 -4.33810901306619 -3.49458642057968 0 0
213.790968317253 -18.7573641230238 -3.16798629356872 0 0
138.58102248954 20.4576674710607 -11.5454271843472 0 0
176.525191401227 -15.2931017707168 17.1981005081935 0 0
166.752636682619 -28.7199785278467 8.91818709050698 0 0
200.476687047771 14.8508366715193 28.863711872283 0 0
-3.25233870375984 16.9145047598887 -20.9416583620533 0 0
164.956197048688 -15.8729714035315 11.4205221232521 0 0
129.436932786042 19.7665717937607 2.65585850014793 0 0
-21.8054385416536 13.331910943295 -25.6127800071587 0 0
200.99049659671 10.4546307612169 21.4440237914188 0 0
214.089370458643 -33.2068011719657 12.8852788360519 0 0
166.997728853639 11.4365916642573 19.9328077042579 0 0
167.064042324747 -1.20234869135872 12.3302736095596 0 0
199.1492639362 -13.4325641183021 27.9401756522827 0 0
28.5286614280125 -8.70816791184442 -10.787006902827 0 0
-88.8466743033515 1.21785443680467 5.74517191159035 1 0
-21.3626958021302 13.0107926452678 -4.72761457470237 0 0
187.498167072528 -13.7625564710011 -20.7961510991461 0 0
171.867612795908 33.3858647696412 0.307536327901835 0 0
195.270246582587 7.09766818550777 25.2589634499409 0 0
154.199363134684 -5.0550097273809 7.06536490778107 0 0
194.79557843908 -25.1265626153663 -13.2648745065947 0 0
35.424064925746 7.07686600720343 2.36384975777799 0 0
185.797087597291 40.859885249453 16.3777214590277 0 0
176.364359855693 30.1979494059778 33.438289535401 0 0
31.1398116439854 16.1611436454596 -19.80434885711 0 0
116.481413277485 1.0916286663602 -22.9419422407302 0 0
170.942062943763 13.7440331082406 33.5772029795952 0 0
199.632162233166 0.515100017542766 7.31521448251964 0 0
-67.3604376601774 10.2304402490898 -24.2651862218109 0 0
166.002985029281 1.51060930777417 -18.7883255687838 0 0
202.751291064261 14.3868285415654 -7.6691089832453 0 0
-24.0893234119643 6.16842458685594 -27.4949265965435 0 0
-79.8605107112748 12.039984229145 -22.0236960099284 0 0
187.496604876514 -14.6805746568846 20.2078780814949 0 0
179.694542065727 25.4361824514501 -24.9787679886112 0 0
-41.9591206204625 16.579496639303 -7.65179977415183 0 0
28.2744315487196 -2.67893394344445 1.02200217529005 0 0
212.419558915727 -13.9723326756501 10.5581947816333 0 0
-2.0555054425184 -3.40187212343439 -2.10402224251513 0 0
107.03951652471 -9.63461815871215 -1.82125184557643 0 0
-15.614365358313 8.4094714657358 0.724420220490904 0 0
181.256694304628 -3.74330532437135 -22.4699271969653 0 0
196.576330625487 36.7337916108521 23.8043253294711 0 0
-76.5947608996127 -6.16796265621243 -13.036604050377 0 0
180.827515235552 36.8886239404725 25.2393469793684 0 0
176.666369274476 -35.6383425064474 -6.64529021395267 0 0
183.887021658274 -46.0230386621271 7.06684786310515 0 0
174.181506736621 -2.8191280612431 15.4893200549186 0 0
-56.7530285567794 8.08004403887648 -25.5898963613247 0 0
104.310206896982 -12.048066386141 -20.4878909244221 0 0
176.689668337002 -11.0530139969454 -19.4293903862693 0 0
180.979369128725 -4.15912848936942 16.6569408932589 0 0
120.142358437259 14.4608229789205 5.94775727371325 0 0
192.922645145828 3.25339175438687 13.225055252985 0 0
202.122836416715 -4.67227232090973 -13.5528867561289 0 0
178.543042972238 36.2569970640182 25.4695840853399 0 0
185.675662129504 -13.312788319671 18.4016685041526 0 0
-13.8397783853012 -2.57423653936559 -0.0222502016469596 0 0
-60.1483876369465 19.9357396236806 -13.3962723626782 0 0
172.434111852383 39.6142092953343 16.8319244591742 0 0
-77.6917644796833 -2.24155088461176 2.70082551471463 0 0
-24.2218569222192 17.0467449625869 -21.8086844223016 0 0
188.185174194057 14.4639153814268 38.2754830538164 0 0
214.562870271696 -20.3644117539036 -1.44589391287071 0 0
-61.8122417094065 6.91287273463456 6.0186301040052 0 0
201.185905751151 7.48057543327986 13.2873618609342 0 0
190.037666756009 -11.7981026022356 -23.7263099580458 0 0
198.897731589967 -14.1558303832006 21.701702881302 0 0
175.568291303855 -18.7111220979514 20.5976745119024 0 0
203.397814030028 15.6315085566436 21.4898984421327 0 0
179.041586272614 37.3391306595865 2.65222652261631 0 0
153.894676005678 -22.3992409351697 5.3884578085547 0 0
188.718048601767 36.3810212585001 1.06542761980245 0 0
6.54186638379962 -3.22493629179723 1.40162083227929 0 0
-18.7887624521825 -4.78303828544758 -5.38368715662137 0 0
5.98451137924781 16.8841111742973 -14.8509597418676 0 0
188.902650810184 -18.4127252314648 -19.2020726853954 0 0
141.110955287115 14.3376021198724 9.95623222022133 0 0
208.462454565496 -17.1953860025335 23.3924895468473 0 0
202.649644803527 6.78550358527342 0.232082324281085 0 0
152.401022934788 21.8749687310894 -13.7256191882654 0 0
175.109874812053 8.71790168334144 32.1535730394792 0 0
148.519126586349 -8.60037723603829 5.3725627485119 0 0
134.983915864824 16.06891466 -19.1236217704592 0 0
187.243898907851 -9.93389000642099 -24.1990591998692 0 0
188.015231953832 -1.20911129941855 15.2091856801597 0 0
199.311317918916 4.97829660397032 9.25707989964257 0 0
208.534959524406 -12.8658164550975 16.3068174350607 0 0
179.746686735071 -20.5294066741196 -19.7213249367572 0 0
-28.2440297486976 8.21976533401698 -27.1477528786248 0 0
187.591863002775 34.7159326599569 -3.52667528073866 0 0
190.765177474655 -13.8833619691308 29.2764224636647 0 0
167.716859978284 -7.80243287312694 -17.9517157496589 0 0
35.9672785206636 -5.24283710880245 -4.1356203087424 0 0
157.07022185802 10.3218523993746 -21.5295569280191 0 0
69.3975682452285 -3.18327131220987 0.120283986066101 0 0
124.640878164915 16.6874580374035 5.45084422786561 0 0
123.271672887134 -5.61367136773568 -21.4275402081643 0 0
160.453719268751 1.01825749451191 -18.8739875075683 0 0
-38.076456348985 16.1178007104919 -7.49099669688901 0 0
38.0639201878028 -0.857886972625025 -27.0133688141106 0 0
96.5685074556426 11.5453179683976 3.57044446399156 0 0
145.831471732327 -16.527095307619 2.5873289339491 0 0
-80.5199109183768 -6.22693615392527 -11.8098670031898 0 0
35.322982134208 -11.0042152500606 -15.2731539953432 0 0
191.853667378876 -37.8052412781067 34.3034437292711 0 0
-0.438401653606072 16.475756212732 -22.0021467747064 0 0
191.297050178317 31.5829529848687 -13.6803137894727 0 0
204.511066954336 25.7145010231926 -6.97308930535462 0 0
123.547122399936 -15.1417847310217 -3.57944653420486 0 0
196.681799120817 -14.177973443968 18.2579829952851 0 0
187.284089363539 -19.8047092784677 -18.8881286931259 0 0
149.0373141949 4.85022212772774 9.27127215969783 0 0
210.438667873427 -24.3147047433495 25.6506501108127 0 0
-32.7341826337688 -5.07453272874094 -4.81278113256115 0 0
115.600670479581 -10.8611277900751 -1.42167313002448 0 0
184.677085732982 -2.60539504520021 -22.2670235452885 0 0
124.892150796357 7.22982120950668 6.92862979395255 0 0
61.111031482245 13.5180971675878 -2.09323435157442 0 0
5.97534370878505 -5.42789472433769 -6.28370342481552 0 0
129.661044919481 -2.5293897473648 -21.3665247246853 0 0
203.409102979737 -0.593656239054335 1.20493547119834 0 0
-38.5646699249782 9.10585223609429 1.02403206033075 0 0
-8.63943708080187 -7.47267028414187 -12.4906291433163 0 0
-78.8855909422177 -5.93742353020758 -13.5366151027487 0 0
171.923445420274 -13.4392806070195 13.2829477536482 0 0
-64.6719752779425 16.9466130100672 -20.7241862577221 0 0
146.237758514805 3.32146043517496 8.25885575241217 0 0
199.566619316962 -40.1292394427027 21.0375433750612 0 0
201.669256440187 -22.0034372411878 33.3400907992195 0 0
-57.5880948870893 19.7588018243699 -14.9176131718408 0 0
135.487650909357 20.9332967413086 1.52141818698376 0 0
155.621833743913 -25.5158084872046 -3.90897041771723 0 0
150.350274644793 21.8756749421693 -12.8573858949759 0 0
72.103618313689 6.53190931056627 -25.993318819087 0 0
98.9928097534103 -10.8515840254636 -4.29019836238507 0 0
198.505858675927 12.8308007384013 -14.767942475202 0 0
99.3393550665629 13.8578902642447 2.9944490003678 0 0
200.463767704442 -11.6302149724805 -21.013434256515 0 0
215.256522520168 -21.648505312926 10.9933690987525 0 0
58.8400681412621 3.99156179360635 -26.7908203273244 0 0
210.654005850931 -20.7681125125833 -10.4093921801243 0 0
134.145852868267 0.834116269105469 6.0890682085227 0 0
172.696658596913 22.4887291984316 -24.4155276558292 0 0
189.317696401415 1.0691278725513 16.1956906075168 0 0
169.262652045851 -20.2389804385018 12.4382359080731 0 0
-84.1051492195312 -5.94135792554318 -1.40976741661034 0 0
203.880549851546 11.9745338029311 4.68679507962824 0 0
32.969290683201 0.552682269820393 2.53689917059536 0 0
212.13691418616 -24.6461690260568 -7.55710790206778 0 0
147.108938997538 -1.25819018626743 -19.7734379989438 0 0
187.481650424168 -42.391098895 28.7210204259515 0 0
192.822438629836 0.65015257379702 8.20669262412566 0 0
-87.6375089357355 1.11530484764959 -21.7267544712732 1 0
186.077950941026 39.3640742362306 20.3356621263734 0 0
183.995330104337 -16.3669300987968 29.7206017462539 0 0
139.599125070515 12.5458279585484 -21.3162903508928 0 0
142.584577519286 15.9786717752761 10.456113668212 0 0
200.340992997591 3.54421196706501 -9.21151980054186 0 0
77.5544926494081 -13.4013125964007 -20.1477373377433 0 0
167.432405683633 -10.3652919846409 -18.2220046640414 0 0
118.3655328024 -17.9754805219381 -11.3464568496637 0 0
182.514461037298 -43.0603444691393 -0.410399145192972 0 0
-83.22049678817 12.8934155105103 5.04318763618436 0 0
39.8423504310032 -11.2152903857019 -22.2437918216332 0 0
-90.0846960627722 17.8928642513134 1.20166995239191 1 0
30.7572045350503 -0.162866779776124 2.44033280555674 0 0
-9.10822268555477 3.62834260351974 3.70645349646156 0 0
14.9801712143951 13.1132435506817 -5.13549997360597 0 0
155.598275081393 -24.5514118633983 -6.31645385884877 0 0
178.241228864342 25.7405079270171 -23.2206495144472 0 0
-31.3824696688975 -7.41041537719261 -14.8292127217904 0 0
48.0706387323907 8.11524968912526 1.502368284205 0 0
203.886718033673 -38.4023369631205 12.409451310583 0 0
181.561090103131 31.9119208027448 36.1077959583271 0 0
-79.9063425672486 17.8089669185241 -1.09127573597367 0 0
5.43027902841798 -9.15705281461829 -15.9078931289712 0 0
202.47189391566 32.9853856078275 1.83812545648775 0 0
202.438650312524 13.4237754774147 20.7896055590621 0 0
-35.8698249925782 4.33643715536553 4.86484442573998 0 0
205.677373902917 20.8618189844212 16.1490907012941 0 0
148.195890470827 23.4314285120464 5.82151113288845 0 0
-34.7827854835237 -6.4686468482802 -23.6512861935064 0 0
171.411915758828 -34.5245209584078 -2.50298877823415 0 0
92.3508451447192 -3.62781879584342 -23.7673215307459 0 0
199.468175262426 0.986681139707055 -11.7654786334792 0 0
183.339694467108 -17.0382148352534 24.1434946699037 0 0
-65.5343390305026 20.1184447372432 -13.5677623545145 0 0
62.2613295179819 -5.20465670161474 -25.3211976563538 0 0
186.587047419557 -18.2293121442443 32.5837916665428 0 0
198.15944762654 32.6775917438919 -5.91941152289264 0 0
200.693649493924 10.9497092479469 23.0766101017733 0 0
204.630552378414 22.033729835098 23.9697061647471 0 0
138.275447260382 9.59812004915512 8.78036522688191 0 0
-68.6060659254963 -6.60677719534504 -11.8508617645585 0 0
-73.7895574057968 1.15482216749577 4.9099456351447 0 0
206.796126202193 -33.1349298324835 29.895403662273 0 0
181.009276638105 2.71319266181191 20.9870660830407 0 0
-23.5575902167906 16.2378013314376 -9.3442548111216 0 0
189.505042800793 -15.1688411570444 25.2976091727173 0 0
117.645849278072 -14.4843509924103 -4.34636663239236 0 0
110.168659172803 -16.4317441961664 -8.986488684826 0 0
109.816741948608 -17.1166913400774 -14.150601994144 0 0
77.9074644797623 -14.4309665765335 -13.9808298838812 0 0
-52.051242896166 19.5464289067497 -15.6411023745153 0 0
169.987682310426 -7.8610215998035 11.6815618991426 0 0
148.370997174752 22.3467511509476 10.088442144867 0 0
187.744134505244 34.0354719036744 28.6687630532368 0 0
16.8355492870637 4.87140108237325 -27.8898524562439 0 0
197.37148587086 16.6778942053765 -17.7472828114779 0 0
-5.95930750990837 14.0581384589715 -25.2635599939081 0 0
136.300883025937 -14.2449996485608 0.638768627380278 0 0
209.88948231165 -19.2433764321457 -11.4712024209486 0 0
82.5361438016128 0.603025643510609 2.46670667533525 0 0
156.866286076981 24.8680741616451 -5.54278911156525 0 0
170.825815799397 -17.8284563675885 -17.8337880473879 0 0
191.410061804573 -21.3277440388278 -17.3634903247332 0 0
158.178773282869 1.72708022806164 10.1973554051502 0 0
-28.2208728263178 5.57304795220297 4.77194624577484 0 0
188.936240294117 -25.8632296622992 -14.9094118260657 0 0
138.166797604146 -12.3683429582749 1.83740363503172 0 0
205.318185260711 20.7978978028659 20.2101392445001 0 0
161.120990384486 26.4889853848096 -4.08347362916317 0 0
85.551470488142 -7.797713763365 -23.1686745851674 0 0
154.790635033975 -20.7131540984129 7.1796501064491 0 0
69.9791193219391 16.799908446365 -12.7082313962819 0 0
123.323119208188 -9.52679943208286 -20.5293921037143 0 0
213.008767915755 -28.8246008867665 21.6619693922554 0 0
-46.5067443018249 -1.74741007780084 -26.1265702834964 0 0
200.438817299098 -24.5081071592791 34.4859503013822 0 0
31.1189632174789 10.3977334844181 -26.671019248704 0 0
204.485916355678 -12.8613991230478 21.0835558843098 0 0
165.389873281107 -7.56859551624577 -17.9832820742037 0 0
183.227852298692 -32.3332324880427 -11.524749859282 0 0
161.088900641332 -28.8214241127446 0.269286444908309 0 0
123.251833314792 -12.3559680854093 -19.476469280882 0 0
65.3617197394012 9.59336362263042 -25.4360737050873 0 0
60.0159823653702 -13.1333692768345 -15.8322311870881 0 0
193.993155918709 -27.0894513429219 -13.0256627368692 0 0
165.246782176144 27.4397390904999 -9.15345727882745 0 0
69.1778104028604 15.6270655920353 -18.7003762215191 0 0
214.972404299782 -28.8112328278663 15.8045686306916 0 0
-11.0899288158693 2.44017431813879 -27.7998296818064 0 0
155.960996899567 -26.2839806220529 -1.06527409815395 0 0
-26.1770458414663 -3.52083298130958 -1.31932135748589 0 0
112.730146881862 -15.3368991654056 -17.598434750731 0 0
71.9773984735296 13.0150898082793 -0.17549893444303 0 0
209.80891748491 -15.076506986123 18.5969356381881 0 0
184.910142703429 -36.9772420388138 -8.01697669690438 0 0
180.278483050396 9.08166500334672 -23.3678507862418 0 0
-5.15879859827394 0.812164516334624 2.98584474373296 0 0
147.215786398089 -21.8618717130964 0.705503258990784 0 0
-34.8632915279652 17.7201438083564 -10.7346763410417 0 0
117.752973574666 14.0812476141756 5.69260726916863 0 0
122.35634108452 18.1685488269334 -14.3528320328737 0 0
-60.8135928823687 -1.34598148881526 -24.6599869907664 0 0
-44.3460151992269 14.7332681560915 -23.7079563837005 0 0
182.372479389013 -41.6499116391492 24.742084673274 0 0
200.856402970438 -39.3566235599875 4.01478222185072 0 0
190.810843766268 -42.9069574136908 10.7937663912735 0 0
138.103569298222 17.3867209056239 9.22091330687251 0 0
192.191357330391 -16.033790730963 -20.1377516654185 0 0
-42.8552943310691 16.5615226416993 -22.1391207755467 0 0
0.699914979351187 2.2967710285626 3.65327812734432 0 0
206.157621658589 27.6675093015176 7.45705633509281 0 0
-70.5816249437811 13.1941077440443 1.76894622484688 0 0
-28.1159507533981 5.69242032789856 -27.3834936037047 0 0
-54.6264129507154 -4.82105903870004 -22.8614440617926 0 0
-65.1892784139611 9.8208384609404 5.19529153639194 0 0
-14.987769633373 17.895629345417 -18.9256637056672 0 0
204.788391490774 21.3569286323436 -7.26665026497373 0 0
184.954210186584 -10.6238096208263 16.6692689462753 0 0
206.99502345299 -19.7257515041854 -13.9721593414955 0 0
149.7617744957 23.0112108573427 9.60999623464689 0 0
189.174637537994 -2.20766075654972 13.2071057497118 0 0
169.301966817693 35.0396562812941 20.6682159193153 0 0
120.778654774432 -8.15461953287351 1.17205924963541 0 0
175.339025415802 -31.6309541335378 20.4841764394766 0 0
179.898057181086 38.2661710336441 5.35696771831523 0 0
-81.6759883324395 -1.65057589876406 3.39392055463812 0 0
156.319776457071 -1.14216735744513 -18.7141839666716 0 0
188.303308272579 34.2297893643266 37.4293565243707 0 0
129.441477530121 -18.3976676877816 -6.24575241241788 0 0
203.398341751562 35.3194102380679 9.34290092008679 0 0
61.7347709873795 -9.08066461006853 -7.40081109926221 0 0
185.496521053107 9.38015116745411 -21.971051002577 0 0
204.338224894587 -22.2041330143615 31.6745619921936 0 0
183.073903492432 -16.1330063429202 20.8706339486325 0 0
120.878558336079 -14.3384332687097 -18.3403204849922 0 0
88.4738601950539 -3.96273945435909 0.908284910155276 0 0
-43.1553933243845 -6.76844102960227 -10.91364087858 0 0
185.127011638448 -41.4478593789803 22.2465935006059 0 0
-76.2940360490457 19.7791464552618 -5.94512539339073 0 0
173.566249591943 32.591631682129 29.0013395694699 0 0
-40.1528018918026 2.74381125367763 4.31006001867327 0 0
61.4020697203426 -11.7893333104891 -11.9645223360258 0 0
175.548950969506 25.2501103940119 38.6631020123975 0 0
208.808058983224 -12.0710923993594 13.843301089833 0 0
58.7488228253024 -8.62621080303919 -24.2049693535125 0 0
-45.2888588204431 6.16671028495085 -26.6114085222316 0 0
103.783737719643 17.1776976345047 0.384185566879182 0 0
81.2193945396759 -7.46347674378992 -2.95420744187028 0 0
-50.6996313108307 0.72925245543495 3.57141272636136 0 0
-90.9016324152194 20.3538521592246 -3.6436916945395 1 0
179.179962894167 2.25443563253638 20.1505347604315 0 0
205.592411893152 -3.95675700651613 1.44213380241052 0 0
177.051593190206 11.2375824696263 -23.9638335595114 0 0
215.328079604676 -22.3747239414976 0.79482760439323 0 0
165.193789283921 33.1887409842962 15.6238346495231 0 0
-38.6592106339674 -2.74858851095335 1.16499452451929 0 0
147.377683341641 14.3375753382836 11.5834002146071 0 0
13.0342826481162 14.2070337201428 -24.7417096114662 0 0
205.697295251665 19.4836667544871 -2.32237298901718 0 0
205.929276881949 19.4104527035317 3.50857694524774 0 0
189.901640607934 -42.4303273464121 18.2260913671666 0 0
73.3251179047697 3.61036627448136 3.10406548016659 0 0
189.964788695266 -42.9287834483429 12.9662782241124 0 0
14.3125328925518 -8.00988142204633 -11.3430628807071 0 0
20.6765692098512 12.182621977325 -3.68070260457642 0 0
-67.7362318346363 19.7721665161363 -15.6281093338689 0 0
157.382601480181 -26.4619738454793 -2.92398505666581 0 0
128.272005910285 9.50671228760315 7.63646658823145 0 0
-24.9820249659271 3.22482455564437 -27.5109674384205 0 0
-53.7240434736974 19.6795731854902 -13.3564916371734 0 0
24.4592281559767 10.5857681826815 -1.7976261735095 0 0
194.853048712723 7.45459413051851 -16.1689057978073 0 0
198.9158683126 9.31181974288254 -12.3253469449873 0 0
-27.2855722002413 7.5361957909845 2.9390453204992 0 0
-78.4284973400908 -3.94415400727474 -19.8409825642781 0 0
-34.2706661238385 -7.49814231563399 -17.710298408056 0 0
117.084656248689 -8.13114423021404 -21.3246468818179 0 0
168.506461820919 -24.8898269436096 -12.7391491083675 0 0
190.566311944205 38.1002323618603 9.88720279480894 0 0
179.121311285458 7.78690974210589 32.7063645407152 0 0
159.367429474268 3.43628750517951 10.9240114563836 0 0
-83.5568082393714 16.5604815775086 1.41764418269039 0 0
42.4098102330375 -2.70436954297279 0.555917671586924 0 0
164.845859335515 23.6460888651827 22.0535633393985 0 0
188.406181429335 -28.7812552917155 -13.1930705128301 0 0
123.201008208569 10.0237357863633 -22.4213521592133 0 0
166.47782705336 -30.3460778076138 -3.88598303112861 0 0
146.73342857783 3.90207490068784 -20.7443261505661 0 0
129.58454523469 -19.0106836084323 -11.0811045664232 0 0
172.116776037369 -11.5247342693941 13.144631609075 0 0
137.057105221478 -1.03548478123942 -20.8840502898798 0 0
181.299867544596 14.3185976494573 -24.5966042612168 0 0
206.340193021615 -33.8056471982919 0.980772872782833 0 0
202.361769222268 -35.9832220286259 -0.037139148973853 0 0
-46.9679246622576 6.98755880973956 4.66935700498706 0 0
203.232049603124 -2.81792389348139 -8.7172654554914 0 0
178.383838850805 -36.8683623975712 22.4336142537517 0 0
202.743114785674 -38.2290912990533 7.32116436490655 0 0
175.417418593279 -36.5474204808304 15.4362690723106 0 0
-77.6783152311623 17.8003626623552 -1.7351419953881 0 0
185.740776131551 -8.28202459613279 15.9063471201281 0 0
110.693882689298 -11.8582177520256 -3.19080687655739 0 0
204.533607578895 16.4676192070638 13.1794823588084 0 0
174.535410372294 37.7408812579693 7.48759520367838 0 0
175.724030367036 -33.6173990904102 -8.25298644887996 0 0
35.6856332323795 15.7609241426604 -10.5596434587953 0 0
130.082140959926 20.4060938077752 0.178005891457323 0 0
176.646464255632 -34.1845318047766 20.9636108310352 0 0
132.677743238003 -13.4439191137527 -18.5444916507496 0 0
-27.2152321165945 17.2116514622229 -21.4841300497943 0 0
156.345288671071 -3.60874876627008 7.49102692937449 0 0
-68.2398850203548 0.42781433115493 -24.3871380900431 0 0
179.652347243022 15.7049431930997 -24.9280756801897 0 0
165.175005981863 31.2764355151888 5.39085077289011 0 0
21.293425458239 -3.53194368269921 -1.21615006185053 0 0
-10.6075827275266 0.0027763132140147 -27.6631672026376 0 0
10.8084221804338 17.0461251532673 -18.1490990461952 0 0
211.857507163175 -13.1767051779159 -3.4666836690978 0 0
148.193575599041 -22.7800775214309 -6.63369243729318 0 0
61.9017407997112 1.83693079162618 -26.5073894158633 0 0
206.118439210264 22.5739925324858 0.611314401514072 0 0
200.432787258755 32.2495334199863 -5.68589493154034 0 0
13.8490729527231 -2.17594828080834 1.85653280641998 0 0
-67.6727297032204 15.5623230912155 -1.18764532089288 0 0
159.960150986477 -9.92571261572014 -18.2215193750942 0 0
139.827528158056 14.7131498511728 -20.3387922976245 0 0
202.22357959354 -1.23928955753734 -9.27455112720326 0 0
211.898303757927 -17.4692025201748 -7.13090952036683 0 0
170.613032742936 29.2485312972765 -12.1636496025528 0 0
58.324508786556 -3.39295558700723 0.264603594832214 0 0
109.915581401104 0.697615338500315 -23.3590823901198 0 0
188.062544647786 39.7695167585225 10.0431103811176 0 0
195.27716454521 30.6927354933015 -16.7379411881665 0 0
212.467191182683 -35.0085405591287 12.4487210137015 0 0
-21.8875214267745 17.2190746125217 -21.4656616323477 0 0
196.362313436124 34.7854253128408 3.63077729394672 0 0
60.4720809898728 9.48772358112664 1.00065935844521 0 0
177.854046694508 4.74575410523862 26.8330864517245 0 0
17.6566737139558 8.5095297316827 0.117969548486742 0 0
174.522254271025 38.5648982509159 10.420225114781 0 0
159.697941001919 26.2625411926807 -2.21699234785905 0 0
11.0208887363763 10.8217747052611 -2.31005772794934 0 0
-43.5842466638148 13.0080112404794 -2.58622345975368 0 0
199.445558503004 -16.7736141857533 31.6187869421826 0 0
188.805365504488 -10.1819658367179 -24.1901324069919 0 0
200.917733143961 24.4511063214289 -15.4868781499006 0 0
161.629397371855 -23.2040674666095 9.36169829711986 0 0
194.113135619779 12.870283379959 34.504263132285 0 0
4.72468486128662 6.00785490480361 -28.0170174793184 0 0
-18.5590670117639 -7.84807734963501 -15.580212172861 0 0
212.622693029884 -34.0072293265872 19.4278268724929 0 0
207.990166303404 -11.5112982782449 -12.464446618992 0 0
-18.9590538760098 14.2559289341088 -25.0132850967143 0 0
200.526157593045 -24.1739627646007 -12.9905682998961 0 0
215.600966546682 -29.9491832984551 6.58258526818354 0 0
175.569407243684 22.777249314534 -25.4286981665794 0 0
41.0378858433233 15.5584588023591 -9.10997018100885 0 0
76.9295575942349 -12.1688024956734 -9.65235363218433 0 0
186.504910351359 29.0831995770669 -19.5970783397762 0 0
195.624404533652 -22.3912332708883 -15.3697883601411 0 0
-51.0635407691661 17.5917722706498 -20.5709638676882 0 0
145.898663432839 5.6564258873122 -21.1058629718739 0 0
187.521629065968 39.970295582947 16.8091395544145 0 0
-77.6721616850756 17.7648032645158 -18.3889185037119 0 0
194.255516480562 37.2062166641252 17.9491706730042 0 0
132.943871839387 3.60398351781454 6.73480014448084 0 0
16.2707433253023 7.26523293371243 1.77517512001107 0 0
202.064522812727 10.5828230838066 16.2568961671676 0 0
180.047462007488 -45.0645862561517 4.00548264292487 0 0
86.5107415433415 -2.08754982788758 1.76797990956353 0 0
-49.9167019109328 -1.43629839127953 2.33003808433364 0 0
195.255972282248 36.290460432467 21.6535452251034 0 0
137.305893915856 -6.43138325075535 -20.1533990837387 0 0
119.175625748668 -12.9293474829894 -2.47307879099424 0 0
155.391544311603 21.0594788730418 -16.5135779143402 0 0
50.8997011410655 -12.4723792615915 -19.9473105393463 0 0
-61.7733842709181 -1.28950538314186 3.19712967767112 0 0
-6.80207129480126 4.52369071800253 3.77022157346359 0 0
203.094635082119 12.3445216927722 12.4850841273644 0 0
79.0875195522047 6.12566627068006 3.43262372967285 0 0
197.972222781394 6.37454828954697 -12.6959433782677 0 0
11.6476250579114 2.9348903705562 3.59494084792232 0 0
61.7057522388057 -5.80029277023853 -2.49223020996575 0 0
163.980196726206 23.3698540142696 -17.3658051867075 0 0
199.945387193427 14.3284820408869 -13.5774325994261 0 0
149.351063322876 -11.5596462244014 5.013673284619 0 0
189.002483355698 31.5605465038934 -13.2263237977105 0 0
195.014782349208 36.4435863017116 9.55231153319714 0 0
163.937908538323 -15.9612490783317 -17.350371157358 0 0
205.456468665148 17.2799096016046 -0.671799201238673 0 0
172.366822430912 -34.4251726809542 13.0132867498942 0 0
199.211860609206 -12.8154477626234 -21.7304640015513 0 0
188.713785651109 35.3545004516591 -1.31447974068026 0 0
45.6028291089545 4.51917462949657 -27.2972286731364 0 0
-37.1796858263656 17.7259468906626 -10.3803021019546 0 0
211.489002358198 -19.1626101210435 -9.10375884542913 0 0
-3.47322974181158 -2.64781825094809 -27.3926221878025 0 0
143.805230026035 4.35642040505913 8.20935567434235 0 0
125.466494214544 -0.363364036144953 -22.0414633421696 0 0
184.205043384898 -16.6011962193892 -19.8877995984752 0 0
77.8346810968317 16.4900806536307 -4.98720974801268 0 0
170.702304140117 -20.4551463237197 13.8174517198581 0 0
-72.0099052594884 1.58097152981219 -24.0809322924729 0 0
-76.634253031258 -6.26353310459614 -3.48506722492207 0 0
132.936293470586 17.2028616512532 7.61830004143698 0 0
142.956930735147 -16.0396879365116 -16.534503323598 0 0
153.306065922662 24.8353688733867 5.50517297693864 0 0
147.316713926868 1.01608166647089 -20.0648283334963 0 0
181.975773178376 -45.7400993128415 11.1412435556531 0 0
167.037580648136 14.6973209259393 22.9026789980421 0 0
139.994665538183 -12.9607583008735 -18.4826065263706 0 0
201.183584119223 -1.64635674354547 7.22700719835089 0 0
-82.6797440220048 -5.96140803084723 -12.7268245401242 0 0
157.550443372634 -25.6938524036237 -5.08470703660249 0 0
184.666630617318 -7.25899388191061 -23.7531792113807 0 0
-76.895725995835 11.8922049557702 4.6977634150378 0 0
204.410698825794 -31.934078408329 -3.51486129836427 0 0
46.7552112459137 -3.83407765932421 0.0150596457183297 0 0
82.9876510881462 15.9405167835204 -2.06615913477469 0 0
-44.7657435848342 -4.5158993048909 -24.83412323295 0 0
148.6808151036 -17.8066262782281 3.52027924895487 0 0
192.062151658687 36.6257440813949 31.5055986170831 0 0
157.97992846318 -11.0101590250045 -18.2783199860536 0 0
149.794661707827 19.7851336315294 -16.7324279870459 0 0
195.149952076985 32.0753009870953 -11.3077422576908 0 0
129.342469860888 18.6565985809446 4.62765966616583 0 0
168.571204197848 4.96485257138446 15.5118001372291 0 0
116.265858658306 13.1377565092771 -21.0857007589645 0 0
133.204224107708 18.450335144394 6.38300787452828 0 0
203.067851278603 11.1433002435042 -2.70970453658133 0 0
191.883463674928 -43.9124822756973 4.25587525796927 0 0
195.443497010206 2.92197516032049 9.3418385272779 0 0
189.235810374734 9.29389624600752 -20.1459136246184 0 0
139.997625531245 -4.4433220104823 -20.2364578567261 0 0
-21.0662059874936 18.1358617992065 -18.5817117662404 0 0
84.6045808623517 17.1530222085285 -5.39707796394977 0 0
20.0074932910258 -7.42808143951661 -9.3924216047665 0 0
41.7028364076048 6.41537594413061 2.58601430021978 0 0
203.016882769522 -37.6110976532016 5.51739654184817 0 0
197.47179611711 30.6637876213208 -15.026777011921 0 0
155.111387330992 23.7934550593448 -9.15327758965899 0 0
190.519475738424 35.6055342628279 36.2873131801649 0 0
188.205055553278 21.9806401064796 40.7516852498954 0 0
203.15803475159 36.0424557914515 11.8622282480268 0 0
212.623357482086 -17.8697455543055 16.9272318044117 0 0
93.7190816976479 11.9453119715271 3.10697200600687 0 0
-30.5609311576298 -0.951140391853528 3.07359895693901 0 0
-65.8348759336351 5.64201021050515 -25.080222982427 0 0
148.401527621824 2.51788832640602 8.34380369614416 0 0
181.782032104095 -5.39193492549903 -20.6387453621114 0 0
197.039373716127 -23.5131359060866 35.4926250508021 0 0
-2.24706972815587 16.8873699242926 -13.6627598769761 0 0
-55.017034129865 18.808277299844 -9.46156315794689 0 0
101.575764577141 4.83110920648678 -24.4575253347731 0 0
183.955979578929 39.4716594947695 20.3686405287237 0 0
167.330841108584 -0.8031824612082 -18.13629931305 0 0
49.7768888608662 16.7104726419922 -14.9892878308871 0 0
129.226334661931 17.264864941235 6.17504983842426 0 0
177.6878929323 -30.1724499325818 -12.2794057243448 0 0
190.443818359185 0.436969730148873 12.2052932620754 0 0
87.8332644298489 16.1186950139212 -16.5861277925474 0 0
-12.5566451628819 5.80746586339737 3.22035849646055 0 0
197.819724174101 36.2597028811589 33.3635020474832 0 0
134.704759457154 9.12109739550187 -22.0744141344358 0 0
192.084542849273 1.78549420534275 12.4521586579152 0 0
167.512640379534 6.29110396337143 16.0916664852089 0 0
-2.87666137176882 9.5652454585248 -0.876511415135361 0 0
110.780209324424 -11.6246003468124 -20.4438418673927 0 0
76.328955657347 9.22957736484602 2.1843364523136 0 0
150.401602688698 -17.4406543876997 -15.4660510137253 0 0
-54.4468338607596 15.5367481849068 -22.7528469391764 0 0
186.458058606644 -3.50847196076435 15.2294671551058 0 0
149.579724774244 -1.27019863052332 -19.4904149589297 0 0
187.7640143703 -8.94387363441574 14.7937673658043 0 0
203.469120050042 36.5157990097881 14.3479401786667 0 0
185.344259993659 -33.1696415051402 -10.7953789177394 0 0
189.994037828318 -42.1215783335523 28.275322864227 0 0
193.1759662471 11.1587740801299 -18.5387053881434 0 0
194.514873806038 36.5391087601306 6.92531442365025 0 0
126.126335714265 -13.8686855387988 -18.5218797942862 0 0
46.3703088484334 1.30885826180852 -27.0526993402181 0 0
49.811204281338 -10.9340340484036 -22.6813815560262 0 0
133.291823019683 20.6796703130074 1.00214014201245 0 0
192.243799345606 -6.1179608020627 -21.8653539273761 0 0
168.310054786548 12.5451996770988 26.7806602686731 0 0
172.773289188614 28.8265241717558 34.550048173189 0 0
39.8350599310332 7.73921546707643 1.50604964607206 0 0
184.305670506508 -45.7317637056376 2.94529942339973 0 0
176.561657436762 36.2668484382385 1.94792412046664 0 0
162.991043585526 -18.4715979582964 8.74641675625128 0 0
174.69127946402 15.362146204781 36.499963395488 0 0
205.714807958913 -27.7513075332131 -7.95809106027754 0 0
173.289351848397 -36.0437120817978 -2.65527883346175 0 0
196.978026039277 35.6751408670242 7.35347721399405 0 0
209.076205621019 -32.8226795393692 1.17011385284117 0 0
-28.5781475874073 -6.03729366931434 -8.66184853515051 0 0
180.197086051358 -43.8557924908414 16.4794038528989 0 0
128.068935054042 0.600988063157785 -21.9597862361073 0 0
202.804970065772 9.64551382790259 -2.57563351501803 0 0
149.819138975382 -22.58046159536 1.85576303794686 0 0
214.541215087304 -20.5185795952561 13.2558132556384 0 0
193.459224556077 -11.317619706547 -24.0989042146307 0 0
-2.87816523873575 2.20087209405985 3.4808631465961 0 0
165.856170513845 29.4325630462197 -1.01564823201963 0 0
-88.0521993652383 20.923616205616 -6.46083663156841 1 0
200.898349044028 0.397837617037723 -10.1335369277605 0 0
-44.6996532816831 -2.48953125708464 1.24191569895828 0 0
177.180216248043 -28.3023686945829 -13.6674878814665 0 0
204.661268988133 17.194687605319 17.0261131538355 0 0
162.014240726894 21.7062777804374 -18.4521833080279 0 0
209.948155207774 -25.9474671494856 -8.74715150058717 0 0
108.516684349498 5.60718827421643 -24.0123120350316 0 0
204.833152522045 -20.7815147943606 -14.5807279667221 0 0
83.9199886664422 9.7507186589845 2.6640583094512 0 0
87.1457186383455 -5.35886061476892 -23.7251060720441 0 0
200.369208333173 8.80949420859019 21.1093445341103 0 0
205.238071374742 16.3463435542543 4.06310812224361 0 0
167.675170369334 29.4341095608594 -6.28658161929727 0 0
-20.8222892434776 11.0938134601417 -2.26558932047929 0 0
151.895624620273 -11.1066530312314 -18.3405825031799 0 0
1.69199761013243 -6.58506880831694 -9.23531741022941 0 0
-41.9352331099519 0.852584767979694 3.80236543697835 0 0
181.750143345864 28.63470750966 -19.7203634270784 0 0
96.6045760018496 -5.82551257193501 0.185878026143307 0 0
201.946755216955 -12.2142632707074 14.5723299614929 0 0
-20.2078368703892 -6.06718465472897 -25.606319789412 0 0
125.569660359699 -9.96308027892754 -20.2746266905605 0 0
181.002558286724 9.27579716110371 34.6216702272952 0 0
90.5745192564277 -14.4393688638378 -10.5602585736111 0 0
-23.2408874582353 -3.63235853628343 -26.6981507086016 0 0
12.3002551654007 9.19291146950458 -0.643661364304306 0 0
180.170053254855 -45.5479483951458 11.5541446662703 0 0
172.392352431501 -39.716153654324 7.77470704748599 0 0
193.043947332518 -13.9585321333254 30.6729760833655 0 0
-25.5310688455147 8.71067107455617 -27.1818097770422 0 0
149.818836009839 1.42902904572895 -19.9739863495134 0 0
154.917297222568 -12.5202474825898 7.36189345013384 0 0
181.265655789198 26.0768386903526 -25.2825987755464 0 0
157.644676976488 9.37850249284899 13.1827989559746 0 0
-76.5190093561484 2.10075630016898 -23.5968893215658 0 0
202.360885347326 2.51906583880034 3.99069692984294 0 0
163.465590374267 -11.9190284001045 -17.8453854834045 0 0
169.868762905297 30.4510127341398 -7.07082707063093 0 0
190.161270526473 -41.9716583916121 19.9012194424474 0 0
187.776916120578 -44.444152335953 0.726030816465572 0 0
-47.2846071810782 -2.16451839331336 1.44471968846257 0 0
175.26843072691 1.87527361560271 -21.088241678922 0 0
181.883628425604 -16.4660654752114 21.4929220007552 0 0
-64.8620416197773 18.9284411455929 -17.8559935005653 0 0
87.2347795986761 4.47321204567815 3.81865712701067 0 0
190.843378459738 -16.6912798113552 -19.6522239478288 0 0
152.797376521273 -7.7166986442782 6.13699046592338 0 0
209.454321650708 -10.3029662855937 8.49034508383339 0 0
103.051394388066 7.72867324546058 -24.0631356852625 0 0
177.734235920816 41.4155755718108 16.4916713806171 0 0
171.985327638615 31.1873223495331 30.5577756550925 0 0
183.027352403432 40.9247635939525 13.458661217501 0 0
151.355084464234 -24.5687583824815 0.548220362894948 0 0
200.476840974096 37.0476982660031 17.2901815810838 0 0
210.672765125422 -16.5942055010351 -9.35248162178038 0 0
191.478722730139 -42.4300414201741 8.65372256725094 0 0
69.0094452044058 15.9934294908619 -5.56937256174065 0 0
-89.3131529980916 3.7101810308584 -21.8568863747621 1 0
180.067911364381 -7.90733229844124 -19.3795297099837 0 0
-10.4904760463303 10.0298918289903 -1.2754790863794 0 0
-11.6516260724344 2.72883519826964 3.51489002397729 0 0
172.168739607126 35.6989530413656 4.85617339779395 0 0
166.287349267846 -21.6204402435726 11.1725973156244 0 0
137.468177391095 21.0429002492088 -7.84450346667376 0 0
55.5797045686155 0.419336601750403 -26.5727202899883 0 0
205.897706573598 -25.8948579294622 -9.46627830958303 0 0
19.4664655158856 14.2685142626738 -24.4147008655585 0 0
186.69933336197 2.31238199981077 -20.9818610431197 0 0
-17.9637120247889 -6.93130412517155 -11.8418418593385 0 0
183.251706516094 -11.0878741636137 -19.6424741917999 0 0
68.3571485131469 -6.14501501678834 -24.7467385691747 0 0
-62.6363123820901 -3.17090414666496 1.21315233545474 0 0
180.792680238597 5.36801465912006 25.8592983049362 0 0
168.466951744181 -27.3930177929056 11.1896834988571 0 0
179.937395910667 -22.1836406590794 -18.4556871649455 0 0
115.849658923251 -3.89315256057669 2.81672349272641 0 0
5.56564353686603 1.84592180978526 3.67404707771427 0 0
204.992389935403 -38.9219967114189 19.7856209538234 0 0
101.869480875579 6.14501696386794 5.02743903771792 0 0
146.696957647638 7.4063988428842 -21.3153792890055 0 0
172.162305278453 -30.0905572398848 -10.0477524433189 0 0
180.939737031215 36.8538049356604 1.61949581631156 0 0
154.88345782658 24.7940524840655 10.3532786319254 0 0
169.669961606407 25.7453382017645 -18.4697858990342 0 0
172.15641671299 30.0806069577601 32.5733856397553 0 0
-89.8051540371862 14.0534119888726 5.21408479256427 1 0
183.349556805574 -31.7450498503016 32.9830882823999 0 0
186.614055972966 -43.4695469875672 16.6023639304676 0 0
130.970050432799 7.95948252718969 7.61100821780244 0 0
132.237005230994 -1.82760465208147 4.95473603016395 0 0
147.433543795866 22.4613054494235 -7.80795090086756 0 0
186.06470522853 -43.0629240245077 -1.05223676657929 0 0
201.192824731418 -13.547941588438 23.2271618214876 0 0
166.618543781911 -27.7477712491407 -8.49319960185779 0 0
-35.1430108064223 13.966358439532 -4.81707264710202 0 0
142.245408803498 -7.33281598488849 -19.5692554816467 0 0
201.54736804882 -26.5507521538793 -10.7480111717834 0 0
178.614075129847 24.7688540131921 -25.8001966000987 0 0
37.330018197976 14.9767865348723 -7.49937711208676 0 0
73.5354164100674 -8.85847686730349 -5.50146520922172 0 0
148.421003435678 -20.3241600589913 2.31410370795941 0 0
-47.0141750298048 12.3795678044483 -25.0140324304755 0 0
-55.6909439034355 8.79156053548659 3.95087323604474 0 0
21.9304572278905 5.99149572561354 -27.7658739898384 0 0
180.908358376142 29.8352273071597 -17.4956789589932 0 0
