"x" "y" "z" "f" "a"
-31.4982548011799 5.47990988613169 21.7354472751947 0 0
-203.27386080347 -18.3668343851662 18.5592474160568 0 0
70.2700686530376 9.26415468577049 18.1962098160088 0 0
-94.2188575525012 10.9087330417546 -8.35224336177811 0 0
72.4986588320758 4.40959969667004 21.7468456627396 0 0
36.4884479448791 8.43392708207012 20.9346285056072 0 0
-204.695546835634 -31.8607830222683 -20.2590893656718 0 0
-209.31188194727 -41.0725357129455 11.5899525199761 0 0
-43.0786290437776 15.381965783159 16.052328130427 0 0
111.668656349104 7.64165083306986 -3.71840232689506 0 0
-200.994816968041 8.11407837217608 -0.00900152748568452 0 0
-188.771656200221 -25.8815882637308 -3.0305503125893 0 0
114.994755776903 -6.65948578417996 -1.89297831066431 0 0
-203.985034768568 -27.5079247173202 -21.2234823562094 0 0
-201.641647901767 -3.34932094975 -10.1411394978819 0 0
-65.5549440154812 0.105650249811154 -4.66177578889382 0 0
-62.8803458005386 4.0388173171046 19.8165737416434 0 0
-192.191919929162 11.7505712094235 -6.65160689093774 0 0
-53.9276911650202 7.4582270531238 20.1509699291912 0 0
-200.355362268218 19.7591831611655 -5.02168090757425 0 0
-188.837140983464 26.3699344998124 9.5220545179322 0 0
-178.475221531493 12.3647250246866 13.9954550233456 0 0
-34.6946302913038 14.0646181221619 17.7456803531831 0 0
-52.2887528955404 18.5246191303697 8.30650233825549 0 0
-38.9278747765249 2.40978482946546 -3.96842960728771 0 0
-159.699515660217 12.9607039463495 -18.7563673016958 0 0
-198.316681843933 -0.645215480252956 -9.44092340323208 0 0
108.313025684305 -17.7236175822915 12.6365550348135 0 0
-203.950443677944 -24.5932329075863 19.3536404182634 0 0
-39.2573062985644 -5.67246461802161 18.3248612746757 0 0
50.4492919772085 6.01010536508029 0.0610979798852503 0 0
-79.4537541150663 -3.73471449213586 13.933503919636 0 0
-66.2821374754651 13.861986043463 -2.22075681984492 0 0
-28.031563439172 12.2866102215892 3.77342999221794 0 0
-124.368646115311 -1.39393282051184 -8.87043934233055 0 0
-207.318000486664 -44.7299729415353 -5.40682940337164 0 0
-173.118697671381 22.3104611621947 10.2229046836025 0 0
94.6704141435942 -4.46755938838962 -2.06357400091471 0 0
-139.55651340496 12.9024739575012 -13.894059684576 0 0
-119.394431808564 5.95982314586724 -9.91472637203481 0 0
-209.900242023074 -4.09584461055577 -3.43463235896383 0 0
78.882846771109 12.490898474893 10.5818161245365 0 0
-181.39875649887 33.0673065006224 -14.4113289395936 0 0
0.866090869946596 -3.55551285793747 -3.10170969628992 0 0
-116.473030469503 10.2194577246494 -10.1998779799135 0 0
122.205031884579 15.2345264611542 5.10411537143388 0 0
-207.297453366679 -7.4498012771767 -11.0139893800945 0 0
-169.532673737201 35.6720427937564 -8.92440745987322 0 0
106.272124109733 -12.2489820042839 17.9213137721067 0 0
121.213721722168 -3.28227718926068 21.150832939364 0 0
75.9090705901122 -10.2228789237385 18.9772913013194 0 0
-184.93882677249 35.6723584519796 -10.4009337803248 0 0
-199.161099737862 -42.6958099346018 -3.09113352630888 0 0
4.75352771702967 8.6331635487868 21.8680900550812 0 0
-205.424030726543 -45.0089461139499 0.0455015502919815 0 0
-157.547112898303 9.38757464118913 9.20252911400329 0 0
-155.580300469086 8.56725485147758 -17.608869608879 0 0
-157.696524378434 -1.86517637229009 9.095918153925 0 0
-142.818281200635 -8.87893369656808 -12.773626198921 0 0
-2.56773966020644 -3.50593268951112 -3.0336728887919 0 0
-131.060175515998 18.3857744316906 8.77289085378158 0 0
-203.063890690468 -20.9912525348698 18.9254539808928 0 0
-193.068508218523 -36.8544080441426 -1.2827623242491 0 0
-190.69980326213 -27.2169810153987 7.31095573690264 0 0
-123.205684668348 -2.89673394715244 -7.46430278098926 0 0
109.188819652514 10.5498698934311 -1.33721244310136 0 0
-167.944186184745 34.741024148495 -9.34455233603397 0 0
-98.7847488499329 -7.26531654419677 3.05279504013934 0 0
-39.4516956757451 6.17511086623819 21.1854073875164 0 0
134.543276836906 -18.1642121599557 14.039980283907 1 0
-93.9351482837887 -2.12612958291513 -5.32295195931434 0 0
-14.9087613666914 15.5058778843238 12.3290410661492 0 0
-217.264423415452 -7.53199213317881 6.45020785766198 0 0
88.6684587442579 -11.0935230863936 18.5010787196977 0 0
-32.2081122442155 -8.64111635234766 15.0197213631122 0 0
-4.88699066968266 -2.60853922008131 -3.6534570539794 0 0
-178.646330115565 -16.9016155644078 3.36657744392602 0 0
98.3897775908809 -0.0908965123215684 22.0354727921571 0 0
-175.799060118797 -7.61967974423495 -11.098041102975 0 0
-125.985895363482 -3.03022594997702 -8.06695907033088 0 0
-54.5278460117906 -8.8674987591704 8.18484254923979 0 0
110.106956040137 -4.32117423902617 -2.6333336943965 0 0
-193.741436254228 20.6428703090338 11.602598054656 0 0
99.8167146961586 0.77285444397802 -3.25811894416787 0 0
-54.7965470216237 18.6024226750798 7.34326655826345 0 0
-205.606094489934 0.454651353809838 7.4259657399959 0 0
-132.316291687536 23.4353286520758 1.61912775745092 0 0
-101.42966567635 5.28597895490019 15.4272042449995 0 0
-152.244513356732 3.77488063722406 -17.5825461271649 0 0
-230.413646141939 -21.8308762295065 -4.27418605527402 0 0
26.442528844844 3.23267639613802 22.9016887275802 0 0
-198.766537190548 11.1905562102114 -2.09924152828874 0 0
-173.449561391822 38.386851256629 -0.386617944122895 0 0
-218.120377737661 -42.4107225619987 -8.30470314370635 0 0
-184.971743315661 19.5579818399665 14.4744426231057 0 0
-92.4498096994803 16.4724975016136 11.9180925082921 0 0
-131.247946901482 -3.82812357270391 -9.37235967045804 0 0
-108.969108497191 14.719187415828 -8.61065434468676 0 0
-177.415086105515 -14.0657841343102 -8.5224299274096 0 0
-207.686037987123 -8.82449879038768 -14.5129754237664 0 0
23.5429801606187 0.9874299965031 22.8840892667827 0 0
-190.110787852436 -28.6396747328288 0.915176347405408 0 0
-139.667243858966 11.6706955052972 10.3950483112189 0 0
22.4120039049666 3.55672736088763 -2.49998800197421 0 0
-198.758670356814 -26.9839231572054 -19.0203104027036 0 0
-54.0004300177583 16.5012620447393 14.2818622415516 0 0
-172.201807672542 9.61053534912383 10.812151914078 0 0
-182.727986752365 -18.6080743899243 -6.95598118287897 0 0
-194.189275941605 32.5698018355902 5.00762108483479 0 0
-164.030348001843 -1.67754954726415 8.83450052807928 0 0
-206.799449439425 -2.12508637090607 -1.50519715926609 0 0
51.2498285962274 11.9846003897889 14.7668174532947 0 0
-78.0433051125571 10.7179990783646 -6.53906414474504 0 0
-209.31467308166 -3.37873888652434 -2.16621919291835 0 0
129.446760892242 9.47481728735061 18.9912934980325 0 0
107.531796069336 -5.47447124125545 -2.09999802965463 0 0
-19.6658330929272 12.9925629388751 18.8286001257418 0 0
-176.705860516516 20.9231923639133 -22.1398550126338 0 0
-219.316461513581 -42.0512546679111 -2.50550422312726 0 0
-169.868134222761 19.6045626921445 10.0417939994146 0 0
-103.751040356528 5.74893615309548 15.1442411668924 0 0
-222.73567700277 -7.52355282621746 -3.13396969393219 0 0
-189.184974683963 -22.4114293664884 8.31178250833625 0 0
-205.417198404983 -2.44311903806731 -5.20474580695807 0 0
-174.877134119779 38.6871166735617 1.07942066812313 0 0
-56.2369090129743 13.5045614943151 -0.352629613167482 0 0
-207.947482055986 -37.8500290386051 14.8506261921553 0 0
-87.3156830640715 -4.33341530178556 -2.99894969555287 0 0
122.175029780139 -4.26010441598292 -3.30676176186747 0 0
-116.748154245975 9.88905394122398 13.2815565700068 0 0
-152.19501297142 -10.6759875388783 -8.0673413919669 0 0
-136.87565487785 -0.684013104362603 -14.7318468303782 0 0
-169.945970096423 -10.3150824144291 -9.97352299453967 0 0
44.970390020546 11.5231844175509 16.7483519567069 0 0
-172.441751211451 2.93484287649226 10.5032298086885 0 0
-200.374597149497 16.5167266511508 0.272777298378185 0 0
-32.5610306456936 -1.35336153654892 -3.36300836091818 0 0
-188.422433566691 20.2683958738269 14.4651422030151 0 0
-187.790525573524 4.80963659778807 -10.9011435742649 0 0
-153.170965165038 24.6326398678943 -16.0393853696117 0 0
134.356919570279 -7.95305247025933 19.4227668214652 1 0
-115.447713827735 5.2764376789016 -9.48505881734189 0 0
4.01933730360186 8.709546252873 2.4103765011009 0 0
-64.8677899898643 19.5248973450975 6.61891664180501 0 0
-130.728924493737 21.4034664996883 -7.91896369216176 0 0
-80.3966340569678 -7.37812313232989 4.30167812560548 0 0
126.122880053317 -0.832954883075879 -3.74774845483055 0 0
-188.448778907949 35.8546532749099 -0.259385237647457 0 0
-161.139950006637 4.07017774500997 9.23488920498859 0 0
-203.454305798333 2.04814068466263 5.73600201012952 0 0
134.726832336703 1.27862480822119 21.3383996206851 1 0
-176.733105968672 18.4720238666449 11.7444493896174 0 0
82.7306469965878 -11.6031704415811 18.1142731455342 0 0
-230.606030398831 -26.5329021689601 -2.56818664199901 0 0
-229.502706180996 -25.7876117962275 -8.14937595234381 0 0
-163.22757437796 -0.0517054881329181 9.12296084417524 0 0
-131.832424819553 12.0166539509912 -12.5657546549271 0 0
-229.753040896398 -17.8152657799217 0.299836558570592 0 0
-89.8621466520353 11.479955895842 -7.93324988391342 0 0
62.1971005642473 10.1279386178971 17.6215420288826 0 0
-112.179654644581 11.88658828836 -11.0221012095172 0 0
-126.002212783014 14.9921382584137 11.0048402228893 0 0
-200.850482480299 -43.6399198903028 -2.49122851270091 0 0
-122.908197799744 15.2081311242873 -11.3494056720596 0 0
-203.593099932056 1.58339999820965 -1.37759286572055 0 0
-171.447696903355 -5.36948999080647 7.8132090636776 0 0
-168.462624063178 -14.3390704800428 -4.38791300910374 0 0
-195.798994651061 9.36821931958278 10.3051581602875 0 0
49.8521369873714 -8.59117394268489 20.1652508510874 0 0
-58.4705835698688 3.00651913295574 -4.82321810024551 0 0
-83.7334720095284 6.23746700109001 17.7352852067601 0 0
-201.95375876002 6.98694322746714 2.57721480888945 0 0
-20.1657428910811 -2.55234130295013 -3.2173877007721 0 0
-187.095989470112 19.3706631366279 -14.1035841012505 0 0
119.978792059519 1.72725753565011 21.7532245124432 0 0
-35.1815770587022 -1.45206484155528 -3.11294600630418 0 0
-186.259191172817 36.676716911608 3.07711913060099 0 0
-75.6236680514491 3.65901077601285 18.6285306681227 0 0
-49.1071887357783 -2.00106165112595 -2.88320622607694 0 0
-60.0071720712296 -1.60032084794912 18.8251687740484 0 0
-37.0812016026936 -9.12694835416273 6.73264765230944 0 0
-200.45446658023 19.2670654357053 7.56754013062249 0 0
-202.207847759973 22.3555627424128 0.557713213655638 0 0
-13.8830339161326 10.7241439494504 3.38253530311074 0 0
-134.615823055958 12.1478090798315 -12.9993961408016 0 0
-178.895901545626 38.8658704692705 3.10741492769683 0 0
-216.815493683203 -10.4392322300214 -14.9718045431087 0 0
-24.1105833432947 12.8174189869117 5.13588455517362 0 0
-182.852760874208 12.0491387027376 -13.153385507122 0 0
-212.677539892506 -4.77191864946015 5.57066413107375 0 0
-226.08214416313 -33.0210809944599 8.28642494819123 0 0
-192.56039357723 -13.4857176030861 -13.1761441178476 0 0
-195.709727365452 14.5971502031149 -4.7010653640695 0 0
-77.8579669387162 -2.85848789559883 15.3207969114945 0 0
-43.585098526121 -9.07084747247119 7.77749480594645 0 0
131.249063454696 15.5219942897468 7.85659310016336 1 0
-43.7629300329133 8.95073759332468 20.2788314040461 0 0
-193.621012317172 -14.8708712779929 -13.5682715372646 0 0
-172.168661407906 -13.9852659873138 -7.32450986032021 0 0
120.425646176151 12.5963346929561 -1.59518913332165 0 0
-147.897674826854 5.2332829902096 -16.4442398562157 0 0
-197.343141293494 14.6927271495187 -3.76170011663932 0 0
-2.99604936728991 -10.4996680747035 8.55975680163863 0 0
-158.341448993997 -8.41569531597712 4.57632289938743 0 0
-117.830172849024 17.3134961142437 -7.80053680534748 0 0
118.69613069355 10.4901975246436 17.3664841848772 0 0
-106.453392558299 -6.24928346537031 -1.78352867986694 0 0
-201.394854379888 20.9711711087877 -13.5669097424669 0 0
-174.178628398244 28.3883917813183 -18.6491907946893 0 0
-188.74279289948 18.3450531317556 -10.6601830394004 0 0
-89.2970966140776 9.54941719713199 -7.41363304271228 0 0
-202.727338914481 -14.5265441738455 16.7973081003983 0 0
13.8588477840274 9.1879952243001 21.3358266593927 0 0
-183.590524128051 19.7553381614047 -21.6169493773542 0 0
111.046950828555 0.706803695942182 -3.53630646959784 0 0
127.901875004821 13.5251566534014 13.4066794316154 0 0
-214.797169500439 -5.87638147171544 -6.2347618913906 0 0
-181.837254439257 32.9668224506609 8.03699576472157 0 0
-46.7602715315042 -6.98173695854321 2.47482712168624 0 0
-195.193193410494 -39.2232428629155 1.50036700494922 0 0
-132.939958998902 6.82778110212116 11.0916817535676 0 0
65.002491629028 10.7885089102918 4.04184200711859 0 0
-205.118687199923 -9.0352945693063 -15.6833674269085 0 0
-125.740439234766 -4.43027026981921 6.70391106571139 0 0
-227.258852447274 -13.8405408096473 -6.76280910143767 0 0
67.5724442478493 -1.10296344178112 22.396870109437 0 0
3.65807322765211 13.928796687349 16.4148913588037 0 0
106.969874555559 13.9890361397623 7.01838420682138 0 0
-89.9566752846662 11.0294036375008 15.876971824228 0 0
44.0162538619457 1.99290151837355 -2.98562614288878 0 0
-139.590877000716 7.35173254586016 -13.9226612080529 0 0
118.210106360179 2.20391682944093 -4.00377028108286 0 0
-197.453446772308 1.05214085503234 -8.75500766056173 0 0
-72.96236523232 -7.6215636499628 6.74050233292783 0 0
120.23864021407 -5.95490150169031 -2.52936755233223 0 0
-88.2218028978483 -0.284532633133253 -5.57888506938283 0 0
-87.9777112923896 5.49219566010203 -6.70845533775207 0 0
-212.961538771105 -25.2896791207742 -21.7267342218941 0 0
-163.205963657079 -3.72312718751801 8.15508925491745 0 0
-130.468449917978 20.0446412350898 7.15652517787789 0 0
-199.356020085691 -9.68589143282957 14.9192604100608 0 0
-191.869798519717 -11.0057224414623 13.7545990582771 0 0
136.001430880918 -1.53961341622529 -4.09104563419849 1 0
-33.9112555983578 -9.75679561827304 10.3914004509657 0 0
-203.28889736218 -3.46694892536058 -7.48998331273682 0 0
-127.479464999507 4.47058003950027 11.3997451256985 0 0
-197.729773827476 -23.1493363541513 -18.5163593469956 0 0
-10.7790606915591 14.5917780830597 16.3968876960566 0 0
-209.23784965411 -33.4750844947337 -20.0673733283944 0 0
-201.125611707935 0.782207011236992 -4.60696738235667 0 0
-189.428170375868 9.05493102884552 13.5186758491031 0 0
-89.6605607543918 -3.07051114695903 13.0461145290805 0 0
57.2255356650992 6.67730180449799 21.026824399237 0 0
-202.276325539206 -39.3876464448207 11.7166396492866 0 0
-20.4758870514914 11.1458435895856 3.32796518559748 0 0
-191.364068319971 -30.5634703602655 -0.360140838168921 0 0
-211.577346469182 -15.1509488078931 18.0457272674236 0 0
-69.7968715200573 -5.67402232451916 0.0925843227484668 0 0
-28.3723035983109 -9.95897289692871 8.75412434780264 0 0
10.7693271495822 0.331169678498172 -3.90833355869258 0 0
-93.75886736697 21.9992548947 3.92837270821824 0 0
82.2493076600967 -13.7525862969338 5.58817206057641 0 0
-175.106058795521 23.6399801390624 10.6511636092395 0 0
-71.2712299137694 16.5303476184028 13.1991500519433 0 0
-123.635616044706 5.6830279994561 -10.4506553138562 0 0
-186.20304137521 2.92238086532239 11.7075128187024 0 0
-163.560673936733 22.1378853541517 -19.3122864771639 0 0
126.667265744124 11.7504128269547 -3.78054191556338 0 0
-198.896147619983 17.9961827687798 -4.6724517740523 0 0
63.7692517703859 -13.1263340857352 16.5527040296118 0 0
-217.991089848588 -31.2733260120921 -19.2138790017387 0 0
-200.938508155832 19.2842666179512 -1.78283780004232 0 0
-85.9231172282655 13.6223305832553 14.7312901805464 0 0
99.8548156360098 7.89247187987162 -2.09690265516894 0 0
112.038709505733 -4.03503431407221 21.1642552433153 0 0
-164.387094970818 4.53468379453843 -17.5326276856925 0 0
-110.778658108741 15.3776649824959 -7.9346844256382 0 0
-214.920833604505 -4.83006658575578 -1.56024721387796 0 0
92.6531550241183 -3.78774859209256 21.6057367695151 0 0
-217.779159285488 -22.548265168708 -20.2321760528726 0 0
47.6761921643596 11.8699419257209 7.24901354888116 0 0
-127.565553648959 23.0916926616315 1.45123227271248 0 0
-158.291744437626 12.1318387545443 9.35900629867123 0 0
-8.43061248550152 1.8823334778717 -3.54129730348164 0 0
-72.0572643520767 6.38391902829393 18.8684696655821 0 0
-210.910424911534 -42.0246468610401 -13.035899758333 0 0
-186.176757353084 -1.47595323867816 11.2085124688683 0 0
-209.829080518128 -9.54945537003993 -14.6776462712971 0 0
-14.565821128255 9.70786343463555 2.2505729497983 0 0
10.2290416805496 -11.2674980205661 15.8282471127002 0 0
-91.4430663206724 7.54883500676782 -7.2697706356953 0 0
-157.279310329632 -1.34201357863664 -18.7518961412323 0 0
-211.114923073343 -23.0144903290647 -21.936244245661 0 0
-193.903264171814 5.84353426617971 10.9817103517637 0 0
-191.784766514124 32.8123673483588 -14.337932172772 0 0
-43.0132991242828 17.5097601419982 8.84743224558716 0 0
-144.882197293336 0.649358761526335 8.21422022694094 0 0
-197.250301315396 32.5553074767061 -1.01630199638542 0 0
-165.498308435266 22.7226516749777 8.96542482045184 0 0
-10.0492656415472 1.23655078448582 -3.51174406928591 0 0
-74.6642112850552 0.948219375077172 18.1617934382764 0 0
-205.795897385539 0.319123769221348 2.95046556738091 0 0
-146.432804225382 -6.35407867693014 -19.9319776047621 0 0
62.9330521445465 -4.81719068327841 -1.88198700966922 0 0
-227.519361598289 -18.700046627943 8.54565746866026 0 0
-112.640876484539 22.2132699689722 3.00672751833976 0 0
-34.3101395336071 -2.8919755084811 20.7681983703212 0 0
18.0199759751112 2.99887091539678 -3.21558528157022 0 0
-14.9714295760174 8.0401969888703 0.534663777755827 0 0
-63.3149022914531 5.57134062451227 -5.03352745656949 0 0
-195.308147876614 24.5347397154338 -20.7726026152767 0 0
-205.570421033627 -28.7614785555629 19.1202940071645 0 0
-115.486409287754 -0.536167645723817 -7.7418943216058 0 0
-195.030756698734 -30.8787065250912 12.9103393784253 0 0
-25.0116007414262 15.905025033869 15.0842858463259 0 0
64.9885500971147 5.94294188253924 21.1639878376558 0 0
-197.494406021255 8.48262815372471 -4.51833429050943 0 0
-89.777365326503 1.16875948338544 -6.33449959506846 0 0
35.563689714873 12.1249410810811 16.8991258933033 0 0
-201.183948804523 -39.8540111180947 10.4173685754096 0 0
-94.086581354063 -6.39623419374932 -0.379436398904875 0 0
-216.19609093814 -39.4441563876204 -13.4236504972924 0 0
-96.5359550409541 21.9302626333375 4.33115065303909 0 0
25.7017325933779 -5.42684694030595 -1.59890558043844 0 0
-217.35289242242 -11.546545106646 14.3155803845312 0 0
41.4608937899658 -7.65944239291443 20.7460176492675 0 0
-197.144974166643 -33.9621596371603 -15.3146603731099 0 0
-170.697047433867 36.8029775909586 4.47347941711394 0 0
-106.234887653735 -2.292744922627 -6.17870593710553 0 0
-176.413389155467 25.8595817711114 11.1305285568405 0 0
-18.4357559485309 -0.206258376994011 -3.69598714192903 0 0
-155.689278725259 -10.9064938136202 -4.60672712063882 0 0
-87.3706699040214 18.9003581999977 9.79734752743368 0 0
-174.993695038056 30.0932532384079 -17.4551611068974 0 0
-52.9121995553938 14.9080459279571 16.0132019028187 0 0
-206.707923383675 -2.83249582343913 -3.85546099097877 0 0
-161.355610748699 27.7591048750569 5.21398552126547 0 0
-141.257696707456 23.6862781984188 -9.71909218734116 0 0
86.8133920504777 9.15499968723184 0.0719628811533231 0 0
91.8917213294277 -7.38371418088608 20.4475813022997 0 0
117.897841742493 12.9913384351595 13.3988198904098 0 0
3.8800898249733 1.18619180341243 -3.58485560694726 0 0
121.458736309474 11.1724362961476 16.7225959142553 0 0
-114.263233516433 6.93853993999068 -9.51909629720491 0 0
-45.3272356227077 17.6068397610539 8.17207597458818 0 0
-57.3889714993968 10.4412219384678 -3.74603928675704 0 0
132.077472450858 -18.8088229351687 13.1304806138854 1 0
79.1438841947804 -12.7684294391136 17.1385947927605 0 0
-140.58176081158 23.2068848560919 4.03427180247351 0 0
-200.641507231414 20.1461728690189 -14.943217502606 0 0
-81.3167912386044 -7.08866556078546 7.29794213898437 0 0
-102.868655720418 -6.73893171028154 0.206383016968077 0 0
-91.4242043768521 12.2720690261549 -7.52133095640712 0 0
-158.925729598461 -1.44565295687298 9.25368335681072 0 0
-94.8878490513483 0.470831672001248 15.0173974041761 0 0
-124.526009092229 -4.50178399772974 -6.15355104282317 0 0
-151.362488228971 8.25181169687075 -16.7408823672646 0 0
36.2966969085334 12.9716394888672 11.9635345564835 0 0
-106.062773756987 7.10684530161259 14.8878336346712 0 0
-139.996907214513 2.6945540940634 -15.1509839561556 0 0
-223.83638218632 -8.34178992720294 -2.58031486946029 0 0
-199.771178826791 12.6987597719856 0.12352957696552 0 0
18.2165139094951 -2.04549122134115 -3.64307942026741 0 0
-186.40633685024 14.4479804723677 -7.79816011384162 0 0
-134.762836130143 3.30589727911351 10.032846517056 0 0
-221.507312314227 -35.0856881851134 -14.9948825541648 0 0
13.0621628150181 -1.65654665666738 22.4798064265846 0 0
-185.358953018472 26.7925737380758 -20.2638948608058 0 0
-102.434402526372 -1.14976022976233 12.7969196495331 0 0
-216.248782239397 -29.1504851093906 -20.5549252925496 0 0
-195.21450277383 11.1292906743784 -4.85477768639207 0 0
-211.35052994272 -6.87222991315891 -9.35177179234926 0 0
82.9665895792786 -6.52869613702147 20.8418466656964 0 0
-187.730437793776 4.20208143738239 12.0070423795901 0 0
-153.757567804051 27.0404548952442 -11.8005627518267 0 0
-199.071168796234 -11.9332970925904 -16.4965358381659 0 0
-143.740017841292 -3.27880077276281 7.40077306656923 0 0
-61.2732954699074 9.04461385385755 -5.27203175878512 0 0
-112.56584442296 -4.81013409473228 -4.73158161938351 0 0
-182.418426046053 -21.3483719858254 0.0233379906346232 0 0
-165.005971689843 -2.84634091785431 8.32484811339184 0 0
-143.918144250406 -7.73201031156423 0.543477019389236 0 0
-201.11329138375 -5.97937782319438 14.3785876497229 0 0
-227.446626727605 -32.6979926095985 6.09712668723124 0 0
65.0681782075001 -7.96805638581407 0.454167554955436 0 0
-47.5418248070351 6.9214896741518 20.6358083405765 0 0
-101.981957229532 15.3750912439609 -5.84721671294398 0 0
121.546940622 14.0569879676357 0.268992730622383 0 0
-230.038410862556 -19.5334639468774 2.28311997274412 0 0
109.904343500684 -1.57143211930356 -3.17405151523671 0 0
-137.673117350089 13.3064891343743 10.5066905501995 0 0
-125.79184868485 -1.10089935395841 9.21720468901933 0 0
58.3366803499454 -1.1767383434833 -3.10551434827224 0 0
-222.526933105478 -14.1655587785339 -14.5319247222085 0 0
-145.476233909866 18.1535238713453 9.03365028696338 0 0
-187.299991873808 -8.4586019541151 10.6805672904123 0 0
-199.929929566362 -41.1184379451078 7.40303947690213 0 0
-189.916404737591 18.3264833295993 -16.2606658884528 0 0
125.305140922478 15.261013072779 2.1208300272572 0 0
-199.548484231108 -16.4498999999513 16.6337592634901 0 0
-190.458927799692 10.1449837626444 -7.327487528836 0 0
-200.712537206806 -33.6199123730246 15.3286755324068 0 0
-128.087197266948 -2.43578886260426 -9.29324761574654 0 0
-90.356053320275 -5.62927760135725 8.97681176365266 0 0
-180.671969011328 20.805958039956 12.1220679690356 0 0
107.48083385719 13.8118294373578 4.22875833161821 0 0
-77.6090487383588 14.5638266572058 -3.61478141685102 0 0
-72.5348523199252 -7.33859759978891 3.3724925137539 0 0
-176.517274459525 37.4802243627957 -6.39036737507592 0 0
-42.0719221878873 0.981576180700483 21.1048366808034 0 0
-186.94231688783 1.0465029812041 11.625652805406 0 0
-169.137173064943 29.200530232762 -17.212189585491 0 0
75.459007861077 12.5102614036631 7.9275326497685 0 0
67.548756098429 -12.2244237130437 5.31615758118439 0 0
-179.819020560776 15.9512921067445 14.2079324977289 0 0
-186.854281038196 25.1382841110378 11.1849978945689 0 0
-164.985579772885 27.4174603322773 7.68053859569981 0 0
-150.070163328676 5.11159866096597 -16.7890369922834 0 0
-167.463513588547 23.4252854203146 9.32563308605798 0 0
-193.463575955859 10.7762607556179 -4.6682225007822 0 0
-170.223667039124 8.71916725811382 10.5976659888631 0 0
-174.745676730029 22.3183567818156 -22.0707245812456 0 0
-3.20519726220948 6.96972351319742 0.264489921052239 0 0
-104.752543986802 0.0907807845877181 -7.01951355447922 0 0
-193.38698872423 -25.8141019829726 -10.3925349799936 0 0
-185.008676051338 18.3084189999345 -15.6916039717691 0 0
134.176986246589 7.24451409063339 -5.38994859368002 1 0
16.29309089454 12.2193557619872 7.99963076885982 0 0
-203.684152870343 -18.0326602261481 -20.2929882616605 0 0
-163.763670406126 -5.26485486472638 -13.8247029335514 0 0
-176.879371675883 -18.2238410045027 -2.02791045080242 0 0
-208.100967596674 -19.1949682885352 19.4955990236041 0 0
-196.514052360771 3.30486416396859 -7.92192751824914 0 0
53.6165932578192 -2.00109152649212 -2.95223248946298 0 0
123.741758540623 -17.3683963756155 3.24459535348849 0 0
-5.66255663929518 -7.43812741670451 19.7166795124729 0 0
73.7212272443392 12.2505568526877 11.5695361472714 0 0
33.0100686068204 12.1314794831585 17.074689060076 0 0
-108.208269760968 15.1882872844445 -7.5309511937592 0 0
-206.482577390574 -6.00341804526166 -10.1195107130031 0 0
-208.505546233955 -41.4740530753296 -13.4748177073758 0 0
-142.226055653768 5.59130024337308 9.70593313254278 0 0
83.4178928117978 7.30473328058642 19.8987970078999 0 0
55.0306553486338 0.985419708495477 -3.30329494566228 0 0
-114.9235571003 17.5865037791796 9.91030747370472 0 0
-151.728714697238 -12.3267091455431 -16.8987867775319 0 0
-25.6126853357303 -0.433640846387889 -3.62114603288272 0 0
-159.739048440615 1.79743220578974 -18.2327585908168 0 0
-223.214157783928 -23.7014804654818 -17.1854435921986 0 0
101.850289130036 4.94578821677268 -3.44899041464124 0 0
-169.222202300684 4.82615680289133 -15.9732809085654 0 0
-40.5954902300985 4.21762892310836 -4.0080480535721 0 0
-197.705196638914 5.22542825985499 -5.89634543590976 0 0
-225.745672753692 -19.7018300639092 11.7146609436688 0 0
-110.488455121382 -6.909695729005 2.22732653834179 0 0
-191.979557386242 21.5869543826612 11.6938098445811 0 0
-123.355032359963 13.2249057110767 -11.9945498789815 0 0
-205.128911279148 -17.0675281761063 18.6509741281206 0 0
-215.231448434077 -6.92668504604771 7.74855911850602 0 0
-114.036296709514 20.4483520316345 -4.58289913013806 0 0
-175.452555169224 32.5833379632044 -14.9222393725308 0 0
-201.201144114063 3.83361703278558 -1.99392234863808 0 0
-77.8122995088779 6.63512885906201 -6.01553784043943 0 0
-94.7247045007232 12.5792032547272 14.7439798337217 0 0
-76.0400639725329 20.4878439815988 4.08032287901083 0 0
-10.6190588668578 -5.30455520980277 -0.370453297592283 0 0
-181.44141837383 34.8282071026677 -11.7266937406656 0 0
-124.759393954788 20.3207998289199 -7.09917106208371 0 0
38.833504662596 7.86649827674907 21.1805983324515 0 0
-181.190775630342 38.4646688147209 0.432405766597468 0 0
47.802547335219 7.89444966603542 20.7073638783967 0 0
-202.783467048305 -44.3827868382435 0.154313981913734 0 0
-207.994217946305 -5.81485405058072 -8.68103172776165 0 0
-204.937565489581 -5.00334511925184 -10.3240222275471 0 0
-221.475588779349 -23.46299512355 16.1281070822203 0 0
-62.6445056884731 -6.60842799463426 1.50987346521692 0 0
-68.6429367155443 2.64165746808958 -5.51948938523652 0 0
19.1681501089974 12.9389459249779 10.2830644437941 0 0
-80.1833468428162 7.93082280515563 -6.43126487199007 0 0
-138.026083747758 11.124212862807 -13.5662826474787 0 0
-117.794745472444 -2.91653844706368 8.92981407292392 0 0
-133.668617603151 19.57797350268 7.76934009003044 0 0
-108.916861043987 15.8001468035671 11.6603568220569 0 0
34.7771986731148 -12.7624604569453 10.2270538029166 0 0
-115.958000943507 11.9934027888722 -11.3263633024454 0 0
-167.268001234458 4.62498068190909 -16.9704690250559 0 0
-195.889996399067 31.0711650985822 5.38524089774651 0 0
-208.533772270812 -1.04833519057077 6.40002708165644 0 0
-197.910375729138 18.6926041621239 8.93617250021915 0 0
-118.129590094732 19.8881819455922 -5.89732521131143 0 0
-155.018899307803 24.3690398967993 -16.4597370182458 0 0
68.9411852854755 12.0894061559702 12.3598166627775 0 0
-206.812620350304 -43.6001460297452 6.90359135384955 0 0
-158.348303167756 -11.1537227663013 -9.97002627783054 0 0
77.2214910691947 4.27949007691749 -2.20324019947673 0 0
-177.104299721863 4.16416857366979 -14.107549786066 0 0
-179.831789383987 -15.9409254375818 -7.82500886106214 0 0
-178.078751359864 32.0174958630753 -15.7029742873769 0 0
-55.5491501183031 14.6609779743478 16.0440150138297 0 0
-209.239999581886 -13.2181719050848 -19.0364052104867 0 0
-9.50545291743329 6.05503176195176 -1.64201502000082 0 0
-174.478162341226 20.1581595668248 -22.4281759284194 0 0
-25.1096022307216 -3.27856420216909 -2.20236688923556 0 0
-161.735955473105 21.0660612910142 -19.0616985063906 0 0
35.351929086693 -5.01635072522129 -1.72150768359846 0 0
-28.2193646196524 10.9491386110183 20.2374906926506 0 0
-145.876907703488 11.8836597555286 9.77285642852701 0 0
25.6190097184141 -11.8212543050657 16.2346987640321 0 0
79.9611243329839 0.367092527703783 22.2989765226406 0 0
-160.638336379295 21.6883609498484 8.79609785992377 0 0
19.865137911517 -10.1652787843373 18.3424177441948 0 0
-30.7623399206891 -5.23576961442785 0.203371259380644 0 0
-196.505210352569 14.7094695516865 8.95826676011154 0 0
-26.6238116175538 -6.40523065775269 18.9699815646349 0 0
-191.991821749774 31.1966223232637 -16.547005731882 0 0
-193.866584710318 28.1259239459967 -18.8160004646676 0 0
122.201745184464 -18.4775562381602 12.9077735812758 0 0
118.467391291838 -4.39407090210561 20.9219312306824 0 0
89.9497268105716 -6.45111208907625 -0.82285372007124 0 0
132.723315108628 -5.05908899200261 -3.68379664468853 1 0
67.128271517949 0.965342710238973 22.4664711428481 0 0
88.0568580862497 -7.84504759455695 0.134849079746055 0 0
-201.41472338027 24.8559071239975 3.9456864559363 0 0
1.20583305038876 12.4726864880177 19.0093531801366 0 0
-224.587723279707 -10.224013566717 4.88280814482995 0 0
-223.418901901298 -38.6902958949305 -9.83545433068889 0 0
-1.50350476493364 -5.29677606468929 21.3223674300812 0 0
-177.655715139059 -6.83530521269883 8.17755089277252 0 0
-179.802589524745 0.653851874797653 9.84504909384579 0 0
-191.825909622158 -28.0500640609551 7.26468220236409 0 0
67.5266492210556 10.8698055207022 15.9777527951563 0 0
-122.343770809035 3.85845053780782 -10.3460153046481 0 0
-155.171673929562 27.4386820304593 -9.73494129778063 0 0
-196.626230107714 -9.4510127378177 -14.7583646258474 0 0
-77.5610029018236 1.56572681598304 -5.59828208702836 0 0
-181.008157887282 8.35814337280182 14.0716530220087 0 0
-25.2115384056063 0.26354866235955 21.9689468357098 0 0
-122.695987536582 13.9671077569817 11.6273907881243 0 0
-211.46231305911 -4.52733157283927 -3.97799804964599 0 0
-22.8618082253277 16.050878315601 13.2121713403853 0 0
38.81260531099 -10.7761584360338 5.54419873452687 0 0
-219.886292460966 -42.3114076804376 0.232747291822302 0 0
124.702848080231 -16.0658387933972 2.00786845962245 0 0
-196.5069872036 32.523618533955 -10.1839589974067 0 0
-149.941142836921 5.6756313237294 8.97632933247658 0 0
-142.694318106974 -0.397474111775655 -17.2549640693974 0 0
-170.594066580081 38.1857945489781 1.38837171575713 0 0
87.2751535297862 -15.0001484986818 14.9746725082966 0 0
-212.135818976796 -18.6423967605727 -21.095259105099 0 0
120.695161403087 -11.4331067593543 18.3022935143913 0 0
-182.848344772231 28.836134425648 -18.599151056284 0 0
-80.9288667331245 -5.30055657232894 -1.2068873459295 0 0
101.763975520853 11.8949818558164 14.3201030875717 0 0
-209.148213148948 -14.8648916860522 18.0934971239912 0 0
102.433944055689 9.40945761408443 -1.38823638737211 0 0
-176.682664124964 -3.13973423832826 -12.4389950347031 0 0
-147.796560504086 -10.8969968883079 -9.17274811584817 0 0
41.2933336641383 -12.4008060131152 8.34975663189027 0 0
-215.389836985018 -11.2202494204468 -16.2573633154976 0 0
90.5373277990987 -5.17283193116008 21.2500435775466 0 0
-24.7138462249316 -10.092856230198 12.6389377845727 0 0
-202.730992233278 -4.37976893049567 14.0268303583418 0 0
-123.940176564577 -6.75356461258182 -2.56770406391338 0 0
82.4425863549242 12.5974533987745 6.7005439124324 0 0
-81.1179319240399 -6.04693704067382 9.8312561096409 0 0
-199.342070062622 19.2573657661045 -6.32475132508008 0 0
-59.8807151421467 -3.9282589534609 16.9490994850335 0 0
-166.958419030111 34.1037515919988 2.79769766579806 0 0
-196.532122883596 19.0479784912288 -20.0158105725139 0 0
-104.651065534551 -6.82742685409404 3.99832286136548 0 0
-84.3080995102345 18.2784472680903 10.6002428874439 0 0
-184.730867842018 34.1396672173081 -12.8981667040223 0 0
-209.017870920067 -44.8162791867587 3.98256873993327 0 0
-198.671728304866 30.5255445929313 -10.2752100751844 0 0
68.4640379160008 -8.90909810487643 19.8549988951081 0 0
-219.711186383898 -35.4484119172762 13.5205818692707 0 0
-108.133258636884 18.1032522301459 -5.54784491382174 0 0
-119.142189830746 13.6979871496638 -11.5467841245094 0 0
85.2320604826814 -16.1012061586734 12.0655936197387 0 0
-130.987773085652 19.4456604866881 -11.2517774560306 0 0
-175.303576628492 8.70298132123017 12.214456681658 0 0
-197.820356089234 6.87998963993773 -4.88006263580106 0 0
-129.889219837298 6.52329493187475 11.4569216686254 0 0
-179.77453743948 14.0167606298955 -19.1443259539125 0 0
128.186931720092 6.93168838720737 20.4809508644137 0 0
-186.497361355336 10.9958191411516 16.1700670776582 0 0
-139.501911134569 -3.57471796295851 -16.5110588926137 0 0
-195.008997125221 -39.2271481750402 -0.666137725953153 0 0
-184.109746312973 17.7337742327238 -20.8512706532523 0 0
110.965151095596 -9.37062286196291 -0.300746860902951 0 0
-220.693018871453 -6.59937043715927 -5.81545224519018 0 0
-130.009265466448 17.2396016497225 -12.2725600586703 0 0
-120.301682753604 9.41134604776773 -10.1628255984096 0 0
-196.58188048505 27.8738042762093 -16.6553739234667 0 0
-120.134185615546 10.0594373664709 12.8329020969087 0 0
29.1385449974793 -9.96058534670012 5.12946264971416 0 0
-89.2761064719216 5.95645363332855 -6.92949198120776 0 0
50.7034115414202 -13.096413230577 9.15307132679154 0 0
-161.416417605231 -8.8774928519573 4.53647266657702 0 0
-20.0163761201214 4.430938123804 -3.07100828639852 0 0
-146.142821316349 20.2745493156712 8.00598072259156 0 0
14.840522473165 -8.64471986357447 3.71391683417084 0 0
-195.817052154633 -8.96588994222007 14.9485844753584 0 0
-140.106260543878 21.1315231493026 6.6829792307944 0 0
3.24906468025195 12.4121501168761 7.55998693653757 0 0
-227.989927047825 -14.9456568575105 3.6759068778482 0 0
79.4587052139503 -7.54519252174625 0.0304026125677796 0 0
40.8402561035835 10.0512887930547 4.22951663102744 0 0
-42.8077915116524 4.64626438386962 -4.09409098038824 0 0
116.163256819177 -5.67948201544417 20.5823115898811 0 0
-160.337738704555 23.6104405001588 -17.8407807367775 0 0
-151.012728067635 24.3496770671797 5.13531436001294 0 0
-115.972484404232 -6.61492663793437 -1.85740064630687 0 0
46.3664907805502 -11.1416835416711 5.53535289453045 0 0
-156.10669325709 13.1123534019361 9.3742019909069 0 0
112.672016600067 -16.2631320721778 3.8696657843911 0 0
-152.952561144629 -13.4381635847115 -11.8179177367101 0 0
-206.725573259908 -44.4265165406702 4.65542723787811 0 0
-23.0299987184118 8.38028061731346 -0.0832805665587565 0 0
-182.211030187327 37.7958765408936 -0.884561478891493 0 0
-176.56164027917 36.7959120262408 -8.26077158631397 0 0
-185.43093948295 32.3430629467324 -15.4032658631578 0 0
-15.0828769507055 -6.53484983406463 19.8859173863147 0 0
-134.551309103123 18.5928940087068 -12.9541641048734 0 0
-0.857889400783509 4.74606265364628 -2.46017893809752 0 0
-8.33870151382158 -8.21211476229049 3.92506309835092 0 0
18.4471572194487 -0.599448670113387 -3.79227515474181 0 0
-110.925817802841 0.825399267388325 12.6518124306641 0 0
-22.1444126667734 4.10628684236013 22.2863648176173 0 0
-158.966674551362 -5.49152816560076 -16.3803460324385 0 0
-193.680307383237 34.6872397280415 -2.32526566871354 0 0
-68.9146827568754 -2.08468042115948 -3.23462805386071 0 0
-225.747751118202 -35.2732810781769 -10.1683163466178 0 0
-99.4447523590235 21.8934981528825 0.374136491799146 0 0
28.5430610338339 10.6566356715751 19.4521267237854 0 0
-107.137458954225 -6.5264454919965 4.74511553464318 0 0
-202.572932797653 -0.71685286699024 11.4337731294568 0 0
-170.507540848792 -11.397915570073 4.59047302982104 0 0
99.4092268467897 12.3190677929699 2.22977585755566 0 0
-213.488596692683 -27.33511867434 19.3435984735496 0 0
-169.353801824764 37.2212944095374 2.50302206015459 0 0
120.059334149306 14.884147331299 7.01227938584293 0 0
-192.709841039606 -34.4584327662882 3.83868479420656 0 0
-165.988906028369 -1.67943784623514 8.71810494362409 0 0
-200.108823504847 13.3415796023689 2.12807074820613 0 0
-203.734454449041 -40.4937194480513 11.0555163374107 0 0
-87.6535458452434 3.92250350258049 -6.48972254389819 0 0
127.722462519879 -11.8764965002014 18.151565837746 0 0
-228.420190957518 -20.9781080964013 7.95329856604257 0 0
-205.97068506687 -28.0071928485832 -21.5150127682012 0 0
-153.118306096273 -1.95220712083366 8.77521415714612 0 0
-185.138061097461 30.1778723703653 9.03503849148397 0 0
-194.38140872076 12.9221802137762 -5.15486629664614 0 0
17.7215975477865 -7.0814653333057 0.846601359656957 0 0
42.7309215301481 6.78473045438922 21.5532297156653 0 0
-207.509906499039 -42.9803765317812 8.5119393644764 0 0
103.122890751524 1.76470657190268 -3.56883548283289 0 0
-179.954004295088 7.76494929304652 13.7267262097735 0 0
4.20935292078956 5.10493518879219 -1.60106720738417 0 0
-211.214095151406 -14.1454405494196 -19.5683211503669 0 0
-176.212478048909 28.2149434549129 -18.8539440129344 0 0
-19.8668135151852 13.2878579312206 6.5031983044768 0 0
114.912083705001 0.883211546951202 -3.64764375445808 0 0
77.0596923769115 -1.49080641989017 22.19446373972 0 0
109.681130893814 13.8902494311907 3.79628728626313 0 0
131.050586769754 -1.25114240864836 21.1783714987965 0 0
-177.046153031638 7.36284161930212 -15.3513832969915 0 0
-185.677691362554 36.1439592964858 -0.291400523852461 0 0
-191.248234315027 1.62565041479366 12.0308881978196 0 0
-198.373101176986 19.5672139746035 -9.87433084157181 0 0
-67.3451796121662 18.43967178776 2.41684590660218 0 0
127.694657525821 15.6518270542108 3.47958823995935 0 0
-101.304876694792 21.4114818642513 5.50677241759548 0 0
27.969332884115 12.0848914293303 17.7024723424768 0 0
-201.742946652777 20.9082880826341 -2.66071298354798 0 0
8.98709362410377 -5.37544848999213 21.4947795754572 0 0
-147.017043166103 18.110860891316 -16.0795621326145 0 0
-177.364652226554 11.0852083621245 13.362156982026 0 0
-126.856131123464 17.1936621569677 9.78223685054522 0 0
43.5401994079763 -1.39962180798411 -3.0702174980368 0 0
-43.3958796418293 -6.59664419066958 1.89764548218291 0 0
-20.4277914410527 15.7929106824571 14.4482545807236 0 0
-219.688180502773 -22.4864164473687 17.2213688672599 0 0
-93.6244453581867 20.6479415519216 7.48224862965868 0 0
20.39650498172 2.27336927826963 22.9489287251435 0 0
116.29098772402 3.93596932924273 -4.29676298675547 0 0
-163.045744642682 27.1411408359881 -16.8832061633848 0 0
-106.136633274038 19.8608166743702 -3.98913085566832 0 0
45.5282273468101 -13.5500090296604 12.6168875706061 0 0
134.046802367699 -12.449982626355 -1.17021415538812 1 0
-175.574502164063 35.0035836364205 -11.9765587417436 0 0
-95.5408423884641 -2.63196920198085 12.5466130405751 0 0
-162.175046023388 -8.53763988116424 -12.3828615360588 0 0
-206.188533740846 -5.07086436317934 -6.98267955011292 0 0
-164.088171196213 33.069043742073 -2.39836180771466 0 0
94.801085481633 12.2956246882778 2.9270581583079 0 0
-180.632257439995 22.604081401384 -21.4429332948035 0 0
-91.3582994785598 -4.05779171019233 11.4147680023853 0 0
130.289830028358 15.5150622617785 0.136348084598552 0 0
27.8883871762058 8.25553779482747 2.37709687685033 0 0
-205.399371283199 -26.4840096202357 19.4396473042244 0 0
-204.420267458418 -9.88230244557107 15.4631821357481 0 0
-151.358730646598 25.6362335624276 -14.3179922802772 0 0
-188.666131006492 -20.6745882460019 8.70129749505983 0 0
-56.9161288688938 18.4136599535744 5.95988094370246 0 0
69.3181010813541 11.3491449428569 4.65424001342646 0 0
-128.866644847259 21.3196866935771 5.22759767154343 0 0
-3.1145570424634 0.268502475126809 22.637697720813 0 0
38.7617827916378 0.730127928733861 -3.17538658674812 0 0
-146.106299622388 22.8749615170544 -15.1296359111296 0 0
60.3063431048438 -7.83111480915739 20.5069028528713 0 0
-222.764472244211 -12.5875665001235 -12.9726129277048 0 0
-82.7418432148039 11.6050590804592 -6.94271981567492 0 0
64.4011058087286 4.64170090504512 -1.55200739570449 0 0
-221.096696357625 -36.9031277160859 -13.7083217385272 0 0
-154.298324109377 -11.0919831326245 -17.0567191881763 0 0
71.8971794337541 -12.4149588757515 5.06290708460791 0 0
-160.410000861474 -6.43155260610677 -14.6081554326184 0 0
-199.229789684196 5.89040279985409 -4.11766244694532 0 0
-51.9752317108446 10.8956677485223 -2.32514965877817 0 0
-229.970763349103 -18.4094373213714 -2.19487559536592 0 0
21.5728915311403 -12.423468841002 12.1818210654663 0 0
-128.180009208802 14.6952371985173 -13.3956593153658 0 0
-200.980384201592 29.0264145062553 -6.81089631405829 0 0
-188.57730489996 3.36341487627571 -11.128313154577 0 0
-193.317211562423 34.3592446031426 -9.08573519480292 0 0
-195.650516202329 24.0373985189992 8.27736876427298 0 0
-60.4121570777492 10.4705606489383 -4.25688205857585 0 0
-0.909004765623567 -7.33318143433075 20.1122054117651 0 0
-133.312064221572 -3.27569605600391 -10.7325712642026 0 0
-223.250267216407 -37.2814641998223 -11.2035812677903 0 0
-185.61753016121 28.2332523832666 9.90420316552142 0 0
119.364832498623 14.2517893452206 10.011542738209 0 0
-191.740779171305 20.1166858417566 13.3362312563561 0 0
38.9930937657793 12.8549944217353 13.1050299454372 0 0
-21.707031724073 -8.45852400327368 16.8364215605556 0 0
-211.508052323113 -42.8818349644767 8.94745393492913 0 0
-49.5080261611713 1.37350342676457 -4.43831184489366 0 0
71.9199352664783 6.9638006624202 20.3644661455544 0 0
15.8495570938854 -2.37506244996493 -3.4763462756466 0 0
-186.154436377464 34.9676521327115 -11.7414806317986 0 0
-118.82815247426 -6.80262259835706 2.56071353093008 0 0
74.106153379485 -5.41976882252501 -1.34467569298321 0 0
97.4908681082335 11.7805080437039 14.2838006957544 0 0
-228.321673557285 -15.0155372440176 -5.04988706727614 0 0
-107.016952131004 15.0957820329485 -7.02285699785551 0 0
-190.839258868561 -9.48200377499112 13.4524917433957 0 0
-159.017202024045 24.8070122354563 -16.8576168418189 0 0
132.387890576094 14.0187259420177 13.0494152291713 1 0
-79.8327383925088 5.09376116037248 -6.22312161052869 0 0
-195.536536033162 33.8412746208305 -5.5249412902257 0 0
-190.945674832614 3.06730906942894 -10.6845297487885 0 0
-86.7576465972747 9.43453966720875 16.8073347317652 0 0
-205.760727369036 -5.55460270616486 -6.67649523108435 0 0
-179.141932603351 37.8696952442192 -5.31467443207993 0 0
-65.5908061325463 8.63793066379486 -5.45696666277971 0 0
-153.306532500062 -12.6847632784044 -15.3446900189531 0 0
118.926858684291 13.8564522697733 0.90399695237405 0 0
-84.9529384359134 0.963314684751214 16.7677987942279 0 0
53.9865338100183 -13.1464035645806 15.9200959769852 0 0
59.1699007957828 -4.46620784411691 21.8567214008731 0 0
-198.992877036788 -7.55902528751551 -14.3412792671354 0 0
-120.912338433579 18.309281185124 9.01259863857171 0 0
-198.983806283183 11.5170829365419 6.90519411994978 0 0
-81.0557804246342 10.4778379272101 16.9571973892163 0 0
-124.599757930797 15.7567029648833 -11.4695649449807 0 0
-193.55427073769 -37.7124397705099 0.412068620308647 0 0
-196.36001182427 -2.15013943730545 -11.1595502632296 0 0
-5.65880678459561 -11.0692787417555 10.7054762639985 0 0
-206.91135623224 -0.0982828243989942 5.01351222011974 0 0
-182.428566391405 -14.9996384925082 6.78882691387133 0 0
67.3770329440486 4.65566506190438 -1.61066788055568 0 0
-228.5067765584 -14.6790075608039 -2.38468080737965 0 0
-196.485382232951 19.540591569359 -21.2445005827871 0 0
-123.038456632592 23.0232515410788 -2.37791253104906 0 0
-215.327680570472 -44.002130841506 1.83794451466563 0 0
-165.637318867308 29.721220175214 6.21697689708881 0 0
-209.441577203812 -23.5494737812354 19.8770067372214 0 0
-179.260006129504 -14.510558660103 -8.64531643703866 0 0
-147.273141855502 -9.21173089130046 -6.6853403212037 0 0
-191.416895106913 7.49289274004426 -8.63020617736125 0 0
130.490566559785 -11.61446171519 -1.06522691845362 0 0
-207.370143573144 -32.8153618234337 17.879420433356 0 0
-185.388913737403 15.1490887716897 -11.0709406526958 0 0
-82.0739245146706 -4.38725707719748 12.5075686594474 0 0
-228.654468566347 -19.1602754796092 6.49699776035369 0 0
-81.8017898130495 9.91474366846397 -6.85111833476646 0 0
-187.34321017371 11.6852040682872 -9.32477283453047 0 0
-130.229290997347 8.5166173598138 -11.9023997703949 0 0
131.502447135698 -6.6360864195041 -3.24460188314741 1 0
-202.852599245705 -40.5993501748721 -12.2370960931049 0 0
87.5436657620118 -5.28745749258165 -1.50629828891522 0 0
-197.238524338394 -17.4782195996621 -16.1956471881883 0 0
-178.142662059559 8.9068804971472 13.1131364809822 0 0
-204.995231166849 -1.58353013114127 -4.03402588050215 0 0
129.081112940241 -0.770286103142371 21.3355278111866 0 0
112.562621323054 -8.00024590783382 -1.06066922762618 0 0
-18.8316855757329 3.19717766791858 22.4252960787615 0 0
-196.004631841747 32.5040577047815 2.48391843042358 0 0
-48.7714787971326 -5.33118808915178 0.120085848844071 0 0
-186.034608551483 -24.035375369828 0.697624165404742 0 0
-121.834557811154 4.31108079612662 12.2327473544027 0 0
101.425583623669 -0.166662984885741 21.9997667278039 0 0
-177.089404778446 8.38663498256388 12.3982646896832 0 0
-1.39145436199143 -10.2847399910353 16.5096170814382 0 0
130.410948928532 14.6599981143906 10.9012868817642 0 0
-156.178529517879 22.3576555530161 -17.0797386629897 0 0
-92.9068799589993 1.25575129336132 15.6431745366521 0 0
-200.579163801863 16.4743338585161 2.79203885419317 0 0
41.8602085035879 -4.74946242991811 21.8840061452469 0 0
12.8351891765638 0.0372109312443342 -3.91167685545754 0 0
-94.7156084043549 16.3911589925675 -4.60392595193818 0 0
-56.3294763067347 7.58864953211655 19.9295495167985 0 0
-215.862110801523 -24.6462568339544 -21.0796468605455 0 0
-206.196562200878 -42.1446037752138 9.63731131993606 0 0
-218.716034154476 -40.6407940620631 -8.96477009620199 0 0
111.040536393029 11.0715433134538 -1.09400124638263 0 0
61.0376090314708 5.21320282616553 -0.943993112625414 0 0
-134.98639456384 14.3284902994847 -13.580276560326 0 0
-192.819030105549 34.9113171885556 -7.2827130763283 0 0
108.535527590946 -0.351251547655283 21.9074544962366 0 0
131.269940572142 14.9169966607857 -1.69986380761277 1 0
-193.930059751273 16.3822684718204 -7.78105641978041 0 0
106.645058038378 7.3458708727889 -3.26438817850279 0 0
-77.9922972295175 17.5522320989606 -1.07934794071624 0 0
-212.247301534855 -3.43295784218989 2.96656487987118 0 0
49.8317862460969 2.81955559270977 22.6066393354396 0 0
-198.675786425563 -37.2529496225017 11.2693103613283 0 0
-196.575361201983 -15.7507887377417 -15.6460656332698 0 0
-95.870882822081 18.0995948726151 -3.79613373230861 0 0
-171.231078391013 -3.46197477736081 8.1063874870335 0 0
115.558748701613 -3.29842590145985 21.2951522835714 0 0
-38.7495339207211 11.7263944519793 19.3286249591285 0 0
-162.072896196774 -1.78347036959587 8.82982926267275 0 0
