"x" "y" "z" "f" "a"
97.6706216282331 -0.776386698682712 -0.28014125241173 0 0
-1.44859600590903 -3.84555493568845 18.7259025775545 0 0
-114.328360096448 -0.0168923969651557 10.4108514080036 0 0
169.184617146973 5.21716497193509 20.5538132689612 0 0
15.1358041643975 3.10737845037527 -3.73333594344162 0 0
120.279558448344 10.0904837184938 21.4822864557534 0 0
187.455666567031 8.10187877669653 -19.8831991138 0 0
42.9465869678376 12.5525693829059 19.186575745925 0 0
0.146323305124588 1.64015047619339 -4.07171396281888 0 0
186.704590059074 33.005527365676 -25.7519783846714 0 0
180.768481192988 -19.5661455392006 21.2768105696858 0 0
-26.0682206336271 -5.17690024450007 5.77276742204711 0 0
200.939398345214 6.36107624398995 -7.38745738529088 0 0
129.983442110072 -11.4848732368996 1.01709802701758 0 0
204.707221877271 -38.191159251855 -12.6015849297484 0 0
-48.5206997585394 7.18335666936992 -7.37875160530985 0 0
189.478000055831 30.3793010874924 8.41867585771158 0 0
194.96015981951 -13.5072766697416 -24.9602730110423 0 0
178.06461888184 19.1745312725776 -28.835824443458 0 0
117.35319745653 2.97273218709284 -1.47657346015302 0 0
177.07229732283 28.8707673403045 -22.6633449749409 0 0
202.263153168304 3.39855990742628 -3.22035755424175 0 0
187.712396818789 -37.0208309416448 2.65272460448913 0 0
-20.8248776914798 1.47015221406963 19.6464415598329 0 0
11.6438764865647 17.4350828525449 5.20555082757622 0 0
200.513594576942 29.5506397899274 6.93915467144985 0 0
-32.2643125024342 -0.580494687077634 -3.18214598202473 0 0
51.9292074957359 10.1314520735735 20.8840757220368 0 0
-59.8262349588376 9.6487798367086 17.5116345474396 0 0
-129.311114188338 -4.60698769843665 -10.9938301024494 0 0
181.622533827769 -39.2745608993183 -11.873900623151 0 0
208.363483646636 -27.4023112137185 8.98398337648035 0 0
83.963701865792 8.66893215054296 -2.77986496714165 0 0
206.488066763575 -28.0162716912111 8.92923959590799 0 0
-101.790424387279 5.07043101305841 12.8344761567609 0 0
187.702702462692 33.6954913755155 -24.91359766241 0 0
202.134517052543 7.90585113197321 -5.92099454514209 0 0
103.611781322533 11.1383200227129 -4.0668061470421 0 0
-91.9875675417571 19.4957669326529 6.89134498859383 0 0
173.752463401276 0.774205043908177 20.0797382037623 0 0
203.504881292633 12.0642580015262 9.82590590967383 0 0
18.4276792559168 12.4401530790328 -0.0543383991762966 0 0
80.9072445735888 -2.40967608397916 21.1757091477309 0 0
-83.2013631956507 18.9170935526754 -6.14689283688433 0 0
-75.8476793230343 19.9059836050006 7.35499662502487 0 0
112.455401473842 -4.88373285394954 20.5324074407538 0 0
-0.245622860133168 14.3704362342756 0.970274414822425 0 0
-111.90688679141 14.588199528609 -13.9665461186917 0 0
-98.2487665335168 -4.30396273978852 -4.31486682305522 0 0
146.047841493295 22.6447202682795 -2.51768615039504 0 0
162.947446793724 -21.4341972386232 -6.06295310377975 0 0
176.557179391398 28.5717266418855 10.1547741748206 0 0
-15.2172525721429 8.69778864228232 -4.74741673579699 0 0
174.893594808631 13.2143487868228 -23.2111239535634 0 0
92.892041182852 16.9843846589149 -0.925682307607357 0 0
-83.9950962298323 17.5485746268267 -7.84675774392792 0 0
172.001542828048 28.2336300485454 -15.8863265212105 0 0
163.238804984032 22.3105968357448 13.226374503363 0 0
-77.7470794830032 0.1580902826619 14.7307383510867 0 0
-40.761741979166 20.1148109463587 4.58916196704261 0 0
201.826354857712 -34.9957063036903 -25.9269040316223 0 0
165.445019594204 21.0700196160455 17.4687198286892 0 0
204.007315357025 -27.323585264292 -27.6207607533646 0 0
184.136156547911 15.2595707882361 28.5599290071459 0 0
-81.4338755605335 5.7985308143975 -9.59109855549055 0 0
-80.9015598051583 3.47888999234326 -9.09872359542564 0 0
201.259073473143 17.7698663339478 -23.5810195274463 0 0
192.781526098386 31.6718942271262 2.98967399767567 0 0
24.8453296433541 3.0438222780264 21.1372331127408 0 0
0.425566197654345 5.83110680431303 -4.42271100729988 0 0
185.817273522979 4.99352174787877 -14.2767004702839 0 0
138.049235806828 7.23609367069485 21.9394588943728 0 0
8.20275161990356 -7.78548845540117 14.564559470211 0 0
110.714418272165 -8.85912176299221 2.53098490770766 0 0
94.4188369814913 10.5980113674165 -3.76276660767804 0 0
-22.9556666016071 -6.29366859806759 13.0516615065992 0 0
-86.6769119988058 1.95418189893414 14.4090999906952 0 0
198.097684994922 9.52551424577458 17.6266285397674 0 0
180.519788403942 -36.5315735644763 2.44888985833595 0 0
203.194922689376 14.856126121097 -14.6263602455371 0 0
194.466742242392 -37.5723429224903 -19.0929530786826 0 0
-69.2182217546611 12.1381068256108 -8.81776546850671 0 0
146.785592753208 11.7077282498607 -6.42398667446234 0 0
185.641556296118 30.4671523051961 -28.1317027445816 0 0
181.288235227755 -31.0937399431558 10.9682744167983 0 0
-38.8674529633108 -5.42828307957007 11.618862657671 0 0
56.7216867976153 -4.69320639419433 20.0023490080867 0 0
193.878457381135 4.86318614132867 -8.40528324554799 0 0
182.403016131832 -2.33456599761881 22.898641329089 0 0
147.999164644759 -7.76138545355458 -1.65292722734208 0 0
190.996562803606 -21.6385819950309 -30.0651767881695 0 0
200.93039302042 -36.9290943508584 -10.2757018800763 0 0
134.654883272943 13.8671867336933 -5.71537487499605 0 0
163.644036149671 -0.951754979588223 20.4426995001663 0 0
-57.9542069460267 6.64715687799153 17.9056479802301 0 0
199.875845816102 -7.33046597906537 -5.52038780060106 0 0
203.053200055871 -33.5497726463581 0.775485576619824 0 0
-4.52916009649221 13.9884136566707 18.4125774915309 0 0
196.472603004554 -34.2112737110083 3.54681470861852 0 0
189.178760937588 27.2623159492255 19.7945858420109 0 0
169.927357058205 -25.2280535267159 -12.000154565546 0 0
-68.8796433871284 -0.121856874925111 15.6718238518024 0 0
176.506013873273 -20.784492983288 -17.979068265772 0 0
51.4257896099268 0.481099804020585 -2.02301538236356 0 0
-126.758540261127 -7.82124139632185 -4.10901777066106 0 0
170.888973405872 -15.0274922368496 -10.6526209116295 0 0
213.167023838539 -23.6864802829829 0.44861850700314 0 0
138.972257386839 19.6606797553627 12.7547160511977 0 0
-103.843244720583 -6.01291867300854 1.70440183368827 0 0
-123.37428155868 11.0558659534874 -16.4458836968187 0 0
181.493412959393 -18.5333543648928 -24.7183713093101 0 0
27.3980734012256 -8.91351126205331 13.3203210740117 0 0
203.040124542395 28.7780505877151 -24.8340410152161 0 0
-32.350393963734 -1.96966751270664 -0.935895442749369 0 0
197.016730945139 -24.0268888459425 -30.1409658105939 0 0
147.200063442489 -10.8349019414789 18.9551849253184 0 0
-29.8551662023536 18.259925468384 2.8700074021444 0 0
190.249453286213 -1.09208676252719 -7.30204305742483 0 0
-72.1684454445421 -4.86235460922949 6.01064696274816 0 0
178.575711014069 32.1042475611161 -19.6075908600236 0 0
-122.506805752104 19.8221306821729 -10.4703903623986 0 0
194.303733467794 12.1756753873874 -25.5872067659198 0 0
166.973281377935 -24.0290544253597 -10.8484462123581 0 0
194.654633470257 6.13731018124859 -10.1026473914358 0 0
187.956971744066 -30.9645530468359 11.8823816724511 0 0
-83.6079714319803 4.25270070903109 -9.46478282595843 0 0
160.442573782738 14.2044126802583 21.8927398024864 0 0
126.026799277463 -3.07440067628836 -0.751737522865554 0 0
63.5081137629153 -0.398913002381804 -1.18593839120952 0 0
-121.154975446388 8.17461350652625 -14.6818540414701 0 0
-34.1730798134611 -5.69109645392611 8.46751791919929 0 0
202.408368993779 2.69410671596141 -0.196690346526311 0 0
161.753876735009 2.31765650326089 20.3669011891496 0 0
205.665479205145 -30.9708359707507 4.95409222484898 0 0
170.389041050342 -22.7814957097418 15.7289498939504 0 0
-10.0985451585005 11.4030613650864 19.6041109755234 0 0
178.722447948457 -3.43563018692406 22.0199575370286 0 0
-77.221691444113 15.1953866449722 -8.1800575478675 0 0
-132.374684452184 19.4799824033717 4.05686094268518 1 0
143.319185641213 -7.21360127119643 -1.00211666784739 0 0
200.544014555846 -37.4494162619423 -14.3514867849713 0 0
90.2707451442536 -1.0429734379174 -0.0885171021396389 0 0
151.669965784803 22.3558789467571 4.30057198595569 0 0
159.17513140128 -18.9563756441929 15.1488412307373 0 0
36.7703878165677 16.2438225030407 3.25998471833572 0 0
-134.278252019973 -7.99279916188743 2.11569033906589 1 0
191.502904871726 19.2710601180733 28.7939126880648 0 0
-5.72407392976189 17.7652353142367 14.4151781291958 0 0
145.018758290899 -17.3657717171361 0.651732561930305 0 0
-81.0839631899876 0.212282891335817 -8.24535194972777 0 0
167.809601989536 -21.8056980795709 -12.4968933686338 0 0
209.328105638881 -17.2784477880055 -15.3314165923995 0 0
179.589048768991 18.9604055322829 27.6471814872011 0 0
-127.541926882382 14.084546528114 8.04589015917125 0 0
139.59451581479 -0.551520824256182 -1.99409794494633 0 0
-97.9596589432042 5.35775434274688 13.4476947430837 0 0
204.514495638465 -35.4603187693107 -23.7721538339508 0 0
-104.513346335359 21.7955041646807 -1.58216842923719 0 0
113.751030854995 18.9035448321733 11.2315361185418 0 0
202.739664826471 -39.0993797929763 -17.2004387000828 0 0
132.567609165471 17.2235886607695 16.9556090875118 0 0
48.5727954805636 -2.28690260658498 0.446239838441014 0 0
171.873191871673 7.45078305386623 -11.2041791445592 0 0
6.10693779032927 15.9443506875873 16.4492227787334 0 0
201.90217529835 33.8751250468461 -9.64207951441031 0 0
154.281903083364 -21.4309528529188 -1.01742614776887 0 0
170.928507653301 -26.0127428457661 -11.8884666521488 0 0
168.540895691847 -4.76199324525278 -6.730054783904 0 0
-44.8892669659696 19.4833390136497 10.3938580556068 0 0
87.9866284901225 -11.1150495644341 16.1566324600397 0 0
6.12285548649978 -7.82191532748936 11.453968118842 0 0
-129.936784606962 18.1644679863559 -14.2336866955039 1 0
-24.7759498963003 2.31730938068311 19.6842923789197 0 0
99.9104193792213 -11.0996363588959 17.0183138743404 0 0
181.315851542212 35.2931300927817 -3.12556498945822 0 0
176.993856347742 -4.31508955851804 21.8184079013748 0 0
198.330855001675 -30.6901213980548 8.91221275052224 0 0
151.640818247948 -15.1790234226081 16.9807543650484 0 0
-106.111534303176 17.0920128837791 8.957225691244 0 0
39.0667126204871 16.2993573160887 15.3094879226806 0 0
-125.749360855656 15.1585169972695 -15.2637250206216 0 0
-48.0874956264199 4.72049298824869 -7.14554642856402 0 0
128.181870432231 19.6925919800152 10.5936405274174 0 0
-100.648553636773 -1.40731898015402 -9.44280533182611 0 0
160.947003837717 20.172407466604 16.6257109564893 0 0
-125.231791485263 12.6656445662141 -16.6690381383155 0 0
168.086334151156 -18.4675134438595 17.8744575430105 0 0
179.595897536034 7.8956493268177 23.0651787136095 0 0
188.33260173715 33.2134427265455 -25.8955031869001 0 0
180.516397914717 -0.295075690628106 22.1813921757316 0 0
196.523708766265 13.4109966938136 -25.255920134241 0 0
145.202896522361 5.69915468607175 -3.99614815113845 0 0
201.78623595653 -32.051768420553 -27.4861643865635 0 0
38.061849343304 -1.4084620053901 20.5657639844444 0 0
172.089429280309 -33.4404831651018 -3.04353519549221 0 0
-1.8477931021712 15.8011892297841 2.25178761090029 0 0
102.578802895232 -1.81615133145561 -0.146918266380589 0 0
178.987895855331 -29.7147650756729 -20.2344718886097 0 0
82.0016922677849 -10.5303334408988 6.68201379260692 0 0
201.179339311124 -12.8412828578721 -20.7130218923075 0 0
177.770765763552 -12.1506012696963 -12.7360049503478 0 0
135.477521666567 19.1603079265964 -4.8314494432578 0 0
198.384981352345 32.22273257054 -11.045816720351 0 0
53.9827047211392 8.00957235514216 -2.57445818651089 0 0
191.132549131206 30.8080506763652 -30.2232728325333 0 0
174.914925644865 -30.1727301925481 10.1277974605363 0 0
169.821590170286 29.1259993270751 -8.02901355663736 0 0
-112.597816299199 7.47058827096233 -13.4200254192807 0 0
-90.4411940152011 20.7968767298254 -4.83291600801099 0 0
-54.3701061397441 19.4537698705745 0.126003885938171 0 0
83.4235957442168 2.09198499825694 -0.752476126199834 0 0
181.280972732168 21.7502042928198 27.136213394021 0 0
-104.724428457056 16.4612675005788 -11.2378345752173 0 0
183.434602304 -38.5904276438956 -0.701591006264347 0 0
51.1344817312102 -2.31030616524722 -0.330778534128855 0 0
143.862088318204 16.8109712530611 -7.01787364080948 0 0
211.819367264521 -23.8180127894141 7.48931315674567 0 0
31.7780369791608 13.5427553146051 18.4963158769438 0 0
95.1100208691235 15.0993312533688 -2.69764654929761 0 0
60.3766598015306 -0.8894073515787 21.286410076967 0 0
188.708678974179 36.6624240121085 -5.11821820185088 0 0
123.30738583302 8.83677193196988 21.8562354214129 0 0
-124.626496455282 19.4809279337237 -11.0186962043485 0 0
69.5312117721031 17.8633737677395 11.3476402636254 0 0
146.202252542754 8.94508011020611 -5.19520964275347 0 0
-118.946640555557 3.76277372314875 10.6149718301451 0 0
153.988609584308 2.00983667699113 -4.11679185942646 0 0
-9.05973088856891 1.54818444834758 -4.6276233369522 0 0
88.6307080696697 10.0551520254516 -3.14870807692234 0 0
-73.4656191478656 15.8448551821278 -6.67807846866949 0 0
-34.7483409393525 11.2276571492675 -4.62515850217737 0 0
199.294301129322 -39.3685171740881 -22.0292540365445 0 0
-28.7040759021024 13.7058020396717 17.9701592424974 0 0
-35.6145510509388 -0.878592901325197 -2.78611815026755 0 0
70.4104203767613 7.55897474580532 21.8342898510534 0 0
-38.6467394087202 2.01808175605886 -6.23160890748527 0 0
-71.4033999542822 18.573618729281 10.2551945507029 0 0
-118.385149660902 21.6841814563906 -5.57073115527498 0 0
-2.57459286284232 12.1844002421023 -0.798750045055268 0 0
161.929700526759 23.6275090134301 7.60601803689083 0 0
-60.1498773131374 20.5016396708902 7.50069148462988 0 0
203.985657310231 -37.5393069473449 -19.5089127312969 0 0
150.758677434217 -15.7431620148821 -1.4628870380528 0 0
84.2851124398845 12.3005986017619 -2.89018800729361 0 0
200.026231857227 11.8688798934435 16.9940770846279 0 0
-23.7367855226363 11.0746663032005 19.3319658363392 0 0
33.9298062455018 -0.999745861741297 -0.570709557168384 0 0
130.406981751289 -16.5281728733676 13.6408487223327 0 0
162.942122366801 25.0855637860987 -7.02174150966836 0 0
183.985300924906 27.5130605676281 19.1663925408219 0 0
50.0416665654209 2.16029706580304 21.625670836853 0 0
55.733305164354 3.3336748896071 -2.07953925696187 0 0
183.548958147749 -8.67489584229002 -12.6502185123806 0 0
-0.0974454907382377 -0.512771870674183 -2.63848973515621 0 0
-52.5858753575727 -5.02844895328501 8.82983779672932 0 0
-8.62671109374723 11.0042557346077 -1.97470819339526 0 0
144.189851996223 7.75993733065603 -4.51994220826806 0 0
188.628242036737 -13.8985247821035 -25.7235035800144 0 0
-35.4543588108541 6.18437752273923 -6.21488215468487 0 0
176.789126399546 21.775462019342 -28.7303177249685 0 0
169.504378262955 -15.8260311255378 -10.1706255947428 0 0
196.719028043053 -37.7778479014688 -25.7116627406702 0 0
179.591136684216 29.3963008366808 10.188619601747 0 0
162.794922369096 3.26354918186847 -6.16220957419278 0 0
185.271110361379 35.8064600287954 -3.18787539093678 0 0
99.0626506947226 10.4898241352898 21.0595709542667 0 0
177.643093902083 -38.3675453739583 -6.07276093858485 0 0
192.125279942882 34.0369831102921 -28.4285618945574 0 0
192.5161558972 -13.4529384342903 -18.9106169181373 0 0
198.055703902954 14.6691995954471 21.5135360698179 0 0
103.38829040629 19.5132102317972 6.01027014923515 0 0
210.326088402745 -31.6128899937369 3.24894413419075 0 0
112.486438331118 -6.62621700569291 19.9315625668079 0 0
207.128187194409 -11.5041186269563 -8.8221543970745 0 0
-86.732738799071 14.5381530679499 12.8839467180082 0 0
60.9730599315139 10.5205815949625 -1.96512386959851 0 0
59.1074645291302 -10.5617707545927 13.4097605375648 0 0
32.1422381121011 8.67026437831821 20.9180374393741 0 0
191.297336560075 26.369783087641 21.869755565594 0 0
114.215676304124 -12.377431487577 4.03773525575013 0 0
11.5816693100295 -1.32590287877642 19.8961340760902 0 0
108.390691156585 -0.880527108225396 -0.498696831111744 0 0
82.8085809434404 18.5807255523643 8.68909808469967 0 0
180.195163429014 -10.8334288178968 23.0274531905696 0 0
-88.8042237449209 -2.50926817854185 -5.71829866395591 0 0
116.613670092959 -2.91526539847325 -0.275007396884438 0 0
176.216577735534 -15.0445537115173 -16.9084437550833 0 0
198.806075875835 21.783726900896 23.3503705705818 0 0
200.614610405858 -29.9632885548018 8.94159003673324 0 0
-40.5293064221337 -5.54614705283715 8.91197496743871 0 0
205.339238367193 21.4667706141322 -17.0538709810292 0 0
204.280326700694 21.874740556133 -20.1872358075189 0 0
52.5153415911121 -1.06436368453195 21.0702343062809 0 0
166.972541296843 -16.2528910459975 18.803968599723 0 0
-78.7018145563343 -3.45177997446529 10.6097066442414 0 0
197.708783175076 -7.62095809057462 -6.05580319096842 0 0
-54.6357046542966 19.211281055966 10.3571426451814 0 0
14.6049148559087 16.621007174085 3.85424009674575 0 0
183.697734794427 -27.3226159170257 15.7224529895473 0 0
196.100664704548 20.2966909298132 25.9127258436057 0 0
-49.0708551040512 11.9799778032621 -5.00070232297254 0 0
208.696148001729 -30.2325989188754 -20.751624989175 0 0
109.64650499813 16.7497973711403 15.923839144175 0 0
159.697425917372 -27.1509340687749 -0.958538144689917 0 0
192.866080391666 5.49383763733683 -10.2375887469701 0 0
201.523434212218 25.0996174223552 18.5076155392255 0 0
208.339006818524 -32.5703057616526 -21.1246323608571 0 0
164.682126602248 -28.3017501726947 -1.51478105789606 0 0
82.1826296168846 10.463581466548 -3.3255356098576 0 0
-25.0259021104713 14.1811799099444 -0.734106790474544 0 0
211.471513063781 -34.385661346367 -8.13641038727842 0 0
213.228455171744 -26.5909759081648 1.09518758577488 0 0
-37.814800288276 10.389962260877 -6.04953874163646 0 0
-87.0846105002774 -0.672466307014132 -7.60748032968902 0 0
-69.7325009311112 -4.65645861562121 3.7871202452446 0 0
171.108392255031 -27.1875747462434 -9.6761500621052 0 0
201.739831750255 -1.46950049278249 12.9683983454031 0 0
168.316747824851 23.087691709818 15.5855371602112 0 0
209.042951990313 -16.5133024373319 13.1242582504835 0 0
-64.6317294926564 11.4536496327941 -8.30639282453271 0 0
182.984305964977 -23.0504060645849 19.0925667878547 0 0
201.476971629331 29.2971478186178 11.0054347542174 0 0
34.9127716961784 11.9610991569962 -0.411375899755548 0 0
51.7285833680139 -5.31244269487366 4.07725106395016 0 0
201.349545610887 32.8685486654376 -5.44052807828132 0 0
54.1177098656916 2.19698049670671 -1.95167509586399 0 0
165.771011761733 -27.8256821315788 6.52489564421191 0 0
27.1647592699209 17.9785077536107 7.3320685103476 0 0
51.3864710335638 13.1553102046835 18.9070749527425 0 0
177.922904811167 14.1391252106862 -26.0925103968782 0 0
177.969735997104 30.9580682611021 -22.190070153137 0 0
182.504733018509 28.3203271390308 -30.5081202020844 0 0
46.1982388979269 -7.1780407164844 6.41899062441981 0 0
168.316840146816 17.3038915324405 23.3802284904611 0 0
-123.105964275748 -0.852511155335687 -12.3359595902844 0 0
154.574605659802 -0.463199180962165 -3.68607363656455 0 0
94.7680778449077 5.80900944019128 -2.01153886127801 0 0
198.659436826517 -14.0869116616304 24.8864524318892 0 0
-45.5776037735647 -4.64478025980255 12.9565273911279 0 0
158.740211047781 -26.7362958528547 1.38065035006676 0 0
-129.272814065654 8.20133423816032 -15.737460862807 0 0
91.5969260245201 12.4915317646211 19.7947428389683 0 0
184.976667512853 -14.3918672400781 -24.7407427826895 0 0
-77.7414904018253 13.9239523928392 -9.44143565178508 0 0
190.530066325247 -18.9698307156147 21.7947363360356 0 0
190.175701006752 14.9475154737412 -29.2775182181815 0 0
-82.2755624361543 -0.998620086364986 -6.70892649230899 0 0
157.612982921481 18.4200936730487 18.2181381447472 0 0
184.031766713891 -13.6050598355667 -23.2590515703525 0 0
181.721386638182 -39.3298895755074 -13.5984602510181 0 0
-110.131122488875 -4.55293443369585 6.77481704849184 0 0
167.123065263745 2.2496808127849 20.1006530381241 0 0
106.132551254128 0.869135421841212 -0.819138315817855 0 0
-30.711910677695 19.4483317725053 11.3174999501573 0 0
189.593855689917 34.2317510031462 -19.5021032274645 0 0
197.857487961236 31.9154555250155 -12.7183211551745 0 0
14.1304165083799 -3.98366249166655 19.0392931474562 0 0
192.508174667694 -1.29337856574664 21.2618423905078 0 0
182.352146219208 -7.40753473671436 -12.3178401902031 0 0
202.539112765111 -29.7545415476662 8.30802042859298 0 0
-72.3343853993916 4.05221678804176 16.6207228855423 0 0
179.785459902891 -36.777615267016 -15.7502896661493 0 0
63.2716068525007 17.2788660839222 13.4455250049764 0 0
167.937412484024 -10.5840230893167 -8.20119922041611 0 0
191.664822256291 -39.625198308151 -22.9863800067532 0 0
196.455732711001 5.81459175984306 -8.69870939764711 0 0
185.872275439705 34.9237917839013 -17.2764998336923 0 0
-76.4431482246061 3.44619513238806 -9.07575132389073 0 0
77.5113365987062 -7.18123091473604 19.0598749351613 0 0
85.3926805196158 18.3761282515826 10.5067752101121 0 0
-133.794831730434 18.4671381702561 -14.8107630851684 1 0
207.298669678817 -8.29519563652451 -1.90675056577463 0 0
32.8667212094148 17.782659604252 6.90816500877087 0 0
-96.2047692515556 17.9703319374956 8.84562799387194 0 0
125.676005664439 5.11225205676022 -2.31688624484859 0 0
93.3701144965048 18.2309205420279 11.7993885129888 0 0
208.82199401244 -8.49905238382454 3.78011489098358 0 0
-10.1702391706079 15.8431766016766 16.8915640104551 0 0
-92.761731240701 1.32702217469511 -9.61049269270788 0 0
15.0700468585601 14.1124164162541 1.03441626835692 0 0
193.752679412832 -34.7273383675804 -28.8618169334786 0 0
161.379501952415 -18.5694476126924 -6.19464221721304 0 0
-113.309635221481 17.6886220214888 -11.4711369793475 0 0
124.527730582681 19.2003421543716 -2.51516788740003 0 0
205.938138705269 -4.91328696918228 6.62736236630432 0 0
11.0195675238634 16.2630799033667 3.25069553962742 0 0
207.297196225013 -37.236058213094 -12.6773730385844 0 0
2.1837786589996 8.24275256267771 20.5770589592264 0 0
-117.18495231123 10.8762377853446 -15.5855678617946 0 0
175.061324588002 -33.7535427002592 -10.9635969278323 0 0
135.758717013673 -6.04828587589637 -0.532656998956642 0 0
-97.9755149166691 15.2852635178926 -11.2571829216691 0 0
212.702837730249 -29.9628389650671 -11.4566327983545 0 0
-6.17976673647031 -0.320233531312146 -4.03234315333671 0 0
-116.146737071707 1.21259407885342 -12.1781331878895 0 0
87.5702024297803 16.8812864311988 -0.327220146510926 0 0
-88.9647197300401 10.1277435520935 -11.7734248738221 0 0
160.590156973437 11.3702206522561 22.0360672003053 0 0
-73.7370377265303 12.6419232904025 -9.60876002251098 0 0
58.0411748155048 2.05071978309812 -1.74513048230455 0 0
181.896938861377 30.3518114659262 8.28688613016057 0 0
183.376731977797 -38.7389651219825 -6.50487048540884 0 0
65.7654253119031 -3.15406665296519 1.63269129332819 0 0
-57.9668066344935 -4.08443327202822 11.9803737982812 0 0
-35.8279940515199 -3.57565371258806 2.46241763647096 0 0
115.532141715901 16.0965948680301 -4.37544284400118 0 0
191.665969819538 25.9644352518665 -32.1336655230641 0 0
203.232443512453 -1.47837031722159 0.474164331207212 0 0
133.319310246522 19.1287895024758 13.2054722796125 0 0
-30.8284380336042 5.95127745649367 -5.84890359945664 0 0
199.407579490184 -0.987957530177637 15.7353956980422 0 0
-106.183914114419 21.6846790462422 -4.23088066871701 0 0
-134.07564065193 3.69604568719423 8.47328414293757 1 0
21.2417999971389 6.43327371799803 -3.65459641515918 0 0
-83.0482064891458 9.20586962965753 -10.7553265798961 0 0
199.950197577123 17.2784864389759 -25.0025672227123 0 0
210.614280748605 -19.4485263807893 9.39811951477197 0 0
-78.262278389005 9.92231187194966 15.8528391407382 0 0
111.202101285054 -11.0883654871075 17.6850196383795 0 0
200.435768628432 22.8263911916617 21.2695137552765 0 0
-103.349257940559 9.10994305608905 -13.9125028777129 0 0
9.05080644546539 8.37732748128679 -3.86633910072004 0 0
187.67256332117 -16.4947644230749 23.2522475466752 0 0
159.853052045686 -3.71660012539884 20.5086841150181 0 0
175.49233071023 9.99351212653642 22.9872767886757 0 0
201.988229544953 -33.9304152435237 -2.25917475817244 0 0
195.449835863339 -26.7103306011207 -30.3667420059511 0 0
-55.8083866097938 3.29268545534697 17.9834319834089 0 0
205.728300203134 -33.7308568414499 -4.22919574801351 0 0
27.7587224886313 18.1116627567925 9.74987246384303 0 0
184.393727115847 -6.63221160081174 -11.5224634963596 0 0
175.384489080698 29.8451731516503 3.78882385021869 0 0
186.316750892077 -32.9995699973005 8.71071151286144 0 0
92.8832462357427 -8.8636865730157 4.09063557503476 0 0
-99.788326369145 20.1945661615369 -7.72508495920951 0 0
-126.843751895962 18.7895768443874 5.21461905486671 0 0
155.94572980781 19.351661486214 -9.69622553080631 0 0
58.5234787748758 16.512079475414 2.64701216343404 0 0
209.638595370364 -35.2619552482002 -9.24483519319449 0 0
39.953183992386 2.13748445503526 21.2877329918845 0 0
180.543874811608 -17.2536795968884 22.2960729414667 0 0
16.91039708488 1.47161479112904 -3.11012671707095 0 0
-125.607529737878 14.1158604601732 -16.6937634161126 0 0
43.4997927008544 -1.2459335300152 -1.18467214989339 0 0
-39.9675969443473 9.71939991456834 -6.57260221766272 0 0
181.404944560268 -13.4146101317046 -17.6241861831801 0 0
-74.2591699513809 17.6701700738541 -5.43178062272748 0 0
190.627065319439 -13.2059635458231 -19.8329891176695 0 0
72.4509196063025 17.477790079696 12.89517695287 0 0
-16.9524526846745 3.9037666445647 -5.27606006144105 0 0
121.942508503481 15.1127298485579 18.595511504164 0 0
188.579231595997 34.1989241139619 -21.6781922699304 0 0
-53.5667811264663 11.4574180325592 17.5272426140215 0 0
137.150961965045 20.9742683989894 5.28139712990016 0 0
181.392585781983 7.62230701126914 -20.8479444543122 0 0
158.04536964656 -2.89641538592204 20.5082664143643 0 0
114.095315419266 -11.9498026267772 17.1635914966735 0 0
121.324371678314 -11.3608686761624 17.9806672099415 0 0
188.017187150563 9.01051930765503 -21.2423964853331 0 0
128.095907949759 15.1029175906977 -5.45974576078221 0 0
182.975542517633 -28.7164158402205 14.2452148406992 0 0
144.679038603296 12.0178218126248 -6.25101842909422 0 0
-13.0467128460741 -4.44914956375567 3.93019983790623 0 0
-132.611508928196 20.7222664891548 -9.71489708932826 1 0
189.611460944026 -25.8557478339672 -29.9152400989965 0 0
155.899784386766 19.5226645837648 15.9016427569145 0 0
38.5993251888269 7.79556790624981 21.2116724636619 0 0
-83.2715768958372 14.1598104673619 13.4906980873906 0 0
206.543496112479 19.0846015688114 2.3025744078322 0 0
204.630581678423 26.597709686949 10.9084592452781 0 0
197.019135084686 -37.0404149376711 -5.58910808150215 0 0
178.366035979176 17.6080027598492 27.0541426695058 0 0
196.07794664004 -12.6626498213547 -13.3520450447795 0 0
187.834720681293 31.550216383073 -27.097409667532 0 0
154.186985846201 -13.5014504476178 -2.62871246890956 0 0
193.011012400948 -8.94417588589384 -8.82079275705054 0 0
192.011680742196 -20.6753559647715 20.529489339957 0 0
180.246909820953 16.9959354202683 28.15331592061 0 0
137.217335371997 -17.5726502451081 13.1320257224508 0 0
185.189469390835 -12.1209433866567 24.366819248088 0 0
196.883281611337 -10.4450067344312 -8.87653484591414 0 0
-105.01929828365 -3.5851140765933 -7.2383017321095 0 0
195.445676893165 32.6521704792299 -16.0477104394658 0 0
-87.2678136203113 -1.14176003635436 12.7369284166524 0 0
35.9262382967984 7.15168002817343 -2.77176201902601 0 0
205.002417076165 12.6880510010022 2.75829986205991 0 0
178.970794581625 29.2051328898649 -27.7264106196483 0 0
-102.407293246036 0.463068964497316 -10.7259771714267 0 0
-74.2258574245065 19.0582953090141 9.1467732859395 0 0
207.450163845828 -16.5968168328545 18.7439760468034 0 0
-111.918697789119 19.2026238246367 5.89012490694497 0 0
72.4034747514148 -10.6945823253267 15.1925691064049 0 0
197.324867746108 -35.2696228085058 1.02177404811827 0 0
-114.682514264759 -6.16165714239165 -4.58607588992709 0 0
-86.0351315416909 18.9364181570021 8.35863279924824 0 0
168.77861616448 28.1561474368933 -4.08592694789045 0 0
197.804190795583 -36.6874877122356 -2.9671328503192 0 0
90.2576275465372 -13.0997020440728 9.76894688209336 0 0
201.283909766341 9.32230517860589 -10.1405087012484 0 0
104.353485364267 -1.94879617208789 21.4219274201773 0 0
-111.932537058516 -6.14021341462352 -3.44176763851199 0 0
168.014885842371 -29.2761768599693 -3.4983327946488 0 0
-34.234196812808 4.55164311379573 -6.22045794677202 0 0
173.822117181483 12.9738154273527 -20.3236671800372 0 0
31.5272670433417 8.28603018273234 -3.06213711254331 0 0
139.995075152483 12.9968939803001 -6.01684150854913 0 0
72.0631746104903 8.96402590805771 21.4496616273853 0 0
-129.446122331996 21.8764673112656 -2.3445835922853 0 0
154.322189245976 21.1951302007981 11.9763731661799 0 0
142.982920325303 -2.2853729965051 -1.94026117372844 0 0
-106.853228087098 3.34451673971684 -12.0127272082305 0 0
175.517666122223 -35.7446434372966 -10.7753336878184 0 0
79.1923074478136 1.99698968210184 -0.824247834860128 0 0
197.499381583036 16.6747695924893 23.2275738186479 0 0
-2.86776908283443 17.14901266832 15.2143423333533 0 0
193.738735755418 -12.5491752714564 -23.8377997327377 0 0
203.975538935851 26.5044887628375 12.4794312783043 0 0
196.345679670714 2.08578127837462 -4.38485043033395 0 0
88.0327026340553 12.838111574711 19.4408017891802 0 0
155.869310166999 -7.10059659832945 20.1817293388936 0 0
145.897608195684 -6.43901373660079 -1.5410574883677 0 0
183.408999241159 -25.8543013757488 16.9768104425735 0 0
97.1355183385983 9.56919895670702 21.418257734507 0 0
176.687403536511 11.4771985633704 23.9769637973338 0 0
201.729919740168 35.1327909252371 -21.2164919906102 0 0
206.736952576708 -9.4160497225422 12.0266923595506 0 0
161.615164324051 -8.45727124009771 -5.20616899869917 0 0
183.329359493934 -32.6124990717974 -25.8104199491481 0 0
188.850792425212 29.7218831888747 11.1508052267444 0 0
-16.8083051479509 17.956351095662 4.14633198875574 0 0
170.284830682812 11.0288235977974 22.6997278352592 0 0
211.76785535093 -23.2572301745111 -14.0496347160357 0 0
194.545697392505 -8.28377823950375 -7.6344782078382 0 0
-113.690973782528 -4.21222956558694 -8.67988734249785 0 0
13.3861299148702 7.40753850907443 20.8560495308907 0 0
153.653234032648 -1.09542698409618 20.5867920818922 0 0
190.331748979695 21.6163929426302 29.4365885022402 0 0
113.707360228007 3.03368495432322 -1.39446795627306 0 0
-3.49032691593601 -7.31433938487473 14.5340710456209 0 0
85.9282930423965 17.6710880838718 1.17320733282517 0 0
165.817297661228 -8.10932118244511 20.5808098907873 0 0
-122.644496211838 18.8867158212348 5.35045957170258 0 0
162.074776827766 -12.6129277028804 -6.01173543110985 0 0
146.691364508996 20.3301083298518 12.1400542290956 0 0
-97.3600096547651 -3.79920350459066 8.38214717772474 0 0
183.444558954282 24.7978789868361 23.9426331222106 0 0
158.26392568541 -24.1412621819889 -2.47996155584823 0 0
82.7623332814182 -9.38580476052489 17.7013708098515 0 0
35.1483406277408 14.4747881690974 1.23978941848045 0 0
197.949123557394 -2.20532634089292 18.0481084520607 0 0
-31.5193588164576 17.9952454864782 14.06933577956 0 0
146.235191148564 -10.3017771210081 -1.09165568139316 0 0
201.852612136765 -4.93661146789236 -2.95262310316638 0 0
159.142239014464 8.02432576568009 21.3610290130669 0 0
178.028863882876 -24.0772721288562 17.7148335158653 0 0
183.381542548858 3.51504196349367 -13.1008926364261 0 0
63.476605505217 7.17504816207724 -2.91488849772571 0 0
203.407753439664 -38.3622736914911 -18.3205216909345 0 0
167.10504604761 -25.0196343867921 11.8919522780708 0 0
177.142319753707 9.58044866129462 23.3185499761991 0 0
182.316968998822 5.24150421461882 -16.0691991976716 0 0
80.6285424666415 12.1108803344475 19.8531620635525 0 0
157.630641315365 16.1750348287381 -10.2230157835181 0 0
-74.8630592175782 -1.1501137776711 14.128606503338 0 0
173.479414000428 -35.1055841680514 -6.48770425709765 0 0
-123.778709930612 18.7754359832824 -11.9996868700868 0 0
-58.0682207485408 3.37801443611728 -7.7369505365398 0 0
-65.8677849447285 21.1831871256724 1.05422308035612 0 0
-55.3263781646595 4.02395420220316 -7.51961601926893 0 0
132.975882944217 5.23058046317322 -2.78434786430659 0 0
204.718492606401 -3.28950006667612 4.76495774622273 0 0
-94.9997695268342 12.7232307636166 -12.9834806382857 0 0
158.902080482744 11.9684982825901 21.8862346134194 0 0
-84.1168640249041 1.51716121549481 14.5176303145968 0 0
207.790256248758 -36.5266595981067 -11.8485088419188 0 0
166.321170664161 8.81625624152419 -9.63868697492443 0 0
176.14527041211 8.26333925962619 22.6075787677104 0 0
170.309265472436 28.6983782713499 -1.76748037409786 0 0
193.51415258401 -6.32894815865974 -6.75076974572555 0 0
211.600241699851 -30.8554352270311 3.26734296339494 0 0
201.964177133691 12.8392056838033 -14.4976032202602 0 0
170.007153075478 -18.2656124212543 -13.3732025102163 0 0
57.7983745902098 8.26726414302491 21.5559791876917 0 0
208.872825128871 -31.4710553982392 2.3729268783469 0 0
194.07224512124 -18.5615041835646 -29.6078036058602 0 0
-100.213078575853 -5.19895902858113 5.29491207034513 0 0
25.465173384105 -3.65657909576182 19.4198049269974 0 0
195.871957612419 -35.5520629095042 0.915406481014172 0 0
-102.168875894761 -2.95353404110417 -7.73839352341474 0 0
168.511089334657 26.7412013821844 2.1588197967803 0 0
103.897778418557 19.3959490186798 2.57144882983084 0 0
-64.4559538764215 7.07240053075383 17.3139479829078 0 0
-92.854493628376 15.5211480937062 -10.2803954897714 0 0
160.783751654865 -0.962287828040675 -4.78339194202128 0 0
200.120934798328 7.81570191144126 -10.3400066480081 0 0
204.764280219366 14.4518560181953 -5.9981304078806 0 0
-49.135890715198 16.7187908549529 -1.78095246855772 0 0
-128.147641149024 5.14151665758815 9.37097567877282 0 0
-124.81536341518 0.0337112267277145 9.23555152377251 0 0
169.302998471158 -30.8472684670938 0.280912148703136 0 0
79.9490981720902 -10.6800689945757 16.1136091183025 0 0
-16.2719957080433 -4.51860101139183 4.13405073074744 0 0
182.534600883783 -12.4744001904583 -16.4721419553416 0 0
173.555653728726 19.5573619139475 24.9630363577094 0 0
41.0690699152017 -0.664498933144468 20.8294395848859 0 0
-121.96872851833 5.97435692842354 -14.3387648862248 0 0
190.631823368031 -7.30294975741556 -8.81985969595092 0 0
169.040018094019 -1.51016620266131 20.2084526485334 0 0
-73.633567700186 20.0544394256769 -2.90747496006892 0 0
197.287564861903 -32.575231393543 -29.1109024975397 0 0
-56.2423890767096 -0.156933569972867 -6.02775104358988 0 0
204.728271007761 -14.3236378862463 -17.6838781607406 0 0
130.920771602757 8.11735402935069 -3.54695347806595 0 0
199.628887695002 3.91824599129753 -4.86782399147943 0 0
177.397395187717 35.0950901471295 -12.6409908193096 0 0
74.1414950151006 -11.5476687687354 13.1631808724872 0 0
177.228129972035 30.2030715680921 5.41486077289613 0 0
-124.198339439388 -2.65849740229456 -11.3141791418821 0 0
93.5570078089232 -13.5123386465551 11.0221210202076 0 0
169.203860857924 20.8249282568525 20.6651474744578 0 0
198.108570433384 34.4030813987162 -17.9232566935274 0 0
198.168561554643 6.54234731396164 15.9234265638712 0 0
204.963450677234 -37.4795334925622 -17.9591499443953 0 0
166.954008313919 -28.7398771058179 5.80011481343843 0 0
92.3160381654018 2.22986733134578 22.216040959161 0 0
182.358890788572 18.7611587384507 29.6498599065805 0 0
55.913406634049 -6.99214108788763 18.7708232710895 0 0
-22.568451158514 -6.42151350105605 10.2663311389934 0 0
206.238996212435 32.5116062701439 -11.5766309223564 0 0
-126.216717250436 -4.75653582129029 6.43888997125851 0 0
123.96881295864 -15.2781572291844 14.5548296498993 0 0
-87.8631219120435 17.3990925511951 -8.50603836157436 0 0
191.150321597992 -24.4794563877608 17.6057658280559 0 0
168.223665882698 -17.6395173808517 -11.1024761593493 0 0
204.489781303128 19.1575822663145 -17.692705254386 0 0
102.486540456252 17.2713421966268 14.6797865003909 0 0
196.1067695019 -13.8007073255583 -16.0228231491233 0 0
107.649430388292 -8.62665357296644 19.1034360839922 0 0
70.3481495366081 -11.3613003192974 11.990141671727 0 0
186.554557373902 31.3134349029176 6.16958501617837 0 0
-37.1960961839961 -5.58615493252057 8.22671578379096 0 0
95.7781006420272 -11.1199595873913 5.40149592706885 0 0
174.526062020569 -19.1126406117137 -16.6090394883629 0 0
174.920867204974 25.7822992165564 -25.3949462592146 0 0
213.205043560522 -25.2608842393809 -9.03864722362135 0 0
-39.660330513795 20.2444144440108 7.17966046011913 0 0
200.842482272478 -14.5885730230724 -23.0897492631893 0 0
20.3485307958299 1.61757516287975 20.8297463748436 0 0
187.472917919656 13.7351380369745 27.4810820672748 0 0
202.851090518185 -14.392161812029 22.8952097344832 0 0
175.386139231089 11.2735877086982 -21.5635907482109 0 0
181.049623785413 -8.8814882970916 -13.14421378818 0 0
199.186206903116 28.6999028208316 8.09068694778019 0 0
165.761265062151 -18.3845000570083 17.19039846613 0 0
184.157663749767 -4.44747641385995 24.2261249541618 0 0
161.366505694069 -17.5675320361197 16.6590167044796 0 0
175.949900034739 -35.3556332996538 -12.7659151029125 0 0
182.632312645023 31.7908974476164 -23.2317835314016 0 0
-122.213520980781 20.4379580272153 2.86865196275474 0 0
5.78568175021565 -3.33401323119959 19.092143384145 0 0
181.243336627391 -34.775351559192 5.98260858468314 0 0
-73.4883562357769 -4.65377072383917 2.8968597595867 0 0
190.148414604078 -22.3942313218014 19.155419452008 0 0
-60.7789604459508 -4.72108507916969 9.28593512368165 0 0
53.0890195269842 12.6320192611633 -0.598399112408645 0 0
-132.10072063327 -8.30687248169123 -1.24548635198818 1 0
168.460167826361 -0.0409095435744191 -7.0224070008117 0 0
193.405561985397 34.2257625209539 -21.0282968450263 0 0
195.164214862267 -39.7065863766971 -24.6825225233161 0 0
206.249121523447 18.8792692615414 8.12884647467759 0 0
74.3058791947444 -0.199877994718826 -0.450345419817341 0 0
-1.08124029935227 -1.53479809144492 19.5609774438195 0 0
-115.331482324414 12.0885518006601 -15.8896864293234 0 0
176.000180090255 27.1885703249471 -25.7657416585046 0 0
6.35754140668417 12.5315263425105 19.2539633215594 0 0
175.386510046368 -9.51563229067306 -10.7260815959522 0 0
192.286489526647 15.6798407840159 -29.4169749275142 0 0
206.875199327012 21.7509956312539 -3.39610896331265 0 0
23.6930008731395 10.5268974841747 20.2856086479048 0 0
159.153535373651 -25.9747023317339 3.67707684387421 0 0
-95.292534771378 19.3438962936928 -8.21453350721976 0 0
194.378018405415 32.1416990913268 1.80929367158966 0 0
162.349163129421 17.0903177483392 -12.258594656132 0 0
183.272066672539 -5.1421527100367 -11.6159834054364 0 0
132.944108591513 -12.1233444646011 0.890564321466926 0 0
-0.519424892344789 -7.44110623703627 10.1005173597144 0 0
116.669207160537 19.2848651962618 -0.819456990396514 0 0
172.23576977726 -27.5380654599442 11.9647727017872 0 0
205.383842741409 25.155839781858 10.2522724441172 0 0
199.923189539627 -36.912484050399 -24.1181542240911 0 0
193.071041940306 35.1394025761257 -4.81009004118953 0 0
115.259114007342 20.0241015260436 4.71423264423447 0 0
-81.5990121841656 13.0714917076574 14.4216681749169 0 0
210.982162784686 -21.1375670177047 13.1780198144699 0 0
-117.247496316848 1.19909492806398 10.4940461138392 0 0
-101.425366927414 21.3307209101024 -5.36858738960028 0 0
159.770899412583 24.3501142695679 -3.29611417325589 0 0
-96.3788482249945 4.84179197602009 -11.1676317023979 0 0
-110.557385797953 11.9660078501074 -15.4046114390102 0 0
-21.2305180568174 3.10115037468049 -5.47952218861963 0 0
179.831398370733 -34.9668934429027 -16.7051179520529 0 0
22.9637873684533 16.6583805831727 4.06430955991673 0 0
32.2054500528443 -8.97991673544244 11.1535140042984 0 0
179.111454347847 -27.0791772015801 -22.0557202999522 0 0
161.922372098629 13.2425398060672 -10.5153164734308 0 0
186.086227601883 -17.3475286546827 -27.3849136681298 0 0
170.04253272668 -9.91584651936137 21.1818318019981 0 0
195.667537654068 -38.6505399494263 -25.9653172683812 0 0
152.377917877702 12.4534052365461 -7.49709348227884 0 0
60.827939768218 17.0569136101656 14.0010742668591 0 0
-131.671820737322 18.1776837645778 -14.2156318823294 1 0
141.983457829273 -8.96912421068323 -0.628301311271032 0 0
-52.2984554526585 6.9778593877824 -7.72431103686272 0 0
-98.9707071723352 2.86168648840517 13.0790958102654 0 0
73.5227823789354 -7.72496770439872 18.5603794466574 0 0
-65.2881754406406 0.00477310235446362 -7.69896749335273 0 0
120.917296047361 7.01221395976858 22.1440888431603 0 0
-112.549404012457 20.4127130502595 3.63059697308616 0 0
186.222371011195 30.8963568617992 -27.5731413586831 0 0
38.1254314275012 0.706161048420553 -2.30515651570284 0 0
-102.936216415798 0.00790728970721711 11.7755543379562 0 0
139.104688322535 -19.4514948768494 7.73763183596864 0 0
185.594426641965 -21.8415575846973 20.2257971528157 0 0
189.88244275685 30.4831736730349 -29.3993090244996 0 0
76.0629915956484 3.85196607592078 -1.47658952768952 0 0
-40.1237235956791 0.381561183061924 -5.83770476309775 0 0
160.957319731043 -26.770092451873 3.25049718127072 0 0
70.2169717463821 -4.33515589183796 2.66529809091487 0 0
174.20762402576 24.5707972814714 -25.2734859280706 0 0
23.5011062507538 -2.66908200764546 -0.890029170862475 0 0
18.6742211998114 3.42938162806614 -3.63216354175032 0 0
195.128892366723 30.9834337583383 4.46902388785789 0 0
84.7152519346769 4.51605009200007 -1.34276084024226 0 0
-130.203050440539 -7.45681911921288 2.66864688634833 1 0
53.6024887047083 -2.73328798731599 0.124653089151336 0 0
32.766202514466 4.33255190487093 21.3176204309705 0 0
193.658439556066 35.3124371953388 -10.891859677382 0 0
152.87420768886 -5.54007074199987 -2.8363625762711 0 0
211.261337116597 -22.4913099550081 10.457251966249 0 0
-8.59890398621288 6.42482639901281 20.4543541114038 0 0
-78.4681734223286 16.8784734664317 -7.11139071371864 0 0
185.446729804196 -3.17577047015714 23.5294040953385 0 0
213.405455360548 -25.7424944011428 -0.655604608166744 0 0
-45.0030775482286 20.5810810714175 5.67183859849352 0 0
204.860489890625 28.162107336001 6.1965917874068 0 0
33.0931781761999 -3.22037580960314 19.828866562886 0 0
79.01117555765 -10.0312660658424 6.56121243954041 0 0
177.030890522558 -26.042706978449 15.6307290062673 0 0
191.07353086369 -39.5493991751737 -25.5841984948225 0 0
-94.9022903937272 3.00332734113064 -10.4189512171997 0 0
211.941602773501 -16.5099789358168 -6.99875590222824 0 0
85.7115826471719 -3.54754291636436 20.9189137745101 0 0
-75.8196887920102 -3.07168165660165 -2.94224221898354 0 0
199.368431053673 -29.2247479167232 10.577433222229 0 0
-28.8006224496164 17.7533546891632 14.5085750910588 0 0
187.778451930568 -38.2505073366779 -11.8716997724161 0 0
197.807979107003 35.2784267265833 -19.4115203518579 0 0
80.4149550251439 18.5471593979764 8.47777269722284 0 0
-121.262548145764 16.2633912602084 -14.7873488074557 0 0
195.894750491806 7.12642034682008 18.2382606346769 0 0
196.102938251284 -37.6440018295535 -11.9881483470467 0 0
137.909563372938 -18.6922811098097 5.39750089784199 0 0
190.784727286473 33.7681000934017 -27.6038935029638 0 0
203.686169129465 9.24918469740152 2.80958373106789 0 0
179.513492632338 4.48762612406594 22.006364675553 0 0
-20.4849504717233 16.8414765515495 15.6871843577768 0 0
-37.365113148066 19.9451259969371 9.28275175188408 0 0
80.9661350225377 -7.15752595470884 19.1672409469257 0 0
149.479788909506 18.812844083471 15.9372076848751 0 0
17.5581563070156 15.1616057001157 2.09969421943251 0 0
-68.2763150164896 6.43433703311344 16.9761417914862 0 0
212.308435653555 -22.2606803524537 -12.0717716318219 0 0
175.945713927405 -36.6870349879664 -8.74387962286483 0 0
140.261686788348 4.24849104163146 21.6962790950975 0 0
-42.6213642333041 20.0274213654808 8.86870610771318 0 0
77.7024148961954 11.9915601551925 -2.61841920627705 0 0
68.7981841013721 14.8982715269186 17.3363677907631 0 0
194.31916027942 -13.9039783178841 -17.4615838887145 0 0
2.23012500757909 -7.82422186074825 12.6793049508655 0 0
163.286308841563 -28.0925550759656 1.50733461267834 0 0
-89.1056406036505 -5.39639541599567 2.62959819524396 0 0
190.806458378328 32.1245122657942 3.30486627081817 0 0
-131.108032488182 17.3453466176725 6.30726883545449 1 0
35.5601329408697 3.36934284401206 21.2985697302351 0 0
117.828486610534 3.19881690282331 22.2227227721881 0 0
156.525406075318 -1.80547686108998 -3.84790256762878 0 0
186.809986994088 33.7349849518424 0.882284016110441 0 0
176.78356945744 -6.61410661803628 -11.4505518770351 0 0
140.507987857245 15.2611888516135 19.5990074965522 0 0
66.4720005394943 10.4496007505888 -2.46136987024543 0 0
205.827129953787 -21.8233697668433 15.3801722676056 0 0
161.134565196186 22.9458150542658 9.50143481840118 0 0
159.820226673844 -25.2735772932912 6.8317017632158 0 0
45.3928969216953 9.80576161909353 -1.70067830724254 0 0
-25.418020217366 17.1486727793772 15.3153993863231 0 0
-124.41737997824 10.4396250724685 -15.7277158990788 0 0
-131.206377209034 6.36897650125436 -15.5908489803058 1 0
79.4530572700194 17.8962505108418 2.93222796417523 0 0
-12.3633272835921 13.80223033011 18.4915101637696 0 0
-126.262997923413 -1.66777669123665 -12.4691441265865 0 0
32.6072814241078 -6.23150963469713 5.61023951556029 0 0
162.754719125126 3.80423652608202 20.1503595155453 0 0
213.561003827812 -28.7834180532225 -6.05433502247495 0 0
151.86156585914 -13.3435127860697 -1.90712363511996 0 0
69.2003898549332 17.024015207513 2.43509626204107 0 0
200.664874861561 14.8475348182414 -21.2554318595293 0 0
187.769970072445 -25.7450298357089 17.3116824810048 0 0
183.963349334922 11.0898195239692 -26.3499852296301 0 0
181.768981500977 -1.27902947815889 22.1224015748516 0 0
145.822388995519 4.35907915503554 21.4526552460218 0 0
115.310755521265 -14.6872534215258 6.27530932493601 0 0
188.403848347708 35.0162546085717 -16.5922973648191 0 0
209.357962554422 -22.2482852455059 14.9059415881181 0 0
199.829440831763 -16.518921876049 22.187709878661 0 0
105.99518749454 -6.80255742806728 19.8910358172633 0 0
138.831485873236 18.6449912562388 15.2390381825888 0 0
59.7419442640578 -0.00202404865548809 -1.48537294473739 0 0
94.4670144541995 11.8990910967696 20.2227623809301 0 0
-84.80035317043 -1.22509938977041 -6.7265961622084 0 0
172.909060712622 33.0684562092303 -10.9234525500709 0 0
189.631295328347 -13.0647258250741 -22.4924642137915 0 0
56.9690080349144 -0.163226843878141 -1.57699844080929 0 0
197.230534943835 -33.5419200870248 4.83103201763803 0 0
-17.0283202018675 17.019935710836 15.4479342272472 0 0
162.102747744727 7.33342077583685 -7.52661887118656 0 0
63.4098628697035 5.28705708875492 -2.29819173612365 0 0
180.014631222174 6.23437258326514 -17.5376923170784 0 0
198.928936008142 -35.8676056164192 -2.00207357675429 0 0
191.683691067605 -29.5701724319429 12.4737951636695 0 0
163.631734255566 0.72702214311882 -5.7532316835227 0 0
112.500518468282 -13.9631425646806 5.81267959562118 0 0
177.800431366656 -36.937461563711 0.175661438531655 0 0
48.1101578552233 17.7276176077941 6.48029708281273 0 0
105.887538952376 -4.1610889562677 20.7745026564679 0 0
-112.141943601241 2.25016063683372 -12.0763779195173 0 0
6.8240361964827 -1.24416841779877 -2.6767720127508 0 0
-70.2300382562754 19.4375660744352 -2.93594528088686 0 0
-27.140056100916 9.31555415227828 19.6431043017101 0 0
186.735360351461 9.48228687283022 -22.3336977240054 0 0
-82.1598404420621 -2.34191505940914 -5.00403197826058 0 0
147.449921268632 -0.640082758897325 -2.68011646800439 0 0
