"x" "y" "z" "f" "a"
161.330990552445 21.4642324849811 8.37789679640452 0 0
-48.8451635260333 0.269054525733977 1.25134353696799 0 0
184.463050458646 24.7117346520883 17.2224168877886 0 0
-87.5381809633867 28.1552024918816 6.50603544516632 0 0
56.701595921913 -6.15198392288093 22.3390452778509 0 0
223.950111774742 5.57950374324197 2.56971520870987 0 0
206.618334040692 4.76436716362315 -21.8009777632892 0 0
109.207212320543 12.2942125623026 27.1819167298026 0 0
62.9925009914766 18.6814490579589 5.4823563959192 0 0
76.7699880178268 -11.2794209631063 14.2149106060197 0 0
77.6053857980808 3.82962677445861 28.0513173903308 0 0
126.982470734066 16.7863347351843 -2.61427500756632 0 0
191.330998063494 24.267710992569 24.4259962616 0 0
226.825324627588 -30.2606235022632 -33.4448280431536 0 0
212.940692728488 15.8499110990695 26.674626991489 0 0
232.459640082881 -28.7606523137826 6.84487774986736 0 0
193.422062481095 -40.6970436895115 1.64559587171773 0 0
-44.6090741091394 -0.701735267450511 16.2226988045386 0 0
196.743914207845 -46.6142150567484 -8.87182197829294 0 0
180.50720657618 -8.84222090557104 -13.0853185894812 0 0
43.9596037663346 4.40044596994011 27.2792404498329 0 0
-46.0605140313419 13.0342083320655 25.3301530721443 0 0
162.459579782225 -3.02338562156029 -9.87605632481702 0 0
185.170471713501 3.8058397767322 26.2094389645661 0 0
227.296258741239 30.4566067292735 -21.7697563044992 0 0
81.5221422506663 16.3832616950953 23.884499943555 0 0
90.958944468392 19.6143048167402 12.9998581494882 0 0
-66.204157718456 9.47389939663909 -6.90238079496516 0 0
51.8280271655492 15.136365192422 25.7606412035927 0 0
203.990003554808 -47.2652717141471 -11.4517352855477 0 0
69.4003483723362 -6.58117547334772 23.0031727669555 0 0
190.045035067108 14.6546751148886 -29.6454176355416 0 0
179.754397424043 -26.37793097954 -14.6319646614807 0 0
226.458312371953 22.7856090539384 14.9847739057848 0 0
229.092972027656 18.7196527424102 4.98923071415344 0 0
165.869967116648 -16.5443071875105 18.2339170133483 0 0
-44.5869593651481 -0.226196844436023 2.38532717339422 0 0
-50.118647708493 2.56026852113498 -2.19327931375541 0 0
196.014942371844 -34.3470717048452 -36.1641135126694 0 0
85.4335725927223 18.925658877979 18.4939608699016 0 0
-40.5336176977737 14.8510355854629 25.5201947148427 0 0
43.3292846417858 20.4851313479366 9.1772780383187 0 0
126.158471017115 17.6055914123287 -0.397332146352794 0 0
-14.5654151938172 19.3182086029893 3.81728528776157 0 0
73.064692919487 7.40713929298344 -4.51040846827524 0 0
202.37822730903 -43.3208058961656 -32.6384123066267 0 0
60.8451792485214 16.8990102310737 2.67686013504471 0 0
206.866814379105 35.3423025876945 -27.5595032660616 0 0
190.181263053062 10.8297262768417 -26.8187857127348 0 0
-39.9015349521541 23.3338348155535 4.66640844552408 0 0
-57.253833157106 -0.460401368649446 2.17376612059096 0 0
104.741509276167 -0.349128315851533 27.44822500203 0 0
74.0876937282493 8.88447017062879 -3.64193062330739 0 0
210.810050332801 27.8320772246654 27.2540983581557 0 0
148.65580106849 10.3890492502048 27.1163085349945 0 0
171.306486997245 -22.2854525128025 -10.5988889742897 0 0
201.509417701497 33.1761533416921 -34.9923446826492 0 0
51.3823602388219 12.5453346848638 -0.2357660707681 0 0
65.5155284886652 4.62914008441217 28.0328743559276 0 0
-4.82987790856957 14.2048562025289 0.626108331428856 0 0
198.828056145335 24.2225430567629 27.4591117768366 0 0
207.180564165289 -34.8893194796939 11.1126407038264 0 0
-83.3891630000617 9.46674533412763 -8.48723817003338 0 0
190.950698804949 35.9799207582784 -8.46644577509846 0 0
-5.30064146693188 2.41640442286213 24.7364739923441 0 0
227.861736335679 13.4869053241287 -1.18170577680717 0 0
55.7191352721384 12.6084801128637 26.9781154458756 0 0
231.093879247071 -35.3859987324518 1.23518522516195 0 0
222.926474181869 29.9861005387607 -29.2069742011197 0 0
196.274553001718 -40.4429917655567 -34.2677551094421 0 0
-21.376587441518 -1.23227793025963 18.9258880411029 0 0
185.256762006197 -15.6842300618551 -16.0416826850779 0 0
195.976295343787 -29.1325413691888 15.8880172593979 0 0
212.598041796962 -41.3973134674854 3.33265404524826 0 0
184.797670508987 28.2439609696067 4.30815128139019 0 0
210.351967306708 -26.8576094624068 18.1511787540496 0 0
196.987738640258 -16.6865296579656 -33.4754781860159 0 0
110.372810816024 -13.3531586724446 5.65108695067479 0 0
188.943715820572 -34.3543129752231 6.29672321982279 0 0
197.385330860716 39.4558276281197 -15.359198418477 0 0
-32.8310345474693 18.8270218126321 1.78005318871403 0 0
107.877318052314 -10.8520560236075 3.1879268737933 0 0
121.52520414445 -16.1997515145438 8.91427624895421 0 0
73.2959140881812 1.60520698206686 -4.44945911713387 0 0
189.381410548309 -2.12538974373186 -15.6857312274498 0 0
155.588276058249 -8.09067569952813 -8.00316922429692 0 0
1.70451895232742 -1.20605810868027 3.09977218936091 0 0
192.115199430913 -37.5813904667511 4.56120026856424 0 0
54.5735695673419 0.366754655641507 26.182642843175 0 0
222.731084120191 17.0135114711489 -26.6174096468447 0 0
-45.32781493205 -1.61373255323655 13.6267701570549 0 0
24.9112326599805 21.9035520134812 18.7181674923675 0 0
171.418556684671 21.094846117314 16.4711363447776 0 0
206.495214222593 -15.4529675040348 -25.2469912836465 0 0
214.182367701836 -28.2085061541576 -40.8682483534286 0 0
-3.10217916442482 10.3273329982218 -1.95447694351955 0 0
-55.6927340281467 16.6735000085014 -3.70555092062968 0 0
195.635576540214 -34.43552274214 10.3460435510037 0 0
154.4234289476 -18.5037945627581 14.1141131485864 0 0
33.8727473502872 14.4443281555511 1.15001712502425 0 0
11.1247862895986 15.7519906692018 26.2742828131276 0 0
188.448341108387 -14.4018154211934 22.1220164242313 0 0
68.2584568291039 -1.74165232420343 -1.29469548920316 0 0
216.498120687704 -45.3370775238223 -11.0460341802574 0 0
185.376190885384 1.07800462771076 -14.715377519161 0 0
173.411642676881 -3.06285409315323 -11.2450331057945 0 0
48.8075147898202 13.342491871399 0.282703595614946 0 0
212.79195033391 -9.21342600293741 -14.9226513042132 0 0
0.319254741461695 5.32639695118753 -4.42299292768168 0 0
-82.5798189365045 0.412261520040857 -1.51434408046033 0 0
189.613307556801 -3.00174898928334 24.4983496616674 0 0
226.453796911675 -39.7039324765102 -33.5171009938809 0 0
-35.549243926042 19.7832317761496 23.560885702988 0 0
210.174650822628 -4.25736372432279 -13.7688608708568 0 0
97.9816437647256 -9.20526640859289 3.21290541376037 0 0
212.458071225353 -40.7940086777981 -40.1711667070594 0 0
182.583965289322 -14.9451543160471 20.9904410668252 0 0
187.647195489303 -22.1417132537163 18.1556258105292 0 0
65.1954315887129 1.72615712411179 -4.1059208799787 0 0
214.294263777637 32.38151162256 13.6631080316275 0 0
215.47286845239 -44.151815740764 -30.4596799797182 0 0
-28.3541469310316 17.4690132053642 1.32388591575507 0 0
204.181317674001 34.857476271034 -29.9568954765586 0 0
0.564994467344293 10.8346777155773 -1.36980582032012 0 0
194.311820497844 -18.5129242535578 -26.2149558167434 0 0
188.615437130393 -24.9650469966574 -19.8579588725437 0 0
187.775253955699 31.1425442676007 -2.62749786295482 0 0
-36.0995795495735 15.6240722168361 -0.848579701060175 0 0
100.409774974566 17.5021180747451 1.24213408737999 0 0
146.089312233367 -10.0673466247402 22.807936239303 0 0
209.845629375172 -19.8676412703729 -39.0158828974068 0 0
103.916265178444 -11.0405953691517 20.5880420010681 0 0
227.488999958547 23.066121418203 12.8365538427625 0 0
225.790115040311 18.572377689135 -22.7190980361295 0 0
157.465320404519 -14.3552070904306 -6.57105777014778 0 0
13.6374467983337 7.84966227358507 27.3466705612934 0 0
216.074105109306 -36.1672302684481 7.5577492322028 0 0
227.588229298627 -17.5379965551528 -23.613615255523 0 0
220.449836658831 -41.0447664582619 -36.5427725614265 0 0
159.467679003668 0.564668631840852 26.3856510898397 0 0
206.73169123048 -7.7862686168214 -17.3961424160633 0 0
91.1225294318651 -3.19183042603285 -1.53266831457987 0 0
-91.5498197746874 2.83725340668213 14.7648855635502 1 0
150.551332227927 17.3714990689441 -9.206895649155 0 0
38.6694792266007 21.8001757397461 15.2476805764903 0 0
173.278827047844 -20.0162974821972 -14.1027868673634 0 0
225.376767612232 -37.7767388611716 -35.3310532948546 0 0
-5.77681070472312 4.86193323022404 -4.24202597463141 0 0
47.0084931315056 -1.00767656842537 -0.0946016477982427 0 0
216.841838418653 -40.5762515996316 2.69006440438851 0 0
219.32364955347 -17.4074513163406 -34.1189786362255 0 0
111.903666526092 7.3566754310457 28.696848681994 0 0
214.609521880039 -16.1460822498027 -35.4953374766983 0 0
212.600085863136 -42.9638423790457 1.02924320706566 0 0
200.759129065265 -47.3389024594297 -17.9222863907442 0 0
196.235098460925 -1.70472666828317 -19.8166460821915 0 0
138.243850681143 -11.8007187618604 -1.99658187838002 0 0
230.115810912427 23.6877089180045 -9.12394702803217 0 0
181.982959531591 -19.5536879675998 18.2864087262975 0 0
-90.6172865169355 0.922771548635941 -3.25157548668561 1 0
18.3224393766057 22.2615235906593 10.5218564728968 0 0
132.203314093547 10.4706432354758 27.7162687310318 0 0
44.6878844360754 -2.30082170668239 1.8524775056478 0 0
-65.0426149178195 0.888810033662095 -0.657780385242852 0 0
84.2482125456267 19.6768222937839 13.8836622092453 0 0
164.659302556061 15.0804050423823 24.5068734530563 0 0
188.847186850786 -37.3386188991285 -17.4575973105839 0 0
180.045660273374 -30.8041304481997 -6.01425123603861 0 0
109.389072053052 -2.77435516760847 26.5260599566436 0 0
-48.8981860354332 14.4787201593079 -3.34260307803176 0 0
204.359484365583 38.4566565208794 -5.77666565592203 0 0
226.701051009462 -13.1256748727705 -15.1181485213008 0 0
-60.9816203659815 8.57184916806465 23.0196994842386 0 0
100.928869243559 4.23338011955557 -6.75173255022997 0 0
162.511130700695 9.93439999150426 26.8151804126711 0 0
210.694251257324 17.6640774100822 -35.8130224289796 0 0
-84.5227691592137 18.2201348968231 20.0437307617878 0 0
5.5005660897802 -4.69986730083445 14.792060361668 0 0
211.077609629655 3.47068300101199 22.2826198070206 0 0
67.2287176486343 3.6073174232762 -4.92015248024337 0 0
-5.82362870347614 11.3282381578419 -1.31443689094918 0 0
182.615153173421 -35.2896359409345 -11.9088135067609 0 0
214.779724743124 -45.6452796982896 -6.60808141343774 0 0
109.736743557056 -11.7930902216185 3.88027918112085 0 0
218.241299718972 -42.3344863601726 -37.1915581368103 0 0
199.561358643472 20.2466666051461 30.474261699177 0 0
-11.5088066810358 20.0927682405918 23.6645124609613 0 0
-89.4801997913142 4.33310452448487 -7.2097069424312 0 0
207.348899618993 -47.1661606602721 -5.28125369016365 0 0
122.311173092331 19.4217732498201 12.1569848311087 0 0
65.0895894544003 10.9000173726957 -1.94751545840523 0 0
73.1233993567014 5.86671691828428 -5.47705660064928 0 0
96.7112953696571 -1.4810797203878 26.8640857756487 0 0
178.434719911219 -29.3400403937996 0.872899750573299 0 0
194.965663621183 14.3861783534016 28.9975419926898 0 0
143.311955301073 15.2984419395232 24.1366612877347 0 0
-85.3872278620344 1.78865950546488 14.4713333952762 0 0
193.206789414204 -1.26061199211709 25.1341766874484 0 0
169.755466288118 22.8568198382805 7.30336522436228 0 0
107.007897501308 -0.272438266384393 27.5109064437389 0 0
201.103153104189 40.0616157930443 -13.3491191524812 0 0
226.878066032222 13.2610189126557 -12.2729937097481 0 0
222.998371751922 -17.7505235696077 20.4633017341524 0 0
11.9157516728026 17.1480352752371 3.05654198806562 0 0
198.904207466959 -29.5942943392871 16.4348638069773 0 0
230.576664788334 -17.1270486743481 7.64633734628543 0 0
168.07640261995 -24.4631100586772 -0.0975348840960783 0 0
8.10222098697863 7.27761216197646 27.1495843256045 0 0
3.80314088538252 8.90489626329263 -2.83998424873826 0 0
208.357944003123 -43.6021481910961 -33.5899188262938 0 0
203.021604244739 29.4470512052456 21.7796013727169 0 0
206.527879188573 -25.3465766894465 20.0606415288241 0 0
226.278484836539 -34.1115340167632 -34.2601288168431 0 0
108.304345281255 -3.12260100006137 -3.41251866766002 0 0
187.078701928624 18.6475949959171 27.2639995029955 0 0
30.7086444323485 20.5388278457275 7.88378702878218 0 0
198.130397289924 -34.3475422181648 -37.7949101747639 0 0
196.470386776929 -7.4416444681605 24.3694994349113 0 0
194.648202457373 38.849384972125 -15.3265927577306 0 0
126.282308104349 19.2793765360624 14.6261749169626 0 0
72.5011235783121 -7.49349617648452 22.3585889533579 0 0
211.663807132221 37.9957386275444 -9.24748998387837 0 0
203.279638461794 -8.30680670619976 -19.2303649251273 0 0
203.513092080143 -47.4315716875731 -15.5507124659779 0 0
-74.6585929673997 5.82332226969381 19.4221608301499 0 0
169.755716600568 -24.9261140706615 -3.1148343935397 0 0
136.046841642742 -14.7938471905076 1.41025230515006 0 0
222.742522976751 -40.4412888884076 -1.1938393204111 0 0
-54.6853643937374 9.87217191108806 24.2569655761455 0 0
9.83605231600117 14.8475340037405 1.25711248021685 0 0
114.713669160299 18.8506038951407 5.15964164564019 0 0
226.628634472585 -11.6336759139087 -12.7377136231179 0 0
200.492132452521 -42.7128051966972 3.61875777525876 0 0
80.6211329125668 13.9429635106109 26.147791470217 0 0
225.699476929665 11.5002664772371 -12.6609594510595 0 0
179.086832613399 13.2477459651492 26.5742749944008 0 0
151.886331116911 20.4181165436693 9.46003698828395 0 0
204.374838399756 -15.92801962681 -25.9523977261618 0 0
116.174038009776 10.2227773815165 -7.64362277858848 0 0
187.387766883721 30.0092597830067 1.59773159984428 0 0
-44.4187477446712 25.295808027967 16.9873161228505 0 0
49.562539230616 9.57366283628033 -1.79403601281126 0 0
120.613526177521 -8.54549383733206 -0.944122781938571 0 0
194.120934053537 -18.5116273930267 -28.1970113752686 0 0
-65.5694975314356 13.4888850971837 -6.93674156383907 0 0
186.136123429387 -40.4458661200647 -11.8726958206165 0 0
68.2480014973341 -9.20247537932607 8.84366599470785 0 0
23.1014582345545 6.82484125097812 -3.91033018773198 0 0
-59.0472675675474 25.4040612462857 16.2018043375547 0 0
-52.2286240143977 22.2516666170404 1.31356014700657 0 0
194.610532969666 -2.14363054156162 24.6252483728044 0 0
180.9583315698 22.9003148475157 -17.2485967719122 0 0
-8.12802058056915 18.2415582797695 3.22270911979369 0 0
88.3223927119244 8.40409319080605 -5.10793082301206 0 0
119.259855492177 -15.4018350458508 14.7286738517472 0 0
52.0199196889889 -6.09638229216624 21.9103566633402 0 0
-29.7833380582689 8.68681464363658 26.0151519776096 0 0
169.82758457123 17.9473332205192 -13.3855213098237 0 0
171.975159056281 0.126226681616683 -11.6703989058687 0 0
179.317439041573 -28.3159088976785 6.91618844822702 0 0
198.565181216813 -26.5776607785908 19.1052329012205 0 0
83.0411148214246 13.434508391509 -1.98251205637329 0 0
76.0957070730479 14.8416424624748 -0.301675918157853 0 0
194.16292695211 -45.7363946221488 -8.58377835011726 0 0
218.192074973336 -6.37181645504104 -9.48111967724158 0 0
220.351371739959 34.6371475104695 -4.26406217250146 0 0
2.44555959330062 17.4506139516981 3.05213812671137 0 0
4.93128875367784 17.0711858788095 2.78615579000038 0 0
189.852751377534 29.5310914384107 -27.7084710342211 0 0
93.2444784734024 3.84267549112597 -6.29469854477766 0 0
191.972360260612 29.4075223948341 14.2260938721413 0 0
187.922455802199 21.2282944635287 -26.8914591385282 0 0
146.637465053077 -11.0816967158841 -4.98516459256216 0 0
27.3042415657609 22.3486452185436 17.0240212679757 0 0
209.039931256256 33.3637326283203 9.79425195101529 0 0
116.988789387553 -4.22720610634511 25.839580237042 0 0
201.119528660952 30.3061809182049 -36.31256303186 0 0
205.063428595814 -42.4956888285091 4.30801493972184 0 0
74.1161798088208 -10.4691304304808 10.0335704769711 0 0
207.277776954699 25.9266979920611 29.4105008342324 0 0
192.15758773765 6.18424413124774 -19.9713295869596 0 0
-19.8743938343916 -3.07781995251345 12.6670862065155 0 0
222.508017337532 -20.9130867163921 19.1770923285966 0 0
46.4024734951151 15.5801208408244 1.80358203913774 0 0
178.475572109417 -2.2390458050455 24.8364530437359 0 0
216.592705226736 -37.7725149135012 -40.6221239102307 0 0
217.794141002741 27.5441603219435 23.8339005905521 0 0
181.478506157349 28.0950106527382 -12.5488406114867 0 0
119.941660829067 -13.8871627116748 17.9817818026711 0 0
-17.6181961844857 20.9746634421432 5.22604093606072 0 0
-14.6245091083225 -3.30747343224614 14.2097344456685 0 0
13.438435315461 15.1976788520525 1.5485614634304 0 0
198.051082234502 32.0647980706621 11.2672112356087 0 0
208.337341603017 34.8608300896817 4.18394292325236 0 0
200.455546491303 24.7516601860655 -37.0456240660184 0 0
205.469080896202 5.78529769864196 -23.4487223748415 0 0
-72.9810004055936 27.0752698154486 11.3030246380628 0 0
133.642863387676 15.2267735144968 24.4330807407183 0 0
194.474734700572 -3.46790058088795 -19.0724793341818 0 0
189.045777178348 -5.13018469099679 -15.3049958754007 0 0
-60.0399438909797 14.714411444155 24.0156567314696 0 0
194.870465742753 -23.7190615242628 -33.4556753473966 0 0
217.354424209726 32.3157382645014 14.6426370749204 0 0
224.975009839383 23.7848060886937 17.3518882108114 0 0
-32.9383942129109 -2.4455374144054 9.56137646232114 0 0
150.95181369534 8.25531631074234 27.5310911066431 0 0
52.0122533257591 6.86280269605353 27.9494636397215 0 0
208.609128389271 31.0470049001181 18.7680952957091 0 0
185.551765425887 -22.5071883418459 -18.2707163467653 0 0
210.94101133602 -15.0062660787259 26.1544990717298 0 0
146.762391952396 17.3689317089984 -8.79038658634937 0 0
158.286799287611 -3.78044521602008 25.2873178788844 0 0
154.17621121315 20.6247908938572 6.31191815585331 0 0
196.308370669045 -42.9147706398302 1.10933368319772 0 0
211.22298001635 34.2402682066778 -18.2410549424909 0 0
32.5618645045137 12.208193389817 27.2676341492474 0 0
25.3456481252187 15.0897669966164 1.59311177183593 0 0
194.430575204723 -42.9757039900828 -0.240425963158729 0 0
-11.6739668663217 16.9245187872338 25.9037294628239 0 0
92.1339789350097 -0.93817276858721 27.0083061378401 0 0
192.98500387836 36.8597859541343 -7.1595458550171 0 0
216.535204937937 -15.9204665322609 -28.9554369299275 0 0
179.43408516643 -15.0832123018771 -15.5601613450743 0 0
221.38999633446 -42.7568419296709 -5.51967784007836 0 0
12.1929487970775 -3.53578858565121 6.25542301895096 0 0
227.023670764139 14.6049350655169 7.33858707762947 0 0
189.10263149433 -39.2107423685911 -6.91903429079465 0 0
202.647003669046 -30.7726405666634 -40.1891672568631 0 0
-12.3340696400077 -3.22499963813481 9.3084316572125 0 0
203.835867329874 3.07676892880159 -20.5231112067889 0 0
216.217960168709 10.9904678084906 -29.1866297583298 0 0
220.842212178491 32.4565452244715 7.57697561958692 0 0
99.523131744713 10.6353704882196 -4.94675010676436 0 0
216.893061586772 9.38170711622501 -27.5652572656406 0 0
17.7873428533946 3.6075381686463 -4.25798141680336 0 0
137.130972021761 0.353583788678521 27.4313582341528 0 0
-55.8248769423931 0.819442657003895 17.2375592660055 0 0
194.52712488661 11.9912643328777 -30.8348625632202 0 0
-87.3784993691797 -0.321010889991854 -0.870580931848624 0 0
120.191475552404 15.2988412894083 24.4773699663408 0 0
131.589099217624 9.16350587916 -8.87171377876434 0 0
223.824404850171 25.7021637489692 18.6794844867429 0 0
189.738744384977 30.3377084502894 6.67153448713906 0 0
106.141834256297 -2.47724595546625 -3.68977432050976 0 0
115.159883099957 -14.2106893537397 5.7619906863777 0 0
40.2290994219826 -2.63910184660124 23.9272955897919 0 0
218.775365387217 -42.8460804704104 -3.69710168143851 0 0
205.142290363591 -46.7894278249911 -16.9523444589165 0 0
189.067048609532 -26.2946641592249 15.5499110011643 0 0
132.42583399945 13.2291595414994 26.2076983826784 0 0
161.785297200605 -22.163627943387 7.80221929423545 0 0
93.0657066971721 12.5369557420256 -3.45056240954006 0 0
-77.1511489208839 27.8317206067688 5.26838006645612 0 0
200.441143609796 8.67922326183242 -30.2030095797673 0 0
199.653674261129 -18.3305630926611 23.9604655994745 0 0
171.476429880402 23.3592785560808 5.80607656300347 0 0
58.1615891437475 19.7589172205329 19.2835233887132 0 0
13.5817121050715 22.5461342314376 18.9003997948846 0 0
222.520329303116 -13.3296667635618 20.1663193565152 0 0
191.604196777711 38.4283371523214 -13.4131493061757 0 0
187.052193264017 -31.4904294101451 8.83728705043786 0 0
59.5671480278705 -4.37674213769055 2.90534462891463 0 0
218.139326231878 -29.7216279359045 12.5694389367664 0 0
-7.43328391156028 2.53064989854859 -2.90510553045356 0 0
126.699324185896 -14.9255494573789 3.95752598820283 0 0
90.5584581267911 14.303065193261 -2.02153831250724 0 0
158.029641788308 7.08024150906266 -11.0119941406946 0 0
2.44060287897579 12.0264172016359 -0.502547697843869 0 0
210.915269482295 9.3360384037329 25.3069421379189 0 0
70.541761410428 -4.34247390577419 24.7270069820825 0 0
144.461512871815 -7.03373595018715 24.4539067103256 0 0
51.8653847004129 7.47363398517211 -3.47870161648174 0 0
173.89014406255 24.7348523561093 -6.56908336621628 0 0
-79.3858283915745 10.5386472645833 -8.4929070264024 0 0
146.727431088281 14.648072069391 -9.57860285711926 0 0
-7.79323985194396 -2.83394346669169 7.05501520236284 0 0
128.842450045514 -5.4379409020622 25.3167245041551 0 0
149.250427922997 20.1089740896157 5.4433460407855 0 0
8.92646440214119 23.5737847094661 13.3568993827958 0 0
216.545373202854 35.4625513220511 -15.1408073789823 0 0
222.08847694567 19.9502938514306 -28.9566045106028 0 0
140.749108510803 18.806081824235 17.7628895679668 0 0
223.775411312806 6.18393140486196 -7.42011569588598 0 0
145.262824143547 -18.8995101006182 10.0814361403004 0 0
-56.374592569137 23.3272065989411 19.2081511332135 0 0
223.623104013538 15.0303397409562 -23.996570753911 0 0
-29.1102672811394 0.0203288319491394 1.85227584081178 0 0
207.988407519888 -16.3324258429292 -36.2270455135786 0 0
165.839612915681 -13.4190957664386 -9.70855914953765 0 0
211.622933810563 -45.681975675015 -4.34877125152033 0 0
174.670751933538 -18.1995674761341 -15.2149197957076 0 0
218.475032394177 31.8744766105366 16.9428090129505 0 0
62.7794239305521 15.5009104349729 1.13334898058373 0 0
208.695353401327 35.2907564182658 -19.2065708717707 0 0
-76.5543954580593 23.1070254307758 -3.44306407636367 0 0
-29.0824708632337 2.37927389255273 -2.90340731210932 0 0
216.746077475315 33.3731825329267 4.24867098712532 0 0
210.239002122306 8.32452173159296 -25.6250683530515 0 0
128.633558615101 14.9296457540231 24.8446532520019 0 0
228.7460046601 -10.7552447667511 5.66841041976388 0 0
97.9837331106598 8.32557278050737 28.413282126617 0 0
182.024328484999 -31.8233924410342 -1.66798765856579 0 0
-76.9824932834248 26.3751954937557 12.7592502057092 0 0
186.142683277133 29.0667690718881 2.97783777215994 0 0
197.046127938383 24.3440124626092 -35.6756669516161 0 0
-89.6084175708868 -1.6758034156644 4.05482941570974 0 0
97.7799928163949 6.16117078688897 -6.70220549595513 0 0
51.3610875053207 -1.93780221680308 0.873570061197302 0 0
95.1660902921299 -12.0016378622349 7.51539644059102 0 0
-12.3447534355591 1.81346700974267 -2.04852867107277 0 0
196.905277740018 -27.9730508138928 -36.2805272039743 0 0
219.373783929583 15.8377277924783 -29.9153414683416 0 0
227.944071029433 22.177263135665 -19.3596851760167 0 0
198.28391527141 -43.3647252868088 1.9646992277401 0 0
203.706693211745 -0.285480756401476 25.2842599173259 0 0
211.834479475999 37.1649621770447 -4.15311822215639 0 0
225.406027468422 33.460310140092 -2.13184252775015 0 0
141.273220219177 -14.985815320319 0.00772461309203796 0 0
145.829817258225 18.975903920049 -2.43513534936332 0 0
155.944758550962 19.7765404848812 15.8697106150914 0 0
230.539974963042 -12.6358428877841 -3.96007995751328 0 0
62.9157664713037 -4.40294755661741 2.46873700909838 0 0
183.906922340474 -33.4075553722505 -2.78624517357963 0 0
-69.9684350113402 0.777913039214388 -0.943405048771129 0 0
187.093054795072 22.1804901226793 24.1319565029728 0 0
192.240097743052 27.8070234488551 19.421842350623 0 0
200.295779328712 39.060201825872 -18.0174591984969 0 0
-77.5914560221518 19.5323991696161 -6.25681326654952 0 0
88.2881414298059 -3.32177276297602 -1.25458074412236 0 0
192.946366452661 23.2536161417046 26.4765326129423 0 0
175.837002736302 24.893700796016 2.22784551984922 0 0
31.0395898873125 22.2168224145135 16.2876738957493 0 0
56.9626281516533 4.02770932039574 27.6295586146071 0 0
92.3631693163486 -12.2581937304498 16.8236844894011 0 0
213.020605394377 -12.4116261138675 25.4576627645294 0 0
-26.7893158822753 2.30011097881184 -2.99043872938183 0 0
101.279818739693 -2.3378537529975 26.6483336064813 0 0
-12.102642089827 7.58570784818914 26.6229251618501 0 0
36.2325567904325 1.58256012800361 -3.93618405273842 0 0
181.959634993568 0.195211153006596 25.3387090134637 0 0
137.961507904561 -18.0642663900523 8.58205160265722 0 0
181.501865885413 14.5330699814943 26.7914676971277 0 0
188.480675091489 5.61423170396218 -16.5558189195975 0 0
11.3331348621202 6.20074252992975 26.9471131856701 0 0
-57.7637915473364 17.4007270491492 -3.66312629070536 0 0
-90.4229107589135 -1.46498669477577 1.9612826835982 1 0
195.681513671284 -23.4540023623905 20.6437284054468 0 0
227.742736574603 -38.6247195567264 -2.80599123295717 0 0
180.906252539191 -32.8651642094543 -9.86116899989451 0 0
-60.4580126304821 23.8554794165715 1.2801155290172 0 0
220.089565378941 10.3450990961404 17.1421846568348 0 0
192.99057275225 15.247958956407 28.9966628163969 0 0
225.421970504221 -29.2712523881728 -34.8049136215633 0 0
-67.9784231210674 -0.298142647821074 0.992906869989063 0 0
188.74241937598 36.5907469309348 -14.7843021370028 0 0
230.91512227512 -30.9587341120583 7.25499388678475 0 0
179.890962586501 -13.0887398359013 -14.7841598447111 0 0
75.2332775753953 6.44384706441977 -5.3266540725703 0 0
186.415580256447 14.2115290923567 28.2894789579806 0 0
203.295457781691 32.0445675862759 13.8361730020589 0 0
95.9528114368584 6.0432600622183 28.4990818935254 0 0
184.966932584758 30.3399829192584 -7.86364635620336 0 0
130.387178230785 6.52664736229899 28.4848363299707 0 0
169.926170720889 23.52353790309 -4.14458753585523 0 0
220.979582805148 -38.6705429463542 -38.1334684053344 0 0
211.092787879065 31.4515577207999 18.175963557306 0 0
193.7371260112 -45.0920825590026 -4.98846763999726 0 0
-23.9815802924824 8.46645720906874 -4.69828039411665 0 0
217.457641897521 35.6658760470892 -17.2780395726387 0 0
40.8323290682553 -5.09669736560683 5.69187193338415 0 0
90.5647976335647 3.8279977802964 28.2033363714953 0 0
218.328808389765 -25.4838798451256 -39.1702894434355 0 0
211.412826147178 -6.97349302565306 -14.2122918317336 0 0
127.523241763719 14.426281393065 -6.40875915943543 0 0
179.676496862215 21.1148626130015 -17.0487395251459 0 0
168.827958304613 -3.06948962354071 -10.5175994254581 0 0
-85.6479597777661 -1.24781512112082 8.45677460105668 0 0
18.2278366676584 -3.71888335698661 5.98246948864471 0 0
220.118361799993 -44.0214448555247 -21.5229019796941 0 0
206.105922640526 -43.6890414875044 -31.3909825337309 0 0
153.954426183189 8.1585874398811 -10.578716620325 0 0
213.024002297542 13.5258916756965 25.8350657592581 0 0
202.79440148516 12.0475689006409 -33.2263786064336 0 0
213.675259143507 -7.8895941866227 -12.9155853404172 0 0
178.329795660088 26.5169757851609 -7.03272762482276 0 0
82.2992629086026 1.87859324116199 -4.94812133127762 0 0
200.691358330919 36.2408079278232 -23.3580546244618 0 0
211.949869634706 -23.2387001583049 20.2982343039586 0 0
188.451137743565 14.6119356192802 -24.95856225409 0 0
192.284761687314 -6.74434432195609 24.0585380697056 0 0
114.57617719074 6.34800980634177 28.7266498027138 0 0
215.284312363011 -31.5473488402659 -40.9916229354334 0 0
188.39014742708 15.0684253437311 -27.4367196144639 0 0
195.045283743504 5.24212048057932 -22.8028099418534 0 0
-90.8402586411783 22.865710009439 -7.19618758090899 1 0
207.378381554447 22.313655163974 -37.5033687961153 0 0
53.6662772156805 17.0068928807691 24.1227920748811 0 0
233.064135376842 -39.1231109285849 -20.353760326324 0 0
171.127965129466 -0.377732050394668 25.6512956228966 0 0
209.93975110944 -15.3941043636238 25.5426264762067 0 0
-10.8502421332755 -2.44407298392778 6.52865531441021 0 0
89.7066454484197 18.7257991382256 18.7905017617164 0 0
191.956259078835 20.8442355490686 28.0128022177848 0 0
131.960591575096 -0.183413146960071 27.3707848375622 0 0
-86.4087638905057 23.8900220000571 -5.30120652461449 0 0
103.848026681337 19.428610795834 12.7083101067478 0 0
202.485926617359 -15.8852491464642 -25.2033195079476 0 0
192.04060893452 15.9023632401661 -31.1356708922423 0 0
234.0628687623 -22.9463344734196 -13.2304647197273 0 0
-33.1719944095438 5.31716620529822 -4.28735211192728 0 0
210.769663654081 23.6113997280882 -36.8926761422571 0 0
168.506091043437 -12.6037029399042 -10.1576340769776 0 0
207.146983239045 -41.7519337677333 4.6309864211992 0 0
-46.2348567260789 21.2233995094362 1.5332648891711 0 0
163.45994535773 16.4120632120074 23.2235192861217 0 0
224.860997051942 -14.1276097219135 17.9730704883004 0 0
-45.3844576301611 16.1531815260533 24.9052841469971 0 0
160.128432708145 10.4639945819028 26.7818266057834 0 0
-27.3414155663398 26.1066273915269 13.8261592520888 0 0
208.850667423383 35.5668501843025 -25.6516434083045 0 0
225.870517818815 34.4377634905933 -4.25123849668536 0 0
139.074845200377 -16.2301181730418 15.9513951128573 0 0
46.0973381668104 15.2107474049839 25.8061289310896 0 0
120.295600621262 -14.5661541634648 5.04185826606914 0 0
218.980727902936 -39.5772332667056 3.03206235154327 0 0
-55.82353585726 5.146630849039 -4.8033010644061 0 0
214.629174354614 -0.199435263749145 -8.24976135222006 0 0
-34.2590040677145 13.0818913257805 26.0948302819652 0 0
229.855193390831 -23.4662785967045 12.1974526407637 0 0
224.81048693823 -25.0579436418417 -34.6206752201108 0 0
208.868762675035 -45.5565129653893 -21.969620571713 0 0
38.146633357106 1.91665234752108 26.1443933613957 0 0
131.23444655749 4.49380394584754 -8.69936896318946 0 0
225.007000966241 9.40786906801225 6.10825280892163 0 0
162.375046679004 -3.86417961349461 25.0048682620473 0 0
93.7740363420668 -1.88493516878554 26.6805159219095 0 0
-34.0568334028018 21.3852850375025 22.1803416439163 0 0
143.883288901932 -14.6226450146077 18.7908596176039 0 0
216.19504822469 -29.9746811955827 13.2379509081175 0 0
116.392571290035 6.12670871415216 -7.73793897329112 0 0
164.260922868766 -22.8727188001114 7.36393052799385 0 0
167.602564268356 15.5745606730842 24.1608397731545 0 0
19.6978671261668 6.60960330519161 -4.08603517203799 0 0
229.925760502689 -21.0309366242739 11.4592875852877 0 0
226.984462673079 14.902508874292 -14.2791565377562 0 0
192.905429332909 -9.17526963520924 23.6276338588518 0 0
191.739117200039 -12.172010319307 -18.6806293034205 0 0
118.194023589005 8.50122421301528 -8.05231745218173 0 0
-21.169753826197 11.1657292547515 -2.39931516888983 0 0
205.206378483437 37.1336871585523 -19.4693026323707 0 0
194.564638055673 14.3572733644304 -32.2212011976515 0 0
162.019351148619 21.7122638981156 3.57831723037314 0 0
203.441630332308 -4.33107489612808 -18.4177979146585 0 0
-38.0300782534156 26.5450977138716 11.1680812573939 0 0
103.825514770406 -9.09458730351182 22.7133182798319 0 0
166.82679574285 20.0217547257402 17.6043393859226 0 0
223.398829729928 2.81588376231656 -4.05024817910401 0 0
223.322073275033 -15.4916929276215 -18.1709587623177 0 0
227.414165488295 -8.62380335158758 7.38316252940646 0 0
202.551585109659 -42.0110510896145 4.82073157893167 0 0
-13.9224570037127 3.04967521450798 -3.48405732973456 0 0
62.5626209896469 -9.69156308089121 15.4756667659043 0 0
11.3583894125485 19.5342426238142 5.44425956863244 0 0
152.221219921898 18.3377534719531 19.8430550699252 0 0
183.864985926153 -38.0971274366306 -11.996157908731 0 0
16.2361309129186 5.05567105919114 26.7356708695535 0 0
-46.7209554746545 -2.05307427984803 7.85748111426476 0 0
195.375936611819 16.3720869008245 -33.4098945796389 0 0
-53.7238769721365 13.3240950060901 -5.14431841909582 0 0
175.420699085245 9.6338276270336 26.5048003842988 0 0
212.696134902207 -30.7318606343564 -41.4230264179688 0 0
188.286987719791 30.1454704572997 3.56271104778094 0 0
180.157446086119 -29.9289224762303 3.34287084152563 0 0
-87.7474712693601 26.6456291108919 11.1867047323327 0 0
218.044460710048 -44.0436016968034 -31.6260816672572 0 0
188.208256196199 28.7709272356803 10.0323799851947 0 0
132.806799920632 -5.69337505169134 -5.08255708684253 0 0
142.552575669145 5.39393775735641 28.0067174414008 0 0
203.206381061015 37.542499937585 -19.7188619888913 0 0
222.587417249071 1.99032673808896 7.15595408409544 0 0
163.040737350817 -22.9330117799579 4.07467655811793 0 0
208.068211916133 14.3113910179295 28.1987369991843 0 0
207.346819549591 35.6372438042467 -20.4370286505189 0 0
46.0712444935762 -4.77434417637515 22.6946181733167 0 0
42.5504119683996 13.9477623320378 0.768137391423634 0 0
61.2628190071071 -7.05422049599479 6.21258657832477 0 0
182.887807246984 9.62818529198385 27.0426277067456 0 0
-86.7049265313896 10.7187701127148 20.2581006269115 0 0
188.038482170521 -27.8944213098756 13.7150695549844 0 0
-23.5824045967282 25.3875452787333 16.2942766083818 0 0
189.830174072118 -39.0551494894775 -16.6219448716704 0 0
225.064986221827 -6.76413213612348 10.7648448511974 0 0
215.235636052026 -13.1189996061086 24.7472128320128 0 0
234.943337618231 -26.2836559090303 -9.43475151264422 0 0
84.7257682259374 -8.53185580828785 4.58389348845028 0 0
207.642258654995 -12.5381901085818 26.9089606375232 0 0
86.489928442434 6.47932313795925 -6.07750617040972 0 0
25.1095249213127 0.439657316616477 25.0356027420483 0 0
138.490544785325 16.1185122680189 -8.25244699935509 0 0
115.958904281578 16.705405821825 -1.48365630031987 0 0
114.496952273866 -15.5731200588177 11.4209520332355 0 0
0.0092311967366844 -4.36438387459566 12.2126394476773 0 0
235.122404598104 -31.5794359431537 -4.72729840057959 0 0
210.148539171656 -16.8226701479183 25.2600079578848 0 0
226.457810714376 29.6220542351779 10.449317200804 0 0
229.641060764946 18.853510798384 -1.12337795002047 0 0
208.873082684851 39.0195929455639 -13.293178329582 0 0
178.701654670893 -11.8594731938784 -13.476450013808 0 0
167.430988630548 6.63426779620828 -11.9168030530676 0 0
200.32089308053 -5.17438304333198 -19.5476832319499 0 0
216.072275890961 -4.13491161397053 19.3725193072221 0 0
208.492319948305 27.533503399544 27.7072910013858 0 0
215.960055581337 35.8405666663467 -3.70401151895858 0 0
184.662488076639 -17.4776475821281 -16.7042434538969 0 0
188.162886394257 23.3028171095618 -28.9002852671967 0 0
-59.5442500795383 5.18692426790741 -5.05881239146626 0 0
151.53869673005 19.214503954491 17.2229323271813 0 0
50.783301317437 -8.14694049705364 11.0916415005755 0 0
187.632737425142 16.155979453646 28.2968357329884 0 0
61.0233266605607 -8.38293154166198 19.4864533224277 0 0
207.998529639739 -39.289803274652 7.51597876078649 0 0
-1.86906495533293 21.5939861850886 7.20940998901304 0 0
201.176729940241 -0.887043651132916 25.616028258218 0 0
53.8992186425886 5.82059160514137 -4.71491996871421 0 0
105.304607055528 6.93648195718498 28.6831026325897 0 0
149.21566167495 3.49485927154129 -9.76002679254064 0 0
229.443791404772 -41.8430160434299 -18.0784268626278 0 0
195.139130499499 38.0605939541509 -7.88295692638154 0 0
160.29553018694 -21.1462267377969 -0.571541630542647 0 0
214.251738944329 -1.26565819539858 19.316606762053 0 0
171.02202743828 15.9505262062234 24.0762412972937 0 0
215.054349297632 29.4670324499871 23.9177830114661 0 0
219.334219730832 -14.9802458084833 -30.9284825553211 0 0
84.6628506698895 18.5108981016678 4.49860833640465 0 0
201.99867061636 -24.1821129498988 21.4661758335723 0 0
220.74381072015 -44.0016726226783 -12.9129587232459 0 0
204.714802991197 -46.8275109159253 -3.66140002839289 0 0
125.742505902357 -13.4958283336453 2.58084795372243 0 0
232.872321676484 -21.4322422710078 3.95084723177406 0 0
162.316304019594 21.7578944949417 0.785081754092516 0 0
40.2390333535113 -5.12153328878038 21.7086391293049 0 0
221.812562101752 36.1674156135031 -26.9394066530533 0 0
-16.8486211163622 16.4446708440791 1.48815660082621 0 0
228.829525123156 -36.2990715809102 -31.7530563760246 0 0
-8.42844683176835 1.5516586389617 -1.31437140363495 0 0
213.122600264494 23.8256536210587 27.7698368087424 0 0
231.486883607236 -19.3489883753092 -18.5566624355834 0 0
216.67980643327 11.0211021566304 21.6645366974771 0 0
211.638817752621 20.8294853682957 28.4838038598939 0 0
221.320708281077 -5.98649452858738 16.062918661236 0 0
200.419360534925 -32.5624161988296 -39.142947450639 0 0
56.0726878252168 -8.88920729897145 11.8933605006736 0 0
47.7410931532558 0.620006926661953 -3.17863622447518 0 0
-81.3576484380295 15.6305440845434 -7.8552376122098 0 0
217.015975226784 -24.2475542475413 18.0405689969835 0 0
-1.1684314399392 23.8692078668795 11.3921707814283 0 0
-69.9027487024382 5.28937956585805 -5.41270354619051 0 0
193.290712745083 -18.6297119493255 -30.9808530046078 0 0
200.507077607966 6.57635384900891 -26.7105130093237 0 0
-29.5294381404349 23.7194274308239 6.73038714834023 0 0
65.4479988900621 -3.09038563836043 0.500201968213793 0 0
65.0774465988443 8.76004308703721 -3.02679605260707 0 0
196.317432995565 6.97811266282195 -27.6260900938288 0 0
200.214829048586 -44.2106882638612 1.73484669862522 0 0
192.606797133585 32.991423173495 -23.0416813228032 0 0
227.321529571131 30.5804873070991 2.12086624830583 0 0
199.334697138205 -13.4103387332605 -22.6460058664208 0 0
202.555265787522 -39.8564285265431 6.8995369938684 0 0
176.349913674875 -27.0813267683776 -11.0027800081301 0 0
120.219738311077 2.08487943013706 -7.38028864043815 0 0
66.7660977962355 16.2216437998088 1.63246106168596 0 0
-44.0025037741942 6.58716997063261 23.9643573116977 0 0
191.094565881868 -1.13363557161618 25.074013725839 0 0
207.778282624226 -15.8436064531679 -26.173322098359 0 0
220.787760691386 -41.3832025065657 -0.721819286961843 0 0
47.4884889624636 20.3778952033942 19.1109587249398 0 0
219.599737790715 -16.471911244771 -26.2023621839628 0 0
148.193878253955 5.7302526797808 -9.906894693253 0 0
213.121704286112 -6.10548890215298 22.4117855724837 0 0
51.6669652285018 0.342728402858268 26.0552526090063 0 0
-50.661598942461 10.9626148604012 24.8428570516181 0 0
187.810149986094 34.0070020281049 -11.8269279550876 0 0
153.28369980211 19.7181725297558 15.5668743121391 0 0
213.397439379043 4.06275336488782 -15.8908711986834 0 0
204.993603288464 -21.4432360116095 22.2546629429424 0 0
-72.2710833806941 13.8592385332969 -7.59408985485428 0 0
224.378798102498 -10.6310242265663 -11.9454321092374 0 0
176.197039167328 8.38922635031484 -13.7666999556887 0 0
120.275311931024 -3.07329353436263 -4.91872909876608 0 0
23.3870449448966 21.7753299889175 10.0229230284068 0 0
232.717788447485 -19.325241499374 -12.8219424775869 0 0
128.12870740285 5.05669759855399 -8.58120223900713 0 0
100.098999450819 -10.9545410350659 4.88607773641499 0 0
192.618852395492 -41.9577649534531 -0.861668973531226 0 0
216.069864740151 -25.786891101217 16.8126352632389 0 0
56.9567572925425 20.6839666565104 13.8525758744895 0 0
25.0547590542514 18.5393022606945 23.6381295754893 0 0
221.891941593716 -33.3225537411535 7.58568657324898 0 0
40.5070571814807 4.20750505031944 27.0780884086447 0 0
216.847160569358 -2.63536980835681 -8.70150549104953 0 0
188.725996326038 -10.4099858025314 23.3366476001987 0 0
195.024941685468 -38.6041055081239 -32.3510948403532 0 0
194.803494840122 38.5783146154439 -11.0723878771947 0 0
219.907285325433 -37.0125979245579 4.99928478551184 0 0
108.885957441687 19.1360360562352 6.95652075118588 0 0
167.862259293163 -7.09216965926957 23.5938489958976 0 0
127.13068406194 -9.93711227597202 -1.02038280342614 0 0
119.900891467145 -1.83582182934502 26.8791966486106 0 0
218.755619913044 -18.6180512557269 -35.8804013391205 0 0
0.457518898921146 21.642240490635 7.44893054428489 0 0
112.548851661994 19.4072333041687 10.6857387181708 0 0
228.528105669855 -23.0395768033692 -28.7182362372224 0 0
208.256445939333 37.3032926585518 -2.99256074054613 0 0
224.295333267757 -18.7375144905368 19.0477821283807 0 0
-92.0308077602707 27.5315337103899 -1.47653649415629 1 0
187.324883718217 -32.7949976194167 7.17996443019484 0 0
178.505126582699 16.334865535087 -16.693692732416 0 0
105.243481726413 -2.66715261603462 26.5783249712087 0 0
90.9616041306115 19.5551068805088 10.0879207905946 0 0
-78.816015872533 24.8842837153616 -2.03497372424766 0 0
-29.6871335952441 6.00965570144349 25.0418759651936 0 0
182.39430155327 -4.15436493387216 -13.3402725664902 0 0
-91.4167145412569 4.23257471601053 -7.4385597104512 1 0
218.829745626005 -12.716686935659 -14.5259114791263 0 0
192.254785676042 -19.5133057827767 -23.2104293282201 0 0
108.573358316723 19.0080570757616 16.307755484298 0 0
199.13949797618 13.107911578391 28.7260037642398 0 0
9.15228400597923 18.9832693110282 4.74298117401437 0 0
190.026180315184 31.2115727965809 3.03429622324947 0 0
103.537267726321 2.19708505904119 -6.38306725177326 0 0
200.478571118853 -38.5987229398992 7.94933081008669 0 0
227.48960253399 -9.77085075222946 -8.25158432916612 0 0
186.951341035304 -5.43369730230811 24.2281330728988 0 0
-9.05306147025487 24.6712744225892 16.0209881567754 0 0
126.447344493264 -4.43998499747696 -4.84488701012708 0 0
227.751994372772 -27.4652255556574 11.8408271793826 0 0
143.205682221779 18.3238373110382 -4.63419284638284 0 0
96.699679769237 17.7857696826572 1.99836068380754 0 0
124.919036714535 15.5752698651862 -4.47164541764722 0 0
196.49185643627 -40.0202331600898 4.85158302914187 0 0
206.266977406482 -36.4673337517586 -41.3743230445424 0 0
-61.1858506565994 19.0394640388126 22.5078675493653 0 0
218.326049777879 10.1329929609726 19.2694667788621 0 0
118.101021761492 -8.62393435473078 -0.539694342163884 0 0
235.366064905544 -32.4245579930583 -12.5535504134816 0 0
213.313373506682 13.3534302046996 -32.7163911875473 0 0
176.02881309466 25.5218988937194 -2.79719012639184 0 0
135.969825775988 -1.04433833040157 -7.680003705023 0 0
211.378343805811 11.7052740047901 26.0651035421912 0 0
232.431566116434 -33.4817003499272 -25.3606325168463 0 0
135.892757602046 -11.8541806667315 -1.39711539342718 0 0
215.776707733126 37.956061977247 -28.144968977661 0 0
183.245950832964 -30.7210845308463 6.37900631708999 0 0
225.462111084646 21.3899453915896 16.38634573837 0 0
205.444993875925 -47.4001900524678 -6.36761874136261 0 0
91.0203911092603 -2.95262139174138 26.1478959948512 0 0
188.435969611465 13.7669549288259 -23.6673223274584 0 0
215.878743930528 -43.3173729155288 -1.49684849135271 0 0
-22.8322114049508 20.3520102846108 23.3779500765021 0 0
185.927817005321 27.795924029383 9.79609814829817 0 0
70.9665752332481 19.602602595514 17.8824088272068 0 0
228.897377263386 19.8550342904233 -13.4426208120386 0 0
-92.7971050751736 8.80948093965232 -9.54239826168218 1 0
219.676544797182 32.2716095452218 10.4940970291678 0 0
197.723736114352 -15.8779221854074 -25.0281962328855 0 0
180.151462603701 -1.19671080991659 25.029755666198 0 0
192.584900742867 -45.4424334263714 -11.2845887758083 0 0
38.2135888793533 21.0314327759587 10.1980297263025 0 0
203.60603973552 34.9237952950727 -24.4534837644706 0 0
135.02314447223 15.4521554344127 -7.72416542744849 0 0
144.166687083278 -7.57377609183477 -6.18181366511505 0 0
112.17442617589 19.1469344797205 7.17386581577481 0 0
214.542151068652 -16.0958756147393 -29.0924922446312 0 0
38.2625417326235 19.2683183855763 21.9720403908353 0 0
21.1520354208549 0.344159854778477 -1.69610326884414 0 0
-35.5635040913004 21.4526569558184 3.45710484461108 0 0
182.053840036844 -26.7006459213947 -16.2501804484958 0 0
-47.8189519310124 20.2298056461178 22.6703367170918 0 0
178.809024995291 21.2392236727835 19.8591722108962 0 0
187.494297113124 1.73621807487963 -15.72424757447 0 0
88.3872151386078 19.3239673193533 7.79961043778421 0 0
-41.382722614823 19.9840332306232 23.1958050810432 0 0
-66.3578356941537 11.9422267318655 23.3767527786479 0 0
147.930464083168 19.7099776801961 2.27471893257192 0 0
41.8672656323254 -7.12678892751879 18.3850475169578 0 0
234.156075452643 -26.0552752290426 -17.4756692816577 0 0
200.637330635743 -29.4283940074719 -38.971842250994 0 0
-94.3071310604668 23.481384112775 14.5983434241745 1 0
197.190220227523 26.8268440293952 -35.7982680443521 0 0
230.142564862769 -19.492817485568 -21.6879791360782 0 0
213.581628121934 -13.0132621379413 -18.8547593403027 0 0
106.196545425299 18.57388995494 18.4110001120456 0 0
41.0634948044035 19.8419125051839 7.37990616124446 0 0
225.377876579805 -15.6037210351059 -21.5943952880735 0 0
226.849718817843 20.800172761949 -21.6672921810191 0 0
90.4689326760612 7.47577699269786 28.369391216446 0 0
195.510167194278 -12.367548741766 -21.7298777840191 0 0
103.124142057916 -2.32195580906988 -3.47576747364153 0 0
177.461824487508 25.8019620873319 -0.548714643093111 0 0
220.572977543944 10.0402431311847 -23.5735124309639 0 0
220.678972908217 -7.82018091596844 18.068563842977 0 0
224.208275824003 -30.6062356158051 -36.0226637592976 0 0
209.41527714538 -37.9682175015768 8.61404448531177 0 0
154.19781290653 20.3552156184035 -0.867748957073648 0 0
204.645863035187 13.5748753532769 -34.5688214530623 0 0
182.698007372452 -4.81942153695681 24.3657889806883 0 0
54.8966249833521 3.03561480180999 -4.37539810186111 0 0
227.157398437255 -33.0506035036446 5.96171241328476 0 0
-94.8648681192462 -1.16480315211985 7.68875589653057 1 0
183.753300571199 -33.1846089569285 0.074765404163382 0 0
34.3018999346483 3.25159248425619 26.5242849612381 0 0
200.960783803744 -34.7912279804405 11.4994451142477 0 0
20.0286298011299 -4.69667446843029 7.70985857770856 0 0
221.887347540747 37.9951363788247 -18.4173001098416 0 0
218.199416736781 32.0415697501665 9.44293775257504 0 0
136.473301936131 -15.2378595959413 17.4292115191587 0 0
156.650054008131 -11.5000407903512 -7.36145393690961 0 0
163.920275056535 0.433662271902365 -10.6244076146236 0 0
-54.1274184777717 17.5454296230597 23.7915952447566 0 0
191.128002262787 -21.1367175130634 -21.8285940417455 0 0
194.565725547854 32.5318564273407 6.45505951963329 0 0
118.540755752189 -12.9899271739647 3.47365465967118 0 0
195.588711181985 -32.1353651994914 12.9370524913025 0 0
62.6550137555854 19.8696508774467 18.2102039973313 0 0
201.492181041573 39.4232997336256 -16.7019005906186 0 0
111.325927372201 12.9142159550285 -4.93080215032113 0 0
61.3254728062126 14.3564652966383 26.098324453056 0 0
219.301878156855 -2.00467323243139 -7.24594698710493 0 0
109.148993507366 -10.5145760910812 21.5655286145866 0 0
127.180195165417 18.9103082538021 4.13121489223297 0 0
9.34491759350568 12.4839667786009 27.3550417743869 0 0
188.4963887115 31.0072841101057 -0.166702921234845 0 0
88.1915921752594 10.2583529197399 -4.20063946809129 0 0
136.971324174926 15.0272176454151 24.5798668988071 0 0
210.310621216423 25.5088521553054 28.6904368628801 0 0
232.123453255071 -30.9689603566634 -25.6758780336487 0 0
-63.6615827263058 15.5894184385844 -5.66025657301084 0 0
107.596799996312 -8.04852747932672 0.640692781619936 0 0
180.316720662634 -32.0091357807927 -11.3273113348523 0 0
219.896646809958 -43.0140221735554 -35.4436038529655 0 0
197.360002691419 -13.3234959401029 -22.3581666708606 0 0
221.036214569986 21.1827751915708 21.7753779166132 0 0
45.2434896081438 12.6146487152964 -0.0730253107583737 0 0
188.304542516916 15.8766745825531 -25.8242818115653 0 0
