"x" "y" "z" "f" "a"
15.9222748538402 -11.4949568418104 -23.6587651620054 0 0
-25.1500665360523 -19.2857169952763 -5.34173739233111 0 0
197.926986815677 35.0250848314551 -1.37802740484736 0 0
222.285335210721 -5.38341231624111 13.8928506515463 0 0
216.151693947418 -34.8068100905266 -1.73948724945937 0 0
55.8697718805833 6.67964588461325 -2.3390858152081 0 0
152.83008157059 2.45936435186049 -25.0401641272533 0 0
218.986993241293 44.8726679274263 4.14713561437737 0 0
73.0188051389332 7.97492480155849 -3.10951909361082 0 0
134.565139707116 3.91386659734955 4.92368482034081 0 0
235.132545922772 -34.9630032546732 14.9122892320505 0 0
215.783778144259 -7.02800935695893 -27.3174328284332 0 0
243.610742733651 32.919148875067 17.1150497628177 0 0
43.2629626461476 2.68318537914568 5.96872157705655 0 0
159.906325684262 -19.8444877472743 -1.16910882739926 0 0
182.714660802126 -17.6390397182821 15.5844298484424 0 0
-38.0298423215315 -0.823315835469525 -22.8505813434959 0 0
19.2454523116911 3.90320148213064 6.02540782046471 0 0
111.11294433837 10.1930784667772 -2.681867720562 0 0
226.334818014258 20.2078394992682 38.1273478556564 0 0
225.794099233402 29.8330212706313 -15.7343738380331 0 0
228.71455098298 -6.82459794660632 22.3194951362527 0 0
190.112492537495 27.7734813982329 -5.00181629056135 0 0
21.1621509002069 -9.3775630764814 -24.2304296890153 0 0
206.263410851883 41.512815215575 33.8689446380859 0 0
213.719520910396 46.6988358092564 20.1285106896378 0 0
235.217115857838 -18.1018299677799 -4.69966560993976 0 0
137.725237574704 3.35070864075483 5.15838189982693 0 0
177.212099842478 -18.4123401613636 -20.8052905405616 0 0
113.46353536522 12.4177656657899 -7.5902232815021 0 0
202.224154437891 21.3854774288203 -23.4804225608567 0 0
215.342921590072 -31.4176489946238 36.3317803866125 0 0
242.003833463659 18.5957950899172 6.91682091549769 0 0
-12.2264877937815 -10.245465340502 1.23808337782076 0 0
202.928529583843 34.0654035457706 26.2796591086442 0 0
196.839166071137 37.8767576211907 7.20788685669552 0 0
-18.4108448737623 4.70983708040528 4.75525902900804 0 0
16.2767460463383 6.11270398999177 -1.99720032683209 0 0
86.5635860589863 9.43135638542291 -4.35606105164533 0 0
-6.48570945849754 -5.00482790905393 4.12031489726263 0 0
231.862264270873 -24.3651382822767 -15.2662194206457 0 0
243.456978643897 24.2094548062087 14.4909610230923 0 0
149.964246822946 -14.1645277415438 7.42641499450259 0 0
237.057667579917 37.9538231465324 7.10494480864832 0 0
45.6178348942616 6.65665204805164 -2.33357329261177 0 0
199.618921348252 24.409056864038 -18.3705514596149 0 0
217.501255028847 25.9434291616103 -21.4079402357816 0 0
188.378437666789 -7.10785818456112 13.8956649113351 0 0
226.082172827216 -34.5007389980044 21.4079220372041 0 0
165.973980717572 -14.0166878610305 -23.8167895963177 0 0
200.003144542492 21.6689729544447 -21.8093145853701 0 0
154.014874398381 16.0977639601152 -0.536160515531522 0 0
191.698568426722 33.7028978592474 6.92429021427501 0 0
241.085126515917 29.9769900643999 26.7907212505788 0 0
54.8795772232547 3.62748598731393 -23.2564738585134 0 0
191.998964239166 -18.2271614176693 22.803596745993 0 0
210.059554734262 27.0869211000719 -20.8506855544173 0 0
207.235577240674 13.8612755219705 21.5950160975951 0 0
242.586411901614 34.2630187942694 0.97008136155751 0 0
200.725485932783 23.3934666836931 25.1344010538429 0 0
66.2435866989161 -12.9000868126937 -0.479756524313707 0 0
107.193263999477 -7.80190024243047 -25.694467215053 0 0
71.8058430467778 11.3991360838522 -14.7715674546876 0 0
38.9649875777011 4.8234032379775 -22.7400094884363 0 0
231.573808828283 -27.0103129486358 -11.5665353937981 0 0
82.2370044557518 10.5269734123998 -17.778777342976 0 0
201.358955961864 37.6935003130893 20.0126492895665 0 0
33.6065500340034 -16.8973097928949 -5.397789399963 0 0
203.68697968116 29.6545383575617 -14.263007867203 0 0
171.389730324305 21.7692242342819 -1.82974910721643 0 0
78.808746620856 -14.1443170164107 -1.21957638751995 0 0
-15.5397327331288 -6.35942447613698 3.56725046287498 0 0
47.3919557670343 10.741393187002 -16.516250964747 0 0
211.665745615243 6.70671832723743 17.0906934837156 0 0
-1.95700476804714 5.38351236294459 0.188873481265808 0 0
234.53804119759 -15.2680395501899 17.8198551906694 0 0
156.311907423054 -20.3878580909237 -8.84594217427326 0 0
195.189131038022 -13.8960156905059 26.5041553327199 0 0
-12.1366478724592 -17.3389798364175 -19.8028574915828 0 0
203.654753608914 35.3954815774219 27.7521206101659 0 0
7.55598840239908 3.38722353087198 6.24389471917617 0 0
202.251366950362 -16.2504188273403 34.8815434457452 0 0
110.636787325452 8.29891075585186 0.0723386091183462 0 0
154.280955782596 -8.04911487025701 -26.2378984602869 0 0
176.078500301263 4.70726437314347 -23.4580999046879 0 0
115.351996764232 -5.1959765889343 5.34384685836929 0 0
229.687591140674 42.0107367002144 23.4309322023703 0 0
134.279383697513 -18.5283605730212 -6.0897332711781 0 0
-33.1983840479378 -17.9712202397052 -19.0799894281739 0 0
218.89661105304 -24.4104947460429 -29.5525785115419 0 0
201.703263675527 -32.5696052822101 23.7352950807412 0 0
242.996974965794 33.6288395254481 4.39707243978174 0 0
142.13910854386 -15.8205736897867 2.44589578592068 0 0
78.4177967648903 10.1657563086876 -7.06638922058902 0 0
233.184600203959 24.6842728090502 36.5307265132288 0 0
68.43762440092 -6.50273080458927 3.11409015180348 0 0
217.434531018598 -28.7652983183978 -20.2905159479332 0 0
219.091726585327 42.7538918670512 37.6050677772738 0 0
-15.5678074075539 -5.85554292395852 -24.0527333878448 0 0
-18.8134973048683 -20.5584268052508 -15.8632835004555 0 0
182.722161708298 -6.47384291574289 11.6372882897448 0 0
212.071319969583 -19.2282610200643 39.507546079939 0 0
136.325465224233 8.68800655987643 -21.4069508549645 0 0
60.177861768536 5.67993389396412 3.14160846003976 0 0
125.499102046638 -18.4544708170835 -7.52892789303863 0 0
170.518465930256 4.29752748376302 -23.7432912576843 0 0
65.5475472715215 0.872591196542476 -24.3440709938379 0 0
207.137555711483 16.8751486207935 26.953840298394 0 0
230.126988468242 -13.8245388902274 -15.7046633102005 0 0
-45.5372727672162 -8.09022534902461 4.75690286492338 1 0
210.667701733419 39.3927809754327 -4.98455283856639 0 0
183.896798985496 -12.9817127442227 -26.0699357343056 0 0
10.1299841363896 -5.30282303671728 3.66765278296 0 0
218.583457078731 -35.9032438947253 2.89576975289951 0 0
171.78357030646 -3.00704595091888 -25.4580385990068 0 0
210.03292223949 47.7135010587408 12.5511283381009 0 0
228.131853929001 -6.22277037751331 -13.0981191553881 0 0
176.092940889638 12.6570447632064 8.6454475577872 0 0
127.684024206013 -18.8565386686929 -9.88495717579023 0 0
230.962837964511 -13.5611526056803 27.1438781473025 0 0
143.30363540346 -5.22945660217594 6.34011471082181 0 0
53.6277671227311 -17.274896747488 -18.8340837733403 0 0
139.096299525155 -18.3739061011115 -4.16254046009536 0 0
219.705202922461 31.2418828421589 -15.2351445956442 0 0
-3.63981675364442 4.59998884399584 -22.185353079362 0 0
233.078151007297 40.6653974231343 34.0702680959676 0 0
-22.1004391365751 -14.3312143028727 -21.6699446008103 0 0
234.791737032105 39.9018081189698 11.6901436515848 0 0
75.1136955430502 4.87383388536445 -22.7538960450698 0 0
191.334351541228 10.9637315892355 -22.7594372474059 0 0
202.623145270937 -12.3620352839751 33.6544242380652 0 0
184.76919034582 29.1220718234521 6.07211758160818 0 0
190.793742030032 -25.5341689864697 -12.6365052889589 0 0
173.193033667478 22.697112484411 0.973797731388956 0 0
98.8716864394933 7.09262825818884 -21.8576405499457 0 0
-1.5100558552645 -12.2712661756271 -23.198738801197 0 0
10.5005912444123 -18.9862438780041 -17.0902614351001 0 0
203.271337802214 30.9749819428657 32.0094502253043 0 0
149.261193171327 -5.50128708977939 6.80022894112354 0 0
-0.800464659931039 -8.78739840014179 1.73560753917089 0 0
235.878135780495 12.5353914301932 13.0732028167644 0 0
144.320564027612 -0.725352946904084 5.95771207235996 0 0
236.572069944375 23.0293831821693 32.521933285351 0 0
127.473063786803 -17.6277854601948 -17.7972675854565 0 0
58.6789122070325 -17.8375399842701 -17.6991236285552 0 0
223.329138844568 37.3976802993653 -5.55999208254415 0 0
201.169188035078 7.40605808878438 -23.6525708654917 0 0
164.844033074872 3.08601615329413 -24.4545328230333 0 0
240.615093194507 15.9583992756588 4.86430225101913 0 0
188.707669829256 -16.1381028645697 18.8603321343382 0 0
-7.92178892281821 6.21701968539033 -2.81574031359134 0 0
149.906074314194 14.8079882896889 -14.3190664142074 0 0
158.062994880779 -19.8151589708654 -14.5594102807393 0 0
213.675864039176 15.6134884535 23.7105131698911 0 0
-3.24825405623339 4.74282576505631 3.64446163061647 0 0
200.878969013401 43.6489410615043 8.39005167197337 0 0
26.5695757499659 -13.0679365594055 -23.0911612480857 0 0
29.7916594558146 3.87757766213109 6.00544255807014 0 0
-22.1739990147973 3.20922045572572 6.32843450650192 0 0
185.671939922078 0.777534945259051 -23.0884729432635 0 0
161.425831292384 -13.7471410642121 8.69885781667499 0 0
95.8196096563246 -12.0473271451024 1.25929263005895 0 0
45.2305890683894 -16.587328159542 -5.0130320864536 0 0
139.553495303079 -15.867832227859 -21.1544198381944 0 0
201.918626051502 0.630903417226957 18.9153999588342 0 0
211.45831643483 14.4891853579383 21.6903825066502 0 0
214.521541481308 15.9365722280729 25.0102542570522 0 0
26.8826514034034 -18.35705853578 -17.5191592712824 0 0
-21.542198642111 -21.6280698059768 -10.4775522672105 0 0
124.808882696663 7.12050017106434 2.95151653168238 0 0
198.4786066986 26.9826672214319 21.5778195370082 0 0
227.024417403021 -0.0616165418169962 -12.8474530344221 0 0
97.355789209365 -18.277265910779 -9.16692526144542 0 0
49.7958772317696 11.0030578991234 -15.4599909702402 0 0
190.883601456516 -2.31390925344485 -24.4515875263506 0 0
204.061923062426 -10.1583326648185 32.9018071830953 0 0
170.602994371987 -18.3957223402684 10.2163982776228 0 0
13.4858876740887 -19.7565309948327 -13.2256040646759 0 0
177.740064943937 -8.47661045481397 11.2203098386296 0 0
220.102025088389 24.4961511178167 41.1293826322623 0 0
244.097420188272 28.4478993113522 13.6307348819304 0 0
9.26035961234236 6.68753237748502 -3.66269629461416 0 0
141.378453751973 9.63346299270776 3.42751289356094 0 0
85.1967205186076 -15.0297330681373 -1.94072163265714 0 0
-10.5145414968481 -5.00450829621068 -24.2143069221101 0 0
197.809613724974 -30.1674578213412 24.2648462913727 0 0
225.415434360949 -35.7827024787288 12.1111820088408 0 0
199.432198425814 17.4750859568034 20.4444303972298 0 0
-27.1905914512425 3.35668650379734 6.3670747537767 0 0
-33.6044999899594 4.3355213823733 3.42646387040344 0 0
154.665009260613 8.67048283688286 -21.9272909622614 0 0
217.337164190564 -31.8746573512963 -9.98046302620757 0 0
217.970401755666 18.5797232201508 -28.3538257165276 0 0
242.519384911607 33.9223092707689 21.8486568243378 0 0
215.048816063244 43.5706130357769 0.778399540836898 0 0
4.20144443601062 -16.5445370837436 -4.24783954601877 0 0
209.232067572208 14.3490852396609 22.0306324607286 0 0
234.992353381449 15.5950913226876 25.7247861579954 0 0
204.393244795309 46.3703980087903 15.2783951354433 0 0
195.336401795846 32.4948065875651 -2.29810398506617 0 0
225.702904301361 -9.6323820738713 -19.8497832266055 0 0
168.833244322177 -8.69017028066909 -25.9723848537666 0 0
62.2828374090703 11.1531161304202 -15.3539418430786 0 0
158.070213921761 -17.7207810128675 -19.4753463651709 0 0
203.461674417614 41.5087342984661 0.402427516063137 0 0
219.320519355633 -24.8624249097364 39.5222448759505 0 0
107.132124369017 -18.4772834855616 -11.1312277431616 0 0
-28.546309576494 8.21205078056192 -12.7721252536648 0 0
75.1639704553327 -18.2699315107321 -15.6414779735558 0 0
221.85175857872 -5.67063722455125 28.5689218790624 0 0
194.772107490627 41.3383938242479 14.7987024378464 0 0
24.9246852470824 -19.1712435847784 -15.3242511367896 0 0
208.198233428532 -7.3181886736806 31.761528778949 0 0
32.5706737531202 -11.3054004539037 -23.7943661416008 0 0
101.23719575397 11.9209073353636 -8.92021561960673 0 0
156.848062124744 16.2391260882865 -12.5834836629624 0 0
202.31006077037 35.6605095530883 31.84353008874 0 0
-29.5833746865058 -12.6206049239968 0.781181202259258 0 0
223.763678046708 -35.3204860304381 6.66645011400714 0 0
219.990330284722 46.0188161178155 11.0266418582785 0 0
39.7981086262551 4.28946245454607 5.02079486191403 0 0
224.737621235931 -26.5087945080402 37.7842791885997 0 0
230.740732125252 -11.0052190966344 24.2239309286026 0 0
233.601104118308 -15.366134435392 -7.83040440932377 0 0
205.237043649885 -30.0386168983219 32.526236263308 0 0
12.9953800521824 -9.25985636741847 1.36515083479621 0 0
183.815131518084 28.8377449116109 8.13718772227586 0 0
-5.97092513256837 4.70925202449525 3.29651101476007 0 0
203.913655422781 12.6828824212225 -24.7552328287492 0 0
117.708688098186 -17.31433095072 -4.51623345622515 0 0
2.95245066146155 -17.3863729642484 -19.8169018241112 0 0
-25.0720451852557 -7.52486157607324 -23.8003408214762 0 0
170.85857192451 0.293404546179881 -24.8076349900284 0 0
112.217788519922 7.49403989690668 -21.8772474784821 0 0
233.200556831247 -12.7717472638173 -6.06002929481013 0 0
-10.3116106595539 4.7489361308851 4.54874453524602 0 0
0.883305712018911 6.68765384113167 -20.7849987126776 0 0
243.561106004358 24.4911497655736 6.2607731137552 0 0
87.3053473761104 -2.92678522965752 -25.586544571785 0 0
186.103495752013 29.2184995712386 4.10176681996639 0 0
216.436132371423 -2.50402839872444 -23.9063787532619 0 0
199.70569131618 -1.64736319857715 16.7273104152385 0 0
228.749571363422 -34.8296078506902 15.4286543098613 0 0
235.637767110814 -22.7815677574377 -0.874055860899346 0 0
-20.8704410124597 -2.71947740816732 -23.9100059117694 0 0
235.999179688196 -25.6582650975965 21.6290520345836 0 0
237.979290442024 39.3367489172676 29.5576710054187 0 0
219.577628987606 -34.9682354116302 1.97087238762485 0 0
197.795197558807 2.74887702507674 15.6224747195041 0 0
42.4565641579669 -3.46509000650053 4.88305467725035 0 0
187.066491754376 -25.2329764138815 14.6886512067594 0 0
161.301171841585 -19.0363164681709 4.22909950687877 0 0
220.978307449892 -36.4124266481818 17.8238310859864 0 0
89.4991883376255 -1.71603970294878 4.7574361492559 0 0
-23.9863414446086 6.45666017911682 -5.02988115614796 0 0
143.376035366702 13.8652499715893 -15.481069386839 0 0
46.3822984817544 -5.89182682429166 3.03039898135682 0 0
17.512621926323 1.53454200189227 -23.6951463454364 0 0
191.518946344119 0.210819387788751 -23.5042776491222 0 0
241.535448327389 23.0847014314049 -4.16288340388784 0 0
192.964325908604 -30.7530257839331 14.3497922664142 0 0
194.266077341197 34.6582607149339 15.161629142525 0 0
152.850808832342 -14.7189066005667 7.71455557645887 0 0
163.08978142382 1.79194089300154 -24.9314293160642 0 0
115.586207539455 3.50035754747646 4.09804103760423 0 0
76.1917150294205 -12.2603692864187 0.230583993118092 0 0
25.8615494648589 -4.12011159414927 4.39371975206217 0 0
196.086508460034 -32.1339879833173 19.1768899919982 0 0
238.204217616376 22.2819946270072 29.7017814852333 0 0
19.6845252975814 -8.38678066351382 -24.3965999798571 0 0
170.94658233196 7.33450919504508 -22.8109933973679 0 0
222.698544018101 45.6107606827858 7.27168128333785 0 0
118.395710443363 -12.9824529584174 -23.3251983214341 0 0
230.628733126831 1.92378864945559 -4.48126501613807 0 0
193.331395046373 1.03011989845679 -23.2809240749646 0 0
17.5505349111847 9.33967072992098 -10.561187951547 0 0
203.332494620256 37.7900254658588 -2.95375244799343 0 0
-9.4512635561178 4.86025601135512 2.36063584724027 0 0
163.823190067914 9.86879742359961 6.07894651644408 0 0
222.867622281166 28.8401608579472 41.5853106020575 0 0
64.5983697577964 -18.2932090405417 -15.8534424492954 0 0
222.808532924084 42.8753496893752 32.1070480414889 0 0
230.312598753568 12.499135432381 -20.8161444115121 0 0
-1.87582388519308 -3.87100648664727 -24.4293057899138 0 0
158.469337995856 9.09519907786486 5.59528134254359 0 0
31.3912314820311 -18.7234825807145 -9.30496117776494 0 0
-25.8617817342619 7.26661186442496 -18.9017822316272 0 0
196.027150420035 28.42096066285 -9.90632982561812 0 0
-12.2325424324364 9.06398775597357 -13.5765287023506 0 0
183.14494581733 8.05882440627205 -22.7666485181754 0 0
45.5750643479028 4.69063903146192 2.93562653947617 0 0
-38.1695714887038 -5.3136673677723 -23.5235958642901 0 0
154.151328166378 -5.58846388309413 7.37052820536779 0 0
232.759544461868 37.7602374987235 1.61455182117479 0 0
6.80280587724782 -13.1249863199349 -1.17816026800496 0 0
114.381458485876 6.49901297813846 2.38178571301201 0 0
214.633819751034 -34.3773385026304 -3.57525250455084 0 0
219.943745328055 45.0216387496132 23.6793774421701 0 0
-25.7385951236732 -17.3291184182627 -19.6519471503436 0 0
121.370068026612 -10.3366112139366 3.97846734369833 0 0
-22.480492374208 -8.39984946600513 -23.7328870187613 0 0
197.947096770714 30.6565289194467 20.3901964875299 0 0
54.1956959197586 6.71351131141757 -21.5052195152303 0 0
206.829095064859 46.7621295266207 6.6824858018413 0 0
172.643900677235 -16.8599121847691 -21.9418302278385 0 0
233.680975957825 -13.1500111059371 16.6081295401526 0 0
243.464844549434 25.6016055676241 17.0886300497067 0 0
230.57174640494 -4.04742902382999 3.08902732909664 0 0
148.504310368279 4.45591366804658 5.39413583644278 0 0
197.511819882207 -7.01149511228953 19.0300113902818 0 0
242.347274033023 35.8413262240751 5.56312530477984 0 0
-36.6769825849902 -19.7950051153163 -17.6495991260339 0 0
98.6843925792215 -17.8692585936426 -16.3021922469514 0 0
242.483168095309 20.5806826859819 14.6495137833364 0 0
234.562904174604 -31.627781979037 3.98079601336628 0 0
197.722806339385 -10.7411532776547 28.7490478411045 0 0
168.468807078608 -1.18866293513266 8.13490479851346 0 0
168.968671057057 9.78910219587005 6.93920143940377 0 0
-44.3113133001405 -21.9667035071614 -14.6420203879346 0 0
-48.6709367816348 0.100659236107692 6.52692916724307 1 0
104.392141766673 -8.69372324714522 3.62430702704264 0 0
213.731680736051 16.4870773362421 26.7829320771061 0 0
227.13576126603 -34.8810921299845 18.5054534814759 0 0
212.992730235026 -8.18811363641792 34.0005169222888 0 0
21.6814774764855 -10.8169298930874 0.393017926074835 0 0
99.9196330950878 -17.6912592654156 -7.15109334911599 0 0
56.3414730202819 -1.40327735961704 5.96538949872511 0 0
217.445596149031 0.280466469530553 -21.9579142102514 0 0
13.4581609233779 -19.5573497892189 -10.2006339199953 0 0
17.959623719882 -7.3761973490136 2.30365266057339 0 0
-29.4408417980191 3.73545532878668 -21.7951267269126 0 0
235.411974566346 -16.2165446738886 2.06672456881891 0 0
-44.4380837294717 -20.4770535279965 -16.9715569500399 0 0
187.588385042836 21.6734151162002 -13.5278132838188 0 0
179.877229113465 21.0225589756906 -10.6636221096791 0 0
-5.02438461390089 5.38684900766992 0.108677539253578 0 0
231.337127192446 23.4225866203201 -19.253357529747 0 0
212.170246486591 43.0035653118954 32.772504074445 0 0
220.120803162558 -4.97790203191309 17.3955644083439 0 0
20.7514239710056 2.29013550060494 -23.4777128719954 0 0
101.697268734153 0.681523565124869 -25.1416857340395 0 0
239.602634306513 35.4517755251289 -0.992290247382705 0 0
-13.5117880415424 -6.51527179913227 3.45531565103851 0 0
216.279249907891 -30.8616877281963 -13.0141655973519 0 0
216.925085048201 46.5729943435481 8.05958562571983 0 0
173.668477560284 -16.2521995197648 11.7123183892738 0 0
218.612387303348 -2.41104541394607 14.9707656225491 0 0
76.6288708237637 -0.453798957214566 -25.1346363374781 0 0
226.938413831052 -12.5254417436157 -20.0661515108816 0 0
213.241029919358 21.4573013703413 -24.1330749366955 0 0
30.7255067557232 4.77864882112574 1.86691493819286 0 0
204.216223936716 0.0969691027123928 20.0281189733197 0 0
215.310858682653 16.3311791292778 27.6177519970082 0 0
159.303734595364 5.01518649989883 6.31122493239179 0 0
189.114712722407 20.6566328960365 -15.7079182249633 0 0
230.542173971082 41.4881965644139 9.61181286703754 0 0
199.89734211819 -18.5804900994536 34.1522304416468 0 0
185.397834609719 -21.3676080651223 16.5044648436291 0 0
8.44423279955798 9.61420042880077 -12.2249124146688 0 0
220.838264844639 -37.1628473822413 6.81881739489038 0 0
231.506462896669 -31.7444358032147 3.3302615831745 0 0
198.048327737312 44.0382611171622 14.5944165749328 0 0
35.8323423987103 -7.16733912085011 -24.9106852186347 0 0
157.339311349774 -2.00285336489334 7.08440823628023 0 0
189.618403551451 7.06727288764892 -22.6579909785405 0 0
-41.9397936433162 -22.1680052693229 -8.83526997053434 0 0
207.032982280983 30.9727950689969 -14.4829689138105 0 0
235.867349045268 -32.6274617923092 18.6445724478098 0 0
3.5128397189577 -9.06141060174843 -24.074688314365 0 0
198.110836283381 -19.8937781599631 -30.7549448332692 0 0
199.731352182502 -4.2049133928945 18.7171875079026 0 0
229.53054758967 12.3650561664188 13.617008337889 0 0
48.0885812564718 -15.5676525462966 -3.62865266717968 0 0
180.719154881419 -23.3827787079623 -8.29536136809623 0 0
156.63288185894 -9.91676588756454 8.18623621701289 0 0
215.123555900662 43.7313176364737 28.5062295634204 0 0
218.796400623975 46.3808906596687 8.50337687941269 0 0
206.101943272918 2.13684191808426 19.2224011817488 0 0
232.967954780198 13.506943750311 16.1235285605847 0 0
147.420881275028 -12.5452555190606 -24.4018973549294 0 0
229.166549733217 -13.6169330276684 30.6258483463694 0 0
-31.1571963289388 -1.8862374464813 6.73575481814093 0 0
104.604482241791 -16.8149989778372 -18.7667753464858 0 0
222.372807343532 45.5668355969546 13.1566688341012 0 0
132.02847891433 -13.9265471546495 2.52847055271493 0 0
189.517913332607 32.5860442221037 7.66956948677152 0 0
78.5521828925525 -17.841139482576 -17.2747793546766 0 0
-41.960576431374 3.05198267450832 -21.3593118646115 0 0
177.746611834884 -22.6747620757312 5.51927017029739 0 0
238.843774030344 37.8057690411987 9.06215556245941 0 0
211.322558249907 -38.9618576610843 8.96887911595618 0 0
92.8569352399686 -11.5348882336396 1.43653742092369 0 0
196.492548710571 42.3326745684381 15.21557648054 0 0
211.86511726909 -27.3562683341382 -25.764259655695 0 0
233.182947208019 6.24628097347315 1.5036131706733 0 0
-24.8810001182441 -0.237076469455087 -23.2725716033334 0 0
208.025236830758 -31.508246798258 -9.47455613034275 0 0
224.848673102645 -5.71093454837565 -17.6053280953799 0 0
197.309413228887 36.4475696872763 19.0678540885476 0 0
-27.3235069168345 -11.6693328348622 -22.8676984456644 0 0
228.367099872969 -34.684330425966 10.0152981472633 0 0
35.8535806254574 -10.9168576468043 0.44553752635378 0 0
-36.4809603862027 -5.23017409465801 5.0734855494895 0 0
10.4578175831631 -19.7831181933726 -10.7111486275808 0 0
238.748680414191 24.5158383193756 29.990262997495 0 0
-41.173127555606 -22.3670121067345 -12.8673960737812 0 0
-0.0684517541233515 -18.0358868553358 -19.0644803748375 0 0
198.758109151826 6.03306713471806 -22.1843502679987 0 0
151.489103009357 -17.9482820917502 -18.637033550604 0 0
227.49056570943 32.4901133291529 -10.0251008547895 0 0
14.91667935699 -17.1275014573667 -19.8128015168441 0 0
197.962314714807 39.812903403218 8.09841155666769 0 0
54.2923504941755 -12.2826199683385 -23.5158258804069 0 0
229.072344416404 15.681832323958 24.9650576459225 0 0
237.435685250831 18.9352398674889 -15.0082221105689 0 0
92.1318978935012 10.2519170951851 -18.6229046059426 0 0
175.650743098291 7.44803548406617 -22.7841561307963 0 0
-37.2623772002127 3.91468041512612 5.98238034477338 0 0
91.0434073157281 2.99888511603605 -24.1625603815347 0 0
199.619183053786 40.5659467074406 4.9866988228057 0 0
225.181195393956 -16.3334257390378 36.1928022527993 0 0
77.3780087530958 -2.39849019065476 -25.3627380239715 0 0
224.198835926155 44.9744155043727 12.0015102941914 0 0
96.3175385016766 -18.2388249752867 -15.0683145109162 0 0
115.316804812416 -1.99002498229229 -25.9078219469983 0 0
180.852276991609 -6.26631246083666 -25.7242386788814 0 0
-2.95264219199469 -17.9872525415772 -19.0527621743795 0 0
225.220926551884 26.2869230074376 40.7933282336982 0 0
215.404185732589 -32.6658439833502 -8.35392063384273 0 0
-29.367872082799 -3.98680638132829 5.17468394740209 0 0
117.53474479233 -9.57687442696043 -25.27434338726 0 0
196.312882846088 38.062959880186 17.6169707298064 0 0
227.372809064685 -7.68554351885035 27.5379433997245 0 0
222.013673673772 -34.0237860858713 27.8953002284342 0 0
196.821141502105 40.481246978323 16.5135489431119 0 0
205.941103001808 21.509402006108 -24.3107868002353 0 0
180.226654080539 -23.1450281322184 -4.43615115279603 0 0
227.580364667187 -21.5196174040846 -22.5838023812294 0 0
11.3996073788442 -0.874520926454992 7.12238234787318 0 0
130.60011455028 8.80703786108395 -21.1879092821827 0 0
122.874672765558 -15.6469074578927 -20.8470500687061 0 0
115.137036721842 1.06979397425654 -25.1297680922624 0 0
152.118765056551 -10.9651019737507 -25.2948182285383 0 0
228.313914525321 0.824795345341764 -10.964025825643 0 0
104.688196469643 9.47070120889685 -19.94895232111 0 0
202.395973869338 -5.92406949557309 -27.999251410025 0 0
96.7759632356159 9.94860745706807 -4.17325195364437 0 0
73.9441586758642 2.61318837174932 5.44156293786299 0 0
243.014319299039 35.7012691905041 10.5343923678117 0 0
192.909564762488 33.2916621623708 3.71319944346585 0 0
180.23807571436 23.9949413352212 8.96069956367204 0 0
137.298826799945 -19.0951555312355 -13.6320863245791 0 0
155.481868112567 -15.0782991619733 -22.5725917081767 0 0
5.35377262172642 -1.63045031576128 -24.2965482641557 0 0
230.985979860096 26.2133639796116 38.3731547830628 0 0
54.6484834391619 -15.2612506525802 -3.19086732830363 0 0
156.600968906617 17.6102347981432 -3.03035834745617 0 0
223.855467612858 -5.62464176665318 24.7484663835146 0 0
-37.0327732911385 -12.5028329361586 -22.3141613890983 0 0
6.03587360951194 0.802211768627186 7.29141259082179 0 0
217.96072742435 6.58050755344618 11.5210051298683 0 0
46.9932568016583 2.93845106970618 5.86949213132008 0 0
213.89992254093 15.2674069494458 22.3161595985803 0 0
231.138431916484 -19.5358804162147 31.6287478005182 0 0
188.191878761055 -13.3903448015111 17.2929086167783 0 0
195.601831583727 -3.59187053195462 15.9063258798644 0 0
194.242763803314 37.0617540227546 15.8282364315646 0 0
184.285543811849 28.0617419138211 3.37317529850211 0 0
199.863100130286 27.7027630228693 24.5950452620537 0 0
203.692835307548 45.759505212961 10.8969267837309 0 0
170.370564935912 4.41332588814445 7.81945414068167 0 0
-45.2032005221652 -22.6077924712366 -10.5468942666248 1 0
94.3631820436618 -8.10241980304491 -25.4233814369789 0 0
219.258708697904 6.16844209522107 10.1244879136508 0 0
5.71999441410763 4.4061698883927 5.3726225840256 0 0
48.9368433461129 -7.26439929444562 -24.9943895238161 0 0
173.507478026377 -12.016533042952 11.1016482657142 0 0
24.9692715221968 10.0506626784546 -12.2536352560034 0 0
214.769587149539 -37.0788412323377 4.51300018051757 0 0
163.323974178156 -20.311669886342 -13.6978325425313 0 0
190.262802617434 -13.8596148313048 18.9678477333704 0 0
218.064060496059 33.4549553366211 41.5865231516457 0 0
199.784563956108 -30.6077082169505 -2.96628748434917 0 0
72.6717630309257 4.62213437176985 4.01883200238654 0 0
157.387799870808 -20.3165010494759 -11.4061420989126 0 0
182.876395682677 21.059689278792 10.7817455194543 0 0
211.228078464682 -2.16987080145084 -26.2482140909632 0 0
21.0383517778059 -13.3729111863625 -22.9786561528975 0 0
223.404737231989 20.4994726438173 -27.2821665589245 0 0
243.528875913391 29.0930539367849 18.7709954517079 0 0
229.068298022399 -11.9437564631335 -16.158612755936 0 0
184.332403951447 -10.6728610512569 13.92905404394 0 0
153.276211858638 -13.4092671050645 -23.8942995950791 0 0
205.587752690336 38.4875282853449 34.0559385242901 0 0
185.193833524545 26.9511470345426 9.64573954624772 0 0
202.443935190157 23.5732993656692 -21.6408578104618 0 0
170.130472925273 -6.08720607973944 -25.9874943922247 0 0
-12.1562197420981 8.2675850615826 -10.241640829144 0 0
189.788548055026 -26.5083730043489 2.68727128195549 0 0
135.005713474234 -3.38133891176808 5.96701934144354 0 0
197.547921504578 -4.39248627768031 16.698900286431 0 0
220.859219001287 44.057194957525 3.21760515218559 0 0
214.501417497981 -39.359865968479 10.7623869948269 0 0
228.015570900369 42.5881485292013 27.5259983335464 0 0
-12.3362441863534 -19.2904579299743 -17.761141572254 0 0
107.925745234284 -10.7403129859077 -24.7456521251965 0 0
181.237289572851 -5.91592616335028 11.2560279770781 0 0
162.852418348552 -18.2123197731948 -19.1232505710699 0 0
213.518146382651 -38.3366458285041 19.9017284089778 0 0
214.63483637741 24.2685887902655 40.1898016907539 0 0
207.287066095961 46.9269391630259 9.15947759365985 0 0
237.768927818667 14.8796883554599 -8.07390325036844 0 0
42.898672667905 5.18477295566817 1.06581204377567 0 0
225.342181596079 -16.5208570494433 -24.2192327458697 0 0
27.5865129449788 -19.3769981966658 -13.539048944069 0 0
227.628766355168 -27.2008924411633 -17.3119981152682 0 0
42.3074613964785 4.44277721480705 4.30091574606534 0 0
40.278804329101 -1.99583859835338 6.5600234309344 0 0
89.7275038483095 -17.122072508366 -18.5042131584129 0 0
192.703518445111 24.0541086273077 -13.4729495596086 0 0
178.829951864284 -20.7067210164312 -17.4296976480443 0 0
208.975504053572 25.0511749602092 -22.7040772220413 0 0
234.588735162335 -25.5125806471333 26.7612289058517 0 0
192.608032998777 27.7464473099073 -7.71623627191945 0 0
203.413769810708 35.6100577402573 29.9510538275268 0 0
132.251154993344 -12.909157254457 -23.5595379891056 0 0
1.40933295521743 -19.8765677223789 -15.6176107026207 0 0
179.825687333732 15.5999627098722 -18.5170543152673 0 0
197.329041196879 16.4254577323896 17.0469812845625 0 0
200.650945324069 23.4451807580441 -20.2708707593218 0 0
-8.63766088012669 7.04271841283171 -5.60779336596221 0 0
209.060010226832 16.8890794644296 28.8952491290552 0 0
44.1260216025447 -17.1904993027428 -19.2435563484873 0 0
213.214394402214 -33.7888077642924 25.9822856780824 0 0
197.961603624202 41.1227515781358 9.44575040761463 0 0
199.722717585101 27.3009141390502 -14.6647751898749 0 0
3.71582840618737 -15.3945319963302 -21.5271947356617 0 0
53.4858067607966 -14.6581186214383 -21.9919817784231 0 0
68.9031912682794 2.11258413095657 -24.0694120346407 0 0
-41.2954240401158 -14.9772424539619 -20.9543189102234 0 0
191.457050165287 6.16408599211956 -22.7320701409194 0 0
237.573499644692 12.8682915600276 10.34271372537 0 0
219.277271687458 -15.0558759167077 -29.2028907475723 0 0
202.034525206423 45.8595676720248 15.6124769493449 0 0
73.6359535419517 -17.3677289789301 -6.7914613344201 0 0
164.707915673965 18.1843104345204 -10.5276188123083 0 0
66.6981971856446 -10.7719783981226 -24.3701009670788 0 0
14.7266330146052 -14.5819312133747 -22.0871135505701 0 0
195.532180201048 42.2244534054578 11.5038698650332 0 0
141.74552049702 1.22786994421591 -25.5408508627473 0 0
223.778544812949 -12.3288165138026 -23.9650956126864 0 0
219.314894140559 15.989482579156 26.5864303391055 0 0
160.689931471955 11.2284296450946 -20.3969212638801 0 0
203.425815934634 16.6146825126248 23.2743192479697 0 0
107.693532454021 12.2452076191171 -8.65019080422292 0 0
228.52792847634 16.5211906609756 21.9101514426453 0 0
167.91467610818 -12.1535765519059 -24.950241807734 0 0
231.743521653316 -34.9380442594483 13.2091991840996 0 0
70.1757221430953 10.4972176384482 -17.4474251039859 0 0
232.573279308641 -27.6342918610027 -9.32497873165688 0 0
89.6998480982211 7.53848954082665 -0.518934869795269 0 0
126.881024561359 -12.7162966220368 3.01624684235025 0 0
88.6470981793985 2.69980662193356 -24.2473227487816 0 0
49.3049370592612 -1.83043390889192 6.04575492781589 0 0
77.2166977173395 -18.5923856997286 -12.8853420920651 0 0
196.672927988699 5.54884446841266 14.5697975352087 0 0
60.8838090982324 -11.8608368378365 0.161323348427399 0 0
203.265530250946 -29.3372966796159 -15.2364307745441 0 0
24.9417308681375 -17.4879797286611 -19.1423668420033 0 0
213.852379949812 46.8804424507628 11.1033151455236 0 0
22.2631398931141 8.65911789615315 -8.58931290119137 0 0
238.440194767325 21.2736347930169 -12.5038795294888 0 0
228.532484200903 14.2456575217476 16.482278606513 0 0
75.8609814432346 -14.6392682864997 -1.88711206649518 0 0
223.914280848769 19.9589481976762 38.6331930920695 0 0
208.413329045491 -16.911821281338 38.2702422079716 0 0
206.870344471412 -6.98886658135177 29.8514067348861 0 0
210.896475899889 -38.3152878694144 7.47152714998808 0 0
166.611837710282 -20.7120198374267 -0.190233719003516 0 0
-32.1588530544795 -5.87588091192319 4.49242429991287 0 0
237.228157778712 15.4130163170865 -10.2208473508787 0 0
-19.8514880989979 -5.2696129350181 4.19533205239629 0 0
240.45445257136 32.1454175156568 28.3107861100835 0 0
234.280043569553 -35.7672351225654 16.6809180279812 0 0
207.628370795881 -21.4264232118931 38.6608198673316 0 0
166.634208930593 11.9789431607449 6.23837719339043 0 0
57.6046240612754 -18.5791296242231 -15.086952904724 0 0
10.4465106992129 -13.1083284903129 -1.22225612265805 0 0
174.689564879971 15.0066090977809 8.25605788901262 0 0
242.816537187186 29.3752741200053 -0.691180755584453 0 0
34.6179404483049 -15.5573398625488 -3.5255678047281 0 0
-27.3595268936869 5.70383598310585 -20.4737935790338 0 0
215.880880324943 16.2331134730664 29.5094807849431 0 0
230.468551299879 -9.03652074858423 21.6081810959426 0 0
189.663216638534 28.7771844609903 11.6835503841028 0 0
-36.746031482974 -10.8925931294018 2.41817591700005 0 0
184.426378997841 21.0299424848735 11.8359624448204 0 0
-37.6168002153128 6.92427686556728 -6.92724601626773 0 0
174.193122765246 -3.13205135977589 -25.3791510037657 0 0
229.401737157348 -32.5562006098322 32.7350992854771 0 0
63.399885586624 -18.3401061241288 -10.0300714973753 0 0
109.54967764775 -14.1556746895382 0.297774412040757 0 0
176.530216861251 -16.0651639523528 -23.1010790180976 0 0
13.6534279742815 -16.3286503537082 -4.24553196642873 0 0
218.635787657673 -36.6163780654855 19.3951431511071 0 0
206.162933145236 15.1795704733249 22.5293043733117 0 0
226.22446932851 34.1605546193794 -8.97802815130761 0 0
219.805196984711 14.6282250774893 31.4938834006961 0 0
230.175711351524 -35.0242065029893 16.6725021295907 0 0
34.2768107566997 1.83669710292941 -23.9347691917561 0 0
223.546478829298 -3.30260984280151 9.89542968604838 0 0
139.470619690593 11.4499554834465 -18.9169323432447 0 0
230.430717243198 -9.50218993758444 -11.0938193839456 0 0
189.589741286506 0.0853105808601322 -23.7228146209477 0 0
43.7778326418619 -15.3495954117575 -3.34074261324155 0 0
202.328635469009 33.4899389426833 31.4242805584564 0 0
19.5475594897786 8.17344977395099 -7.27427344567699 0 0
123.916134230144 -18.8017189895136 -10.681768811457 0 0
58.0506072825549 -7.54244954293541 2.35328310616654 0 0
231.586363591714 5.36671019546889 -6.60192465959694 0 0
214.887297623909 14.7555216772917 20.829457883649 0 0
198.528287993169 -6.76513877618559 -27.7141987028902 0 0
182.458283984456 23.0411902742326 10.4621502074158 0 0
-40.222873248571 3.37303626171827 5.99868234500948 0 0
175.195714897153 20.1984544560636 7.59615586110633 0 0
213.640150115687 -25.5487136637338 -30.5668949777522 0 0
197.663790466395 13.7195789211844 16.5141483472152 0 0
184.600817675042 -22.5261871320715 -16.2326455375516 0 0
-26.1979137052327 -14.7301346015212 -1.01327228006266 0 0
151.634165183843 16.7316176123796 -4.53520455896057 0 0
164.028049169017 -9.23859732843361 8.8824812448543 0 0
203.26894895849 -34.1486616682498 21.9589399280454 0 0
184.339646971613 -18.823415382478 16.6286847571217 0 0
233.320824269016 23.0786392138572 -17.7246385689338 0 0
194.68152301623 31.2084277688293 15.2902276114796 0 0
242.797022383 28.5225282839932 22.2131794826984 0 0
240.667863012372 20.9089547320246 22.959847042948 0 0
221.638005708161 2.99545627103874 7.52567759587732 0 0
-21.6176244391711 -2.479850758551 6.14295203447843 0 0
72.6000028066424 -10.9794897924808 -24.3148097235496 0 0
65.5643762558094 -17.9534004973872 -8.35996516555029 0 0
227.955603972777 -32.7216571214913 4.30337950904582 0 0
33.5605064429843 2.1290371472749 6.40750300596429 0 0
173.496884263374 8.1251415102607 -22.5455258941718 0 0
99.0251080176628 -11.2579714990692 -24.3772385722678 0 0
169.077511169653 1.41287609421027 -24.7117266542475 0 0
21.5547569385121 5.42923964084211 -0.315337011958538 0 0
153.105978943468 13.2100925643665 -17.8013288143451 0 0
33.3767867483182 -5.87594888973228 -24.8989573287712 0 0
203.433430140734 -4.97320710675031 23.4809974366711 0 0
227.432110775994 -11.3630017883977 30.8413918870849 0 0
183.712084676144 26.2922807745674 -1.36752179500137 0 0
165.474324847994 -15.7087893954083 -22.4458775196484 0 0
219.537027795938 0.603552301647741 -20.3793903657495 0 0
172.408943025723 -13.9852329432468 11.5394695346151 0 0
58.2899504353717 10.8955810796697 -16.4787772627391 0 0
236.412569263706 14.7502297938067 18.8724813209215 0 0
207.894831454419 46.6064309991108 5.17563999381409 0 0
-43.2915071707428 4.91305393379553 -19.8139114341896 0 0
89.8094464760652 10.3677005662634 -6.0780049018853 0 0
45.1621240890768 -3.55683949219366 -25.1946921747986 0 0
57.3066378209688 5.77335636180703 0.436843352391487 0 0
196.575105359166 -8.97613306399624 21.3505648001314 0 0
186.980735886936 -25.391954387873 4.31208047088718 0 0
196.341038115271 21.6714816164069 17.1502901289466 0 0
-9.92877619100434 -2.45710104831485 6.20332598607383 0 0
194.419313752576 -31.6648083388148 12.7698226757123 0 0
176.248201455741 12.3510604484484 -20.6080084820552 0 0
13.8464545716301 -13.9102397417268 -1.90272615587373 0 0
210.032813028221 47.1453388562039 18.4008070098299 0 0
229.625445601668 -30.3383579482216 -0.554197304145555 0 0
205.248185563723 -35.4256364983183 22.8892346480909 0 0
183.886560675688 -24.1562803078561 -0.260260183496212 0 0
226.612515447135 44.0260449849359 12.4855714767423 0 0
22.5398663785157 4.95942520997389 4.36700547647682 0 0
61.9126215369419 1.34362203674305 5.98865002645468 0 0
-19.9168512002947 -16.8370715211862 -20.0666647606569 0 0
232.53689796612 34.1244671086742 37.2161812843231 0 0
231.21948701723 -8.54029777594292 16.1467500767482 0 0
81.7736823828456 7.43646487179337 -0.883636381002123 0 0
212.372984081838 11.3888305355942 -26.3363900002677 0 0
-30.0814749829919 -10.1616422152798 2.29761978321958 0 0
230.19229879321 -10.9869404951032 -13.2337886516901 0 0
-30.9475479581577 -16.6417362146679 -2.12572439822726 0 0
218.948968326958 -32.6096831251488 -7.03674468254164 0 0
175.478942086331 14.751612733147 -18.5380534079705 0 0
189.742494093274 15.099012098601 -21.2316270855292 0 0
189.876396554028 29.03278849231 -2.0776700447367 0 0
8.52518227850159 -18.7606332038188 -7.35194844082749 0 0
242.839461363378 34.9505183449387 19.485185542708 0 0
79.3800147637542 -3.8629899855135 5.11084279626188 0 0
-34.5327681760543 -9.70271023182098 2.96257431907134 0 0
127.770524346834 -3.20489329137763 -26.2961016745311 0 0
202.05946579433 31.8905611192193 26.7292589651721 0 0
235.49883071939 -24.7534583468327 -3.09571031208551 0 0
54.8371620512688 -6.95119558877113 -25.1599307465639 0 0
226.381698354415 27.3665268919892 -17.7439487327844 0 0
210.723091684183 38.024229501348 -7.05715860812337 0 0
243.826631625752 32.5399762624199 11.360530851038 0 0
217.762452614385 44.4705006678526 25.3061597589689 0 0
216.792196382666 0.450382987268568 13.2729316504029 0 0
-32.4728158265552 -11.7419606214752 1.52717564671647 0 0
191.452602665335 -22.8846601213925 21.6993576109189 0 0
216.626557586413 15.561131824515 -28.612287393474 0 0
207.508629821005 -33.3251180645 -3.95925021764247 0 0
180.447121249655 -15.2398273797687 14.2840614402663 0 0
231.803886334436 37.9539967480208 36.9584460151893 0 0
220.556655113219 -26.5104820386982 -25.6128430327635 0 0
118.072793532114 13.0437972060339 -12.7971366529265 0 0
210.721644422841 -7.69159427567077 32.0650223562921 0 0
180.044785009407 5.85265431615512 9.16711875096682 0 0
30.9951163746693 -2.83861555435516 -24.8205598233025 0 0
209.620195558293 -33.0880611922834 -6.66205738871704 0 0
62.7202466139262 -13.9740361106789 -1.50723688696941 0 0
225.879308622982 -0.673673516336367 -14.3080706345797 0 0
242.030306463876 21.5638622687973 19.967919788654 0 0
101.746652041819 -9.53307415054169 3.07336911240353 0 0
224.823863348874 35.8255412774998 -7.29348365246853 0 0
-8.65430674370722 -9.47465367836861 1.56449839730962 0 0
85.3334777629597 7.96049838701457 -1.71401196744899 0 0
129.228850343349 -2.74097188804987 5.55125107709632 0 0
223.215330830404 -5.47961668772014 26.4497994675758 0 0
67.3644439241249 -0.609529909965856 -24.8677541922868 0 0
110.435362074516 -9.70195875991011 -25.1672568146924 0 0
180.380308705021 17.1301711468203 11.0757137474422 0 0
213.62957664339 -10.9645466676676 36.6556915147916 0 0
187.772474009082 -26.1186475097592 8.89425829540021 0 0
49.1022031373159 -6.93343902296012 2.48849215677397 0 0
123.728753298131 -11.747087056357 3.38016393565999 0 0
230.510465071617 -6.05145967214678 8.5998136991893 0 0
224.293559493172 -34.5472678774676 4.97986063536433 0 0
168.440325499417 2.06572541528358 7.7697348497215 0 0
234.046730333092 -33.8932071844167 9.03905962188811 0 0
227.663151735997 -34.9526543105271 12.6010370864949 0 0
91.5753429799963 -18.6260933058014 -12.7379762895531 0 0
180.300140835576 -23.1453665329674 2.75969829569839 0 0
169.329421094737 13.5358171812999 6.4997845252343 0 0
192.912980360839 -28.0716072768222 1.32849120624231 0 0
229.084101338334 24.3145874043403 38.9510433887979 0 0
228.362985098615 17.900446537177 35.3757464393545 0 0
177.112621929151 21.4289881673514 8.17584201891908 0 0
194.203957065303 -27.163447286255 -10.6878744583302 0 0
142.11527987761 -4.81931707187001 -26.4079499355334 0 0
70.1015242452509 -9.66872657633202 1.58771624448041 0 0
165.601347673106 19.8836244815813 -4.37810600826199 0 0
-14.7089612988047 -4.0937542926571 4.76665984796646 0 0
-13.5842834611441 6.94849502796649 -19.9944917428931 0 0
219.809096708461 29.7044898363553 -17.215564348652 0 0
204.107599656332 -30.8589179009737 30.2289256021645 0 0
-30.4880067657369 1.38601839190256 -22.5440905994518 0 0
56.879437753217 -9.53898845182186 1.50198340688549 0 0
139.660081230446 -14.6411336372404 3.39384518625082 0 0
191.488755783483 -10.8227158362448 16.9778443403931 0 0
231.370596345509 -35.5227726644873 17.4071290759185 0 0
234.505231273203 -22.1292530395162 26.285448024819 0 0
66.0225572921736 -14.9430272284754 -2.58311646376652 0 0
128.605248194172 14.0024544096259 -9.25578721735228 0 0
61.5971677118064 -17.7528533806259 -17.8721296935537 0 0
21.9336607954831 5.77434828376412 -21.9948936726026 0 0
224.07902120151 -18.7158384746812 -26.1531109171344 0 0
200.663017546184 -38.2802240853232 12.482154469388 0 0
24.5928806292839 8.97691438991671 -9.30464118371831 0 0
187.257870405385 30.0809688714802 5.2462255767587 0 0
227.15896833806 14.9211256164102 28.1184686524525 0 0
65.9043738728072 -16.6875520957424 -5.37504775991723 0 0
164.277276814024 -12.3403680014695 -24.7688944954957 0 0
215.934775320932 3.65288980062814 -23.0468164619603 0 0
225.334225634207 21.1551861514632 -25.734736976856 0 0
223.130474592303 -11.7431694655849 34.8951284185246 0 0
36.4796726491476 -12.593753405531 -23.2475859118586 0 0
197.681558639065 30.1092935368336 -8.68624330911385 0 0
34.9292721256034 7.82010572620323 -5.7583941012584 0 0
29.9479445231163 7.17861777034681 -21.1414160246599 0 0
133.270524542815 -4.74501684539249 -26.3852979059549 0 0
222.832995590078 32.5934183595403 -12.7637130803601 0 0
33.0264801487499 -3.3550272003445 5.0293561293045 0 0
220.603827025227 16.2585467208157 -28.718181479446 0 0
135.383529999349 -19.1332758794474 -12.2251615390402 0 0
209.916789329307 9.95246223186359 -26.0309075360697 0 0
-2.27827493063032 0.930353948274965 7.26367420906584 0 0
-24.977599265151 -7.03849275801619 3.5923946363867 0 0
-3.5990675217222 -3.30121967957911 4.96911236429886 0 0
116.743053699916 9.52979998615233 -20.1779041483735 0 0
165.964896934259 -8.43977323433723 8.97796252739889 0 0
200.106316258125 39.9115887845459 3.24150270246303 0 0
188.32090263515 -12.6728858603979 -27.3961300399926 0 0
109.706811316325 3.01514779225331 -24.3355698044137 0 0
194.752392132644 -24.7962501012514 26.0012450138171 0 0
42.343306019998 -0.654302074834846 6.39054893303196 0 0
202.915292805362 -31.2372598255002 -6.35360913627748 0 0
203.068472957477 17.0179469958327 26.6545999816345 0 0
154.62558652074 -11.3450629261157 -25.1639539349431 0 0
191.535815339901 19.6754200795996 14.2419528592692 0 0
145.328491162903 -19.6782786335806 -10.1031295164051 0 0
232.064391431142 -8.22436607864129 7.56186697023711 0 0
233.226086500677 25.4834344088241 -17.0155110728468 0 0
90.3866740807479 -9.74974332740215 2.35018447182574 0 0
235.166773751785 28.9832280445699 35.3714132702822 0 0
94.3252313968041 -17.8236533145175 -7.5790792679023 0 0
232.515096620699 -13.9943136615691 24.3293266321044 0 0
1.42881784191737 -6.09688584149227 3.26891651526982 0 0
219.499492689151 13.8618302824423 34.398777130771 0 0
75.6040843582809 10.6282102355996 -8.74582701263198 0 0
235.329705318301 11.5516890188963 11.4102293200056 0 0
198.937630783157 -1.75748976483892 -24.7521488660872 0 0
-32.3862450878373 5.86477370670414 -2.80638859799872 0 0
128.140622057021 7.99991580480863 2.72870565475982 0 0
199.587846022705 -29.5954440158758 -8.06532998111865 0 0
157.19235562568 -20.2924793004049 -5.85446043394814 0 0
220.248512846823 42.6879189516246 30.1716381886573 0 0
179.878691314684 -23.0502949122147 -2.33905246139491 0 0
152.660300920538 -17.1824614037319 5.00025802716081 0 0
201.731772015397 42.3120143842221 3.71665137736672 0 0
20.0692687429158 -15.6700944662536 -21.2989428006248 0 0
228.450957243474 3.81428755909811 -12.3857386009308 0 0
-19.1429214211122 -2.86895132594898 5.62645821027654 0 0
199.248941542164 38.8467246194783 18.4054474419954 0 0
216.10921293825 -0.763903447584522 16.3695907434026 0 0
-5.33184840709222 8.44568711303702 -18.6087609850047 0 0
8.47988876734614 -9.40260608322221 -24.0983443320231 0 0
230.867749452089 15.0307452891424 -21.6772755074127 0 0
226.901965765278 14.9013374393318 -24.7564512410106 0 0
189.904262412551 -28.0013729545807 12.5337331831835 0 0
214.420947488887 -7.34673610873158 29.683105160437 0 0
231.445955152748 -30.5406412423149 31.2374357297691 0 0
193.872595949124 -9.42364309536381 -28.0335232370378 0 0
228.315243304922 -5.78071531251827 14.2738516600284 0 0
3.36851530215753 3.34434441817831 -22.9728445371987 0 0
118.125318084102 0.549907264726179 5.0438553429245 0 0
78.8121490015487 -17.8871817054934 -7.92221697349735 0 0
-38.1675991666299 -6.63951773163906 4.67755268722719 0 0
159.05023080436 17.1275280037919 -10.9036150967255 0 0
195.288692234282 -27.7952753791602 -8.85479387884073 0 0
215.561543282976 -9.94309502671025 35.7111076106709 0 0
182.913391847436 -23.8829072814821 -4.55319270753293 0 0
180.089857179038 -21.655021463045 12.840919676912 0 0
40.1851518969067 5.03773417466515 1.30303896083843 0 0
237.107557024702 39.9850486620313 17.0894184145406 0 0
229.30653218991 15.7979830257169 -23.3076382141557 0 0
234.830827180175 41.78200664694 24.5955461112673 0 0
162.002757362464 -16.8009665463338 8.28293554287703 0 0
26.4678766333567 -0.105074538617815 -24.4024610690206 0 0
173.011440024602 5.51916337662291 -23.3363029174692 0 0
