-152.58139697091 -20.3996758537851 20.276610362589
70.9409058116958 3.93289743580843 -21.7750341578033
108.60551388419 18.0235452857957 -10.6250088733643
-191.178014243959 -21.9109021596592 23.4060823201675
55.360348088267 -18.7117392509591 -8.66691700159096
133.143608385096 16.6330491108305 2.42746189849868
108.078170440406 0.0101838088994357 8.81179842684533
-99.1796020592427 8.50640576380818 -2.75547210952927
-193.800136028189 28.723180498626 -5.27030282862937
6.83398262786355 -5.89796627021473 11.3646594542865
-200.987228898514 34.5434066621376 -17.305479187695
207.837092913384 -39.4961431179691 31.0033532972545
-115.885847566351 -24.8064585103727 -1.68891210613063
-18.9129724732268 -19.7280504377336 -13.0078722475439
103.324807263739 9.29490699971467 4.53864901757449
68.5335376185293 13.7363258609814 -15.0794124059621
-8.64835245065234 11.1268668498794 -9.07242296764486
105.88929015376 -13.4690442176782 -19.2136041515083
130.679049448734 -16.7570735907661 6.61966113445962
219.859388113686 -25.0873139173701 27.9979533875842
-78.2517968056599 -1.83677760456244 -15.7368887307967
184.322615143046 1.5807524738699 13.3670348270886
-188.449585297153 2.56288634865998 18.1576269785511
-55.1720815494763 2.73223857382444 6.08171963217351
194.163862949309 -20.9130565693663 -26.2186222682331
-219.533272133512 -26.143397525897 14.6508806481653
136.840132213268 21.5234956975571 -9.68986446047216
199.80443999087 13.7022122244058 -21.20752382154
-113.265045853709 7.96024438745541 2.24520887286042
-11.16250691381 9.86051829830021 -3.68423073659253
38.2411102705922 -5.53481971837859 -21.7561591681401
23.4441734338917 -11.8919741780438 -19.2853582793708
62.1634225250102 4.54858131174679 7.2037219160338
166.183650932307 -10.649846004889 -22.6780850050804
-142.587158851012 -2.12709720778788 19.2199084594903
220.488358925864 -13.5369864468942 12.6378207074826
99.9239456814197 16.9980476511767 -12.1633730910621
52.300780616186 12.5954613819782 -15.6037077089626
-216.855090905124 8.28068967389079 -15.7027312686496
187.97145969484 2.91727229975315 15.5372580988242
-170.162902217219 -15.8338779140562 21.4958630566353
32.2954513826418 1.33135983818887 11.2618042864581
224.757671188762 38.9319966249848 9.75732504652621
183.39216342908 -28.1201490756963 19.9252430928133
152.997285508635 12.5020173576447 -20.0916587930341
-218.329519297445 6.28956620139263 1.73550108010809
205.370741027286 -11.4027627879577 31.0527588943003
-212.866811340947 4.38637971290081 -16.60574881159
210.824565149241 -29.2818996500432 -17.1194174902534
-97.1251960131886 -13.7702828216913 -15.5220654402448
206.574566733415 -18.3232378063497 35.6837436959089
-202.001134406278 16.197082342799 14.197655625149
-154.181366332238 12.4477314646073 9.32886032303208
222.925342412095 29.8403797228275 -9.57960024139803
-144.916109856494 10.9368278675038 -0.949323666330094
126.976996744362 8.58330341385613 6.52052864187583
-163.599434165234 -24.0503216670901 20.6299867290259
-58.1300397090136 2.07416657540508 -16.0135408355555
-207.815289221706 -5.40997128295689 10.3202473780531
26.1671946445282 12.4432114784414 -9.30431801883781
58.6566535468636 -18.0573495940267 -11.9633774649741
199.094843951677 -12.3775363614494 29.3396557189637
180.30184999578 32.2178850201683 -3.00562710510215
135.873179229347 -20.2165604956894 -0.00898676289382794
-107.536675542515 -15.891410086472 17.9597154792288
224.710012036625 14.8798435698307 -5.99265800712475
-10.9678456872294 10.9502099294985 -11.0146609222552
-65.8450270411843 -16.9204728590365 10.9004488725771
-165.829320482863 -24.6952375141363 -6.67081884598712
-191.018042648552 -39.6846398820749 -4.55651967951719
166.793707815388 1.77277241880776 10.5596531519669
-185.388529040669 18.2852986354293 11.3635704857505
-191.835853162218 -35.4650994011201 -10.2969938846355
-191.641234680592 17.2400108413967 -9.34659411182437
188.775577423379 1.68148467153113 -19.4945192494506
-10.1759050797447 -2.00947880748571 12.0205633338042
-221.962738277065 6.24303319291568 -0.225163432140547
-233.122920846217 24.4439604585055 16.6280589246617
-229.908106177446 56.3034776237101 4.0884942244446
155.470470059399 -22.1128462100443 7.98988139579024
220.978321032273 -19.6300377160061 23.7458253600167
182.646257876809 -36.0286132327257 15.1094232513037
154.985741378526 -10.377376128304 11.4188385693929
-215.254818937474 -0.52072234818344 -13.9249061212665
-220.615317800324 -7.75996813715889 -5.92322225295312
-191.558996468091 13.6129252124608 -10.8287256599262
215.170164618964 24.0722889603616 39.1127863112288
-176.309564913099 11.4865534928495 16.7383939179973
198.363737517622 -6.9488025531664 23.1746530619849
130.523431914252 17.2427819879338 1.28501002045379
-137.188729729865 -0.339000855518284 -10.5321205387003
-189.473309345518 -0.206627836127173 -14.9613281863093
187.302481357143 5.27229144727029 14.9220757112606
124.753879679002 -11.643836801362 -21.0599468351953
-216.665890251655 -1.15108238023539 -12.3703740994752
-201.790778463057 -2.24290591575787 13.6385693807099
197.06819279338 29.1079831155777 -15.3427874947275
-177.583964502507 -17.0578153742065 -10.4858502435784
-227.582083839564 13.4536718776448 0.526918382023047
-195.135388433808 -6.26200940512705 22.7265278688135
145.801966469735 22.7526826788574 -2.48283140650261
46.0101998799397 8.5197597958839 1.81152889828622
175.066809732195 11.5860355195687 12.8508229890101
-142.415481116357 -13.3815754384788 -11.660110393654
-92.7747445240331 -0.943983734710096 13.5558070287169
-198.368906362224 -3.82015093181625 -17.7879665808386
-109.740710067731 7.46950966309572 3.54914778320403
-223.113423500277 9.97480869029198 -8.83332127545332
-63.6416836074332 -0.419441145175808 10.0299258741738
16.2978120898188 -2.78887219622072 -21.3155893412485
174.621499239991 6.06319415088013 11.2443557482711
-71.031484382159 -19.5050010577378 -12.8908549477123
181.036527450575 -5.84524691695221 -22.2335202376665
-110.079657172086 -1.31944887444346 -12.5004888821649
16.6379704304285 -5.99260791463378 -21.1522102491407
-94.9581243928649 6.54229915747347 3.52239053381905
-103.517491863066 1.47212701057249 13.0103451125293
72.7745115423294 -17.9265576587081 -12.4705725853842
18.3212523226762 -10.8154155492622 -19.5014486706785
-48.3058485764823 2.39975216608239 6.5553978752887
-16.7155618017378 1.50191205980079 10.7933021271813
7.3191859838763 -18.6160800939737 -2.55001871702104
153.428465496343 -15.6716593446702 11.1239056111695
-213.814191430993 35.3481158239567 -24.1415300840252
182.099678148486 -20.5939110170275 19.6274388583793
-186.084386673217 -2.83743651893082 -14.288676349463
95.3996882581093 -17.3544989703795 -13.4549310330978
-11.7607368854485 -5.69078186809094 -20.2993267443262
158.146381019635 25.8257229030088 -5.79724034914419
-223.880873672018 10.8030449704565 -1.23042049951494
-238.768335113405 40.4311936172213 -12.3321942337297
-149.885634576669 -14.508942338834 -11.0607767208771
166.299706498993 -23.4654788393939 -3.72798408245151
80.1759826851941 -6.35370598514987 10.1299253708135
-183.185189834144 -35.6841193954185 11.7615393150159
-190.498725399461 -37.8961790142295 8.3231603983118
-201.770072189413 0.998347886826894 13.6196969687002
-212.041470104827 -11.4601915047007 13.3953393268884
-226.113540419898 27.1829105424752 -22.1864772857958
-207.532701537802 26.1465415426724 17.5835973719868
-17.0097130691706 -10.3769825412454 7.62780341736469
222.982855101984 -27.1065782300744 2.46822709392661
211.285706585265 -11.4555863112129 -20.0629233670022
195.531866056982 -7.51717337228839 -23.6722100047971
-230.768700215876 16.6974646234023 -12.0547072579662
222.787022088647 -20.3991497173649 18.2761016204127
145.296835223146 -11.1366140136062 10.7071716507937
-211.219520193903 21.9581779726721 19.0210315098284
173.072505343868 1.64373436426348 -21.2127186998771
16.3898694145339 11.8482123917739 -7.86363229638705
216.983663630788 -30.6256252168091 -3.69446470015299
-104.822337881733 -11.3030818481084 17.70094767356
127.611477376867 20.46622374575 -7.3892936735061
22.619567312818 12.160438724755 -8.11893176168771
-127.344442748699 -24.2750594583822 10.6189261703961
-117.008187992222 -18.0055918660274 -11.8094517836324
32.5074856890577 -13.6267601097769 2.16678627694304
222.8824752233 35.4705035551443 -2.66338146552081
-204.452404209904 54.9293273901625 2.64292685429019
190.052832726721 15.9043033916784 -21.0351362203052
156.583521387739 6.64318338948356 -21.6085661777883
159.35749249557 7.14984015860229 9.49959908422778
172.611911916796 -12.4386375722045 -22.905134928995
202.182501834348 -22.1436845572354 -27.8855063902252
210.604121474628 44.7099592313023 5.97799797525795
207.360257238954 -10.0402493761141 -21.9735064965935
177.80128986468 1.4188690327671 12.0876794972154
-102.255691590398 -12.2175177389933 18.6708268008162
180.389256884899 1.03547517287594 12.6994682742925
58.814533505078 -17.1439674949218 -2.45076669197424
-222.525345979875 7.71955857202008 -9.16987868178479
-1.04272792799025 2.59659561152303 6.79584282458984
43.5047826428961 -3.70060691792113 10.392991881246
-222.985367513883 -19.7928485767581 -4.28076444286899
200.487035328359 -42.0055332099978 14.6405991799183
-100.766643725926 2.51175015839432 9.44147113569784
227.07584704189 19.1516705231925 25.6778437375777
-82.0409750336438 9.11772749805453 -3.10849642790915
211.276908984007 -14.2426822819354 -21.8878244183196
-83.9446650256942 1.84293293047518 8.24988369985455
220.590152872344 -38.1184359736154 15.423200596294
-205.208315974272 30.2581158535455 -20.5175418412703
-159.143636938608 -24.2052902240499 18.6657880462387
-8.83813426051046 -19.7529980510106 -12.9884525961754
-98.5447394188395 -16.150213131255 15.6928974790781
-231.924753509455 18.7974714917414 -13.0980772279127
210.192272125206 -40.0892607590693 29.9678474598322
-106.43804153958 -8.03515085656186 16.1116673782821
214.712028715398 -8.47886375077637 -15.0155847177745
176.446162193744 3.65833512487947 -20.5515113111822
171.106627961784 -3.83853271375873 11.8665109544654
80.9520231120707 5.2278669942024 -21.6590047240037
221.253536914367 -27.4048893416414 25.8009288234103
222.962018909823 10.7985660544268 19.729908480572
197.82125865504 33.1468836533056 -10.9507937735582
220.129664542033 -12.3818719894832 -8.79009562127425
214.596078549418 -14.5217903250628 29.8494691892296
169.999625793517 15.6971340546402 -18.5154391835851
-90.1342626146295 -20.2341152003154 11.8033603393025
-204.533074679794 -35.994956970248 -5.45919545997982
-194.702582897858 -0.385862674701186 -15.6122967448563
-110.048965342538 4.40432884341156 -10.4174940758413
211.659404750749 -30.6750403625081 -10.6116834740905
220.39268672973 -6.39737122919699 0.82036087791516
224.261023761218 9.12674001921724 2.26361507442117
-171.921567372397 -30.7469523325117 3.59341460130411
-103.043506390957 8.27329441606983 -0.823696072301404
118.468788838249 -18.7275169775968 -11.2975015906548
-234.41723316972 29.8028212583295 -18.0769452219788
5.27189277020089 9.60695680442917 -2.31019611019198
145.001452136455 6.49712207756483 8.36958420531009
187.340893290719 -12.4379115321296 -25.9214450851186
218.477312317322 -32.7851890446479 29.3488710004219
231.650670077874 23.492669035842 12.5774028314306
231.003454569909 20.9413174443812 10.8387028038149
-176.678601308237 -9.54709035350072 -10.8017769634747
-94.3736515627098 -20.1698910471274 -11.4154285323175
-159.479912731377 13.9620936193963 8.55725209149223
163.377279875177 27.1897831826939 -5.96190756700612
179.569027279417 -14.2826377654391 16.2100372644141
204.453841842713 -19.8099271267108 36.5349641151495
-222.779555634679 -15.9609641044908 -9.17330523405232
-139.244432125005 10.5403860153341 1.56760457260834
176.899450678294 -1.18686193065057 12.23329534451
168.944729389055 -21.3336428659712 -12.3792977637525
-82.8479461771196 3.72541864153302 6.06766043457783
-229.907011250465 -25.8785916766176 5.50917308962981
-94.8458012543025 -22.9097494300727 7.41778660942203
66.4656658084516 -14.2230379574405 -17.74257130827
114.981046837214 -13.6980809837 -18.8947389800411
-33.4339994169348 -3.86027415894605 13.5042687279162
166.690461892877 -20.3053731401159 12.8763948600194
-79.7210309691172 4.24444092023957 5.25575633074987
-151.307106961253 -26.9590214916948 6.829497413217
-209.374490352983 49.3837317087595 17.5286497154832
-133.881014752458 -21.380113546622 -8.84962086571204
-158.95012982355 -1.26099622077265 -10.2815647292285
-153.444949224089 -27.4110010516546 5.44879092279391
-236.268370574967 18.5339930190772 5.03499631640873
-206.727019151427 9.9387919204683 13.9016712490899
-93.8200143731552 -1.26712756220409 -13.9551206274462
-52.4691314594448 -21.3722439674171 -10.55178298559
-127.411283374871 -6.45634874778011 -12.5665430396754
-158.42655096606 -4.64496944522088 22.2662067144709
66.159170591314 12.2001717796979 -16.5764877042103
-58.0056825005524 -17.9469295725761 7.35086495915863
216.342646878495 -9.77112167891072 -14.6617154211291
208.229049671619 -8.26608176526764 -20.1709633962732
7.66083466733952 -8.53129951483936 7.13761494273173
102.550934763281 -13.9067610783935 -18.7700948554232
-72.5909094322395 -13.4584151022606 17.6624741889584
211.155294118403 29.284986498644 40.3749920379702
-141.844803388551 -8.63912699636665 -11.4608308847513
-236.701032336807 30.7348203313251 15.895236622789
225.473747956237 19.7049356134957 29.1430397687258
112.657876197568 -19.3398556870619 -7.1237978602808
152.163086338761 10.1819786979296 -20.777624368196
186.758489575369 -24.5152718415183 -17.8862044781103
-51.3727945574527 -18.4545188394488 4.87442610745406
-4.66152449752116 -7.82802027223871 9.29486405641526
-144.037842755883 -10.3125633154716 19.9836112735404
-187.193693135096 -8.14092547941413 -13.4296802103401
6.16796820983096 9.92960951665326 -14.6117779314174
216.492306421605 14.9624725728857 -18.7026314902353
-42.529720691695 -4.88441870409992 13.7938461031528
67.3839531100968 -18.4735560045427 -9.81233135330443
101.149834623359 1.69291361907742 8.23089913295868
10.5165263796895 -5.40406350805003 -20.9066868420235
157.37991888757 25.6231036333501 -2.16376680279536
-125.043110834776 -24.8502085246159 -2.13040918658325
208.426231249064 42.2077326350073 1.15070696561108
-206.626155067649 -35.879684026184 12.0329147310914
185.438173280884 -13.8250686742508 18.9250309215703
117.131997263715 -9.16379360010079 -22.4457075522091
178.256896136154 32.2517222042845 10.0237301462177
170.063552428721 25.1266244790054 -11.5682335434154
94.9442932100512 9.15570629902015 -20.164686754091
-205.998292995603 -16.9265050220435 -17.4570364746373
199.137106847337 10.3071994019408 30.0419116083047
-145.971561474797 -26.4961513573247 7.03502169886514
46.0475651798381 -3.87909703329156 10.4537494647954
94.9558544573485 13.4062825152548 0.0391719306628049
100.075169214925 -7.66035081986835 10.6804435745108
-84.2393276353817 2.22824123438897 -13.4749024600724
182.485316550276 -17.1067853890309 -24.2737562483691
-228.00125038742 17.0288850416201 -15.0979724885887
-66.5571523813902 9.12267576992092 -3.14881676321684
-68.6360955241243 2.19324111075497 6.93464801945617
201.704735977278 -28.6288383995071 -17.8073201391646
-42.4412279188807 -18.8944171784134 2.48708225926196
214.884591118182 27.1214130045144 -16.2279922348974
187.832042471047 34.7152525361536 20.5936622026632
-217.588479566269 -13.4795434364699 -13.5278130750626
-89.4158471201368 -23.3935467513573 -3.21754764418737
-219.940459558586 49.0674281256995 -20.127308762139
203.673694158186 -31.1878416698089 -11.8784190888628
-152.892378509989 11.6216045996584 -0.267637763459932
-95.3152071844698 2.91829551369924 8.46442553538735
125.188842879127 2.61566238774358 8.20786426272265
-97.3786873251092 1.80181463835404 10.3101456903815
163.879267704593 -20.5803855928686 11.7518001881582
203.696372681165 41.4044148270831 33.7915322100195
32.2029818493943 9.51531093122813 -0.419892484671499
0.0303664064618308 -15.7800590109739 1.35303941670506
-59.7694998882995 5.07494661915463 -14.1404274055572
94.1480199641817 -14.4104334854229 3.88729692222647
-98.8247870511702 -24.3203945463824 -0.477856852614288
163.141101041078 25.3360597760747 -10.0691200097246
-72.574841522989 -21.1239539573647 -10.9964982238507
184.103659735077 -10.4778682752356 16.6380926223756
-156.258979471478 -21.8473337062 20.0221006654724
223.682888208873 -24.3970885212298 4.77646888918306
119.401766565836 18.8328943117822 -4.58222883576966
223.994977320756 10.3591811408666 15.4778947606482
173.529911468637 8.03316506501965 -20.4279030211123
-90.0662184997782 7.5866570263086 1.19543133758037
5.47600406362806 -1.88895735844432 11.298667050634
-70.0157186858742 8.26608369669877 -10.243651270557
-105.734285379186 -15.0550080797946 18.1932871021587
194.836605134124 -36.0452162067429 27.3149964399957
-46.3765462922079 2.5954813917398 -16.6276190249104
223.770713412832 -27.3241950853092 5.83694205701058
-122.060827525835 -17.4315285062455 -11.7843201156621
108.567438488444 -8.93406025319007 10.3361234049861
207.81083749255 -2.85037928865692 16.6513185988475
-239.319856383107 23.2176889270002 6.44676242860775
-204.590945223303 10.2076470049415 13.9311938631162
118.478948967013 -14.9746142244323 -17.5831924645078
-105.568879193435 4.45546539338523 7.84869765958312
37.6246882280929 -18.8445820653505 -10.5295722747823
28.0155227919625 -17.1427121542612 -1.55587053330303
228.934140806069 38.7117292498392 26.411397689017
-185.554235870214 -26.1117032873703 20.3169311830265
209.537022466615 -35.5984280814985 3.0978537772375
22.2876657433626 11.6431988339973 -13.7017765868219
214.088097516746 12.0259358684368 -18.3216401632534
-171.008091740314 -8.60479258599125 23.9298357315902
156.266931480025 -15.036840344624 -19.8643907491004
-68.6233726074116 -2.36116306405785 -16.7311307748178
41.5684598022557 -18.0603014233894 -12.7095041404157
-204.309609878217 -38.2148556411084 -1.95308389700537
187.888970773627 -1.03907663339565 -19.0467771967406
-116.768085033674 7.68435537018522 -5.18689317439102
-180.111411732452 -29.3321160603322 17.214959336742
227.45406980296 35.5362820809012 0.252885386312693
-4.30858291702113 10.477577922071 -13.459067364545
-71.3524587147644 -19.678430861396 8.32358309931546
163.578546203551 14.0105950528227 9.93153566771618
193.7019626834 44.1748823924786 6.94086186763453
-196.309141962918 10.3000211254921 -14.6019460130712
-92.629727059782 -13.5087415942458 17.702030052523
-4.80503802482446 -4.91670591016589 -20.5011536965407
-64.6952523957048 -15.5051113443369 12.8554416698907
-27.6043018356942 -4.16666249199386 13.4080684356849
-220.991826160576 7.70354474610041 1.60110335342155
64.0949493025974 -7.89977299140078 8.31149215142524
189.133350510409 -0.391765554226366 -18.6297803978981
-99.1273392836522 6.46490842908253 -9.38399681584109
-113.065447719113 7.29247350151675 -6.69840600623084
-219.919976960798 -12.4841886880546 17.5069319132025
161.255852502016 10.9731417604519 -20.3484039643888
9.9231150610104 8.30764194312831 -16.9215141113139
150.276759178305 2.72090765715368 9.34160884562088
-138.699605651284 -24.8228087579539 10.2954762855514
-144.389636346339 11.9010873880938 2.51476577701373
-236.66589185538 50.6939651526034 4.31871484009143
-220.452717670559 -21.2156058543887 -14.1571797403949
187.245246809918 -26.2260626811578 -14.1279787179489
-189.831962733174 27.9322177015876 1.80525009064577
-207.688388240618 -11.1484544488903 10.9434983324664
179.265406803809 -10.0586662713495 -23.8338828097087
185.995313563088 -23.4677644472731 -19.2922181370147
180.426002922415 30.8399622716958 -6.24583240836607
-195.748107366127 7.16757472688502 14.8435804845558
-99.9150561991733 -24.4108071127527 1.76140376973397
207.371413743439 -35.7955621343179 21.8013445495584
45.3668922018213 13.3710462682788 -13.1337604589563
175.258015061078 -27.2611156771994 9.9469204506316
-78.2427297198573 -10.6289864840963 -17.1226279825148
-221.127076109391 -11.5189014836572 -8.5893923069936
182.334502968615 33.6454205520726 13.0573663535843
26.1834811081576 -18.3131850282001 -13.6180523753895
-97.0359222425426 1.61819948867698 -12.5976522349068
175.390402093303 3.27394444731919 11.2906017123953
-225.758657744246 -26.4050364174271 -4.96737949670582
-123.401784968008 -2.45094174262027 16.3372888237616
-219.404776191468 22.0534885634476 20.8926558964699
172.846464022065 18.9461276921176 14.4737648236471
187.719426519214 29.7721364534234 -11.3403084509197
189.419612703711 -23.5581328703277 -22.2597095501725
-83.2635178666815 4.26388492735552 -12.631186642637
120.881210056505 -3.55457457522694 9.7117184298488
-190.649621616105 26.655561427626 5.46027942070882
-46.562695007661 -22.3142830238673 -6.84841007103695
106.296106555156 7.89766272208002 5.46089281484894
50.8271277242585 -5.21925498605357 10.7658848077107
108.952262493286 -19.0590162856713 -5.29476356419524
-192.818722637755 28.410307163713 5.63624436378058
80.2779910171323 -16.7609305397231 -14.7345250506087
30.1817894532812 -9.33399367518879 5.91510723312294
170.592517504016 1.19199171236707 -21.457112935457
189.828035836061 35.047585196753 -4.76074909641183
-198.759193637122 -38.9841032667455 -2.38536534032443
9.45714152223268 -2.64609725312102 -21.1425849331036
-126.277268655805 8.6610011159818 1.78880240260461
223.879102430699 -22.9673068073815 13.4040810000862
-241.493873788872 42.0599333015187 -4.77267856530497
-41.5508047314968 -13.8771174751715 8.39436121179318
194.587850076161 -2.42488290537974 -21.8341116433361
-219.080299406698 7.65454452335627 2.81615434508381
202.10348673865 39.3607962471609 -4.45066571793262
-223.047361676887 9.97663434019721 -6.31682766366465
-176.835149886384 -31.3757197925263 10.519429734664
161.34984038358 -2.54163528188588 10.8452934044859
-154.851280368444 4.98147515819919 23.9630773775426
-30.0870976723872 -7.87167987630075 13.4679790126522
-0.557045658287775 -6.80993392400303 10.426196022936
163.391004594839 -23.4148855896123 8.41323178317914
114.796866270015 17.9003690375758 -13.8660848701799
202.937958997808 43.9194602616473 23.621460122974
178.754338223827 1.44398875816335 -20.5479157151113
70.7942868593854 -8.99589610310036 7.23069160292156
-162.417419585835 16.3754561223845 25.2518486717327
130.093309873999 -17.0914985338828 -15.1427417538071
-108.464262912363 8.32761205527142 -2.76491440458809
71.2941212088747 2.06112468907926 -22.4805410689806
-118.555984654015 -10.8687083820893 18.9999456547003
48.735093717443 -8.85166568382988 6.88626673815391
91.0815595756525 -3.7561536550464 -23.4556837068894
158.452327676933 -21.5257712834282 -7.89281808142471
-112.170285799849 -10.4298843500537 -14.5410043552234
210.019627133339 42.3839076254146 34.6402691518579
211.707620803009 36.58598035533 -4.84825985589981
-235.883871961504 17.4675240430446 -2.12587424081769
150.303277901965 19.3316074882496 5.39564451218548
140.634799310034 1.85980850682999 -23.3356608034424
52.3853054521633 -18.6786000323006 -9.82131456722746
189.510588974539 -14.127944635201 29.1301238414883
-209.551846104535 1.07847704566007 10.7294421665281
-146.096762006973 2.47966375505575 -10.1843038008098
217.817481160417 -19.5956361921764 -17.2667578843542
221.175336720063 16.2175870523546 32.3825573968992
-211.958208168541 -30.3664367938425 18.8445253778691
88.9099926927564 10.7114190877464 -19.0950841594453
-66.5089347401582 -2.59040523471232 -16.9680173934417
-65.0326720412237 4.33841355093678 4.38968479676966
192.423680175113 14.2520957975332 21.3627533247262
-102.031001509919 1.54925098402463 12.3351894506303
111.717755355691 17.3198503780689 -14.4209670749762
11.9087057888557 7.2528456104937 -17.79848763102
-191.223904371227 3.36762191930767 16.9262505575807
35.8983313264912 -17.5465091043692 -13.9634453335475
232.328734486214 34.562507169681 12.8406623152906
201.60404616567 -39.2719992507541 8.24403373723794
-146.531078786288 -23.609901241791 14.7196963179889
200.95211317825 -33.1304664045265 -5.51196780734408
196.754019510809 7.94526065890388 21.7667954990492
-22.305553500998 -3.22749803130502 12.9490931786575
167.596933823034 26.9951033951646 -8.47749825777122
221.04905359345 19.6616738419246 34.6778635096343
231.866115350279 35.7239058543959 3.66400111421289
40.1061901237426 2.7303612311539 9.80041460945231
101.597182988904 -17.6623947843143 -12.920388483821
-207.844971151135 -3.62305358809944 -17.4029258863753
199.116076124295 -29.6158236927815 37.1500145726402
-182.046454418059 0.0317626884045798 22.9086859843976
202.805575203362 11.8469036396142 27.418351464431
177.360724693658 -21.9149852292363 -14.5582227703263
203.357590422491 43.9327176881079 2.99590937416698
-100.635290912704 7.40835666935634 -7.89568788890458
-196.559514530733 30.6203801349336 -7.67605980125162
-187.567773192666 -30.7364236744366 18.3331971583204
-171.692712674092 6.13552170899832 24.3795354813101
-75.5500920022732 3.55415633877472 -13.5513850076622
-132.096369168315 9.44786453787278 1.54230362446876
-225.811547047448 -32.7457553655629 1.01597300421041
-215.740704235456 2.93571564620174 5.64795166123078
-198.168122165474 15.6207915407336 -14.3979055268925
223.776517281389 26.6594284105021 -13.1465051443192
-133.269447248119 0.681352545608164 17.0278140358642
221.99055854386 22.7366757973655 -17.2658503948222
171.657227706796 28.4490682991547 8.10810197338057
-203.043383084072 39.9052030770132 13.3684241061555
201.970545900781 -30.0988883773351 -14.5750210485915
-207.446408829432 34.8628003916026 -22.1614058209664
-5.66431718604601 11.0502783445309 -11.5415486458756
-180.007749343971 1.66265417483001 22.1575102896
232.249953711479 32.9703565844316 9.79541063900971
102.822067602363 8.38021468635669 -20.826056035186
-151.250843643464 14.1203506167286 13.844326767664
174.11894952782 30.4313565225444 5.14479065455777
-176.290605421731 -21.0765483245094 -9.8334433449377
20.1471091844601 5.03115835267875 -19.2316438390748
-178.781339962224 1.53345854163106 23.047784560543
-102.904384570967 -4.29996695349372 -14.1198103621575
105.844172292661 15.5421424429923 -1.37106738026302
-227.017779971035 56.3792567756556 5.44136019766514
81.6773166820494 -8.59078220158611 8.47330398567625
-173.550124160616 -2.11927830791422 -11.0811586407941
-211.040239956296 -13.4110478327747 -18.7434135254924
-104.287789156807 7.15978226663424 3.50632624479211
199.069774133716 -23.0214283021076 -25.999047449449
146.711212407892 -21.127433751449 -4.70577438080311
-166.032012608023 0.536433989057373 24.6745728065584
38.9508512123638 -16.2081500359997 -15.8560944885237
180.424549532126 13.1513657123675 -19.8825554163976
220.542635597624 3.72209749323514 -2.30290871111621
-190.08277658426 15.5134274878702 -9.49341387215591
-123.826685638211 8.50238717881052 -2.14172605219967
220.691484353712 28.7191457551217 -12.249446889946
188.957728302585 -30.6226270710341 -2.73997194401704
73.536131943249 15.378972849026 -9.0749728882298
189.498829931531 24.0451946625025 -17.699493392672
187.239304385195 31.5329436459211 -8.77276780991582
-213.989618724703 50.8359607949785 -18.2526557554941
161.765925469762 26.9429934492512 -0.615436399321614
113.387873904772 -9.89117860508314 9.48358318118166
-37.9622329329128 -12.3816128666855 9.07949619693928
213.371354202393 -29.2141776569984 -16.3241436400555
-8.25990721728878 1.06841587688987 11.3459117585227
128.096385051907 19.9097350912902 -12.0799601417531
229.362626439999 40.3477586345218 23.0383702516444
-195.734955407419 18.8555660144598 -10.5743878415097
209.316227584256 -37.2724311304256 16.5426908591549
-198.379576215411 36.6932417850015 -13.9690567150476
105.606858547523 -15.6186068531919 3.88432347876147
-51.5397739432441 5.64005097453133 -14.7031375293112
214.555965420545 19.886467894648 38.5602771226721
-206.66429602585 -20.3371306119851 -14.9083801606704
-186.482470221785 21.0298516269464 9.51230551689171
46.4705053064216 13.3004283628099 -7.16383453023301
-178.199561200528 0.929938277836117 24.1043529651699
-205.73070730942 36.6653706227048 18.227885840388
145.063622791291 -8.65693595365159 10.5800022498139
-222.455846190106 14.9399600585192 -16.6317793235473
77.157034136692 3.77031881220025 -22.0606233046149
-73.7543200016465 -20.1981300101717 8.09121773656122
-149.797385838905 -20.9969987657212 18.231569442824
214.788410744527 -25.361062511653 -20.8976589474348
-212.900587427646 38.0698770109112 -23.8415602945419
-220.967602565739 4.92373819613114 0.655791546480816
52.3780501156727 10.6631172978999 -17.3350852696995
-230.170545603087 18.7302131075593 -14.9177201782078
-15.8661778091427 -20.2438679563451 -12.05980267424
-197.152104919934 -5.99737892099691 21.206812799809
-150.783268296186 11.0942805060371 -3.56471793633067
-225.13499956198 35.6105121509535 -23.5750452980435
-207.056321895562 1.05305521163711 -16.9471018601001
-148.42598466447 -12.8048021360858 -11.2889582145011
62.1094503728142 3.72439355114848 -21.6317120554304
-214.415183025595 14.9037268371262 -19.9504437417212
-112.26309604739 -0.237964539104747 -12.0303486815972
-26.4386654338096 -1.2617628132998 -19.2958114498277
-46.6432202646954 10.1125331947999 -6.22138343693101
-225.998124842936 -22.137670012099 6.5418118868701
99.6603474895448 -10.9144833626875 -21.0732498769184
60.2851372647521 6.08859916492538 5.18087822224141
-72.7113759147011 2.97279654505005 -14.1003526018957
-210.921743067397 -15.2729874194463 -19.2940252494003
178.214587613634 -18.4321078043056 17.8307436507388
213.339888034861 11.4839907929107 25.0209010575585
-197.016731111521 -15.0273709540633 25.9098237019019
-174.878107156245 -7.77952514586666 -10.6490362451858
190.705190541024 23.9149345295142 23.4576994400723
66.7746338041538 12.1049639458428 -1.38901526973825
-160.785134168465 14.0467055147687 -2.52790557101619
200.170009733804 40.9774147997583 27.6197788011306
-195.256992775237 -7.95263077874881 -18.2988443317539
214.78250065312 -5.10882371703051 15.9130695247133
222.687625622445 -15.1815446094721 2.06965036984171
-89.7762208029518 1.54871082967591 9.38827409787907
197.036222499655 -33.5635930814132 34.8714474739674
-199.379544477102 45.0140865632544 -12.0186770753567
163.949814731471 3.07622406678459 10.1398824294682
-81.8445142930722 -19.8781315145992 -12.2481430769714
212.519130490115 -35.8635683548381 6.02811380183227
207.138436935426 39.5266370491908 39.7484288600641
172.646054366694 -23.2203993685042 -8.73813004253669
184.137253896669 31.6946705257032 15.2854052974567
-21.2091598835614 -21.4965441784813 -8.03039067629985
102.310491083425 -12.2300867424377 6.82449910193517
193.0999064863 34.2436707697087 -7.40815294244912
205.770460163009 44.7995924424209 7.06393985560498
-178.994666239488 -16.4650684441425 23.1643912066034
62.6746262160568 14.7643662138635 -11.4412916949685
219.992899969649 -7.16816576078721 -2.52343059277794
168.454069136172 -8.84857612242774 -22.9717513762516
-210.762025389368 35.6088054627095 22.932455783359
129.796013581961 -19.5853541541315 -8.82933307597024
-210.687583599165 -1.67089538907154 -16.3758052300158
-103.937449231236 -5.63368973493008 15.4442737993667
106.003584454037 -1.85478577573801 9.38925384632589
193.783367140553 44.6079098393688 12.32425903262
4.26057713764087 -8.81265952354983 -19.8635136186434
188.710341448673 19.3336535425958 -20.0658762854031
222.966133903151 -19.5948886993681 -5.27941697406434
124.914763848071 18.9181979466618 -2.52229641163428
-229.377958481871 12.9567472491878 -9.08055424846614
112.794005045891 15.3318724177489 0.289598433840215
206.63542669098 -37.385117666811 18.2091528865554
42.80328166938 -14.1108230587363 1.67649736778231
157.567589306774 -22.6008904772712 1.74426194808677
-240.380848278897 28.5047262529093 9.31652415198324
13.4512685277662 10.2298113353712 -2.88083962325346
152.463946696356 7.0483028996778 8.82178008161468
229.829591698525 17.4695060586527 9.99606686926667
-182.087799036079 -35.4865535192474 7.55094031096059
-147.166513827015 -24.7699258149034 -4.01335777799727
-199.684818915869 -25.3650153696035 -12.6394494179605
-137.65783776322 -20.7326010314636 16.3319148493001
218.742884862766 -29.4308635649822 -10.9655684794928
219.416854059653 -2.52261283848683 -0.688921592557887
-191.980500460441 -15.0831973900452 25.678738482089
186.482662442432 38.8087781985249 18.5355919829726
-189.346366832843 10.019822399903 -11.4555205146714
208.755953599826 2.90233836652794 -16.6687910204521
-204.502198095395 -39.0479211593113 0.669212955410045
19.2984989823038 3.5043890474781 5.87706985492324
18.3572429257702 -18.4888055821346 -14.1554986658829
-163.550823067233 15.125556255982 1.84361956255059
-122.164768936452 -15.4204996935235 17.4461320786058
57.4641792339897 13.8339813715347 -6.79933194909288
-77.1035100332225 -8.02787198420699 14.9910455499789
198.635384188113 -40.7783682930026 11.7843808678587
168.385927649202 -23.4764745435862 -5.00555868440465
181.326253219255 -26.2349826939121 -6.93017555516337
-213.029540403998 13.741683049706 14.9410682064101
-167.842986508241 -28.4084159362037 10.6057305297526
217.808754536133 -22.5513219445368 30.2484257726501
179.642280266225 -5.25593624797387 13.5007041958548
-226.457375954312 -21.2186578350771 9.7246979520481
-125.520432415983 7.91742551809554 6.90030509036366
-192.216785437481 -33.8220054905957 14.1085207678126
42.8893254095774 2.27995684292326 10.4180822437278
215.347819739623 -39.1753904456751 29.7688561699409
-80.4516863548994 8.43052249525191 -0.863102094087133
-241.274920835639 32.9595007310336 8.90859546077323
-208.15399698417 -34.5634320175214 11.5421356043453
-21.0641252878731 -19.2795260878903 -0.849366816736325
-191.264856967334 -39.912674745096 0.631843611578688
-203.565383749364 23.0973222365081 14.6210224918246
-73.5334819466391 -12.2937675284526 16.9527309612225
-171.395518151842 -29.7042233320232 -0.423741783579686
-65.6807943043022 -15.9269125910345 13.415339977234
36.3860209894674 -10.4518966209926 -20.3348965985082
-169.634686166022 7.31513109319695 24.9640263968682
153.033434760153 -16.4007867533226 -18.320912222982
-227.771959306327 21.9950446593649 18.5861653485528
-219.050323101192 -2.9916871972457 0.0371779541318196
-123.535655391852 -9.25125867256954 -13.4003110736995
195.2721274783 27.7369117240305 -16.3367793229135
-102.499160112787 2.32484843717185 10.8099658650454
231.660638210001 25.6071344655109 8.14066857928988
-215.035529770418 54.8890725304226 13.9386261735385
31.7602196288731 -5.23272931261552 10.8516091906395
155.404068282864 21.455094832292 -14.2784935108582
126.494268152802 15.4150590547056 -17.7953712094794
-193.442916758734 15.7903436945956 12.8111312326815
-154.088270946397 -0.573124064200844 22.399197653704
-120.768749890778 -20.0262229535141 15.2488171499717
190.321910742882 -3.9411030391567 17.9445358636398
-111.340533695604 -13.5032909941219 -14.4966717477251
-218.764017126494 -18.2028455153636 -12.8080384415385
-37.9640994746482 -2.5362023051695 -18.8381157206879
67.1340789843113 -9.94301441831651 6.35110673458066
-129.867013047682 -17.1203261823994 17.6261751625135
-74.5654406952545 -3.88889572499066 -16.6275033591689
197.73003844919 -15.2755752026877 -27.5922861599165
-83.7470014544595 -22.528499733899 5.1812697213526
185.572775712205 30.2947961898735 -9.60778050562116
28.7869932644352 -7.3000409118912 8.44561230836175
206.502906570477 -4.20808643361431 18.5744421791563
157.254756454552 5.00738575225233 9.53071512528066
-235.260315686445 45.3533623637259 -14.516731788102
-50.8871499256971 2.49618538911614 6.40176761301916
-143.026587207264 -8.03718771754004 -11.2725199445225
-219.881300174739 10.9685264311135 7.49415877906839
-108.794699052642 -18.6809085771446 15.4273347396412
-68.9097712242505 -19.1301029277944 -13.250861598291
182.770567303846 -26.0557377006788 19.9624241252627
43.9911310851423 6.01639813418463 -19.7195689605466
166.135249269816 17.303633038605 -17.6081583387575
179.419224050189 -3.32402479120044 -21.4457395132812
219.945305938567 -24.0986748021675 -13.2357280690233
-239.782097548629 22.8213247875897 3.3982104360821
-142.564764271772 -15.7881496433193 -11.2795004112455
157.732603585308 -22.6211933085106 3.86412350259912
-59.2532885285719 -19.8644242588946 4.58234300426065
-213.636743776124 50.4386138550835 18.5352072549286
154.604988703369 -17.915912717244 -16.4029739497939
-48.9662184996337 -21.5567862988719 -10.2131586625965
-199.159289135878 38.9774141109164 5.50788229297886
216.174685355456 -0.801014640162899 11.0103610125154
85.5923054795282 14.4387372291338 -3.04117057467747
-61.0749446435166 -13.6973536153746 13.9151618352837
2.86072501324453 -4.00765466781416 11.8507756269508
164.383584952968 -23.0172132555948 -4.17009247014504
-197.113498115275 -40.122270443673 3.19376497204774
-58.0303016536948 -1.34516128813629 -17.3451744874049
204.89032846811 -32.0623105189713 -9.16767283204479
-127.285116906998 1.29911880057148 -10.6083946800221
-219.482698893747 19.6921516908318 -20.2403300923016
84.224854989963 11.5184477841122 1.18335080280058
-218.687335921472 4.42164222376105 1.35573197612896
-170.618574036807 17.6126205724978 2.87902918581794
-171.249015364851 -26.7232728165793 15.618004643807
7.53209658992016 1.6257831542581 10.0569435333161
-180.045878012722 -3.58155224717934 25.360362494411
162.349131503926 16.2288615577565 9.167423106821
-216.906465736789 33.2175261551803 -24.4083976622063
-120.883260327628 -21.0878446228736 -9.16323096377282
186.380371892594 -22.3930030163109 28.1311107382223
-233.383022313592 45.7663161214763 15.9827932023141
232.104470664943 36.6207034624488 6.42655226835522
-234.568161328837 27.7459083974251 -17.2795811621855
-75.0723961036167 -0.275540067450634 11.4823012091377
-161.571371941288 -27.7937272224156 0.0844307415728309
-11.6142536782646 -21.1962653982339 -7.33331426233732
-205.812312467591 3.06303316818395 -16.8729665942707
222.057497587833 -32.4954224261561 5.49941154727395
-193.391238372613 -24.1159622279941 -11.0645305456001
231.86537759091 26.0437241353515 12.9012818741567
74.9562645878166 -12.6343709163304 -19.2397625821845
-182.635211524296 21.6874729339678 -1.42419696486214
55.3998941760834 11.710426044892 -1.98764533642986
213.513517321187 28.1636863011616 -15.1159404804478
210.733179993972 41.1729348956436 0.487408523681474
49.6014093067341 1.81193562814232 9.70754385927046
-139.853756197738 -21.69403290502 15.6547589583124
-15.7032471649436 -0.184593592554701 12.0967364450982
-190.608925714818 -3.85075795117299 -15.1810961884662
225.020855533093 19.2311831588151 -8.86458000450921
15.5174604203912 -11.6178581524569 -18.9558988943104
188.482904748183 -13.0723919996058 22.4046945708604
-241.90929620316 27.440716747504 -1.23611118333372
-173.794327560981 -14.6481692577837 22.6424345520327
-220.799447860173 34.1772485815756 24.1273998636136
155.000876430367 -22.1491795687166 4.69195419223026
181.256925487681 -4.62776281943183 -21.5407921134408
177.193758516992 3.96762612659415 11.6994684769665
197.1408904134 40.7558735833814 -2.28827522589758
195.681537600386 25.3065564193532 34.2802234801804
-84.7822306770239 -20.0757624869738 -12.028503811576
-227.120237304342 13.249532696191 -6.15652174683482
-35.2673380141857 0.557965603600734 -18.1978610961382
-118.133429884405 -7.22015334593734 16.4989731142059
83.2554334321609 -0.706878054216484 -23.3254586269256
47.3315242239275 -13.3062902248709 -18.7886775545862
-156.934519787154 -4.5805976591021 -9.98152085156839
-213.771711061796 -10.6911400332737 18.4673597369166
-158.72642210117 -27.2970621175069 8.96977659576989
-200.311508165764 51.271741884276 -1.97226419494228
-198.179657002516 -34.9836104639681 10.9629980743844
-138.84490858576 -9.09990312829598 -11.8406629707015
156.28444153314 -20.2696702621149 -11.6327837353806
0.585651054588268 2.13768253889436 8.3046218337427
179.298169828188 -21.4113209845233 -16.6618259044053
-219.08753639702 37.8558418116643 -24.3530804099484
-54.818037694669 7.9511874708066 -0.936928633882445
221.864753873535 39.3850946761095 5.85344232041498
-227.898163788058 56.9290353442024 3.8905057588061
-95.7787809099542 3.02326775724973 -12.1820917883163
-160.866395987009 -9.7361659096645 -10.2389967288014
166.459682762932 -15.881617793219 13.1835351623725
-149.379136583808 12.8783897448657 16.790786482726
185.53325560559 36.42702469533 9.66157767947054
-196.972540388644 40.333887844014 -3.73011364366925
-174.846676480551 -29.445296348443 12.8105365272296
200.915743133726 45.0624264014847 5.30018820344857
-153.930435971266 -25.3588377923012 12.1389786950092
-161.544943050783 -20.5025838294816 21.7217487460497
36.0021668994425 8.10593389384477 1.70808061486472
-235.675339831905 20.8983853760857 -10.9503400096508
184.91438434202 6.95755283104869 14.691154485249
37.0115139241011 5.85666057639448 4.40717228050828
-182.61568202386 -25.7970735951558 19.8519474069452
149.354332194123 15.1134371244806 -18.7308715910666
71.918498057666 -5.15716538329206 10.0346662412032
68.4880517232413 -4.18429978663683 9.69606129301472
-217.953714409628 -24.5954360496526 -13.6155010134789
-88.9647663828661 6.72627886742888 -10.4679794544798
10.7897163940847 -0.640396185443868 -20.9506984344886
-201.060976084535 -16.9687817565461 -14.4610800543759
169.22259569931 5.86900628147636 -20.9239753029539
-236.827187409254 47.0120651897689 10.7976651247944
61.9153251295012 -7.49556750783841 8.93085278053065
189.150067459121 38.3505461788655 21.1106643164608
-117.918954251455 -14.6172695995731 17.9962199448418
-229.361872807151 -28.3353247115314 2.11011138463342
132.489231347871 11.0727612861448 -20.3202321042791
131.709315089537 -18.428521478751 -12.5741871527329
-218.846365929359 50.9250972120846 18.5898738461484
-87.287825412509 -1.39111540538315 -14.7527131267986
23.9116600998822 -3.02186078646335 10.7372828566641
-139.85821824796 -0.286596001930882 18.7884710026843
-107.164924141476 -2.15091106482491 -12.9754744408183
38.5465535794452 13.2374262800199 -11.9759390516975
-71.4220243371774 -15.1658306271726 -16.4563950352568
-214.070658007943 -23.3213904696881 22.4356918702463
219.761688077503 -16.8001228430681 -13.3062886987248
-216.018685119729 10.2528026839029 -17.1460579554135
199.92236120157 36.6091633509155 -7.19813749260632
-161.336913482493 -9.71874411253659 21.6393779097253
-171.342283012964 14.8179135661567 16.3539959603274
-60.5367041728861 2.58431966408054 -15.4473581455965
-71.3397407253072 4.04591285598076 -13.6704374053681
191.282928243643 33.2921392726191 -7.86179655593022
81.665838521063 -5.42661210935104 -22.9137900216574
167.632431567324 8.69770359463199 10.3199185554936
-242.56382121179 34.5642795860344 4.65650650838954
-61.6976740194723 6.69161002823775 1.29257587432068
-80.4079337180658 -21.6409724167878 -9.7509470080448
-117.165049772524 -10.1582369545288 -14.2290077514524
209.453184491496 -12.1976858386202 -22.0190725223787
231.699000913185 23.6874054091172 9.99648186366472
-40.971047425607 5.25485708328205 3.04586545394638
-209.861797167552 -6.6086290853547 -17.505040618789
-193.844616360052 20.4204729636575 -9.11469351635954
200.820493131532 -26.2855782605205 37.6865728665047
98.7137829227406 -9.90003623554639 8.87489363043994
-84.7551522041951 -23.5240254302892 -1.53989781597421
-177.439567328955 -4.1791928916488 25.0388464758304
-220.742369958983 28.8738053349008 -23.6640268486615
123.435142418119 -19.5174836368151 -2.44938117659399
-110.698617514108 -24.3705232603711 7.02954033432287
19.2375046798217 -4.282031013738 -21.4652500232339
181.790106902596 14.0551049922623 -19.905408064334
-196.795137951795 14.4587186072883 -13.399216011335
159.536194158859 26.2894451122877 -2.31635190215914
170.33836055623 26.7114179171604 -9.45586059600559
-85.7832942500405 -20.0452435598328 11.2379084265553
-217.899917060174 17.5412190179113 -19.3695884388553
212.421401917142 41.1597724800205 1.59698100600711
-64.0704414373794 -22.9210970065323 -4.89472857787715
-233.79578742075 30.1241456301184 18.4427133601887
-222.69927475153 5.68930126684624 -7.9264037587363
-201.53231545921 44.464027774193 14.5520066725245
-199.68908320588 35.2251355960186 -15.7097056070503
179.9839791934 -15.6971643040711 -23.7215395159579
218.820134513894 36.5754518559596 37.366976359686
171.099759540603 8.43917194078676 10.7491382462272
-228.989839993968 13.2714181841121 -3.62560275588114
106.945117046779 -18.4216179261883 -11.2034034548166
-46.2771797845485 -8.11600344233023 15.124372722547
-231.190731855417 13.4964726338996 -4.90661779135067
-219.903346638091 -23.6108105991061 -12.0809459288101
-137.181842075728 -1.76164969198 18.5953340575328
46.8623300785459 1.59711047124399 10.2446056145351
-157.737751366221 17.7417893934534 19.9467857398684
-8.48167977687691 -17.5613158783792 0.17866607404022
136.894158395639 9.40733694212119 7.32007391891721
186.73930549057 23.5574207043265 -16.8863344110492
217.972986961157 38.5420049067958 -0.39953795037046
-174.006893902518 -23.5329574231786 -8.59764387179276
-198.098274766631 47.280513375636 -6.58026133407888
-128.537457743209 -2.7033138931932 -11.5396273968761
-213.33588169235 -33.6628458934557 8.07968298018389
196.441914565855 -28.1555649571378 -17.7588288034009
130.746581334886 7.62144321052702 7.18730426441945
-31.8779902385351 -4.84870601738577 -19.4804040460377
-193.935658721011 27.0228251103415 7.77459820976529
-233.463308943517 15.0371043136952 -3.70954715483417
-106.724991398518 -0.952810918013331 14.5383139145627
-212.4413781635 -29.2499066125251 -11.7179524075205
-43.0709029376611 2.92412373078162 5.9143809775054
83.3618156595355 -10.4667216871996 6.43649402707694
25.911972326574 -10.4297299498933 4.99889425448652
55.2461793017505 -18.20141352708 -11.737813437864
-123.925431417509 7.27921718135939 -6.54092614043482
139.543071112957 19.7666005275213 -14.7327634904902
71.1740939644417 -10.9789233091983 -20.2805206729908
-173.02300703245 15.8966590422487 13.5070947750974
120.101247299769 11.5713260220366 4.42017623096136
4.35973329813095 -20.0542807921211 -5.32266830102216
-25.3324000296389 -16.1921398408229 -16.8382583958613
127.828759171449 -6.1102093304182 9.98246570855406
194.263980360427 -13.519418895956 -26.7663971232637
192.710520844156 -32.0570033669461 -3.06085400580586
-193.703480870317 30.5877642407387 -3.1988921449749
-204.796125215486 -23.5651645238388 -14.1914537059604
194.052333036254 20.0070000207985 31.3874528879354
-153.134716220077 14.5423824037383 15.2099751788227
180.592502685042 20.5804680210756 15.9629003165792
-83.4599213842529 6.82577671159397 -10.8986848937623
-112.351661699452 -24.9808783154184 5.34870159364048
191.314149301398 40.5548649242008 3.61312503853648
4.02453237205561 -19.9255917975216 -12.5568015804528
-61.643434769717 7.24867132928799 -12.4423326694182
-202.40602295687 20.0799479129442 14.168244675825
-60.0149971741786 9.18871859497428 -3.37244071215736
195.643563316915 -38.103797161521 7.54025187574206
-95.545114681017 8.44898549789658 -5.77010882167086
196.353936225657 -30.8521226280217 35.836599880739
-161.437895160427 -23.770743083398 19.5808282816836
78.9180866099369 -16.6243400932416 -0.678955714723719
-210.591734773899 55.3596173670081 11.4080091709875
-182.011515494645 11.6114028470409 -9.42153464650204
-64.9563408439365 -22.0658207020521 -9.37061596134371
-121.341271340101 -9.91145998801395 -13.684923030049
204.965618536892 26.8673315971624 -17.6617879285233
-31.1061004307799 -0.487561100294921 12.0524327501886
-148.608460353637 -19.5785995013263 19.0093496163005
228.161108651867 20.8780424278998 -1.99616224420375
209.628803755763 17.8447467360672 -23.8260907605671
-227.713586127697 18.628905390784 15.9690220618971
-234.165903351651 15.9197778864689 5.77289207359386
-199.795976543592 50.3436007501352 5.06357103164614
175.656410515099 -13.5758362421533 14.8404571993929
162.023835961467 -4.44761598988327 11.1809752783443
-158.946022309646 -27.2085269993985 -0.535666252595774
134.827730008928 3.30400952740727 -23.0133509843954
-61.1736753556171 3.76947310037029 4.94954981232919
214.994260754841 43.2667508254863 7.38594744990749
159.637921077796 19.4208288615555 -16.1328935448637
209.521346020624 -19.7790746309091 35.5130053213856
-218.268501908222 -19.9752480324277 -12.3363020867497
-178.084407226239 15.3046423027474 13.4187329289478
-141.464355327533 -25.5343109610512 9.01609562005492
