-0.686623533876635 6.98214580367422 -10.2089273760432
73.9362766973198 2.14420191101375 -20.0680813637105
-187.679080430277 1.1091773624012 11.5214848366962
-62.0437992669679 -18.8392554487155 -10.1227113611299
-201.346386615061 34.7395171261383 13.9827020824832
155.418556187336 -4.19418441897424 -18.4719140532765
78.744528368568 -14.2072186064199 -7.38100945441713
117.929214904058 1.43433888079376 5.07945065273454
-173.332052961928 -31.5345412765321 7.01866127743061
-41.885873921409 -7.31878811188074 -19.956401823066
-51.789263038287 -9.85589855327883 -18.870471576774
-192.8419846608 -4.89307585528909 19.2115564943084
-129.436982881376 6.93305660581744 1.0303055145063
-210.34097941302 41.6819563875778 -8.92802176464561
195.906740011406 -24.9078341642301 4.52041537631022
193.95280155822 -4.12130965967037 6.88498500826947
186.291224191769 -9.7909668649817 24.5805784281431
158.217130181473 24.8372377864484 -5.10693957356727
30.6209150292187 -12.071952767017 -17.5631567882136
-174.552925072593 -10.6395680899472 -8.462447333666
179.556098728758 37.4707616028567 6.04769033349343
194.759247352422 -30.9118427637013 21.158912788662
-204.980374860419 2.31807520808414 -3.55848632777642
0.0455544945408662 -4.76990826751349 4.03388352776506
-182.821779791806 -17.14523313588 -7.85630399056708
-80.1404456347417 -10.6220082923547 7.92663598765094
-98.3193712714057 -16.2353387482329 8.59078252716897
192.833352097721 34.3715180805842 16.4344182663249
-214.825345730534 13.7737773138968 10.1166488071109
-0.518312183428001 -12.1277604188307 -18.2905017733415
96.0213728442236 -0.208159372441217 4.60684761190998
-169.584225947935 -11.275922150774 24.5220748491324
-225.467050882154 22.6349463748526 -7.29394476373964
-178.901172614542 4.70676621479689 13.0403264885142
-200.789325765244 17.492585521288 -23.4788038804413
183.32527562295 24.7672734486872 35.5303146930914
138.576675562903 6.07465262489054 5.59257024658261
-193.637858471949 27.4895845026729 -21.6817926993653
197.853517365148 -15.4297388111149 14.7293980965606
161.238891493865 22.1996659572371 -11.0411977948031
184.091510077007 17.2496950502296 -19.8143000435635
-74.0031199195068 -18.4748507530407 1.28301561357771
-198.704049129074 9.96198745233545 -18.574493273678
104.472393509257 -14.2313288067535 -5.84113799120766
-201.060555738312 -12.3796384088449 1.22417068568553
54.4720329777562 -7.49108282749736 3.54899915238346
159.267231316678 -18.8605319443977 -5.61740828173852
144.433903684434 19.8805237610048 -8.77690836859411
1.99392615588139 7.137692567082 -10.6069067608013
-31.8591298010173 6.94876681661456 -6.23257327924741
186.293710606045 12.7484980805234 26.6272460292036
174.430272832162 5.28386044496635 17.4090010126266
-185.745620035247 -2.54256910518831 15.6075712534556
52.2724371528395 7.14640395968534 -16.8004885023504
-203.649391863528 43.5990269062859 4.67762557021985
161.349898859351 -8.20191815139394 12.2415264352311
156.673310611423 4.95410014803302 -16.4684506539167
-206.505947212929 39.0699373565749 -18.8119005871444
67.4230931409418 -9.71819589992993 3.46979964441685
-117.58246604705 3.91775459940096 7.26576108058292
-9.81678493675368 6.7793767154721 -10.11390930043
126.568540208538 18.9654503695135 -4.6717099544151
29.8732385488819 8.63363198622383 -10.7624809785186
0.224909262540521 -17.4641823257768 -7.90606464868979
88.7455043262093 -13.4008364975263 -10.9554904552716
-152.920311575785 7.81412335686613 20.3428990911737
-131.949131288087 -8.5518049600432 18.3271521588431
-37.982556356703 -2.69453560345953 4.82004755365555
11.7994450878484 -17.3110178580319 -10.1632084332351
-50.8951952623407 -3.78843370522058 -19.6633013955705
161.543999879493 5.14912776258104 10.7247791478164
-156.085927983287 -8.41854088738917 -7.04955209727036
161.78151186758 -17.01438312351 16.4513421286741
-113.259718545315 -7.18210625037536 -13.1445365748903
173.275329720521 7.04632889677624 18.2725845994048
193.862526967081 -17.3747968543642 25.1429620174795
-193.885832890434 -24.4859354132041 -2.58481382628549
32.2394309653296 8.80962696032057 -10.9497770127496
5.0295416525542 6.21280208883835 -14.6014719147067
190.342988062436 -25.0321550233894 29.3871812405537
194.548088894002 10.8160303816279 16.0180459898233
-97.8055064605129 -14.5767674700369 -11.1548106770899
169.661885404132 -32.8417366734165 10.1588089485057
170.694454306183 8.88976349087484 17.5309883175988
-3.08812419206554 -3.25193277090457 -20.2616396391167
-159.755794619352 -12.9390417395003 -5.68920742141631
157.282210651214 9.30411728895931 -16.4154443417273
20.0068237846346 -15.9396074034145 -13.4716090263127
182.580162038136 -30.9754875307807 17.2114234073496
29.5306398364752 -15.9236564560104 -11.6372725735321
150.487035601633 6.89566328129714 7.4976037236179
97.7659228362851 0.303837749789415 -19.7486316046579
159.255153580179 22.1096448795504 -10.0587771743847
-58.1915852666523 -4.59079960294283 6.79070064967784
170.031310540979 -28.8098742166894 25.0406748978008
116.057264320914 17.704075440973 -3.63059634353854
-129.034289314774 4.31730252137502 -5.57157704768149
2.81369369407798 -10.8617571187349 0.184000320536421
175.344495362842 7.26317274637328 17.7386132737311
131.217510132735 16.4959899906406 -11.7262380491556
-202.859016134289 -0.526293294710625 21.3314410184285
183.804573636466 -30.0421760243985 3.82674447392891
-176.786011270566 0.131302381768811 19.5285291555103
174.475816608107 -2.75045641596599 17.8621187063776
-31.5853526606224 -17.7308948305326 -4.53708814213416
-28.2803600168126 -12.4256833512375 -18.3557388368268
143.034187364393 -14.5751368747401 -8.58430008219373
-223.444268332817 33.9718729131082 -4.23255555279777
-60.1023511172524 6.89916497606823 -4.93721178059566
160.076783868991 -15.6726062129934 15.713179026012
170.631385132367 16.6746655569862 26.8215713292072
-199.334244667044 -0.718193313497257 5.4780089560415
200.559685185275 32.5059453838303 7.67126275714772
191.245606324945 30.1354859619644 -1.06144526640679
-215.475687640446 19.3032509393549 13.5003008466032
-209.268121099839 39.3126633351329 10.2682750434632
-212.032013603299 9.83121586813982 5.5793369583941
148.063775118528 3.57465979395118 6.68272099887316
-196.980931895262 -27.2104712614213 8.76334362951736
-165.640389565689 5.87918160414119 16.1718247941174
174.854742818444 -25.848540788211 -5.08843337332836
197.13524750787 -25.8984360189217 5.99233775705691
103.458165017014 -10.3266793569589 5.70807962121607
58.5965600707998 10.7693524239239 -12.2696211753353
4.25932626244611 6.59275122726062 -13.7838452065595
16.3135283711515 -4.0791166815119 4.85256842398541
-197.359844958738 -27.4689278007288 2.5103859220152
-187.14202618109 33.0198853450749 -2.75390935312916
-32.2544542238695 -18.6654475905184 -6.24452198715887
114.566917279345 -8.34923133306532 -17.4984442061815
127.559902787334 -0.750151563047236 5.67716185894917
-82.529983116325 -15.504860385961 -11.9686593191091
-170.587531004449 2.6588656164493 18.7741671376384
-61.080286479372 2.08912012327762 -14.2419252348737
-6.48250445498276 -17.2106762928092 -6.41085160183643
165.477571571046 -26.5270136684145 2.05868584045306
118.986517054646 1.63512481046016 -19.234248423012
-194.538940208027 1.43025650289452 -12.2592567110799
70.3060410575298 -5.86295938666144 5.42159203298248
-117.044378838421 -15.6564877450833 -7.46645126156352
-23.0702435821047 -13.3420642282515 -1.01095880620425
72.1166234762929 -4.74695354161498 5.85480670928713
-207.043784172477 43.1773876984616 -5.47259298184618
-187.304099321829 18.0817216011695 8.16391169619458
-202.49079514557 22.2015397371864 16.9867017072193
20.6783787326223 -13.498371186048 -16.7319108454473
-14.5562963565847 -6.9171647916777 2.90742056432199
-76.1732833216959 -6.79620875947307 8.5965845560503
-20.8042923437676 5.30839862046286 -13.8297461702491
187.434160428458 35.7073873260798 24.7120065440262
117.149589583731 -14.4957713376317 -4.41215127894193
-219.457703297429 9.31804810613061 -8.56674043950509
-202.416186995532 -0.883951521749559 -5.88859869179648
-101.859083320833 -11.6724579778931 10.454139493954
-200.356579460805 -9.59238413461808 11.1842568351895
8.74173423239375 -1.44517129426126 -19.9641700185247
-187.816829459756 36.3716576587055 -3.56337400072828
168.122938260681 -7.39868112049326 17.3964782202284
-170.148332929691 2.56384534698701 20.8299894804964
-27.3890709073422 4.7930969422764 -14.1581675865546
-210.530460863646 5.92900876735176 -1.76344457348823
-33.6672251942233 -11.7434794469185 -18.638668911023
129.66962419718 5.78907047938619 4.80423882673975
-212.466141264631 41.5216684359542 0.571488603051006
28.6511561899882 -3.92663536987546 5.35264525309351
169.903995947898 -8.12793139485619 -22.048883556365
-29.6600993009326 -10.0531399603855 -19.4327088103716
174.839094738829 23.0637344491113 -14.6661924465116
-14.1109676494332 -18.3048838709648 -8.56158362272458
181.457805024445 -28.9074841887844 0.781803808845827
-186.396856693046 -31.2831515010681 9.12014087040006
199.389219528879 33.6414766869254 14.351126526262
-50.1744897499352 -1.34721019484132 -18.5907545857976
169.07433762304 25.7369858847214 26.9769599255212
-54.9939582461737 -5.11282925481117 -19.5970319834723
102.634839812239 -5.60783278409666 -18.8655437623805
95.4946644337597 11.7761698822042 -0.995967782778407
169.071093523007 32.2231657137335 -1.20966807050884
64.055338217987 -4.09402903491918 5.48478680277755
196.998181325736 -14.3414298450875 16.5830364681162
-8.95038911321334 5.001577490613 -15.3460568755373
-202.221791416826 -3.03996797843382 24.6218967505762
121.804624133179 0.991181183019409 5.25263190259871
60.2491758934007 -1.13802855411548 -20.365723451451
15.8478856163751 -14.1526422758248 -2.64326038441206
-167.195889502486 -26.6176799961968 12.7289826173189
-70.8909792339554 2.54228873208672 -12.7671177665698
185.617784369589 -2.80259256947787 13.0452943178833
190.516384307958 -32.0532400642076 20.3100548202953
196.770809477534 -9.81190120827222 -2.12565606754754
-136.818520663983 -2.48310631704805 -10.3116513033917
-184.469351833656 21.1936938826853 3.2448756456481
-20.8193079075142 1.91897235339037 -17.8495305606448
-204.820124261817 19.4936358433018 16.7935249814808
188.185136699801 -28.6578500642936 17.0945332643228
-115.699957974979 -5.83959760974774 -12.9008700980537
-30.9309238943972 -5.92112769650534 -20.3628859935188
113.01279985137 -12.4631850685623 -12.5442238149319
180.674395111723 -31.3037851878722 18.0214104480093
-212.770103891457 36.6310927946715 -18.7134911634002
163.169516560539 -21.7793589503722 15.1535252238326
-192.85746935121 -19.1258654888856 -7.20298661319564
197.024357409846 11.5959698216965 16.1616180249042
5.83258785085532 -17.5967657352856 -9.65125520956101
-104.920666479018 3.21309259576162 6.09753987972565
56.2041964572563 -12.8586135625593 -15.190664785264
-183.606609406055 7.62611726746791 10.8475045255052
-110.236608703717 0.191668608185732 8.87993296557627
148.086530492953 -4.3316837509445 8.00662642116738
-207.623544245346 -17.3535603328912 1.98226492145661
31.8390561416857 -14.7628922094287 -14.2464607604955
-153.068134488683 9.29386925334021 2.71727419083622
-0.515414392127771 5.66924958741796 -14.9586461162815
-208.932119696891 42.8176525331861 -9.3762706909041
71.2823862909975 12.4490925294498 -7.51914906680418
-25.837390774841 -9.75685314792788 1.41225670995306
173.100610705354 -15.5546291933148 -23.0354183483546
85.3090567485822 2.01624184637123 -19.881493681014
-149.810608856317 -3.88927324299801 -8.80670033735273
132.023833464816 -15.5159136461334 0.29181831807455
-95.6496962374154 2.56511406518693 4.43133743076914
-110.983578252015 -13.638031657853 11.408605837954
184.6045957224 -30.698428803789 19.4126368042753
20.0816222455754 -16.3695272674989 -12.3624991891646
139.370623585253 -7.48121930676224 7.70356028579728
74.9616559729166 9.7209166492511 -15.9041934586013
2.43328968673032 -14.2256822504464 -16.6879801786199
-37.5442148036931 2.78143401705593 0.624423944217368
-83.8465931566858 1.14570032634373 4.37879640522183
187.265547584755 12.9981691993065 23.9922545974117
-183.155349062343 -31.7557446910684 3.81770689302014
-199.732290532688 -16.300504911748 -5.94564154271654
100.643840694055 -10.3971384036199 5.47836450226311
175.908097453565 34.4703995789313 24.9348297405217
177.946873459436 21.0932480710505 34.576565514433
102.067787785699 9.26638444621663 -16.8704118951453
-52.5417994687142 -6.47126879704237 6.19739744891291
-168.094242051628 -15.3243277612688 22.5696134393905
-181.629063168959 -4.18450915062774 -10.4329720068702
199.260831927915 32.3674336727558 8.81476587990693
181.535433744574 -5.69903159090916 -19.7347055756721
-204.840295944032 2.61883205495174 -1.70483982827711
-184.716440630579 -1.46566860847962 15.6638930536261
-30.1482765259874 6.29048705482757 -4.56422118067814
188.211660675479 -31.091019095663 28.4646953204965
168.523042236008 22.9850940779166 -13.7450085994893
-182.600597273134 -15.0442374305238 26.3703854701918
-212.927262677749 40.5898365306468 -5.66091847134952
180.36726027134 -5.14423742178443 17.1858632763351
-110.867494209151 -12.0196910314949 12.2201601578761
-75.4400596115151 -0.630042774951836 5.5956829702284
14.278377386491 -10.7344479971415 -18.74014444457
33.7440503422246 -15.8273256563737 -9.12753029133146
-154.44461526397 18.0192125328134 13.0054026667688
-133.72539071098 -11.4491347100502 18.2615737377857
-154.256933473725 -7.80754606625845 -7.38980559803072
-194.2973497737 -26.2094026851304 16.717025957941
192.490198761002 12.2650172297307 -12.0215025339384
-191.65980219146 -11.159841981277 27.2917990402661
-80.0035302807866 6.13499530612984 -2.15508701594885
-143.010858014193 12.0628514674104 10.2089527806275
-222.424576743111 24.5193458063835 -15.0157376920475
179.423892295959 -30.8369543402436 19.2354540286153
-206.458642518811 7.0364185464053 2.90133694937723
-38.5874183045758 -18.9702797826579 -10.7284517027132
194.363853203366 -9.73060191841566 -9.82474479639787
-140.208394363834 7.76125741531165 15.2445097814626
113.091412342522 -9.60563279801074 -16.439212123941
69.8247421321409 11.6905805550334 -12.0662300154013
-192.489848762704 1.11391914096755 10.4237446665442
186.696208600607 -21.5968053855564 -11.9878721322672
111.796284029856 15.529688181287 -1.04597128672755
30.2499659169649 -1.75023523346047 -20.1385436132792
-69.2284881220893 -10.7751374516656 -17.3497412981792
66.8592847294634 8.20866558051825 -16.8601161973738
120.214367931954 -14.510520600842 3.13031368444337
176.620986070375 4.67187620560378 -17.5748528524199
159.829238750574 2.4489161929194 9.20020574497446
-103.805168818632 2.26113767578133 -9.98475448830029
-192.714681693565 19.6281235200235 11.5192598076088
185.206087626558 34.6606570070179 32.5683787092266
-158.961455846053 8.9010081997717 -1.20336299689663
-169.250388728081 -7.9733182892453 -8.42572452803316
178.686340816119 -29.3833932911079 29.4611405368069
88.4541180715512 5.00460420268746 1.62977378345178
122.226275448104 2.98175426172188 4.93333127243659
165.153153387479 -23.0694202139536 22.0788677897231
167.483465862569 34.2537960453602 5.40452545110599
73.4943730589136 12.784305709651 -8.87645665902286
53.0062334179523 -0.593648903830839 -20.2225560937721
156.014972967059 3.42411284206784 -16.6756993480895
62.2585134295788 -2.52825814801208 -20.4111419971764
84.2720410042159 -11.0394393280514 -15.6085478155853
-80.8215413670209 -9.11140746567055 -17.0121016053515
108.881286128521 -1.53820059266559 -19.6853881192402
5.60589094706821 -17.0047242606745 -12.8980698931832
66.745852034729 -13.1051155164044 0.669637296458614
120.959916351384 4.53032001126415 4.82080594032814
163.8538983226 28.7687702021231 -1.91510432135837
175.7129280412 -20.6430831113101 -15.8453175668456
-19.3733518454371 1.56280495352109 -18.0651158463612
-165.494093556876 -22.8348239892389 17.6393903017045
112.597477541718 -7.70701822551871 -17.8565732937388
14.7314812527682 7.4473522640163 -12.8347826296752
197.808716188248 32.8665947376129 13.4576132305491
-24.6549381882297 -5.29753719256075 4.18624920828842
161.831167928418 -25.234813842325 10.4437773185391
174.773031281963 8.89483151313495 18.6209958017681
106.435516039274 -2.81251550641178 -19.6129678338049
-61.0287425627745 -4.69369768088027 6.96436917382649
-35.7476892983347 -2.94507058903665 4.91457595837787
-172.001618063074 7.63748429393114 11.5087639115804
131.910548262101 -1.9739366472605 6.03255814927243
17.3547097572798 -4.94123059435474 -20.2642592661136
-143.581525459106 -15.7975578510584 -5.37730948601359
-212.011330769319 41.0569966091474 -8.45788469370374
11.550901734871 -14.7845525223275 -3.44075797569919
51.904421882384 1.87250809812092 2.93869157663261
-59.3370121539888 -4.10188258652903 -19.1312821879586
-213.940290839633 17.8908175652251 -21.8676948503716
143.159121722792 -16.7129531013353 2.71924020281518
202.970730614029 27.3132531816014 9.21214769556209
187.107429247514 10.9748052541481 28.469198864347
-202.324437747142 44.5619087350411 0.734057188422941
164.245670097782 -0.791307650907104 12.1854765575997
161.213334047183 -20.0894490467738 -4.99473491914234
-78.7422620491804 -19.1518037943657 1.40920004565676
-78.8132152204285 -13.9761484949204 -14.0587090897116
186.249770799106 35.6430864116155 29.6846140080292
139.446463215684 18.9042820369048 2.27929531325403
-217.958301498217 39.8885430868803 -1.36374257115879
-116.752364735562 -13.0682366694665 12.2351383401976
-56.7104666352064 -3.334626522801 -19.1495369459405
-56.1316950942919 -20.0366728261999 -7.85932195574263
188.104598041678 20.3930240446939 -16.2748917590058
16.5092436194547 2.56014308083211 -18.6364365872468
-186.949284193797 -32.7329446395881 6.05548742636672
-218.359259633575 38.7747884175715 3.2529966342805
-190.748349678265 30.5962081670129 3.36436923679594
154.750810504707 -6.19012220930704 -18.9222777060999
-186.197289927403 -30.1474123414039 9.66843078491914
-180.370613217394 -29.6268795492217 15.6392032764337
91.5249512574403 1.08192987441304 -19.8510926700566
-85.5117716429361 2.68120718202673 3.09662036695792
-188.458353067851 10.6011341037963 10.6587565041523
-85.6615942479667 -15.6885199568771 6.32326103864183
188.276817917323 13.0802024373817 21.6413289066567
73.284784719987 -14.0102427704328 -1.04678999382417
1.53070187820634 5.28041267508467 -15.6860776941103
194.522569519187 -19.386326015175 -11.999371419527
164.872246912059 16.0163532232644 15.4472432399518
141.731289276686 -16.3764824267341 0.92418942461057
165.878857794699 23.4279974308566 -12.0826508396152
-162.014961609268 -23.9776229723861 4.61823700235965
173.81619059925 -0.563846259185829 17.2617361048541
-67.1798108284992 -20.4952893961673 -3.05996239232224
-171.779697247713 -11.0509042856411 26.0502890095205
148.083678392821 -11.9846966677911 10.3792071423589
-187.994946961465 36.7814851789057 -1.27760205704163
-90.2135285848732 -18.7852259069239 -7.16373764064084
-129.36191025496 -3.63457873876398 14.3882569259756
107.654672070766 -0.391954516384847 5.00463690765878
118.112047467513 5.59066971045532 4.46556063107767
189.176647309115 31.7635199533989 33.0829571444664
53.3358369728082 5.68642672779998 -18.000858131703
-138.343757239324 5.49960368687629 -3.20735178415156
172.192057885347 2.38417736634086 -17.6752091020856
-33.8812321115116 2.18797054145641 -16.7503714283306
-205.259710963496 40.6620486406941 -17.1639618530747
1.68248305898272 -11.0196153648467 -18.8530789099458
187.081919876851 17.7795154656772 33.7500341815539
49.5356834323207 10.3182130039297 -9.24027472268885
159.039878798464 26.9723671052932 -0.76336824246434
-198.048995561784 -23.4899668004607 17.5629826287986
-7.55547830881986 0.650469162117691 -19.1369724154697
179.013455305821 13.1645636209717 27.9209928273559
186.504644868653 36.3978748411588 6.77210157391053
-79.8547816127841 6.90380978617431 -4.92529396544264
-208.273523525029 10.8010913115997 8.27339729620997
-7.94877398373071 6.80019237074091 -10.3509486084006
151.78621085516 -18.9374900583293 8.68525999863146
-138.644972701109 -11.7307375967545 19.0313581510345
12.0663692690618 -8.85582988602817 -19.5973865437896
-204.635609693978 -17.2973761101004 17.2232800701424
-67.3533104982623 -13.3999681111905 -15.6653701310959
-96.9990626562448 6.50341013577621 -3.93580762799852
197.820742769305 -15.9861788226273 -5.62234942950678
-200.269660174977 -18.009321118084 -6.32798549332124
189.919210432746 34.5160434819385 7.1139860562112
179.564172552466 12.1564109725513 19.9996639088096
195.015794398822 -6.67466823152698 8.40296785436984
135.999718044415 -13.5348792715198 8.48134529723638
-154.076023087043 -0.110531893616374 19.6526840394539
169.349569243028 -23.504068118694 -7.16807590072996
86.5073218393941 -13.3929572664602 -11.1628742348512
-102.705472216405 4.59560336849046 2.7175112274081
-10.4121601242438 2.35290614767197 1.33048565703118
60.6557871515981 -10.6401533168218 2.39934720696269
156.566491415199 -21.7324713629505 2.78987149480812
-41.2340932877121 -8.17716351315876 3.35940712136997
164.250921559199 -18.7834732854327 20.4077896278358
101.878027317208 -12.1440607093713 4.50331416337275
-196.919057928002 -9.73150699860998 8.85126476747471
13.5085270637562 -13.4495993584507 -1.92131255418569
177.701110860376 37.2556959281757 5.13344990190998
-187.768847905204 -9.02488919870716 26.6254013440579
-145.615433031024 -20.0507462271043 1.16714085450084
-123.205208247569 -14.843951345729 12.2700345295907
192.864760196123 -7.84349062429416 -10.5739831542172
-30.3768757993279 0.889436738276397 2.70048336119999
156.291230231246 -4.09139856126105 9.52539358607294
109.553572278287 2.56692190206358 4.74399453467607
64.1700718488368 -12.3428339092755 -15.2717410205494
179.999510769589 35.8118051265545 2.62138877107846
-153.734176563746 -21.9096640752635 10.2070856515221
105.229780780417 -1.20451683813153 -19.7088063723592
197.973130944108 -21.496855806299 18.3188514038517
11.9841261865275 0.22296300590424 4.16494000404368
114.870714087588 -13.185884408355 -10.8903668371827
111.150775706831 16.859456285292 -8.34639161258676
-185.138045176801 -3.74146726673894 23.6474973699697
132.752920776414 -7.98661441043564 -17.9330644662713
-67.7340497801144 2.67008996711545 -13.0158870603941
91.9933235595933 4.22535799192761 2.55389931621126
190.855762025868 25.3489687043583 -8.9907610530503
-187.950125623197 15.043932291 -13.16477983828
174.965491210934 20.4800666075644 32.9757285107146
130.460765091849 0.612515325195347 -18.9352205034375
182.609019526195 -2.52598113953229 -17.0879251810001
-187.527701943335 4.35246035655539 11.1576437756723
58.0650679318829 7.51418684126311 -2.15804607020209
-191.950589209268 -6.00815782965591 8.4271749935976
-183.800868632769 -22.5933838263583 22.4922482726737
157.759769324966 26.7372155714324 6.31544323766756
114.552102526347 13.5091431744426 -14.057352037373
171.437105363345 13.9873074689982 26.5188221333949
168.562513797749 18.3962881768512 -16.6479447843559
-172.577472298365 -5.58366664055439 -9.87533587482046
-85.140901284575 0.956481266987448 -13.0983942600978
178.34067064558 1.17000504375342 15.686774164701
51.4131996710701 -9.07021385877152 -18.8527261207356
19.7810523128013 7.82664012118324 -12.4413350768652
76.7215930471768 12.4792060849917 -11.5121945373521
24.6013287008289 7.7492635708438 -6.87374268328478
-165.579618982539 2.67255156983253 20.9956451385242
-22.4029064897099 -17.3016191404778 -5.00800711851178
8.78477203633059 -17.3828484456381 -9.01682501193281
-223.99316409846 28.3645195895108 -11.1274937614027
154.000873046378 -20.4091456183334 7.16929160502375
33.6080015715516 2.32715819814701 2.39133109140801
9.48020536143368 -15.0705940069575 -15.5720678674099
-177.366568737578 15.0855619825347 -4.66576090977093
156.981373371575 -10.8080796137707 12.6410333707661
-64.1766709868631 -15.0848650823337 2.28943384539659
-213.782673104153 41.1189770918532 -9.92182511300586
165.239798193116 7.19599852085181 -16.8714815289829
-191.899639484999 24.1073843825814 -19.8357258445179
193.695390016661 31.9122257586839 6.82490696098311
166.083955598998 34.2481191400039 9.78887043798602
-163.57883012229 2.74299249297467 20.8828855665351
187.906103190368 -30.6306212615645 20.5463220879134
-217.652574948782 39.846274158239 -5.93544275528446
173.016844182038 -30.0146795488202 24.734281857524
-74.0871591936938 -11.4059568607697 6.04281131368066
126.256611501244 -6.82267467951045 7.02433577606845
91.9302169342255 -10.5997120290623 4.81056233763484
160.019422942427 6.10695277565576 10.4448554969603
179.261392902729 34.5254697289942 26.2954453571565
-126.679793682413 -4.47402753674758 14.1910107996762
151.315800574622 -11.7907282219539 11.4588559482363
-175.312596415731 -17.1411519730139 -5.7257056057753
159.361413884673 -20.6861285281619 -0.881660579212821
-177.452019784932 4.91896517588824 -8.70818278855181
-140.976195445235 -17.1324176743532 -4.43731522420923
-111.349551380685 2.05331540181193 7.78907489804981
-196.409906079905 15.4706932955691 13.1974847909841
120.186035167321 17.4796698776012 -8.69111415531207
139.717056797029 -0.185335750765404 -18.4847622609424
29.0849263818824 -6.91648425098598 -19.9464111450267
95.2069699229038 -14.4874864244851 -2.36983271761142
-40.5273128441191 7.26897921700099 -7.71191334892117
-12.763425574852 3.20883212987404 -17.1475103747741
158.78099837826 6.88628656817152 9.70824304541894
0.0991005087364082 -14.8152025398489 -3.24324092626683
81.0744573317933 -13.0108902355757 -12.4512411143315
-10.0404649234009 -6.73690787593064 2.93026987326848
-188.059982154302 26.1773611690472 -14.7415673793665
-31.0512457486616 -12.6746835443102 -18.1891620782306
-203.303219673024 -18.1191910855499 18.0971430163677
25.0698098115742 -16.3429611841944 -11.0734008116678
-104.344890237779 -13.968407229563 9.92577000857702
162.564592919515 -11.5859734569536 14.7100174306663
-118.695603236731 -8.75584287086591 14.7657963160285
99.6925741657186 9.39393717422796 -16.81239319383
177.570295596807 37.5032443623065 18.671802858748
-154.521829720522 14.6783478588955 18.520889077905
19.2998969125543 -0.252069076523427 4.36132681953695
-220.972293028081 10.8614964061784 0.409671387709531
183.368702702333 -28.1137835450745 0.634346052485647
195.174620702512 28.4672791188816 30.1162747498874
-150.00310320628 -19.6044950958578 14.9339559792487
111.701389576016 -9.45074497863864 6.63948505605422
-30.1786974777047 -8.84319910186431 -19.8575375946248
54.2752605093489 10.6727380294599 -11.0802520234485
170.494412623975 35.7731019766038 5.04815613555272
-196.125995785085 10.1750230653509 -17.3198504780333
-194.042167605702 39.1689713129495 6.27504474810675
-97.9140437540254 0.670551016443814 7.12363556436962
176.618409700449 18.850762074067 33.4924348573461
110.705311042976 7.58255823226733 -17.6143713227075
-36.5459854312446 -0.819599112784764 4.16187197823172
176.415028987683 -27.026272126342 30.791455602365
-195.353509518897 -9.61058289996623 9.90923331897885
-175.119065595643 -30.0827782938895 0.730327809730469
187.325069271023 33.5317916584433 2.12070701348175
159.564707021948 -2.69506030816888 -17.5909819624583
-76.1889550483312 -11.7118009592445 6.38773670718433
-203.251495363572 -22.2641016580076 13.5021997915612
-193.07530915865 26.7743861007743 11.7982664664536
190.789849766921 35.8343289896731 12.0937504332978
-42.1471152945687 -18.5916668439741 -4.63227598382868
96.1373747464071 -14.4065346383111 -4.48122065374205
-80.3271182162426 2.51520738143805 -12.199035359667
178.215477615798 16.529959673589 33.1114793052256
164.795808114505 -18.8304658209178 -13.8468047527737
-33.5479275519768 -10.7534436882051 1.28294075862899
-115.22335782018 -0.663344516203091 -11.1861028465048
190.904311111673 18.9751296590373 -16.4345795708241
176.833306749314 0.131867957985797 16.5618921016211
-191.78527168023 28.8513160978162 5.71325323893214
181.210499703148 12.8941877421746 20.7804787573845
-120.404143688952 -9.50371942878742 15.0686794085521
-0.494416015417499 2.2835665943997 -18.3775264391226
144.607985992069 21.7630574115629 -4.15984127990016
158.849228522151 -14.3935362469385 15.0212281018692
-145.897537180307 -14.5603394392493 -5.99140974353857
153.522692233825 0.68496743177506 7.84156465767517
182.309296194304 30.9899411612562 34.9036641674439
202.10265167803 25.2882280813428 0.456311375539194
-4.77322752702807 -3.17567307529691 -20.2551660593201
160.089284480252 24.7762997202696 11.6623999737275
-186.254046511985 23.3696671592289 -7.48968584641351
-59.73927000649 -16.8814153293087 0.0911061631418509
141.928456985554 11.2579362808931 -15.562042225366
62.0025342350127 -14.603624931068 -6.54663592125317
36.5201117502329 9.13788385169564 -10.8049807945191
191.580690846205 27.2015733879845 -5.98899520082674
185.816168432027 -14.538350557579 29.7148876210839
-218.84546634926 22.0223025215033 11.5584476148634
161.01339024598 -18.6642814919982 15.2425601064042
62.4108969379095 -0.202408765300981 -20.2713689531893
136.991262188701 -16.0789451362636 1.64675534058891
-191.15750956893 -9.11616202932829 12.5377301936911
193.214974657899 23.0109742596985 31.8610805366692
-190.176739508924 33.9508464257168 5.1465997123999
113.782173176833 3.33927388841098 4.58306067660411
169.790918529559 -3.85696764972877 -19.4144242696131
-134.319052810961 -1.5316787065833 14.9154030058372
190.633779042904 -11.50583322229 -16.5945008910094
16.5866886027868 -11.0302834387778 -18.5513634541549
-35.9442895165757 -9.78479596792196 -19.4409816585537
-174.492028504504 2.61538567774175 15.2845185408777
78.8766473079875 1.54952683816654 -20.0937792414921
191.84785108586 -8.13161683314793 -12.6542858534528
172.245594427263 26.6946406539486 -10.1982446893615
167.474536399805 29.1198239435951 18.7493863474451
-74.7168518311594 -19.7440278069923 -7.42511888741647
143.042051756798 0.979168915184876 6.28429191602496
-110.752594500398 -20.9204093978305 1.60511952474776
-220.729419269681 13.6859818435198 -13.1283108253897
-202.19818959436 -21.5950886657351 -4.23461712013142
-39.4787282281497 -4.27200300582351 -20.187880401937
-213.081518428687 8.21113227979522 3.58784373440185
-38.5273640674834 -6.08874552598477 -20.1885528686098
-60.0302745089699 4.27842550488121 -0.621728541616888
50.0354328793484 -13.5942652723843 -1.33733366337424
89.51772837423 0.897523960678126 -19.8907241260698
194.615487124937 12.2025034010778 -9.30865767874649
58.9528701568357 -14.5304974288978 -10.2691679446391
-170.852633087546 14.6736904308567 2.30506681724835
-137.597471764185 -8.8845699338145 17.7189690788108
-200.153833778899 -10.8374630891294 3.04525531741817
177.736737405302 -24.8873662645072 -6.96932430331003
160.976114741075 29.2436696741538 6.96565868659007
177.216323876944 -26.2875208376339 -4.62847254714538
-225.012101558906 19.7182734442979 0.842000055332698
-53.2764989592169 5.46678671751843 -12.0020842958598
18.2164799467314 7.96726636612541 -9.76449231741772
21.2626653936092 -14.5901939760023 -15.5365572469734
197.246766782197 -11.90895268962 -4.30980951543607
-168.416677381813 -27.3812855824144 7.0087227916805
-15.6851666305537 -17.5664075860334 -13.5248578526333
79.218958197296 8.65941824098872 -17.1535396725507
35.0871821822939 7.72219863370481 -5.49361506560777
164.272778135569 -28.5723417928118 7.56439101105766
-131.212132438709 -16.9510387086662 12.1489207764124
144.596127252648 2.05883785671054 6.24057143705373
170.950334503351 24.8519157917527 29.9951021830332
-137.026253083517 2.51045639054732 15.0439625346726
191.014636629431 -10.0098236921433 -15.1081655264206
-203.87867927849 -15.4803651425434 -2.04228161067175
-173.781781951848 6.58105870750055 12.1549800794415
-188.601294190009 2.86454875697877 11.111393245666
-95.3767308786319 -15.0263555433708 -10.9060175990179
128.029009677 -15.3135538932447 1.81674088255287
178.283673448646 11.9887435689924 20.7460875943477
-169.438280745156 11.9264852641068 -3.34874078155015
178.460274133201 18.7052532236904 -17.8385228452874
-205.011381650224 -22.0771871439586 3.88316482214369
174.083569510617 36.4909970897605 3.42893915419218
184.552072783791 -26.4093108641693 -2.26968449379141
-218.030358153428 38.0151686144077 -11.1174606107341
-190.837648864481 -4.86594524835753 24.0155111448158
184.972091432963 -5.2932405427257 -17.3139121956682
-200.964645410935 -9.87862799972591 0.820598894551835
-221.676128141689 17.9712756432679 7.10446972158668
54.3502982374092 -11.7946962837344 -16.7341496459014
35.3472502090977 0.340283096850395 4.26104833332601
-22.3540412750858 -18.6334638553294 -10.737755301391
-128.333214745602 -2.21664344916 -10.9578024130766
3.56380992507271 3.35184962198069 1.15683393970378
69.2551666588452 5.53173116459878 -18.7541360381995
-167.057101227491 -2.23820330809068 -10.0002180997996
181.949005734544 -3.1819346485501 14.418511032516
-32.4851241779522 -8.96847117725293 2.22480303670279
172.452488922161 11.6843478092391 19.8969399457806
-47.3334677097418 -5.66962039350297 -20.0139411115454
36.4193867617785 3.44022246069897 0.714022875585655
-69.8551845294231 -13.6636403859254 -15.2189780219804
-109.724190611128 -14.4525963836422 -9.7065576716763
89.6241968579758 8.84830801077174 -0.178659614244368
146.536628425582 -16.4725653336422 -2.54300227387876
162.301161882294 25.2422671006817 -7.0492319339041
-188.893549468664 26.4000783085184 -17.1095910279064
198.673840991872 28.1445171524675 -3.00748101088826
109.878055037944 -3.35232802313043 5.72076323550929
-37.6125945967705 5.10156951932857 -13.0025622316008
-3.71976462155245 -15.459253423539 -15.7278186554083
-201.577010814371 44.758275046099 -7.64302112460673
26.0097949074297 -15.043040817482 -3.88298481429792
195.375437323787 29.4185174781816 0.142807447010457
13.0668887024337 6.02318520951564 -15.5415226354629
-175.515944961877 0.749617470684579 18.8974631664059
162.731714166292 18.1788596733717 -15.2793748043503
116.468007096232 -11.4731581845372 -14.3295507731484
-168.463001142084 -26.0434983884019 14.9550219036021
125.392118755994 3.49023740816635 4.99668221103488
104.391737274685 -3.12116253952337 5.5824251413749
125.907478407289 -14.8834637027322 3.73859303203932
-201.077123527564 14.4479173724272 13.6567929945625
179.362606579833 -9.25458598619796 23.6264680147862
199.945671272025 15.1066502957975 15.2391321805009
-154.65091611997 11.3757149738698 4.87012892253479
115.713425588637 -13.6558900610979 4.22634218344286
150.3445346729 10.2864129696919 8.3775989432369
163.748420537245 17.2042590130702 14.8012307494001
-35.4204043443602 5.46704711042764 -12.7438446987787
-7.59363413342303 -3.16947189386998 -20.2616974464599
170.206680720779 15.6626721203437 24.9763916114605
-201.372820747321 -4.22025977487299 2.21517723921313
84.7386451449824 11.8504486805957 -2.62211429952847
-206.054486843076 34.5250914874643 14.3639277071118
137.694167276178 1.37313467096573 -18.3482654298909
-197.801879888373 -28.1101836094846 4.95201825623332
179.280581029369 -23.1630621760441 -10.4695921789168
-4.78533199192501 4.84216972055 -15.8311757568754
124.815866979785 -14.5559098607626 -5.02409004086721
162.283287386583 30.6764749710955 14.3776222116794
-31.5196964208585 -7.33443557800594 -20.1477401148528
148.830668048712 -11.5000688238141 -16.1916477927566
84.0540694722969 12.7730852462038 -12.334396152118
-164.399330883707 12.0849640385757 1.24600689059165
-223.964837024581 17.2804653259901 -9.27783254675869
-177.571992304927 3.02667961536777 -7.76540635049658
-42.8023732937138 -19.4872491627978 -7.14306068578771
-102.311727393475 -2.69730743011388 -13.892142969467
-129.213480670683 -14.9186287752595 -7.19984118863566
-147.442411024078 15.3174488942559 17.5400838363946
-92.5837232077269 -0.548197217855208 7.08366048311858
-160.711841556992 -13.1491902542047 20.387028426378
42.5848444863805 -14.6736604319019 -3.80661723890515
-170.732696913225 6.61759550900675 12.4370774165283
171.284145914694 29.1266581875431 -6.8957251410822
161.87378177041 -14.4049375236567 -19.1747891555079
21.2306753161579 4.03870206922544 -17.7720647034427
-50.60857073058 4.41900209446571 -1.27398198857727
-177.940295786366 1.76109543764141 15.4868295635913
-196.792789307364 17.893426322802 -22.1012321741297
86.3894493355681 13.348678412574 -3.99033061733392
-166.70163109768 6.17413146357671 14.1989771808372
-206.706173403188 -21.1832687112944 5.25169476963969
-218.609702934053 22.01664385661 -19.3559169701014
197.939625251815 -13.9929132965112 9.46402881991919
46.8566431993348 -9.11238025024468 -18.9459671761967
31.7747113539832 -13.2563034137213 -16.5092366557954
158.965880854139 17.443730910695 -14.4238828854536
-205.033629195475 5.17690577559972 -14.3276519802996
180.223799693582 -8.37775948860325 -22.2585071819893
177.398926138131 -23.7296917215477 -9.21647322893057
7.71971530643611 1.59657074529851 3.39382266196597
-160.69653744231 5.3638749879123 -9.51431236063984
-96.0987064964045 2.05054943347279 -10.9707495993971
177.671960103209 36.0021822270905 22.3313613714062
-177.676951321374 -9.21508035003654 -10.2456547674114
42.6599323305128 -4.86339313801736 4.82530827609554
202.130849417417 28.2282118485911 0.240937959684994
-182.834876819553 10.3633929064353 -9.41879267361505
97.9263447100501 14.5728029460985 -2.84120668402647
78.4892370507635 12.3997730113007 -4.58913256373632
172.359118844142 -10.3815608257332 25.9939748192898
166.736487229562 -17.2568401788933 -18.5767516584368
38.4825841743879 8.75055265024347 -13.2075999707796
-121.807858161428 6.07322038103942 3.80008615664888
172.51920021207 15.8759892311975 -17.9492160042164
-126.822923928187 -7.67037090562757 -11.1909799876299
-212.952206377024 5.54797975302148 -10.0151074251264
138.102276863106 -13.3189209395308 8.76200661488241
99.1046065892499 13.4188363566917 -13.353469227895
143.650860901371 16.8643585472053 5.91437733956806
178.283886714212 -31.7222659810938 6.74833702911781
184.941173280157 28.5123896654949 -7.00266742053828
139.463998746807 18.4508469551847 -9.88587110937922
-2.45388741799777 1.97107191495013 -18.4852467945531
38.8514138144041 1.31024086594515 -19.5413490311283
130.301594968606 -0.360130308907086 5.62557215146676
99.3909971943627 -8.72589108357255 5.97424420168624
-24.3320668857936 3.47248833809527 -0.339787577793205
162.944290795854 31.7861692865586 15.9142842357117
145.533155166082 17.5365845359491 6.6168576363709
-206.062950444617 -15.6543158140926 2.29552641650581
-161.136801750335 8.90163766727193 16.1820538347112
-200.463295686863 -8.00503505269676 2.58956361350139
159.795167887294 -16.2515544760751 -13.2459824990029
-145.404997395263 -14.5626919062778 18.4117754118913
-122.3148418651 -18.8955554538155 9.24424502949669
88.946281872161 7.85087867298302 -17.7985099884974
196.203004568607 32.5448883449035 11.8798285039229
116.824368279987 -0.264932601294521 5.24869615350063
166.41026250072 27.0995554867299 18.1898953745112
153.096602559757 -3.67976081741351 -18.0680279696742
186.22991935657 -8.64751057262209 -18.8337839453366
196.438419798563 23.915479020639 -8.35164805852981
180.721371980811 34.9194817411154 25.4451781920862
-196.898839816348 11.9661141419637 -19.3064446616267
-80.986589219163 -13.5416544793957 -14.2442317769693
4.02168894120464 -5.6359797291825 3.41330600375532
-170.749674443091 5.18560655157637 13.7176314391974
-202.532639246706 -12.9854732090995 6.00878641682818
-42.1430630044427 -15.7056341488862 -1.15989810632019
-120.800754419147 -13.4146621500983 12.8298007362729
-8.42757168223338 6.56350706350667 -6.36003452319613
-154.468869702002 16.5802062050875 14.74015540477
163.004646590662 0.259670281833591 11.1798181640318
118.821828342976 12.8600017968454 1.22682215288608
-28.9161277712791 6.84040163944675 -9.98953593806049
-206.771484210835 3.1655672464417 -4.38951108705253
-10.0700134824348 -8.39164603098239 -19.8859666812722
-134.019933822968 6.86261379715596 -0.244111528510912
42.5771279346988 -15.3551023178349 -10.8735777004662
-7.68477072151639 -13.3576257907592 -1.59352310841774
171.010807493155 31.9356167127388 27.834831285167
48.4266215338614 6.03536780332432 -1.73939415022299
-199.469777874961 44.3125877017342 -7.81454888064977
91.2096482483173 2.80994260489969 -19.5956931359808
-152.918793718975 1.95942393772137 19.9250218681931
-75.2268436121684 4.10787292295934 -11.5169798082142
22.2264061031879 7.93479001328369 -12.5074874808977
76.6767462040338 0.0454434918432639 -20.243599948399
-77.0411685857103 0.271960955861287 4.57480684987689
-96.5832637314779 -0.443584849749433 -13.0419106424178
166.54158221752 -15.4086282714279 26.2669083900798
203.0225070461 25.5474246840716 12.2894064063323
191.328576996016 12.5982413441815 24.3578369838982
-53.4323500162158 6.90300748087499 -9.48949963141074
184.123129519297 31.1700528157433 -3.57849553355333
-82.720704522897 5.93410779023914 -1.68498250777308
170.68035290157 12.6131326944218 18.585376747069
-129.423001063037 -20.8710550763947 5.14632148568406
155.494600497703 -19.2728599977235 0.351601187705653
-116.415195427476 -8.33629809987071 -12.462437583872
157.633707667121 3.28147167228734 -16.6342255585006
102.831733250686 -13.9293480013386 -7.94028947496431
147.694733508369 22.3227209159891 2.09209194133342
65.7380820518792 -0.697217138982001 -20.3415867137026
-13.0930517206494 -1.57484445979523 4.58570077026293
82.0538006088001 2.92134138393601 2.70123871361128
14.4617654442571 7.77877461548786 -9.56640145472077
165.598073580404 -27.5268854733808 3.42656890024527
-10.9650852411019 -6.02300188670383 -20.3099630501609
-186.922713135143 31.3592365035901 -4.77324805210609
21.5251632049554 -16.7166506041688 -8.464072812638
184.506144383276 -18.599786491266 -20.2532822576077
39.4677248272785 -14.1394477433561 -2.58853450039219
-175.023415895761 1.46363573228241 16.5716901570038
-139.349042720679 -13.965910803766 18.4128266230743
-184.314243697806 -28.0912280343663 17.2030023936389
91.8897882992154 8.50399145215059 0.178793818411575
119.990146952908 -9.90330988062239 7.42483918117017
-170.234167539149 8.39725032664412 -7.14814824347757
-198.699156367357 -21.6178743623018 23.3066553816172
-15.0123434903829 -13.8506939544257 -17.3378137494708
176.67003335111 13.3257481064198 26.7732848490086
187.066417553024 35.5816412404329 27.6610580440118
-17.047431828678 6.50698017387304 -10.4731400002029
-126.266764856488 -17.9569489235388 10.5534115975887
-163.684196123506 -10.9010814002019 22.0908124348815
-8.23482604147824 -18.1120210997575 -9.41665065926665
-30.3428844780401 7.07008444859655 -9.15131858651837
-15.3734168400374 -8.39139526500304 -19.9521951834307
-103.04204206245 -18.6495900894525 7.39957033827583
-29.7148920340483 2.41386519697333 -16.8285097105768
69.413413034186 12.2936582042533 -9.51103029552329
-21.2191536624375 6.93805938889364 -7.08898627936895
42.517281933725 2.20059405234015 1.42042209629781
193.435707175714 -7.78575445811796 16.6933971764633
-24.1106734208719 4.79975213701747 -14.3689649933215
-37.3894151358335 -10.590215793772 -19.0694597691272
53.283075461485 10.6195130212083 -9.32452661173524
-119.324364157537 5.07115435723851 -4.56343864827679
-116.721870784986 -11.0978578489435 13.1778662293165
-84.6618247031116 -2.53827146146489 7.4400364723403
188.414279788519 -2.7235905898921 -12.5612404419503
-188.768475208199 6.08852867563676 10.8477355112213
194.240135132758 21.2762897301355 -11.3674444087713
-212.837391834785 12.2359016654535 9.69083929492472
57.8281858132686 4.2076990640631 1.04084246894808
169.232298851274 37.3124239576181 11.9382393748787
-205.929529016803 9.82858712976014 7.4522385526385
104.382635814476 -12.1689463300166 4.70186605770302
97.039982942973 12.9582845804482 -1.50343006402202
80.0108557841802 2.64319242992778 2.83467205200867
-190.117460885754 -29.915781361232 15.4579574745013
35.590050662333 -5.89898927915854 3.91713207105167
50.4780591335485 2.5066534575659 -19.4401119951114
190.932977124464 -21.550667384608 -11.2737843532774
173.937966657251 -17.6052908746917 -20.3364407296902
162.038887892434 21.8176985013946 13.7965806685331
-94.5409119740699 -20.6700276606943 -1.0452796578072
-220.429207847002 9.69924499193197 -1.71326594750982
-177.004798684368 -22.4329912191369 -6.71013719342117
200.458698743236 24.6552067071623 22.4921806171203
-104.372169358185 4.11943785371318 4.01064012505334
-90.8165882304941 -20.6858368971156 -0.349023206754411
104.372719635294 12.9051014994718 -14.3658611348062
156.384975642112 11.9793152143204 -15.7845754923028
192.014635291439 -14.0878213761881 25.5732276085351
150.625908291488 21.436098682088 6.60570758159533
179.188791896561 12.1269804120352 30.0367096151284
177.158152145489 -7.36950229008739 21.6646397609618
110.466040362099 13.468192074087 -14.0722422532336
-49.2402446649406 5.98641470151156 -11.5102851654827
118.326188090786 15.6225781317067 -11.9001830287557
154.773975002604 4.83192552484524 7.87267566208496
-124.665646822738 -21.0380800085442 3.77852591441044
-181.418217567972 -9.21494717194291 -11.0055407359473
-106.316751059423 -0.55226922623923 -12.0152866898198
-108.768506396687 4.53995284095534 5.54985858840721
182.24058294154 -13.2710334638591 29.2306692900245
-107.376205273154 -19.1321717151911 -3.52716306635958
-29.4338070085678 3.39025368184706 -0.214144934584232
-39.0646212079425 -17.385363601372 -3.08777372396512
1.15143954790502 6.44530677037229 -13.8420469659068
24.1941155999912 -8.18714969752888 2.06496431781989
174.899143450852 -3.17365851885617 -20.263059738932
181.441743718571 -18.854568452436 31.8785800286501
172.311915741103 -1.24316627189262 17.8973881092184
-65.1770941771001 -4.78389244055814 6.95997617093689
-31.5076899867134 -19.0374838965702 -7.66198411658826
-157.457174388115 -21.5971326730524 13.7935233095276
-47.1897971031087 -17.587830187822 -13.063973786086
-58.8499345911121 -18.8531103340312 -2.23063112806804
134.432777401581 9.96168228132442 -16.1633118816537
-186.010585925714 3.24373543762553 11.6846265103882
-30.4725701553404 -0.866516695373513 -19.5067088646016
70.2849724541506 7.31068654252544 -17.7182548852647
16.0742157379862 4.0867133872801 -17.5615156869909
-100.089525699325 -5.2504811189047 -15.0771617221986
43.3624278126893 8.76476429625633 -6.37433861170083
-225.536608494429 26.007695798295 -6.84934470633839
-198.314325641108 -18.9644912213636 23.2873990343693
194.856193228627 9.37042493543681 -7.37483139006976
128.549990579473 17.5350080460287 0.192672253750772
-42.7498226962084 -1.73319667077478 -19.3680738968017
-164.70004899489 -1.31124635962167 21.8853904325328
188.970308200323 -3.75840512544427 12.6541315395601
52.7169256796385 -14.0749407460331 -13.1934640183874
-153.559022443723 6.12373912017034 -7.9022130861112
128.319920424138 -6.71823865610897 7.07383988660779
80.9873579875581 4.34691901421458 1.53182253421249
-89.6377153253492 6.5347472751408 -5.86632641588025
91.1327931468637 -4.39213834685589 5.55938082732959
-151.172109550206 -14.8022067956538 20.2773267062759
-152.989566083074 7.58109283329622 -4.48954142272137
-154.294082080275 9.04002264411109 1.57832823623879
-24.9308712227292 -12.6699744217863 -18.2512670265473
143.014103091984 2.3932316412131 -17.8377609402553
-163.840141568272 -23.7571640395532 1.91779283835567
91.2856540742177 -14.3403213168549 -0.0820158192828838
182.997630369298 -23.3057032540432 -9.17956027090082
143.980264173492 -13.9367809497974 -11.0426442308233
0.36454886517679 -9.99454015003059 0.726663442717263
53.8182721301591 -2.22484050024719 -20.3674820799091
167.233109846501 -22.7582359371155 27.7496574159494
-198.298273547198 -26.3865121010243 10.3127784358989
74.6894445910441 -5.81948292524577 5.82888800315828
179.046099130021 12.9503614987493 -19.7991240458598
179.239280091607 23.8142555055962 -13.4218013499077
130.923649225912 -8.47134731244501 7.54561693285239
-220.845293732663 10.1316871562823 -5.80389137473145
152.459551677305 -15.4168344655694 -9.83708281516035
-201.668582211781 -13.6819930575089 22.4787051731522
32.9100134281817 3.77322116868762 -18.378443442012
-192.410339150067 -22.187287696025 -6.15551758878721
64.1865738841772 -10.8248101646814 -17.0281978702895
153.91355890836 -17.1856279734164 -4.99705324744213
156.687636602424 18.8440432277131 12.4046432223277
3.86986568341245 -16.8543618614961 -6.38336413176474
160.993386989878 18.1770171639587 14.4864162456343
