152.242597492557 1.61018857568467 -19.7368608318207
-195.702758619692 -0.723037121365493 -16.4025127635063
91.7620042265757 14.7037693927309 -12.1253855788004
29.7618798868944 -8.18823668146431 5.44545902137833
76.2544220963377 -12.9388796347342 -16.7822181657832
-88.7635739341062 6.56794750323404 -4.0745308532063
203.796948607955 30.3567321442984 -5.6755009325068
162.49416075398 20.7581919127136 -9.6950010551923
217.777065641173 30.9703416172901 21.1806412457915
175.282256704796 33.3384020695288 8.5379660520946
-214.572608117877 -4.3049153992817 14.8496906559102
217.141727703525 13.4132185287057 24.6787888867146
-177.158936691952 6.02949418480827 17.2898263939251
-110.737284534428 -13.305550105401 -14.5635583951701
91.3222695598695 14.9088874514947 -2.1407215088489
-233.56953314191 36.3173694255915 -15.6625601555408
107.349272214559 -3.54839312063084 -20.5582087157266
-67.1621477257164 -17.8164511451361 -14.948590697763
169.319478746565 -30.4634816467354 13.3822761967516
-111.862272859329 4.05228680112469 5.76772240794594
29.8850873905132 4.7463302223226 -19.0661105232267
-78.4054504406092 -20.6654448606709 1.46756971582229
-196.700281733833 37.2096523801482 -19.2722901069927
181.693577998032 0.472613885366086 -21.1989424973225
168.030807720887 -31.0950592779451 -1.09870900240383
-212.415443197362 -4.22044195931759 -2.98759615440472
-107.152297514196 -8.08128463903121 13.0740120786091
-196.211244818327 -17.2236965601327 -15.4698600158355
151.645545936308 -1.9521837659992 11.3605660737421
194.833392791422 29.0147892216735 -9.79342527843599
-216.276547354809 -2.792063818964 20.3641691071967
-84.5092369878919 4.24799970832399 -12.582757691071
94.8272891602409 6.519900415277 4.52117542513282
-28.9555388218201 8.34525572691261 -9.70198264444475
220.456592681336 25.1586445706615 3.45077965913711
6.23214000861262 -5.99661513827246 -20.834863909397
-199.785687186579 12.1340554796504 11.0875235017414
-94.3634377068439 -0.472470856405709 7.17083984995334
-178.805022918519 -17.6723965397419 -11.2445229640442
-165.330406574062 4.66877082886344 24.0528359442172
179.59661411206 17.9084414515531 -17.3888419048282
-137.822862876013 7.39481395733654 1.60474939142137
121.552480429965 11.3040112884896 -17.1414085848644
-206.421920534015 45.0073859074919 16.5498379018416
44.217282530865 -12.545763811001 -17.1701001249103
-9.83886870282512 0.250857636946966 3.39095830457418
-207.150016960208 -6.85311580054162 23.86478774468
192.849868190521 29.4271121395788 -9.23481624594804
198.273200750176 -33.3979000922005 -13.919662364347
-151.871916838174 14.9111391532307 10.3837446392121
-117.612102635922 -14.6018387998525 16.7060467818643
-86.0995153795855 -18.4407249007198 -13.5831798109947
-10.0992488081187 -8.44596895596453 6.02532034086133
177.63502319291 0.54232530799206 17.8448774137854
131.44107335243 15.828026958817 2.75354774706192
204.23753618251 -27.6474008232548 -22.3209003222967
-160.738899216216 -9.77169597692554 22.2610833820431
63.3521322642209 14.3735641550183 -7.45942769989855
40.4546437621611 -16.9811385139405 -10.9592571172801
-206.700503586292 22.5699647482846 -20.514592669316
213.116010983506 30.625658127744 1.40602665503223
181.780713045768 12.2084073884537 24.5572144769273
-173.679764403406 -0.759024742382291 24.6527461934967
170.594676754703 21.4034383445743 15.0420616499333
214.640130660132 5.2709330070734 8.44879099605182
-169.17556541488 -26.8521299548346 -6.44286876414473
145.342811981192 11.8393966082353 8.55455832302523
-235.078507948892 42.1936749089057 3.21246948652328
186.56404762995 38.6994015318723 24.3060903747676
119.689124274942 8.51741878825493 6.11324972800349
61.0023543437932 -2.7736118748749 -20.3935507184548
200.612306577493 8.99003721276482 24.620332241048
-179.009353174618 13.2288684620691 -10.2287101311387
169.104901843579 24.7612127734351 -6.51884689835651
185.589731556358 -24.1985413971366 -29.3723294046121
124.287076360851 -6.52227219332275 9.11536256546063
41.6430540192073 -1.61958652394575 5.80161353619722
-181.725532600849 -1.03352657327689 19.0881851081101
23.7893961130407 1.74683182302276 3.56486954554957
-174.0433500784 -10.2843608949325 -11.7201441141754
-141.380831983614 -23.9481488067568 10.6264366894948
-56.354138733192 -15.7110362006731 3.57471364246817
-213.524087857232 -26.6026984434836 12.2468393690785
208.719745829212 34.0833238562727 27.4634625813976
113.970540155915 -4.04959158219515 8.34497142331753
-95.6963085133704 3.43631360330793 3.31194942396275
130.39793455385 13.4697092254049 4.60770351172241
190.027590673682 12.0338863422982 29.7320861832124
-126.638612279519 1.79829944436443 -11.5655404525833
209.04607601923 -9.75581219044533 -3.89465315150771
-155.877275429611 -26.6125159405978 6.60515192790446
-175.230370471605 -25.3367445750411 21.7047969050541
-30.2545262641285 -8.47120717560926 6.91000978060002
-76.5722571306311 -8.65012319071385 -19.0143901905178
18.9562846728596 -0.153423693781684 -21.1199192602511
81.3952503369877 14.2180005169993 -12.3627041490585
-109.618251616081 -19.5556609618409 11.1618055493064
-145.910860422631 10.9325126729329 17.633731623751
-150.182157403396 -26.1964543988227 1.64715600943582
-186.179814505335 -16.2082622339101 -13.0422896272376
-42.5473149208367 4.0153449742917 -0.701235541951502
-199.218919462226 -17.946767933169 26.0508749319605
187.399975304686 -38.64741597253 22.2008469666224
-21.3531912659313 -14.5554623627788 1.28226400199648
105.858989968943 -3.0697981289057 7.6340522441991
-95.7149246103566 6.62655151995063 -6.02402378277804
153.77762503301 -2.62125329134355 -20.545778500531
11.0810814654967 10.8100780261993 -8.14041016267018
165.812351565179 -32.2031483361043 8.20690962227649
62.1627688246682 9.90694198616083 -1.15395374883366
-58.7479309639713 -12.4872832304862 6.77420815607577
103.52572753459 -10.2723202175846 -18.6883381085115
-80.4916250555251 -19.9483999925723 3.65875710571685
55.4687477114721 -14.6608903350623 1.10441918199808
-223.491317868885 -17.6856008866522 6.9199035029493
-220.914229829276 56.0824037431206 6.17346606281036
188.613221075436 17.8783826444928 39.1923732627199
192.103287622911 24.6107810738765 41.6290738175578
109.997498952333 4.22370578969583 6.85206394545129
-48.0381600053119 -13.7674980134758 4.1167777644261
-171.932395816376 -9.92270288530541 -11.5717899965251
172.144102948601 20.6938426475044 16.1477838723507
-117.080463925652 5.04492980056878 4.77664652465705
-181.79330798495 17.4186454897998 9.32555630555364
-202.599700815459 39.6650029624866 16.3112093709855
-22.338900007266 6.69374469858723 -16.5667579507571
198.848574533438 21.7568642561449 41.9565904856095
172.81172510929 0.155426970472623 -19.4802488266821
204.846481833864 -34.3845776908997 -7.63875030961913
153.535880481116 4.68610192091882 -19.0105958053764
-210.445587095528 57.6261211783506 -1.83739681235746
157.080409261801 19.6781256039041 9.31296069307488
-157.384540701217 -1.1640337265292 22.1780494010915
108.601188157219 12.9439914386451 -15.2693578218778
-74.9713386490022 -21.7435219319796 -2.76510288591786
192.670752760322 -20.1943477452173 30.6403087551717
116.506901457323 -10.9316608580562 -19.0458298983344
179.299569593608 7.9762710614791 -19.7554867287095
-172.422691536209 18.0064239199579 7.85927663199089
-170.036065217665 15.4432913757938 -4.55540637235213
-108.638815185122 -14.0557258444728 -14.5613070514549
-186.922697016306 -38.5373518873289 6.03911174304799
124.014313589773 15.6725578347864 1.73110690951838
-151.168852817754 6.87971606681392 -7.2160547586
-234.041747742056 28.8371110901965 4.42216853462456
210.847166120286 -0.291879720898422 3.06799016939841
-201.078667123624 -34.6910357604722 5.98779348246233
177.502370544881 7.79652301420228 -19.4393061314338
113.960341816619 -17.1993900698675 4.07009793611089
-120.717926878016 -4.32344407940584 13.6344373318185
149.676671964443 -24.4711603495238 4.37007587244916
-180.476888809249 0.880492602743578 17.6022372817558
212.385197355586 29.3925738000714 34.4928865518044
159.348410272368 5.93316155061957 -18.5828317025256
176.604839163562 7.29877298162019 16.9597204652065
-186.337211638702 -36.3021860244652 -7.46584668104983
-171.226279095066 -0.0269682448484015 -12.0732644824902
-123.868492887865 -3.91212445986958 -13.7097669171245
145.619184180009 15.0867511598717 -14.4922220581797
-168.727017795927 -11.3833169541604 -11.545313549469
154.450374458075 -6.65465174785304 -21.4519497428216
-123.137289787929 -10.6370246304306 18.9522604728745
-146.282820432705 -25.0849217393638 8.6697317147683
-122.547513537517 -3.05714727851912 13.4141298602118
-95.4897324222197 4.4022767078294 1.83263278677301
102.30833536309 1.80662519302437 -20.3258162814834
101.374519681176 -9.59994109546431 -18.893298605543
-217.27950822958 -7.38645872876207 8.73277894465294
-39.7978134448421 6.48119213498007 -4.05516193439758
214.097533721002 32.3768425960388 27.4333906590749
-143.059756801836 -10.3428886129091 -12.0837815070977
-170.654812724494 13.1958152916599 -7.87335344369653
210.434726726841 -33.2623119955439 -2.63236737558976
62.3515952108711 1.59671502852301 4.86687501446585
-185.369571050397 -36.3088854768884 10.1825010464239
117.399572054762 12.5158767262094 -16.1025013235182
116.495318993339 15.7568169423474 0.720278920456836
176.610065545833 5.41176825720043 16.7084700266379
-33.2763902994752 -10.3705857347177 4.93695908519983
165.625656904984 23.1039170496965 11.0137824515475
76.4770802946543 -16.0108996659269 1.60930778587058
-32.0461652950101 6.99516107696137 -15.1491734904086
-62.700493838333 0.30752059036032 3.83401118767273
91.3155743466132 7.9780405632269 3.26031765764868
204.639002903374 35.5075425998496 21.7929557589373
-50.2744554937924 -6.29823243912413 8.94581656436321
-126.491964719133 -12.3140993676069 -13.2265817390154
-62.6204144391847 -17.7797567367934 2.46253738502672
158.132352863048 -22.5395764705242 12.8931893419595
83.7579408943548 -10.8088358441909 -18.0879871144144
-160.941120385161 13.6378790339481 2.8281062551203
141.571369875691 11.6602715849024 7.90481554295714
199.141555441248 37.6944954380721 3.75901041874945
201.220585360205 38.2483564299764 6.06892443408994
39.2887355726853 -14.3051447937862 0.686620521103019
-153.429860391053 3.06562691306637 -10.6582885245738
-34.6491421293797 -19.8418522871049 -11.6719022154003
149.890068886257 20.6168342584208 -6.03569108900834
159.757813823746 -17.0335293729356 13.9999933861193
185.320448754337 23.4610210674294 -15.2600598542407
215.53628672243 5.9460902838249 6.59851059465642
-209.091120334129 -5.5402033312516 -11.682262431053
-171.973521671271 16.8952172378218 9.62376368489819
-157.001533472703 -6.71709540719871 -11.2569523210933
56.196821069805 -17.5157883463838 -7.22959489314065
-201.426432882988 -3.61548314241023 -16.2686944458084
6.67957745554634 -17.6590025839145 -12.9822484972399
-193.976448161268 -2.87645459452875 18.7202717876759
168.167882799616 -21.6292787667701 -22.7587111569975
-202.761038681047 -2.04023685937385 7.17237427251609
-223.146875353116 26.6285471554911 14.7548205437495
121.116790883555 -10.0307514049225 8.53940686141746
191.517708734703 -21.2806266399186 31.5044800858076
112.804138803705 2.07727445565215 7.7323554260074
198.515540715835 -38.4145313203796 -3.3125967362528
-210.815827622482 57.6876776474232 -3.67119304179794
15.0980985900405 1.73321923241084 2.98539879653864
53.6217228225706 9.90430054497582 -2.020635675011
-42.4057981632456 -13.8771044365336 -18.2287460197415
154.668201472545 -4.26200126540532 11.7082790073743
-200.441818225356 -6.78997672752546 24.6804234326637
-235.156248383631 27.0911748217312 -5.28427628664021
170.932315138735 6.46615720301176 15.3153272550435
218.147592935661 10.4123779385408 13.3793589357131
-52.9118104303662 0.318673155570527 3.49320085980386
173.172532583209 -5.25222834305859 -21.2877399880331
-53.0319919062615 -5.30637363997835 8.40651124008881
-147.682016631321 -14.1281398279965 21.1190206941921
-197.146575345715 -7.42609225604142 -20.0337761262518
-230.272986930377 24.2284082626442 6.52064679985603
-78.921026563718 -2.15743777632487 7.28311995603719
174.065124289616 -16.2211982123465 -26.243652626425
-45.897661320578 -1.63403612590946 6.45545557444686
133.830528403216 11.4023963409533 -17.1385351459018
184.523730960497 -15.0038482292893 26.4569111406299
111.55203565838 16.365096300848 -10.750480821059
107.067608138626 5.35281578908352 6.10555378782754
189.482342766453 8.42053242854604 23.0567755977693
-187.079623490443 -3.65796588755338 23.3288307051535
207.009422670347 35.9538838310591 7.36436034257763
-38.142179555533 -1.94892628691323 7.0858651528079
211.689559334945 32.8773678394136 31.4789926047716
124.766286149726 -16.5331844828964 5.96147596125263
-97.6475878591194 -9.31905845199301 12.6360408851024
82.0682442116158 6.42220544033899 3.85052671127739
123.424350104844 -13.7117883036662 -18.7417655897424
-56.3686718567889 -9.49972514162699 -20.1037476942206
20.3515688619564 4.52559411070407 0.294672145846817
64.5713823670582 -10.4676139944373 -18.0040953308716
-30.1321365398699 7.96286309364385 -12.7222201557754
212.230260161403 -19.3639164007338 0.235601543022469
-201.685856647845 -18.890921352044 25.4898205211831
-103.430136913584 -2.40298157456386 -15.3653604152866
203.52580139923 9.14158323866499 25.6987964264261
38.2147086950121 4.66452563432775 0.977699644851871
-117.389910927461 -7.06135281657313 -14.9927058124873
-193.459771978324 -36.4279018283523 7.2639261328137
-182.800551281306 24.4804024901599 -1.93629948609313
22.0214307864227 -13.7490654676842 -16.9598387678468
-81.0094783268107 -14.4961912115959 -16.8665220747986
-229.817045363888 36.4286512594651 -20.5488378054602
118.461454131365 -4.94323662692754 -20.4909376483746
57.1948658753325 12.7960243674086 -12.33201632243
172.657417876513 9.13737577168308 15.6816455344808
60.4782535742657 11.0687505566391 -2.32131901407793
125.432067473281 -18.9813757329864 3.8723715637063
-15.8706876165875 -12.122918607965 -19.0665457524718
85.60306410024 9.96260504532146 -16.9266688590399
189.227445843555 -32.2450345832584 -16.8224330242252
194.721862156534 -38.7599975881417 -4.01144845722526
36.7808987626129 2.39189491444766 3.55835767605605
-213.187947091168 4.50042076789355 -0.350676181839718
43.7483586443488 2.81999312151422 -20.3071402501797
170.658033160495 28.9931660986487 8.46280334653938
-157.183935797004 -26.9507314429771 1.16502094809851
-70.8569847939314 2.04956065370666 2.41019881459735
54.5830298942712 13.6978468097968 -8.06895842887187
180.171887361236 -31.7154853321565 -15.3684415430846
96.4341734899194 -0.433056361833752 -20.5154297882522
-109.444060641843 -20.8299463972102 -8.44565221926476
49.2501141760927 -14.1454536241641 1.3030416383474
1.3380171262916 -18.4511975419097 -7.36533707207102
182.200813031497 3.39602086680305 -20.5996508823459
-181.890011243581 6.02794268211981 -12.4987121019829
136.192695931185 -19.9411244368654 -14.0126744345037
49.9743486665503 -16.7013343626081 -11.6965040061347
-95.465495217682 -1.59827266716515 -15.896639292779
-30.5537947689286 -7.74236111732807 -20.9786634117121
4.47695570791629 -4.32623132409528 -21.1859730271722
134.423279982374 -21.8797637104784 -7.75896491359889
-156.728917899852 -3.42594017677345 21.652493045105
-236.910806357456 36.12869035483 -5.33177345608101
206.901073390532 25.046409340429 -11.2155644200854
99.8698291814354 10.3055560878747 -17.1468119489151
-234.599449146877 27.0035900684682 0.977471355553022
-223.769024688487 29.8263892384489 -23.7055910598432
-45.8244415701686 5.54601632051909 -15.8990658932617
-221.01397831789 54.2918934890507 9.22989343506059
-203.057103387696 21.7769208977219 -18.7661625161351
-127.201089314756 6.24242379934362 3.69330431908602
-61.1021190594413 -14.668781340121 5.44212996209731
-141.300197185438 -17.1119622289474 22.0146826311519
107.782049093563 13.5325558507886 1.78927915072289
-197.332857142814 19.6107084887999 -16.6239280283165
211.118904571524 5.65146232796591 13.0218832605074
-179.420981450192 -10.5993974874646 27.6414024826056
54.8043411410694 10.890409099163 -2.75084965276144
212.258932822474 -24.4421705216825 -8.69146208779018
-168.353802399788 -23.2705220297195 -8.86190220741485
60.5380381291894 13.6723790987624 -5.72511124242732
-222.116321156577 37.4158548407704 17.8070135972464
178.606502740898 -36.4023229304968 22.0169863078573
49.9889721124948 -7.02607934357498 6.27602576512403
143.540349477482 -22.5704455709228 4.64240250728155
216.075823512207 13.8397453243533 27.4171187058044
66.7134754380045 8.97690372123038 -17.2119913628764
-116.514998796487 -11.496998795225 17.5379088191004
-215.490875346624 -16.5320406290755 23.5408868133839
82.7864500482217 1.26681237242088 5.74886975549349
-74.2453600209132 -3.1873492428902 7.82925110444311
-144.80017607752 -6.73683018838222 19.0992973161175
-36.7737133054798 -15.0606469014917 1.96358160534812
200.430177310644 3.51121823863576 -19.162869201529
-11.7312159220085 8.71260724706702 -6.48004318953576
-100.406208670205 2.07514106743267 5.57319690941529
126.545146539113 2.09431949539642 8.71563095371633
11.8135910754035 -6.24109557620508 5.90691634764657
-53.1582250031965 -10.5234007735383 7.66563472652317
168.932296421814 -14.244277783013 -24.700392968916
-151.937599802009 -14.5363682956496 -11.003058199877
179.861057220692 30.6087439142893 -5.05621959717675
194.567189171952 0.28852400110649 15.6983585583271
203.417954137145 33.1377247304021 -1.83707945896986
-172.385859783573 4.25568998821322 -12.0803033640792
147.762518329056 -21.4855021691361 8.66115636624672
80.1826129503723 6.22788210630827 3.90000198374534
197.231223865168 26.7138730128586 -11.735401950911
-178.792280548759 -33.1837783988119 6.81870962627349
-228.511174195331 28.7219339905867 12.1202640006752
193.838398004682 -42.7874908459856 26.0577191771932
135.028370399923 13.9756077470881 -15.2394788736149
38.7391486441079 8.48200149547105 -16.7912903108802
137.686750284934 -22.5822630670564 -1.8257295091487
-105.540371374572 -14.3801093527912 13.9475404353541
-166.177225039748 -19.4910575551648 -10.0100021208511
-81.1925912107494 0.530021038170466 -16.1936459252906
-160.294907261757 7.02551692149863 24.1044769862758
40.7936543924286 3.27937402668424 2.32267041333626
-209.543400363942 58.1625389548018 3.23965326551433
-87.5707309129405 -6.82805213764066 10.5415852497164
192.486012693784 32.6083017770412 40.1582588973377
201.04060228431 9.87314292482301 35.7365486930138
-126.861852075856 -20.7728848617705 -8.23318553514201
-177.231700398129 -17.9910881652388 -10.9846013169494
64.4161670285492 2.46844139534997 4.54214024505094
173.123223232658 -18.2524362165935 19.9757356816858
-152.46914006278 -12.8870152592324 21.3824364122573
-101.105636569028 -6.28475032786405 -16.5560422717397
218.317695112504 25.187132579632 26.4400362639426
66.0854837416007 7.53624955210836 -18.1268487581131
204.049717702624 -10.6675281759898 16.6082714925637
185.551335075601 -14.0752361653165 24.6536553570974
192.134994526063 -43.2298655164747 7.3103841556122
-195.127243395669 -23.145379310002 -14.2141275044311
126.199661536511 6.01813167409012 -19.2383947344305
109.668915175131 -7.24876542799914 -19.8393635697963
194.141139945586 9.77574023605431 25.9177802952356
10.6352139516558 5.61261524525047 -0.907239273119058
-68.7844587655523 -5.35396276415145 7.95622435271881
123.193863578019 -20.8310375870708 -1.13372633511853
203.962583111287 5.90138189225582 16.0120203971233
-0.387506733592953 -5.08260992562795 -21.1660070875967
117.605742407506 -0.520392286142417 8.38806712838074
202.892258449583 -32.3053898601471 -16.7974335109586
106.14660541374 -10.0937600070706 -18.8836159979126
-110.709930874808 5.0709272483381 3.50521017021873
99.406467109735 6.42320273260765 4.93146279494964
-223.111259995534 29.253521921528 15.8860943535651
-197.754089613929 33.40181352225 -19.9895065677831
-134.143073735497 5.78373891721036 7.36852320629562
-136.958161210528 -21.8068381686178 14.7271159020641
-28.2182262675266 -18.4641318392749 -2.53071387110583
-124.333636962859 -12.8443020179501 19.3633999146863
125.054240788927 4.33570070136776 -19.5862506061501
198.074655358488 7.97107999630289 20.5589168560369
-196.362105798252 26.7644912098579 7.6705241367805
-106.598545009165 -21.365279271094 8.69483764646212
170.472642267447 -18.2982486593853 18.0985046128915
-156.522554407668 -7.5414653359821 21.708692771523
-106.968221771536 -20.347217115662 -9.42843189152521
35.3603451805257 -4.29605971741383 -20.523973797526
-115.98651836233 -8.9952040867518 -14.9515628802754
108.884768165529 -13.1670801774979 6.21463954775868
130.206133181352 8.53760969287338 7.5374996140675
-87.0890556709122 -15.5363814844463 10.1094855705509
-205.153949513513 51.76610467451 -19.3472214881467
-92.7427617436318 -8.09208783094577 11.3108862083485
208.308947180139 -4.88654394130503 0.0417805771388437
186.996381191651 -41.3511252833814 1.27814899416942
22.1572573744888 -15.5589059580793 -1.48093713756308
56.4548917665578 -4.88510408131437 6.17557359195856
103.475696966834 2.95534268079221 6.67589942744648
153.763864359295 -10.828603278423 -22.2531636109
79.370384079807 -7.09017387009071 -19.2479936784465
128.140921837523 -1.66630851481644 9.41493367425805
-112.522503986393 1.41271763464324 -12.5033409064982
100.161404877355 3.64470532932968 -20.0003413269598
-220.327080199224 -16.2829936907094 0.902770316026161
-194.201318488541 15.2093077663333 -15.6595747192658
-163.419521077385 16.7580991553899 8.94047332281238
-189.86093823181 4.77940198793281 13.5848313886952
115.351341475984 2.2227508006232 -20.135689744755
-133.946610531301 -22.7816699749532 11.5151618080263
196.505868355543 8.69779450544263 23.0543674868389
201.272045921101 1.20644982562562 12.132903003857
192.539991683782 -27.800662051565 -26.5621748631458
26.7694925152447 11.8061779146677 -10.5763124523536
-169.611160246558 17.4862047747066 3.21797088432829
105.761732479184 -16.8409500123766 -14.9299674623963
-137.819276862039 6.64427797968023 9.2525654182312
183.961769803903 5.15834757022538 20.9201765039471
178.613849455053 16.3391580036948 -18.0261192642112
-116.592554603568 -1.61027855528883 11.2110064560339
-171.569310781067 -1.13604418315056 24.3726988955772
158.430950644617 9.75522250184138 -17.62982175754
13.6715860219026 -4.13372748758152 6.54604902396441
59.0630754747928 -3.34261048877975 5.78927393668326
38.0301001366153 -8.3399249188895 5.13664792522737
89.1061233656402 -0.125314491047316 -20.5130318640467
-91.277824026405 6.71666802172212 -4.39744810176091
111.255257522211 12.5892693316316 2.87050438655158
-194.745255146667 48.0999589321167 2.46283268977604
-232.068975138248 33.3064539463275 9.80394341266237
-138.626858313458 -23.63707944837 10.7535706056847
164.866279834725 -10.2330236611621 -23.182831221088
213.918122181796 25.4917022972067 -7.99915592208152
150.850714641046 -14.4486380319686 -21.704084920566
-25.9127693178687 -11.4900608171027 3.71538720275535
-86.2830745778132 -9.72706883410834 -18.1251036080792
-216.668468675731 -15.2071462928158 -8.81376150358313
8.41688702509289 -6.61279598072537 -20.6213857437873
-32.4679091030777 -11.2531286049655 -19.4954118235997
34.0688799758798 2.81369201237832 3.14317810374384
-71.4346252486749 -0.507719048150566 -17.8688329629468
-15.4898912122812 -18.6618358062353 -4.93228249133458
104.321616389873 -19.5500239374686 -1.25909989768022
-72.4371427131331 4.59365129091021 -0.952115954460275
-158.511383120875 6.89383571692435 -8.74906259819045
158.819680844358 -1.9706555522098 12.103428951697
-41.1649521094231 -18.6975399319678 -1.08977139710793
-148.009097089203 -1.62390300947844 -11.5427588496384
198.321659563622 23.3943746585317 -14.8054058107344
-119.378662228195 -18.8257346899785 -10.5926708909025
48.423514029084 -7.91113420725378 -19.3438885586588
164.633929800892 4.46632384628369 12.9569292812785
209.302012596036 35.0682238912858 11.9695114738379
116.408523839899 14.4483877384262 -14.1557000581821
-152.38263271272 -25.9389799622525 -1.50511789447524
183.732630883464 11.3282163118594 25.5589200627625
-145.638994340786 -17.1874569350296 -10.5457818036646
83.1808710756126 -15.9829473450571 -14.3481762999496
-222.11288817237 19.6260856137675 3.21666056925314
210.753602297979 8.38711480469114 18.4947221539992
-52.4374196877258 -7.61685208610716 9.24906508428541
36.1521300087974 8.23047112735093 -1.80109246159424
-205.216786997567 -33.218398810903 4.20628781729287
23.2875413888871 -4.84045401096149 6.53145573591054
211.628665126647 0.83441240613434 5.7414270613893
160.76444949896 -21.7265051957891 14.0876240496613
27.979566338287 -15.456161462821 -1.09872542742939
-209.804531425377 13.4202888115524 -15.9747071933835
-174.636660570586 -16.9100845163945 -11.0388956462393
56.6560526854685 6.48117806251865 0.94288643011009
-162.370453938396 -27.9270794787538 3.69249030707708
210.174306926454 -20.0774960245598 12.3565701148369
45.8822539490795 12.8766388845261 -10.5767420344577
91.2709736549217 7.73040372921407 -18.4277107716767
-156.951314373876 -26.196178879749 9.84342977094017
22.5283583612543 -7.82713177946879 -19.8645771870102
-145.016501025082 8.02246310317065 4.09098385176275
-110.371004243676 -6.70901539747081 -15.7672062464714
191.177462761801 -40.3862565296503 18.691442344583
-210.344844363076 -23.9966843086026 -12.337210844524
-106.981991626898 6.46002158032348 -5.32794198971901
-165.340897942308 1.23661967628551 -11.2644390184029
-156.970515353188 -12.6400130495521 22.0945558423382
83.6880493437175 14.4361684348401 -2.76698500688149
169.978479309062 -13.1744151999159 15.6670259718194
-168.296610286568 -6.60150629378129 -11.2620610937265
65.6095520326438 -2.9557490876573 -20.3435199471239
172.434168516471 -29.4845990354348 20.4305360680528
-107.286544741651 3.54463127283582 -11.0449153405846
-167.7405248161 -28.813240477115 7.74107254417989
97.1586255422671 2.47062055075762 6.4327602227885
120.054189563367 14.8292570586798 2.10636391447777
-149.042154146828 -25.7280053612297 7.29297501658886
63.6675844017817 14.1103535191016 -10.2941435057709
194.465548112497 -11.7938001251311 -24.7532363060389
78.0806623943839 7.36956067526059 2.67509895271589
170.160172620499 -29.4212564121056 -11.3250230219692
173.213031275698 16.0444805166878 -16.9353259311012
-196.144842190094 21.1585756032447 9.55318143875453
193.951373710578 25.1557631856824 41.9529877577901
209.394521739061 34.530371825664 7.25481026106488
210.100810650359 -12.7728414332169 3.58000317219005
45.3754301024275 -3.53225712460896 6.09043857238825
-106.369647359684 5.56983232680364 -7.93615196457879
16.815752257613 0.473470547823795 5.14663446526007
196.580910589311 29.7157675693023 -8.65652137737928
54.7884369215512 13.5457118368934 -10.2036770462577
-65.4719933622513 7.3751397566052 -9.280723588584
128.523908958473 0.666360420168206 9.17037898706634
213.341084600621 4.14905854065509 -3.63353735159783
-2.95785953939912 -10.1128442214688 3.84830730348903
195.307758239191 35.1618838425078 28.8826529655979
-232.447817444935 49.948279843724 -0.306911730973981
197.418500812693 1.5690707159253 14.4763007918067
157.168795403915 -26.8259228077772 5.95270037741862
190.523313818089 -39.6862242548272 -2.34205455294929
205.1984256319 30.6022161863531 39.4573743982091
-215.480890173754 -8.60845791891681 7.38074219484898
128.944167376313 2.36868267437495 8.77864885453999
136.380873387489 10.2249705855109 -17.6523360990572
-206.34891670776 0.949633664053305 5.48359926067493
-50.4593726871593 -14.5525860528469 -17.5517917680139
114.237420958667 -20.6695199937787 -4.41813080678183
111.784015474398 10.2183974587566 -17.5632385403656
-174.133905755112 -23.1621753484006 22.3032566775065
206.04128295914 34.123365473152 32.606004733048
210.174826805878 1.46509842846472 -6.54933596107903
166.091468109575 -24.9276737168573 15.3929852910214
207.945993561179 -8.68943215540289 9.20478266914792
108.75486232014 9.35251898311975 4.01135001530267
125.348566544509 11.9755877296202 -16.7745006232044
171.677901042012 24.9991504711383 14.6580361918846
-116.415025168099 2.4072760076503 7.75346536552244
109.176337004214 -15.1677353448577 -16.6784651208115
-170.468403302356 -15.2860889416868 -11.2044956953751
-137.472776825631 0.321951172830702 16.3558545346658
72.9606316922176 5.24045790496535 4.03241372403851
162.63032224256 21.7262118096063 10.6255501850243
-193.374567579303 -24.0706692156027 23.2201446924167
217.810400040864 13.5622697689603 -4.19155886429763
201.704190875217 -3.59027744440364 -15.4856589184399
50.3238595751492 -15.9140225110719 -1.01472446008392
-89.4911210589166 -6.86307055457838 10.565912473087
131.295113168018 -8.40525689590574 -20.7677610723839
34.9596823645696 5.31888893174692 -18.904795042134
185.327249702026 30.7796216695248 -7.46386138377928
86.4974340252829 -3.81913730178513 -20.1452112512725
-212.541932971566 -7.54588616640835 -2.32646254926232
172.573415908655 0.676213401628386 14.1210748423729
64.9515808773819 11.9497644824757 -14.2730263886244
-198.043862418662 -23.0582350487192 -14.492271744385
-204.967419892548 -25.6621678747258 -12.3321067107842
-164.475766951756 -3.61017625644676 23.4710093333275
209.533150843692 34.0962341329416 19.0552530106086
-167.678102959716 -20.6256124107839 21.8485692203369
118.780265361858 -20.6255259555427 -8.26096678122133
-223.191154012436 55.0527748850712 6.58285666970124
142.460561723287 19.0971372847692 -7.75068209034214
87.9348816618527 16.1032810599302 -5.43512400354335
54.4557724075383 4.56755423134745 -19.4859338696655
-186.552319994254 -17.2196652527386 26.9393065964207
-177.158323424713 11.551198859445 13.9916125596691
211.333693609702 -39.8220038451457 11.1959747891339
192.34794101146 39.5877907799099 19.4206723801629
-179.754456902544 22.4614389111966 -0.727823831290886
-57.9663356811478 1.95338569231214 -17.5717664814754
-93.6641571701076 -2.42541625637291 8.42794934911964
202.773977370658 -37.2863110897089 28.1208171857185
-209.096162713834 -18.381007488899 25.9135311371872
-120.541452980531 -17.4957328772519 15.7697127586817
206.431080647811 -24.8468883422541 -21.0560144812751
-79.8997856837267 -6.80968672478621 9.49105743545583
-127.215769214958 -6.17012915164585 -13.7904306341847
-205.374667372318 34.1641297439032 -25.5290970552938
67.9493258678841 5.91355916838349 -18.9912485908491
-218.598207626799 12.65328901882 -0.627274811056654
-139.012250590437 5.33414808895247 14.9580012050511
196.143752455065 -42.9078287021676 9.32152967102825
-171.238060275227 -17.8682381527153 23.2734560606803
-208.887920003719 0.435136537170752 -11.4850971300056
-211.504475151721 8.61436999845517 -13.5912163993052
-38.2550934692417 -15.3864793802863 -17.2691333811738
-30.0215064994195 3.00250411082119 0.359112776231389
163.924481259242 -27.0363743287485 -10.0191967632281
186.599865500054 -26.1482532183834 -26.6827847891201
-37.9442137789535 -18.423125364759 -1.21523344004175
-97.2987863895862 -8.51175586591229 -16.9477375410679
-58.3705606052759 -15.8762849753965 3.76679653247992
115.839581700568 -18.7746742360543 2.46252858882409
208.496647509398 -22.6518072642888 21.1807772522208
134.163333440694 -3.63624030397142 9.91280454543917
-193.442436094716 38.0495613427317 -9.92508060275605
-199.26006647245 33.6166605431242 10.0346966252465
-71.08493183945 -19.062553229427 2.5813114322022
150.849961750113 4.66836130322039 10.4645738297808
-27.8312505821054 1.40672177087535 1.79277366989758
186.890917260162 -22.3715346083667 32.104438107266
194.076273119445 -18.7698830247746 29.4540102206289
184.04088776358 29.6229313967056 35.1937772783927
-207.673831205158 44.5749459908795 -24.8120197272556
4.79911833036071 -16.4852491940557 -2.70959966455581
178.64709019557 -40.1337505162468 12.8548894143848
-0.296941363590291 -9.15281162589094 4.48726179279785
111.957980109325 1.05195534172203 7.74416925445581
-70.0885642783268 2.28342302452363 -15.9643422901509
-236.344558147065 40.7625229186442 -0.795640697264109
-107.049578839576 -15.9706190546334 13.5419015939019
109.511291423266 12.0533196615609 -16.1377271775622
18.5846245933483 -16.8072580536579 -3.91479760757214
-164.076952775223 9.48346187328507 -8.88046253403614
205.431096368076 34.6442891633458 24.5858761210697
165.043921165468 -1.74036855876179 13.3072194999059
150.676908993572 -4.61129455218696 -21.1245544013002
42.7794592324248 -3.72926857773416 6.12388778441663
175.655276578705 8.69819013406961 -19.117620207753
-201.459933640014 -36.0221500681728 1.22506392883593
-13.6704451012296 9.0777035121596 -11.9773459372922
-161.273117829613 -2.10370895815767 -11.2781985838023
105.375971221066 13.8639144126859 -14.1968053426136
149.953261932368 5.15347765394097 -18.9955069284051
-173.013276634749 -17.5587973446855 -10.9585131609684
-24.3694295753861 -9.93401320446193 -20.0894426388358
218.24692196478 20.3440039713473 -3.70134704889708
-208.304821075841 -32.115673924897 8.7378904605626
-105.697123882664 -18.7048682317039 -11.7025195022503
154.104803345666 -13.4143357753691 12.4991807661813
-28.41930610315 -8.30364803620808 7.19609082270357
-74.2984352983182 -6.51478965673324 8.96835191065495
148.09257295087 20.4676397992383 -5.8825378116813
-137.640555191558 -8.61851465188804 18.5173331858259
205.895626097767 26.1301285336711 -9.91597617358436
-5.3326908819637 -9.20011462641439 4.74192228662648
-21.6273894336759 -19.4145122001392 -6.49920815578092
73.2054737647822 13.0818766900604 -13.400842432505
-187.024731582748 11.4662419077721 -12.817540387261
65.3132325956325 -3.43341928518024 5.95128288459305
73.1264904325136 6.60731972711976 2.46797066832764
-214.843688080468 -13.7843762102736 27.197644151061
-47.0633331516512 -1.09896283876506 -19.9848117751565
-114.062380682212 -7.5865116949738 13.789504573332
-188.651168621354 -12.8747204043847 28.2893845144568
155.996581185277 22.5194180829636 -1.8877051356459
63.5776647289846 -6.14819798626639 -19.674215362725
-144.890830705251 -21.4542822091953 -7.99188114638788
194.2828337682 6.76511913324237 20.005095313584
22.212069743431 -6.57578537308284 6.52407632005763
-92.6481682128695 -10.3721577983681 -17.2833464317028
-162.373884747245 -27.5879755780824 -0.577837490693371
-188.902636919195 16.8790922973964 -12.2958757035952
196.862283607688 39.5124417531389 5.36889040141519
5.21351190528388 -14.7397600889662 -0.0144698109521101
-172.10586455556 -24.1025759807842 21.4965471291391
-198.662823195159 -7.19470033268443 -19.3808974656829
21.7801711345709 -17.8071470057077 -8.24474935710265
190.257327444348 8.68348699214603 -24.1570298867643
133.42880493964 -12.132476629155 -20.23394117022
-199.393362730643 -17.0148980907523 -17.0334865218141
165.729423992515 16.9841135664279 -14.9363435403044
-107.229645514025 2.63924178806398 6.53134517473597
34.590982125135 -7.05920211901377 -19.820211070841
19.5985731260975 -12.5863001988561 -17.7581711943672
-198.401283353175 -34.6061006113868 -4.93006037627719
-110.08428621729 6.5514797854092 -4.16491729421082
204.297196754851 -4.48963601453667 8.53597987447539
-177.213428991379 15.2409014244178 -8.49732580872194
-196.910166888218 -28.8187832131301 -9.93073099219514
153.684388694728 20.424576511205 6.49319068087307
-195.610165402394 47.1819682352287 5.84189001828737
210.782877125577 -26.7058571000236 19.0156524151169
-202.105110331868 -30.9514245585541 15.5481209435673
-35.5702715401894 0.00375242785603925 4.05551820434588
128.848060879343 12.2221499212008 -16.6886371832772
-231.171366416715 52.1528223847319 -4.18072633680563
-197.98477945114 31.6989978038518 8.3622611398216
20.7588652785668 9.94165405440457 -14.5571712085485
210.552465881217 29.3032035166058 36.4577552370756
125.64378361309 -21.3749147860158 -3.90337300068802
-136.12308679222 -4.87162686494189 17.0467881555617
138.386745168576 14.5378047907952 5.81063608817801
48.5131581082934 -6.15223609847734 -19.8918871616482
-218.74668983213 -20.0354550351648 -4.75657864701051
-201.18908914392 4.88316894882414 -16.8130507988801
-169.799586582183 -29.5380774107877 0.767146925346809
-230.379570838685 30.5953153316692 11.1235322828592
-187.45255723594 21.0835124179624 -10.3997363402073
63.444515339985 -12.4332863384198 3.28682862708865
134.136321887391 -3.51584222763119 -20.7859347969246
127.594094812964 10.6889824409605 5.86396798189261
133.330227130739 8.5675059806032 7.88831442457838
-198.00450662816 -5.20910097331829 -18.0265115611928
146.95900215489 14.1825182990635 -15.384654793333
-59.2594915286837 -17.3909482672143 2.32717071250825
188.15665713683 -39.4121927129448 20.3423755719573
-63.4909959753281 -6.87852711605848 9.08255918586385
-127.190010188013 -0.875177618207732 -12.6779141240306
-228.390765139548 25.8425174936153 10.5482241633764
138.096106010878 -13.7744274126917 -20.2492249303706
-211.967765490472 43.8428289571724 18.0273336228998
0.975045251643599 9.94320260348919 -12.9190175799244
-202.025532949579 -22.3147413993035 -13.8963971907966
166.620075203974 26.6106973767217 4.80826778782908
-224.547912632587 23.2174478473357 11.8953087222907
152.587238887481 11.8202945041123 -16.8631059310949
187.012172856689 -28.9471750611408 33.1938832107804
138.488547272601 5.08955041999169 -19.3074671162881
185.489988424388 -31.3986895049111 32.7581316632808
-106.12527063801 -22.8569244261958 -2.07473440601853
-190.056331223158 23.2330667142526 -11.0088004981201
190.383400733864 27.9571193101339 -10.9352748226295
151.947801279661 -23.9542479968247 -8.46518582996736
-136.695897350393 -7.39899942510298 17.730623994725
-153.195224847656 15.7042727516718 20.8889607481263
-13.0669461471326 -7.1932602018958 7.56189305080885
-192.364123703306 -35.3610592213633 9.6274042921146
168.610515749696 27.3649833266302 7.42190357836326
99.7748450613094 -3.87275983685311 -20.3268189810771
-32.112891843663 5.79916882411202 -16.7788728643936
-42.0578242968505 6.85108297174213 -14.1247185977864
-225.488277885187 44.2856242328564 14.20011936826
32.2872270513127 5.55688456032215 -18.6816892757914
-76.7962562856336 -5.33533355767075 -18.8217097059319
198.453206347279 25.1707959949278 -13.0429041434497
-138.731015928695 6.90980788561867 7.21323678132201
-104.636699990866 -9.14411636470295 -16.036912843232
-216.251495910477 19.6225979469798 10.918896305135
209.895335660831 -0.459163049897713 -4.83649247398957
-138.006984541512 2.72671112712659 15.8756488006683
-73.9422641437042 6.42692155023068 -10.30758181617
95.9359727268674 11.6863327239065 -16.0043791239156
-81.9928531281919 -7.82808951547571 10.0879492094564
205.742503475181 34.8479797373374 2.3034028879051
219.507208093418 27.9495411622851 23.3969117066214
-70.7194343618519 -9.76389010129464 -19.3021399580933
122.700884153703 -4.55501612364132 8.94034912667869
-210.288798944405 50.4963902013607 14.5158180077251
-125.017612341239 -9.07695353830107 17.0171180807429
1.89178881786734 -16.7708180258013 -2.94832313876573
-83.6720127722138 1.00376277515532 -15.5538330660138
-125.467785266572 -2.54547738926879 -13.2723705162287
3.94819871945805 0.492642780485816 3.65663632585239
-163.85752299421 18.5148198284317 13.6232431720541
-219.252318490662 54.9961803128762 -17.2410135734609
-208.226871262512 10.9841886136754 8.78304384209324
187.099025639578 -42.9215896807571 15.8560624138564
159.095927487852 19.2038016992909 10.9190429055867
-111.990334523297 -8.08716425688111 13.9963341549511
-180.546606176728 -0.671891796685461 20.61668477972
-216.246074192459 -22.6952877577336 -5.03405276779048
-153.185865732088 0.629085844115777 21.3939573675234
72.8917157219535 14.9830521946015 -9.61081930237176
185.140793764709 27.269873901566 36.9908055923072
-141.593822999257 -13.1608170872578 20.8355084290088
-89.8271802876865 -11.6414134442179 13.0616173711997
-204.843640118526 16.2400578927248 -17.4808612399559
-185.073469216677 2.72659593664808 -13.1880024272514
134.498629738456 12.8306427717659 6.00013739985434
-140.950697408095 -19.0887481716155 -9.63222597668274
108.512763247789 15.2841774991584 0.298393632494196
71.0774791316373 9.6057143355749 -16.7843063862813
47.792769191335 -15.9648659137301 -13.4384633991679
31.0272595846044 -9.60416310934719 -18.9163249577361
82.7205371686691 5.28809214159398 4.58458855431669
-16.8937520545244 -15.2889012314943 0.258285475451383
-227.82966968113 22.0172213965159 7.67394114244754
-21.9702510006879 0.223557212427996 3.00693930162941
126.501206669 -20.7342728852201 -10.196318714335
54.3792521704055 -13.7778445283397 -15.9814306533322
-191.658247794194 -22.3140562351816 24.4928063152081
-46.6680132444892 1.10181046520728 -19.1043450872161
-96.405749066769 -4.0091139127264 -16.7119788743491
-179.69704201576 22.3371440246074 1.98078876518098
-162.340691684237 -27.2268269463426 9.70925731096937
-177.82585477596 5.8327819977806 -12.0435681137636
94.0609046072895 -3.74371862018868 6.84383436317873
166.106351122483 -12.3926609233174 -23.9892191898759
-115.83996345028 6.70103671548717 -3.80402837802845
46.4435165910074 9.38661608945238 -16.2082676468221
157.052470630883 18.0286488382535 -11.9596855919769
183.956335578144 31.5640543850218 -6.09521388180022
185.229388552047 -17.8979227600393 -29.525032397898
111.921026009333 6.36146813694394 6.17264956299346
-217.660518836284 -6.43516443156948 10.8849608302343
185.332979275624 11.8285792994089 26.5074366860393
-109.042719792184 1.95428578371986 -12.3586021897388
-194.871790653109 41.0271134595884 1.47966307901934
-24.7434344885761 -7.94020692192276 7.57950319286028
203.09927433535 -38.0520706405802 -0.897079276891273
48.1622192013415 -17.1920968134207 -9.36609418993156
-195.45907393653 25.8072475185236 -15.3777750863519
155.805497615194 19.6987994653417 -9.49391147200773
158.878595788972 12.8108285488318 -16.5235043779572
-140.329764916475 -18.1846033470076 20.806386144511
-185.300119170379 -5.32774561043517 26.8427438414555
-211.053754801061 -5.76585212048287 -0.417869877113564
196.877435327218 -3.83116766014645 14.1112044526144
-103.478204029086 -11.2933810459227 14.0677618737903
10.5185638169853 -0.621731964797621 -21.3599068916096
174.09647550806 -38.1964911453473 4.85711664412522
116.977231501155 10.4791315197769 -17.4941901687105
165.018064465423 -6.1275195112869 -21.2981959300382
158.223082889476 -1.41059106891139 -20.2131456858155
-222.525734151705 32.0382700307217 17.1812879624182
191.676195246627 40.550334218548 16.6206872824958
-135.54170687566 -12.9227723794316 21.4049679263599
-164.670424563337 16.0547599942073 20.433630335524
190.621904950164 15.5938250910014 39.2245606199918
-118.945487124632 -23.7272850838942 6.38751320415336
34.78324770259 -12.3622937573342 -17.4825729071295
141.302049372121 -20.4937688128306 7.0074752739131
-95.7874572248147 -5.96927942586835 10.4456078527994
193.989587326448 8.93835620044936 23.5349847110632
-166.167819501633 -16.3796979636839 22.7029230366143
189.02131831973 -19.3751484023924 -30.3484909614808
-196.756657607954 31.4479203308173 -17.4786883775183
-191.174229854249 16.3156061255799 -13.1852017806568
184.261113412999 13.2221704119574 30.6603347730587
113.819402277922 -5.97334213896964 -20.1474941453943
120.412528726621 -18.6718856357893 3.24288360320035
103.266274510778 -8.27825880574448 7.32219475918034
-209.308174988819 58.7411145507541 -3.70563242485107
-160.270401448253 6.25719022096798 -9.53261053845929
31.216309025803 -5.38490374061827 6.54907598229825
183.962530131344 31.7325161699065 33.4794887702093
-47.2372586882843 -4.30225676129978 -20.787710284779
-185.380938642461 -2.07715973269602 21.4695111398366
-211.306609388102 -8.0805951564866 0.635917366389516
204.937209330023 26.6175224295951 40.5841390965694
175.912889485918 31.3680972234778 -0.0720985706481282
-40.6690973438372 -10.6090120958115 5.72886295180919
118.327449994677 13.9120270038278 -14.723126121453
-151.429840931133 9.83609784204205 21.6416007286522
-146.964777733121 8.00331368262906 -3.78024601915101
176.293560396524 35.8783769683966 10.2816941048944
2.47860936637548 -8.9818991057997 4.5472972105618
36.8010785061319 0.0638383302773998 5.30465933782385
136.773551741677 -15.3856713189213 -19.3421112007093
54.9120555528699 5.32911384903461 1.85184771916481
-130.245591773393 -8.20373678087853 16.9418096649845
51.4373011541644 -15.802524062307 -13.7235462475662
212.116764374797 16.3290293732757 -15.266387749308
-5.32781010314243 7.80982592132371 -16.104471069899
207.780312098074 18.4550716237803 38.7722917651824
-129.202267710853 -18.0084277377841 17.6028809729706
-120.676836199097 0.786465821353265 10.3435308233733
186.746371844459 -38.5877989194215 29.3591283408031
-183.379705458515 16.7095589183289 9.74210698797513
130.456657829202 11.3461903676931 -17.1771829857683
83.259273306266 -9.39635670898353 5.73008453801847
-184.085678546626 -36.8838407912782 -2.96140044375314
-67.4717221119049 -16.008531967972 5.60754138216045
70.1463247588082 12.7939391464582 -2.71819914253965
-190.662703499755 9.80600960940804 -13.8590919641006
174.326714831893 -20.0286576557987 22.4450770005691
33.3641452003938 -7.44842793192269 6.39050211892843
93.5388077768798 15.7572337790233 -10.2281545741113
-212.125796097216 16.2336575043643 -17.4887054827199
50.299016400442 -8.49623553216782 4.8191541480645
175.510277312719 22.2904894212635 -12.9864555260684
-35.8468228547699 -11.3724707294351 4.52417091145695
168.919026168562 2.61377090680928 -19.3547979155617
-13.6532828335719 -10.7684329090511 3.73960759746761
-167.967917469083 14.7455943211288 -4.39981792364637
133.905624600992 -11.76240903328 9.60501601972274
-175.806557150087 19.0325082472592 -2.86005319534945
25.0436705494334 7.81775736105605 -16.9178971024286
179.806562459047 -1.27188187992102 -21.2171832204501
-211.764781560701 25.8719592395797 16.4135819875128
-188.229210265116 8.45003791522301 12.934904461529
14.1958381507914 -7.3690334931582 6.58785294414836
-15.5529182883267 0.410779875586975 -20.5438570500885
203.781266284649 36.5954667792196 5.02761072574909
-214.402962581785 46.489459901911 -24.9034267701555
-123.755057109758 -6.20190302435443 14.9751480863233
-108.404397637276 4.94498119983946 -8.94298193566947
193.463400963378 18.4594378322491 -18.5358480002502
156.741746562589 -25.8660156643692 8.63082351745143
-139.255897028539 5.51470555641957 -8.06528776667729
-221.135480215278 32.8888470991686 -25.6048876211719
-88.3876171365421 -14.6039273031121 10.6088246444844
190.754339686582 39.4021324204998 21.7803809152631
109.796980897846 -2.66295076580922 -20.6431952873494
-84.6121101713915 -4.52350320288709 8.98221370117972
-185.698616374307 -4.35884022713422 -14.7059388239787
167.723269032173 19.6958393191393 -12.6925715775763
109.675400894917 13.9247977730153 -14.2717819499174
176.045072037546 -40.7001969678283 7.62341371490941
-56.5720199929085 3.89176854042037 -16.4033055007961
-191.554733735032 -2.42516135000483 -16.0231711234441
-149.438167313737 11.3618544154116 6.84101679777052
192.69462784969 0.947714035562216 16.8640488368134
-84.0410924177049 -10.4774028429315 12.3490776505715
-222.190418368534 23.7951571171911 13.5539935944725
44.9563989042125 -17.2351771442054 -9.02046308074452
11.102311018205 4.30354718099009 0.0928418372333599
134.326420109324 3.79508203358405 -19.5933200621031
-135.160356835633 -14.8142068847759 21.5065836880623
81.6000629726238 7.19280895673415 -18.4457405178593
104.497595139352 -0.522824997651907 7.36723478299679
-142.554471984564 7.55185095482544 3.21636641795082
147.366223707126 0.91966359388006 10.6734420751508
-184.097407748381 -11.3704724538205 -14.144710694392
-160.248565867341 -26.1164361707467 -4.01638346367133
16.1521888140204 8.6860460630659 -3.24927044424033
-153.452461677016 8.99082609039257 -4.96761263915268
191.356416557994 41.0686039756253 6.1112618035719
109.953068417257 14.5244544628297 1.21540743493635
109.431372342796 -19.4751718050112 -10.4651048038005
-106.555142485845 -9.80392318481772 -15.7790622475011
155.401055940028 -7.98570140767115 -21.7753761288367
-177.229478512529 -30.0190707702908 -8.60964252206558
-145.452077339833 6.45288674358282 -7.25944294272642
-60.6046663980842 -21.8805525212227 -6.9464108075459
-216.430996751868 21.4080814052626 -21.8797985286467
-46.5568398823634 -15.8502975785618 2.18607060710728
112.953491052574 16.7727064696862 -1.49757749760874
-183.636618360818 -14.4004447216621 -12.996139424599
