-185.717812223739 -23.192176057436 27.4690294988185
-24.5294778685871 -2.51615089613788 6.44531571934896
170.959000180786 22.7531027879336 21.6708403235187
-164.259909985858 14.8647066168718 0.679476594425231
133.721198259247 -1.75138904021083 -7.46415188416554
-199.481990082403 -6.98471463995793 8.62057173176768
-201.284481476684 16.3933166082024 -9.58002172584561
-189.972438332616 -41.1002213750035 -1.960097878898
-168.441606216142 21.7218978255385 -22.1559568941831
192.363825259426 -27.9806843129698 0.348811612273562
64.8282412286371 -9.04450131379528 12.2247122595376
-79.7869406821082 -0.474838225088254 -0.585213011645655
-176.365276227519 7.26439107808862 -32.4980615863594
-126.710167765138 4.60531963701519 -20.3632242123842
121.621501273909 -16.9812412813296 8.84425740992979
173.99075401122 22.5357395342128 20.384220140876
-118.074656590087 17.3416481444224 5.22288343454892
-42.4381784401971 19.3315673656097 17.1976443447072
140.856707424478 -22.0044425130282 8.90111602179289
175.714863101587 -38.3236293147239 -22.5142735993697
21.59156376526 -2.92057911836168 -2.51783750617968
-22.6549209845688 -2.50736012675672 10.830079882199
190.636398706732 -24.9348199569115 -20.3239741584779
-198.97226939153 2.4931868393267 -15.6920096435833
70.4326962322279 -8.51590012587824 19.1083766074237
-95.4770487426535 16.4252172421443 -11.8461140999023
-142.193643522693 9.97180127540916 -24.2595906164733
-180.737511710176 -6.66408439040314 12.463759657413
-37.6971800635878 -1.35824616664192 14.3965432441769
-13.1382123383799 1.40340389215353 22.5635019628754
186.976753597817 -31.2461182358043 4.62279260428743
-177.456989880601 -32.3792430248369 14.4423031024166
178.658148968985 -37.4793215198098 -27.9750938418667
-76.2131419399057 8.03806144237112 -10.3719482908575
-199.279327746121 9.50100027986172 -1.77513458803118
-182.852003834473 -41.6333233215671 11.7468869664109
75.9106062331363 -2.64937554968998 -0.935446678566595
-19.6858187864089 22.4683170174995 13.3342357216903
-180.152367901385 -14.5640108642013 -8.97307590062661
169.574111521659 27.704683284276 5.6158407858146
-56.8600975930428 20.622374567682 0.339576165940874
142.547169152608 -22.0718519957502 -6.97537155726663
-190.433240052643 2.0572204986162 -8.15323763755582
184.675194765517 24.6254982902715 -21.0108125729977
180.583921485622 -27.3563646940072 -31.8020086583404
-63.4001547641096 21.0109793639658 -0.208390939775987
-72.1708018233846 16.3422779413131 16.5071075154809
158.514844886006 26.682615765042 -14.181628012757
-147.610219035172 -21.8568737922323 -19.3121216312281
12.8159788797892 1.80685213265279 25.2639651401897
132.220850603711 -5.35926630230943 -6.60541827488082
-205.860086484455 -8.12678142010703 4.60095968817907
173.356364280358 -8.31309780031119 20.1096054470207
-185.128489689819 1.45519522151307 -10.4227554732713
70.7391483181095 -2.77228328431397 -0.426304578969662
174.34272188236 9.67472051371746 18.043353331968
-56.7374769910954 -1.12723701424582 8.90739073571199
-203.497380412027 -19.7160563697384 28.235466268943
175.077512849706 23.900971478633 -26.4033090998297
-47.628773080264 -0.895421249151474 1.30443498468695
55.6197475941522 2.75540280651536 -4.5049021667386
-75.9805195239252 -0.735135394968609 12.6962449522427
-170.324439803179 26.383306334859 -11.4258449010295
181.635333204847 26.1880221398494 -5.62939531364149
-121.421571853013 19.6869739647907 -8.45128812992875
-178.169252910254 17.3685161124875 -28.0638174875829
-170.397211850332 17.4382012824451 -28.1937233004592
105.98568365382 -13.7292276877641 11.9291501827367
-43.6285369008998 -1.28241504338652 0.883103800691869
34.9350866604762 5.43497872264224 -1.83197183329341
161.457880277367 16.2143218019889 -34.5735328847535
151.012625490995 -10.4680082594603 -11.12042658207
-65.4098569133571 19.9647961075202 -2.00585044927838
176.329967907761 -26.8733201543389 -33.2254723190853
-25.4154540469501 17.4823604944231 19.5075207025831
-149.331337097687 -16.384003484898 -21.8219874745761
161.389835049592 -21.2733965319386 -29.1445273892125
143.372429959933 -3.02386705448314 -9.30270065506012
-200.460923041779 -38.9811984006978 -3.32747219330969
136.155938187974 3.64421666228256 -9.7487363562784
100.865977683046 6.61370850395465 -6.6635590403071
-210.730290005185 -32.6058311130597 19.7506447161277
-131.611026126368 -9.64175270231796 -11.7114208783459
-145.424115435658 -2.12061142360105 -22.7118466992972
162.832484733128 -36.7417054239444 1.4364584708982
-157.727411412305 -17.415114956587 -16.2473168047255
80.0257673467605 12.1747620079767 24.5890860250467
-189.883093610168 14.434268328699 -28.0439226260115
168.797747722434 29.5495100890172 -12.176969622356
55.615760669682 -8.05747722098378 17.7980472639821
54.4153373084055 18.8059554787401 18.0874201799297
-101.180792873328 19.188671475264 -8.89702278728921
-132.420777787115 11.3972060111353 -21.3302308513716
-181.741009201437 -17.6367698695525 -7.80096047867027
38.3272686909058 18.943348027991 18.3509177609189
-181.161361859001 -21.5046757266931 19.4930176549105
-40.0047489099445 -1.07367390862529 14.9693401652545
-182.940497804745 11.7204050076988 7.09998753390442
-129.385447710426 6.02328794920736 7.51652155466077
-117.53382761084 -5.33975731165482 -3.77623443111564
158.789717828138 12.7651279107117 -32.6241697788201
-26.8583518900299 1.61010950700906 20.893591128174
145.262830199969 -23.7940289964661 8.38075803339594
121.558019023789 -15.9551863882371 0.99434528518463
-81.1935227553123 -1.40211073958558 -8.02333125825973
84.7996929217725 14.9265731126603 22.2501208888914
50.41919892053 4.45331830296236 -3.45900422452776
66.1917033100596 19.7024768834845 15.2974094170593
172.662274870343 24.2480255310291 -28.4653836669224
186.162284885376 -34.5359782721893 -5.91723269999552
10.1641932855919 -3.87848133634782 1.5335406962762
-9.68549891403014 3.39461617673585 -3.28607690998282
-198.454325540848 -35.0816794564292 -7.352191722578
-203.181937532054 13.5917160151561 -12.7088734625309
-178.376771067314 -3.47062879636693 -16.090032235637
-159.929439671038 -11.7469190935719 1.34624128265608
44.1826549596818 -6.1049677812718 21.1263220347073
144.803330051111 5.52756716850803 -12.9771046666973
36.6602593235103 12.7639377364775 24.4179643064612
170.377722382468 -8.09594471175871 20.5262345034634
183.726535593279 -4.426493463862 -5.55716402265341
-57.011534769887 23.0289842762885 5.18880763746321
-172.93871238933 19.2678680667671 -26.7527117554158
171.621325171206 -36.2894039929882 -31.0435655963943
127.914993106348 -2.04683153458913 22.1517511879303
169.339299602742 -12.6007019275547 -15.8409794179777
143.68382061241 -13.230682432194 18.0839390803019
-188.561409994467 -12.095671383866 25.9122099229618
-185.595735900581 -6.79189869714146 15.8479820417394
-75.088356870609 22.5169231878907 2.87055280230708
143.664855124866 -7.70053557397787 19.4937639484526
182.679057117145 -2.9219746574481 -6.61732560844608
52.1105921370307 -7.66009295604692 18.3883900952831
187.280096998375 11.5858142999698 -5.47692502841915
145.771320983123 -22.4191842424588 -9.42553271079733
170.342226683779 -39.1605945628069 -5.53215516123171
140.444549479335 -14.310712368586 -9.17499360125519
-73.4890492143242 -1.29451513547778 11.1297242456369
133.655547645462 18.8248946226815 -4.46537497029885
157.952594858872 -8.84732951320424 -14.5888033714895
-186.277497620355 -36.2612606950139 25.0810252643872
67.775903691297 19.980049923774 14.0075840415759
-204.115957278175 -13.3607516327366 -4.17399969179544
-183.815097432391 3.83948845348897 -11.7789518405397
76.9087272623816 -7.7658826154782 21.0496656442095
-188.876567243755 -1.51360210441065 11.6072462530933
-78.409902541306 -0.168351105380286 13.1890487630238
-48.2124640705537 21.0392010751314 2.04514423000911
-188.904388778488 21.4881313904793 -9.55904055086116
190.151543029228 -15.191113335985 -10.062938098005
187.898091590118 19.379010940162 -1.23360942859483
-163.144560769483 14.705130286752 -27.2737617760342
-97.3855989306623 21.6254718771872 2.36776493493026
-70.8662168010717 22.6928818343769 8.76767071892465
-181.429620531795 -13.7878000518656 15.8169983232273
97.3368368528238 19.0928754598012 4.65267528694028
40.9985223619551 1.82918959651834 -4.45381290907746
-133.208135442768 -9.89278095789058 -9.7057918591699
170.374572079207 -15.6563703318466 -20.3882043053468
-35.9970273957269 -0.270333646196249 -5.06893992672302
-197.002996127403 -1.86452632224655 -23.7324102445578
-96.0788670898744 6.88698458284264 -14.3135009437655
63.4821675180787 -3.75410854413023 1.82337251867587
-198.50876149839 15.6356767021119 -4.27331624346481
-187.737913088515 6.2687333157419 8.47898769799272
-22.9098655533205 17.9764973913697 19.3014085294808
169.345729006289 -34.626556316424 -31.8331997173128
-192.347374752023 -34.125829564474 -8.32244551673465
-188.995087222167 22.2001325971493 -14.7150046266029
150.473334058749 21.2758246094872 -13.5887227286313
-84.2954764761251 21.0677849408863 10.1956069919301
171.545940428575 16.1761168736033 21.2605571095144
-188.110606275996 5.47173671899766 -19.6198066701378
134.821243180733 18.3843111572744 -6.55331069665051
172.389044434501 8.53312344371264 18.8164106309964
-52.9357110815967 12.4064346928963 19.9246933238435
189.489418212576 -16.7780815546447 3.20241361201954
-44.7597757989031 18.0165381020845 0.170034973254692
-66.8362317181362 -0.971409951429508 -7.19133349279121
157.111253273017 25.7441634782937 -14.5070595403285
83.0781661992102 -9.03001095254888 19.4515515240591
-171.849432080337 -20.7856812160742 -1.78880592971745
151.88839117403 13.2712863375275 -20.4847822735971
-63.3819668707816 -1.48818784175253 -6.01021785895091
-103.837621414067 12.839664651616 11.5930650625251
155.149457716289 -35.9289826363217 -9.65302965264472
126.039746560524 -17.792893189418 9.89399156310706
46.2385350248622 10.5028354699334 25.8790037841311
144.898840993956 -15.9015849861245 -10.959591658104
153.733925808903 -27.698906377435 -11.7184507208631
-187.113957923117 -16.0240272068997 -8.10802766233479
181.998407891857 20.0759539291195 -30.5868497458348
170.097044182875 30.5954405487548 -16.7534335303881
88.3570466188183 -11.4320590672165 13.1704731992621
-110.174619775943 19.4966124606065 -9.31959911381631
109.00029979022 2.8638891840801 -5.79115671095592
181.758168072625 -26.2937164542222 13.4510866849883
65.0071640655929 11.9090529685445 25.0933752492042
-202.972264805105 -33.3113078971219 -6.60779284972812
158.89369084007 -29.5316421184694 8.59639542760079
-109.096343672125 19.1313177149955 6.14724998277271
156.53017858861 17.7027481264821 -29.2811100219606
187.053765715196 10.0419873889798 -16.0681123483897
154.477000360294 3.64990806659403 -15.3721234112767
76.6134542762477 15.3098559420005 0.521160354456922
190.626207182146 -16.9474229958695 -2.41254645896435
142.065141450572 -12.9090589004652 -9.46170315547194
-199.341658486541 -37.1025904825821 25.7544212029874
147.175466043481 -28.0196956853276 -0.00674437554288121
179.757444236637 -15.1253744093758 -26.512922102468
96.1055583893443 20.3065550722245 10.2247812336797
-193.726183739004 -14.8963698755681 28.6671281079605
86.9161149313862 -1.41535168832716 25.5720417959051
-178.469406590625 -21.5687253328928 13.1950251143953
176.10891276172 -37.2885346395458 -18.4387488932963
152.884283421702 -32.4279195135377 0.162132462469637
81.6676359970143 3.44153452951767 26.7141946953423
-198.56950955562 -19.6797005832052 30.0458405766525
111.364108937395 -8.94363696861108 21.0070891483021
-145.385488153847 -7.50446077373872 -21.5008226653575
-157.914815712487 -18.7027556031484 -7.45608215128138
147.701004213475 -28.01864517726 2.061399748665
94.9993142848551 19.4574910211984 5.90808153571046
166.054155235207 28.8986100933439 -6.84101016173068
151.732608719819 -27.1811037741284 7.40930108590062
-203.583903058798 -38.8858051512248 16.7913938794487
169.418477107257 -38.9092154376761 -3.09207078119161
6.63154721385091 2.07347656648707 24.8837955624605
-138.452114325745 13.1832127743853 -21.3306913790232
179.02470742197 20.7488276511246 -32.7715329603111
4.34145981821425 21.5563022666525 9.65464745262625
170.712339454138 27.1484693160534 8.28093853528874
-78.8324152023962 -0.405984874991635 1.22014444262437
-192.998380381881 -3.98362858216813 12.1918438246722
138.9151721224 14.8759882824056 -13.1791337228092
-165.860925746186 7.74589443850318 3.83170718722449
186.772707848566 14.0132240077515 3.42757477169771
70.642783914827 8.26664079762619 -3.01010985394519
-29.4012251819742 3.08599744539621 21.5445901853356
-75.5047230851199 22.5031294687211 8.54250117837491
155.851400989921 -4.19755057333398 17.5545361366966
48.8112527925195 19.1159077558199 17.6997996089784
106.954805139053 3.38579956947389 24.7975991708001
-182.617496833777 -15.5699994128538 18.6949894243071
-22.6677300745852 20.2564347834462 17.3628321701132
-52.5975101430864 10.5274604043609 20.3650205611269
-183.498141957886 -10.7108999886796 -10.0184056453855
155.545362183381 26.5865559549348 -20.660931633311
-49.7622149624485 -1.62403524595889 -4.34539056574451
-170.353776726356 9.32198215150856 3.84683079132198
-1.41587602653362 -3.36642917929948 5.48852645985351
166.898951595842 30.3933867046605 -16.52676720944
-39.2367971828025 -1.85366309850125 -0.416616285297716
70.8995371408948 6.31230176183816 -3.67761012772869
128.372948532975 10.3595668167983 21.8746947111111
-209.600768782456 -36.5677806758942 15.383593761358
-36.3828221441283 3.09375064965141 20.6505265047205
-20.3386578721858 -2.81059617216602 4.91529319948187
85.4785967833441 6.09130669862385 -5.20110480637093
148.813851063586 22.7415614998883 2.54568856672417
188.776985249184 18.9802220377561 -7.61188836444299
-104.204998053865 0.701419660837189 -13.3967180247915
-67.1493013608657 -0.0297967496932039 1.81287102904557
23.5131288667833 20.996744344241 12.4821004989883
159.771345013746 1.30083109378334 17.1698260027971
-198.029190549207 -41.323488095461 20.9253348649154
135.14499770279 -3.4774320519316 -7.32728018305024
-66.3440921858443 10.4898700732291 -7.26121258256807
-193.85730236011 19.8505343526504 -8.20100933653884
127.914796410776 -7.44334817752539 -5.65916840120757
-128.86224904388 -0.948704372189472 6.19586878416197
-160.409939177792 16.0653802472125 -24.6529392494504
-187.874125391917 21.7125825247581 -15.9338151057657
187.814735463684 22.8527964420859 -4.08994076003045
148.747826080218 12.6421925201962 -18.3424546849286
178.057593533555 -13.7329335655415 -24.8573297903217
-202.252221413955 1.01933627816071 -20.552069309366
-201.172763611973 -41.8442794142269 0.896916171544907
-191.554563673504 -44.5292085522512 4.14953642026866
-74.1163533924258 9.86940493888482 17.7993285687464
78.8681027786815 2.96966865754215 -4.65644376566154
-114.831016210041 0.363468097897044 8.49388486640119
-181.001316014288 -37.6534413723641 17.7158556221891
70.1458063060435 18.6231998231648 17.6975632715408
-191.554922233037 16.2549899901434 -25.2230885811375
120.518509665417 -7.93447218011369 21.510931263527
154.960244817264 -4.22101286327775 -12.8253453505016
46.7462474145734 13.8127248369225 1.79689958576822
176.717691070215 11.7444188288223 -33.8689939856589
-202.931841061769 -12.2365440423097 -2.60967502676708
-133.263594104482 4.07459568032587 7.14181246170327
169.40123861753 -10.6359364731988 21.3496215320059
-192.157274356071 20.6250904800613 -16.6441227954641
-137.904004649085 -2.35344083153362 4.80915791528129
180.586997733223 1.20088488783236 -10.9607132978253
-178.869067099682 -6.47295454240779 11.5381607515399
-164.657291274747 -2.08493109756577 7.17262315063014
187.412449669424 -35.8300233027825 -12.1782358052128
-167.390542210124 24.4381036400392 -13.6668958599629
139.693174491811 -7.94255133908202 19.9011920349152
171.821205320788 9.92782916305133 -34.6716431534352
-68.4669833816206 -0.061738615854854 1.89557466279244
-190.201187563724 -23.4503573654554 29.7132531053939
-57.6455628572207 4.87085005160326 -8.31782477031706
-58.6578391071183 21.5000258166335 13.5567326632131
-189.365964827441 -43.9373607182182 3.68837150174567
150.461943496032 -26.1501021086352 -9.82650635001207
159.624132553426 6.69562699409804 19.5746754433071
179.824437851067 7.11937526499423 -27.8084638872572
-29.1391605179804 -2.49244631908955 -0.330672948640486
-80.8651622592365 17.1846753905926 -8.33717356748626
142.662406520796 10.9286696349254 20.1089303737858
-16.5133114307269 19.1157541404009 18.6525350351605
-206.137405317861 -15.8805897589352 -5.19061108913326
101.944365661405 -13.1061229911414 12.438987738659
37.2374537934982 6.27613496802711 26.7376790284149
155.562609118924 26.0350296174176 -22.6617639863633
139.763239444279 -8.69798096249322 -8.09526835271222
180.865024739357 23.689747254 -21.5166469336259
173.08584468799 -38.1055174160207 -12.0781999114525
-68.8686424940189 -1.39446283669072 10.2929415329465
62.56915656891 18.2106611121323 18.8588358079973
166.594983778454 24.4671440743946 18.336427341138
-73.794547536154 -0.602153499040834 13.2051233517767
154.80882638663 -7.02288635190428 -12.3157333239053
55.6563505176035 7.53460715261413 -1.84118720545039
-170.8823074724 -10.2792813095189 -14.1993088625948
189.111397579169 17.9805963900207 -14.0146347555568
141.938199737862 -6.83206293731236 19.784893486957
-176.519259285303 11.5315238969123 -31.3332593572368
148.033801946571 -11.3262225305781 -10.9280952097623
24.1066199021048 -2.50177181857777 -2.88123053145188
-199.398841760993 17.3857035999099 -12.0784526878659
-158.666962252266 14.16097884134 -25.9566220775956
-190.734521045132 15.2644467061861 -2.02702511372937
-101.654780824402 -3.5594616359988 -4.90641772502709
-153.506183867359 -22.2006638895127 -11.3724371039582
-39.0044945490561 -0.477616572916021 16.5884210373227
-66.0042531598829 15.3355741811736 17.6951181513471
-121.6535346192 -3.89936406889334 0.604215073914313
-76.9302031747034 0.717408285033893 14.2118962904307
73.8559736961227 16.1713898578382 1.71330176539444
-192.884146841004 -7.89316124525655 22.8182074963429
-163.846100471903 20.5309487520402 -4.35378906578677
-134.316750576523 -8.52709827469105 -4.96054694120685
-74.8943664924828 21.55655525034 11.257085086406
0.979198289694959 18.8664089780975 19.1984193887161
184.331011972003 25.3259917890996 2.85166313269897
29.6863127154483 8.81547600473982 0.344824757092532
171.649941779903 -23.900470486001 16.8563341957432
157.100288020071 -6.31980250218566 17.2714631479986
-202.216720691536 -39.7966669263396 -1.30947663163705
163.31246361612 -19.2798200975409 -29.9267517765253
-2.54085109729363 5.42725919298687 -1.53621720132464
7.34105793017754 6.37897276909119 -0.615475961190353
-75.9497950176959 -0.46515307513377 -8.64068236474173
-207.659202584261 -30.0783444198402 -5.01916014339556
-76.7856075016077 -0.293689833157397 1.0882666819508
173.495043836364 -15.0955499468902 -16.2228052892934
-162.440949119059 -3.5106366525933 -26.5691702518624
187.065233718451 16.5199886454926 -22.3628182728187
32.9381484532207 1.00436549351711 -4.49963490443574
-162.542230324841 -17.073025877009 -10.3770194675207
131.856635865372 -14.711938642126 -4.86026538533919
-174.343462260768 -3.88693451604525 -25.8095763738852
-164.484391944973 21.7393088585386 -5.83905891632145
-183.55777648098 15.2040173178055 -28.5668114676563
155.221117425373 -28.613858356398 -14.4085700572848
78.8948439498608 14.1681130754435 -0.820209476638373
137.252506839049 -20.552120639162 -4.39547459277605
-17.9368218584642 0.24303220715402 -4.98091663271923
-166.253599360141 4.89752838299623 5.08997948294552
60.3255268373399 7.07411432373901 27.0585936938188
159.879254820567 11.2178535347981 20.6772614346862
162.379216666481 1.4094351657536 -26.004903181773
174.906187229787 -17.4365601759263 20.3205848913874
-121.531232278448 10.0379694202598 8.14989012248248
-169.090172842465 14.0693729582826 1.57612133707307
-196.308564735819 15.2430346298822 -1.22887014897157
160.428717587115 9.1456560192548 -32.5373362908999
111.039130066395 -12.2761215775301 17.2176331410331
190.000737361928 -16.0955662158115 -0.434030907916431
47.693301232548 18.2050005851947 19.3797869088571
-48.9140313183093 22.1241491951164 3.48764924017347
86.4969040581449 -10.4475466600298 16.8539256926561
84.129490018901 -10.8667175891205 14.5417509504521
96.029321102281 -12.1235726668406 8.48179180749372
-178.315361376536 -13.8662375278974 12.5942081268942
-91.5555135259567 11.0245314072726 14.6397786014166
-192.550437019654 -37.7244173111468 26.0757748116461
-20.4653619811858 22.4747285103535 9.17947126525312
64.9867928170591 6.74711298532289 27.0412446266623
6.13349958520548 11.7927864135306 1.65029114388096
-45.3526256940122 13.0692720136726 20.3065437628808
-180.9077587104 9.89426284584037 7.14349975040768
-71.5562964973623 -0.443850734407703 4.61681735870239
187.004258425174 -13.9164115306209 14.1517579077736
-208.308472032006 -8.50150858239325 7.89020119923891
150.41682394958 -6.72137015800555 -10.9980010791806
-193.662024378095 14.8225193383496 -24.9662909950927
149.036569942336 2.90004091531229 -13.2199398168271
-52.9900019381176 2.59865641555213 18.384418550376
-157.399485852084 15.1958537008218 0.303726736043991
67.0149396719461 -8.91241944423071 10.5530739278147
-133.15871392039 16.5082865991501 2.17506391646094
177.016551434985 -20.4426834677675 18.5165694006153
-167.866941134029 11.8016405999346 -30.9873507672071
178.885173003971 0.559587153380075 -21.3520839000289
-50.9236387845455 -0.613786453074405 14.9457744466891
-75.7515112769808 21.7811228916225 -0.403070437936403
185.011881837949 -6.35557180389272 5.80779706975883
117.401801818962 -7.8779319204608 -3.74939903375564
156.900600280428 -30.8630667182311 -15.4392103374392
45.5723433058805 5.63891806102859 26.9933037771841
138.442923967594 6.1400846005984 -11.4010224246969
-196.31354026438 13.5265576227091 -23.9972457705798
182.445128144072 -3.95895908708965 9.50590580294156
155.553332931555 25.3167258311523 -16.9364307670487
157.561462291237 27.1766862896294 -17.3968629320509
-43.4812104169555 -1.18235617361064 5.2080335012233
170.770898649487 18.8304165001583 -36.1226914757362
182.472662229616 -13.1782040062864 -19.4905748810239
70.7956069436277 18.5160194616536 5.52775492534008
85.0952104053231 -4.78547298201838 0.175634294932377
150.117319668895 -21.0792698362036 -11.3045770628497
140.330294834338 20.7396275800245 12.6078841944158
167.426940929904 2.04220190389967 -28.3358937876519
180.159439093096 -6.51531976330017 -8.28374066160638
-24.7192779800963 19.7722380183444 17.7737052306866
149.246885547955 -7.82254723675324 18.8462225551811
172.398193723694 -26.8834903047128 14.3380416001881
-145.652597004436 17.8545719807398 -16.0895515828555
144.961326622661 -1.77475681850796 -9.91241946729772
5.18997245818992 3.49309777410933 -2.91549990375934
-155.108596022234 -13.6467394893676 -3.74758572110728
-207.507075975516 -21.5349483988244 -6.20591541136097
93.6792912052946 17.0324976729928 19.5051782230033
185.071418303022 -37.6243983403968 -18.1499222890611
129.36558995061 -7.74859317557904 20.9600203216091
-139.617041727969 -11.3619623590703 -18.3741220772692
175.92658389462 0.741237210669308 -22.5802896051356
-9.12465294672687 10.7388070490515 1.05535580535194
-140.851956976578 -3.11465965730871 4.2617469628125
-30.5061080080632 -1.87132892663755 13.904265072835
-176.692268960323 -9.51484367005644 11.3076027475853
190.003916587775 -26.2196426899709 9.64876473379683
-49.3959414650994 6.35038548822521 -5.59701068408049
190.383043163709 -22.1932571876637 -19.9414025983604
-65.808642480807 -0.048665559006486 1.57777022934369
8.06205319007651 -1.86649875791002 -3.74128406390758
-155.309253747324 17.3496443088609 -0.967129513796529
160.127620548941 -39.2964900692447 -6.40857155358208
-193.5883860761 19.3774314445179 -17.9546450881557
-76.496240419092 22.2972759693103 1.8034299315307
64.2569535289548 1.42325118569603 -3.94972615877749
157.019522909012 -30.0391265488187 6.91022737687631
-135.401359328186 17.2607765776921 1.15575524666198
48.5266807887037 -5.17212092286966 22.8791119730961
161.414560222482 -14.0507016887292 -24.1102914428701
106.213129253285 -3.78175298597162 -3.37846159464454
-179.425556564188 -26.3944748196601 2.46964870753955
175.718367328427 -28.632555669045 12.1176944181697
125.028259646367 18.8199785882126 -1.24743993139363
-173.786823464565 -1.94147826248245 8.94555902377263
-4.29115868792638 -3.57567322448716 13.8655786506034
-114.572756583335 2.32993244005159 -16.4865552419672
153.424314438915 23.0744177809266 -15.4257294712355
62.7775525375744 11.9307676641949 25.1229344222125
119.799587980474 -15.5979757709493 1.60749509983441
167.277101797739 -37.8370045878997 -20.0550701931735
-139.142246910085 -15.8095863048018 -16.6875538760624
-32.5183315965189 21.9400199752897 14.62564882002
148.678761454447 -17.7137746733603 16.1191202912256
-194.432988935928 19.5904030407974 -15.7183248092687
-153.263170354517 -19.0994126803122 -8.37803599881849
165.342084099103 -22.1833307663814 -31.7407527790105
117.878799081462 16.8006504289039 -4.40871539564665
-175.308600313754 -23.5623708307057 2.50894155401751
186.164547622173 -10.5334192743371 11.4069786049019
-194.086571353655 -15.9874051189268 -6.56825161522434
116.360650933782 3.16685326429541 23.7541657381129
-52.1919342901903 -0.772986722691624 5.82765828457938
-176.564621762498 -17.8300323735759 11.6378848640712
-158.290351732692 3.07218223042265 -28.1146843730095
98.0347538473685 -0.0686510434265613 -3.61758586845791
184.713839982746 -31.341796661002 -28.3473362640346
-199.772357933701 -17.370227447897 29.0955706109281
176.233407441524 1.99317649980328 -26.3581395482371
179.367345712136 1.63158875614831 -23.2188688256163
150.725650871135 -2.34705638242209 17.9054522118443
-180.117993249245 17.3198040033449 -27.5463590378735
21.1359623859903 2.76602737140962 25.8784009255732
-45.4621868395945 -1.24813787721481 9.0746285478919
-19.5070703869657 -2.81019434945433 7.07653465593177
-5.42835978868731 18.5142783721763 4.38276365300442
50.3899109072007 -0.314213678903805 26.1907851923308
33.6060193022214 16.1058467173845 3.67417149712318
24.7830197264078 11.2633304065222 1.36191022542425
175.597998007457 8.26810212671415 -32.2058406172954
-25.0091785849535 19.4948963628406 3.70403181581032
143.366846784452 2.48214944416338 19.0822512801535
145.764727083511 -11.7277796160286 18.6791184630229
68.6741379012636 -0.514044391608209 26.3283540407115
87.5234066020895 -3.64114791603066 24.6821878998712
112.174470211414 -15.0303652769297 9.48545187615608
-205.245606895538 -12.6570806588453 -3.01932929697872
-199.609943565962 1.23599385432316 -25.7161284616758
46.500436750419 16.9609168186304 21.0525772315664
-56.0104717672025 1.27043921892784 16.9480955950527
179.140742987998 -21.5818631040563 17.6354220908879
141.247082356588 3.8656348225519 19.5817269367079
183.844213069939 -35.2329789613768 -9.51970982459655
-184.856037659224 -38.9224920852244 -1.94924564504871
48.3213197891791 8.00272304957407 26.7906923717258
185.366852624309 4.63946453347581 -5.57634547186054
-177.108504170253 -13.5082460707728 11.9140838688221
169.265141539005 15.0589171450235 21.6722370289771
-156.082084106199 20.587730564103 -5.93263847224085
-195.016932615663 -23.1642935660891 30.9938458112019
172.67232774958 11.3811486370241 -35.1635437038016
184.247712253079 -34.0017994202155 -3.49446898604686
20.8210461139212 -3.64016071694043 1.28233573934871
187.17878405765 24.362033474643 -3.585532002545
-193.098938037663 -18.9731859718072 -9.10014243761498
-80.0588708893323 9.01620126217174 -10.934884340433
-122.387117860837 20.34070599913 -5.34564530067305
190.779977052413 -17.5843969541054 -13.9481354978836
180.494484148958 -10.5237534679503 -9.8260405344254
72.5599071230208 3.73706185946878 -4.84338778694516
168.032581720884 4.30437183825972 -30.2200949757948
35.6159901411226 -6.62721758689582 14.3225465985096
-90.7159530910584 11.3611893144217 -12.9926100526668
59.3897172409216 18.6750813792728 6.20114656528914
-160.534115200222 3.98164505142569 -28.9102787124913
-8.37492517934555 20.8905453863149 6.80270057254712
177.72153888463 4.27957922109797 -27.3528779997931
-43.2591658086278 0.0452690436284627 -5.79128957924503
-180.098039829939 -22.7281514504292 17.0672562307067
-30.3198005757687 -2.0668967990059 3.00950166310229
-161.788268977522 -8.26661765766399 -19.4865311904281
-203.865650176548 -36.2286174241668 -3.97660557889988
185.499272848345 -26.7787212334821 12.5133202592439
-125.393416381069 -3.26186788996909 3.19404377149958
-47.7770175342284 -1.00696276389841 6.83488671579895
-192.995623662213 12.6446291563409 4.97853505860069
-200.085392451684 -15.9726812590603 -7.27341140114714
161.149213354517 -3.99639444636435 -16.5900907156776
162.355903573145 20.6841313015045 22.1346142749991
172.459371753277 -37.9777288048033 -20.727965860098
114.880616915657 15.30368342358 -6.19433822985248
-52.4315066882381 12.0740018438148 -3.41511346755981
-45.7945188931851 15.0209901393048 -1.36310178299003
-87.628877474134 2.61094053673604 -12.356505745777
156.606696459425 -36.258610751685 -3.22816427755807
-27.897054968805 -2.18860776607625 -2.67112582832812
44.7944549635916 -6.92510613329248 19.1848092217057
-99.3690572024434 3.8852508974908 -14.9102563971969
160.624776566926 -37.462806856733 -15.7406874344393
173.237361746123 5.06332269279825 -30.3271997739392
-107.888674542705 19.1173163287172 -9.97792861821495
-192.557976646306 -22.649853399458 30.6168505229683
-96.0274933146916 20.4222131063185 8.10955437987076
-36.9994887684265 0.477864079027197 18.2242653002034
-164.064632317097 -16.4166422026311 -0.113483125454354
159.051944634998 -32.0413149315177 -16.4896581805103
92.1029631645419 -10.9899146905869 16.6252601603695
-189.071748103729 -44.815254245601 10.9911424727955
-92.2320537089675 -2.59815886459279 -5.43160571481776
115.094113813465 -12.1124581496515 -1.03055645778919
31.9337818302541 -4.65718673171505 22.1073470915389
-151.850882134245 0.701706080191585 5.62284783023469
144.85318915849 -17.3417715917138 -11.0623456216885
31.8478983926666 4.24496815632786 -2.74066042179787
109.594778458752 9.51894259726103 -8.13798724622819
-175.645597648429 22.110907635322 -23.8356994654515
-97.7822963152663 -1.86208500190409 -0.871310908147876
-133.076763977114 -7.56107504084339 -16.2759011758251
137.011278192987 9.4074182386468 -12.4162618065354
-48.1408973426105 3.69651904107819 19.732032417058
149.011690311606 8.03068406526297 -16.5614380922609
-117.653307722397 8.25998234504446 -18.965281021271
160.40486563276 1.6146593215668 -26.2017371062327
-73.1370710901957 22.5827153001477 8.7191747678399
168.941290011358 29.6622466741349 -20.8978291993202
-37.6244721154344 1.70424212937152 19.4372478419227
118.579098577863 -11.667217355894 -2.44115233207162
-48.8828325924678 1.99622602829544 -7.1036382163276
-201.722221790894 -27.5270031624373 -9.41918789669154
179.350574675451 -25.711493188984 -32.2831059724379
160.581957217347 26.9422619262495 -8.41732025216304
-145.070748923756 -19.9718322676104 -20.3185105038861
-180.108235665384 -25.7276439718093 0.0612078833703654
-107.027243154389 -4.33962847369672 -5.18920931067234
102.620648202674 12.2842956996049 -5.9578188891785
-11.1162871413025 10.644733388742 23.507871556098
-194.359085237352 4.05306720244843 -28.794194023448
140.678269295253 -12.0345976879384 -8.78270714268055
19.7546488047066 -3.39770789197231 2.62142448117291
26.7203108077509 0.670720784043552 -4.64577820460202
-184.138421606964 -36.8408409072754 23.2619817914036
178.079177518488 -14.9432180549324 -17.6456869431139
-102.191524868433 11.9339616852314 12.2067008643986
102.85361314265 15.2347512829069 -3.11223531743439
67.367115435486 11.1649476352989 -1.452840373234
113.842969029424 17.8872084426753 -0.567807980644449
-52.5111797557897 -1.45923782039069 -5.03566920909984
146.759779075843 -5.73922698266007 -10.0694844125735
63.4599509877639 -9.02451863418055 13.5402008211717
151.76847215649 23.5789163231535 10.7269473310617
-178.802075298803 -2.38594182554919 -18.304966679028
-204.179225406872 -35.0186864631837 24.8762936063721
184.266025614812 -20.0110705384455 -27.4454999522714
96.181899991473 13.9808514727277 22.6801770823032
-158.819815170016 18.487202749675 -20.64927246277
187.474831632652 10.7039557809628 -14.0904029891502
36.0887296708425 12.1247112012338 1.47461336120381
-77.7839706336045 9.25348037196248 -10.3263533256034
89.7744315490357 -10.9320053313888 7.52975413630562
-144.828118148449 -4.32205805988221 3.59585234338715
-111.917729058087 -2.25233065758444 -12.7477338302186
-54.6301661222587 11.4705995357993 -4.11381844759352
-17.1405759264916 18.1327286723248 3.31088282513874
-210.936809308759 -35.0277174498799 15.8034396264447
-146.174444167281 11.3549689942958 -24.5259883405913
-76.7576440615081 -1.01628691865313 5.14842219091542
146.41507807787 -11.2993908785362 -10.3530954687077
82.5416788090082 -2.24726758440405 -1.82631504394599
187.125096262956 -9.66272900172708 1.6568066012138
44.1708817327945 20.302590515253 14.2617468167203
120.687185416587 11.4937986959309 22.4504755626643
-53.5142994856428 15.3385787950205 -2.52301258426992
-6.49557067439589 15.3963379190538 2.51170842658644
-149.254738246436 -0.525256776202053 5.61508373719932
-145.10472702686 10.2519590882491 3.39558909952072
102.623709514576 -9.32913894424619 0.258114044600696
183.583375745158 23.4113955223913 10.8656025210139
8.12038049467095 12.3565410339565 23.7926480921786
177.568702271578 23.0687835914479 -31.014629429156
-186.393877821104 18.8848829977955 -26.0827969467143
-199.469779185898 4.68926902543337 -13.0586366425507
167.868253856903 -5.4693084307012 -15.3867006211556
-79.8338784521611 1.03877486295912 -10.3573562125547
66.882681609299 9.04834526416082 26.4375579681313
-54.7620643628399 21.281376761983 1.46739075609894
101.70739238336 -10.7975221861925 2.33484976932566
-145.491960154093 6.24724166708187 4.88876657308995
-196.895159333666 -40.1901698528002 -3.42110746107084
-194.641171776041 -1.07216397884936 -22.969920526429
-27.3766877669377 13.7006348482123 0.315202751454214
173.144580021513 -14.9696996805908 -23.2167335515581
20.4157714180347 21.0526113996728 13.4979230462907
130.414743427885 -4.15275965913672 21.6369782811147
161.083413764639 -33.7778918630028 4.51490302127935
125.316907513009 -15.208748685443 -2.05893715610201
146.505997486579 22.0635838679178 11.1330264974876
-149.767744463964 13.9103794244199 -23.2937896194576
122.108072932178 5.19674557941239 23.0028831025861
130.85086266578 -18.9847488759839 9.57827766130651
75.0431702436855 19.9709328317692 9.7104365667066
121.984576618967 1.78164599263301 -6.78215391693814
-22.874413478842 13.7687580278978 21.5992959771241
-13.3232401362302 -2.85746266485206 15.2162351642958
-117.774286169462 12.8328382411182 8.05282144710261
54.7878064063068 -2.88197806897778 -0.199797271992451
-135.89993658666 -9.98631262246078 -16.5922040283152
-30.0783321412953 18.9073843821531 18.2385406990801
93.9115595086936 15.3821148760204 -1.54287540756504
-26.9854980002893 9.16979727529279 22.7596413535015
185.417142752251 25.3739977434389 -18.9103571777803
-202.302273920012 -30.264413820416 28.3662234682085
183.091412378102 -37.6206649915027 -18.4750336037591
-173.244456463171 -10.1918360610426 -13.0460751743631
182.735240206645 -12.4678978574004 -11.8878926567358
180.201784502514 18.6302613791801 -32.3962729556794
-56.3094845817529 21.1486264603153 14.3313969340151
-75.9341435640792 -1.49374327356627 -6.74030637201896
-53.9011138412296 14.9426033315395 18.9098569181547
-184.821077757905 4.59194207456925 -12.3528302311405
171.742493534571 -38.1650304302066 -25.1484510708572
156.30512044278 2.25417332292304 15.8765342853776
183.731625915994 26.0110625190886 -9.34890744149329
6.25576397336573 -3.39017342435929 20.3638551935849
-175.907721956853 10.3449739127953 4.95472575122013
7.08283858614725 8.65184993311898 0.582325674808777
-86.2082896939444 0.797266642434306 12.845424241923
-55.5295265725103 -0.791529309267857 7.03119178604356
123.236612005532 -11.6889366762873 -3.47380532719521
-89.0770985302522 19.8215929864069 10.9283120039172
-131.597363780924 8.80182235625401 -21.8519793147377
85.8744165167879 19.8563536497105 13.5407984215412
-33.3922708212143 17.9412941405279 1.49949162307154
152.495057243107 -29.9484779563019 3.66229542995079
173.625344042731 -37.4136047530072 -29.1007236378964
8.44665527269431 15.4081701349595 2.95328383129057
-38.0481873687808 12.4843255141358 -0.994974217285697
18.5274572582023 11.1386689408228 1.32874412334654
-192.185112223071 -6.23670258189315 19.5316998937088
157.545471602125 -5.38346589553659 -14.6887300044832
-202.140147662976 -22.6082896853998 29.2937619712082
19.7443540227716 -3.18009800190357 4.31880678773427
21.1692336279992 1.26889101973453 -4.55297320246446
66.4581282888765 -4.93484496238492 3.18054891363619
-84.5168273180791 22.2543921868575 6.30724471611626
-208.528680332593 -36.2933721225492 0.836603776487627
-195.133367198248 -14.3471336512733 -4.99373299726673
56.1041632028346 14.0364464596608 1.34072086436086
44.387484653456 19.5829431345839 16.8581597714849
-182.520122004151 -4.97778934234298 12.4061108330605
27.738722177355 -4.51076717050822 8.32264684047074
-200.264937810323 6.43016625997502 -24.8105625832497
185.794402730395 7.59036723884628 -12.0705475652276
20.2871695384498 18.6630037775568 19.1938795456104
-211.90282520823 -17.2881434220302 0.652866878671684
143.291203919057 -13.9512787271711 -10.0538837442816
-15.9401438052795 -2.75464611113362 14.5824093947976
49.5626841367954 5.96399970518236 -2.19982412175061
170.791348005151 -9.25661868955615 -14.0335092924454
-118.948452353163 18.5781615955627 3.84523627571626
190.447618171972 -25.7831653672675 7.41200565956771
-40.8381416773209 17.3154032022674 18.6673831804986
107.61871568129 15.3579458875346 21.1394200934235
-92.8967629887338 -2.71884073481526 -7.84561373195212
170.116949234804 -28.074932557919 13.4592417868588
-35.77134917323 20.2467508758155 16.8129824956903
-199.896056866707 -35.4192408449124 26.9011911405078
-111.436895518891 20.423563555292 -5.44255827305074
11.2218049921892 -3.33867756233351 -2.1331898142396
-193.257578673565 3.78315012648043 5.03068704549215
146.204769612225 -16.105581011487 -11.3864836476837
184.476278021791 -34.3248819891629 -27.0981891925572
-46.6233449295616 17.068152691231 18.4133465614446
-154.961629711868 19.4375922374647 -15.7626244278629
9.57477962702888 19.4790672128537 18.3536023474979
188.464474290948 21.3162390408605 -7.14776405271634
188.016608019994 -33.4809706946665 -2.81553700244372
120.506733444533 3.6152306388092 -7.15132182178069
-180.896373001253 -9.65298396043647 12.9146590477146
155.921626303155 -7.11059797776303 18.1438672656277
94.5173421985159 -12.2061750439522 12.4136699443881
165.057113876092 -12.6573515250531 20.1705318796578
-181.771703633758 -16.9735422682878 17.6744794530088
104.529097910548 16.0832511774534 20.5197632476309
155.183193742299 2.43957651876513 -15.1885872039992
-207.341248809503 -33.1006319628995 23.6116252760844
185.341871331021 11.1619066364104 5.6590210664067
-42.0687256430946 14.19635905891 20.1054005389719
100.786164024506 20.2137222403098 12.3890042948891
-191.21097153302 2.7266684196527 -28.2598163534405
186.90960043166 9.7751815840335 -12.2544139705162
-88.0280028129118 -2.00251538804313 6.35564562894501
64.0880978511494 -3.0000386279673 0.343930568371827
-168.253479313915 -16.6851172728398 -8.38363952842842
-207.633439628252 -30.6536919055279 24.6560629744568
-171.576316341365 -21.0678584962382 0.513449300428183
161.621903061951 -35.5841818592284 2.69971237487292
-129.555436605425 -3.77024291572635 2.35064864840538
-58.7486922429608 14.3849745614961 -3.98587918324767
-137.427020213139 6.27105927429689 6.18790223703034
143.735984407846 -20.814109152517 -9.2481358604565
140.760751302344 20.7960018718142 0.320951864031013
154.952496432376 7.72879897397701 -21.5192104843044
-144.067115463813 19.5879203061577 -2.84670510524353
160.361917982964 -6.35321242078201 -16.1753143644533
192.907735989277 -23.3394652021304 -10.6405524596732
-173.195689350991 26.5282195928792 -17.5175987153316
7.59438083360953 -3.75921713159706 9.02782775382297
-203.285302485923 -5.22879425163264 12.4686063552073
38.276093372066 -4.85055180527747 22.5047113551592
-209.135594762981 -21.0782572204689 -4.62157200304414
126.355144597988 2.1082156874923 -7.47677705341048
145.816628382289 3.71800828554816 18.7337520221248
-182.519445089525 -35.3509309863606 -0.690851618767344
147.142354834218 1.73396103309403 18.2977624779564
-35.0129792507131 -1.94448543342746 -2.89198558355032
143.135769322244 -23.4291261770187 7.73670227173531
165.345529972321 -10.5699720816784 19.6391608335368
29.5233758913276 -5.97156073040879 13.2582325600964
181.000873550354 1.4862333292621 -20.0754592261592
-137.252886220185 16.3336425358473 -17.4037835729623
92.4197072241409 6.18323020457387 -5.83237365734255
149.084387702568 -1.68508218476876 -11.3776151354214
39.0161069296176 12.2382418599372 1.39308673814513
151.087694006269 -20.6938967357375 -11.1071867002836
182.870233807757 9.73428096947982 -26.5798401500376
-193.858384674578 -42.6910503140099 19.9214357771024
-203.436619076595 -16.1009917060564 26.9989746145994
163.590503805469 29.4160865597394 -16.9195102126185
182.762330624539 23.1230479803533 12.5513638105579
-196.480675438027 -17.7180743803873 29.7846029465138
-93.5032191992588 16.6279351708738 12.5682414721011
185.360927181368 25.6678250037241 -10.7955530060889
-199.774089929662 10.0282764886032 -3.40449528303071
-120.360146826392 -5.77265076618084 -3.95818526129501
-134.998289320729 7.03444582793766 6.38715641047444
-11.7735883302995 -3.0787470789525 11.3805596141351
165.142065539185 -38.1147096120449 -0.489818370224751
-193.8844712717 0.747541501534599 -2.69023220931391
-18.0688413660506 -2.55254873929462 14.9819220134216
73.1565461044205 15.6192621023795 21.7873988309968
141.253701497861 -19.095920935176 -8.58746561212728
-124.579716088749 -7.16101364174645 -5.69180608113884
148.811905464049 -29.4207374772991 -0.72360204692123
155.995632450687 -22.4577605903879 -14.7089419385257
-43.2456286672967 -1.2341694821552 8.35309351802512
26.0708199105878 -4.46044001223067 8.55855398093723
-140.835160539248 -18.6050938784275 -17.8577926657043
115.308486471506 16.3628369222923 -4.37968368114632
167.606630551259 28.5783814350593 -1.71128278824128
-181.248519286364 26.553341048766 -13.8746922633696
186.315753041495 8.81993807881004 -17.5971471797216
-163.606363155778 19.9659933179125 -21.1175566942487
-137.161577399095 20.3838452915164 -5.99126697489883
-200.271453781526 -39.6295916641743 15.444705999525
72.7177114139628 18.8742188771047 6.23206641209652
-78.9627343940122 14.1621361528657 -9.64713532217782
178.540755892292 14.8534318100272 16.5642127694962
-195.248898096365 -20.6128469103454 -10.2372641015578
11.6827952059941 20.693021260348 8.29362858122376
187.475197004929 -23.0815971475502 14.5690079398989
-93.6236917030936 9.46853843054346 14.2834535032068
74.6387538816067 14.201667826308 -0.312256805553131
-98.7095792318555 8.81633943342933 13.227093838508
-150.123537204555 -12.6968036758361 -21.9654901008887
-122.556038308442 -7.20179038089702 -6.92734521722678
-87.8461601840346 18.3043213178098 -8.56435767545394
-55.0390346796721 22.4176124300033 3.32886332543911
-198.624357526389 -42.6724073914975 11.9019726094142
59.1997759419773 -2.8196349043107 -0.122676213920288
-21.7008047787094 -2.98589746801423 -1.59802487135052
177.324747274264 28.4396542630346 -17.2996428662174
124.840913070215 8.81959036456535 -9.36429537288838
176.513176136413 -8.24717572612588 18.9153526827407
-29.6753433357457 -2.14295901103746 8.33017892394792
-133.363585363794 9.49236255964867 5.90904996067787
148.801143679094 19.9134723985557 16.6442031036196
-147.997828780252 -11.0983937172383 -4.1779683373436
-89.2610722543557 12.341857072649 14.9085767210253
1.66238215793278 -3.77006290613053 -1.69292462225765
94.9521307077364 12.8816426697419 23.5229209534902
-11.2616277776659 22.3944740552996 12.7371458739353
-203.614306087874 -14.9788499398901 -5.98621943413142
78.7453683763217 -0.00714073904552901 -3.02420598969492
61.5586703725751 -8.41874777870348 10.8655332312428
173.580517361645 6.5421763083781 -31.5454838963864
-193.948141416105 3.30523658050218 3.29980959819138
-9.04334356867542 -3.24620467893115 12.1573900476053
-203.034325026118 -39.0317055448141 13.2129538452256
77.1881786491318 9.89635976101269 -3.23410557414473
-64.2122219091541 9.58121326467286 -7.0238274570515
20.5471901698944 12.9373547875961 1.98532120943155
50.2018312247453 16.5879227096468 3.69950679830197
-159.975645705127 20.814614230497 -15.6886511196486
-164.976391399157 -5.80628024929191 7.02673076363958
181.76368886057 -30.3723571946911 8.33918924978305
186.767692338344 11.5910251097973 1.90551128647623
16.5888390027334 -5.04957139534234 14.8477700196981
21.7906135913795 -0.595110115813371 24.9355564285501
60.8503999786036 15.1783274593687 22.5586259440475
181.46647094195 -36.6600090996671 -13.7848868072152
-121.587870953207 3.06959802804023 -18.4264602704301
-46.0461705041206 5.7874973776672 20.8697869198379
167.48589267401 25.0322299753098 -28.1859345949453
-173.950390357696 18.0492544387076 -27.8001463042823
80.3247614918241 -9.71962208545946 17.6416953172108
148.190673927434 -22.0494551894666 -10.4273907539672
-174.184439935595 24.1921020287678 -21.5908265697376
-176.148401888085 -6.15574497472484 -15.2994221409028
-100.631010321121 6.59936246863901 12.5195295974543
95.039434221043 15.7032163633962 21.1116101463777
169.207472686869 -37.5331451072438 -23.1443409850401
107.156369252961 12.5516064175955 -6.73524263155265
-200.943983040482 -18.7446791424434 -9.17006405131668
170.499939061705 -5.33727758483764 19.2015272772076
-94.9545655375738 19.1571093930433 10.2510768130178
-184.158678215126 2.41277436657742 -11.5605471513718
81.1523270188147 19.906442307652 9.02122126486985
139.909064987147 -18.209238383174 -8.54414181101503
-195.652422162697 18.2952646497827 -14.2836986635561
61.2296612450194 -2.55104058634323 -0.646339824287061
-56.6950341180971 5.48538087444704 -7.79280188484598
-208.966841899303 -12.0962638009098 19.0337140799737
99.3053771693497 17.7379931124874 1.44260555967895
139.540947000337 -13.2814817440167 -8.65303063925563
184.973936614797 25.5452725778805 -6.18856286034931
-5.11310238990902 -3.44848432289424 16.0637513284065
-199.664235194477 9.3762655796651 -5.55925045842669
98.605798343847 2.18355140707523 -4.5732427596846
192.841254119216 -30.0804541620488 -1.86433021477435
-185.38820443269 8.85056183675091 -30.5961593683306
133.034467662769 -3.61582353568637 -6.96936280449773
125.672095244671 16.2276478820756 -7.55914803779054
144.001511980748 -8.27686845486662 -9.29150487114152
161.179028279013 -21.6788513992866 17.3672443349251
10.2871116923236 19.6194573769231 6.35311511159226
150.978917325518 21.9645088687006 -7.64030467301123
100.257843311137 -4.80065656100088 23.7876627756465
-182.819938292686 1.78980067392115 -13.5774493028444
162.410068702692 -33.1854054024785 5.95221621793133
121.415741397373 -4.89670196625118 -5.01962566874476
121.256020089114 -16.6523672257058 3.23527188479456
20.5598052590064 -4.68890305306302 10.3817429883476
162.53297364254 27.319688073921 -3.05820906955882
188.56103734899 -30.5584803611884 5.48240296756184
60.3801197211706 -4.18836586875489 2.83891662796704
-9.70979165871201 -0.672584785352782 -4.54862111249103
68.9865910074258 1.79605163922106 -4.25170802189564
40.2520309943039 -6.0298510813397 20.7804246591212
-43.7378222813016 -1.85611142281369 -2.72719655545485
58.2280757347088 20.2453605439645 12.3221535376145
26.416521571189 -3.53185287505698 1.53645232410473
132.004512356939 20.5570377986731 2.75348279550587
-23.1570849215552 11.5956266886731 22.4110438615957
127.067776555251 -16.3478190586831 13.4732587424104
43.6993374538381 -3.46100789257781 24.2433897348711
-188.768121485732 -21.7473155243679 28.734670243852
187.875659384938 -17.8512913226806 -20.7198897888542
-132.760368910593 20.5913959186396 -3.86424611256017
-89.6563644294705 5.47179410110623 14.3393359824574
