-153.620100805333 -17.6219729954944 -6.20138763424115
-192.16515343465 -34.7566703664629 8.62557301211465
97.92802324608 14.29247974236 -10.7735035108062
-59.2446860102975 -9.86787639299295 5.54877408735262
207.900743489024 -23.2002132481919 15.9856551770471
-212.584849103677 -23.8219518335544 5.67948554401859
150.956992097988 -11.4424778162068 10.2875586566381
-190.521748589051 -30.3848703209686 18.0967782238484
201.136316317645 -31.1667472216843 26.9173823176108
-86.6016866311358 -10.6445994487404 -19.056965219961
118.499227615972 -17.2280854209761 -4.01090196637111
-208.545731711772 -26.7111258200136 7.43287340397399
-100.956902965695 -13.7299279031454 10.3316910008674
-191.699111910346 -0.110028031874523 12.6829266899306
-174.088716363768 -29.9551357695733 10.0709396019565
87.3607421754921 11.2481116608167 -6.07897187437428
-191.63226371707 -11.3211522323394 28.7666486962042
173.413886312353 -23.1488002356364 26.3432924453837
-127.714001878747 6.51826473744803 0.25166295386102
-203.12592387975 46.623606727723 4.46988541639379
-52.0766582164281 0.721349900074075 -20.4984111364805
-81.4962639833423 -23.4258223174996 -3.85506030485407
177.889304897161 34.5104525435445 -2.58316038114845
-172.250663337411 -21.7896651581545 -4.6885701758793
-206.790933424541 -12.3742256142213 -0.0809639619962273
-225.249516514644 33.9846592224947 5.44655576295508
-213.854674827133 -5.7917055378948 16.2112634537832
105.478276369517 -0.775207970819519 3.48083940102766
196.247496869035 6.82146332841105 11.2944335982628
-161.95484572408 -3.16911065098638 20.3273297708749
139.43532420012 13.7391638210337 0.89804723832321
-62.2157884818036 -8.34670956810723 6.5905474370495
-153.132342267656 11.5746006908505 0.84135236182015
22.0486808332101 -4.73643545498037 -24.501975152661
-96.9894810940757 -19.5475779541324 -12.821857265939
200.442432470669 37.5922199932332 31.6775423977207
132.063934656832 -11.4356184713973 -20.7332827479995
199.838204682006 -5.72006612273449 18.5798171761275
166.955873388706 7.90847951681387 9.67442972452632
160.87340395326 -7.04732366488503 10.8201308328591
-118.74937239097 3.981748522461 5.56626995959269
36.726901331354 -16.4855291357688 -18.9269121426852
127.653437380276 16.2021763801913 -5.99883892026407
-187.344086724301 -32.925124671194 0.930369397758619
21.3712631291433 -5.7214446205296 3.06493681908317
-190.161025104876 32.2467414569924 -16.3181704190313
122.699993470882 -15.751586107914 0.366341725489778
-197.506969547214 46.6777085372505 -5.39322718751791
-58.9640431574136 -20.4830211552209 -3.46323720614132
-173.702586775104 9.86611252208155 12.6484893791516
-194.768079223958 -1.17986226328005 12.3516503996703
-197.929720875878 0.844439188453195 -11.4494292996562
77.612572256966 -4.32460034931119 -24.2203146673335
-186.928615227843 24.2436180628865 -6.14877106755882
123.220324848699 -14.6427541667464 2.11666079463606
-207.682099207776 48.2322647946556 -3.368480462107
197.803775635234 12.7379809169509 16.1258760893809
96.4669859379805 4.33367095345997 1.41446571969918
137.526733933388 -12.7818106151779 -19.9126435047418
195.906801384799 0.570503673815599 9.25031667946938
66.6740417660449 -16.2045708295032 -6.33049990378586
-123.380289854281 -0.949740629620767 -7.50255386250384
-204.655551444735 -8.8925045883502 25.9123916647702
212.75484947069 29.1522019483633 15.9255463734431
-200.255660622266 17.6668140038218 -22.4949457695463
161.464467120096 20.9306838341401 6.65193573574628
74.2244710986355 -16.9308680001369 -7.98962981815118
-23.3923500241702 -13.0347247566931 -22.4973970306739
79.5885238398127 11.7356555215523 -7.68100692018585
176.349887126745 -24.9214496808472 30.1990159292175
132.152444476185 13.9113866351734 -16.5207078729221
8.82233483873445 -6.32035796780354 3.12326059864261
-102.070937891563 -8.0009886585541 -16.9131268578006
162.244153208246 -11.449898771614 -19.8244489232452
173.479394101854 -13.7005436026218 25.4010053939719
-165.039304248088 -11.8710143311626 22.6065091227256
-118.32543598339 -5.71673578725224 -12.9788622513842
-133.725700165284 -19.9547897038455 -6.40908912640952
-167.085264120589 20.4625147987529 3.13948537052159
185.082006399384 28.1021598192614 -12.0016632068436
158.55776630578 1.87873058813051 7.31215380470079
-145.123352968468 -9.01453283170485 -8.50609257061802
184.27552997068 42.8344044590863 6.98609911654299
-207.17027804853 1.02008339783549 -4.97707667557253
190.070545587932 1.45835002664145 12.8563246903111
202.408718836187 -32.1400575197018 9.2658193914649
174.908202962462 -30.5044613707772 8.788242116467
-42.1958398758715 -0.975657552223043 1.27883602768936
53.0443911432836 7.44957243894418 -5.20413060147418
-150.152400097005 -18.0761884376386 -6.2899566272833
-189.069127338808 28.7623459747404 -10.998716546217
192.866520173614 30.6711539164876 35.0397219185926
-206.651254806157 47.4269453256231 -10.6680338658716
-99.0322842450276 0.0431755666857152 -10.6079715153114
-188.354664481487 21.6994481013148 5.01848429630063
127.806356375085 -17.6781944054565 -4.29873634217241
25.9698132496033 1.42437545471804 0.210488777594668
176.628302044022 -31.2648180473021 7.09317210583657
49.7577405955656 -4.29259725334973 -24.4430286495509
-181.782353900654 -34.5570554891844 1.9569553149097
-59.2164427809822 -16.6087731382253 -0.168579927835503
-152.666242034584 -23.4488039233568 0.815541890537267
-0.690285420084821 -8.72567471487462 1.33980994254589
126.054931389425 -16.8682990750903 -1.56179604414611
-133.883546694266 6.92175170679513 -0.764035667605635
136.086935206463 10.6660313678848 1.71341033492047
-110.903058574095 -23.2497766890602 -4.66844868172608
-177.051519097609 -31.7033335033459 2.49869058351079
173.553264634 -12.8952481421554 -20.5632339598044
-208.081951504498 -26.4294954748824 13.5481817303297
95.1427616671449 12.8856803384176 -7.28084775855482
3.02707961459217 -14.8132474474361 -21.7273599715588
-102.646151859886 3.57157965223905 -3.17966178436129
190.353519232124 -32.0134524248442 2.10788165015163
-21.1539482528372 -13.6499339827036 -22.2775428373994
114.798504865212 14.7219872385998 -15.0800203327844
-37.253370157953 4.13300056198199 -12.7551892501319
-119.899157646211 1.91565516834466 -4.94997889431801
-209.38015225336 5.67295678040424 -13.9152532793123
-200.181119271078 -6.36793547813295 25.4893429597935
-198.140718873364 38.2161615628807 12.4141455229989
-83.6075641901164 -7.17540991573643 8.34852824096842
-3.1400806556838 -16.1116896902227 -5.46414509135067
126.054820975031 -7.34540497805606 5.95774518202303
185.771314457222 -13.1170410526736 32.3226238912225
-206.736555874579 -27.8042090079101 5.59321349931363
-115.646902911172 -19.4588129526952 -9.83937178376782
149.386918641413 19.8449588587826 -1.35656788952869
200.723584573263 20.0439293596968 32.5755853153106
-163.717892482188 -3.03748152217613 20.6972531378208
9.46302068920544 1.77791037760131 -2.55946278955473
-55.6366149155815 -20.6625106378467 -16.5543331147945
-206.433072247807 -11.1570506833268 3.39741707673606
-208.080551924286 4.26068952798426 -11.8399983172782
89.9411727568927 13.120914663393 -9.39573253353313
-79.293958294542 -0.935082147790768 -17.0012040497274
-228.649571814361 29.0135273244889 -3.4174193970754
-219.128816474794 11.4183202957399 4.39454905161623
193.353274650153 -31.1324364991253 25.9638346623593
200.229176249837 40.0281081141435 12.2221414973124
174.45263831491 -24.4896677259682 27.7540835033218
-75.3192271707269 -0.874020967145872 -17.9917258185274
170.222159354782 -27.9769983323661 11.135103663353
-177.118323286688 5.6024268710409 -7.66112341633292
-190.576765767032 41.2866619301986 0.416794782473183
-112.67614200219 -3.9639608878995 -12.8142434045241
209.828974735829 20.5783555312486 21.9969534599151
-212.295665435529 7.17891404597899 -2.60102241440761
-93.3891280164866 3.22244973017742 -2.48397321646408
-225.110372600367 23.8296499338103 -14.795314424754
-171.58636223757 4.91392924936824 18.4779270354424
23.1494558265145 7.8448496003838 -17.6863574136116
204.59282624943 -33.6980155264785 17.9123175117504
156.170029217765 -20.1944559869302 -2.07773988051345
-177.009403309738 -9.06505918763532 -7.27123010989715
120.429388106488 -12.637604742919 3.76375574956929
170.041339770683 -29.1201550373089 14.5952850018956
-132.980823457533 5.01645783352666 -3.08508005637334
-152.737353480202 7.2913810136198 -2.51329185108338
-158.140042193896 22.9448840034987 1.74613014433814
196.964445161145 13.3157617299066 -18.5315857264355
-55.5601145714833 -16.7530836759884 -19.6498048613863
-188.989691890333 38.7610291564186 -2.44372516603227
-103.921873354767 -24.0822969348316 -2.38361800697143
197.717141214761 -32.4124005774003 11.1422582458384
-19.1919063998391 5.3695621826947 -16.7758789566686
-160.82202947596 -1.29604505949423 -6.79701446682743
-60.2021297545703 -0.555755911256389 2.02018092386878
182.700420302756 -33.1210763744112 20.7742876974229
-194.055342784348 33.1658103045289 12.5470763409208
76.2602171869019 -14.4764214117405 -19.461016453728
-180.931246876009 8.33981705957377 -8.67884721381543
-198.047232623857 -8.84264786274781 -10.3359657389558
-198.603205731494 -12.3260262667581 -10.6398662854731
-47.5573266645798 -8.16803768600719 5.14260529920797
-133.501297002534 -0.117372381062754 13.1079369129773
184.556982645412 41.58003691411 18.9119262086057
100.300764567227 -12.0510719494144 -20.9719434007764
-201.424015459823 -29.59443473074 11.4963023986762
-205.009089494488 12.3200846299458 11.2351908229907
197.772367745963 36.6662308550965 -2.39102726184542
202.066754915455 32.3299276074736 -6.17926342967147
202.41157891448 24.7138822872928 32.4267049000184
152.663288132973 -1.47587476665427 -19.124814828783
128.200561082966 -16.5931388205902 -0.388824710560207
-3.09232138505353 0.676086035499631 -0.605961643435195
-206.352041823303 -2.05365605190058 -2.54142808264928
-199.098331852222 5.5203245196761 -13.9081369589849
175.0829460353 -5.10986920193997 17.1261510181963
126.35117731368 -16.0784053114593 0.356722697609847
-196.302266751272 -4.20144078325732 23.6444323965875
200.374133621967 -27.5549764810968 -13.5134924192219
-205.61603625287 39.4163305387383 13.3456558375809
196.289244316463 1.92610619457746 -12.3985377940968
-159.519662610167 -25.32466314233 5.95772916914142
174.30524246406 -26.4188524813773 -2.67221074753159
-11.6399764074331 4.34682691747398 -20.7598111183699
165.337311627356 -21.8607590835772 -6.43930503471196
-198.951381887933 21.8791573925614 14.282528553271
190.009529765264 -35.1284798750722 12.453524174722
8.94027512593657 -10.9008258269941 -1.33854196401926
19.6784589410015 -2.27394437702565 2.93900755672199
132.261041494327 -1.14370041034502 5.39985642447327
-202.78454093051 38.7937063604628 -21.4453673433149
164.776227460661 -23.2307755105668 4.13405090510787
23.6411514747975 7.79019750995031 -11.8246505530534
-189.919447724413 -34.113037747192 3.39804356033384
-142.895560090199 1.68256858612521 -4.62047061124659
-179.131362127351 -25.987976280122 -4.84931042828015
181.105834345259 36.9321555049843 26.5950428727964
7.82179539398657 -3.27132580450106 2.78206508851214
-182.21099913698 -2.40751622057021 24.665447768644
213.459830536091 32.1020539528594 3.70367433383756
-210.207782395793 -1.58717166421213 20.7947029994309
-182.979116179391 -17.382595432004 -5.96851251767791
158.742939981601 10.4235737084085 7.26385489545344
-153.421487558234 4.25870510770029 -3.63559195562741
64.2742291974302 1.9082572917931 -23.6182029396734
167.506094171684 27.587432424408 0.923014342044041
-211.588741630995 12.6867477539426 7.97794749735759
-92.8559999573735 -6.02210778882014 8.95030142485303
-177.694560010623 9.07997966513225 11.0809691282129
180.453832732557 -32.7407403836298 19.7592584503395
4.1251996062186 -17.9031657981454 -7.60872729276214
177.478654691918 -12.3241958160408 -20.7141636375557
123.83564606653 12.7354808558849 -17.5485109235314
211.175599021846 14.3947070070165 5.62156648704483
176.981298036003 -6.50042851971418 21.9340518690729
187.970699750231 39.1394167532516 32.3685605636842
-5.52188399515509 -1.29407769198177 2.50740369525846
181.585132819496 41.7034915832175 3.77319596575791
-190.9155736779 12.3805256004064 -12.6377537007283
159.71267479295 2.33877835229324 -17.7025666234346
179.038307971751 -33.9167864275188 10.6475343244829
124.360144325621 -17.9673708696566 -6.92563594122601
-195.283571627614 -15.4084398095888 -11.3209895672891
-196.228360879534 5.11466746507846 -12.9737572361247
-33.2806243023283 4.46344027678875 -14.0340135454584
-210.725784207051 34.6293480399656 15.3660465460831
187.545634269464 -20.9502211041317 -24.860538118048
-192.417797198419 39.9242348221626 6.27207974383594
78.6213732291305 -4.26056363319239 3.80816238590897
-109.558347539028 0.670441897827516 -7.62515632309479
148.661420680237 -6.65593771917637 8.47311819487654
-171.678604710605 8.76323279142089 15.30682321417
-187.003730705143 23.6404326133173 -8.24983659693443
161.022259603034 -11.5550740030548 12.8196740652261
-13.444619992238 -11.8257422044382 -1.54911792803386
-194.712687514082 20.6110462267971 -20.5590375529286
120.634910704943 -15.2099803320451 1.02559770308212
121.776737059318 -8.73914558751159 5.65013804298171
-197.61543441845 19.9019916509888 12.5641590057602
-32.8197155211022 -16.5275430679791 -3.56139189192208
174.16596614996 -22.4159490510126 -15.8932218134855
206.171335105177 -21.4223646227041 21.8568238601918
186.540041748594 -2.00717709087733 -17.6057323346214
108.088209918362 -17.6437939365719 -9.67119508753254
160.8231801548 -13.405561574398 13.5578403370493
-9.98735088493435 5.73726555862288 -12.3277924470965
-123.469075598687 -13.4685576959232 15.1953693115916
-170.071714604854 -28.0348742565676 9.75239348904378
140.917724129137 -18.4655655911808 -8.35226464870431
-202.289013777928 48.2131354921783 -4.92277937566554
-202.385588651916 32.3192849237 16.305534053773
181.023415156592 -1.46278980923722 -15.9226510108303
196.38015650185 34.2014273729813 -5.91657804239963
-71.2922317811457 -21.4192128077848 -14.1523726652993
-194.955646446011 2.82130473158358 11.4083912001622
190.900175809273 15.9168121837489 -17.6855877926223
50.3106173516839 -7.66683031243337 2.10475559768045
204.869906003012 9.19295320584044 -6.59099912369152
195.223273613906 -16.0456254232287 31.8902791326085
126.274626771833 7.93703164297002 1.32764894380839
-202.000330585853 26.1618334297907 16.7439448967893
-138.697537671784 -18.4494171238829 15.4420744781081
194.218374322238 14.9611749421008 20.4016299523458
174.176359872894 -30.8148840602557 17.7735217608244
66.4577482716633 -15.5602381248536 -18.2634486218933
108.760836474637 14.8252106971858 -7.9990858535061
-69.6849232681942 -9.49123150725027 -21.4544476454507
-204.029968364846 10.2452656689692 10.3317996385861
162.719101895917 22.6021696250772 6.13024861184056
196.713403215154 -23.4165467497598 -20.1662067261867
194.573983842274 34.4337885584451 -6.48596427136309
-218.695249733141 29.7297510878084 -21.6135365950755
4.28227857337769 1.61669942586626 -2.67159716700131
87.9181699502394 -5.6971143444521 -24.3223108891695
143.089406534479 -0.0269916775856864 -20.246656494876
-215.7204951199 -8.84909347673644 21.8943811525568
8.5735278133278 0.509714896906874 -23.961447951913
-131.873267158578 1.54281799532493 -4.05646586006354
188.408803367913 5.10249636353743 -16.0967518301418
-181.587396352443 -14.6036408305536 26.621924942098
74.6262144973718 3.50134403969456 -0.0303225115202525
177.986242117982 -8.70223008169594 -19.3795260748891
40.7496866929651 -18.1135966991443 -10.6271559001217
-138.696728845788 -20.2719881796599 -5.40043494780169
-213.079803155775 -21.3346919733546 12.3778999104727
182.765971469565 -6.63414800710541 25.9266341606456
-150.375261322283 -23.2590564466445 12.2397865268
203.130440127866 38.4560401830193 29.2034684459265
161.543570672889 -21.8342779240514 9.78698629527701
-199.26632094468 -10.8008961394922 -9.86512949053105
202.887968182422 12.9979189317512 16.9690772563342
135.677847171567 17.7552027740247 -7.15093921022584
80.2547975926181 -16.5413342206715 -15.7591326210322
63.1713841369243 -0.844605804820707 2.53239182028106
171.609005920017 3.1266794825442 11.5204665450035
206.566897733003 -30.610267893714 16.249507480842
-186.969178655363 3.3925941984521 -9.88132534973648
-206.277975605967 -7.87537421953037 27.2370767877432
-212.728955650626 11.3891055533195 4.03903923391513
108.645713649749 -9.05812478949398 4.21284209017798
-202.651445165241 16.5064859325925 13.5286768586122
-165.143378359516 12.7370979832669 -1.66092871302463
88.9412075709499 -2.13394226031984 3.78616038690761
-55.3078579608043 -23.2332384974601 -9.98895965898159
90.0877687827421 3.54694552690013 -22.8810913717611
-61.2954049850763 -22.6035044026626 -13.1307881449281
180.604427123854 42.7752557262515 12.4702589989179
179.05914384324 4.82754823978445 -16.0792457576425
-46.8180397983506 0.875074388370603 -21.2540966096424
181.351237807269 9.60252598375835 17.0150695177959
-195.190264168123 37.3025278820025 11.0612556587862
138.654736463197 -16.8484378411596 2.87659090613979
184.569711339424 -6.77133377027084 24.7578121202567
209.87376514872 34.9095893399865 22.9347160072807
-210.456886106056 -20.0549130199342 -2.72467809411162
-202.373189405716 10.7522883662479 -18.6431709150811
67.4842875960085 2.60264673854009 -23.4478023711911
-196.722996861452 36.882167096699 12.329328648047
194.950835759372 -27.3093026107038 33.2861345418266
186.094828898811 -18.4922005383423 34.2074289354278
168.549706703422 -14.4971888188577 18.079014160233
89.8614924844823 -4.21882267463849 -24.2842599188644
192.058870499954 42.5795059728022 4.37032211792719
-107.294747243359 3.96911783561898 -1.6842930402955
36.6972872925267 -6.14830109065209 -24.327619279489
-60.2139736842651 -4.39400761509188 5.07926477083191
-130.296757012149 -14.115225184462 16.2956399432888
130.069170242507 6.19515801034445 -20.1418545770718
-206.543431868955 48.9426168018503 -3.91747391881441
133.739787737079 2.28777662483422 -20.7308119992654
46.0938043319835 7.88167337064557 -20.205469092872
-103.102769820926 1.1094171829403 5.8340678518397
-178.58306228531 -32.8097254163053 3.05846560844808
205.557174815925 35.1333018145746 0.844641545089619
-208.753449201255 3.96974692092396 0.0724048314028699
191.158324700165 11.0729862820427 15.4380143350445
-20.414808081529 -20.7517897689609 -9.85782929320781
-85.2208248317617 -7.25729346306296 -19.6910144673322
-201.530321931021 39.7920307086115 12.4798457329294
-216.124194145473 33.1130397361998 14.2953831831157
-87.8692442674128 -13.548331159513 7.71540388011725
-65.2895919414469 -1.37671277290133 3.77373331597727
152.382605003721 11.1228939218061 4.976063325542
-122.319840062305 -3.32196061797337 -10.4672444519137
-197.278651004839 -9.9529432660928 28.0133138715893
-224.318906727949 14.2637094212438 -4.84144990842829
200.320559823099 18.0439140724163 31.7418718495714
108.612841162011 -6.60240643904979 -23.0289911418079
-214.1332492805 34.0681556038897 -22.7878589615992
-134.964897337726 5.95436146861557 -2.06255636512745
-207.655251378552 4.9969085139342 -13.5337931610751
-4.89348769440556 0.637462026719055 -1.3225591526608
148.143393715089 19.5809920466104 -2.27819456466038
204.75719622805 -24.6174371784221 24.2368513287361
159.015756844143 -14.5357931701215 13.07953077554
205.155780916867 -15.2903843090945 20.9486140570354
206.685608632269 -19.7985618640912 0.886490591152306
118.676455069482 4.03946098560632 2.76866401219982
-174.542035848305 -8.56233231331855 -6.81263337025039
194.440417239278 -9.90452055806231 27.905804761132
173.227320593779 -19.1095802222559 26.9128134495712
-85.4406631506336 -20.3223661683552 -13.9098425953612
182.991575553339 42.9593522722468 8.64934471765068
-30.2279587269488 -1.87300383852089 2.69346569100725
-45.7579673275157 -11.8000340908414 1.44312671629374
166.620418384804 25.0574615941922 -5.92293504325234
201.694031616238 13.6600755978044 18.4911390317817
-64.0126111138224 -19.4347459251393 -1.67129375440132
-180.158274678565 2.24295374958522 20.0118207928381
135.682709508026 5.2550696941113 3.634659500342
135.771254998273 -13.4533487187142 6.10886603087067
-145.76528733893 -10.7335447203977 19.5452113987693
-157.778338092074 -23.7072258013874 0.0780712990447556
-190.664868335972 37.7433572027703 -13.3525750834242
-57.1952885336122 -21.7444871446394 -5.30856957826821
-76.5675853634475 2.76696648929275 -4.51122383194484
120.833158256476 13.4517157639629 -16.9238702585108
-179.471127159683 -33.4490842785227 5.76868296217249
-17.7228803865456 -20.4870866062858 -9.80210705389766
13.0606297754013 -6.62786303038373 -24.337258029852
178.269826592438 -26.4577428940902 -10.062908102075
-210.230183511738 -10.9212400199168 11.9046066428239
170.950479077974 -20.7321212763805 21.6377849081431
-35.180603136826 4.15720931351189 -11.7446754464617
203.482356643106 12.7000176333014 19.7499992911292
-206.603204923283 -26.8799474732062 1.08994228415534
191.271409970654 36.8069914676878 -5.0258013279803
-64.4640663879227 -15.8000746299999 -19.559124449556
-168.126220498703 1.64716174588793 19.4836800753193
210.601672928516 32.683009080264 22.2160726027924
33.745918054502 5.37624269618527 -6.54412543239338
188.916176789379 2.6378539963565 13.6047425083513
-77.5194478147642 -1.56502259551768 4.89949136869256
183.056123673807 42.0253160466299 16.680913619181
-172.0168097733 -27.4930143024341 -1.18054612323057
-83.7836860060111 -4.42450827340032 -19.4908369537295
178.263766065779 -28.2278568604537 24.8386167270185
41.681952878784 3.26567699713293 -2.46431779507263
-132.605655061503 7.06700993908321 4.90691041249417
-49.9539088051514 1.45635772062296 -3.205577335577
177.376344195938 22.4636985997525 24.7715314217618
170.037948756242 -21.3479473889762 19.9610687096148
-178.27412904639 -31.4695212927666 0.299668797061095
165.944103349739 10.2412132658296 9.45181545001782
-204.789503516503 -18.6254925280506 26.981551443691
173.11067633648 -15.3473252019999 25.5494623273448
204.858945587482 -26.5228585830675 -5.05402807933476
161.712249361976 2.43405801138118 -17.3335269304495
102.939852570197 -0.694703284120274 3.39044555498094
191.840769489066 -34.1441269528354 8.45979747320787
-147.330131102465 -8.59432712962101 18.9646920285983
-199.208386745434 -18.016125292847 -9.24431395328299
-226.389178525108 36.2303142555923 -7.97235988369929
39.1636823863207 5.94250573317192 -21.7234182801367
-31.992767861115 0.834576094947459 -2.96078467820662
-194.928734374755 -11.3254724159518 28.6268148271747
109.60847913486 -15.2304349166631 -0.357129482447373
-171.308276789948 6.4281688726634 17.2342062986449
200.021257390416 -9.22167072808021 22.9527900901508
100.322422887924 -0.269443580035024 -23.3948923038335
-139.079899575472 1.62124141223942 13.3053697768135
-214.890028070854 -14.7628741332317 10.047397504219
152.67561293506 3.41658254286276 5.99882698798914
58.3240520721403 -12.1378981445364 -22.0827132570156
-209.643719377738 -3.40236244545452 17.4122006659113
150.195798040106 -0.977877279119894 -19.3952700106785
-46.8012286279335 -18.4826260124114 -19.0171515166661
193.253760675562 -27.9691427392707 -16.9073492641099
174.421727730324 -26.7067296265591 -0.647794624429711
95.0552956401204 9.66883531356545 -2.28816592719481
-211.98567120091 -20.7505887363915 2.44692075424092
73.7967594819189 -7.40550945935413 2.50693049094958
-129.220689636305 4.09605574538287 8.61700422177943
-200.446149653902 -25.6596520692164 23.992726188343
159.380536347651 -21.3979920480081 7.80360069064147
-209.182059055061 18.8979601628855 -23.4520119804304
-15.024580185492 -19.5647955807457 -8.45257057420901
84.0498887597343 -1.98541749654137 -24.209471187742
200.142143565359 29.0862855270835 33.4122691561427
-201.931087624978 -9.10146184773119 10.4847324049076
-142.290410424038 -8.44519600180311 -9.03574103836509
161.744628823388 -20.5623859767266 -8.4382705101532
164.938798012329 13.6927206473929 10.2085869271428
154.225313970767 -19.4522592478223 -8.10798216278588
-193.755432563324 -3.09594858582468 20.2180941037131
-174.454039385371 -23.470012433567 -5.79746170714439
-179.062163382518 0.353823759358025 -8.08761420986785
-185.790813913311 -21.2821679960067 26.2281469120294
-206.64668084949 35.8758333508235 -23.4516929895845
-206.124592217117 -26.9041523300041 14.825161026454
187.946530215221 11.6120143867575 16.4531193903939
122.448435947498 6.07609948870188 -20.6782169282829
169.897839996438 30.4505060021072 4.121716831752
193.470151317883 36.2431551725152 34.0238664909257
36.7660152855044 -3.22971165287617 -24.4383269215498
182.916099838428 -16.7445317591922 -23.3398863099967
60.5846316529808 -6.40235473577738 2.64926390235717
-214.100888825282 -13.3396671519173 9.75839532843273
-181.931922211993 -20.2047144273631 26.2238419089099
-25.6012709569996 4.38520538191673 -18.547610221444
-207.983313272834 2.51018382884287 -4.21729725511324
-132.076932005293 -22.4652950170695 -2.35759726800095
-173.718212735356 -26.4535339863835 17.9473897623217
-203.854842680211 -22.5094220087515 24.9733738279783
-160.903971432573 7.81284030578081 16.4320938339816
97.8565451509736 10.1132752608242 -2.6523421996472
191.130447604917 40.772397394985 3.44805898918054
176.806775192955 -17.906630886247 -21.6433140375949
169.609585949798 -27.9069136722908 16.149476070104
-181.550561028616 -17.1270011466197 26.348785295069
64.298445790341 10.9218134988446 -7.14138601649692
131.797954886568 -15.0505077791448 3.61996102357208
201.859936057566 10.4720412816997 13.2124272492628
64.3088466304382 -6.85891785560342 -24.0317470315542
197.029323622642 -29.9406825033624 -4.5824228522285
-95.5951975068826 1.95038044745738 -8.04913973883802
-146.668480173209 2.1313642107423 14.1425880007597
191.499355265643 -26.7821866810105 -20.5690150239981
-185.6494753968 -0.827803383239548 -9.03376729686706
-186.339914520494 16.8314144690211 -9.87780273231778
192.72051567074 16.8734978815285 32.5006328969754
-106.250776044143 -3.5975338728206 -14.0011490818357
61.5991908985774 10.3412517795949 -6.50886113791105
184.140561403757 1.89871021635315 16.3475260268406
61.2721901938824 11.0208595526256 -12.7580679323654
-187.910758786026 -22.3930192142967 -6.18476309594142
178.493541536123 -32.0033036920639 6.45507874767092
16.6374695056191 -19.7150136634269 -14.1347003837869
206.240345465197 -14.9358041913724 -2.42585706478952
-190.674857421612 -19.2750975981187 -6.69989818333779
-183.089261214656 4.34410381743015 -9.15367537107555
-215.636758815999 45.2309454091712 4.09778188203821
-199.877290044576 13.9952213982266 -20.4661494759523
-175.858056447652 -31.0092864932274 8.5671840759835
134.499895674048 -8.96885896984668 -21.5004705831804
-206.513476173221 -11.6561224412429 7.43302563471798
-19.2753678480056 -0.58961401346695 0.00639541338230408
186.999418705496 1.89645865659347 15.0364975605778
135.23113572184 -18.1550456633138 -5.46147101718237
-193.528362438038 -4.50768651356007 14.2095263773172
183.406092525741 -31.0330028335424 22.8772832288141
-79.261789982317 1.87123267057634 -0.278623492073824
-148.688206061429 17.7893651944816 3.66191255488818
-203.512228863717 -9.73862726123831 27.5147805035677
206.252978593083 32.3532675111406 -4.49220087367479
-193.898382165324 44.6560216054011 -5.39207997929403
-198.210784574002 45.0300330324089 4.42355796979914
-72.277243702042 0.297689651290593 1.64909589550449
-201.286983464102 44.4411772317022 7.52551041542502
172.681584024913 35.1528197319473 7.49790417948377
-208.594010965793 -26.9032314323135 4.61073373873099
209.492923138843 37.9444272805672 20.9059392591961
181.110606912235 -16.6597828625041 -22.7141003460776
-192.951863150195 -26.6855560743175 -2.25855472369262
162.906996880208 5.39440410983102 -17.1447636072256
-57.3663010704557 -23.1268934690155 -11.4578706024578
-205.679233871132 44.6042311908225 -15.457438319454
-63.1081029473459 -0.98004937568129 3.01643423881811
197.626061161675 -30.708320487285 8.36647244304843
193.799768171814 4.18427999018608 -15.0757997175488
-10.4431286065267 -7.50298373544548 3.40519477077722
72.6279432481231 -2.36969034449412 3.35542823159859
166.84847387773 -19.324697710064 17.1267535127359
179.290110070697 29.8795014868712 -7.90808069637276
-180.953811754235 -6.52842036420722 26.2485574361898
119.989132683639 -12.4591523041199 -20.3685392045593
73.6209602847457 9.05673878452473 -3.90927222853471
106.478441850713 11.9082258791949 -4.10875369461938
181.471702853809 39.8793998334978 18.2360849059793
213.023104435904 31.2382850664976 15.3812048380438
119.941328588469 -17.6415063109387 -5.5053235049857
186.000936427792 3.26176691575246 15.3692578677392
-161.970436892361 1.89427589830737 -6.56923092290926
177.08910415421 39.0386841823947 13.6631279079834
-218.477312473239 9.66574015371279 2.87266323119781
-133.879387888693 -5.82723770232859 -9.97896436022793
153.011608211867 -7.23180079205513 9.20017345507583
138.420867496755 16.5454888786364 -13.6747223497101
-154.746354578835 -9.45238866527712 20.5840618216093
195.990815748579 -18.5834058304017 32.1829214753184
-147.240640922203 -22.5851593159826 12.6548727293681
-194.430411120787 45.0966947291655 -2.73340968707062
92.9841352491345 -9.41181995224616 2.53467356348599
-125.478107348401 -1.8063915477818 12.230744899935
-226.637810498507 28.8827352103906 -12.5296578776561
90.7980399704496 6.49721020371852 -0.383742211106331
76.7492261756105 12.4259587569558 -14.8637669317119
202.755088891195 22.9950900217184 32.0522197967628
-63.8422917702659 -8.89388960901255 6.58969521491828
-33.6536261029309 -3.24260335602512 -23.9766489874569
181.472049955204 31.2529810410333 -7.69490013342174
102.566765707854 13.9520619997885 -7.63496810788257
64.9937969075533 2.85124707815817 0.451825134056321
-34.5837606289625 -13.1951578648868 -1.04787777962606
-110.072721879134 -1.53920170194612 9.08158779740067
174.029583224685 -28.0575775223565 4.186299248917
169.673783378815 18.9721902160029 -13.8112630430221
-78.27976878192 -7.20452843846588 7.69454142646051
-218.025743606563 7.38434365099878 -3.72334032780549
-57.5446980406648 -18.0455855600897 -1.53426096809093
144.827676619083 6.06569571148962 -19.0511863748343
165.566396151328 -20.8910486159352 -11.3584400597677
87.8923244633878 -16.4909683234612 -15.5662724706427
39.0504803192463 9.12441547386859 -17.2874128060278
10.6308895762638 -19.5439045692475 -10.7881875400299
56.9762182745962 6.61760310587002 -3.44170927584161
198.640296884891 -31.589337181938 7.97858839040235
151.969175142764 19.6201108551068 2.19523404403641
-122.509237712591 0.410372806234782 10.1855246151642
-66.7864703326576 -22.6254447468816 -4.74939061994185
194.755572426044 29.9440839655831 34.942622799423
121.685245700916 7.08214749165667 1.19365031431468
119.989937601247 -0.983425041403304 -22.5073606710205
168.238831475763 16.8165618040144 -14.8913796062224
-80.8004646719454 1.09090088164214 -12.5916297647867
19.3566983715872 -19.2414494128172 -15.8907232007589
-217.933523274812 42.0708574416943 -14.8491288181754
199.676503636179 -0.734934450182016 -8.2147695913984
66.5064214611023 10.0647409133875 -5.20294652858717
98.0418546899488 -4.70820177544012 4.28516270572895
144.566464570918 4.88256640161055 4.67697494373361
-159.428596660432 21.5459771313262 0.038924859332687
-215.982790048739 27.6427359684867 15.2726661935242
171.035933692892 14.9281761934798 12.5679342902468
-195.558485253245 -16.5441014622464 28.2328894702191
203.027155085787 -7.407271653813 15.2880961955084
23.1168180825162 -10.3821226380624 -23.4339518246369
-190.948860124514 16.3184760860267 -13.7842243192661
202.47371372904 21.0638381837142 31.7948121559675
-82.6802296041955 -5.81266108923852 7.62828499699306
-32.2635579219769 -14.1693290688872 -1.91792163509069
202.825156501424 -33.9019398921283 14.3556663436311
148.044560059672 18.3259068001115 -11.2717329436379
-211.010653972491 46.7342435511739 -3.61374206349887
-90.4450079073268 -23.5233403604692 -1.77322810915617
181.624798124514 31.8215320209892 30.8162525995436
-209.889440865386 3.8805207469759 -6.37810403481845
74.8559222218264 -12.0028776201458 -0.76154893485871
-5.44202485962266 1.39658178788854 -23.5566223062188
79.7022212446829 7.23984674507421 -2.68495004940297
194.901370486333 17.3728132289557 32.9819300052754
-53.0336851568466 -3.83303818122215 -22.8805068037413
-116.560748563979 -22.9420775331657 5.3420804025082
-201.196338415082 -1.2870064840566 -10.4298926934542
171.207083750154 -25.9512189710849 3.38214226286761
-46.8138569347644 2.98832432208566 -17.0821992760117
205.275554378423 -33.0006377910288 15.5354054615426
194.897672166225 -29.8176881778188 -5.13243017537638
49.5667665865961 -10.4357553920365 -23.050556753247
-205.561835530707 5.86641032209488 -14.6424426297967
203.277519352628 8.43471472520929 -8.72648488443092
-197.689454635726 31.0372586959384 -22.948841950725
-32.8666951458508 -4.98480725788085 -24.0252558788442
-130.933111319852 2.99299617013035 -2.95402870971273
151.243909890625 20.2735516998301 1.16264843233846
156.479874274922 1.76441431578208 6.91385064952633
107.501750174325 -15.5771579543454 -17.0013358429417
193.996829275171 -18.8263986792436 -22.1192975414399
182.8314552364 -28.6939493547358 -8.02317586729886
200.187958003884 -16.4755272303087 28.8384860975662
162.103521719864 14.4847713921816 9.38470704457374
143.596807035396 8.95678472268976 3.71067750104973
-162.84676877079 21.1620288750649 10.5817914292549
17.268274932159 5.79258339221895 -21.268960051876
-140.853967672881 -10.8899146951451 19.6446201167642
147.190785967319 -11.029708359179 -20.3015398998293
117.719005547187 -1.31136775772946 -22.6840234109801
-203.349258986114 48.3030297092695 -6.43681706892565
196.43967853762 -33.0488220775952 12.4418958473018
111.632934692259 -0.0992795577154568 -22.8643810338243
180.429985456377 -34.9645803125362 12.7809062484462
159.169419382803 20.0696033525031 5.89745829867252
-191.829729271372 25.8642592295584 -17.7867723231332
-209.961727659411 -16.4755607561091 -1.35673947415074
198.373100621117 -33.2635639531648 24.2250130669122
78.2314973977559 0.908854738851064 2.13534185566683
-8.66109751300631 0.550544821917049 -1.91758439734376
199.619882968818 -4.3725675842177 15.7651684042272
62.6912729757169 11.021900262021 -15.7392727068163
207.684678310766 -27.9462020442435 12.6911117316143
-175.346762748095 -30.6274934088932 13.3668555109141
63.7305479634202 -15.2531252244906 -18.815958030035
197.926997620204 -28.5031935544949 -14.7043009843377
-205.652735924642 1.76582425708641 5.29366951922458
174.384038504256 17.9123331170846 13.9228533475524
173.109529296907 -24.9124542901517 -7.37810621702143
56.1530070183462 10.4554203227323 -12.3497131619938
-114.326963760283 -24.0058711541432 -1.25254880163874
105.059124647435 1.70373127686652 -22.8203374734224
-131.032156867301 -18.1367488831766 -8.59212695289964
204.546092741176 39.8612457761592 22.6769845672501
176.80606698221 -5.59382878176044 -17.8477872254641
-127.222422138046 -13.6052798153313 16.0372395613558
108.845657466706 13.1811831582234 -5.18308614791816
203.065407696721 -8.9040617621214 -6.45551943150794
186.965856266811 -11.8629146517913 -22.1793953094622
-99.616859741843 -4.97091624892248 9.37764320015657
64.7045391336267 11.4240300488258 -13.7603612356347
-227.198021022299 20.8624003375916 -0.73083707134267
145.954933535014 -11.9419666264952 -20.0881612237183
-228.337864697136 30.5545749513009 -1.43067499916872
-69.6977191655429 -6.77992970012375 -21.7030383549978
139.850969642308 -13.7146388243448 -19.258924666031
-215.820297500704 39.5966595032303 -18.4503014269213
167.959785636504 19.1503912643832 -13.2325793329414
-213.060776085572 31.323601142334 -23.8663016485978
183.519372019006 31.2968232261032 32.3529503421976
-75.7715803044757 -1.36109460849749 4.4953074970898
193.624301122599 -16.2398004332584 -21.7948919831074
-154.481798957796 15.3525838124481 12.9099764865036
-77.8884213057894 -13.4186157879285 5.97677047766151
-191.529558290058 -2.16244920758976 22.4611226214865
-52.4439019453096 1.24923711466948 -2.57410998616789
-198.766551460435 -11.3057457373693 28.1987729408823
-140.026317640967 9.66969567898431 5.59559044357379
-126.265147269729 0.492983244824814 11.231815585138
-37.707744550968 3.76339889328599 -10.041734734691
206.202874214322 18.8175127301532 -11.9441871469027
164.676676378333 -3.69934038164211 10.361576791098
-44.42980750424 2.80865959570653 -18.309080288892
208.926891721121 10.3755433853427 0.390259284694747
84.1089251569881 10.6418673311174 -19.0164363784725
-69.5103232505727 -23.21441410061 -5.55610775058314
-174.956508147942 -4.47253711700035 -8.30106649481244
180.813714601788 -31.8455954731676 21.1143087892267
193.7611496919 -30.9255238077986 19.240953833458
-196.397625850734 -32.3481989491977 4.0180648288961
171.443834710687 -5.62010020712698 -17.8198078488811
131.921448532813 -9.03145020479601 6.64228013525994
-200.428461827258 6.45206432038651 -14.4062221341055
-153.279888736735 8.68768415274158 -1.56837297197362
-129.983104163635 -8.61663528584579 -11.4761458277801
44.955111942711 -11.5970465394891 -1.92982693583882
171.497824532929 0.0387228971675297 -16.3902433500545
-211.962552180449 -12.0429314685691 10.7064272985343
-143.933319502337 -12.614002157933 -8.69430378147393
-147.810928144529 14.6024669066213 1.65389796271214
109.527821892382 -13.4954228951565 -19.6413918459789
-104.276695421383 -0.508535635007815 -10.2377943898769
-87.0881260142103 0.122348088112108 4.0388442505548
189.312167604514 -26.175044546982 -19.765797714316
93.5901284400403 6.64225672188267 -0.157206577030239
-44.0907475149584 -6.85194494257329 -23.4465718588995
90.177294583923 -12.9936160540217 0.000644892704045218
189.068827216457 1.49394918589864 -16.6764027403076
-81.3937233701317 -19.9633979041152 -14.7124165103573
116.246827833091 -17.8728269152387 -8.0960936882181
-23.838446342817 -1.00533599789876 0.83083216446499
203.116813251205 12.0364153404104 14.8844805108968
-189.67981764004 28.5009785726641 0.778099710308313
175.969588842057 9.71761837298794 14.6263157748512
-102.153620039292 -23.9444146424897 -3.93415601188846
1.44018624482019 4.770483346941 -8.84838899550737
177.927005084964 -4.93516934677756 20.0295417738451
163.160703142415 17.3004609224268 8.31712634978818
-164.538488827953 20.9762276247226 0.0204272471411196
-219.791141605407 15.9801149022999 9.06174873230147
-15.8408468916048 -16.6442761408444 -20.7860590951438
134.871598582498 -12.4111238061216 -20.1529381463069
145.320783713186 -16.190452042448 5.96075594419722
176.946507642334 21.5413471917722 21.6863880136818
189.873957479646 -9.88814590443568 -21.0198726223799
167.900654170148 -18.0301286863345 -18.1766312994031
-168.537966150486 2.51076889452343 -6.66702780736304
-96.6013273245024 -7.36892307097679 10.0908637850539
-199.737087019098 -1.46034157252802 -10.8150030167449
-111.272890014571 3.0220340243431 -4.24961168539808
191.903427428753 19.4529727144412 34.3604609188002
-172.470371962108 -16.1884714502155 -5.55967959782039
-99.4808968498481 -23.9209724077294 -4.54999035932761
136.789943073705 -14.5980958588523 -18.5048426143095
35.8144006502727 -9.56889246479807 -0.410618267753697
155.149183032615 -16.4040395359901 10.8378561139206
175.419953293995 -29.0060014375127 19.0202955092707
191.154515097359 41.347950426615 16.9363253368795
55.2399928657467 -8.00677071860649 1.76327245208444
201.387981719291 38.9104903442266 30.0796358093342
-159.841602675669 19.715921738419 -1.32218947880156
-69.574044689627 1.87887562882647 -13.3754279194171
86.3130679272178 -17.3353586870014 -9.34815374395762
-175.213134829725 -6.88698849076653 -7.878903667887
-199.802914693236 47.4869908769784 -5.09318844965098
188.997225125807 0.614115482163615 14.2886136626071
108.896222111579 15.3117399741362 -10.4568636829945
157.654662009763 23.1427587235551 1.17046495506801
-2.61058205641444 -15.9668993288224 -21.2554421673308
142.03408552207 -9.15114051508436 8.26756430115946
67.5705630129811 -17.3957335018487 -12.1404695920415
-128.730269254756 -12.2863051204137 16.6884422366565
-192.679396379323 33.5386827327672 -18.7999192937573
-172.921793918822 -25.9316923898789 -3.54282229899805
-190.666648569288 6.78567950585107 11.1592058093439
-10.3024671790541 -6.47791841178394 -24.3752142457007
91.4454610597347 5.6432878558038 -22.1237073005824
54.8380656299225 3.24175588180879 -0.825123424694301
-159.607728250606 -6.7139136067442 20.6935401978237
198.725748271159 5.82123638151799 10.8611192608811
-157.185084973644 -18.0433046080907 18.9207445568041
-135.124235620508 7.86421697941096 3.58980897227871
-107.649707933487 -20.2080851513623 7.10195213991624
-21.5242639743006 -10.4485594639576 0.253576076389867
-182.509785200654 20.6353700542931 -3.50765198164179
197.716960990481 40.456960416311 15.1187999349895
183.78074329192 -2.59541987769989 -17.0020578119039
-205.86672360554 -3.6162152881859 21.5698797719893
187.713431836804 3.45567293065228 14.4954761200727
177.172225193039 -9.34469742342757 27.1051578756315
-208.561434803194 45.8194877067571 -8.16321318734545
-70.6397473579623 -15.2052243095085 3.22604653128695
-150.00680306762 18.7750732395693 2.72446681706211
127.988106870012 -3.0359493040937 -22.1261585303169
174.121160153473 17.4925817264036 -15.7250698942074
-42.7513210207549 -11.3334743266901 1.43975768242869
140.59910954118 -11.8034069927545 -20.3453110845002
83.5540727738232 -8.38427476642152 2.17167684880758
212.169123037946 33.6358503241686 2.45348115251122
-158.985310424532 -16.6282674060145 -6.07030563836369
94.601019652817 -6.91655106056647 -23.5662033180557
-43.3911521542234 -9.40646488899973 3.42843418409567
-188.229489937157 0.161614077060879 19.9299284876216
35.1839280782076 2.95391422679122 -2.2935099225826
-142.761996945419 -22.1051689033193 -1.8783687875068
-204.145503058234 2.53414685068572 -10.3934475495309
-138.197439042927 -23.640322211992 4.74059592086716
-223.247306348614 41.112235630351 -9.44949859608051
173.405639637618 1.76223333613388 13.2618985177332
202.537299471553 35.8696571073244 -1.04206045167379
148.215734786347 4.45652218476473 5.203266769536
191.045998784767 -0.509363549010452 13.2473361286424
-145.577831884479 9.27875916908148 1.40135608243181
-19.0931217868753 -2.05500204550953 3.03994325008549
126.517181689496 6.22465480946384 2.25658575596922
-223.90628220429 40.9119991879172 -7.66918604176366
203.174725218826 -25.0441916528297 -11.2853414334066
70.3898268450615 -15.0014786746545 -18.9962711707893
190.582027817837 6.98852885358593 12.8719081157133
169.367389645547 -6.36974632503416 13.7439732666554
-25.3347974481432 -7.64089363247207 -23.9629854671423
161.722588701915 10.3170294986217 8.61872062230838
206.171126093085 -21.7864124468817 -5.76865483480977
185.818246684809 16.5957195788951 28.4287960790244
207.250230131026 20.2606509791912 -10.6036484732934
102.60743904656 10.3549047411175 -19.5270888518382
192.5573190901 41.0575301904228 14.8700006733863
120.671178331552 -0.493732764370897 4.54016262211827
-198.016176171648 4.5620241033944 -13.1761233565741
-167.502970208556 13.029724678607 13.9441465698329
64.4834156607347 -9.92221620767719 -23.0743484525627
-156.567776132697 20.499962801361 0.0388395903912904
-22.278910121029 -8.75259291298018 -23.8054245027936
33.8526947818291 -18.4393915353558 -15.9014099947742
183.788722493776 35.239799978546 -5.72181598981365
-201.379327266131 -17.4153791821026 -9.11696560806445
-47.5604551343788 3.38295531058795 -14.7952253579528
210.035118712145 25.2488692936486 -6.38711171484112
-184.028507692858 21.1243715893486 -4.92523566059289
-206.776904835406 0.812244828655199 -7.26984758519976
207.889713861402 22.4228589037245 -10.007278966915
157.59833964432 8.09932818185623 6.43630413184122
-96.0379125140141 -14.7646580285718 -16.6943460546855
-147.031321219482 0.0932271365049907 -6.34558136243015
87.919646128058 -10.5631636489844 -22.4204907199082
44.8539212202907 5.64056819425887 -5.46884593185563
-73.2647570003532 -21.8887038294133 -13.3635824624808
179.301535454294 10.3537764644305 17.0938878809905
-213.397477170843 45.780938362863 -10.2891154491839
-187.241778029859 -25.4443728804511 24.006671669379
-214.19055444818 46.5684178053029 1.58350959622693
134.458738817432 12.6218469429372 -17.443490439328
124.090180244835 -3.32421384662037 5.14281029202558
155.041290455038 -9.96605749277746 10.8345238958609
147.189516842816 -17.6247197843446 -13.7794863604119
204.157492286264 6.64313743490833 -5.49493253426861
178.517630298964 -32.7705393403392 8.45057581467629
-211.226433912605 45.082647304225 -6.91055182454984
-101.110561217437 0.393757712400814 6.24802599302726
124.210960639986 -17.74164595382 -12.0870845641877
-40.6366050908439 -9.42320747352894 3.11742482664367
165.031306111546 8.34892687324843 9.42862047945048
204.508547964903 32.5285218734908 30.2994554901181
111.499552981966 7.30461295824621 -20.7924305732931
213.531616672223 25.8164812654078 4.15528052751499
-6.61002501897641 3.37818073240286 -22.1861405005523
167.027773499643 -25.3686842244659 9.57517761516277
-75.8079780909324 -13.1110347646577 -19.718571911038
-219.508807448466 40.8812874551542 -14.9340746919817
47.1947612212411 -6.08491601861993 3.12248074864196
-79.0482625034701 -23.2343491660869 -3.79848705189075
-217.846862520488 45.2244910311108 -9.79211811050748
-124.0163713125 -8.61174065442838 15.101614359841
-39.6570715901421 -2.54556246157892 -23.5105894799451
-7.91745937825669 -16.3011430607376 -21.0884900955881
175.16165433274 1.70522361333813 14.8177933319604
-206.538273821298 17.5982691947171 15.1264176575931
87.0681347762925 6.62463542068544 -21.7854098784224
92.7075036640199 8.47335741219633 -20.7934518765182
-155.004932615362 -20.3515606880885 16.9352435916046
-223.057629313361 39.8008613410701 -11.6633329482858
179.865100363712 -27.6182118486719 27.1880733207355
105.822741262481 -3.03182993837697 3.97409210155556
-189.905291147362 -14.7014364344917 -8.78453443358579
117.592843817805 -11.0045863424605 4.56341099889002
-160.337084789578 17.5738672451694 -1.4699180955996
188.191485044685 -28.724232815582 33.9685233049388
-196.734948387829 -31.0065779783832 2.18237400129281
-128.393511908871 -19.7676164102112 12.5165829030763
77.2062825665943 -15.7133440938568 -4.88144697556283
152.841889646933 1.50739320897089 6.42248862679896
-161.704497602551 18.45487836932 -1.37857923294577
185.560759343711 -30.0703133069533 -4.19613471147191
-133.224407573469 0.417421011489074 -4.71595305236165
-203.924342907538 -9.97231523314095 11.0110709009243
114.085562482421 2.16889083579876 3.28701870842593
202.58373309989 -30.7324869756967 4.43726344644469
-191.63155951676 -13.3089535185449 -11.1285509212223
-74.7363989161644 -7.82989107623256 -21.060441505735
78.6784690987589 -10.8807018386743 0.330437965501891
-203.711460252024 48.1430241635985 0.598564537827552
33.2060862066047 7.11671713912383 -9.27880916270152
-47.2252103916346 2.09989080266687 -19.2584156188721
184.771445445549 -25.4428374856542 -18.8109190886634
-27.609587213133 -21.3018017626751 -9.81346366169009
57.9471359505285 9.42087436001621 -18.788057556466
154.719929479763 -19.0578722349102 -10.615033861948
-136.932247396452 5.39483245072202 -2.47283899093819
118.002168243056 -6.29695050185144 5.31948003794815
155.119609351321 -17.9483531131001 9.10855495628439
203.925838684818 -14.7270470419448 22.833877196739
43.2680854125618 5.97202657775368 -21.8717869805958
-203.581829869167 45.8432774343323 6.24457135813991
44.6407791815434 -6.05652108261642 3.13780148775946
-65.6063038168696 -16.2219021155927 1.35985401609909
176.31845588314 -25.7988739433114 -9.22926721019261
-87.8888880109852 -0.475655405129009 -13.8849847907795
210.907745341223 26.9845045297145 -4.55400645676275
-204.906529516318 -28.1480196472577 13.4697774449343
197.224997031508 32.3846569554375 -8.23090126701157
177.256373722144 -30.5231293197325 5.21146611336632
201.891377689383 -4.83949224117517 -5.70115398139588
-35.7345104082647 -2.4396338388634 -23.7533447849702
-172.130865790954 -28.5339411999921 12.3151684733846
-5.41525904651519 -13.39324078615 -22.5990414315794
-154.468317092051 16.5258906187869 -0.28395346824037
-83.8035875490909 -3.80512335291441 6.87308790980004
119.036354162534 -7.58021226685833 5.44913242072972
