218.26147466407 11.5801191813345 20.7698483871461
-250.737987741573 2.63297349754349 -8.61309022783413
-218.624145904943 -40.9312724614137 -1.86174430645913
-168.424845173912 -26.5532174435013 6.06144711125079
184.990924478963 27.551071401892 21.539255603071
-230.891500377585 48.7191693375668 -11.0166259310145
219.979327421886 6.16366145029167 -11.2296785872547
-219.687999474193 1.88738501073475 -15.3683044518799
157.728926472776 -6.3826838418251 -26.6730891653525
157.15356792252 20.2087838820331 4.45010988226875
-4.21584989930186 11.8269091487683 -15.2109082244527
-237.731694913548 -12.3937647232235 25.9660587907753
61.9407557484871 2.59857060705371 1.70665827216744
10.806362718466 -0.126034312335602 -25.9447841590651
109.058734543715 -1.78795528496291 4.62003278934321
143.959763567282 16.8841141908927 -17.223371740381
-253.393690520781 3.35098297867712 -8.08287851764442
-210.621686635975 -23.8808211548288 -9.74663322692808
214.544354226031 0.419207314808423 6.50430420923465
-212.397519753636 -45.1195916994415 3.6243409681388
-29.928134136261 -11.5598562845211 -4.80499595964782
212.731661530147 -32.9927249666104 28.3175928455332
183.156667388396 -31.2683095212849 17.5653155587576
30.4158215636634 -7.53816386057721 -0.773908454728996
212.192800552717 -30.7935344758969 -18.3373890607619
-140.564608839343 2.05946627427154 -14.2557712047478
-176.545332026037 -28.2868207370169 9.8968202737514
-243.806058144348 -20.7291361613795 25.5706183112593
-65.6719798747418 3.21006423104931 2.91094083642949
212.478967020912 4.09909672236154 -19.275928003175
116.389684121152 -2.34619753717299 -26.1849105819882
-206.201888474323 -4.36279565736845 23.9957297519716
186.244395039084 -14.895873380993 18.2457192016068
203.649720146094 -13.1023259333208 19.0804697911584
-266.008173943153 25.6381118499804 2.84333945066053
130.200390421606 -15.5115947565979 4.44572453166377
78.1713238725855 -12.9718257601427 -2.67678178541973
-208.386686956218 17.9123521429782 8.12775944205725
212.636666259853 -41.9424861382405 9.10702644747122
-20.0024403127633 10.9194590524082 -17.282915205682
-255.160677949483 13.3363660741915 -16.743320526642
-218.081121644078 -9.20321368259171 22.3375670591732
84.1336196463781 -6.06580626928847 3.86898859335448
-147.856028572141 -7.52341854337564 15.3710040206082
-157.930370371122 6.38551267512263 -7.79597473184247
199.397741949945 -4.98756589356387 -31.5093466412348
-213.687785209057 -2.90074659329039 -14.0318007726134
161.241682921164 -7.16040324804705 -26.848968588814
117.436506059406 15.7273228020711 -2.31914401999721
190.339673019676 31.3055274047455 27.6275118298256
87.9585285700318 3.05746423195523 -25.7416222639422
209.73717958779 35.2766111577976 38.1182295214627
90.232132015856 -7.17000603573694 3.59290577469283
177.619228608812 -26.9211607490275 -8.28207482072561
74.9588819299527 -14.5191643057647 -12.5465975299138
-184.609695306501 12.8500114340134 1.60411747367397
195.435282846246 11.8402937100248 26.629007701529
209.92341152263 -30.9551660821142 29.9500124223959
-181.599974728644 7.13146955839941 23.5775874989118
24.155886957607 -10.9350624627469 -20.4365628307722
200.689086326924 -23.5797402387064 30.7363666099522
215.452863989611 -39.6207607007958 25.3071951497811
-131.523554530381 6.9698144238998 -8.04425452884071
222.525342385142 -22.9009468501279 15.5868611201631
-148.361824076074 7.18799450894174 -6.49265012044308
55.4766189199809 -13.5497718625465 -8.36619613047807
211.903591392693 -31.8212412552548 -15.6783923104858
-227.297352892113 33.8375719933179 -23.8347285764203
144.212658177881 7.31082287806674 -23.8533082947702
139.853044518662 5.21142586338898 -24.8715054055257
-228.988816193227 43.6604308160309 11.4508171291768
184.287602352925 -40.8337177518991 1.28083201244079
66.7644677777059 -6.57726451487171 -24.2840124446738
225.658568720305 11.5497251034161 -5.27568946237011
-237.769286144129 -12.9439822921804 27.2487841494302
-58.4825517217174 -1.79134932889637 7.06581140830964
-53.3905288952347 1.14930474805429 5.78659249135097
-198.502816158152 9.55484701200666 -10.1496124354455
-218.465873157297 -11.6269702591565 27.751236472622
-69.6923408467021 -4.65999646851544 -22.9344786028769
188.486251196687 44.6512099057214 14.3174547819638
135.580167478966 -5.14432614181372 -26.2553801116435
7.84047193653388 2.1192253579305 -25.8218860846381
210.106641661787 -16.4434550949712 -32.5515734255597
-111.897623054441 -9.92809943324433 -17.3741680596046
192.715578636856 -29.8789500697758 -17.8752085130262
-194.013612844241 12.2454349597946 19.7858943305258
-213.249362560191 -33.7380427731452 -9.26205710130936
-230.725720615944 -23.1506890254467 -11.1654614528454
186.184206442555 -32.4447263132169 26.9087213775922
217.691334134906 34.2178144812878 36.8894190619294
204.223188868905 -42.2858457447759 28.7706038801454
-197.148479084502 10.0447414804469 17.2257055900274
-206.780753258638 -3.06241469178526 22.4317750095075
144.656731627225 -6.94991580383601 -26.1660205975481
-7.44989259454788 -8.62584877577116 -2.48973996510391
52.9463793368239 5.27785742961677 -25.190374276695
37.1496568985145 -12.9745797776363 -16.114324455475
-256.003430341183 46.5384243072075 -4.3283196102148
222.187247226493 34.0850720994 35.4973004547263
222.265085219496 9.80820214946829 -10.2452990377682
-201.497691335779 -26.9562098539483 -8.71263954337796
84.0450474539635 -10.0703256681474 1.08597100939725
-193.022428005833 17.1786796599122 18.0123208082802
187.322278453872 -30.2958199101492 -13.1244888668839
-171.71289183771 -15.1738358688754 20.5407718039274
48.6202187475003 3.01635342001441 1.20813876516631
189.210232561389 -40.9748947670338 22.6197581726906
-133.870718119946 4.46919778771734 -12.557060230811
16.7194508640768 -7.89384394529631 -1.69210292620417
187.937149322092 -20.1936777524007 26.0316182779779
-232.045778297364 -31.097220629049 26.4517216511111
-199.388965197924 -21.3221638232969 -8.86579150584429
159.542918949693 -6.14769561858505 -26.8290043281152
203.178037113041 -23.4348192295123 30.7879477776539
-253.735527885963 21.3818861122014 18.8718597300791
-81.5422754127754 0.209442779513777 -22.1015948088152
-257.099863277005 43.5921747087114 6.17233712607233
-220.37418469664 37.5089621319685 -0.0206083266516693
15.7115774293953 -6.17264828343505 0.403365946398955
-183.964618992772 -31.5947439557076 3.74114526917742
184.944575037121 40.367222285377 18.7720084229356
136.331447863404 11.4093863805531 4.88732678741013
-194.184716486679 -16.5207238217003 26.781696937603
148.235702410378 12.563965380818 6.46941148762305
161.299237896419 -22.6492568997987 3.75661635587417
30.6249363539514 -12.9218555410179 -16.0156700631692
-134.930182774138 -20.4559021747 -2.04373662650336
225.110845945574 -27.9075500777717 10.8394112813272
-116.263885340543 6.50803583478818 -11.1029379336414
140.862831872892 20.5565441638824 -9.83165351618653
-126.552741904351 -15.1098188534754 11.9794072061538
-229.032235319394 18.3130161505084 19.2106625440845
-252.933856736361 6.86909326014722 7.73206954370653
-212.508823736725 -5.21446592376977 -13.7518520596183
-218.763564843944 -20.9223151361868 -11.8228513592817
-218.10407087247 -32.9277486734432 25.6309111031039
-225.083416766798 8.1122509172343 -18.1176728887759
-189.766064009444 -28.9125074660795 19.8493743367941
178.854021409368 23.7504444548476 15.6304030560859
199.51829833889 -25.0070795593945 -29.3826469787308
59.2022602495695 -8.49238710006071 -22.7840917302299
-255.473399063602 11.7933518024197 13.8470322468384
170.625597114494 4.1423788555857 -24.0460286756096
-265.307837960779 20.6484627616741 -10.3852964321837
158.448672078658 -21.7850336800947 3.73424449684855
211.238054048665 10.94237402089 29.1462975688861
225.124409329711 -19.4756389043794 -5.60745483821764
-227.166781879795 -15.1261182672449 11.3232117800196
-76.8850616166718 -4.64554166384117 8.32625529369154
107.477732571947 8.82996452266822 -23.4728105046588
209.744981735162 3.90503205026796 -21.3737516656723
-220.734158747244 -40.4434569723593 -1.61323917982928
209.965291161459 -40.3122862216323 -3.09003886121876
172.185715304833 23.8138469000284 10.6908242562239
-204.753378217373 0.63254064394982 -13.3115864805081
-159.926637953498 -9.8613355187533 17.8355831554274
217.609184523207 14.8230718305571 -18.6012688961722
228.299379115367 17.0483631036254 24.9842923414365
-113.188936966972 -16.5034119754186 8.85326797384795
59.1953808218038 1.65522770905826 2.13996246507548
48.1910639447564 -13.6182367756763 -11.0769390601845
-176.164995181686 18.590515580807 9.59483429883533
-257.983920768765 8.10539077485105 6.53552609834366
-132.502757162475 -13.5297629036565 13.9228113233096
-205.646477580626 -37.1715308702753 19.8693511080453
208.135483715248 -16.4218154956444 26.0251922382448
102.411861486944 16.1189443162171 -5.34875916753236
106.961603978076 -15.2433099165854 -0.610760888584957
-223.178550545362 34.8719243313056 10.6286541100826
195.612202437711 43.3126038885318 28.4095124426682
-38.7136589866953 9.96681287934894 -12.4183523453596
-24.0840414688449 0.477432013512512 -25.4694007914887
-222.141344223139 28.3233981407415 -20.0963407326373
210.483222548657 -18.8419855186433 26.3017390148885
-22.7862346676695 4.0705446189407 1.81269695890835
180.224449695976 -30.6983548858449 11.5800869148154
-231.624782399032 -32.8147162495545 24.3889110079298
-11.1376633015507 0.732907593256958 -25.7173947254638
91.447647339839 2.84296876124166 -25.796431417411
-98.3866250707411 -0.450421890206941 7.38445945395144
-209.13435871688 21.5845564006645 -0.46218529184013
-183.029277926492 -30.401976935129 0.827614186392318
5.45446390722048 6.96339469018325 -24.1147438869007
194.514992257494 10.0312786770551 -23.5788358497338
230.400318826148 15.2208285972584 7.47248386918914
-45.1731839749349 -0.892406956662766 6.44304747424215
-215.356546299875 -29.5505306648457 27.6755683194567
-238.350166055241 -5.87867860582336 1.64440847943996
34.7322767702684 4.1855972195331 -0.00461232245291102
204.158380799275 46.2126433606918 8.34427657366767
-72.2193852605463 -3.34319168289201 7.83594942327665
141.661173406634 -1.30434931519941 6.60940861407752
219.872451468559 40.121686557729 26.9577493921317
207.667801024902 -38.6510548485763 -7.37676950388183
-126.071976215167 -13.0610616082533 13.0594372083935
-245.949935632775 -23.8141496057287 18.1029734891254
-231.637558844902 1.31188800265498 12.0694665740266
163.975154857988 -21.9487320764716 -10.7792499317776
-145.756041373079 -20.1190812751439 -5.16489036773672
226.463149595429 19.6665951518195 -8.19107288282876
39.021781183363 -6.53330514624961 -24.2183111557765
-84.0022383135333 -16.3221244801402 -9.50657581389586
-222.096822248642 -41.6434302442324 9.24966410464667
-215.767547769908 -41.5404911400886 13.8122469425232
-183.736802213656 3.26715335901042 -12.4358204005902
43.5410079014633 10.5311563339032 -6.14730704347734
220.472516008632 34.4038344591925 -3.74261756238153
-41.0356056278972 6.19095420719987 -3.60857183285129
121.029463436264 18.7909463461243 -8.27830801998385
-209.273571149858 -43.6024719996424 9.09211649534931
-103.358796988709 1.85438424341982 -19.0003854899183
191.745797007925 -43.3450817570541 18.2005409931968
120.337423148509 -11.9126829211478 5.05149131632937
227.002038159182 23.2406612630622 32.557726550863
194.94224203624 -41.6405291507866 -4.10727478600892
163.843775693158 -24.5088793177945 -2.82161919351142
210.670083156377 21.3012770180533 -23.6623985619955
-262.956079055763 38.6165575878779 0.417374583832336
180.830514236104 4.52576544073205 -23.7904570799576
195.989294925805 -17.7858061445357 26.5747728867862
-235.006511545804 23.7730330369686 22.2275166622024
-232.38231466772 -28.2822859609626 28.9694735167028
178.637172916864 1.79978099127937 11.8540478990726
149.202439607347 21.0178986440373 -1.90092847188626
-215.036405287287 20.8381899137463 -9.88880972937245
-226.871297001754 -39.2359187765454 6.42828334250673
221.772463047629 -10.8697590028375 5.59972482745179
220.202563600514 9.89193581711337 -13.3702227804638
225.217306680645 13.0270520759807 24.2312579966071
28.9417495331787 7.0078990043956 -3.40546161783492
206.420801212922 -42.1652301662375 28.4879815930102
204.915914394566 -46.4939742540419 21.9766648289265
-218.197130824272 31.8283423556424 -7.77451455049044
202.327827669126 39.7092446411221 -3.26891770678903
-217.671392257513 24.8293513124088 -11.1250281423971
207.597659190731 -30.687576342918 -19.6667740255531
-239.898909930057 -10.8638680732833 21.3802394066769
141.8841333494 6.35646592923328 -24.3491070108692
210.428541024211 -45.6226435538207 23.7644508068629
-169.357751201764 11.3974660597866 18.7746429844228
184.371446838112 29.1674560588081 19.3036405754373
19.525160068955 -9.11587812056507 -3.18715784650696
-240.748354289244 20.1608936632876 -29.1560531038211
8.83932397941576 -10.7607867877123 -21.0047478391148
-266.772630242325 26.708917295178 -3.44925438465007
-166.736491637614 10.8283419740625 7.03959596086082
-92.7230877393286 4.59080520459803 2.2061099506429
-163.82278591881 -22.8044038302049 -3.56582465196086
231.77742466926 18.8195019591504 8.32443079728403
-254.659008782575 24.8496246707152 18.6415005465558
-188.953132217929 -24.2794995140308 -7.27567136786095
-10.6499793800093 4.6818650388566 -0.12346911978457
202.458757708061 9.84839354289236 20.833672769872
96.9904736262953 11.3831078344489 -0.733973430106007
-73.2490546496625 -13.5299209006674 0.514091370980975
-233.738530184453 -15.8766725936322 13.1238806569157
218.600603805157 -44.6719955487179 10.9805136210253
-220.949031698285 23.6408604823027 -18.1064477075384
176.290772595612 18.9990920643192 15.9645761828989
180.017760650734 -24.2521364852809 14.5043938789586
-241.380326781161 -32.9128215431416 7.5413589335934
-266.524415916265 22.9539215029334 -1.74776916310931
-260.307891088911 39.5974539123623 -12.815162080856
-228.839173774818 41.5649591544686 13.6526757542931
-167.633673255904 12.7566699203718 14.0619799990327
-220.452935224834 -19.6966458778143 30.4605378797055
198.197111760107 -29.1782170715137 31.7919512804569
-70.0514252855975 8.59694392294383 -11.4006022558954
185.314770047222 -34.6914417185894 23.1925160205349
-200.697139607211 -31.2152895915601 24.6620931795709
12.8134489965426 4.83680210980322 -1.20967088697122
-110.644463492475 4.88135755991345 -15.1793889441008
201.380579126012 -5.27528724070476 14.4812825933945
-230.151887342283 -36.4764675800535 -3.3278824442956
208.84594110475 10.7411134745049 33.4071598243678
-180.412449326044 -23.6376237503944 -6.29457600864152
-265.644976861946 19.0002560221457 0.328350068683693
178.193005413892 -31.7254931867059 1.3142634389846
-225.397795224041 42.2998168073494 -16.5529044511286
144.127193371261 17.5315980551588 1.95586733735587
-237.723790203141 22.8569991561232 22.6240146263238
-97.9352180858137 6.40629683105958 -1.63376593498907
-76.6203968412042 -6.66413805289671 7.86964163843125
161.074475829664 18.2911597574986 -15.6203935834152
-101.809835363012 -17.3113461272718 4.03352133692108
194.791890842402 -45.5507732042919 11.5918565897936
197.74491297558 45.1246867061914 5.93363265013877
-142.256589647653 3.44621505879915 -12.7768766047993
193.757795038985 -41.8008762559334 25.6253801679589
-220.542452137646 -19.1784667426941 -13.0458795501549
210.659620695818 38.1698694590826 -3.95887949715718
190.700522456554 -42.2189614014543 19.6674535218711
184.176343670847 10.6759759826412 -21.1540481140906
-181.778232221919 8.68473700226044 -9.37537981736181
-170.024309615954 9.62112693273022 1.34801341811544
180.886940221354 24.8411498266632 16.711424298496
97.8044115523488 -15.9357430872208 -4.19613017526944
-23.981578772014 -13.5787224896663 -15.7482806755946
-221.775317239428 5.7100394999527 -16.7594549233145
217.920120593505 -31.6465192102736 -12.9030745718879
67.7170286387367 3.03585474022249 1.64812396043775
98.0964304944459 2.02053576605439 -26.053528624165
139.373803430599 -18.8312406855246 -10.7931723686551
198.64442891283 2.0824478612423 16.5351360694589
-50.9154077117131 -14.9228026826831 -12.1091554434175
-143.439426929991 -15.4877290628408 -10.8942137817187
183.08189181364 -36.4328235612741 10.1961047801213
63.7237485363492 5.60779023196423 -25.0543018542675
-246.481065301694 22.4984098466429 -28.7486692360978
-210.980594117471 -29.1664300655322 -10.8419091808969
-130.758643559965 6.29062483213259 3.2154168498936
190.437196581375 -44.8897238180639 4.22825909387154
215.110151211818 -25.2491620666603 -26.5743240113954
197.467170228809 -43.2160539785321 19.4914290805143
-126.655408445537 1.02362176614877 -16.6252796998015
182.003049768221 3.07339002183744 -24.7039755482551
-152.629410463773 -18.9268624619598 -7.74653271636174
190.468666501283 -20.9582760153086 27.1334473578188
118.779300941679 -16.6857586447766 -0.592609832002402
197.998388824608 -21.7238894179351 -33.0362642879323
-11.8918867107995 -6.12912825538266 -24.4837684574721
219.99859798499 -11.2366257474201 10.1309944896862
-139.395014865703 -18.1950055933959 12.3993602398799
214.716711426003 -34.5675883145584 26.7456965466198
203.240582627496 3.24466947989371 14.6148632831704
192.792041001563 -30.9732121705016 -16.336606100168
192.956274053641 7.84718257285539 -23.8314840087247
210.830527960103 44.2852376155407 7.12807386275635
-200.23372771223 17.5591506290969 8.19146856956558
-166.970006218656 -25.2630954246221 0.325712709202372
-203.491433058865 -3.07014292211949 24.511653791018
-211.964937274758 -9.36564108919058 29.0848577843021
-244.109300181419 -17.3574567081367 16.198424338179
24.3738846188431 12.0365972211295 -19.4656932223095
185.531469200961 -19.2784045414972 24.1372681952102
194.04758474128 -13.8225408253759 -35.7445069023334
174.703469478693 7.92553750913067 14.1635259217816
-229.947140181948 -2.47397914043049 10.9747999500002
129.986092168077 -11.3050133197929 5.33808747412131
-204.98506256912 -43.7870392918513 9.2109275192598
-169.678909680155 -5.80002075848711 -11.9587198095457
211.020378216211 -2.49160467647678 -23.7047183351523
-229.128430870072 35.3770048982921 -24.7766558752894
228.784472906074 17.2727847438809 -3.65003373682794
-172.874326683061 9.41613835489026 20.2716735951414
37.8649742811619 -13.4786198157456 -11.3146157776238
181.846503769218 13.833092284542 17.5402434517131
-221.222423687837 7.29130731935946 14.7081291540877
-199.679952366219 -39.6596245978433 -4.08655390088415
193.779489509588 -28.5994145583508 -20.9288129759419
70.4423993347369 1.57754499039869 -26.1289545195603
76.8388501635664 -14.9813222569497 -9.00088060021588
217.245723574408 -44.2769921066266 17.875554477082
206.996625120176 -42.9902340792343 27.5385687587402
223.622491761731 -14.3053991200319 0.0133310420113599
173.843202323368 17.3540622187578 -17.5202546820088
86.7956730419241 -8.04860271207808 2.9206005905498
146.574575507711 -1.11150870685445 6.92787132510659
-126.197073778014 -18.2512430459575 -6.7091508932307
13.2107793812461 -12.4204960034317 -8.90793936456663
225.972429996954 -24.9940851296535 -3.77976237253323
195.238942653483 46.5639535958176 18.7002499417646
-17.2118371138899 8.45409904646139 -7.38078138185201
-27.3108424874333 5.31212204887292 -23.9674696392629
-197.460675230485 5.76359301870504 -11.7699296849383
-230.887769071398 11.2922957055717 -23.7271889159834
190.036677183115 -38.3802885502373 -5.79677280435015
-212.766420885459 -20.0341612631258 30.4956878688141
122.397943175672 13.1617952344833 1.29944486920668
161.522872176696 3.04893904248915 -24.8534280508776
-96.8431868746793 -10.9935883371549 8.82515998814541
66.559045656529 11.2623757891673 -4.42195315335186
-11.8186125910497 11.393715324412 -13.462656524035
-165.796295924927 5.82110329596135 -8.83133353528588
-175.179334228225 -24.2166819282622 17.6056795950993
-225.887273543495 -20.4047023528696 30.5496897537897
222.136319309228 11.0297203261412 -11.5890094121228
125.755277463586 -12.2256603131792 -21.729146269047
-28.2906619053251 -7.3483602718444 0.242567317341752
217.766317888144 40.8135345026751 5.53934934881018
-242.142474393582 -0.688487613435352 -7.43147089174658
196.562368153653 11.4085291303634 24.5916675661467
-163.615504492202 4.91440900142898 -10.1567688518403
-216.516841448035 27.956838888132 -4.55779052054393
216.152322999299 41.3021793770988 24.7016560770279
-103.593379885255 7.21520319503471 -10.6378469643198
-216.226179891239 -10.9348441659135 28.0725276618204
-177.920283278245 10.3827416746784 -1.11771987424538
182.988669265265 -38.2078308043437 8.77229397909123
-140.585738176162 -7.57991733590208 14.1422745562646
-134.992960906461 2.54262736687706 -14.574809493465
-233.300379571801 -14.8384630367962 -9.89238420170722
-148.578402744666 -3.59964807484223 -14.6153649276006
-225.61549062769 -5.57281255985091 13.8330160953543
-180.775193056441 -29.8954955499912 2.2536066277996
-160.463498468459 -22.5089359287866 -3.2022340841296
201.189521691292 -29.3275597794806 32.1443073287459
-35.0588073857198 -2.04649847927733 -25.0302005335131
-243.559836609363 -22.5330338729234 8.51093672020782
-187.577731310769 -27.7788298315863 19.8990915605258
174.925766631198 -27.9219599802866 7.31374413728708
-2.83628824715839 -13.3548138294975 -15.0875654448553
-196.181479760298 17.3543202250708 10.5458292361856
3.37371845739762 -11.7136846393969 -7.01064520513498
66.6729065944309 11.0507802752085 -21.7349320969224
-238.336124178829 -1.14851625315102 4.15109792856708
176.197515717871 -8.85181078259366 -29.7706685542873
226.12175633341 16.8302433930827 29.0866893910504
-6.66928874950711 -6.32300086303664 0.152336062581723
-98.502717655959 -13.1914758791149 -16.0096019288688
-208.455547339435 1.93719128108191 -13.6489363591903
-228.50030219503 20.3521239440701 -26.2277771892423
-112.351577922612 5.10948322098901 2.7417004437227
-156.860387174023 -20.2422912070789 14.6232007829695
-154.499025916294 8.5200381883256 -3.66453250192603
-216.47743020727 -42.6108766213938 12.1943090501211
-144.970643705972 8.5238083681374 0.696137531847253
142.307293321091 10.2765033623995 -22.5082625826526
4.2544626086302 4.92290605474836 -1.50555706183951
167.611929556356 -18.1126808416648 -19.5735861107241
-153.236394766486 4.66844567772365 11.9779118117027
-236.11334746816 -17.3116385755777 9.27484404018292
175.150134764572 21.3467734760658 14.5720239201138
-263.004460557477 33.9179210586406 7.19862757310497
-147.892478130917 -16.4711868135044 -9.98906542858891
-150.012908490881 -12.6491169677423 18.2924535484787
223.775540382187 11.4832070308619 -9.22550341061035
-62.987933078533 -11.6132651336631 -19.3069512704956
-26.3469238083343 -12.2811371100026 -19.0186185989058
223.971900284569 37.6053775124817 28.4899268260364
101.403035130624 -13.287598762969 0.611311002578854
-236.440080796744 5.26042064974461 -18.6483258801252
-68.9377534229778 -15.4186992927903 -12.0261973748541
-106.077047082983 -16.1866654324638 7.60232852868681
-242.508464722556 47.8472215351069 5.40799675708919
232.097217244128 26.3488805096982 22.689636282167
-243.67104888972 -29.3022515972288 15.6033338151998
-75.3914955675238 -2.944872651883 7.70765634080478
-220.018824623261 -29.2331984576088 -10.9132042244275
231.800489108828 31.6680647876365 18.9719553255824
-165.466680714933 6.95006659803731 16.8711344509126
-194.788897106593 -0.510229305384228 24.814787394967
-232.279598807477 49.7967210190679 -8.80145046123951
160.361339394099 23.3033736401933 0.669885030887781
-224.380248850645 -25.1265451718577 -11.7865759959251
-240.459168915065 48.7094358598739 0.176072025970167
173.210037045666 -9.03950621857565 -28.6495259230306
231.115113597901 30.3366314694321 26.2112952898572
-221.184190713848 0.11727118264075 -14.9867099804793
-25.4235070985849 4.15642345366878 1.62070039145532
144.515614793029 -18.7629826606244 -12.2441607512667
199.152354628917 -43.2211255479268 27.039421136553
194.216663928455 30.3200256626093 -13.3876345508638
174.321336541335 21.4981289679753 -13.8935245198614
158.335006976473 0.188729291925786 7.93049404481229
41.3112170931962 -7.01741649196798 0.389658754325695
141.496035451519 -20.2791980650045 -1.46482293227628
97.4028828961857 16.8780659645993 -13.491421455733
224.178076223159 6.61978339522345 -0.525791335849469
-229.406641233986 -16.6026491029062 -13.3373568291626
222.370978303541 -12.7124432199929 -11.5867799573492
199.239613979995 -40.6511691438068 -5.85269182963865
204.526070523711 -40.7059186604717 -5.20897002992281
71.6977939194834 14.1667374664825 -7.56117212783683
-191.815525789663 12.5411611474022 21.6769936069308
-128.204423973424 -12.79983250218 14.0088946856511
204.88311974283 5.2959716929543 14.8965799253961
193.217583299826 33.5941976732737 -8.08324901277047
177.845634077749 -22.7944990176498 13.0692613917894
-155.998818805567 -1.50173497064704 15.510153260844
150.18595809461 4.01756724161913 7.46595547930868
-218.959442722444 32.9874236951927 -10.142800508345
-225.795198581197 -14.2829107012387 21.8964366287753
152.683448412 -18.7596113693533 -14.0875776638302
-222.693962370044 19.8973304635027 -20.5944198426563
195.810123631814 -9.01693615157534 18.0775987081589
-231.211881482246 16.0175696064499 19.2292602390153
58.4010352859476 -13.912072821247 -11.5913942713603
-249.291137637308 36.2678293595005 18.7939364983292
-195.908559212144 -38.9808174693466 1.19890401741238
-194.830502219939 -36.8328898530998 13.3749661895374
-86.0376514421486 7.97922460624364 -12.2155656695208
-236.215150571008 -7.75917553109729 4.89821772746029
-24.4162277413036 3.66351311963403 -24.7550144783243
219.429472748904 -40.7601585088207 2.50928963558486
226.161310768694 37.2502196515734 27.6382991228083
136.756091822559 2.26534468882403 -25.9376066288222
189.029784844895 20.0803158437582 26.5176475166589
212.077824881505 -13.4745247783031 21.5612132048595
211.733887176603 37.1016816166931 37.2202878540649
62.6724851166737 -10.4330321542784 -1.54749920377225
138.903948591652 -12.6358806141381 -22.3778615573652
201.421116795249 8.52439673290531 19.5265355976301
182.717855356714 8.97884976992214 15.9125163248791
189.614057197042 5.72089494669979 17.7637671626698
-222.358562896866 40.9259350084435 5.13234857114188
165.976813373823 8.24722724084159 -22.5363952384712
221.266577298246 -5.34523333418669 -5.06392308540463
-258.938253997098 6.49726518765109 -3.94281552128257
-241.159403139593 -26.3132608074084 -1.24853660015601
197.524015149707 -27.7728668989951 -24.9230399601745
-257.46089851023 7.45309212399956 -12.9832494351302
-158.674733851027 -23.7768768093255 0.692680606153402
-193.819898810989 -21.434834800729 -8.42663864848668
-199.678357175762 -12.381825376743 28.4369050354193
-254.305553940775 13.3489504371933 -19.2716286795187
190.632919297559 15.2720220678491 -21.4596095608278
209.299052068182 -13.9880423920133 22.1066499888241
-165.921140622873 11.2118427162112 12.9927553575413
187.010721430395 5.22848466729005 -24.3304249036005
-239.09400158418 1.00645539373304 4.93481293213105
-245.484029490428 -24.2390294516268 13.7369401980803
-190.714661035028 -32.9292445845641 -2.68523484939823
-226.103353287682 37.1633835714176 -21.1651901090307
-31.8380631064323 -3.8218923401401 4.81196423475691
29.5637250345256 13.1720598751435 -16.4626826675378
137.216773658669 -19.456759635593 -0.89958817574026
-225.724050457962 31.4984551272861 17.5969884201988
-237.559769354233 37.2091868915972 20.1039590256269
-207.602888808157 -39.9308478422042 16.71715705317
27.0060299877591 -11.6685331819145 -6.59250293626129
-170.121871262928 14.7530994524355 18.36845347123
-54.3983798593328 -11.1262835675662 -20.0992978863541
207.109161090157 -2.37574307663982 10.5423737174197
-255.294534150914 14.5308908670898 -22.093896027822
-188.409256206392 6.93524511118228 -11.5415313045425
165.517757175073 -4.39644309236464 8.63694565590081
5.47394491317452 -11.6827293468061 -19.963425895125
-187.203019534569 -17.4078243463186 -8.91438886555785
56.3166936666686 14.0383845680316 -10.1380013290153
-209.017178626893 -31.5123657053143 25.7785322982486
-231.501623896826 48.0643601303104 5.02149301005397
-222.699481045454 5.39727677319171 14.8201634591835
195.145912076968 31.2964438601825 38.4424195710117
215.541841722306 -12.3482589961957 -25.8965369602868
161.186986765324 -19.1520971720628 6.67109127388115
-191.636841150259 20.0813227570519 10.674034518041
-257.195655164078 13.7409900877829 -17.4762588510255
-113.632181075945 3.65249302313566 5.05329572707618
151.530428286178 0.661665069799189 7.34634233149857
-252.0716585679 3.04135436488634 -10.1883084149995
150.329504774014 -20.1617090893157 -9.94469909276538
184.060117523565 -20.9431578913587 22.7539650104251
191.617338196022 -28.8443784056232 -19.3112174274307
132.913303290283 -8.51227728198137 -25.0021138342263
-44.5561617582376 -12.5755457877324 -4.44739271790339
-134.23798446144 -21.0907806772058 0.56797727661916
-178.635482438794 -10.7715503902131 -10.2643486241971
-195.049404680632 -5.6488218153191 26.4954144522299
-153.387249032431 -13.4408137665815 -11.2784975298526
128.357183526342 -14.40728802335 4.92216858774779
-221.723161756672 26.1899558189449 12.3556197924743
-132.472322001093 -2.23968108369757 11.3291551081295
-193.79554747435 16.3652034640907 16.3140105900438
-237.276639265795 50.7374369527503 -4.12402821691308
-60.9732510182229 -13.0864380283653 -17.5643524513196
-220.370294429235 41.5347866470749 -2.08494624208281
-218.265031314374 -40.9157960677796 15.700047613361
125.940626745469 1.32738673307491 -26.1710716781969
193.431351443713 -43.0926888995633 20.9502189021027
-36.8133354993361 -14.3937963807902 -12.9990817524982
-182.609043947184 22.3698686286183 9.30663343239569
199.665334381439 37.1502002770213 -6.06954483701584
23.1222733654074 0.199049053930302 4.47144766348088
-247.602574649056 4.09352802030027 -17.5276487189663
-212.919930329862 24.2698621508043 -0.0797018397616083
200.303137709059 -23.3244740774581 -31.7063093822349
-176.449678442166 -10.134985362127 -10.555867381772
-220.623652646003 29.0067672724515 7.93482266649466
144.498493492675 -17.1921875246552 4.9971143564687
209.295247522531 31.2472815838017 42.6035555314255
-244.589578905473 -24.6837479910374 9.21434998107461
176.462416822719 -26.927218135557 -6.29457459484956
213.987391811691 5.05511334323194 10.9671175456449
-220.811965999298 8.50744168720911 -16.534746092389
206.269852182516 47.2203359222366 13.3144239359245
193.070532443019 21.4269266088302 -20.5190876306735
213.781063906099 33.6701022165003 -7.92535641165853
-150.057955766087 5.64231549413658 9.26805089909273
119.655913206049 -7.46069883112957 -24.8379460733446
231.812731682899 32.9739095394695 5.02984821745171
-202.299349530317 2.24367911010362 20.4573650774624
-236.116176784514 -20.2499480710728 31.8999272129924
83.4658717973918 2.8458447748882 2.38135741618279
-227.065898663824 7.46478523010497 15.4048775942446
-243.737015982573 47.7777853492151 1.49928396127259
202.786641314457 -45.5813343213292 23.4172830344028
154.366322003245 -13.5168284479991 6.84137617407448
145.68638865729 -19.3580784184268 -10.7511099261702
-116.475685990041 -18.2253504233022 -5.55846543534801
-239.042548053584 -11.7515371940839 24.6301021317812
24.8200828833137 -7.5998144265565 -1.10588351188423
226.545143965649 35.153910907986 31.4701468295486
-80.2915444456692 8.06274250376507 -7.96220697880748
-166.978141448161 -23.8560907475027 13.7206471099771
-256.033671635613 28.6540969600364 -24.1235475380577
-212.107943167442 6.73729030696643 -13.7429176059327
144.573990714623 -17.2031004640793 -15.9674709026811
-223.243013323648 -20.2754816241102 -13.7504213721353
82.7146987292582 15.078228346581 -7.17312185795948
-172.030573839753 17.6610790695364 18.4553420314565
228.915786150152 32.3476691369406 28.874239246279
219.305421958001 -43.5370662328553 10.2568294498747
197.222157999333 -36.2329152182255 31.1245697873061
-239.419886282068 -27.4127369554302 24.9698737121655
-223.148284400409 -14.2185264542773 17.3707744599539
60.0297947203502 8.76190626091442 -2.79645292263548
-176.154981027019 -26.8281519882096 13.3403048100891
-224.698357796238 46.3288033672633 -4.05415246353188
167.89485481235 -13.4347177931901 -25.1267877327077
192.093321781684 25.2622202272215 34.649675244234
77.7071351898123 -14.4135042320301 -5.61732878780428
-256.222733860724 13.5396063875599 -18.2524447081916
232.291304169857 27.9734400464564 23.4933594040927
-151.120112736297 -7.87569352358399 -13.4416411908728
-140.184646776971 -22.0082727061249 3.26316274747207
-210.438900586775 -40.7899834557653 -4.75152322947625
223.223810347493 -32.2504680959421 16.053169065147
137.736802759726 -11.5072190155476 5.50634759339366
-226.82145838167 -39.139001370724 0.36495514960635
29.0027804929878 -3.04109571615433 4.47560989001374
190.625538782655 -19.6206542274611 -32.9977551042059
190.975981303528 45.6717938439185 15.2146825043662
-240.586552092586 -22.2623174453942 -1.70102738289354
-219.81651992151 -16.5919679716191 -13.9210434633165
191.063025979448 12.3697711408648 21.3669388124306
-214.872508466434 -26.3489230733391 29.1223630626352
-172.445155469906 -20.9651541901726 -7.06005464313585
-201.078170695789 -14.3259231968451 -9.98410960060548
-128.955176705657 -8.43714392761648 12.8286721804638
-95.6186311150534 -12.3280150714731 7.59051598271231
221.130362160046 30.7544578546475 39.7637597060065
0.587865963956334 -11.2227593022477 -6.09100000220316
-246.950206286641 28.8730134436304 -28.5284850448715
169.927356829606 -25.394627385378 -4.94649572714009
-245.50794691551 11.4922211370124 17.7282594448408
112.034957263988 -13.8666650808753 1.99149406208438
126.259804740877 -17.5852290047403 -11.7895360951632
196.723268387085 26.1121792220979 39.3083812830538
181.059758636952 -24.4667501891441 -18.0197190069521
-215.868838750939 18.0819820768952 10.5996477688837
177.762996073158 30.442403553278 8.91774753711855
-243.435027456928 31.5598958855544 22.0014889820527
214.777873664981 -45.7347452488934 20.4836710493284
-245.122827018376 3.21528138240385 -17.0512264841203
-213.112874845533 23.0988585319783 3.99057729502782
-195.133990643756 -38.7108118102633 6.08464888971291
172.27961883115 -20.8672183388772 -17.3938299005583
212.384833790678 -1.53707726279897 5.79863974517035
-210.572719329832 -41.954316076696 -2.9642401672358
-56.2119488687036 -14.4219920029823 -14.7957028063211
108.081850851112 15.7459115013117 -17.260770988338
46.3901652972565 1.25412901502093 2.35123505153422
-191.855929512232 -13.2978957215476 -9.48997590884457
174.662300569811 3.77926878012361 11.1981567098037
221.278287772711 -41.2828777141003 3.9229662079562
74.9018500075705 13.5371712460198 -19.0171434301799
144.433893562561 -19.2759713851634 4.22259060155843
184.311643140173 15.5286818623567 18.5159953061509
162.438301534677 0.362063896540296 8.43644191673862
162.495214109451 13.2411428692599 -20.1290116545739
-244.749206995559 -15.0922499026363 19.6514753378917
198.651423995058 42.3375371602455 29.8758041064521
-181.504338117275 -3.61264607333297 -11.7145434614604
-110.261391495257 2.17186854172852 -18.0376971989278
214.922251106307 35.4497519984177 37.332715541226
-75.4874988076816 -6.20868323925016 -22.0814076585303
-202.721363825103 15.9841407210248 9.82361383537877
-232.411226237094 3.36683232001958 -17.3110365728626
221.766724252956 39.6436144931838 25.7248040630847
-65.8348170579337 7.64664016276641 -6.59216503779583
-239.765742823752 -19.3971762559933 -2.56714389661388
182.250257088027 -21.4220893370569 -24.561222705741
88.0939792888602 12.8545570764802 -20.2078514711253
38.65278409946 -10.9068192229442 -4.65507396042818
-187.842040030836 -4.44324209030296 25.1004594791854
154.719266483746 -6.37206657755266 -26.5568264863044
-230.174298055319 -4.46866158126185 9.66338748100556
206.728915706468 -9.4171436839166 -31.5107928837263
-243.763141463162 -28.3970743040952 17.7523153015994
226.137642500442 9.38423321737489 -0.0390321962857703
205.4405398305 -45.0518589010123 4.93573556336324
183.147653230552 35.1738899803681 3.8563109552338
-195.480162049101 1.99180187379034 23.5290675509301
-244.957873092596 42.1543187303489 16.5394557520326
-220.20253951401 37.4994295280993 -13.40042704724
-181.476008155537 2.26173789223751 -12.1810649407233
221.119374037253 1.66323295880016 -3.17486529275573
-238.179652676616 -4.24952866611341 -8.20435422858364
-18.6848600662564 8.21371818797201 -22.4113859405427
130.294715962976 12.900107608278 -20.8880332032668
126.368213456688 18.4262649975896 -4.89048373838644
-244.810398458948 1.31434121561431 -8.36847656753113
-180.562469256185 -11.8310247808184 -9.95914062622074
41.4014022091358 13.6722494773261 -16.1909268266885
-223.089996987001 -18.7672475528482 30.2314564845604
65.8929631889094 -11.0999110705892 -1.90454587539787
202.745594262613 -18.9693319837904 -35.6788531206349
-246.929816675804 12.6287065925366 -23.732824006534
229.233615530695 30.5686931812628 31.4150989836696
6.65160024838646 4.28765211677714 -0.0582759575783295
223.2135195169 15.2676007464915 -12.4317708814983
-8.55296614380701 10.8542349040085 -11.6297819459397
180.384664641062 -26.1843353736135 -13.233738529264
-194.844777112386 18.3212439179729 7.11515053065969
-221.274003033114 35.5341384545861 3.70409819997356
207.23162713694 -31.7342049413425 31.0478333702575
222.279276462889 3.76564248197731 -1.2294343137991
-224.863966472623 -17.257659086503 29.90742732141
182.115577538916 28.1185664943937 16.4524356248328
-198.259137805785 2.88674413173326 22.290926976025
-263.2128102555 30.7896370899625 -15.4052742477684
180.757599998155 16.9024020529709 17.5190774395203
-208.531494683015 -36.3658835815004 20.83402346536
183.839745273878 3.02088576693317 -25.3512208976411
-201.373513345229 -10.3291982487814 28.428970770259
-197.331372550546 -39.1472953303034 15.1564158081544
-235.251842129518 -34.7350444484986 16.7254974217299
156.044637690604 -11.4504596114527 7.30142545517333
-62.6611566766149 -1.88897035646256 7.13860666660622
-23.7863589503529 8.74969106220632 -21.351788660019
74.8856108888404 -6.54893902789638 3.05940909190824
-162.640394204299 2.8314022456488 -12.1301916200009
160.962770481699 -4.05202745946704 8.07312038005929
-242.341071241944 8.99366792488998 13.9189580422572
216.676851155674 -40.9789291924148 3.53250599754925
106.39596439075 17.7598574243748 -11.8327827879601
-233.604798842221 5.37179493946843 -18.6614925820711
-221.122165209701 17.527800420886 13.4417116257649
198.182775794954 -43.2483221644133 21.1030238640459
204.828276270483 -18.0187509076355 27.8065787302525
209.274065907978 37.5210396623045 -5.24471997425553
201.243101030444 28.6797907823337 -17.5563492649332
196.202344899321 46.193319420083 20.7519579614573
187.623318630523 -30.8292894862146 27.9085759172466
78.6572828880939 13.8753481034452 -18.6650761823976
166.125036934988 -10.4958238547493 -26.5090602044467
-217.160300218382 -39.7996626254448 17.0490474927622
-245.308047062688 -15.9867722401163 24.691257791824
171.246901606123 26.8245694971768 6.1865252049272
-216.047113425402 -7.51760546352172 21.779444820722
-230.894139224993 -38.5373834916181 7.83750654502025
73.6438335871329 15.3377070485108 -14.9073607945739
141.952131575575 -16.0462750903199 5.10938581412925
171.157387401337 -27.0421187894561 -2.83790009037923
-99.2841841187047 -4.9879699438159 9.00028979046789
0.132095400485876 -12.6572693771602 -9.11189511648623
-239.238817230998 -12.5416222624947 25.9908508330602
-201.00274747998 -4.35618406153206 -13.2895831836834
231.00214544818 16.9112842482532 5.70962793075956
-257.267418729071 38.8085025643335 -18.2802863692696
206.366269702449 33.944101589524 39.6416254276979
-223.154255509264 -11.2247355857911 16.1138834955366
198.492423350984 -32.1346620212976 31.9128576500402
-179.072338744154 15.1357289653759 6.40087008608238
-224.830126425248 14.5836884120006 -21.3323010463958
-214.418294535411 20.4280927190041 8.30486686152592
209.403154296904 29.8443730961707 43.2719334523692
121.925732379041 17.610025284292 -14.9739949037308
-230.745881362235 -19.9058001648252 30.9114767694816
185.161862011599 -22.2568686872018 25.0094675158292
-218.585006584674 -42.7265219054103 11.199464649798
74.5850643623895 7.35952337737895 -0.371286461155972
-237.87380445242 -16.9747604656087 31.4898494438101
140.121414552354 -6.51405143372676 6.14458714999758
9.3963034737956 4.85746706481199 -1.26337736017754
171.187620833648 -15.3620594063691 -24.4544473865445
-38.9908177512743 2.19898661273799 4.56335938014139
164.041059401845 -5.58568958047938 -27.1293583567497
225.817513005955 -28.9377211281803 6.55405887194281
-50.6062878224824 -1.91804471768938 6.79810613475134
211.401570656648 -42.5266548526492 11.2769272105253
-157.412469480307 -19.0880707651804 16.3410645405861
-94.3580450721306 -1.45166047915647 7.75339729282657
-211.780326819981 -40.7325697499827 15.0032264197822
92.7906772487866 -5.83019848731501 4.24443457948424
131.234703106833 -13.4880217200524 5.21950747049993
-2.2692799651604 -10.911026998227 -20.9838772038191
-194.758709999894 -19.6937153575349 26.089654856698
221.875419484122 -42.4289154868403 11.1523755436522
-255.288788391928 16.9727914721135 -23.2289168071269
88.401241349666 -5.57159435360971 4.13769418308635
-202.276995618704 4.71456548373472 18.2123342896081
-9.5938530678081 -4.44958148849784 -25.146689480925
-205.048229930506 0.717698874204011 19.903938142651
-55.9142360190142 1.97162323966594 4.66932029822842
-243.153469532434 1.47501732875024 -1.29454850382562
-232.755598979977 -33.7134953628474 -4.78852082559572
-207.002736506014 -30.5923845228785 -10.9646866012892
-210.932610216783 22.6061572158592 1.89236637475173
169.364452179716 -4.47935691226027 9.33993333355638
205.302690034403 -42.4373929614741 28.1263439628338
196.972564259912 -42.8405787261002 -2.78417459406003
189.228777776002 17.7317079766385 25.691247939957
121.608065347289 14.5196821438521 -19.2984718276783
188.155720159705 -11.1132500738876 18.0381946132235
-107.417862003205 -17.3961691566579 6.55390369487078
173.572371458357 -10.909518149802 -28.5850305747717
185.034757544147 -22.0821626774773 -25.964998836834
162.787781369803 -14.4961777172147 8.06119582451997
-98.4863606555404 -15.0957685909637 -13.1810741521945
88.4007576357834 -4.45905872221708 -25.512865641723
-230.682371557551 -19.8863895642232 -12.3417344456271
232.975417586571 30.2312302587498 7.74233838392608
-226.100610615682 41.7815783016586 10.7984762386909
54.0331150528538 14.0774628893676 -10.8500311588287
-240.34064398173 -18.6988084445877 11.5295273963787
-228.932701328706 39.1462058166746 15.8214247590971
194.710541671402 -20.0768976644862 27.5817482389788
-168.039962737634 6.52162271018615 -7.97739711063302
205.712827767116 31.6951636585349 -13.8331118849391
-140.372111355772 -4.44708414870384 13.0956766055579
-227.02012572228 -1.14703434102697 13.8739802315303
140.330447699733 -11.2807884252508 -23.6124838371032
123.008254662929 -17.535623713133 -1.68321206413301
191.759402534516 28.2063104537698 -14.8159195563176
-172.173689323943 -26.249943044015 11.7487904209331
-12.5867210256532 -3.12726703561884 4.05142924518763
136.898461696176 -18.8929693225721 -9.7994172443266
-216.580224976941 -35.3898772405242 23.4500796416761
-205.047867046109 -2.780185793465 -13.6910716790755
-129.496031169779 2.54189785600702 8.49996136171587
-4.60429517494289 8.33346266710264 -6.77171389549885
194.531410661672 8.24433410462624 20.855585115399
-19.3837409693456 -9.26293618562214 -2.63737162501973
-114.247205226692 -7.97430690739352 10.9322826197401
-14.8227211096555 -0.566887433720342 -25.6959738232847
230.926021281481 33.9588231119122 18.1320783187643
8.87040202110418 -4.74420992566056 1.96915589612651
-241.047209973333 48.237480302721 2.09084294447104
104.38256011654 7.05233048671773 3.03957056225733
-191.931896744643 -35.8152050529115 2.51597414919166
-105.930881345663 -16.7115185990415 -9.67116961799078
-231.62098188484 -37.6774799882553 4.15372908303294
72.6811444139358 -9.98736015738581 -21.4252794117854
214.9882586945 -11.2952241368629 17.2846932767899
-265.903844638849 23.2546609376226 2.76428935474993
199.133600215792 -43.6291604768455 24.7050797847092
-221.557950255003 -1.37547987752269 -14.647000335744
183.205277354 0.716218615520638 -26.9620525977875
150.385134012463 1.86039070758303 7.28446713783026
-146.010748188311 4.27016568079846 9.90294357075667
-185.53924894726 13.5984063175151 2.59018546807682
-74.767976395634 -11.5650898291535 3.17744324577057
-256.589387343379 12.0245894180762 -14.5670016356398
204.296329092209 -30.3382031368212 -20.5826615398992
206.782121661435 38.1883336375418 -4.94752284834727
209.83559171651 -42.3872420324888 -0.842428597012252
228.030365661046 37.2498851898457 18.7104446323426
-6.38262372854859 1.6045138070998 4.56018402861175
-264.212343677731 17.9153100720693 -11.407048560717
123.934795617086 -15.7530866307793 -16.2263394771295
-183.455684790085 -20.4776600286543 -8.04701522421989
218.199041700398 -34.7747956686506 -7.36341430555815
-205.874324368899 -9.54436897553435 -11.4477395234208
-170.068462985985 -20.5254852121434 19.0868590966337
-223.667869918644 -11.7840110387867 -15.0638441840786
95.9072415892216 -9.0479420284317 2.96673874367956
157.460104609305 -22.9922049636784 1.00437881713008
-29.6038229807892 7.72839392025261 -22.0587328668653
-16.1084475070754 -8.53540421893686 -1.98183606819958
51.2545801701043 -9.27434716457667 -1.36413199702556
100.381182892296 -7.00200446522303 -24.5847550211933
-235.488812780894 -27.1229174217432 29.3019844705511
-243.259225425055 -27.9389152040551 5.9175562237598
170.252720970129 4.83196808510005 10.7991583896181
48.254018205261 -10.3122158919733 -2.95001785882176
204.183352876111 -0.0336553194808791 13.1111616303278
-222.273071294905 31.7494494182779 -19.099605503099
192.025103198712 -12.3666403731856 21.1496465290197
199.985034763547 -4.54059524054985 15.4304452099644
135.531905490277 -18.0565581253833 2.94829800192574
-216.24113850784 -31.9314840076727 26.1757722812925
198.21602450427 22.8129896270713 39.5649755619467
156.336497406872 -10.5284557787447 -25.2449087733073
-150.690102604387 7.81973231974812 4.58618210245902
226.00063597497 34.0763487232371 -0.61945677587154
-168.79845694727 -1.08292641818071 18.6270453476698
122.118246131151 10.6356871541105 3.22069931089469
-251.403723442691 6.03414999327879 -17.8210777747273
143.666446717108 -14.6947658429165 5.49352702483685
-229.780791701882 -29.86425432823 27.8162404847816
178.063082407628 31.0819256004741 4.0510742662289
-240.31703584931 -32.4622519350133 10.5069143136497
-236.069452617438 48.8775855760732 3.76530198741265
175.096933668108 -24.4536112129044 11.0436711552549
100.051337659536 -5.35114744632015 4.59010221352346
-190.755164187747 5.92054541974536 23.2500573511455
48.7918272656932 14.1641388259473 -13.0135457225478
19.8170741081836 -13.4218946290452 -13.4901214845751
-230.078612088371 -26.5003898058191 29.9727755891381
-253.661715351591 9.27616738394528 -17.9523194908809
209.766515258221 -47.3016424126075 20.3121236114154
83.9282326250082 0.502985212526767 3.27686896061164
207.846577359725 31.5744227153272 41.9647269441667
214.044109648879 -35.8900837384891 -6.81074895179965
185.615634011886 31.667648441724 -6.22238663781936
-216.122956351644 1.13877622012334 15.9118288854063
-214.985532076488 24.2641335859266 -6.60339003740416
-19.0882477064888 -1.26839650099676 -25.6084256987134
56.4956727343688 5.96902472591164 -0.956552653121983
-233.805837315394 -11.4532683308514 26.378623129276
-229.726137924051 16.8749081892982 -26.026213324822
190.530900969873 -8.37339805796469 -33.3939490656642
-173.414838326485 -22.6404951743071 -5.80743753087704
229.77194435439 16.1790045756609 18.6863696370848
-223.607722434423 37.3842562703458 11.6742076820876
-117.302297452216 5.6852031727296 2.30533744745841
222.888443841485 -41.451605052727 8.30250076223138
-34.3874605835342 -13.4637833010693 -16.6080928090026
42.0890644922549 -4.76563912816953 2.92267686533752
-219.082548863804 29.4254441027963 3.3078320544363
-40.2424273584382 7.57677103813834 -6.40685951119092
-31.5239782526995 6.85231208928458 -4.73741619358147
-76.6817258037374 8.04893585823998 -15.2255843423365
214.180432982159 -28.8376781517516 -22.4663617992194
208.245978418054 -7.66216788614247 12.82747581729
