22.7526853858333 -0.79943659164433 -22.223440895302
-83.256159145612 3.59969386896391 -0.0973245860115802
-180.565707913791 2.61487940481919 -16.6381075430863
-172.349536838194 -11.5657480174616 -21.67349757496
-140.873198055995 17.9381019374212 2.9769948698359
-165.630357962502 39.562913550475 -0.536354371223066
-23.6916420715952 -14.6995027342977 -1.31962136120283
-1.61933977990405 3.37411392710821 -4.29801896764601
-185.915974774126 12.7997403095296 26.6540425197625
112.820158626912 1.69991697878183 -10.4378002564739
184.346269267998 3.28249221934025 7.11507827513399
1.56970063231794 6.50428494083425 -13.8730552128861
15.7352186669038 -5.72854953002859 -23.6325589675064
17.8527031827582 -22.2943207392809 -11.9705035202779
115.67626692886 -10.987463757399 16.0179892026065
160.910777604942 -12.9975959789946 28.3205752072379
-125.767463968167 17.8021537705857 -17.946423818249
171.006204550158 11.7666145169624 10.9818959221296
-177.456130032488 -27.0960955863727 -17.430917639384
25.6179664459256 -1.26800834749339 4.18709819130426
197.67451344253 11.660960249063 5.47250330399257
178.554830848718 -25.6776801507792 21.8559921584719
-35.7066392222313 7.56593474122613 -10.8848214345985
-149.408649732136 -17.7303819812203 -19.762073749656
-202.321618879038 24.9331784561243 4.04051023908489
-168.529280590155 -14.6144697957708 -22.4484540345208
-185.421561654593 -32.9496412888074 13.0929123524981
-179.752829588588 -25.6762230104527 -21.1715679529579
-34.0933832493913 -19.117462899922 -5.15469740112955
-154.644434145772 -28.5321712865213 11.2229610302958
-97.9712743849589 -21.6279607493979 -11.0280678342975
-12.2511875931207 -5.64476216087623 -24.829107290731
40.372924453049 -19.307175469496 -16.4719671602722
82.8375754588955 -20.9991401780969 -9.06060031205444
-92.5980977899341 11.1015313048334 -7.22834069728503
-126.622816536489 -16.2889482789143 -20.9356622416915
110.664991300349 3.26152186141991 -8.83188488490518
-191.453486775611 29.5109107536012 -8.92398693348226
119.284202074505 5.99984101208823 -6.62561812494406
-161.538186041551 -18.1351100416888 -21.3015544260497
-80.6359069427622 -10.0660729647592 -26.3820168548602
117.30447503692 5.98000775604094 0.304600575663456
-183.11840737542 -10.8027841512489 -18.7603073049125
-92.7044476807342 -9.25415585267499 -26.2632496257566
69.6219796079364 -12.9621443410007 -18.2816883829128
-81.3179910392406 12.4063713391866 -18.8038957365239
-155.132721517763 -8.85791913044715 14.4885038350148
-146.347709639169 -18.4713250725495 13.7347720428603
-170.083892226264 -33.2385629358393 4.98594507861615
198.953311852051 -17.965953168421 4.06180791392317
172.330100111808 40.739236142402 6.21721572057308
-195.530119707427 8.46304752055127 -0.069141745994545
128.470932165063 -19.2666682636192 -6.52187423084689
-186.539158018956 39.9232764789022 28.9505841339748
181.244394237844 -5.0110709393231 6.10516631192596
-150.444022007667 11.4550525984622 8.34848109488241
-165.325630323474 -0.825515469876539 17.8631710964228
-195.664533903356 37.085067163914 7.75541290461855
-96.2318430970844 -7.32357398476652 6.19297602280244
-139.681206815167 -17.1352647862459 11.3178247020718
-49.7181601365018 1.33240050771965 1.2077958859707
-136.114275565565 -23.5530066635159 -1.9839067359579
116.608130191333 -8.3292806297683 -12.5353520860799
169.095839654095 -12.7587728161101 -13.9690883661681
-88.698783022157 3.68838233885322 0.493823651180939
207.370066966156 36.7657656217527 -6.38144048900553
-166.030717717286 14.6349051136183 -20.8947021273806
189.264256626047 5.69471984918994 -9.99214679180618
-115.963092273437 15.0642765963086 -20.7903850309689
-160.084249940892 38.6189417780468 10.7048765314634
-161.353701427723 -27.3882012406915 24.3778926467957
-123.039957884631 19.0371503280375 -11.2075719216172
-137.677209605804 10.1160422338997 -23.0898794875659
-188.003533550556 -31.2832392014489 10.1981224335825
75.5446515509576 4.29428700980319 -11.2344353106045
-124.732273880147 6.02975539508235 -25.3704257202665
-151.602790264678 -24.1286863582663 14.3420369854486
181.902778061148 -7.09719091017101 24.7780704611312
-190.816858700185 14.0329734576686 -17.8198297958664
-169.506550105549 14.1482577768465 26.0066301121477
27.0736774171004 5.20447529093174 -7.41913848100995
-179.44316486166 -8.80120582449972 -19.7250183734757
-63.0503352133363 -20.5053714146909 -6.1147252602833
59.7239499727253 -1.52954588398715 -19.6488383994557
102.687954228434 -22.2584215274649 6.85584641375472
124.963776457115 5.74084510565609 4.67241908937245
163.200340750506 -34.3834043036526 -1.82549577340332
180.275838852084 24.1423419494244 -23.9051227864647
155.517121414098 -9.94267195242612 26.0138880257496
30.7577601719753 -4.99286628019153 5.67733501354957
-158.088465210406 -11.6809575019391 -21.3163699289922
-171.735455245906 25.9699502893179 33.3979516298014
200.750154098443 18.0940052031373 -18.7426303982425
-181.630058284914 -34.0217400526681 16.9068469249973
173.915068937408 38.3094601013365 11.1427038836749
103.500594603513 -23.8589602093174 5.66406272721087
-11.0910701018893 5.11167603035066 -20.1801661987297
157.056801811285 -7.53275081402595 -11.5908461888706
-77.3432641480831 4.31075630875069 -26.4931608690621
-195.937243097418 -13.5605720693434 0.0130687557312528
-180.855969373117 -2.05128930550854 14.9809876049388
197.264621875212 39.3456561786638 -18.0344933858442
162.859000942769 18.98952160381 3.91792652690692
99.3833122624379 2.81531604364637 -10.9212637596235
103.180614242885 -13.9065820138473 -13.3323197925893
179.048089210909 32.517773796398 -22.8937971002478
171.213341859188 32.5967112390403 7.11212453331379
178.221501298667 -11.9199405917109 11.6159860127832
38.3153845085629 1.04544039924312 -20.0181514967188
86.394631405712 -7.20874345258234 9.50413446664574
24.2038805122338 -18.2756597888972 -18.7181455401579
177.677380903203 -34.3038362044063 8.6157244457265
-162.85477851138 30.1343401189864 -10.5669525878232
-36.4885967800219 -2.53277409585796 4.42310668517571
-153.27396616655 18.74917262826 7.69970692238237
-198.513710443365 30.8294352803039 -3.64077372731275
70.4969945090736 -16.530490708106 -16.1133455200053
-70.483823874734 5.98773285220124 -25.2464802987884
54.6823555911191 -7.8535167895102 6.23325904310108
163.924344694953 -34.846514129736 12.1636554377379
-188.939195931806 -27.6627759971064 -12.1484564452218
197.864463745017 43.8019488629082 -12.1947964330451
-98.9310862699638 7.76658588506955 -1.05717964330266
-128.265399819775 17.591893538234 -18.5196392355289
169.203363782244 7.70497563867841 11.7033913610874
-66.1687479768857 5.56398954375266 -25.1855459032852
166.565036334302 -3.11506355452673 23.9773244739468
-161.931066630149 -4.95622727542859 15.2680288926556
57.6501395788754 -18.7450306441143 -15.3275345008986
-174.552482348272 10.065933710553 16.6824744076006
194.472802550711 -19.4854188060355 -5.1190676980767
-177.68098316037 40.7555129955321 -1.24133141365306
-123.145056160359 -11.4313080033253 8.43653576566749
107.92191268887 -2.58046434175469 -13.5253310634614
-159.147822756866 30.2149016266637 -7.84687764421068
-98.6005374056836 4.61199309686709 -27.0474183822498
-85.6930980033017 -7.429542859904 -27.3866684288127
-177.745199169083 -33.3717144739994 19.8698540216698
146.520183455201 13.6725039319505 7.1934656139389
200.179391545537 12.4535256504974 -7.36245601211876
4.80220522492721 5.89013597666383 -16.4332104991011
-170.369889833846 37.244845841907 -6.58488881292552
76.8053937157731 -0.273565873840769 -16.9365075831377
-162.776417363259 34.5690240712609 -4.99517825023664
76.9204143816856 -23.5177528034802 -5.53470083964182
177.632121267299 42.730561624416 10.2405184224709
-170.508186216091 -7.04511386797647 26.9107876867023
189.366491735299 44.5616896095345 0.501843252879208
-182.989221710377 42.1258207844285 7.55422422845732
-79.5368178585512 10.020895636109 -22.6086789957463
181.033576682726 -32.7703288488364 -0.890792181728421
65.4285032718417 4.86582388119629 -12.0437678636891
-44.9961449199681 3.5581420822691 -3.12884211318636
110.676123557212 -24.1887437107565 -3.02605174559908
-70.6891114775738 2.25427808367325 -0.00836763663715605
159.069189646955 11.9770353533671 -8.08916371379287
-189.284287337968 -29.7777397187719 4.68487077054998
141.887776258271 18.5674097957112 18.0352820711658
191.5502941262 -27.7105463737891 8.82768801760862
-141.378214718287 -14.7456177053402 -21.4438892773645
-168.766266252509 40.3811708191621 -1.29747621302723
204.697602484973 40.1395032652309 3.33877887390679
162.984646013963 -14.6273958056823 28.4268195230021
-174.327328669975 -28.9254854951826 35.4457181229748
97.1434565023041 -24.1175715280123 4.19136571346398
-124.064952847773 -20.7908281247107 -14.9525078136686
125.341637802145 -18.3599503389426 15.3952620200618
-194.746962385743 38.9842519171753 17.9899083289291
-183.663903102506 -27.9545486752344 -13.8602290225242
198.78347273355 11.5315316806537 0.757353059251189
-170.597905933183 -1.24113367935989 -19.9888819231505
-167.972095285505 31.8005313843375 -10.7716770566701
-190.737227263183 -6.49115203931955 14.4648122546057
-89.0107582794872 13.2630563361357 -18.941407008613
-159.168927094949 10.0164652567837 10.4684366415871
141.990159839998 16.9789128318199 9.46163472058706
150.835796009162 -3.12956647939484 23.9235598872818
-37.7481775624918 -18.7143590224965 -4.37803209105983
158.0101713429 -23.5545775100201 -6.67846092318401
-155.171186849377 -2.21429992020624 -20.3639962417403
185.61121541356 12.4238492388998 13.15426798444
134.98309871859 7.50954554471547 -1.12487147556748
167.914196924311 17.2647834994361 8.38519607454738
-38.2522488958053 5.44508776672356 -22.8627008402914
-162.442610899344 -6.67203159704534 17.5306912334911
144.092614764868 -1.90391314079945 -10.1698499996752
152.340538305749 7.93904209444521 16.0174372464937
-20.8339887917744 -9.62325480741129 1.29121260872254
-185.572752577208 14.8842317763081 21.6173041284853
46.9581352556727 0.702248840589571 2.33996156963374
63.5500388318058 -20.3186804650992 0.564446065347101
50.3691027242845 -0.576112680318187 4.11311844097476
-162.978781111755 -6.4915555170374 18.8083090674798
186.666804659687 -9.95573416740616 12.4276446892046
-42.5649858076734 -21.3597559102167 -13.4451892095485
-90.2995929156131 6.15478488346166 -26.2912133348632
-170.851365734258 -34.2807656982668 8.3096677248925
-47.7075641055598 -13.6641382772932 0.506988716920133
-168.836804207543 38.1958585559612 25.0721685067345
-89.6390065038691 0.270402473371593 -27.8974526046583
-120.565020407364 -10.5640475649805 -24.3382544735393
-184.182391456981 36.2845322493211 34.2632012248912
194.216208968164 10.0235423667334 -8.8250811199798
179.831492802738 -21.7689192079264 -10.3171646080082
-130.587919741944 10.014503612361 -23.7897117565366
-174.822679082589 -34.9874815209452 9.188658520532
-127.605660381861 12.5108774110761 1.13626767485788
184.505541578958 -28.8418704528146 16.1994975887228
-31.3936927120867 -20.0571063856696 -7.03469908597546
-167.492428308157 40.5122345713391 0.769576662121235
-104.07981678448 0.63879495737346 4.06101955472048
59.429380458214 2.89915030949887 -16.6416534922772
201.652276157044 24.0682910947641 -19.6436611863752
-35.1638520911006 1.15287840822592 0.0502387612909866
-135.334630045075 6.24726943339848 -24.1118595593735
69.1658620301274 -9.65956933270113 -19.3091716754977
8.2713697207477 4.08259280285668 -19.6267466988416
-189.540891183697 -7.47286225432896 -11.0206129664656
-131.77301862478 -22.8134965987247 -8.35509699170901
12.5651854737587 -12.398485314679 -0.378810339091815
191.213094196249 -25.5870719938783 -4.31046572732902
91.7495924653363 4.56831642138315 -2.07977472379587
-165.38585055621 35.4760392285999 -5.87361425187345
100.713887540593 3.52915360189697 -9.22716779467727
-178.500486674718 -31.1928022482212 28.662600054229
-52.5406896157921 -17.5352614675297 -21.356413523887
-53.7414742960494 9.40730646826277 -19.3096320949486
87.1234047133163 -11.6280555212728 9.53775921800573
-168.409124091517 -22.9074466717225 -21.2865395819292
-156.277946000447 -17.8201213553474 -20.4427044287164
152.76269185085 -19.0495136142765 -7.59539987331129
142.550286242814 19.0963715214554 12.4008912979519
195.1600629454 48.0402633767992 -1.01636506640108
164.944346595687 -10.478173646955 29.3977529169216
-169.624504503545 7.82229171702168 17.0802369853419
20.5232014818103 -1.80093333225229 4.39421090735993
-189.262902623468 -3.7762551841598 12.1854742860122
155.011104050149 -0.310912317497899 23.9821469796969
-126.846485506323 -14.0093012546554 8.93219653935596
-125.749442352935 -22.6771537743623 -8.00462382522609
85.8089480510679 -12.4814912398075 8.39965515664659
-57.2341496384626 4.44295683163166 -25.1773846060941
-134.065614042912 -12.2262937882109 10.1221651960022
-125.643151060775 18.9612105804899 -15.3217464452967
-163.381424843306 -1.78326043850273 15.648809424397
-196.505624029208 -15.3352074542927 6.26169007906393
-54.5856434399176 -17.3636209876941 -1.71249281141271
194.098787407789 47.9182538790794 -5.96904404714143
-13.3685490789554 -20.3411377419258 -8.3353610063787
-163.630829529549 26.654231567786 18.0093616046047
-145.574327586445 -20.6082666540242 12.6479537139358
-156.583498480305 26.8951303029745 -10.9301224636443
-131.333523197527 9.55541368440553 2.90162531664486
53.8049828335696 -22.7387262832879 -9.5640061357478
-165.335930748338 31.7067896248565 24.161711382757
-77.5068467963479 1.56996939146806 1.11848811710749
135.947512677832 13.8583829704157 9.73060419260469
-186.841634830413 -31.1455933069243 6.12181387637887
-77.5855143567169 5.94918242270542 -25.714233434983
-156.01356100963 -1.97776155750911 11.9987683669142
155.972128232866 -31.3787756810907 -2.66574073176568
189.003293233406 17.540848694094 14.438212411665
156.39865088108 -29.9740173970808 -4.20768867294368
207.882369162806 17.0362715753132 -2.3134676725806
197.445637158601 13.3284935640723 -4.194908540396
-86.2126479469509 -21.5518336463231 -11.7894302846708
58.5072201931837 -22.2395960789318 -10.5785577243464
-191.767914538795 0.0686234565151949 -3.76532164000013
-176.287835887763 29.319984610371 -13.9744918248381
-137.854632260544 -23.6852412107039 0.789177833480513
-55.443211361878 -15.3491442922091 -23.3253460815551
195.585064403789 -7.92742106949657 15.8069815909114
-185.626965024289 -1.25676443117363 11.5868318706196
195.289623880658 -23.852075389214 10.7155806968395
181.680499849788 -33.8842862269771 4.59592873418478
-189.234924037623 39.1634122680442 1.92723577851141
-133.766952017262 4.13459915391733 -24.441328803409
176.098660694893 46.6974935730403 -3.5604718907719
-155.62540295088 -13.9331146138694 17.2139532714194
-64.746580360982 -21.3780758910093 -14.0901959208625
153.965553744859 2.22730786152149 22.8413433769934
197.561189108328 -19.5151626929551 8.5209401331362
-80.0715508238974 -0.930486521698542 -27.7942749042201
162.172693279025 -25.9395901279386 -7.90485085014842
-123.207928817613 -11.8919658131547 -23.6643214983292
172.280910454717 21.8972371122363 -17.6660484145553
-165.486237709301 26.4780408918461 -14.7172632787417
86.1926702552218 -20.7851852852015 -9.00427025223244
108.686582097102 3.87653770327923 -7.71684520672485
-155.861364420956 26.1990330973272 8.72582793153379
46.9133083065792 -0.451322303019104 3.95144821696402
179.201455875174 23.0983854672048 13.6821105991095
155.454742559626 -22.6029010228406 -6.47438460486714
-169.913490578097 27.4122956346168 31.6954264458916
173.474500318029 42.9613924052269 -10.5470937149005
-59.4266164598113 -9.23620579793462 3.35013753642675
159.1933341678 17.1563647902643 -4.69778036841623
-191.148913125024 -3.57810797260955 -5.83283897263026
-199.94947035632 29.9277625565268 20.5911664495957
62.466101346409 -21.1182413516377 -11.9927660735987
-112.818376717955 1.77558004629451 -26.960313753331
175.36316808184 -21.601383595381 24.7824021254923
-44.0827728786629 -20.2857230056624 -6.9328631778373
187.904313940206 -3.17787489329052 -3.73293098145639
178.887485169727 -12.9439916943716 12.5476736017178
35.5968798549856 2.56941371813589 -2.1084574226363
187.210612892427 4.5609686188995 1.4392397288503
-177.76182458093 -3.39968379437664 -17.9268785852255
78.0116917761851 3.89605326201301 -0.155292293799886
-182.817473326413 -0.592494355221662 -14.8708270540812
103.188947426028 4.42034852870446 -6.00365919447234
-61.1311776046669 0.999949291723224 -26.764234617246
-197.645608126628 38.2197602380049 17.209567760949
184.881751124437 44.7465025430099 -16.5376289350986
-165.296072408444 -29.4269281998561 26.7476461496928
-24.8925265003873 6.43633286739242 -20.1065068719267
198.236331204567 11.8657108257603 9.83159181538224
148.210019306544 14.3215237809947 11.0668313178195
-151.90100993138 -3.03855328399824 -20.9547838982252
-184.789766599796 17.7702861070459 33.3284916466729
-195.898823798074 10.8970615274592 -3.11370677306299
-95.5796970591066 -3.21308040059221 -27.7469985834534
178.573620604107 -32.8559223725087 12.5909992143567
-171.46010487849 -5.21297422740513 23.4977073943659
198.732461166477 12.1665210687446 -14.2991680717655
-145.392189013373 25.7348702335494 -6.06379278768308
-171.339188905712 36.8943199841266 29.8178178873143
180.44455492685 -31.4465094281838 14.690575907496
-26.170378416973 -3.43900147491085 -25.4381519644285
183.303510140752 -16.8022182823683 -13.2878193427619
-45.0904527349648 1.10837913424167 -25.7536114433968
169.132920482419 24.0541216278536 3.73540577349749
-17.4143138645142 3.97556783983549 -21.9635711848137
-202.133596129594 26.5567666251735 2.71780472612357
129.184383270423 -4.14329453714017 16.8747991660967
-197.496547103801 15.8027438520455 16.0926478279537
183.570702967303 12.2384721456229 12.7257174917311
-126.580234115467 -11.0901251783431 -23.7833054120033
-113.558817171605 -17.8081937397746 5.10186649962928
143.668183465859 -17.4677329829779 -7.67051761487796
63.1717318279017 -10.2536119895184 -19.8989285333887
180.690835614479 45.8553161770714 7.60643943651561
201.572022995836 12.6535524424252 2.63419703324444
-174.391196494123 13.2213839296602 27.7342885129418
104.073618409619 -18.8311374482783 -9.08869123104895
-95.5444479432637 14.0587866481564 -11.7735110880944
184.109332580817 6.35404293353462 8.83658557191591
185.085866677752 19.0427345648136 15.6655101700077
-137.301031214435 6.41768469611228 -23.8058175016476
181.349117977238 -23.8172145152514 -4.42730092228858
-85.7334995560739 -17.1966811015975 1.01297712387739
182.285737573708 -3.88591567872068 5.92033352953348
-195.251170875645 -28.1729680940237 24.0209896513847
143.645128679305 8.98127836774245 -4.43499338001926
-188.487238207959 -26.1555453056766 -15.8287691481991
175.787214858202 25.2186796500183 12.1236278244788
118.605747304442 -10.2012639481743 -12.016793295149
-196.474834153725 -25.8945813072955 3.67145618248201
-163.277794065287 -16.9720079928621 32.2179369298188
77.2047727372162 -22.5982224144212 -7.60872366313892
162.238714817668 -36.6634407208898 3.40580748984411
-196.420435469107 13.0333536156513 12.7399538873883
10.8790724185154 4.13956135483507 -19.3610823332559
138.427914443758 -26.5982378710414 5.28737709198166
185.541883368282 0.842615690664583 4.05697798421939
-144.385460304384 15.0852367020297 5.33179484603045
-132.613398618422 6.00189748864958 -24.4732179054609
-9.8355562983187 -16.2668961294725 -21.2829209826528
142.187394566662 8.1486360225132 -5.92495267070003
127.42448258546 6.91165210300655 1.31900741695221
179.943568606931 16.5743048114124 -21.5085765072365
59.7943354101325 -17.7468284514259 -16.0990290355536
48.0386415750532 1.48194250829984 0.509453504171934
-145.582393429803 -5.55763140001569 10.3407293714389
181.921733194406 -10.3907176893727 10.2686278428234
177.133578468368 -12.4685686797395 13.1450467115217
189.832861205483 17.1266021406414 14.2693477657761
-55.7681521436786 -20.013721170044 -5.60349642310469
-46.2789335834795 1.1428474137504 1.10915574873986
-130.776546184082 6.98604371926007 -24.5373648574809
-166.907265255026 -15.7168994639818 34.0278518838874
-176.407664929662 2.38173784931368 15.2520675116294
-163.087994861407 28.1456252822634 16.5985944682789
25.1183736700386 5.63451640067192 -8.79162375589809
49.8991049301137 4.31481229017569 -4.70184867821458
-34.2152454838168 6.04472228587497 -21.8869042903249
-194.677336274507 38.0784078116703 21.0494379294167
-61.8712635196007 9.31523794463323 -10.9177861044963
100.283523599618 -5.14448039850584 -15.416063862756
-71.2667300565034 -9.22304793092897 4.1500269894787
93.9162267847051 -15.7386330279969 8.95263525010633
-99.8482669228863 -21.8997331633216 -8.88053164876561
163.041515129833 -21.0044006957878 25.8899267432586
119.359208590544 -23.9691595805884 -3.05953162787052
-181.030241001778 -31.7248886983072 29.4456476683116
-92.673707939631 -20.894683656272 -3.59160035822815
-70.5879445404438 9.66467726388352 -21.9468289037615
74.8870680815179 -19.2210961622492 4.33508549385137
-189.939878693846 40.5358467465449 6.49761849960226
77.2712284549473 -2.49780005587466 -18.2741727076092
91.1396499793867 -24.6139912054688 -3.00951933464834
-155.262415496585 13.502306591013 -20.6984435051464
130.9787526131 -12.6046531644847 18.9740025976006
-161.671401737816 -3.71790988341485 14.707447669615
202.135339748279 12.2893985016399 0.307546332104554
15.1680448548313 -0.959102907842722 4.06659775877273
-163.150134977231 22.3143567673838 17.7034502930149
-167.797849853174 22.9089050106502 30.0239177146982
-104.669335817937 3.06684729261075 2.89559101548715
-145.422795131599 -19.7287101397578 -17.4202909265273
-195.423836760581 8.26645546381296 4.39567156469227
-91.2103201574825 -7.88791169474933 -26.9442682247001
90.8875382900275 -6.45622842435769 9.95250975505043
-196.792179917237 10.1445727682419 1.50552120399015
183.737169250041 35.9816120670945 17.6251131817277
148.267143920346 -23.5575860767385 -4.9928781567447
179.063054190603 -14.0556933297679 -14.706741503378
202.815105660256 13.4828576545704 -6.93596714635899
162.662100816533 -21.1934212359902 -8.26720586410721
-165.331486723202 17.5384566050901 23.7570456121841
-170.395733331387 -31.9796441788668 24.5364081854078
-189.190305303273 -12.3315616668753 29.1106249254365
-193.219127849047 36.8188733165081 29.0047628583102
-156.025381897338 -22.3739763761955 -15.4314119580523
-21.5305293011986 -20.9520322710481 -9.56200505983224
158.685764238058 -25.5074563354261 -6.35033438268493
-171.167300256607 9.37522519523692 17.2067378642515
188.152879317568 -8.96323175804301 -5.51413632393577
-164.417690093798 -11.7690121938245 30.4810019470184
130.537948491634 1.89060887494141 -10.9786239500636
-175.251306820407 37.4885614045527 -6.56161944267856
-125.199755479613 -18.5388551064073 7.40566475280892
-168.457418211234 29.3515883593765 30.1143863735112
-181.338320109484 8.27828181127756 13.9887528221386
173.205795223699 -6.64546692637029 -14.2568541936466
126.374047101532 6.30321237406446 10.6739858130388
194.670572048723 -25.4265821953801 0.0296325745268492
-39.4107242545968 1.96961827684251 -1.18057773199553
60.197235629791 -8.7987440591551 6.63272671294579
4.1913412128013 -21.8800483586169 -11.548000933507
-151.9177013195 19.6898398574017 7.36142764732826
48.6826222388936 -4.77668667821848 -21.6806097109895
207.029946257452 38.1233915317113 -1.94945029381628
-177.841184961907 23.1792638985336 -17.7566387081748
26.4347292609954 -6.99451668504893 5.00917744084431
189.771974888249 -20.5220546845526 23.9719780232641
-83.0368905628773 7.3675445477724 -25.1984623270577
-83.3782660884287 -20.4370021928451 -16.6464428775138
-148.279074369035 1.37348360930681 -21.6672109642407
173.296314801545 -21.6567930851131 -11.6434394937934
-8.69278081118223 0.986257859851462 1.18225909313576
56.7987012877181 -11.0941115086451 5.04200681683512
-173.897914478779 0.967850534164651 -18.7534395458839
173.399771539241 17.7316734501931 -15.9286009040099
-75.1348777438392 -11.4592326813053 3.58980913656632
117.062665777215 -7.44798604702537 14.8514524566123
-145.251824539475 2.91429077593195 7.41149830912318
-48.1590018467832 -21.2556339011242 -14.4579744626663
149.176935631463 13.8960693640188 8.75179640007965
-197.541203698011 14.4064570393476 -3.59999068771963
66.9976679457514 -11.8409011378642 5.82122815433633
156.886783956266 16.0297655404281 -3.90628611589619
175.280506273118 26.6638311743647 -22.0356969803195
169.899391185114 38.1015463718663 4.54935286015066
123.215839452642 -16.4353764428729 -8.95223701675038
74.7176353115155 -10.926635010149 7.23947318402195
-195.170020512611 -11.8094698216578 -1.14788784725021
-171.657403090602 -28.1795925580619 33.9823191219158
-75.386497593183 -7.85139687373719 -27.1301333606874
-193.692252702591 38.7410371045552 8.8202162441543
139.246062395405 -19.5407731171128 -6.66854538527063
124.528632007131 5.11418106480335 7.10754183073625
-32.0777226154724 -21.1267398989436 -10.008103963641
-192.885722912326 16.8342332399765 25.6394438988717
187.87614403922 -10.4983039510517 5.0018517961006
129.73624740166 -17.6517626732944 -7.6061290274843
169.299878730563 36.9582450290021 -11.0834750274909
-136.218238194684 -23.2565412354842 3.07666433438291
66.6468542744049 -21.4634507651327 -10.8764729194204
-180.57107340939 41.4891833848645 15.7072749020349
-171.428044621595 33.5500768067937 -10.0891969941701
-168.994203550755 11.8719389469943 -21.1958630890882
161.560334570262 -16.7755080213196 27.4345653987806
-192.049743564182 -4.31126705238022 -1.45643322097541
30.3727586025765 5.42781941629778 -8.1732911341613
180.43926077881 4.86724795970534 10.1656092801789
-194.867890385066 30.6634312288021 28.779816597241
-28.8093455904926 -10.9480610473543 0.749911561757775
-176.207990294531 23.6301789805886 35.6153620900091
20.4203340622521 -4.2469065145387 5.20419783493888
-181.959288891779 16.3468059159003 -20.541723458173
-184.758084085726 -4.65216877839086 -14.0959005184445
-191.777243034708 -28.4529162876808 -1.93413263493398
197.046536589007 11.7296677524638 4.54918437351889
42.9268776908531 -18.2968461500878 -17.1951300150754
185.360816487949 36.9262069790778 -22.6531326797315
161.635658391205 -4.31899815913046 -12.4275398401236
-136.325200246507 13.9234412937345 -21.7696289359529
-92.7743977767834 -21.643543563281 -10.3961385773067
152.303528843661 13.9540294224629 -1.14771875175572
180.057573721522 37.5702078295123 -21.1154991331671
101.162134148462 3.21390520736091 5.01298566672264
-149.950445177111 -11.2035773689369 12.9723541744586
-166.00532219602 -11.756339780454 31.4828268859062
-173.77019314689 21.951572607345 34.5890609759015
-113.319880476826 2.84419848347878 3.79780147905149
-158.135129458908 20.3839320448468 -17.4190835929042
94.871371358924 3.81368801450191 -8.9331642790299
37.0249000268317 -7.99492592561428 -22.3582588443881
-182.116277071322 -30.505784203894 25.4317497646019
127.736937605206 -0.600156102713266 -10.8863694814018
-175.866147634114 39.9006384692481 31.6641562863146
-191.83207982717 -18.8954313765345 29.8045957361227
-196.311662858696 -20.7047190271432 -5.67039691002403
201.567859748848 12.2189550879996 3.72003822529127
8.02705317186059 3.16047250861738 -3.60315031883913
197.59758842065 -19.9665525584516 1.21041813707926
-49.5059848400251 -7.51367699548593 -26.2478262571287
-160.513534341593 26.4033664267785 12.8572211995277
194.197851169439 -17.8563247356886 -4.1820759092319
141.859287617459 9.03768660757436 -2.22365035237257
-122.019197322413 -2.10788519713864 6.44264297414381
136.224077734018 13.6184308792809 20.153573015287
-172.05358063871 -35.1839187401994 18.0778840298887
187.609344495595 31.795986475752 -24.5394135410546
178.32535347576 -3.58482469708779 -13.4982646110477
-101.853894761899 -13.9372222763828 -23.3496722905486
-28.9185002603189 -19.7953140793565 -6.70139683403123
-162.376630730069 21.3736427942382 -17.6586203219106
-117.297363733244 13.2955464218675 -22.6514300318198
-38.7276317522986 7.8318585678062 -11.1729443546782
-146.962627048047 15.270335048433 6.65738328791556
-107.90708324891 -15.2004293756213 -22.328814715883
56.845122248363 4.4927771292662 -4.25507581450712
-188.458279306199 36.4804486179151 -2.94582959452479
101.235467936415 -20.4204529784579 8.12273205840228
-166.490949363692 -0.601586796153304 -18.9342539939374
-192.155544546294 -16.347464701991 -12.9430217559683
-126.946106144856 18.8092902302573 -2.70817906986525
-188.392855523693 37.6669014282596 -0.511517307105375
202.046059862361 34.5471001056163 12.1794018380537
-179.866740250657 10.1643623214852 -22.5759892020897
-102.329320400597 -4.69803062517425 5.73163542875852
196.813042062901 12.7612080305803 -4.50203272937054
88.7519620206464 -23.0492943768532 -5.72859777715864
-12.4389031336487 -7.17946488563226 2.5857125242426
3.81451299851626 -7.29020817950215 -23.9888370595865
144.390900305903 -8.33873986170321 -9.1294674265944
-200.280087316291 29.5642494699197 -4.17675706512042
-154.990444350713 -0.248682237231901 11.0932275434365
194.889892258278 -16.4570135312096 1.29286341535008
168.370458536114 -24.5571921857509 -10.1210115469641
-165.972162310197 10.9045704714102 -20.7778366704271
134.979820348103 -8.77281215618634 19.1770334879844
197.488537633377 -13.9068759459653 8.85703007268889
-80.4019649189802 8.95901125236569 -6.51090033162355
-184.15482895662 40.6272496145892 13.2196459274678
32.0254003847966 -1.43187100493871 4.59367450222324
62.7462543142669 1.95901059601481 -17.2672570835444
-173.246996974623 32.1656920458499 -11.4935766435352
163.288710982731 -0.0390171113960514 18.340563878068
-83.3535334272658 -21.1122947010395 -5.61410268935237
175.39263280192 -3.50133607168725 10.2791052842831
-148.878203755009 -9.08996191645881 -21.7420365533465
-196.853578580097 -28.7891347926491 19.064680360491
-24.0702912706219 -18.0104176907487 -20.4510594215513
178.574751562875 17.7393580788765 13.7827816122958
-128.246907797682 18.1575631738464 -1.23385425644758
-107.257928655607 -21.709240159288 -3.97214867142225
-106.265177817888 14.1649600131563 -7.86820936819898
-149.573074461421 -23.1446405307177 -11.24040668411
176.230464243213 -4.61299232283735 -13.5255640590971
169.675840466984 -18.3773818241829 27.5479384866192
-173.593997080675 -8.8292748762264 32.7845885539191
41.4361972698366 2.52034257564969 -2.16762785585055
-152.973391640635 15.463177106167 8.74636828371062
146.341333951087 -17.5617420413588 21.6943499544917
79.1032798999978 -20.0033301168407 -11.0631809085597
-172.191407737841 23.7910250521619 33.7984856478915
112.610520042535 5.58550274621016 -2.97329310750272
-118.089799833576 10.896251305102 0.34822675986178
161.074589493968 -30.4412785859295 -5.63485995476648
-151.423173358605 -26.7434292268987 3.93195445827644
-190.526589516938 15.2908831841649 20.187152458355
106.121346498188 -23.5014026108104 -4.15813636254284
-154.883222168526 -23.204584646602 -13.2188382055282
-106.004712227737 6.43713214579428 -26.3736722855875
-17.6759861909864 -20.0869581980127 -7.72036713096971
-196.012812769288 32.0109173465092 27.1664805197277
2.46175736423052 -21.8305314028994 -13.1488741283316
36.6833405053761 2.82341104621337 -18.7033967626883
-164.591642459418 14.1558912598837 14.5140674079616
63.8984870798184 4.29330300498934 -13.8455823295263
-161.087372097652 -9.67122929031537 -21.0698103985391
-194.085476281055 -25.0496824480486 27.9841088697064
170.637418728891 29.023562439819 -15.5273139907196
-179.40804426272 35.6375248269024 34.6819180859818
169.116315041161 32.1094452960281 -8.05633412394065
207.861631823043 25.6743336226838 6.49980568540949
-117.495243246063 -3.09546781200652 -26.4396881420002
28.7755020345858 -21.8754699422928 -8.46701635709895
209.063330765429 29.8748449419421 2.51273165455686
171.234439137819 8.21252397474011 11.6520109637844
-152.561811897405 -17.4892281009272 16.8204545127536
-145.090317148497 25.2498305360714 2.7601963104857
192.523278813648 18.7699769279673 16.2735793342493
-179.786301468906 -18.6022923418786 37.5758709776912
80.9736155433672 4.48121389955464 -6.66964586896097
-104.035466580044 -21.2491215257813 -2.93987136596121
-191.307385768248 39.9138100717666 15.5510173964847
-149.896145536941 24.0510386637658 6.47084995775054
181.718740093675 -30.315602409794 16.0607213588532
158.546778900352 0.993974552954315 -10.4664751010514
-90.6178188467789 -16.6846219473759 1.8627406974873
171.359316996413 -3.04812300622832 14.3041288226822
123.231427814972 6.61047284242769 -5.34469319436575
-158.802971282947 34.3694248509986 10.4459367806795
-143.716738265678 4.79546529856689 -22.889786267672
-189.775394213395 -8.3561920228304 23.2660518316983
172.129686908962 30.8440278611272 8.78349106415741
-197.013869085544 -20.1616507726779 1.11064987925816
52.878143418047 5.2926116092528 -11.8279962055264
-178.167825851889 -25.9950076413521 -20.5319122093014
-191.568825779311 39.6940206722234 22.8372621517726
-56.5510945798284 10.0788612371026 -14.1013444906368
177.170039975633 -34.6566382424229 4.3031988910408
174.339327936243 -20.2034915141465 -12.5354375217258
73.5852502736603 -18.7972383746189 -13.2322555076253
-33.3420083875078 -20.3178571946373 -17.1259765485264
165.439671517717 13.6837165270957 9.44792623468649
-170.111816367072 -33.2600288667312 21.9187959938073
-99.8149555307784 15.2395487828742 -15.9622672415983
-155.052734579124 -4.2103633411955 12.1537878626899
-80.1620002496995 -16.1146950342928 1.5066457233986
-184.532508187387 -5.83604380499649 18.7336001379479
-129.27877189873 11.0236280227808 1.96004014233395
-153.379652389876 8.77012262075037 -21.5665310514976
-169.065508632668 -27.9956834374125 31.5998409872409
-12.3640694091101 -21.3927683115673 -14.0101905954119
-140.718511372184 15.185432706486 3.52084202082006
144.556652678306 0.0688122648784846 22.3213579002335
-133.250309320017 -18.3660706552916 9.08832733538776
137.889961608252 15.7852504209868 20.3696497907748
-161.709608038209 14.9296661409055 12.7920323018788
-125.621761062132 -21.7510554732649 -12.5799397532194
142.795902732715 -22.5420716614003 15.1427266071396
167.769645020023 -2.01661839710304 -12.0755332280904
149.688693685967 2.47399377480677 22.9346603578913
-137.694060171139 0.62022084029534 7.10589943372458
-194.162407038515 -29.764424796643 11.7452071188729
170.305931257876 30.784069622894 -13.9839585578862
182.308447760606 48.6939356916069 -3.85902634411888
-155.428159688724 11.662636785118 -20.8926027496078
167.619578092576 20.9625480472455 5.01743835128036
-150.772943702236 28.4833494709727 -2.96646038945321
-164.401584767925 20.8845501934486 22.9319385395208
155.072455319668 -2.7691039546144 -11.1897158264554
188.185564382236 33.1383511296291 18.8458735606723
-189.328195560426 -4.80568916071956 14.3211527074716
-167.844423881768 -30.9029036600525 25.3264426775773
-164.749833609286 -26.0367843601111 31.6473111195531
-117.400717255453 -16.5367613443334 7.23010677067731
-63.052001752219 4.44385751109019 -2.21399709577857
-64.33307100885 -14.3357565534217 -24.005210184975
176.162229442482 -8.09743850227156 9.38620025058068
-177.093830202254 40.2710089758727 30.5340689315323
-163.172946837206 -25.733267451668 -13.5042540107031
183.595182440367 34.4907552994891 -23.4899470988406
-196.78621939899 10.6266714444766 5.69625166447473
174.04713661714 -26.971246917108 20.6631548306746
-195.213334279462 26.2296286306355 28.2429372346974
-1.81882323924812 -7.19495590836226 2.6933199447926
-163.011193640465 -3.37861325422362 17.0489727819718
192.519621334664 7.14316338813867 -7.4546887786167
202.445782681845 13.5073078599571 8.87639871534605
163.835717235182 -21.7980252080817 -8.64342417122287
-182.097606095402 41.8642700541728 1.97237413384553
63.9181665072294 -0.469703634473383 -19.0305979705754
197.701544966319 13.0264315411126 -5.5632698399091
63.4858547333215 5.23713102315192 -10.6707165322041
125.851995325527 -11.8934851441192 18.3861903337052
-111.349031585251 -8.05800617398297 -25.7778787295234
-139.357270320393 5.53143409302801 -23.5864724219417
19.7277416879218 5.10106028476298 -16.7693879180043
194.986179764232 11.4533148863476 7.068965483641
-156.527443788566 21.4471934618984 -16.3425424234109
-132.802319048898 21.4496378958284 -6.26979683824432
181.82609838775 15.1976353320435 13.4592330715484
208.341693334606 22.748030198924 -9.15887021739033
-197.695094796918 -22.9405605945319 12.4149706413195
8.4782578324648 5.28220543999668 -7.70066617094585
200.568285345139 40.8347033935538 -14.0168945517133
180.281652138362 -7.50030367875257 6.92161204212719
70.9444502413348 -11.3388126828906 6.49339845658784
-104.213462327558 12.4056688600477 -5.73543924321665
199.863659262035 12.5496163203368 -0.0280404433091921
177.756182222689 -33.964126662975 10.1001955889945
-104.197152904808 -17.693331025717 -19.9837419321903
182.106677284451 47.8091357720398 -10.0244759081395
-160.010505753551 -15.783431554357 28.3878360386246
202.446733471548 23.1753053424245 13.6443039126829
11.9602261303526 -18.7157612847893 -18.8610473029832
46.1661982114434 -5.33957774773054 5.58284384636555
-188.926744639779 -15.1904048642166 -16.0818461782442
-108.820707650936 16.5081003509671 -12.6738251662036
184.328070270683 33.5031358924514 18.6772491162898
-145.674105694443 5.59101955081665 -22.5475777647729
15.2439371505797 5.81333799022848 -15.241019233841
89.4521813780327 4.54269106827407 -4.49114085741371
166.863121295326 -4.21448269583708 25.9922301312475
-155.720366671503 -10.6176820879362 15.34182254153
205.598819206912 28.4226098996976 -15.4863033045652
160.763432673427 7.74299139632197 12.7959213713178
-123.460058143189 13.5852348384565 -0.016587777129006
-104.52608843609 -4.05039998493487 5.69837395206505
194.748558302575 14.2983771090564 -20.2390835506023
189.0614998067 -11.3986176126233 6.09518934478741
-111.959430947305 14.3949048319415 -5.59233056687478
-199.698232584517 18.3082819364836 15.3924666957968
171.04254864522 42.2623814625344 -3.15721315605243
-65.43823162641 -8.95758322025844 -26.4729960578848
-177.192288608249 -30.5742000806806 -5.01208852412693
135.161080989563 15.5749869625565 10.6831293616334
179.347548458524 -17.5458319284401 -14.6846245048252
-76.4906847996398 8.00991753927311 -24.209367987943
-10.9896922004807 -20.7814609343223 -16.5917031783485
-167.720015222681 1.21646876752789 17.5701772049601
124.627061887621 -12.1710243284973 18.2153200290707
-192.168909348405 -31.5231371957525 17.70801115372
195.306183116353 17.7637608014508 15.282194647045
-201.791868978551 33.502404146098 5.53430646647722
44.0397087885995 -8.31721729986487 5.41138116282249
26.1138048776988 -5.05857882098032 5.46371445764247
179.881727454972 -17.624287619437 26.5610814569121
184.06351366112 48.3592541106047 0.0824217165465981
-165.725232502593 -23.8626690098845 -18.7647450350098
-108.458844147576 13.668678596029 -21.8133537270259
136.151749038896 17.999590113518 14.7955381134769
-0.546149453602978 -16.3846887136985 -3.11153813318194
-199.313657803975 36.1124700822045 19.5738447047817
176.916802249128 4.69205327613583 11.5043017710529
131.012219183912 4.41009373552064 16.9270932191643
187.155561443076 8.5364151535118 -16.4179045837762
165.911997966506 -3.06692856945475 16.2433330930473
-83.7310539351332 12.2605409191475 -19.7773857732594
56.5325302660069 -2.79866271350796 5.3127755640477
24.5701183794586 1.67449177170927 -0.390385448623953
25.6131687789055 -21.7507835577496 -8.6231063708797
198.543065299015 15.349399970056 13.6581641231889
-115.432832241216 7.03795004726212 -25.8492679924544
192.137030879318 -15.3744609622026 -6.41331678975728
131.832154025834 9.68620885261371 10.231740716501
-69.6412535811882 -11.0473007401497 -25.7729362134341
-194.919629131141 6.96775096899946 2.66825387055022
-176.08211820517 43.0675919389116 5.7436599634518
156.916432176929 4.50895607859597 16.7552206891051
61.6337435207253 -6.68175115391695 6.57347886179725
170.849875695815 -20.9640896903083 25.5877170610646
50.1944638118819 -4.28169721353581 5.49812160770474
-91.6448542007921 -21.2004726429704 -13.5283591545658
-110.57422112656 7.8332296924395 -25.7954208696135
-19.6613370471351 -20.7626559367259 -16.6260162209638
-130.234650358129 18.7596577359285 -0.962692771175323
189.157770920503 -10.5961244679607 10.6474872038603
-149.899443114985 19.1345061891008 6.90085635263777
30.036908205631 -12.9027997642196 -21.4572775333141
-188.69732168089 -15.4773412069864 31.6926326104067
201.272353373752 14.4830090157974 -15.9176956571847
-133.541832206691 21.271201994545 -1.96543201759192
-38.5053397433457 3.37499173287199 -3.28481847378101
-182.47578282627 38.5611813469765 -3.15997126323482
-139.358239079658 18.1263019680271 -18.1769377541694
-179.685585039468 -30.2472849540364 -5.63518507591472
-180.672797507402 -29.0922544901045 -10.1557226766569
-199.0696463438 31.8958213888381 22.2320685217306
-27.7501500611412 -1.75089340841404 4.50312440951528
-18.5376338338475 -4.27412083735154 4.75093307964494
-73.7520310813912 3.53523279230971 -26.6104932999569
16.0173670256122 -19.1830319818937 -5.2918369526082
135.888797662629 -26.4629303492067 4.91032951535869
-166.805431876703 -6.72832722164886 26.5685875997744
123.405473286064 -16.5013946684876 16.6179166257733
-194.435552086828 6.87224073689958 -1.48813804569975
153.237283557906 -14.2220672968205 24.6549293529586
43.7373917351766 -22.1382870302645 -6.34550987583043
-175.471888333536 20.4209117755042 35.0147466698831
-121.127042729776 9.22254765664521 1.40009603659665
139.14914870253 -19.6066807039873 18.737279957372
-136.670890341252 -21.4626990125421 -14.0572559209095
-105.89008763584 -16.3104344196928 -21.439682145824
-145.350133317287 -12.1738410023267 -21.9503377339672
196.876545861942 13.8806805556293 -5.95509990616115
181.931268468557 -21.9049457875446 -7.85818700765569
-58.907811835014 7.55378707897153 -8.2452228171789
182.381542335694 -15.3065264708618 -13.6490042751912
170.779972791799 31.9127427034643 2.69113494033024
-146.38470514035 13.4875876329029 6.0913378263617
-184.658759491574 39.5482495744464 32.6903106535433
-168.86010448749 -6.50797920536288 26.1631686584681
187.794343943895 -17.6528918899534 -9.67149031373031
165.84727136296 -32.7687535846386 14.7868606063412
164.869400743577 1.5263628520977 15.7935866901289
169.535603107074 -36.0677138087433 8.23530740829641
-38.9206890755865 7.24159381321937 -20.9505360081674
162.022992511651 18.4701118247427 -5.93276307932093
164.502921027147 22.2234800094137 -4.3348981387031
206.120270374137 13.8151177231319 -0.818700479297984
-191.971464912434 39.5948089325419 19.1937494105392
-197.872675737643 12.3867395781321 5.77285595106944
140.629515005103 -14.7792312545228 20.4462387928198
-22.4261688560663 0.920375918648827 -0.0833814177022393
-157.760924967093 11.8966389166001 10.567887677215
153.591460399607 -30.586710754962 0.118563238632731
134.624722369668 1.74875226498409 18.80426208536
-166.257732170907 41.6357539055125 13.4921113290206
66.7596778201694 -21.9299358001016 -0.494007596419462
-113.005689088087 -22.2509362269264 -8.50854076268337
180.512524267588 7.44450024046778 10.827381134663
188.682571674088 -7.00242529295058 25.8903340094127
188.728927894818 2.98645591071111 -3.36515225404111
-71.6658371925771 -6.00091627699103 4.60296473741297
-107.268301632963 12.3158589757778 -23.0565562024013
-156.481610522353 30.8821456047417 7.85684292336768
179.677223636657 18.3674933143637 14.8490494253765
-48.9728674892731 -8.74148973194158 2.89971477532694
87.3720784864755 4.31992459948188 -0.5916499499558
156.663455529863 16.726019689279 -0.84427587854145
141.286718941634 14.6698022836893 9.06204347028123
130.308934348923 -4.95649672601896 -10.6485806701164
23.2388582823439 5.641383366148 -14.6559301965598
121.646912098811 1.37388136235278 -11.1095823322428
77.7506150848571 -10.7514072384525 7.71832432621605
191.782328345029 21.160119283009 17.5846921775076
88.4288147463131 -24.12531230381 -4.05687750005929
-198.682581562958 13.8882746977696 -0.0117493537948099
180.107718656776 22.1803178836074 14.6860067403638
166.08877890702 3.30544986400779 14.2814955644296
-119.37229738614 4.38703878618748 3.67134223181003
109.605908095934 -0.941587528698188 11.0383394605347
17.5266299423911 5.50775421469017 -8.30175204734331
169.414139963645 22.4587449495535 4.77386165205721
-185.09243779644 37.1573705638711 -3.97049899477656
-104.518344577836 -1.83781058423363 -27.4644372391356
-143.030844591453 18.3729321263104 4.02481886450378
-116.92445335667 15.0827739827642 -3.34534511364311
-180.990897379209 21.1930780903568 -18.5607750802461
-3.12310502867449 1.85262348533736 -22.3978447937586
-183.34083811954 40.9113113934584 28.7670546030147
-193.051752381244 -15.8948087761394 -11.333695982371
196.392484518539 38.5845740157469 14.1363647093443
-38.2624798597507 5.54108015368322 -6.51061454848345
152.460934425432 2.75001766534417 22.5320399715964
79.0044876506381 -4.77015108308816 7.67553523211003
-189.33080478579 -7.1954449271617 20.761591590654
-148.095131212038 20.933229830032 -15.573283030816
-202.493967958188 24.5177242703348 6.24357670486012
191.100194717468 -22.2220429224223 -5.61069031762223
170.027943410212 26.046929728074 3.84320695985707
106.889911130694 -21.8080618238822 -5.85341371800004
61.9609323635226 -10.6445663522553 6.20101985862936
-162.828492088185 -29.5129332476303 -1.6450516106019
-167.494570619868 18.1303832467636 -20.3000197139097
109.781727282215 -10.6825241503468 15.8853434660753
167.299362302231 -0.4817004617225 15.9463454063988
-165.583050880336 -18.1124342808048 34.1291963054473
-202.409107004026 33.2993723325931 7.08367829168755
-101.128493029146 -21.1025971887617 -13.5702505303456
45.7892699769863 1.54499736336835 0.115641042146601
-19.0966347696923 -19.5325598199592 -18.8093663345609
182.239971131661 19.609088800214 14.9320714505377
-28.0890276179601 0.832519771848796 0.670766911166579
-39.6412819362187 -0.657412548492752 3.38615183935924
-10.5424506752569 -15.4588210216568 -2.32394066970885
-196.726999419476 11.4015275727035 -1.46158733677697
18.8118420649572 -4.17282752040147 5.21396705255871
-111.162954948139 16.8915540089334 -14.3387913764667
-163.181938207281 -8.7745284065627 22.3788342762121
-107.335634610503 13.1519161714057 -5.69934319679305
172.342964984451 20.8319492291636 10.110474980777
183.868469473221 -15.8787457343336 -12.8633944978793
-202.388762898007 29.7729668090775 12.1045645707399
112.064500285839 -3.86482710107491 12.7831249758298
-186.287034310384 -31.7134081171865 20.8965388883821
190.246935253111 4.69844696821094 -4.8383570893221
171.196247931523 22.4831647937146 -16.5252740274352
-196.904625253132 26.0532127036062 26.1917287272139
-150.905691150758 -16.1523489743332 16.1925048921729
-73.8275848686422 -21.6215037816888 -9.95579259072862
-8.03357090954718 1.46192322897788 -22.9744617006115
188.275256627497 -0.714299080714083 -5.41535569052734
183.514405010218 -27.2149002296234 19.6737440472867
-73.9183441729619 -2.51382170999255 -27.6085587795467
-101.83621067248 10.3729606450054 -3.41086052778586
182.577757330416 20.5779933996773 15.2253962321084
-130.568187128253 17.8840602212475 -18.3024997719261
109.412837754791 -4.89741043464165 12.5729689993757
58.5151133334688 -13.7779571535639 3.99918995027399
-61.9775371169912 -1.66387502814472 -27.0361162756538
-126.059028464528 7.67878045314694 -24.8278616620944
-145.250633094119 -15.2035304404063 -21.0346757444804
143.794626277176 15.0872640114355 9.07886467736582
-166.369522087496 40.3654926853601 1.91637710467603
-186.672950103165 -27.5080756025947 35.3889528166841
-189.845352935532 -1.97018344811405 -8.03723893201675
-180.782640031122 27.3193868075072 -14.6468943319752
-128.11007289569 16.1106518854129 -0.277132928637376
14.7998493605687 5.00100135255464 -17.5609045553555
-184.631511274361 41.6520329583427 2.53405130911981
100.980541357809 5.10842714262655 -1.2722856834159
0.404555173415765 -4.71465682646738 5.08421644641062
0.111062888878316 -20.7393609210685 -8.19750434698263
-72.3836778211808 -21.0355383365048 -15.3701444188134
-182.7259702961 -3.41498254450375 -15.042771755188
-128.964511528501 -19.9997631785657 7.14330697860406
116.979722089557 -9.12919599820892 15.5675541391252
174.401455229949 -27.9957451980578 -4.26522940937963
-144.767185585134 22.6518683529669 -13.1079391389079
