-142.443497828362 6.20575690669206 -6.11800740368294
159.82209275889 -1.42706334847126 -19.1065677609846
175.598604506855 -15.6386993569053 30.8495371531537
192.076913955835 28.5119635400998 12.9602050207629
-159.105715714231 -2.96230742990078 24.6872275465743
-154.809376343531 -18.5786592757475 14.6060113248202
-215.703611427458 -26.4538547333976 -14.090866034487
100.640478630866 -5.55970074376078 -20.8868024928104
-205.521876854007 -35.8582113696867 -12.8740553698861
-211.598414626699 -5.04946128417736 -4.93387355380309
158.660433088604 -23.1540660294092 7.6390123467493
-180.705303768375 1.78937890449873 24.0008332184129
-182.638836338314 30.5587027584881 10.2706601711952
-76.4892202955262 12.7407709582519 6.47337592153501
107.571980716505 -11.0531158216927 -5.04013263705248
-214.775755336706 -17.9713574888805 -17.2763664967654
-8.30182142275321 3.54529942460226 1.30681820645162
-216.721443090906 -13.5350354039919 -1.28279581274198
-199.979473570545 12.1374793178314 12.6629147106611
35.5229339549002 -2.17772266331905 -22.5068650783487
-107.121041251582 10.5926510754078 12.3480462693042
28.2225073038142 -1.22217556406391 -0.651604993962564
164.148157695057 -33.0312638827505 1.19633681531233
77.3895545561724 8.45978029139829 -23.6696955983708
187.869788284194 -28.1795831670489 -5.0228366984498
-54.8823319959378 20.3222328687462 -9.51263211882769
-203.459883103633 -34.1713646964586 -18.8820101889745
-177.020221952435 -16.4026731356453 -7.10533397495911
199.380222727546 -24.0124246281774 0.253897117954205
6.04851742910064 -0.0900207782573265 -23.1288248688995
96.8921637676622 5.37669641813461 -24.1204658193861
104.715504390364 -7.01422255482466 -19.7881623668103
131.117743680107 -16.5111490447617 -8.06211674086321
-105.345044747529 15.1217293759752 10.670736680971
-132.850654673674 -2.90896222106766 -4.93958777520824
-21.6119589386014 15.3465490109185 -4.25906627335125
-87.2147443294162 0.555840751071818 -14.2730792570204
-192.562358943869 15.7989201723591 28.660956958616
-134.574606062374 19.130522901042 -1.53679809326767
-106.275936594287 6.76762949179526 -13.8032398644395
-65.2870143855928 16.3775663938164 3.26734284426502
-212.237252528034 -30.2970155862597 4.68131189153319
-52.8433222953529 18.6734202512795 -2.40963346057177
191.405820548057 14.7863792592134 25.5490204559657
-36.6957341278933 -4.10239456960063 -10.3684803112831
-178.847033429758 -11.4847421563054 10.7391158384099
-74.2762495406681 5.27888502284292 -19.6880734814008
179.165334081955 -35.9665865414494 -0.0274041007152887
-157.037986850704 -7.31131854695952 -2.8657366459718
-116.972100388789 19.1128896836799 -3.46588635715499
184.731717178004 27.6231788091697 -2.69406928157513
53.7671485388845 -7.99592272690849 -16.7894546958755
-207.514491277181 -24.1048759920607 -23.2017089199037
-195.936808941563 22.1684995978744 19.7557778227331
194.802180776191 -31.8092310690633 23.0378726887169
107.956983291041 2.07408134242335 2.71097650532916
-89.2728931527767 15.4722344650474 -14.0459888485545
-215.980944146418 -28.4384038558659 -1.01918296990952
-197.005325630543 -3.98394818725325 5.30103288314208
79.3558210925714 9.10575265409537 1.16767055781678
-190.409849155759 27.6761717273165 7.36764257146431
147.653524109393 21.0880253498651 -7.02357699420644
-38.9838233255614 -3.92469989839597 -9.58160860104397
35.2886392164174 2.27165872264749 1.17988033750674
-201.714987314236 -27.7266404239666 12.2780806852616
-136.638880306153 -1.46802235936807 18.7102686870911
187.955233803431 -18.3503142330619 -14.5090911454839
121.59117445489 -11.3013762579126 -16.2697910113017
199.058871508873 -28.8416378291462 13.3447606825467
-199.316819759915 11.0359656298915 26.2045321846339
187.827640219953 -9.19493444903817 -17.5151131138376
-212.065037968313 -11.010601215415 5.54422075513666
158.552102849064 -21.1337004584006 -10.2446509284353
-209.476788240785 -30.1905774050051 7.54514021954867
133.215770274181 11.9498648580345 7.32448979712291
10.1317569729705 2.09289797910389 1.37370083707718
185.587985991622 -23.6879825481412 -11.2262225277028
197.379600145024 -26.4936788653572 -1.73733472636887
-71.1217590140961 7.66063097542904 -20.5466511521527
166.084106211409 9.08302420386593 24.6987262809979
148.909836387571 21.1042015564676 4.4973365724162
184.658875155145 1.57653508564787 9.72203013301917
-184.030055492037 -33.6376535846046 -10.2505586247059
-72.9769314612403 9.951572306195 6.03232589194974
-109.644120901335 21.4471556890509 6.48180937474913
-46.4129370400613 -3.42094261905962 -15.1003623768196
-171.073372225903 -0.818571855784175 26.9679475014226
-29.7735980827755 -4.16390413946691 -9.62901092704177
-68.7812200657363 20.4447356022249 -2.34409571014954
97.5907280318089 10.2501267501674 2.69649717659022
126.752239756006 -1.12287976245727 3.58142328023291
177.289846538895 24.4527638362334 34.8890285792889
-165.296244337126 12.8316198915498 -2.72440984485344
-189.049155279718 7.70455156010787 20.8094488640182
191.398001807684 -34.4910288838759 22.696444444581
-97.2995123446208 5.39352489355623 -15.4638640233771
1.52009971924732 17.8882042057567 -11.996245119408
-110.199739962267 6.51711042077412 -12.908592333589
-55.8260424452739 13.8794379105306 2.43851964620626
-147.147471323928 -19.1621360957951 15.9170638646426
192.56092367261 -2.20044032966901 -2.41540244041268
-91.4315087879209 6.48764109266966 -16.9120290836373
159.927953914458 -12.4805509512323 10.0192290319818
194.255098289954 -24.7304524893851 26.1134857232131
-201.059323376702 20.6815147302265 12.0305809463928
-139.070041187914 20.8289220313871 1.74939744505581
-168.671815159681 -4.07256899386578 -6.52538768513425
11.6233968755032 -3.88977750431392 -19.7603405759397
162.258222147301 -26.4420257295188 -6.39204941921614
-116.579462948256 9.4819569073183 14.829666916689
-185.04000955106 -35.0758657268485 -5.63442747897178
-202.945914780267 -7.01509677500222 3.31824298439007
198.191680437557 -12.4209160926751 8.96837969644212
92.0620761099736 12.1390919921291 -20.699391064754
-195.272228733049 25.9047346257162 10.0745868039244
183.555650063919 6.74128964547457 20.6574489505803
158.688686113749 -28.0973662061397 3.41868728917477
47.4240049362318 1.04193096248909 1.14021437683811
-203.612233361558 -6.36521231389655 2.14376895302086
-11.4158229677503 -0.590143828861261 -0.45647924661529
188.672681450582 -33.6663388973865 27.1880420552028
156.479892023013 6.3446947732896 -18.8323843973742
181.35172249195 -30.3673116991716 -7.01275621936601
-19.0673312861656 -4.97324170281265 -12.2441183382901
-56.3945089684767 9.33869942175687 -22.0433036109283
174.183075340236 30.5606384522319 21.911832843713
-209.613688240796 -31.7795982754 6.1639554014443
109.973431643851 -8.23286031349364 -18.8231416641913
-89.6985671324151 1.55638793180929 -14.8517006393431
163.867109989263 29.3970051510785 15.3644910303446
103.209015665513 6.26187413365917 -23.7987573795749
50.5301364310035 2.92937311655931 1.33544528685159
148.285506446517 18.001882783195 10.5702361358624
108.263989028118 -13.2382468111052 -11.4071878471958
-101.625732672651 -0.762083907254098 6.37546279088686
-70.6111142208654 -2.98864797665036 -4.10627445945632
-120.867188298434 14.7441671601978 13.5767893667162
-155.535111157518 -12.2187540628072 4.65043716230072
-165.789820076172 16.4806784688981 26.9520974448739
-190.432588419501 7.68412598954578 14.6867040963748
-151.80417601143 10.7270565381956 23.8086466136106
52.1402592508974 -8.0909622762691 -14.0777831779097
187.926348783109 -23.879801443382 31.4849766777144
-61.6164221330904 6.21367316790024 -21.5584467515629
118.265458363546 9.51761264074064 5.49361510713052
106.743300268186 16.8803669350058 -3.63758620867593
188.157976802528 23.03574194546 -14.7668928494762
167.346744372275 1.30646968963436 17.1473062415526
-207.998000935302 -26.3899520182905 -22.3172336686503
-28.0538860259226 10.4343488648569 -23.583627955998
-147.572023026949 3.08042018851509 -5.84099154033014
-29.563269698621 5.64184199277179 -24.03174173848
44.0831381252786 1.48555698097525 1.3089354737908
1.33551853993955 1.61673660544172 1.33111857737157
-171.59972652329 24.9396125120755 0.246269621163528
150.572308833364 -6.52010745502848 6.83929441782697
-143.924715283859 20.1284669455437 0.0176906075492043
185.823016799642 16.8864432381941 32.7000012413885
159.728914613897 24.932325580066 -0.951648684733221
162.302600184386 -25.130250600902 -8.07569023911029
187.082719453538 29.7000061042185 13.8175948614374
-181.792396929087 29.4793262770369 8.68315028079036
-176.063357837651 1.12216103490962 27.3917470754652
197.331238947197 -13.9474002053076 -5.50133339233285
77.6531621017589 16.3552608164989 -12.4201915304948
194.637839244219 -33.5389683376225 19.327038214033
-202.985555635531 -38.4439093736477 -1.0020264010425
172.977094662609 -0.585552761101567 17.1894182266566
194.490722850426 -30.6100616110727 5.81521434277457
-211.899881567534 -14.7320462519209 8.05429119965943
190.602253104971 -12.9132393688024 19.0638235866155
143.863210471953 -19.687448498881 -1.10314441340879
122.676080903875 16.0797533069762 -15.6563439578758
180.571389651653 -33.6684607956116 -2.2246881713206
-65.4435842973973 2.49249605527412 4.39232015292832
-98.2565816419248 -2.88341006996414 2.07085162296746
128.668921413862 1.70586369288468 4.59508218551165
194.965421295388 -9.64370501186796 11.3806342435383
-48.2527707893516 -0.709049973348256 -0.572484405428968
-37.7610325769719 -4.09475180610848 -12.9240288004604
-91.3293853431686 -3.60497195410739 -4.20757481746301
-133.697071475941 -6.3828111286383 4.45796065913506
188.23969809487 18.5885509172443 31.4219898560764
-163.735781753855 14.8696077725783 26.6531747853624
-42.2487540700299 5.54617197494964 2.81935609637988
198.059214086997 -15.1594543370211 13.3821474302102
-144.296783076265 -10.927171471688 21.3337321211531
166.581370615328 25.1123984325132 -10.8772305850721
195.09553090397 -20.3684759088115 24.2046481467406
-177.555655362534 -4.42810781376809 15.0334362881576
-140.992674085085 -9.08664140910714 9.25398989172763
-166.430576237458 30.1627386612105 13.6428653877697
-196.87243866408 3.41071881418588 29.6834688195651
-210.532526336988 -34.2606874764497 2.16367854460773
-18.1808880236165 0.887585632926334 1.34482925434942
-6.70995055122697 6.72845177207833 -24.9121041562308
51.681109550636 13.100999135054 -20.9375939515228
76.0837063175174 11.0797518255202 -22.0685738712415
170.683243404269 -13.3682160964747 -18.895926061297
194.079507702569 27.3070351896548 12.9116672875388
148.458321789978 -17.3138787908969 3.51449003955142
37.5645820765543 11.8717188253309 -22.7779830971473
174.691913067432 -12.9119852532652 22.1387091277542
94.4761914357811 9.70009941348421 2.49933228513201
-147.796954356596 -5.57301671773829 22.6224945644118
-188.56390761129 -0.447647251956924 -9.61194532990795
-3.70353434667083 -4.38996737183153 -18.1259170655087
-187.33307560702 15.0487021760632 -5.67861177836508
146.745969261298 19.854718935089 -11.4217340755048
-98.0240084262571 13.1970423247216 -13.9788064500648
-121.047986856289 -3.1899299898778 -5.77544101126598
150.859662924536 21.3868810568094 6.30178932833872
-22.0440034193054 0.739265502575218 1.18952875219175
-102.663308705359 -3.54782459277935 -5.74094880329758
137.160524378283 12.1215741999802 -20.4996566268165
94.6181966300155 -5.54727779166744 -1.64477360176124
-167.798985948442 -8.76333156779387 15.2055981134533
-61.9876582612647 11.1768036348873 4.08070560024424
116.32914432237 -8.51589358149692 -18.5589068969044
6.40697705987028 17.6624373690868 -12.7155096591723
-200.487629501699 -21.5500378367302 14.0090188287743
-13.3801456418343 18.3786831701563 -9.80360099158458
181.086795700384 26.1554220087609 -10.2609546673329
-70.2456039258033 19.8483090533638 0.0213759548860664
79.9027946981135 12.3934915710739 -0.621247186291899
-158.190907002075 25.235614118655 6.01682591145442
61.2606580354037 -7.46787694771233 -9.59751581462302
-185.545612349654 -10.6723576796593 11.7544036671467
-5.72026549652592 -1.58807528528766 -2.14546247671976
-54.4906760404653 5.76890942456398 4.13744559580046
166.679339432667 -36.5720617887115 3.94311096620219
-209.467589917565 -17.0232529165047 10.5961711650325
168.621531118754 13.15587909445 31.3921841070259
41.8684874138162 -4.99485664405508 -7.47527712330957
-18.8318940388512 -4.58151647811855 -16.541109729118
175.161885142626 -36.0914273150122 19.673315073638
154.735783492602 20.8849157616655 -12.0305256619727
-109.301847194331 20.0411388353094 -2.38309213362878
-180.037034382775 -14.9864092909087 8.41190146077557
176.892022912407 -35.9110162843897 21.0101893692438
199.462373861442 -28.4075560557375 11.2295199969396
54.3904984160392 -4.91241440932614 -5.56000857045668
8.2887168786139 15.1791498859753 -20.047720241832
-187.342349798417 1.55810868917372 12.6774595010487
66.3503321172857 -9.07371512127081 -13.2989618428275
-211.802808419099 -17.3244028209173 -20.3698777863908
-197.857840508807 -38.1993557434324 -11.5159809281614
-214.766382627696 -27.5771257654032 -15.0347780383917
178.082676382932 -5.49986006929664 14.7415725829995
-193.988717977829 20.8782622296163 23.5296020971789
-32.1718418454265 6.21238710012957 -23.9276552306047
-195.035910310043 -0.720981630753227 5.67362362553396
-196.979864692127 22.8164763227953 15.1090693086205
-58.2656683563284 8.63743298290401 -21.9376740533356
178.75933208592 -18.3647383291062 -16.8002139225994
-209.840852836977 -35.1667570999802 -10.9992512125554
-113.786513973964 19.646967197027 -2.68781235244389
-58.1874937328727 20.3121349449759 -9.52987279775903
172.269579273321 32.1877466912749 11.9051864033783
-182.229033161933 5.59751405251754 20.9021734628433
126.698469608409 -2.73323573246572 3.31893878637748
-60.9931911484493 9.73028769785804 4.09099880319336
136.467942794917 4.85684370772095 6.40548682443273
172.186640959042 21.3358546416488 34.4438897251529
110.174804003066 -9.36087054579348 -2.23755463372042
-127.317298858515 9.72633744924418 -8.95272473952639
157.009131934077 22.0627120446538 13.808059258972
199.219464144188 -18.8024523069823 14.1284228509569
-19.185481203356 17.6580120652716 -7.01017861711398
89.0941161532706 -10.0840112554407 -16.5505867545118
-111.643358431802 7.31840198493449 13.6915760394441
-180.749963878496 -23.073168193417 -6.09524818846191
108.14564693053 -12.8546394839552 -13.1458775439752
175.064183582333 24.8557464148972 -14.9481333002543
-110.759769262879 19.0976480871108 -4.57459353243302
1.86256171034315 12.6962571551379 -3.87127572872767
-161.401132187421 18.0913489226051 -1.00249467848392
-144.919685690689 22.2962505060239 5.92281477639537
138.131821644503 -15.3755867297125 -12.374265318364
21.3363867050426 -6.67788196366358 -15.4127801114349
-161.3166839158 0.914040483198908 26.3344373284931
147.467308125539 21.2937145851562 -4.82306924989681
-60.2623922223601 -2.40645895270393 -3.12634976000694
130.135760457442 -15.6854325197461 -3.71001636688648
23.505455268973 -4.26458826413255 -6.83194027257226
65.0005602356769 8.99320678748763 -23.8351130562438
-197.706914647441 18.7443163087622 2.63749775084922
124.172448425018 -8.64471792070151 -18.3234027670269
197.939815112073 -17.3041511133549 -5.91302534395328
69.8587694605023 0.00474832946477802 -23.9510997215062
118.93248444627 -5.14567974571613 -20.481537024815
-25.748350197912 -4.53909057376312 -10.8148140918627
94.2650207639487 3.16789148439024 2.40609191447815
-102.352865666417 6.83318513692731 -14.6566344139403
1.87572231689128 14.3028502362299 -21.3107190699348
73.1916011134203 3.47424319759489 -24.6438821336573
-80.409061934529 20.7775568683268 1.20056533426336
-160.589926113187 -8.21192649546973 21.6973467660647
-51.6801829035139 -2.82071634210755 -4.96774015213041
102.276874428862 17.1147176114612 -7.3254198151253
167.32189771283 -13.2658706577421 21.5420005353455
-95.3417975436805 4.7378298057339 -15.662869906171
-27.2628954754196 -4.10283600627614 -8.7224633259689
163.577004228112 11.5098060957613 -19.7083378415154
-166.144089365345 14.4382774610237 27.4971154961506
-173.0426303295 0.0260925992264533 27.0591079995902
182.418399151317 28.312952070554 -0.948489900665327
187.117970810949 25.8274500251942 -8.73110564325259
185.470220028786 12.5262000776703 30.8350527070497
153.586119827331 -23.7031670019152 2.26325545337796
-207.390392304521 -5.87957276804983 1.76019613385935
187.239398286068 10.7474062281392 27.6618952805661
-134.660201983341 -1.34358346209834 -5.86316259524736
-149.985723801691 -12.3730735898101 23.6146296211868
-181.221823478422 -25.4190788851657 -7.45870652173067
156.862405575553 8.39784442636499 12.8375433802052
124.844563712692 -1.9544778844194 3.25484823557142
191.831205196315 10.932072847914 15.265507828576
57.3552069326884 -4.83031825851171 -21.3443593502213
-29.7981093555506 19.2190177085441 -8.52202783192688
-195.093224744018 -11.8905754268347 -24.187788796321
-96.4357395383192 19.4391767873345 -6.91299510396486
-60.2848326134723 19.7882285301828 -2.78407764685648
-59.6116020534664 10.144395399217 -21.5398628516073
122.276878218266 15.2089848772163 4.03864210193898
-215.545839320954 -18.1459315893552 4.32386791112632
154.99990440048 -5.34111120701567 8.66212067024842
110.699664298372 12.3627224504987 3.31871777443663
180.886343966717 14.3238370701264 33.8684055538882
176.633040484861 -19.298975685805 -16.5142296625934
-161.925373185299 -11.793884657245 14.7804819829277
155.286777785647 20.287905815131 -13.8269587915776
-192.639122391007 2.54300196552962 25.3686835294194
-118.912694338246 0.748305379222705 13.1275620963395
-107.604898056418 8.93711413345963 13.3809663641846
-187.028679042818 -34.8889155231119 -13.5529854390858
54.5302050195753 -2.39891914947028 -1.33563813822974
-92.7896136183768 8.57845861843678 9.61362329790252
192.44879247275 -10.8344354820164 -14.7555876178943
-191.480319154248 18.192922252426 -2.83489354207943
-130.784120232677 7.5986698025027 -8.41735172098522
112.428587286974 -1.23053866991549 -22.5866131922753
2.35230365626763 8.38315965541141 -1.44853082229282
128.710489406671 -11.2816044773098 0.103855233251983
-104.204537937062 0.359114475266775 8.90621918942882
-201.698465467784 -36.384084940396 -6.78308513735119
77.9367882785058 15.0376646945993 -3.62476513017011
-17.7030053336631 8.93632764611545 -0.785828272364188
-176.71980660297 31.8261548011675 12.1258147157543
178.91900902141 -26.1131826453273 -11.4011925441771
175.281545492149 -37.7279244089573 7.60739562569621
192.778648480172 19.7370926231324 25.7395411766768
29.4346053871825 0.418003720406991 0.871462723838245
-14.2650738842289 -4.3336856531838 -17.7393125498019
138.618627808408 4.40215630894291 6.57589746493822
51.1605514658268 11.2687606300985 -22.8681641056626
161.521521071169 -31.3830680092267 3.00145935745311
181.306320583144 -16.9992557311719 -17.177876455001
-68.8048521722403 20.5170769702011 -7.81149742177608
129.099310312742 -7.11261374744934 1.94500117657891
186.552343349941 -33.8081861921409 29.020743133883
-49.8571058894045 14.3010074177503 0.88698962155454
-189.442516279606 -20.1088837855432 11.0349218271545
185.199302819504 -34.2688501519085 26.8327379448917
-204.655756060619 -20.2083095564235 -24.9304794701832
-15.7208981298768 -2.58237525643467 -19.7920475199916
-166.712890953809 18.6615814776316 -0.761017845979389
188.890112862944 -25.5627771897936 30.8819532751995
-210.518703359941 -6.49892085023592 1.32368381563131
129.217570486734 5.74033259632613 -22.7283314582949
128.411423159942 -9.94909533810547 -17.4169752860966
193.22307597305 28.4608348567912 14.7701020081264
-196.391199341538 -13.5237414365337 -24.940085610913
-76.2416830426463 0.686973572316615 -16.1635576871193
25.12179362355 13.7778704226504 -5.17980734879677
183.634599925977 28.4487367299876 25.9728152961427
198.050296030145 -27.5361704415742 18.4226620572905
-183.673237245629 -2.64040922136159 14.1083471477474
-46.2884679733213 9.25566041229848 1.95103053855397
182.265929104137 25.1343044398108 34.5284008960375
-156.502618510097 5.7255753375106 25.6885590965158
127.236801891134 -14.8457851567235 -3.80958796682388
-197.802290515769 10.1592044348083 28.3846848743017
166.734417333219 -30.827362888608 18.882841132807
85.4355372218282 16.0480241842203 -13.5694274890356
34.8641748651399 7.40231803633164 -24.8299220435193
-166.213545749763 -14.1310738740649 1.32189931645865
51.1768166557637 3.79288788261453 -24.8773221284382
161.575335155031 -8.99629445936765 11.4261958910681
-148.55640213068 -17.0999223086862 9.5172742480797
190.172709971799 29.0930888319615 19.624689650599
185.769350203725 -30.8884173636365 31.3157677784735
-165.247630151024 29.7798074633433 15.3306084177705
-4.90409641246461 17.9261441560666 -9.76413388051069
-193.605988070014 10.237482396138 1.34509657611744
91.6315880366009 15.8005348030556 -3.35342901023669
185.176589839812 28.7144585456952 21.3966460206739
-133.40931928075 18.6767847885827 14.4312540778626
-80.1142001499092 6.33175252073097 7.53452197708148
-178.965937775825 17.0112829163475 -3.53278284778609
-30.8608185736821 -1.76395997332956 -2.76084500628098
191.647856955795 29.0345748887895 22.8415249278896
-193.622227334625 -38.9704173658202 -0.363085675529497
110.448177113281 16.4064019488675 -1.23193759394992
150.662204545034 -10.6847342824627 -16.7319848356504
-148.01739964732 -19.4821745723509 13.7162398645081
-127.959430642912 -2.73377627770957 14.1277788739049
-146.541831124646 22.7089911225583 8.29258594381791
-166.698494311188 28.3906667002043 18.7513347081628
143.596781802801 -5.90263518422602 5.18397668928016
48.0442774672381 10.9658437333588 -23.1747794001828
174.336059958016 22.7449497962679 -19.6383532583104
-192.136773616184 2.36895451875285 28.738016603382
-144.415170424394 -12.3850100052007 10.3991326824586
-19.8629573055836 4.46022054789593 -24.3411566693802
-38.9109956155225 -2.22851444734868 -18.8533674953883
-26.7085802630269 2.5567105639248 2.32868250263255
183.98730733874 -30.3044226624086 -5.98277378247491
176.801658615982 -36.2241252047411 18.8794527583103
-217.367058066388 -16.4576258720484 -0.40610438572682
-10.0956997113072 -5.14201694606371 -11.674452703345
-155.727245142743 24.2939986396735 5.67152468271146
156.877512124247 23.7812999582428 -1.52690192184986
-197.513774198596 10.7249276774468 7.78325888726792
121.023404194675 13.1470958051152 -19.7778507633382
3.82274645216998 4.89213771007426 -25.0549009380397
-176.244117435956 25.6318237252244 22.6720123428612
-216.116040226043 -21.2158753141888 3.60379803157965
159.552619946247 -29.4321390575117 4.3167749005335
165.97419343699 -8.93218193564024 -18.7676061956642
-202.921418746181 -36.6228276193891 -14.344083218576
-212.046977453743 -21.8273807750727 8.5433141157289
-191.85019349116 5.47439517378245 11.8342540166629
-164.964761848072 -10.2157247707478 14.7623108468852
104.499559071678 -0.299754513460988 1.77178500792693
136.595441238875 -6.85007998395752 -19.0356620310471
-8.37736890341587 -5.40770458605808 -13.7763283193322
191.53018214756 -19.7174558495497 -11.9334837641942
199.007180073328 -13.5864686622215 1.9665987271267
-79.1077321286379 11.8159225251237 -18.3320486232563
-213.97559581265 -10.9331712211184 2.99012581327924
192.961447079229 26.823081890179 23.4849553350779
191.930751582041 4.66933794563055 1.21342700760248
96.3913457731655 15.9251439103679 -14.1939162887797
-181.119559781828 -3.60710185674138 14.3094182796885
-111.225097620456 -3.59307238659656 -5.25839917420765
189.724677822578 -34.0733912480522 14.9361902112495
-136.741135604595 2.65152294171521 -7.03869590191973
168.65547125322 -27.3526348230608 -9.67620774010891
139.429580511628 12.2889857277369 8.443799245893
52.1246882214447 2.39562482718214 1.4944757701554
-192.983978180013 27.4642995521676 9.068284252518
-207.654190687202 -35.3331037801151 3.82533022410351
188.452063407218 28.2412734351392 7.78557873600199
160.133460409518 25.348839764385 3.48134804291576
164.077780042238 28.3360280456583 9.75030367175306
183.665831758992 -34.2370734752864 -0.131368267647894
-117.40143766971 21.0878322130849 8.81099667087542
194.007702918748 -33.0007348014995 22.3995779024863
-159.858336462989 -12.7476470632166 3.24848878553424
-60.9048866373119 -2.18783748780101 -15.4949011908544
107.345891066795 -0.447804998659111 -23.0722291214971
150.25734393495 7.15804101575089 9.69878933349581
-85.3082605333176 6.71329910973796 8.26420188031734
-215.004047829755 -20.8439812366586 -17.2576739026585
135.496523440176 19.3982743229383 -3.36959906569447
-217.211608320445 -13.2479090962854 -6.20533253373063
191.609149834806 -1.0761971872147 -4.69400344041235
43.2441839490569 5.51926646604913 -0.23184415213887
-208.821927498833 -14.5811140414391 10.2064669324214
-62.8457499368596 20.5650073504038 -8.32240656540199
-115.59175109818 17.096668563795 -7.22793677523334
-124.996414660236 0.0567949767452577 -8.0179385031159
-166.078269695381 -6.20971366807774 19.8376655659671
61.4527239618024 -8.12780828363042 -17.6851114750977
169.272534805522 1.94870821836805 -17.2754510476427
-193.785713567703 -5.18380452102658 -18.0257492855841
-198.317263678527 -2.25583328635112 0.794140902694168
-160.715784614393 -14.2751329721802 11.6775250669581
-197.429915264757 -39.9943016516005 -1.89354900688264
166.793560037879 -16.0450016669063 -16.6103036577225
172.936026976184 9.91383310036973 30.6778220009377
-183.820888974704 -13.4792979692492 -14.9634405651577
32.8160428713926 6.65026904141953 -1.07775782951968
-81.5434153476296 19.669240996395 4.14762474004085
-76.4379909683199 8.7723507157424 -19.6577340424569
185.453854708435 -28.153989372733 -6.79962019631106
-164.152727543591 28.4639763501566 16.5601156091729
-182.252661651369 28.6485023907217 16.637742106453
-161.247540892601 -7.62642448989403 -3.81072799985343
179.326391319746 1.25150347875822 -17.1303732703127
-188.458261000182 -35.5945077521342 -14.3494742476596
-178.890485238306 0.292203689494001 -6.1630915259281
-60.2517022670846 -3.31405619025071 -9.94636061152455
-138.218296197934 -3.57848913647331 -3.92625379461588
193.510040392669 -29.3665122120044 1.53864542389366
188.765239726067 -29.051735592747 -3.51108268399512
187.029251324741 -11.3331961415352 -18.5828343393685
-111.474898333435 13.0732694124008 11.639592495208
139.189612356757 -17.0754067469219 -10.1487859356456
-172.928263823164 12.8987736844703 30.0964700649627
-17.7069506111066 5.57213390672746 0.958408153188863
118.640208515215 1.05939942856324 3.36994822929204
171.950016664255 30.4901318840744 5.95418177846517
-161.747017879203 25.7990215492472 16.9788789810688
66.7554353558339 -5.22787132420155 -4.06901910589219
-157.024682677217 10.688728708644 25.172244074105
177.666078974843 32.3409984073175 10.7706468436946
-213.620147715673 -12.5996114987368 5.0027882145971
160.998670999724 -22.1926176094633 -10.443732173421
-192.629046093582 23.9948927823664 20.529084227871
-85.8798074223699 -1.42867784931677 2.30571155920156
-187.228603946657 4.11914590796737 11.9844357841936
-188.199635205129 -32.9945414275721 5.7324303259725
197.177350904722 -12.0026163908352 -4.06059795911405
114.173610624753 -10.1226680638855 -17.3267298462553
-164.416582570827 18.8639266821403 -0.73812800493187
-50.0828514908754 19.5469204373586 -4.71753457478594
-205.806721756175 -9.17352096016899 7.13833926777465
-156.540420217979 -16.7981491205506 18.4822178614687
182.639909471162 -32.4163959975127 -3.91424336833881
155.133477009352 -10.1209690104469 -17.1414999751512
-180.078570618565 -0.783855200546925 16.0502507011793
-206.97894463329 -29.7352967971461 9.51209544370948
150.318235631455 -0.606526450336039 7.78729718505311
-198.476006285121 -38.2746637295755 -7.57570574665332
122.054077572319 17.465939967498 -11.953940425654
139.057293153285 10.3355501815829 -21.1733129531166
133.035428314145 -3.96316822134441 3.8039202068795
169.374248996396 -9.04992775876521 17.6381214020805
-151.433957335177 -11.4354864015812 5.74949374168087
138.73769212518 13.5535220050395 -19.6067976561277
-174.217044903247 0.967604397636719 28.063380077876
-115.05919138846 20.8785184568133 0.576930821783806
-124.119285363656 -3.65577340842227 -4.88164738622012
-89.5238820058064 19.6140534719181 -7.3153666608328
15.898758161911 4.07047250954727 0.272432352606599
-42.8133021875979 4.40825058664011 -22.887112077593
199.366001516723 -24.7627917325275 15.1906734142275
191.795066374248 -4.48303016618832 -10.3401233848897
-194.038741126482 2.39831819838905 7.97728882076399
-146.32235223313 -17.7672947084143 11.653032544915
64.4039069988428 10.6066451596774 -22.9319040542819
-185.259226526999 -3.75223730388381 -10.7135181002795
-148.682487195983 -19.5949157723051 16.0282243505811
173.408618895344 -29.9573561973369 -8.50662360208012
189.055863327616 10.8290210422692 24.8916933022045
194.877265702008 14.5759373834758 10.4771031540025
109.786491438869 14.0853111150906 -18.3720259953341
179.669254060253 -11.1375980541987 -19.5032793322531
-183.698650222474 -28.1893055958789 -17.0652799009484
-185.951391683503 2.74355670861079 28.4013019673374
132.139898297581 4.84862374371089 -22.6009831905183
-54.9028568664459 -3.10731551000177 -14.4236345067841
-113.374247801247 11.5191878696361 -11.4489853561311
166.602372291838 30.0440752866058 10.8373879558558
97.8996308681898 5.15823671955938 3.40530334848867
-206.532258695323 -2.92460211353637 -10.8488338422284
173.173454310942 -37.7035948610787 3.33548267568513
176.15189094842 -27.2581849140375 -10.8867749797639
187.262186641803 -29.5651253393095 31.063566431412
-39.7673819976835 -3.12235025181572 -5.88391053092491
-208.589423666017 -3.98811668029992 -11.95815279661
-193.053261402731 -34.8752405482246 -18.9275444681911
197.98216130711 -25.6578003793025 19.167451868029
-186.409540148098 -28.7478649502556 2.23746845182993
171.345424217103 10.9851190032824 31.0816308495913
31.248762681486 15.2280200541684 -18.9099921852728
143.745626130582 -15.2568758325068 -12.9578898627989
-49.413960470678 1.92108510106015 -20.9819974522446
1.08420405022853 -1.9298341930737 -2.89880632644467
-99.2244660436317 -1.47235040549915 -10.266463842003
163.707626359406 -17.6741854228195 12.9551256501101
174.583112457623 1.43823931118613 -18.4409092817097
134.720064159233 -0.840475228029378 4.69247903375092
-109.874636271023 8.62497611293403 -12.9593422760331
182.475017162877 27.405357445706 -5.28763119484152
139.76775632442 -9.511705840013 3.35432222957402
161.161372338726 24.4662782036033 18.6406336053039
126.165955464646 8.17822568467208 6.06471100450838
27.682850028965 -3.09223145858758 -4.28375917278073
-191.563733520991 15.4203812717742 -2.05057539661564
175.731877641608 14.6304011744073 34.1701104762537
7.20156330822574 9.64677660790205 -2.17980755740379
-186.317711916871 -36.1162742380015 -8.03411794048056
-210.937004413415 -34.9608971534145 -0.124544492876076
-161.033917893098 2.07782184015264 -6.31099574223198
152.165404813341 -3.45834158704621 7.77463564743246
-208.629967072662 -35.9651327026265 -5.99068042008035
49.3776349964554 -7.84818935793786 -13.5951846965723
194.950906265594 -31.1252206787954 9.44369429822268
161.427433876886 0.0975181052339243 12.5154649546572
196.689121428423 -24.3806700118921 22.4699129141683
-197.409713866657 -39.1105769999697 -8.00017372258065
-23.5671542401382 5.63176321300211 -24.3479580606692
176.879760040026 21.9435623293482 35.5017494572772
-193.628403140029 3.71241062617566 30.3986120229788
196.022908353029 -32.2555701685379 16.1394489329896
-169.383206357807 -15.7056488503929 2.90705995015499
68.4186396521347 -3.10120445887936 -1.39469776731305
164.225531268 9.37921567917342 19.2463502841697
-84.3657120445308 8.66284268160512 -18.3390952589672
184.145584597641 -35.0339417012793 23.8841337716711
-201.366715080736 18.2270032580012 10.2186488049341
72.7298003243786 10.2884326415466 -22.8208146240139
94.366756198614 -9.76282429885127 -17.4075335030855
188.509505051877 -19.7867758517442 30.4772190808076
-198.759821088551 -0.979238885552242 -8.19250763991591
169.065608440548 -36.1060258073894 18.971544351262
-168.537358706675 3.51539777872701 -6.18342718501963
-95.124465816861 8.85635335973034 10.0159798573368
-155.707558422067 22.0500861406258 18.0470059584859
192.827736630895 -32.0856416041196 10.739758728233
-16.5488619880748 13.9009479064655 -21.7804030068513
188.7501965621 7.4021145355896 20.4159500204558
63.0356682452645 2.39459324482019 -24.569978480336
-101.614221035115 6.36541050429314 11.1562293245626
177.723229268516 -36.86393647997 11.6274537903446
-21.6774837483038 2.53218580686993 2.10967696090154
-46.7590594510941 2.89851416590381 -21.882883916056
189.462587726756 -34.082660917207 8.36056274749814
-44.1496274030635 11.1843595287838 -22.459060247735
186.147505856905 -35.4074770190464 18.838650463497
199.608207327388 -23.1090109351238 14.7202711200333
-31.2701837494499 1.92246182566261 2.13361457514831
-188.093926670546 -36.1138241162981 -12.8375504837967
16.1577636073382 8.32284368455121 -24.8084627919765
157.519994601394 5.84914909885525 12.1840515101122
162.346161138362 -14.954957461266 11.7220289618774
-198.370940182997 2.9737296127895 26.2548659716974
-183.286198017332 10.5639862061086 -6.27075127919872
-195.725238261101 -3.61567374610229 -16.0722516073894
195.257994006996 -14.5042253039754 18.688364290965
-160.251835250294 -5.93994034743073 -4.88560620229095
193.949124874816 13.2663400756308 -4.31590335136411
-194.705950749444 -32.7586827249876 -21.6018569446047
161.806933837553 26.2180826160315 3.23894755238236
-179.08964787711 30.7190206233271 14.9414890267123
141.829565086926 -18.0344246463232 -9.09754789552822
-205.960515627995 -5.81305964847901 -17.649320487309
151.034560888545 21.9803634353086 -5.06855853867541
-186.896328035301 -9.4726675538636 -17.1608922723676
-154.685025414984 -14.1025352202639 7.06743970243426
21.3099299023585 11.6434617415534 -23.285162880496
-185.265101472764 -16.9951670063911 -20.1873500242149
119.291173966013 12.0781587839349 5.09167936723344
-180.218763924227 -13.7903710203826 -10.5937255974119
-68.7187663219253 6.4630597449597 -20.7485768203014
136.509577058429 13.9566942177474 -19.2752279850905
125.798788407954 14.0809659330909 5.89564453249003
-100.901122026637 1.53332894825128 -12.9242655181637
179.935150539752 -34.0303472480399 28.5224359716879
110.313317048818 9.75634174074217 4.49143152538219
77.784727556875 -5.99804056958933 -20.6790382927299
0.01659291426941 9.79680777786379 -2.08091232770493
-198.851400680081 10.6470278003537 13.7195155760014
-172.939480545361 -9.43607833192226 13.0031633631064
176.91837405728 -33.9447726470825 26.6377451218205
160.403190569425 7.95554993000754 -19.2554160679634
185.387775471732 4.71698107963522 12.2132544226729
163.910895663952 23.7548188184746 -12.2652630759225
175.457122870998 12.2830670829276 33.0047004111063
172.049390496464 6.29791256632203 22.9120908171214
62.7418319542263 -3.54591663576263 -2.09175622782432
157.034944308636 -26.2158999094071 -1.64162783737256
177.951467138775 26.6480070491785 -9.40091947872521
81.2105475354338 15.6744861893554 -15.0264399988423
-186.195346858068 -14.5042604446975 -20.6068209236663
148.670550564822 20.3440808578649 -10.7731443613852
-153.549400094491 19.922229183644 19.496615431744
183.797776771336 -34.4984376506662 27.4332547685572
-59.646669243896 -3.25788459921075 -7.53410575322227
166.047037305073 -7.19478817256515 15.1058914620031
-81.6694963570367 -3.35006820601498 -6.1100043715729
-135.467360770702 -3.12145670469952 17.8205170932001
-193.498668671071 -30.7766009151245 -22.5996620916159
173.35557350402 2.65077699900856 -18.1319964121461
-58.0640499105556 17.2423735367003 -15.917847727524
-218.506596428792 -20.1683152704036 -7.98787130818077
173.869202037447 32.9997682497802 17.5443567171097
166.080127208052 -18.687636531558 25.0761153110588
-71.7498343212184 -1.02499246728079 -14.9229689202604
-192.628687207902 -10.0948792801017 11.4429007438435
-66.0723070849623 17.991098315389 2.12692519119214
182.818696797421 3.61790303800445 14.3634643229459
-173.466562835724 -0.820474765546673 23.3135156425453
180.919278237026 29.6668483292994 19.7337914257573
185.576365094898 -34.0861930043953 28.0994927038066
-21.6148803492586 -3.77366789158039 -7.052231835221
-141.024547453669 -5.76107231914006 19.8601009965356
-153.844536895775 -8.90633543163852 0.65362213459978
-143.584398459164 14.4247094856672 21.4553299594506
75.1388062528303 -8.73606035974188 -9.10526438898064
49.8255491677315 -2.88875309892307 -22.4778285657905
20.9293486245273 -4.62425704390898 -19.6183150633214
54.0400246536386 -1.21040656229966 -23.4023399080719
184.837568869125 -21.4526361811524 -13.0662836857823
166.69034312467 -34.7341054841569 0.883904162178186
-186.431285190556 -27.3632886741644 3.27340536513367
55.8738490101382 14.9150318961139 -17.899596055632
47.3874361199895 -1.16180639146868 -23.3623128288081
-53.7758792829945 -3.20382887609812 -6.87647575617158
-184.438471314992 12.0698925578596 -6.30351386358151
-200.034592405854 -3.02228567651238 -14.5994797220425
124.665279635653 -10.4468709389883 -17.0736694724085
168.049802921168 -13.9394981910436 25.3285136059179
-152.962044034148 -6.04580800809713 -2.64368398437735
-157.512384027993 24.6859468159093 13.454467896644
76.8082470300606 6.11849469329056 -24.4662229240964
169.455320090365 10.0725923454474 29.4266354479636
-20.2450872477192 14.7264556201432 -20.8131093812672
174.647759669479 -18.1184650916737 31.9441853663276
-206.472105314423 -17.3705206047964 12.2019588891138
131.075219318672 18.1714175853293 1.12404940337912
-163.637693299744 4.4129780298379 28.1657184063566
187.466943310095 27.4802226630569 30.9459552889313
-181.627818314171 -28.065949930486 -11.9342470799457
123.545092319937 -0.600526240000685 3.38428101161864
32.0713325607291 6.88307228085163 -24.9301341494514
-58.9101786843847 10.5954197805625 3.51533424746992
147.709316869209 19.3804817188422 -13.037103934783
-152.021555886789 -10.2359465271759 3.60981767251977
192.54353037969 -33.9083927175276 16.1442806559192
118.052904394805 -4.49677003121749 1.56650655237181
163.827837228839 26.6282293370679 -1.07881065706805
193.125393326778 8.40446670923905 4.33686500665401
-203.415217472597 -21.9366539220272 -25.2978432868953
176.95377189279 -24.0574469423315 -13.3132218466023
97.3360618853653 -4.3225608013107 -0.441848951949614
171.733657363698 23.8020491204349 33.3790093469007
197.236411242482 -22.8646802542585 -4.40546542397277
-201.643712222897 17.8660400295549 12.6854308279194
-22.8902920704906 -3.07556512594114 -5.43352467886546
47.2415468357181 16.1876968081763 -14.8283483624797
124.289069508398 7.1992148110134 -22.8666556276609
-150.216459176236 15.2227827390885 -2.75423373871232
-207.726257791016 -27.2996886256408 10.2441685660421
96.340060832926 16.4534430827233 -4.36106747407464
185.738428063912 -4.37945595107975 10.2879627725487
-168.566469821968 3.72032166428211 30.0777453450379
40.2106625205401 -6.13972230113247 -10.0460143357426
148.547090329933 -3.14389347059251 6.79802101394056
-174.53106874026 0.195682569555939 26.1015837734966
-182.431164147216 -22.7458915484615 -14.8512109386264
-124.027971758687 -3.29880423532189 10.5985751930842
-166.710867760995 24.1823732729163 0.70390792447151
-33.9368947766047 4.41818472269419 -23.5214669505358
184.685044448026 -34.0080206524484 29.4157809336483
166.663236203626 -24.2129291569316 -11.530128259591
-152.499693862251 2.69626830976541 24.1615590105564
193.635522844374 21.6032862998876 -7.17832687256752
166.879778838751 -37.2448024086723 9.208091025823
194.15130285658 -27.4028486428586 25.7894698941507
-54.0345085459652 3.89327558544692 3.76773165039432
-159.216734588317 -5.19781531300412 24.1985593074456
173.428258812643 -16.3957640952929 -18.3987419616942
-182.843019897149 -31.1689684030411 -5.31548236245283
18.8394552542396 14.402641950719 -6.11566047136178
144.549367869446 4.80293155022912 7.7013714937222
183.188352169177 28.1176329880879 22.511806584935
188.161806109216 2.02108253525397 7.96849224467331
-202.541483714744 -2.5550092909924 -12.6182918855731
181.429197092279 26.7782005980556 -7.99632320609456
168.684207304218 -32.9192081257272 24.324274233407
-173.66894736125 -10.4036951870729 -7.22181391797046
-110.4936958238 11.3917884621678 12.5133585390744
114.839132925339 15.3369947819997 -16.5202789741584
24.2481017857431 8.86150784990171 -1.97301739402871
136.418608801874 18.9530383003404 1.2937281459615
-162.31046746266 13.0251497851516 26.5008192394305
-184.224858302692 -31.7873136859396 -14.2126088723998
-136.345325296003 -6.53532667108098 3.4002035574124
189.358399586562 6.39122430469695 13.6952673290911
-42.7834364508116 17.7488565403337 -3.26933207979957
-201.098358613147 -13.0481038514402 11.9470755660821
-202.743205324983 -15.1176173170591 12.9692876734175
-152.240112907069 -3.02013766626383 23.695461987919
-124.95842104782 11.8238191050358 15.9209923629026
164.128857930716 0.250070112625295 14.3751884331302
-182.268076970581 4.45795210182785 -6.39750189042605
-197.800376326824 21.2419311363189 16.5499251916501
133.835596800643 18.8159377263591 -10.150299516065
122.742570375386 -1.88118843478189 -21.9311870364314
15.1015025145854 -1.60338269619624 -1.98177183606227
185.844121285242 -35.4616657974672 9.47836429034864
187.409845842507 -34.9867800788063 4.93418874112563
-164.079670611132 21.8313560419445 0.565179041392142
-188.465623573287 25.8023157155715 20.423750246349
188.015937757389 -26.4651501115383 -7.56167469906244
170.0467627582 9.31842807227903 -19.1735941584939
-104.135594664022 -0.580522356879972 -10.5943795554471
174.454597672308 -23.6724107617591 -13.6399776912045
-14.0553850226203 4.42261359113203 1.30817576589193
32.9993614889188 -1.72402792603009 -22.7609889153452
151.995883350015 18.5814821164865 12.3775342705158
-167.483929167735 24.6522387790524 22.7576302845387
164.623161036015 28.3149584194117 7.24911168982376
-140.544683694486 22.0679782970794 6.53733753231062
191.03355242969 -10.1401641609684 -15.8723711797566
132.924391698023 18.1222166758803 2.96047750080196
191.292976981635 -34.0917863217416 16.020163795962
67.5955904502786 14.2325635214873 -18.5999220495785
-193.812174273708 7.52748029720521 16.2947637859765
-136.775592938563 -8.12159219026628 13.8419746029372
-70.8813579511579 15.6200507216105 -16.8857429033393
-203.244238561306 -4.29444246768425 -1.20043097052248
156.21625412512 1.36550594788675 10.2189495802787
-162.161682799593 23.2456956367584 1.16557264909975
112.842563588821 17.4926496306095 -8.53041245469255
-206.099102263656 -11.3548054318194 9.74860595673205
-204.079927902019 -31.8751955053756 -21.2968955747089
-183.109617414024 30.592122401701 12.7913346985592
165.358653249574 0.199755778958177 15.5270138265842
112.450613043516 -4.43840203803108 -21.1193288016498
-186.69103960692 7.98069524470881 31.1150926671897
-188.18581315658 -26.3327907338028 8.63961269403065
-90.6423052686964 7.07641133438284 8.95849156854722
134.809339210807 9.48998554298374 7.33310063908236
160.280089335418 -20.7961408013126 -11.2108293903506
189.667879258532 -33.6128052009437 5.81123519635462
-201.500978433145 -11.058018295556 -23.6126224252566
-180.286827749437 -16.6917041635005 7.03070589126228
-153.226051810113 -19.1166375239328 11.8085006861623
-104.260643387498 5.46938363148324 11.2938481945134
65.795324349825 0.0597639946272989 -23.9742671905325
-187.917386816336 21.3865032076545 -1.4663373662806
-205.526415419451 -8.08788116359646 5.37503323156086
174.079953209286 30.3127125950857 3.54089230375489
34.1082310536417 9.18233455866284 -1.9189265583176
-184.036839491551 -0.268481755508941 14.4607523758219
-117.869200400556 6.81476973702347 14.9908858830689
160.853825074447 -24.9441493754679 9.4967368540526
-199.392108873241 -34.7278837529173 -19.9735796632934
-111.540985678368 -4.30333288709684 0.315729004393769
-46.7035835612551 13.9569875660442 0.49107141709612
-128.560223645153 14.4385851745571 16.8197423147839
126.887689572105 7.94807071704953 -22.5587967506863
-208.519286381826 -21.7380302694985 11.1897765114738
162.775819554584 -5.24185765995425 12.3858077200958
199.204269367974 -27.8308265307715 14.8231497375804
31.9602357052482 4.43964304253872 -25.0537448873461
86.2755743413471 -8.59963634187173 -6.4280571166191
178.456848612544 -7.15914557450739 -19.5836819293352
193.296007971585 -8.77688103846594 11.97782026305
-172.608858413351 20.0293859775072 -0.852613842136013
-174.89921679183 -0.554833210356037 22.2406942492829
101.817941685989 14.410043230727 -17.9083729083729
167.692609194747 2.95670165677346 18.1930230098174
78.6305307560187 10.2663164068981 -22.5438638607559
23.4614248365639 -6.25219295789709 -11.9719004177959
181.007246822525 7.19605865819355 28.7290103247608
182.070230063572 -35.4040002596532 23.8567045116922
21.9085938288743 -5.85618073285868 -18.0753111971647
144.859580290804 20.5101336378037 1.11080429335006
105.864662782359 -4.99166802515523 -0.0980793385855371
-153.531511273919 13.808742988298 23.6115919167997
18.2048238069259 3.92487158075608 0.331541248585516
-192.523160875612 -36.3501599342064 4.49924964996098
98.4397316230375 -6.66243778397805 -20.1230560113139
-194.054099408381 -14.5095268146689 13.0692403653954
-187.106237905958 6.90325499870945 -5.71160970165057
-183.652890720115 25.9573920334432 2.17792586201725
-118.196913929229 13.5138684032228 13.2929129204447
171.156231865277 -14.4444534884773 27.9792847325756
-29.7046423257099 5.74177168005356 1.75372194930182
65.1287763285599 -7.66926024327499 -18.7136272049701
-178.73305419772 31.6738996412539 12.7033371483586
-187.698127716647 -24.7604506538555 7.57137124628574
10.2543521010518 -1.90632291603936 -2.66133381915628
171.627695491622 -28.959752125971 -9.09145721436257
186.284270575848 14.8476878107261 -17.3088144384491
-193.619818334421 6.23820050899741 11.5536292655733
-207.484244068799 -15.1680561814542 -22.9959416288201
156.19848014566 21.8356996141753 -10.3194471635407
104.5708253537 5.72595926951132 3.77107552113947
-168.351214444931 8.83035344140806 -5.5631216481515
-213.777637182721 -31.2265640126379 -12.4339718840315
-29.724636469742 -3.19022440850598 -5.90362073057554
-24.8433320745986 18.5683267066471 -13.9938619358942
-175.508576275531 21.3822997171199 26.1269786936301
49.924959545822 1.98952378736109 -24.6385850834131
179.123893117009 18.1419878187233 35.20591533498
191.655631504461 25.4793187956101 27.480656622815
-172.031584076785 7.05233901201141 -5.64614772410634
-106.515858061861 13.1575998215359 -12.1555325796351
186.345206687035 -20.6261941827057 31.9189841019528
-215.959721995625 -27.6430403312551 -12.4417279248683
-152.270292986592 5.1722492212671 24.261273572497
187.966057054308 -32.052709088183 -0.768597206792124
58.0853086982417 -7.74196816848438 -18.0829262122837
196.328458221855 -26.8648398458854 22.5578836778592
-146.854964354437 10.1709703899607 -4.46065239085628
-169.556980114743 -6.27670021659765 -6.55409589543885
-178.821460362312 1.12429428884433 22.7268534416789
172.207066850925 -7.18363491126322 17.0782398327243
186.982788091444 4.62901851685678 10.9653057537607
176.609881239087 -32.8936215447367 -5.628730622788
-119.98252060611 1.95758113940714 -9.78719461184005
197.411127711902 -17.9149088087366 -8.06082948704759
-19.3732229822222 10.7135604453407 -23.7769252569612
95.3495403777276 14.2789157855782 -17.9989413628828
41.8399437580184 11.8374684882857 -22.6298234073127
-87.5597461615504 4.45401048857211 -17.040119230703
31.9077755281572 13.0243441247252 -4.18070605533711
165.557205286293 -20.5583325416656 24.6355767268303
61.8524224027235 16.1856086542819 -12.8098835023236
-36.8774459403801 0.182624291875325 -20.7332687589714
155.274724804076 6.03813764722426 -19.4953483200328
-62.722586165615 4.37546189441521 -20.8351724235606
173.898594233501 -14.5080794076066 29.2787188317368
-201.530100779865 12.7722075993908 20.9261476326506
-101.088287522016 9.63677607070759 11.6853017966767
75.3945165172612 14.8524290305355 -3.66952597895135
160.9285120092 15.1949746485204 -19.7658968888493
159.690882694837 23.4508470785374 16.509955278016
-196.399336101811 14.7572607792249 27.4500077454539
129.786000631146 18.4354598967027 -0.974829278603128
-128.779778945742 5.22925266250956 -8.79137356964688
