-94.5956526611267 -6.20067336342386 -12.5873901262739
-122.780216980553 3.80343071586927 4.97482784764497
-230.311752549054 -10.3090119164137 -13.3471133512656
207.748689213698 -28.9860734829009 11.8947574059641
16.2162291561051 6.30339414665184 4.38095632339315
175.650445909881 23.3503455508833 -0.982593508911292
85.3732136708623 0.768502233856908 -6.72881524742153
232.198890814582 11.8963635499021 1.75730437726814
-208.36197254967 3.9734635841809 -13.9655312556818
-233.734853629337 -16.7358501137202 -25.2488270981215
201.583297933214 24.7411492982179 18.8119928923067
56.1831180570626 -13.1634558119625 19.4047863929938
4.41572101281242 6.34545451197085 15.0293878824192
176.964409257352 13.6988615334954 -10.0843019879775
36.437216663762 -2.53975824099897 -7.51349336291688
-72.1590660164917 -20.8832264080024 13.7120656641064
-207.176900142393 -2.89353988614335 -26.1248265005516
77.8315429721317 12.0256684621718 6.94868670258048
-163.306289899699 9.16174747995352 -4.48994836897156
-254.239516773577 33.7252131929063 -3.83853751437162
-24.7919200196349 -20.9533339260339 3.76695193149628
-188.846139901127 14.346728638204 2.60308205776469
222.209456307264 -0.775555973569181 14.2700784933276
182.376918784051 6.40454477344606 18.1609852276596
-66.4918188227512 -22.2708743339827 0.968229498360936
-101.372925005674 -24.5405415589576 2.91118901157498
210.847434442298 -21.7176514438059 -35.7297801717837
5.17610683316628 -6.62284987201938 -7.1504973354141
-230.31093181318 -27.090458059162 -4.44984692180442
226.943442265119 32.4052343803047 11.0908613672264
-226.147457052092 33.9455811064214 28.2026999394865
216.726782352149 0.0565846314192483 -8.05886929834553
-16.366631154223 -14.8962970133501 -1.65072829055982
-164.390508313544 12.7652304635617 -16.8646315120579
-54.9160938622901 2.38464841175843 -4.70727516697191
40.7614089465997 4.92403408298977 -1.03290432454224
-154.99325479729 -24.3845209530786 -14.7223624913899
214.692360274684 -13.2684964005598 -32.4455998223682
-241.666825432927 47.4263715424096 19.9608888016071
-176.964145216897 -26.5192021826298 -0.765362639091308
-145.786011085605 0.049899338954418 -14.8723875862281
181.565600052089 -24.2024916309518 1.31949293577592
223.364469051833 8.11165788261613 -6.04271449442605
165.847256241391 -0.426642645831361 19.6585806735961
90.334205123998 12.3861201394068 14.8073663210601
-23.9230129945773 -16.4950851119747 19.0857383610483
-221.905468860914 51.5829891568974 -3.25709070833654
-51.5913691666509 -8.57944951979467 21.0213493670243
194.60970631156 -15.7175573455764 -28.5620255069228
-159.558965142618 -22.3550806836449 3.80447772336558
-236.790669098609 -21.2345905870213 -5.64579360275843
-123.028149881473 -8.20286668357169 13.5472865301515
-132.531821594481 5.2847730079513 1.75757136398623
13.9373856180654 4.53667100090607 18.5552884194358
-249.634729279168 16.1417047945889 2.89264838974717
-218.664847247681 28.3500195437174 23.842404283979
93.7054053276096 2.9796505114121 20.7584359641003
197.2464446272 27.3654145244483 13.9180119508065
-119.514215976188 4.61393536592418 -5.37612087249525
-29.1921670092095 -5.86489244668986 -8.89379385260909
48.9994757008392 5.83982367591527 19.437427928629
-230.894408886096 21.6128174776434 -14.6070055582968
-205.096802113277 -27.9321785758108 -21.9137651048667
235.445972801673 31.486742738483 6.15657355592813
220.055049959357 41.0944549720917 -22.9338014208968
203.797680301974 -17.6104382680451 31.4481916623975
-132.961074318415 -2.27975156206267 9.87943130890511
222.202807244002 15.3212551858043 -16.8435318523371
58.8696945221652 0.689331234277088 -6.41894088447697
-52.0278811885932 -20.7792454362896 0.720334216001805
213.800528277577 21.9694136392305 -37.6245164137276
6.97875003312781 -8.13528714444201 21.9424694172882
232.754506077683 23.7722744736122 11.6050861542421
215.03815082734 29.1963486648388 16.5126203013184
210.652897759946 -3.91241389805399 25.0858333745149
197.570253247343 -25.1859096745034 -30.821590272133
-78.5787124956488 -18.7824976096692 -8.70347693286068
-142.340267898905 -11.4696793556161 -19.2525923502424
38.3241745422373 8.89678804523946 9.582525291936
82.1440180616387 4.93290022090004 20.2301391596781
-21.9288190197281 -13.0895463488995 -3.51612850897405
208.583879664208 -12.547877857677 -31.9722072807211
-238.350380684732 36.4785656856596 -17.1620023136521
211.952679072076 13.3993415950241 -19.491812837881
166.269286926736 -8.11979569237164 -10.4353335969066
200.179942218139 42.8201372544699 -5.35901073488152
209.835212893901 13.0444726455923 24.2369293169849
-19.3706803378543 1.7191791806063 -4.76697262634262
-215.491850394154 -26.2685045812992 5.06497153913988
218.715179801892 16.7595912664145 -24.7391258002525
-247.419272131893 22.26088651584 20.5220620394481
-201.911958521623 21.5514174586118 5.32957685479813
17.8590591424845 -9.99579208583915 21.4520593181634
193.631710823053 -29.6771877943996 -18.3984882158571
70.7267138594286 -18.4184357820581 7.54951553482255
-217.815298428773 39.6612132364741 21.7081975399314
-125.486293614796 -19.7769663868013 9.16981509833473
-228.949804848567 0.638438600828199 -0.654414927872218
-251.334242750819 22.8736617598395 -5.80972886082293
114.09934622719 -17.0599308642522 11.2312602293461
-195.455168025413 8.94121852355417 -14.4456964948454
-226.498510997118 -13.775095755183 11.0892728580186
148.127574851211 12.5476314321004 15.7009774269548
132.09687337571 16.2261743197917 10.0699933304506
203.537504112986 34.3715885458574 8.60571545387801
-174.952588178608 11.8938160282744 -2.68246745622261
178.309310056525 6.64936699944893 -10.2302156447159
-173.755629852452 -0.535542570858722 9.26877023091788
-138.426106103033 -22.3576676011373 5.56298580122188
50.1066445219555 -0.665238785465883 21.9176592210489
-0.652969448547938 -21.1698641128237 7.5405888846589
-228.619577145877 -29.1435510795675 -6.85748160547436
57.9911257357635 -6.64770833273227 -6.07642993540212
-233.218132064916 51.7191857725349 3.68259573967423
-225.754529967733 -11.2489086077373 -13.6117933199299
-24.5311269095839 2.38408157512737 -3.10984197173626
-47.6305151603193 -4.56997649248185 20.4976279582875
-244.117084295491 39.3996282644675 23.9201403832448
-229.56848237952 19.4915381115771 25.2298997088717
229.34793808932 -14.5278293034676 -12.9595715132752
124.906156752917 12.6371722556643 15.5602695501953
-249.851552502751 17.4654138229527 11.4351212383788
-151.406542841107 -22.2295037934727 -16.9640081780962
194.329068936204 -28.8709921325193 -0.18203626981899
-255.247304198433 38.6484569695474 3.81828446225483
-80.2903549742065 -14.0970181797834 -11.7683866507824
-190.777116113911 18.481047063438 -4.14343849603882
22.2399901294499 -4.35049140198061 22.3633837237892
84.2549396144018 -5.9535209116842 21.4787896578971
70.6803415144976 -6.36591938917574 21.6039876460902
-32.888509771386 5.38385949135801 6.33899636213764
215.523752741216 -19.3408825655799 28.5502514994211
-226.847060776428 17.343300489463 -11.0692178916084
-158.557751302925 -23.1332929420347 -16.4959160911681
-207.806518031861 -19.6525190017912 6.29819305712364
229.81988985458 37.267740602951 -0.671910418654477
47.8845340886363 9.9280675016991 11.8938931256596
-62.1052704276846 2.39569103914505 -4.98892472206128
217.386041715295 -17.7043691659207 27.5093716581724
195.566319917659 38.51692098827 -4.41619243799436
87.1282303119841 -13.1473875944569 -4.11026098088848
-20.9695934610174 -16.4261059663451 19.1340658755816
-83.8627358380972 -8.00673542802118 18.3112805305291
207.158357005336 14.7453562238214 -21.6464418196583
-204.043836769833 23.9830757000659 4.73301042789715
214.476089277171 0.419619328240481 -11.2419238915929
-239.76682208438 -18.4325085305023 -9.72673705278682
-218.518670621818 15.8229795255716 15.4691668524167
132.124292338232 14.3751226523706 13.5256793726516
223.471686070368 -4.26926530131843 14.438001771399
208.480044862041 -34.6893036780379 -4.9230898132542
220.183479917444 40.9175589591229 -31.5258635196093
-219.062125016775 3.40582149298215 -11.409675853379
-17.2602757526177 -8.48559848905037 -7.44612063107673
183.383786191607 -5.46947973286662 -12.5923057984964
-185.854917745082 13.0345928315265 -14.8084639310515
221.833005376676 28.442108341209 16.4591641648821
221.50349695754 34.6288149160815 8.94095017670414
-198.709233805396 3.19445443317407 -17.4534658099763
-118.947311452534 1.40338736409568 8.44825026444585
-226.274914396754 -11.0558250732227 -10.1663034783069
-164.170823511607 -27.0425922127978 -5.04794415385559
-174.781380979523 -26.896315053973 -2.30465023576324
-84.4589620562371 4.1533935265462 5.80011953948361
-193.593671992456 -16.1376575148995 -25.2778325221579
-68.6043933319662 -15.89681351031 -8.73966019043233
-223.664073294903 -11.6267475416391 -10.350715707418
-170.940018703282 -19.0137631284172 4.47724266971629
-212.736809333242 -3.42547378791707 -20.6230680618005
-160.815428756567 -25.6635664617688 -12.9328359441487
142.232299744176 -17.9050924761711 9.32652438154292
-243.671347430953 28.1378816608447 -15.3061516495974
-27.9977889059854 -8.04353078093768 -8.22636765350074
163.999735578155 -2.81484755670413 20.1637164873723
231.756849738256 39.8091975556888 -16.2246785368397
30.8138069856779 -14.4399333206513 -0.656876492021022
229.7390645905 -30.8947722033859 -13.6133158556563
136.212121882719 -12.1209688305481 18.2900906101521
-9.94252741413111 -14.6584368239526 -1.47125395679306
-128.404903196351 -1.82485337430377 9.91445747236513
96.4960720056928 -4.07043616082564 21.4923259316602
161.475576546907 19.1482709119505 0.0074807521410427
82.7945085755807 -15.5557019192392 15.8974512893569
173.200982096568 -0.981658888129548 -10.5635334590618
175.697367451878 1.69505427156172 -10.496331856266
129.805672213298 -17.8589122026373 1.39244708801696
-92.6702741058235 -6.99908539341922 -12.7492619772692
64.1568873317717 0.295326472463829 -6.47668819518697
180.217094235346 -18.9655126155722 -11.6926092943771
47.8360366525012 -0.862263021222132 -7.15215691153314
-198.852260781671 -13.4629690975852 6.80746665762205
-18.4980991899324 -22.2786858795478 12.2648282615752
197.059402945231 -3.1111883009812 -18.329413782402
222.067339727685 2.74893258526821 -4.20670035690505
-91.1555660126104 -21.1263446657154 -10.1749792805547
193.673911771877 17.471723306913 18.3981340280055
-195.070667448396 18.9792818311162 1.19279245654775
-220.177312927045 7.49736342051477 -11.1888567695794
-150.524573597899 1.09285201104668 -15.3934860927936
191.636589797873 -11.5987585079739 -17.9975726686254
-188.948468558062 4.84032192847863 9.18608237881307
190.294988858752 -27.1546109825614 -1.93892175614439
-171.39392347541 -4.65335474833204 -21.5128554881786
45.5149266911679 8.36581245685234 5.9574050894422
-128.295955271296 5.72164148725334 -2.81815009310903
192.748018192091 -27.2324695675439 -18.4146426233659
-150.799888261933 -5.98237413518413 -18.1543639934997
211.664966087519 -2.4430026221931 23.7358843579245
219.031035817307 16.3558952154933 -29.0194948354096
198.833715748792 39.7846569021545 -16.0718547264667
-74.630145213791 4.36924668963676 1.74310563552824
30.3774824069214 -19.8433713090908 12.2963718338153
187.367491097593 16.6509542670296 16.8545253727648
-228.007058494751 -8.49928161271814 -17.9938555910798
-138.874646042258 -26.2719673940882 -8.3531165178437
-133.518573509245 -24.8277133147334 1.08337510345928
-220.498644727343 -16.1216120190201 9.31674572310522
144.397213401683 12.2094752806428 16.0304938099743
202.79637207165 35.9027237674054 6.44463233502586
198.918347076963 0.282982394013532 -17.8967570044151
215.257347372997 40.8048673647522 -23.5044292276889
-244.597522921487 48.995953268147 -6.9882636153545
-181.229790105475 18.5455207073338 -15.7691288402363
237.785280207242 28.4857232034805 -9.94807263357404
-190.908017206909 10.9964842900496 -14.1974611443746
128.477765267766 10.4586534111102 -4.72435426943003
181.414857689374 20.7487665884539 11.7176172451811
-224.893915884429 53.9570133148412 -0.19256596060791
47.2079346566458 -3.0361951905395 22.0463203698297
-59.6795657710507 -9.6610129058919 20.4625441152294
185.246541383942 25.0600528880864 -8.71866079372307
217.853157402216 9.15758755351191 -10.0825142198707
-131.433533904507 -5.55672094693779 -15.4528719187388
-59.7203615856343 -23.2341510155625 10.6606287325675
191.944408085612 -9.97172235500067 -17.3921421496698
216.654124440467 -32.2766737083313 -21.4975587024497
170.145471724051 5.12321434178594 18.322492206312
216.000432190295 18.4933826319895 -35.0169395354292
-253.085807325471 43.8290049305172 1.85999122545876
225.519719282758 -33.8459998535566 -22.069695268705
193.393125958876 -18.0996738079537 -24.3126104387462
-209.278910214075 5.44798063954147 -13.0113025543968
165.876392713832 -3.65128109834634 -10.0674715757775
1.92348619622196 -20.6469879706257 6.46691134179684
174.946366924564 -4.24781421767106 19.9190548052851
50.6064446653276 3.40355546299448 -4.09684906222226
4.16538080512555 -20.2651690036391 5.85172193077667
152.743322591857 -6.32330038827148 -9.44178847867822
206.244305137963 39.5006033722 -32.5093536768943
-103.247933479639 -7.09152691130795 -13.5856646204531
201.27668413255 17.0565419590147 -25.6199553837557
17.7858786556466 0.295405077940288 21.6151206769512
4.64765211514275 1.56801695899149 20.4104358015073
174.596844933984 -12.5817114227689 -12.0158438715379
-145.255834267326 -17.1052767656702 -18.4353957697472
157.384291743661 -16.1915833362527 15.260665180516
-161.168020848206 -5.51645334232951 -19.6551546994749
-238.055120912541 21.2520473839678 25.4126397365976
33.8641436746012 -17.907841266259 3.00836694458925
-214.233506154459 13.3044088073879 -11.2119776063512
3.41402886875379 -1.46853801212099 -6.81415401897092
213.413278977257 1.49703250439415 20.6216382391498
124.418271301047 -1.47593032904509 21.1742231213593
211.589617837548 35.456525274728 -38.8383506860198
-249.950052508703 48.4344440480573 5.83993029037149
181.136030881483 17.1966247781089 -11.1851406291007
-60.3956746367664 4.69738274252322 8.82718834229817
219.528740199472 -24.3553869419563 20.6241736525973
-239.904015393522 15.0092528516055 0.0751663852963615
141.691920762096 11.3071325079158 -5.85555833557618
-166.044745811952 -21.0533189420225 -19.0499693403161
-63.1179426480994 0.186517643369972 -7.89054952926172
155.811537323956 3.61078112953465 19.2476914785828
32.1853620645055 6.31300144559716 2.59626788842548
-69.6747797026266 -3.68339788128453 17.5368010762235
177.421275002643 3.06147143526216 18.5193808902993
-85.3265295762364 3.79025050050576 7.23916845996881
-223.337345460494 1.64855795137234 11.2250226069041
-227.939571670629 34.0937452940199 -17.9633067883991
0.661545074067102 -7.7696359441022 22.1127528155406
39.7244661895098 -5.06021090579083 -6.80081960014363
-210.846418071086 8.39428406935835 11.2495257251798
210.480257028265 -26.6369358036571 17.842605235229
-221.696540017919 28.9097752667314 -15.5860819212924
196.336516850658 33.1777423125684 6.4508347511116
143.042006917394 -12.6934413134922 18.0676869368995
-180.42056279104 6.79054557931313 -21.6366869770807
-53.9645046553968 0.527478144434098 -7.4786487179848
-108.057495721726 -19.468461563806 -13.6944379626375
-213.878123866106 26.0243584639794 13.4943397950888
-172.637362524882 12.2264639975679 -21.7921388356088
-177.579529814745 -0.83500805966372 -22.4664584545711
-142.098243950939 6.7562672974279 -1.9207692081961
-81.639004381834 3.30650140802872 8.96504429399484
214.339265247956 38.5711683783746 3.93939698376443
-15.3767798381936 -18.4642439544708 1.58251923859437
-216.971977013063 -13.9960379646153 -28.0009577845137
-228.718615167426 52.9466038123566 -6.35414252164012
-204.838211392383 -19.0737543936322 6.07909907720071
219.639512376283 23.7742526795666 -37.6441447208549
159.014604130607 -3.97046905390446 20.4618374304772
-232.681071803475 30.4073327916776 -18.3015235669445
141.34404070987 13.0742965480662 15.2702500264483
-99.3417699683251 1.45518934332601 -9.07739235225361
218.548911605425 -22.3291845419231 -34.1991543290274
188.993928791386 -18.6717751444478 -17.4283719141468
209.32747748415 43.8956042997175 -10.0808942791774
222.555741148099 -6.15977801017449 -9.4355934010997
206.634635355497 -4.89716376483944 -21.9493574597531
218.208673269324 -29.4925017302876 5.73557719582367
-227.499927064039 -19.0308429609095 6.59264956618876
-135.669647363458 -23.8560970943059 -14.1727687367422
-171.01718921988 -7.39668936012787 -21.5346804458166
224.403329711138 36.1629978695561 5.40137067220395
107.108218088611 8.52065865913937 -3.67779655819676
227.213560157994 40.8021953411715 -24.1573457429691
201.774847661901 -23.1453375286652 24.5495571299129
219.700956118613 42.0168864710279 -11.7615866387695
-88.4663732193092 -8.86344678079625 17.9542256911635
196.706993665934 -23.1403876401989 22.192242009074
-71.0621634320922 -15.1556107857211 -9.96696003519022
78.665339428306 -13.6823769694833 17.9811150739642
-218.192302319409 -28.9304768323451 1.84429847539957
110.210037383206 13.8744466654265 1.72719581611947
162.80535500395 9.3925661435287 -8.58943831283115
-103.871094743287 2.26137195779986 -8.63792823377038
180.310999332834 3.65200867630174 -10.9485673082107
202.462069515899 11.4405756611322 -19.0863655092277
-208.784304713883 -34.8737805658409 -0.541824613606105
205.725944086297 36.0302310250711 7.1424571673181
-210.93495553899 -37.7426692486869 -7.70607223361651
158.569693686903 -16.5846117359307 -6.30214725422814
227.34537026137 33.0178113943669 -34.5691453393798
-227.261838348162 -16.6320263160655 8.53079259764431
132.803374278635 -0.957860557947244 20.987238273803
224.050403027395 7.34608643266535 14.5569073555907
-192.043189270068 -31.6423159096813 -8.34449417834243
-220.941136494696 46.9502151083939 19.637128717962
209.70160730505 29.3193709033001 16.3941487763443
-241.009979976581 45.1639939408684 22.4807584871442
-180.220421004797 -26.9593631072059 -0.891574449092427
-152.855658808367 5.08725920618636 -13.1788918739664
-236.670150411868 49.1966119772447 4.76250574537839
63.4901795914132 -18.493145088097 10.0724686810048
188.899663448698 -22.0291312651365 -16.2276280480879
36.0924959187203 7.68544804297552 16.5075017247194
111.939528897556 -14.3877266114853 16.3986530412725
-122.705935779278 -20.9760748651078 -14.8107074912028
198.565759896529 17.4862036459407 -21.994866028051
226.88419351045 -32.2867614845678 -24.3657112465499
-128.640670174704 -7.84410997983697 12.7486556728554
-223.949506439087 13.597945232084 -10.6692675412793
37.5088045151249 -19.7220314159684 9.37424187518321
-147.733884953857 5.22496299177948 2.57171944782527
149.09844795792 -16.9337182984038 -3.20566859060554
-192.738127178659 -5.2606143485987 -26.1812570999877
-145.594747753626 0.807987201335937 7.47917001401226
-227.852176874188 6.79333976284679 -4.67825196934024
161.381308483163 -18.9267570587425 -0.704115287113509
-133.103335317888 -20.3803040096694 7.84722257664379
146.173319546964 -5.05823946111551 20.869786804226
-235.035333519501 -11.555881732548 -10.5552796427623
7.33936308461184 -20.9313009573398 13.2476179538559
202.667242090159 -15.1751685465059 -32.8039582918617
-93.8571592379189 -12.2753638736497 -13.4360149839465
205.578134847924 -16.5858110476934 31.8450364941142
-204.633106057171 -1.7933178893982 -24.3409300468513
210.001256760749 39.8005085215437 -34.9355264999214
-11.1937719486387 -22.1757624310488 11.2209312845463
-188.38151003895 18.0696673324093 -5.75750445881086
-178.983128906352 -16.3957793983229 5.22318225272218
194.150213740389 -25.0810233775347 -23.3311672316557
-33.2261705079241 -21.1900482777356 3.50827270561654
-224.563205586701 24.5374577206631 -15.0461930480222
225.780037577449 8.80726726201697 13.7227045921438
197.448039692013 -29.6066813889759 -20.8993970974526
137.804287836696 -17.7637825471927 0.813663157371205
-49.1633537684086 4.18273513539896 1.04461853703415
223.016835541838 37.1947800834708 4.28328237386194
-150.307059550581 -26.6150028320339 -4.54859713897782
38.6869127327177 -14.5900521003861 18.8602554335152
134.466539833054 -14.3778140244085 -5.66566523117091
-240.57414322313 51.0440081712599 -7.2275806233008
-218.480909275445 -12.8872069566283 -11.2546646056873
-144.567759319851 -3.12328449520459 -15.9299213222054
112.110437652355 2.18119988448958 -6.9534910493748
50.1051950816853 10.0005351759236 13.3379725639725
-235.603089779475 48.9683486933708 6.84609141125002
-149.871959074556 3.52208599310453 -13.481501119015
-178.742130987102 -21.6010819372361 3.6061068197349
-219.411803482678 -4.72309933625944 -9.07237945304081
225.082699636119 -32.7161820983618 -7.54951144783333
-76.0638188841409 1.75902563990232 12.0127997831273
197.720037959284 3.70989544285425 20.4982831872275
213.31986469183 -15.0737436742215 -33.7471895734794
-173.723586179696 -26.9967695092476 -10.7697929082587
-73.9168076441339 -22.8071192320762 0.559233599736077
-136.084572455146 -15.7792787523363 -17.1090252879438
217.492999470297 -4.39883458587883 20.8841386587486
-61.4658851181363 -22.9710380953012 3.64201690283105
-102.334600895244 -24.0346197363294 -5.27859820596129
227.997322456653 35.712351376752 -33.7859868732722
-88.4950357727745 3.10579987310283 -4.46385130469058
221.165189085116 41.7775172058117 -12.467809284427
147.311343673272 -17.5885717908562 -0.900964015999308
78.1104249730759 10.851178015882 15.9820475052928
-216.644870356295 43.5014651296978 18.6586757211527
50.6738642679197 -19.0818585972758 10.3751305097757
-190.220485332196 2.42891290485819 9.53799407607502
198.376263888508 6.2079541244443 -16.8241094636793
-182.88459446751 -15.9196715453996 5.38158131230552
230.743037637739 -27.2948531917398 -11.2127700028625
234.127227311463 18.5617365325545 4.48137938739047
-118.758442832523 -15.3209589548832 -14.7423065848054
-246.993232916083 50.058893904769 -2.54260018464273
230.31779878175 40.1360951944616 -18.7910364198469
201.788791310566 -10.2128097681657 -29.0225410410441
-92.2085442613569 -0.773738501160655 12.9503360338491
-118.324378358115 -21.5255953592553 -13.9842093190259
180.566113886478 21.5406184163207 -8.41653369057611
-145.481214830758 -7.2791230002104 10.8801360765021
92.6758246873092 13.712954213888 12.1190769060498
-226.174155457553 5.79565367485777 11.7678832990041
-185.85233637505 -28.0961948616931 -0.766916353418342
73.1684669493757 -4.03785974573124 -7.78726075824371
192.397141662303 -29.4860615408431 -16.3847430209108
-147.674151047603 -26.0465707786167 -11.2083124963608
228.160676947247 -33.1367155663148 -12.8760686376374
-204.792765380958 -3.05898634727282 -26.7797251762674
-226.372632443374 4.47082843890901 -5.07125797112426
-153.849638993306 -26.3474632786799 -10.6700920482285
-147.855271709883 4.16633660077744 4.34476917609651
-45.0377543267136 -14.3797497299324 19.8587232868924
-217.524130075154 24.0290397434145 18.1027115582586
-45.3922541981871 4.85881157859576 10.3465296934687
-114.568996100942 4.97608248832917 -1.71539972260631
132.354900149256 -15.4389583122629 -4.12067211331199
204.330215417283 -32.0421023686439 -0.171765325402383
107.463684729208 -12.1331460765475 18.6522607441436
207.369693249847 42.6756503339792 -20.6797352897387
232.700973572996 18.2036836809457 -8.20299938731083
104.538506086923 -10.9664006851597 19.4900862413838
202.622453051659 -18.1066880131539 30.8701727993541
109.278813203196 -9.78870696548363 20.0374862586578
-199.079483549439 5.13798555031979 -15.7285801702521
-201.996890329168 6.28605732928127 -14.257541239668
179.46065851457 21.2041294915133 10.4245312887183
-71.3101684084258 -23.3375213932237 2.97560455301886
230.466707300626 15.2160541587242 -11.1682935619594
211.953712249449 -32.2403746129289 -31.1891247962425
-249.45029759986 48.6275172009648 0.410435618575252
186.475367145896 3.00604536660116 -11.8946323975594
-122.349395142067 -25.824523000244 -4.03639129447915
-100.735825411524 -23.753876820965 -6.47728694338129
198.999813777725 -26.6574336374295 15.035551201456
125.992633343949 3.26774175790172 20.2574226450409
183.780896146321 18.6072290423672 -11.6364382135748
-176.970116312121 -9.56931902089599 6.88805957968087
136.259805836651 -18.261384931901 4.31447890376051
150.170698312965 -12.8648702143376 18.4061519323027
200.213643610144 22.7049371835182 19.272584014006
223.680211606224 41.1849672041769 -15.846319150737
189.553311864491 29.0357249238634 -9.73221431602983
-168.974105274919 8.76900357745278 1.12086098072329
-215.228055232291 41.6286833579074 -8.84477174500104
187.533374935646 -2.89437775882153 -12.9131697442672
-239.185866667193 45.7359125623179 -12.9396160295264
30.7226666284351 -2.84691917740009 22.2923976329637
96.6979690623949 -9.35032290684131 -6.79025922878244
-188.95828089167 -18.8600474861653 4.56967004756445
-10.3488621341432 4.15022573737657 -0.471883706397604
32.1944861256257 7.28910213718973 5.11185977021251
-221.442123562669 45.7911382287588 -11.4781103354549
-221.518848015239 -26.6474769255553 -22.2101725326879
226.176836023611 36.2883912467149 4.48621973367028
153.878307503906 13.814224879788 14.6549425486946
-107.927170449367 -18.9829187313111 12.3292143421065
-139.88148673069 -1.28900685026167 8.96273059178007
215.852943190714 6.01551926013863 -9.85149195213963
-186.699762052954 -27.029907490921 -15.2515017648741
-190.315870446989 2.04719101876446 -22.5437118325702
-156.431577843185 -23.1112720194185 -16.4195847168834
-99.0147575674712 -0.382077121308048 -10.1735843597839
-242.218729758339 12.3844706902826 3.73775358495636
-43.1354659717465 -2.81172932911063 19.8510446300955
193.441155950442 36.0450088974583 -8.12831374445606
207.4028667337 17.6528558774847 25.1827747288061
189.265300613278 -25.3889865632049 -13.4515945924346
-108.966021294824 4.47416570270813 -3.13180974237606
208.851030837824 -32.2627958968878 2.08179698453028
-172.028053629188 -6.33799472007735 8.30550835309008
-65.0889360499751 4.01921097803551 -0.0448784372803687
-238.7849343475 49.0464770086983 4.44705077229243
-105.378841935559 -24.6186378588949 -1.5297343354371
191.947709383116 -18.0415222512366 -20.2587201136289
-213.760608750157 -4.02543700505517 -22.1997154969396
-181.06271411927 8.51483367383056 -21.5390620987308
-12.899415377771 3.25904927815638 17.5730638634883
91.8325712970209 -7.6308700407865 -7.03057595634395
-242.401388322727 39.4869764376242 -14.7655941262118
199.461873771938 32.2918685219249 -21.1347990172299
169.4118966541 11.3001744490738 -9.00269495054985
35.140331741721 7.48975195693797 5.31296292944221
-112.132855810839 3.68888395665407 -6.11611361472242
-67.1942255177488 -19.8080782820076 15.2592606317301
176.822397120863 -5.78999946830906 -11.5548663082665
61.6333415059508 -15.2368694173903 17.4438945360031
91.254036951125 2.27614942132244 -6.17002548623134
-222.007221785294 11.406695424073 -10.9153167733916
-185.094969197289 -17.7744250580772 -22.4795848972992
81.4086044725349 7.3153297512615 19.1840066034761
-147.422385641906 -21.47074919577 5.47049180896112
-136.047032590622 -24.259090351086 2.47690040178335
39.5349293868305 -14.0206172152357 -1.05776596633121
192.042979862643 0.132841256901168 -13.1359105222776
-61.4933762930356 4.25323436362579 1.40128681087572
181.347849997945 7.85877030721881 17.8911315775088
-237.144902822263 -15.7908649199016 -4.27396302723972
-91.9556650078441 4.23724839442531 4.30918732629112
46.5240165766731 -16.1710988409518 0.594593237513838
197.029511002277 15.179323546664 -17.1103137006342
-200.261485600405 16.2045870856641 7.59172021702379
-185.155743990717 -25.1158897567546 2.29742483157405
-204.394228045617 -1.00565977669681 11.1281641106365
3.75547039125402 -21.1356701122136 8.19536103896584
-74.5593536459882 4.54202457077057 4.48089446850716
204.228244772451 38.4087217692344 -28.6695562121095
-223.534606393253 26.6690852392184 26.1983298570201
-106.113313675966 -1.40070544702991 -11.4106646730169
194.08516568023 37.0105275580715 -4.77526938298672
185.750418837438 0.661331559703733 19.4431142042637
221.715302138998 20.5538035545809 -35.1543396186896
-59.8610543136026 -23.4873313355343 6.63288394240833
-28.3837166872985 -3.60229515267601 -8.31692082688892
158.38705927973 13.2502605962305 -6.91754899387278
-211.467285173868 -3.93993990201742 -25.4179152824259
-210.41967277309 -27.2095411785516 -22.8398885590854
-25.9069948699026 1.27354584565348 -5.2225329421916
-233.442250319816 10.0375397940451 5.52925386803118
-223.136525231397 -30.0023688305621 0.236798927945672
125.851766436799 14.6084458780343 -0.364014466613589
97.6262614972755 -5.26121981471773 -8.13671422901628
228.014593833354 40.1380569724578 -29.1379713714951
-195.675790930623 -33.0430308910803 -2.63590217675703
-193.017579058434 0.152007158738964 9.44730401767775
-154.96969484587 -8.6119117555509 9.60096811060511
99.4809738835669 -14.7603356646144 -3.76221376859287
-22.7741983304949 4.17794989078608 0.489822003621669
-229.005803730235 10.4353089188541 15.8423621534586
-137.303415162933 -6.98985871485123 -16.8649561171911
186.253137073079 5.64542104606306 -11.2843029163418
-51.3196523336597 -23.1168935951464 6.06448236372967
201.905569057249 13.949342489479 21.4981643504471
159.670416372823 11.0548936553921 -7.90926007398796
134.669028855652 -17.6309131944808 10.0320289434712
131.913795088603 -13.5647161455474 17.0354893275618
0.42934267251329 -14.5412181067661 -1.06120082223586
-120.878394556154 -25.6529399100622 -6.93254727438528
-231.978420620169 -8.69466123302917 -0.546855579148259
88.9685918889792 -8.24955773647747 -6.60413704381598
-53.9538013174304 -19.9218063779278 15.7939940279561
130.920897788447 5.81388383583926 -6.89815868216105
-220.699784436317 25.5462765242984 -12.7804746791329
196.087157172449 -29.7300628361405 -0.550552106902444
-232.408853745087 -18.2715467615565 4.61186674595305
-104.309522254533 3.97043520515165 4.85816256437581
-212.653626158451 5.38434824265965 11.0201164996232
159.601481159131 -0.545613862720284 19.9055145834758
-124.105753198944 2.99259895898334 -9.0356211526063
-52.5333477900546 4.53073877845747 10.3534395744286
227.071215192724 39.2251174837 -9.30267740566547
29.708413332307 -11.7472159121716 -2.37066969713428
-240.780373098767 50.1807133392942 11.42308596827
183.16071370152 26.7895641289513 -3.14059979265119
-177.281152841145 9.10308125090844 3.26162536277425
-220.788374568193 -13.9600440735635 -13.2880621630863
-175.590235164094 15.1776677845332 -21.8926199046399
197.015409807272 -26.6279597410725 -28.4241991460678
136.13721644816 11.4487526322616 -4.90557888102176
201.223378078585 33.6905356836951 -33.4281584990898
-158.328845032564 1.53354570243315 7.44537984100294
182.175689697415 1.12126465152929 18.5571216241835
-209.331862275883 -31.6007930892938 -18.0815067728119
-184.672460079661 -3.15665673015824 8.48121953944935
227.538400154666 -24.8221716680221 4.46264796236911
-20.3629952367492 -19.810982667849 16.5489270749993
-112.299611767376 1.5333928351604 -9.7718981146236
201.528564236485 -17.3176064266447 31.1163124614201
-214.090197416026 -23.281603315722 -25.2889608168583
226.057041023978 -0.324204730361917 -1.02405923178581
65.3684303468597 -2.57252409884223 -7.40691024356064
231.21639000003 39.3562912263057 -26.4280913382302
222.220056448991 5.38834412954613 15.1373646932154
-118.276775644891 4.86907236245218 -3.67511688950551
-150.493225829181 4.88193359935086 3.36479854137109
88.4351527824539 -18.0989553599436 8.12777702091477
36.3584157786222 -15.4049790724638 0.0351705803664326
-34.5790232215454 -3.63450567736863 -8.46135677005385
13.2338645515042 -10.4709059321452 -3.37866933249337
-117.562610446538 -3.50831992570542 11.8430013909543
150.691620362992 -10.3809201264669 19.754621858989
118.552532886317 5.40639143820411 19.8211911265979
-141.920025725395 -15.887885059152 -18.2756829472804
-207.748665992815 -6.26948441005131 10.6127743794273
-73.6041610604015 3.92001978939611 -0.183412032094233
202.584989481172 -30.6634820036993 4.97689105564856
85.0502684621155 -14.5199440599613 16.9903436647948
-149.157142788255 -0.681340225726401 8.58751415751748
-200.660308886175 -19.0103902488744 -26.2052557371705
211.181079696741 26.8836076238277 -38.6942458240985
229.297482330449 11.3313107470921 9.22520645378255
217.592796803073 -7.46328479256654 -24.423597582151
-146.138307078281 -26.3301259296765 -9.88051035051826
-35.6188300015046 4.88442760766228 11.9178156341743
-248.500863785155 37.6676031499673 21.0633297896411
210.792751603014 11.9084520991675 -16.927479786133
-119.751293293175 -15.8528949559878 12.169798247715
145.797455975841 17.131669776018 8.69446440112719
130.225748912888 -7.18860638005599 20.7978291166619
177.890604970992 -22.8992622583199 0.705579951613617
-128.633363617362 -18.7174421420637 -15.933645671244
-153.580830333385 7.31341557704121 -6.60746426212129
215.169171590368 -27.2575701136703 -34.6137173807605
-43.3861440848776 1.47438966924309 -5.15748896745239
186.985367463453 -23.9720068699397 -11.8098683494157
96.6669530826953 13.8365726068902 7.0436176461626
-223.25161675329 4.13221237527156 11.8370959210503
-130.552495029188 -24.9036451779649 -11.5948288367619
184.818584016499 28.771889707884 -0.874953422282672
119.985931428868 9.64868023360767 -4.2758444014007
40.2945366819906 8.05938546951673 6.0977115022071
-220.27532965419 22.1339140291892 22.9619245976929
-75.6682801944705 0.150173963784805 13.7997709560746
-84.2390850849689 -20.4452284522344 -8.10330106588428
-207.454152197996 -22.0203767530653 -26.2392630064726
-44.8208238510052 3.92954719445664 13.0432415981882
8.48059258150629 -20.4518386142781 6.758546086611
175.611350877732 15.2274655482793 -9.77669617946091
138.709450159654 -16.7258618774862 -2.1001862071787
-139.521894270034 -22.1606104102844 -16.0910035540398
209.336764851764 -31.1757661960143 4.31024954014927
-118.233894219686 3.77378304880228 -7.51458926766131
-189.07482868461 -2.96728802605393 8.5551199819874
-7.95223428745357 -19.3430902212345 3.11548331752294
95.9921125749661 -16.4783975184332 13.6310506350782
208.495272008837 23.3288257825153 -36.938008462205
19.8063918564395 0.213429324129925 21.6802929621267
116.276044670396 -16.5403284945197 12.6985614002279
226.426693103829 -26.6545034722063 5.69472559775073
-48.5032738026542 -6.52441828503061 -9.62861030198721
-217.962836089808 7.48584253719333 -11.7868628099654
-114.995058096859 -15.1776220180533 -14.3831252246524
192.58361539535 -28.0965704654384 -1.37064883210821
101.033471224303 14.6007072240774 9.5045883930041
-194.127376945718 -32.6711755177227 -3.88719206075371
-39.7612267651347 4.18942690093378 1.12894699387418
200.925869729266 -25.749416299326 -33.1055706936073
-154.973774189554 -27.0096019449419 -6.71925687613715
-85.0319222644127 -20.0925155116206 13.673060220051
204.440564438973 -31.0451733566263 3.79339621363029
127.028433103845 15.9548465474844 10.4691803465673
233.878533154126 24.3970011382059 -20.2173254604096
-254.06104903254 31.2840104335085 -4.55854648256798
186.885960240049 6.229058747478 18.4259055008933
221.264598290875 -31.8301387376217 -30.8371184749303
-29.1695397412037 3.61967327828741 -0.37231572344694
-53.1504349193413 -17.8158545406002 17.6339470048616
-156.237391062847 -20.870154744194 -18.3970295682849
-3.95027416190443 -17.2803648500856 18.3181539381881
-98.153842585446 -23.600127337873 -4.77339168200259
153.523249140226 -2.65753472221082 20.5709992054767
214.53131394769 42.4735662201403 -14.2778496979992
124.212699150848 0.17624666190139 -7.76682110673308
-56.2546094502382 4.92885696758798 4.4568089475229
-239.800446187914 -17.4156165642087 -17.8607893845552
-20.3274548634679 -8.36493299790032 -7.74914683676286
177.129534326195 -14.4081208045182 -12.6498111151656
-213.889154950908 9.82216377160005 11.9427999422337
83.3392184641872 -2.87289936296167 21.5849551203921
-63.0018588984434 -17.6886602250684 17.2949803583645
-148.909340351728 -11.6986651724743 9.43564792223805
-193.763051269125 12.5300608521149 -12.4144205337368
218.591316282059 34.9363985025664 9.06312616030854
-252.454022157697 44.0145553550936 -0.782459027043646
43.830612613174 5.04293329679934 19.853345305538
79.4585149047152 -17.4477544377855 1.60604720718841
88.4553534997304 -0.971195202526563 21.454267003804
-227.168041018828 -5.59428340187935 8.67810793618899
207.961883726707 -28.7235545861337 -34.3147134182704
-119.305016026467 -24.3096603526261 3.38441962115946
145.152623902565 -13.6760194689151 -8.07545938321898
187.271104044701 -13.6385642062055 24.6796092465108
138.486880160295 13.7010619082165 14.5672492088623
-237.906085722752 -11.9373131534448 -12.8444927034256
49.2892927909862 -16.7973003058254 16.3328775445531
214.548785384504 -4.78274726819051 23.8330176309874
9.64114132510576 3.34764617008297 -2.66223938623764
-96.2792008928316 -5.12225648554888 -12.2770788118686
10.4726763794454 -14.8615261881085 19.4708947667791
99.3379173083738 1.8527530099368 -6.55392064459782
-222.260391696363 1.14177902297282 -8.71946021135581
-55.6164142357038 -12.5311376430155 -8.60332907886317
-63.47917640632 4.82345417071125 7.03398616697589
-191.528811700774 -20.9286723429213 -22.8585147536845
-184.680927630125 17.6891835913975 -8.67584001371035
169.040322472434 17.9160597595848 -6.03065435798032
-14.7217658931006 4.97687218664774 2.78753558650317
226.84162773532 -3.3089884806131 -0.128629388095243
206.046447523241 -9.07195847285334 -28.715335410013
-217.205257143723 29.4812865029702 21.2025639906135
-85.8098720969964 -18.9595248515411 -10.8150285751208
144.800078087552 17.6280746535612 3.75523959634154
41.9151548959715 1.23548355205059 21.6248763105901
-190.737289791277 -0.839209605881496 -24.3605671132909
-252.552191595937 21.6539910250455 -1.93204320462544
-253.28728121037 41.0979506102859 12.0439061228325
198.863340212322 40.8757710268691 -14.0330867092694
101.826797533448 -10.3636478681205 19.9206310427421
-240.522258196985 36.7207446841319 -16.3651268938606
-106.961169769625 -24.6644554593978 -3.31624517500054
202.540743903889 -19.6907392426133 30.1539759583756
-42.0640394499135 -4.21128626012134 -8.72663324656318
82.6414140454143 -4.29475964117123 -7.94123078188728
-214.720145058774 7.45765582631295 11.3727142623762
188.294448264992 27.1926245979705 -9.65061339999297
213.47705429368 -23.7574753165244 25.66625907582
48.0215275918269 2.28221124260951 21.2251077049979
-33.8875493295133 -18.4981346314981 17.4465184120672
91.2476317088058 -9.01714692453937 20.6548723539865
-23.78536999418 -3.90212409285347 -8.23363215194376
209.889055648323 34.105531292364 10.7940823643526
-231.626515856836 10.1013337190332 14.883420782743
42.2296807970812 -19.2512758574679 12.230227751276
-169.161430171553 9.64853188871227 -1.07080998638431
98.15778300692 13.67283002864 13.2048850268635
170.180867394438 -7.9106022293739 20.5478876166884
-219.73630820567 44.5234813774505 20.8396137635589
-212.092504879508 -0.417994942700902 -14.720963860109
-109.926916477446 1.42797103618112 8.9419956411377
-52.2602633719975 -22.6776535666273 4.25111882975479
-241.763107017706 21.9323376080574 24.4530321713221
-116.15827278445 -13.0645641659111 -14.5651233257424
92.0846334075317 8.64875312757405 18.4201949144318
192.633753643678 14.4159970815822 -14.0806013371077
119.925079675888 2.32552423255795 -7.2315736249518
213.304346984827 -8.00548514259258 -24.5322576209002
-148.212309234848 -14.9179795516359 -19.9224686761065
178.148536555221 14.7334145597445 -10.5741477932022
-156.042887078577 -24.2184772066055 1.79110576212907
-79.6366288552396 4.36611674910367 2.42141746214939
-246.531497468148 17.1512929446826 -2.81522804590804
-194.258839623063 17.434158034816 2.98363762818876
-157.722076447928 -8.89647252634427 9.18030740811918
228.596540072914 -8.79083006785205 4.7980285826502
98.1861912883817 12.1992277950108 1.65383786753307
-170.705313958323 -26.7415322696385 -10.4985104738818
158.648201129968 18.0090878999828 9.02749115560582
170.468548559511 -20.510943216179 -1.06498739820352
-115.490412470817 -25.1928394092384 -1.00386428073181
189.505962465083 7.20219318953501 18.5530393093164
181.0673959979 13.0539286420274 -11.4638452456791
92.1959741259189 -11.9212878082058 19.0806492187221
-87.7714005919141 -20.9206189407601 -8.92588016221493
215.918310257911 -5.58577581672384 -18.2503728715991
130.646904588678 6.29784417550268 19.2946094516807
-246.092160553097 48.5768484737015 14.8871533169716
3.49193040693059 -7.91498453961237 -6.05019281425717
-219.779661924159 24.3837602469283 23.7627796331774
-232.652465284837 12.6825862507898 19.5784078464433
-115.038126566902 4.24022596621447 4.26849657797958
170.663183790136 2.75661766301713 18.8165673545987
-152.619080661859 -20.1146695260771 5.73428467983191
-239.380734911515 48.9526876016826 9.59398201313104
229.469550653701 -16.8602726266431 10.4772955048733
202.253723881004 -22.0085942299024 -34.0396274348143
-179.056851358641 -26.253489858405 0.190538105588972
98.1532430556862 -13.2893552108004 17.7942837207272
-168.313228185022 -19.1410424399036 4.67200759562104
-241.768535435867 52.7927418521293 -3.25620509314143
12.4587641684432 -19.1579952838792 4.40370973229388
-228.085371067829 24.7386777370993 -16.3230146251116
-189.062179358999 1.14197633497082 -23.2881360768148
-56.5462144656647 -15.6010532577135 18.9648686558597
195.243153969885 -21.8507019512829 23.1089473211943
25.7006123326091 -0.980669303690084 22.1201947104897
-219.854495192431 16.8458572526404 -11.7037934373464
-204.136572484007 -24.7816594066149 4.73995816321394
81.944210733126 -17.0537031239896 13.2550702379128
-221.10746608226 -29.9008039250232 -18.4309776461743
-149.61483361647 -25.2833694583875 -0.0711514137856972
-226.98031407885 30.594564551649 28.4717342529191
51.2872258887641 -19.0877046778442 8.07579183655808
212.203899875364 -3.58224409663422 -17.8840335161674
216.307682642561 -22.8255364564513 -34.9742390749768
-2.34452613290678 -10.0922833242684 -4.39174688357752
-210.748026570425 -18.4101853686253 6.87266321607093
-188.630625596052 -30.6013779104377 -8.05236798457608
-61.3116083448626 -23.5245808383873 8.85124441078115
202.87276176651 -17.5916047890036 -33.6153425130285
30.947108259807 2.81529644923158 -4.58879123316348
224.298509623783 -6.71429428015164 -8.46702713945824
221.115436817456 -19.5370429201567 -32.4876279000515
112.017589556247 11.3412606550346 16.6561189971818
-105.169984007616 -17.3827873190305 13.8301884833962
-163.752640359178 -21.3592385962855 -18.3575927881014
-130.582911477212 -20.7525462365536 7.87286677742644
30.6991783812165 -7.19944927835821 22.0094944707714
-253.205824199462 33.4168760979425 -6.01920179767791
115.118557413569 7.33814102688869 -5.10074080121658
-118.551052676648 -6.80833097584208 13.694534262644
-229.839118249088 5.1577098636583 6.2184540805617
196.929566331913 37.9645816455547 -15.8156222840505
2.02788367695821 6.59204581421264 13.6659388665138
-70.6306219983098 4.24295082396561 8.45965612363386
-65.5958522770441 4.77555914501746 5.3885326478849
189.818208625912 32.5857144215148 -3.58326125081588
166.0671600758 17.4515770923474 -5.48775962393176
-101.406764953059 -2.90053761230352 -11.563789093006
125.429773481742 1.14165605540183 20.5997540854426
177.150758143457 -7.47667594508527 -11.964915290478
-234.874047072822 19.3609631096268 -12.1442690245251
224.892875660152 15.3958298355421 18.8147663446834
-225.038222298535 3.29478032572948 -6.50625915909889
145.661936459804 -18.3671291579172 6.40257031451979
-154.893730735889 -10.9998576833094 -19.8177066133866
146.868097023331 16.6932808174215 9.98687138722181
-232.25231631499 50.8912503312814 18.9762900216287
205.669518759739 -34.0334119495442 -4.71124134601565
-166.643616882809 15.1209386623145 -12.449949413215
163.047232714527 18.8031723461332 -2.32615120526049
218.119822102937 -11.6587374546468 -30.1590794426976
170.227873114931 -6.51148546127503 -10.8572975279578
94.0114505282214 -8.94393401056026 -6.71243293780248
56.8582797073068 3.02869401148081 -5.23961290446108
77.1442438666817 -2.65689123656201 -7.71098556866957
-64.1830575278046 -23.351254564941 4.58912091087506
-4.38868194501016 -4.08990995198104 -7.96626498161323
-234.73040483044 -15.1401475702478 3.58811549057705
-54.8464214068107 4.38630375713404 10.4879527613518
57.6255844200672 6.92010866592699 0.196318533015459
233.443940066954 20.0506147711376 -9.28364528999949
-234.798106209007 9.79104221870754 8.45728959965188
-11.9373662127421 4.85885578524182 2.16616612367498
-227.181930294769 37.4647310021109 27.6963716365915
-51.4879064179111 -5.26881254921691 20.4864472266562
189.880967717163 -26.4509691053855 8.08389336425295
-120.624264586375 5.27917375241303 -2.82022508958609
229.880537592627 39.7991483778694 -14.3872087879412
140.119539877624 6.11012971956302 -7.4453314412217
-225.040029092432 18.6305233206442 -12.0680307534304
23.9863999083022 -14.8647335153447 19.2361861395999
230.155969451607 -15.787710930126 -9.24485198993975
208.91872035784 17.9856592294528 -27.3268991061056
-149.828903396288 -20.6797477318336 -17.9172246254569
-242.843404514873 33.7195850343693 -15.7515225863112
230.622945512931 15.0400923262108 10.5679198340129
-217.645298130177 22.6036304367087 17.1671001405978
-7.41616856740684 6.45272440112317 10.6063759050507
-165.371394214435 9.81872886656081 -4.90485355483468
187.831971070401 7.21837914395601 -11.3396020993977
-83.3591595753858 -3.52811899474995 15.8122020682583
-53.3632231621757 -10.7555839410018 -9.16829549244613
-49.0156783652693 -8.99572785155353 21.1301813389836
174.443956275599 -19.6623430818918 -6.44265498466797
-130.276078193369 -22.478870088216 6.27782270062637
3.84283826380916 -6.10815253247962 22.3189741244652
-242.681559892516 45.4754439826418 21.2739910218835
192.61787901691 29.4236452409853 -12.6512228753213
79.7497839183997 12.7006331066683 8.99170843452151
-203.308724320326 -15.3523590998386 6.76938941223315
-145.443068979514 -2.66288404314435 9.75567264653897
228.195109847348 -29.2400765940443 -2.56093502028743
-111.654062801032 4.70050992854583 2.62928242714362
123.974234036832 12.7278981344473 -2.24121027386647
90.8289118608948 12.3895426267781 3.75797264101441
121.107841787049 -16.2549286285206 -2.8035028069945
170.226934221483 -13.2482675186176 -10.7072671135484
-222.798762451182 -23.7400460987215 4.68815896629655
-173.74004449748 14.2705488809198 -21.8905045293322
155.482358763556 -17.0954592406145 13.5074092726569
195.207135372376 17.5426476743981 -15.9570578484165
-231.500625959739 -5.42515893321113 -22.3675352466277
-17.035680755662 -21.8338136271803 6.8001134265848
-201.802796709019 19.683996628315 -7.34144870798106
-251.127845651604 19.3744257592843 12.179568283906
-58.2997228588023 -23.539997487107 8.33209177925478
9.8910253098441 -7.86493391529077 -5.74323560821922
94.9056242225684 -4.58518490359733 -8.00664383220403
-52.626043418093 -1.27916369500932 17.6737042723384
181.111611572817 -23.613273627641 -2.37073431522668
226.215898628731 26.8785595515069 -35.0916348882138
-109.670067864694 3.48813153052293 -6.30954701725294
-107.231324972921 -23.7530248199028 -9.24517592417884
-214.551117890938 36.1482533496244 -6.82173635033452
-128.897710703888 5.70352630191889 -0.142720859472364
-152.207533117821 7.37581283455833 -1.96413336911768
3.06498283006245 3.77554383224852 18.384712866329
-234.249269894172 54.1659678364358 11.3980819698782
184.522620333063 -2.04550698885153 -11.8902142456149
-215.234912205265 -0.943842347176163 -13.3084986448616
129.262304625224 -5.56431041350482 -8.88233679878992
-246.1114852103 51.4939549802323 9.41198781031593
164.083212871525 19.4188328061634 7.23140658788872
-207.956371204315 -0.036653825020277 11.3703859846762
-212.480128358488 41.7382582331991 -0.476644979479565
-78.0010541905086 2.06720245352298 11.4166203761855
-186.419553381871 14.0775090645054 1.19158928433306
197.735579606103 20.6445096464758 -22.0085813583204
73.2727595735573 2.55858868686594 21.0988189914846
43.0583208108381 -8.04301404653853 -4.50608019332231
203.267986256314 42.7131141463992 -19.9924791942946
-166.848103446696 10.623890955148 -7.7374569432086
205.916163759557 -6.51075800934775 -23.6763303837738
-233.785036299643 10.5077926230958 16.1734432330735
227.40321787299 -11.4207707229766 -15.2426269030874
-215.869601768841 -33.140756898974 -14.9106263752707
-203.907856073977 24.9705567074689 2.10268215366524
