137.469824261899 15.9639113794256 -9.25187324062238
85.380042346145 2.95720672123923 -1.73678330870316
-28.5555260744517 -5.45242292191744 -21.7899527917763
-195.097190753587 -37.2092683317616 7.28783964255803
-5.99036577063915 -13.8573840703468 -1.05340805289391
-188.339480856791 -3.05374250576524 24.578420275786
109.58484174917 4.85230278221338 -22.5157129576448
36.2925389502457 5.24699993469375 -9.74920780743971
-233.780327146775 24.0763681475718 4.92791430347871
194.664417939785 -10.9811454523842 17.597531174557
-213.851484204746 2.30149602859924 0.15199176755882
-112.560223710213 -4.70549888480693 -9.27879474495157
186.556306734643 5.32665467109756 11.7798822391429
-35.9166059367036 -14.4835285418173 -20.9402875928284
214.988472910928 -23.2632079240412 23.9126975769677
204.849396068896 41.2406922565079 21.1585664979746
221.322433430353 7.89012439129084 -4.39731588343892
214.687406804149 -26.5079377225194 -11.0524862360938
17.0082593843133 4.10152381782524 -16.5357496250685
-233.192793571164 15.4561424663112 -15.7804062993909
-198.235631387331 -1.74970718238579 12.1784780489791
191.727503547775 17.5746006778927 26.2538891882663
139.347492251265 11.7968153269827 -18.2406792924497
-213.60985214522 -16.787762368519 7.54472467462313
-202.705897089356 -25.0124436140395 -6.9414052824432
-153.881214211 -1.07339693535036 21.8719967770476
-201.567341824742 -11.1719929332916 11.7774081301674
-146.176812723573 -4.18990966431553 -6.42169424695341
-200.247299972616 -17.1749883721891 28.0854265070586
24.9901792866679 -0.0734484777606419 -22.8525132605278
121.413595308623 12.9348097466718 -15.6301002840166
191.301272818174 31.60684059175 26.2386254426947
173.739066338575 -18.226712532847 -9.358859498503
199.543035667995 -25.3360744208752 25.9282501392394
-108.441758462495 -16.2486160079679 13.8708360818519
-215.621543106312 -9.70003655923598 20.499739672588
-171.480065323078 0.260314505605565 -8.0275547503947
218.406425682065 3.24126431856015 7.18446912538588
-95.6976298698263 -16.0481685718841 -12.5329800077567
-210.12875051163 -8.85333433924421 -0.182803524427675
-180.3100158141 7.18073390165937 -8.45545473192908
-83.3945098443226 1.03493243827897 -5.70964001831531
-161.981961869912 -25.9647494034669 2.54984117366455
205.749997482281 11.9995384960663 20.9750700347623
-102.798415248549 -17.0300035675761 12.1775196754295
198.050881127069 31.300992545967 33.3912903374304
-175.09960413308 -7.27583763749311 25.9046879494079
-193.294008158878 24.948131637745 -5.39776824164023
223.356944849438 -8.01365652725311 -0.484909643884034
182.07600576649 -20.5334107158109 7.80129690953267
-23.1871475437167 -18.1771755271356 -2.85917485700877
222.488100053057 12.2850423303587 26.556138594631
176.977333223425 5.53214751802398 -20.9466859545761
-200.004969676616 -18.36029846518 -11.2067895667892
-124.97222317767 -3.49615670164503 -6.85859532694734
225.074196725522 -32.1113987241075 9.11029936551844
171.619840995963 15.1038815065771 8.74209059516713
122.78605523841 -12.1955650612768 -18.2405652946209
-114.545715902533 -24.8266212112814 -1.05724703356919
79.6905997000476 -1.76407774141421 1.31028659302429
-227.575230809106 40.2245843572733 -21.1737132958643
-192.55103307939 -32.6910373818795 -0.481655336209566
-164.279527231247 -4.26355371857962 -8.14659651232813
185.889449503495 31.1026233888671 5.145142124706
83.0434712648979 -1.84443123210612 1.32290938464696
-194.350415860894 23.4141331020321 0.376481684487782
-44.5781228525832 -7.47338611443747 -20.780696799231
-137.545933004427 -6.57412285550507 17.7771973913999
-139.423152023898 -0.472327357555022 -2.41958747360543
49.3771671388045 -17.5561975030868 -12.6179411888744
-64.5066571542848 -8.42001406395569 -18.5970941395964
-158.556834677733 -14.4413943819212 -2.3219327441236
167.509128192331 0.749745677671803 -23.8596954998786
-194.395645970181 -21.6186709940774 -10.9742936713585
198.501270935824 35.9803076097213 0.0610348178978527
-228.411744386496 21.8428031465166 -25.6562343143254
-179.484629524154 -17.6299549048721 25.9233615275678
121.427681278975 -15.005446254293 -7.64384585282719
-167.462813125748 16.8669814398259 15.4270593985206
-124.790787869491 -21.9564468900567 -3.18642348170285
-233.373124307647 30.3372010173698 5.38572071772025
-108.906092161682 -25.4287432972285 -0.0797647167039477
-126.110597103548 -9.24141542881072 15.6458306744148
184.451632919392 19.9571505642405 14.7663641567544
-165.381575106104 0.0901615079082818 24.0457164124967
195.121173624738 41.5078399884879 12.8928242398008
74.8256946204751 8.41120522719032 -9.50002172546026
186.046042525564 25.1777681204146 16.0349577744989
66.2425620099804 -0.165804016053009 0.0808904427177046
207.311822111269 -29.9368609301135 -9.83748434062737
160.66845874957 -3.3808617762868 -24.7214506738939
144.657931738606 -13.7083220030867 -0.784371067436635
36.4196932075045 -10.1868958978011 -1.7538960865476
188.749878294457 16.8117305531266 -16.829759906475
38.4521510354513 4.21504636402401 -20.0518353341871
-106.359297098709 -25.8536350996052 1.30859952649366
135.535009961125 15.6756022879305 -11.112440836604
-211.181522235751 -30.9324502454776 10.2912316368954
-185.168140061516 -28.5609840970779 -1.1036258299776
211.021617565951 33.0079739227463 40.8449319894657
180.455558287786 -19.379746543054 7.4034570488992
222.733877863345 -16.9320062355218 11.4424193925986
-68.4686200302444 -15.0067152967086 6.65448502870289
205.647848510611 12.6435889695332 23.2181776483034
215.111022088792 16.9227491490303 -16.8315233083425
51.0435767665553 -0.671464570341568 -23.858445416561
195.25683665112 24.369916471641 -13.5220815541993
220.469103249647 37.116235497309 12.188321372069
140.040505585707 -12.2690314072216 -18.0820530154797
192.172882839213 -31.6117372919125 -2.39002543038134
-206.884583762778 14.0528084806436 10.8657238690164
197.060114359974 -21.6854001178024 25.006096485596
203.407088445694 -23.583754708555 26.5468270118639
179.775100160777 20.4034370511024 11.7544057557907
176.370549683988 -19.7937416260309 3.8739296783763
201.20523686301 -13.321349028324 23.6872623877685
160.821764594547 -14.1204070250222 -15.6873957756185
-203.992202958882 27.1586427780288 12.053153613363
87.5591286258206 10.5431115462538 -14.5249274607591
-46.7124205395178 -9.39946346650366 -20.8412266425417
224.746710058809 -30.4798725865671 11.7865186517631
-160.53521687009 -18.6279452249815 21.3558347777179
94.380899528746 3.60915546138862 -22.9576211391158
148.44524751773 -14.4701495014147 -13.6065076595842
185.192005937083 26.9365036247623 13.6709127179654
140.732226941081 -1.27614582634076 3.60239763856585
-165.821188787618 -5.83317387254137 -7.66947957084615
222.202925090069 31.5598502044316 -1.08662947970955
-204.670995944889 -20.1749784739552 -9.57978893716777
137.676587103691 -7.50736992950711 -23.0779215921689
-79.371337302531 -8.43518492772873 7.34178604148183
108.40170653492 -9.54283743351283 -21.8705495760264
-139.595129417254 -18.5537820767945 -2.55276915863248
-108.994935588648 -1.5327175024469 -6.02521175372869
107.652949184183 3.89481371205649 -0.983316193682415
70.411342301576 1.63370327629051 -23.4644609463138
-191.944829362002 8.03385225210816 -13.5232750684524
223.436340103825 -10.9254054895483 -11.9879944413835
-207.442187606238 38.5479225013753 10.2393220171684
221.003895378942 9.85055917229212 -7.14197893836712
213.430125042158 -39.6111130172111 17.8210336782285
199.708136741866 -35.1122193734609 17.228074404818
221.558476142091 30.6971407199641 37.4445361075437
123.107196438429 7.85006309391983 -1.51378638051382
-211.634394579852 28.227212882907 14.7372297421369
-113.753114087374 0.543186665103367 2.70821558629819
178.687125097128 25.5141650280551 8.65745926758674
-133.018524256109 -23.2356018612799 -0.973153357532818
-119.662956921818 -15.1359819939132 15.7428272203902
56.9220057302561 -17.2021903759833 -13.4041501443007
-195.088346894332 -6.68294177746566 24.2210709138382
224.22782741167 32.6595255337438 3.10952175345662
-163.018022855216 12.8252962629415 9.94161891786806
-169.296781482755 -12.4640435329916 24.356909643562
-217.639109517969 -17.3943364261449 13.2026333889505
42.3612172933065 -7.31089770597783 -24.3705564380218
192.079724112254 26.0007534901891 25.9720469855856
18.9503093167637 -5.74703363226545 -24.3063817887207
-171.860247087546 -12.8048450929039 24.8059714824399
208.603122637676 -3.19996531819192 11.8157221577523
-148.678898570585 5.53096138374382 14.7930046503236
-232.176293429861 42.1381193915723 -5.74918778825117
217.403086080773 36.4135992498735 6.20492191742982
222.251818916861 -4.86249617731304 -3.66559279160612
229.130788340713 31.1067068259693 9.44340674082138
-220.084714146791 11.1712546464177 6.99716091391089
210.521570778396 -21.2327400572891 -19.7082833240632
-44.3364202562145 -2.53991393024394 -17.8289648858304
-155.753482526246 -25.385216934847 2.38951319912381
-96.2400879660028 -22.5318162745856 -7.42358152219771
-237.101044057833 33.0296866728562 -6.98747952941615
-90.0453187678048 -1.80040639857573 4.55993662170493
-46.9565695181587 -6.45750800362887 -20.2099920517514
132.840635366116 -8.17694014038278 2.18175576255907
-38.7445258691012 -0.524306838341262 -16.6437654395448
63.7937763144792 -12.0844272105456 -22.0565977692936
211.385596027877 13.1409421599963 25.9563294558401
191.077037513395 18.9927708048444 25.1848588871933
220.173936269817 -4.15127648088461 5.37563965349139
189.513768433582 36.5327773266098 8.86698314971398
-214.957574748938 47.9557810945081 -14.0509943406946
86.5671931745197 -3.77315480234186 1.7516283937698
164.356103099788 15.4738659580814 5.15386950790448
-127.443394000119 1.72993301709744 5.83752315418482
83.9340050534674 9.60036812642957 -16.8768902028122
161.224859742646 11.182346756454 -18.7863065496706
-237.309444546807 29.0946856797992 -2.78580245565095
-179.08495155669 -33.4419951690646 14.6276602877396
182.732884597292 -3.43029781850523 -25.9282523379241
193.877357163874 -27.0211766928937 23.2506877335073
40.4104470764324 -0.464835685168726 -0.396583857763855
202.682080364674 29.8499310712457 -8.54608601442905
149.139024466905 13.1242117055406 -17.4052785270533
15.7960404396004 -19.0634104842453 -17.3947217614093
169.968450165727 -15.5413008310733 -14.5679513836065
-236.435593479285 34.599589958913 -4.73692980089283
-143.834802915935 -6.37635456922648 19.3383469501482
-159.831116324778 -25.1180911962359 17.6432444910009
-218.262931982358 44.8818074921927 -14.5690813691514
203.003175729911 34.9135721392267 35.5281236300162
218.394055904329 -30.3735829223168 -4.89657013509941
67.2951674188995 1.53721087118167 -23.4243602685245
11.1253268888747 -5.48715106532432 -24.1229882071485
168.815552799403 17.113614387563 7.08782270634823
193.185365126781 9.50960016135715 18.0194305204602
162.224449825755 -12.674755474077 2.90762608355661
201.965126110757 -25.1229987235035 26.4109066233759
136.162014476803 10.4803232881527 -1.2405768655558
166.501978194208 3.36231026060402 6.29688423306465
207.617809155024 -4.35721966639907 13.0132483774294
-206.898651282658 4.04525336174459 -19.8161509436763
-110.799762374251 -25.7621705591159 1.06114411659978
151.868109905402 18.063723171939 -9.7442306962031
-217.389801660359 -25.1356901859331 11.6574870865731
-49.8232934331409 -0.311312341630772 -14.9137302791896
208.558142910274 39.9564225834997 7.79844808591695
-70.1739760030596 -19.5568226624227 -14.7813442087689
140.058575965234 7.65482350142801 -21.4732689543706
210.646758592678 33.8024359157964 -1.49240601755426
83.4552613580668 5.8420951757054 -21.4727724229036
-147.635294588907 -10.9892257604724 -4.19794975568279
-150.571302121911 -4.08278780912457 21.0203088410581
-181.325171425136 -31.8471963877921 19.6820397523026
-161.523289503188 17.0108862686191 20.1315318942796
224.562026993168 -16.1885700985925 -11.5845590066554
170.399685131527 12.341540287994 7.8267430665956
-236.719155007254 32.8836717945755 -3.46938178847645
-16.1706281333033 -17.2894873466385 -2.92441557520603
-231.931168447421 11.2625286639934 -4.31480419114914
-70.1537143230458 -5.9802170624415 5.16297497239578
144.616177249722 -7.30786863228098 -23.3045203209734
208.68900289201 1.59839502695205 10.4329748001915
-221.073065778759 46.3790706305366 -6.75440915251057
208.205029459887 13.6194582629051 28.0729044077914
75.3994850636255 -12.5035978209026 -3.57981272762658
-171.550318779636 -1.74272708044271 24.9343567069081
-216.397523651867 1.38806332047172 -9.31096091867625
24.1125073801875 -10.7404281594738 -1.56084919016737
-214.021588355481 -15.2666026548996 12.9158953953674
216.159863263589 25.0753825605131 -11.407591266493
-9.81545901108594 -18.722740897458 -5.68633746717407
216.55173241517 34.6720652690153 36.7706837262514
229.305986097816 21.0099007120315 6.25635644697054
145.516149850182 -12.3478175334131 1.93443468653499
-215.375994086084 3.68069154140107 0.295024003281129
-32.2237202249602 -13.2253365777411 2.32404448232602
-11.3539309105812 -17.4888268483602 -19.6076816561917
66.662109900392 -9.72745653898552 -1.77947767392346
-184.195512537462 -21.6983210486739 -4.09037020782125
-221.622026344791 5.15048205576854 -16.2088783322876
-169.578996885254 7.75761802885966 2.58374167613931
173.436565427399 -7.1399895694509 -24.6193366330659
222.641442815975 8.76428151014297 5.84211175250979
-188.116897666111 -5.05712796238991 27.2580752056444
-202.361626777224 9.01890637188554 -20.5748264665356
31.8818138866812 -1.75909927002283 -23.7930015283465
-205.61651341819 -14.0163415161569 17.3876190426708
-165.441365438381 11.8497296978206 9.34485392270239
200.255092141104 -18.1381396006073 -25.6728298351068
-33.7758490557778 -16.1986135208788 1.15171554304633
-187.585515722347 -3.37730383829987 25.9116324686341
46.9534380934505 -13.329844262848 -21.8777170684595
206.144789408816 -37.685246727758 8.65121817536083
210.114385910284 3.04292544322179 7.54729647661249
216.814046902528 -1.37799674031682 -16.3706409696913
-188.476758765016 -19.9200987930924 27.5287874837503
-178.198351200221 8.07680502470478 13.344996831285
-199.560211224709 4.3856888465495 -18.4570709273479
164.679198193742 -2.99557766164704 5.55333856582706
-192.522401779676 -5.31708108385117 24.8482322642879
-39.0757033338909 2.37219394085839 -6.26954340936599
89.8813778064197 -1.30366248216979 -24.6958872762767
189.812832269908 -34.2103186035608 6.92037330911487
223.658835191743 -9.66823756388997 1.51385918219223
-165.619023600568 7.00499030833023 24.2794381275243
-207.83901829822 -20.1227244210677 -7.48128704602846
201.007514391152 -38.1434969612383 6.42248001350837
-237.815031278566 28.7364753016846 -6.51301032283627
-202.192862618797 -35.1516756521236 10.8355647560597
116.782064697069 12.5616951175621 -15.7740970342754
212.086074329049 40.7759991432982 12.0540576870617
-142.27701885692 1.95334928938107 14.5329180725879
66.0576761207005 6.35026533483147 -20.1602925237
228.017384485422 25.3704716387138 30.2638966033515
217.443022430048 -6.09610969390845 9.38943577799188
13.794604602005 -12.4609441099321 -1.91021438748621
156.644716077188 -15.7559698800586 -5.52692395780392
-142.438124454555 1.12406430591717 1.89403671560546
62.8503780107595 8.32970351135135 -14.3877090807917
-177.711178021967 -15.6637886244684 -5.93849946114777
-96.5184065439154 -23.3452112393752 9.04608421844326
-102.90274368814 -12.5673684186217 12.5010006693931
-22.7421979621518 2.27593001818757 -14.4704555235662
-80.9433547705514 -14.1731082007915 8.73720725378988
-198.973564828335 -11.3665734044234 14.8361469806292
-213.484910021411 -11.6456380611854 25.5482944342363
214.497844526978 15.4702230400813 -16.6975373024849
-23.074709458016 -14.705042878229 -21.3821673005063
-55.546684408123 -3.63192259699611 -17.2617825986473
-152.374298841427 1.43682933326458 -3.62196855258686
130.96097137787 7.29090852510971 -21.4707646563492
180.613179889179 -16.7632912161871 8.27072359589291
119.006214435874 -13.7953150863936 -15.3820289737278
201.836017614544 -36.2145699585482 14.4661916068998
200.129366053057 14.564890526972 33.7647415183125
-169.868732203206 6.62419697885622 0.306086562211203
92.2449961993019 -7.45915209000457 -0.392619802137118
-195.613526986103 33.0232047124601 -17.9046900849045
-205.34333794278 -16.2888100460149 -7.10846797723048
25.6920453967868 4.87492704098129 -10.2607616362789
-3.23213266235821 -21.0180037539741 -12.2290059411164
105.413004793316 -6.09757946821752 -24.1815135888492
-108.795499885664 0.200820455470741 3.4105820265151
118.608156521888 -12.3633354885055 -18.0965348657085
210.17890284323 20.4883360940699 -19.3045394542083
202.922795100683 -10.5217712931534 -31.813891420285
209.039572887367 12.6059399833142 22.6286378245067
-119.158050447752 -23.1418995219627 -3.03380014761485
34.4604363011198 1.66098757258753 -2.83887068186387
-166.110027305967 -21.7609455672197 21.1856643978142
-167.868326224105 15.2166250556652 12.8185096625174
170.732563345981 -18.3228020452231 -0.875176905798513
-76.204375201909 -20.8625671484576 -12.5853310224206
-205.756289269496 36.0069896773681 10.8753672316457
-220.209405710681 5.82814386638889 -1.22495196985884
-167.738741561209 -23.8489274769164 20.5421953739936
-199.772567249022 28.9724649064146 3.28883600383719
190.790774958553 -1.3531471703271 13.3512530039631
220.502223324005 14.8003381024246 34.200737756147
-26.9671746566836 -12.2550674236053 2.02601942366032
197.978531309232 -11.8136946750909 -33.0034566621151
221.233893575076 -22.3185694884562 -13.5996647703759
-217.888957607847 5.51076085782782 1.1039516219774
-229.615635694672 13.8253321018124 -19.9230572637982
186.197717981779 16.0804971214992 15.3650512065362
202.26582114904 -31.4629880750459 -8.78162280792346
-231.438036047497 11.0666276237332 -11.7453153803758
-117.02223559497 -25.7622523021434 1.46893662410253
-206.588923500917 34.1275286773027 12.0500439544667
212.789605316182 12.3576877071613 28.6011858007532
-177.986375503385 -6.20239661570911 -7.59358585856313
40.6356404808376 -16.1905842593514 -19.5357363211911
-198.744759946667 -22.2653043828678 -10.998464520641
214.702816959716 -24.6913318866749 24.2015560106957
221.72808949837 -24.0189381784896 -9.70237127911204
202.578276722795 -22.7979025970406 -19.1084395227782
207.357918991735 13.1061889580638 24.8087077761696
210.992470218661 2.21599650381694 -18.9940356030752
-155.937108413411 -27.0780816733518 9.55538343530897
-150.83022835368 8.44803035230437 18.7273331882315
-203.881410223353 4.55321148416491 -19.7479972588709
-219.079203858703 32.8819850158951 13.8417435507519
-197.949861724391 23.8099717005216 -21.5433976785095
-221.299466319984 24.157907945662 -29.832724068016
121.481106447991 -2.45911284058897 -25.0332366197606
-213.015539451424 -25.4508768128409 21.315243493133
162.112110824787 13.0786775528901 -17.4853413300084
-231.977915715221 12.2506372491172 -13.1212678161578
201.805004838672 -4.7148034669117 16.85752597642
-73.002954298647 -21.9902240929745 4.53162675291696
185.530770704852 31.6031805032557 9.4607899308072
-23.1686136312266 -5.80730980076878 -22.3853767711236
12.5378470191641 -7.65162844637423 1.45592581505938
163.504249333908 -14.7530674784757 -14.6813915879264
-91.1466142102167 -7.87126114358167 9.24249796319718
-115.609605147807 -17.9178540720381 -7.1285563674849
206.973529424616 -5.71022771800872 14.2852574716472
203.680117648077 21.2936803560934 -16.9941793893082
-5.81514276077631 -5.70054388804864 -23.5102538081161
103.176101876539 -3.50379410715606 -24.9212337210468
134.50703376777 6.54119793890263 -22.1047401116153
-110.345020302029 -4.05874165992279 -9.23321339235708
213.75421239515 40.0632957953994 16.4666811690606
208.952204379651 11.1324444793502 -17.7996775367834
-71.9516937078371 -6.80806738795016 5.7922558068021
-182.636180836715 -12.3735973545168 27.3169091446239
75.3961972284013 0.0390237958898221 -24.0550197703763
-54.944131913044 -6.33426192366388 -19.1045698557461
-221.670023656372 6.19515794421201 -1.01331683741178
-224.114282048066 11.5777378821805 -22.5147908053226
20.8594296229184 4.48519205859479 -16.4906916366657
-180.813204083888 3.19924373896202 -9.70384744252225
202.793199823846 38.3445728302861 3.90848241859113
210.908891114186 -15.5137604634254 22.3026717732018
-174.086685825951 7.92236862005248 19.6141576194898
71.311429934993 -6.96028760627537 -24.3896770963431
191.555113620938 31.9539252923197 -2.34647508909977
-232.687946613483 11.9550042428719 -6.82470469656568
52.6744352983184 -13.0863093185193 -21.7699702030355
174.010355629724 -19.190223159148 -4.09950442039448
-167.478626561384 12.766478846513 22.3764036676892
214.652814638232 12.0043035141487 18.2321017654278
186.460026356169 31.2129566216702 3.33651684056096
197.852972446091 5.63581307839782 17.8013817355162
-138.535999129466 -21.5154997480264 17.2623766525474
-183.784170348604 -26.1644386655211 24.8419840006547
-141.10990327764 -25.0880166804112 13.408865884955
61.5102257589956 -16.9081880673556 -12.7567534794286
-227.905360172611 23.8459075977048 -26.4906844973884
-223.376856588411 5.85827624885599 -15.4033903045376
-23.8149987605632 -19.4391186550821 -17.7257866877032
187.756380442387 -16.9753292182806 -23.5381434016141
-161.056067739016 4.93489481303845 24.2384064021975
-62.4784637982111 -22.9527311902876 -0.922629337956688
-232.171731445304 12.031499392468 -2.22686785531652
189.356366920086 1.34917608955987 -23.1670184965546
-209.114777031889 48.6364422581661 -3.22552412937746
222.816434104551 -15.2213817338549 9.1902753091158
192.259527093494 40.2092598429548 9.39149280380857
-36.1277975104231 -16.3092712592465 1.48693421969617
12.4058149089431 -0.0602022632105345 -22.0434159616375
-48.1978215899513 -22.4542164222413 -4.3161646190821
-206.318314157079 6.85492670751583 9.55997117803029
-91.5511622210095 0.637274396071629 -5.22902616742692
-212.444305546896 0.247604742402425 -3.869209521688
226.026737084241 27.5357961088172 33.8548055719745
155.593743361442 3.23051200487726 4.61653546393256
88.0825795454402 -8.25440814683836 -0.895750959964665
93.8940781458705 -4.13313270799924 1.84129638466735
218.664747853476 -12.4274991746331 14.9316281951013
-135.62709817521 0.162152431918826 -0.206412596250802
-54.2662465224864 -0.436983115700759 -0.72474510694276
-149.695695109259 5.41116051829309 19.6120956671926
209.684483714841 10.4833109436597 16.3792851422564
154.104796594979 17.9186933790564 -11.4176810831254
221.17772378609 32.8411526274417 0.749286450240124
107.289110634539 6.58687319313056 -21.3855392612622
103.300371274723 0.176417242824203 1.12172276030409
64.9865987079384 -14.2608668346492 -5.21219946781829
50.6898870296428 3.04353828130278 -3.61757399567084
-214.936366571903 -22.0210770309934 3.24157766345333
189.059406649209 -18.4114390985376 -22.3218454312907
229.497640175095 22.8901373509792 6.96318621031399
-225.098352696387 8.85410546953007 4.73986987915586
-155.810799995742 -8.81820058269529 22.2234640697981
16.5617183155586 -2.15633023302321 0.687229869911119
195.5777655526 37.5067385305838 3.89492851700528
-141.488778372194 -18.1329301267681 19.4221623135466
225.329742115458 13.0182846725175 17.5656192426175
44.3818023324395 2.14142471013685 -2.97297701863191
-59.020833636214 -19.4464970090893 3.84813034240039
-152.60065738543 10.6998137561964 15.7852418414271
146.017931546213 5.92255238521591 -22.6542731174759
224.15548316837 -22.7338035241907 -7.81118979466611
193.912736571054 22.0302240155143 32.8919406398938
87.8655461524508 10.5830424331188 -12.7674996313325
220.923643903375 12.9909991067004 31.6361190667841
129.16057424529 -14.1423382117982 -4.52655527990441
35.4277771902952 -16.2600281126467 -6.74414896956029
-88.3441789134435 -17.5134105567994 -13.3671368487374
159.59941637971 19.2695325300999 -3.11846255237351
-104.762185314272 -15.161509264232 13.162666260149
210.496461661708 -29.0155017411494 -10.1974646088768
132.458322588199 -11.3222075138882 -0.347277518976488
-76.5805839402457 -21.1487775666869 6.41928574132379
-194.409251699559 5.38814821480997 11.3017770423591
220.313798121376 13.9832818035622 -11.4835847321471
-151.900995423222 -0.471694140406418 21.2120006963586
-180.022440226494 13.8928897652561 -0.820788443671501
-162.232538565547 10.1058869073926 24.589793951621
201.957193563496 18.375128438558 37.4679925653059
-234.364572230249 16.5932045872677 -0.420092213150101
165.052578741009 14.0004146309551 -16.870013595167
98.2861430954708 4.99109523079721 -2.40496135310646
-203.87164382832 41.077687754862 -22.5961573583524
-217.881176482126 -19.1589631239473 19.5405785516927
-165.27819448929 4.91335962941788 24.1763890216987
204.828305985053 37.6478432185518 2.69605346929364
218.408022714931 10.7994233273359 13.8907683914166
207.32243538616 37.0285478363896 29.8359539230185
60.7864350237473 8.07116487782102 -13.2393221478586
196.159253772655 12.922681764255 28.4519456599436
-211.65218164093 48.7786852992842 -1.7501006608654
189.004084204065 21.7377087082366 19.2469649562052
-196.794652419217 -13.4729388869461 -11.4686375893503
-176.785926255624 -30.9893828891304 4.06206998630001
211.294638200937 40.3059142531421 9.75968923650681
-131.00230534508 1.6835329670202 4.64673548179897
200.741349867703 -25.343801681743 -15.3022403620355
-198.013996386456 -8.87245900162443 25.5115259248863
-219.080713811389 44.1078680770667 -12.5121029287716
-179.367034058905 -28.4211720204164 21.9537583373437
-140.277162018383 -19.6707368005325 18.6584984528719
-220.403991378719 7.14982783410835 -19.8672902727934
-187.036081652783 13.1305611465187 7.21428211247047
224.561046688758 -35.1653940506393 4.97149439324995
-98.9064575061225 -19.4761088736641 -9.94514706541201
-161.212996011612 4.15148675105011 4.11490366109183
-212.079969411401 -10.3463821621277 18.4198894615802
211.605236388736 12.5969809659997 21.7094868235737
184.49768704276 -8.77953125394119 -28.2261745623629
-160.087574176432 13.2204717200187 23.544098237929
227.766460198695 14.9028374677935 16.8618179800967
181.592121978643 27.2882861283415 0.0264646750991002
82.7090594740919 4.143930628888 -2.66885817863281
195.908757496788 37.7734337815279 28.568775133769
-157.820481245426 3.25396177290564 23.3758657902473
-206.709796086213 18.8626094216894 11.9247734279499
229.995277439635 23.656028894312 24.1357827984511
-216.7297325078 20.7316833936228 14.1011046610433
-237.89732525633 27.4772649341973 -8.0291871012399
82.1969292634398 -9.75545847476092 -22.9117843632415
-150.862950557203 -18.7260427567926 20.1934338591952
-169.585775772783 14.3692402632561 14.9014623903114
-233.798224921531 19.1796385441841 3.23679505863152
-155.599489299235 0.174598252582659 22.4768942483807
-181.73508873416 -20.938679269749 26.1104337844492
225.962823995211 19.1459599747982 -3.87575430205257
147.136715118478 11.6193123848362 1.17456447360767
-91.8608322068294 -20.2843280654027 9.53781322784421
156.357886220035 -9.62702160783884 -21.8131364754662
186.0705227868 14.2085655528755 -17.6096226854414
114.389836285813 11.9945668723842 -7.63375174587493
211.273918433922 -30.1381824473703 -8.89233827335754
-212.438079792624 -9.66203855151479 20.4538120628617
193.107657478791 -27.4943459212528 -10.0595511177567
164.170485155048 -2.71391794751289 -24.6334975957564
-237.79080919087 25.5473535563701 -5.99659889483744
224.679615707356 31.0160313295723 -0.178864266142618
-196.169089676171 15.8250190677323 -16.7455464498329
-147.293427276714 1.44052068271412 -0.207319106875752
71.3780463605598 -13.1741275428783 -20.5788697570272
-155.480997919851 13.430115205047 21.4282224597195
-57.420451989963 -18.7687522544461 -16.9863935821875
-208.537563564296 0.429664944822966 5.8796389115766
-196.295404656963 -9.59169693430293 16.0874089132235
50.2101233671264 -11.4236442621893 -2.83582426397743
-199.101253229877 -12.9658992969741 -10.757903374609
-236.188560778134 24.4946929554533 0.648655819775655
-156.486993039028 -26.9945812611957 7.30339782274644
-37.0930262068901 -4.88369491613583 -20.5838593183681
224.507316401279 -18.9317309288881 9.56005614562919
164.680983499191 3.39946657480922 -23.0579097697204
224.535108309297 -16.6310482475943 5.04258122723438
-220.299646865309 15.8291979823995 11.5943526662733
-159.521664579851 -12.8670700226131 -2.85125182291142
212.80029118624 -7.82331207926239 12.957158830742
-170.35771792947 10.680968737962 6.63513005590873
21.5763598766212 -8.31044885579296 0.290211123584088
119.337185944368 13.7982613753048 -11.1656702967196
154.704882979053 18.6197302229757 -6.20927800227215
224.913160023778 11.8940399958105 7.99586993586562
200.009971707046 25.5538852689632 38.5014200208723
-75.8598426933252 -3.75722692479906 -14.3426937028139
-216.242760602728 13.214933014145 -26.4356337344687
216.503594160288 11.0021759958113 30.6381846182657
-17.7017824217764 -18.5861058993803 -18.640867878828
190.427396967586 20.8454640656291 -15.1332552108272
191.205273747598 -4.84397025005337 -29.035134830746
88.5370064580143 -12.1421540613214 -20.2999824982753
-225.856476167465 32.4821567616474 11.4748594571815
4.30716159776415 1.23376391093681 -3.61701912529208
-49.1727115104236 -11.5858552492274 -20.5945219860553
204.511871198818 24.6395838764362 -14.1063205711906
219.752057183403 -25.9416125786202 19.8432047342668
91.0577734797173 4.89987498341718 -2.81937370275291
-112.290980275774 -0.251751172221547 -2.79537530931182
-179.045306452536 -9.15634101122817 -8.0019109349075
-123.075269914355 -24.6550664025457 -0.365259841123288
8.96712931220736 2.85362608465887 -6.3180767566365
-220.97252615325 9.07437535379266 -21.7058702433975
114.137282449185 9.39544085045144 -19.3864854127899
-84.3900413349142 -9.7137519959383 -15.6957800657101
131.265140212394 12.4099847854263 -17.2066010165231
-89.9162284096075 -14.0211101983959 -14.5225083977457
221.691692272157 6.74484367841555 4.03907089784416
-187.94269015068 -14.5287711478338 28.2690327445694
-184.625504381985 -0.759131376427087 21.5705226104495
-142.644714717875 -23.2496362075202 16.2465696157418
-217.844292490218 49.3696899131659 -2.5955671958451
-216.503683825406 -22.7785158631617 18.7880259965317
180.782243148622 -14.2040548962033 -22.1313760486162
-161.209064920257 -27.7437835013124 9.05549656265949
-196.5583618501 23.261741107141 -18.1556187956642
-165.262694562921 18.109415701319 13.0306883671074
177.621942133337 -20.030859072292 -7.10708251057619
-228.066701044416 45.1826954592569 -2.63155088475052
144.487743063347 4.20906750973763 -23.6363204151464
-96.0574315517852 -25.0033908364034 6.23046264789631
-148.640544023413 -4.82218733194889 20.5345042189189
209.665686554942 -0.702611661926507 9.24910590226351
192.670598673301 28.8126169173902 26.5072478966894
162.112104981846 2.29662561388941 5.64421279198378
218.452192043823 38.5613436834548 14.4998175917315
226.266643849127 -24.927443210298 1.62266320329891
-98.8838505327571 -15.7416000578913 12.1173261276124
-103.470923929621 -14.4634026116112 12.9485738200194
190.11584313933 -15.8668165719918 -26.958336849918
19.7384382959032 -18.8705926645727 -17.2812562699934
202.427879385531 -37.6704183648139 0.501728684584559
156.616595698211 -13.0286028851159 -17.5536773471734
-81.058068949971 -20.3825807234798 -12.4125506771875
-202.986837039603 -27.270114301336 -3.49799375074375
-226.866381848831 22.7128728947351 -26.9700422715654
-106.645635770398 -18.2950521812345 12.3939058789159
-43.9239003370939 -21.7211305795755 -3.73814537081598
-156.814548979057 -25.1403076095705 16.8480832439974
-207.362443520845 -4.2745818113176 -12.0703659116431
188.035798996397 -0.298765816308104 -24.2141147053047
171.005249485714 -17.2066545901369 -10.4343150075245
-157.09959023734 1.51655465134973 22.9936508048561
-198.106817547349 -8.03648114263075 21.3422338976481
170.703532122832 -8.64680573484807 5.68816368713558
218.72396977704 38.3831662046853 19.3566855705978
-220.779125957026 7.63176370001052 2.06156635940875
-214.770405559856 48.395722031274 -9.55314619319486
191.044521103683 21.5329183664926 25.889908687059
-133.389582790445 -14.8547473891848 -4.71783402114524
185.711030208674 0.53985695735923 10.5451299517012
218.531351294808 31.3348486459628 39.0295550237
-235.824503206353 36.2157714748046 -10.9601985587104
-10.9157599725117 -5.79853990884576 1.85291348924073
196.891397123104 40.8227139882376 8.71972718762057
196.619168130048 -35.8674297881618 14.5867492214798
225.032426241433 25.9846692717832 34.9605288834093
202.800962597427 39.6596865557701 26.5635377658841
191.217339337729 35.1849736029024 25.1355217265033
-198.184784143806 27.6460834637018 -21.5215969638562
185.618674163749 -9.96761045959042 9.89214368889044
-52.6337954836146 -19.1632336862234 2.5706121592802
-220.671708838852 6.80284135554921 0.577277378247677
-154.158168494191 -9.79896556295896 -4.11248894445068
-173.85683751137 -31.0189732089092 7.63011194529138
-216.674620707265 37.1239937951527 12.5624896024672
199.050566299143 22.5106837454546 -15.9403531382067
-176.240672632998 -4.72421025399827 25.9490719544402
161.689862052297 -16.0938150095332 -9.29850765448488
-182.152136692358 -23.6718158897777 25.5187528389731
187.433811572051 -27.046855403188 -3.55793509654378
223.281179352989 -33.1556480276481 0.124541006868388
-97.1169865747077 -5.77421857977444 -12.108566009031
138.038887495882 7.97488050346237 1.08140955880784
41.9839192673751 -0.866920360713835 0.115986789254711
134.314210118461 -2.3153959642338 -25.1477718844554
-183.329837103984 -13.1129774703634 -8.36257458570938
215.197914550426 4.68603371377451 -13.4665865986592
202.75645126033 -19.0454438313264 -24.754847314558
108.623282245815 0.752777686756002 1.07245703995404
178.147756960055 -21.197305060405 0.965887461219285
216.937988149336 -34.1873780638629 1.57737082587377
196.100605171452 -31.3333544422079 22.7740862277754
-191.740323369865 -37.8164374937449 8.1747066311048
-54.4450721357953 1.05048218719379 -11.9191033762263
187.222195401477 -28.5644604237678 6.35828213303199
-132.433054788121 -25.8379055206927 3.05577811668477
205.190716786317 -14.6483605016393 23.4637109126826
196.741057432497 31.5513526084474 31.9501292423679
57.9881151467324 -16.7264884731398 -9.39198245808015
-85.6950307418479 -18.8867573294206 -12.9553076067654
-207.567769956295 14.6141506104364 -25.701196657434
-0.34750722286289 -6.31203970766216 -23.8584589826433
89.2049159465099 -4.68687741134347 1.52816641848422
212.679779221113 -38.9518691258964 14.6585683590909
121.161160586373 -2.8521117449894 2.720224775139
142.457523807412 -14.8188011609248 -5.79631025448638
-212.27487084499 -21.0965851127255 -2.40511160654881
73.3180969884244 2.68653747024822 -2.12122820206647
-208.651781979833 37.2630205932955 -27.6660404299694
-161.799471055583 1.50021416295723 23.8630902550831
-160.389725295844 17.7019883511282 18.1648016737478
181.239584864137 -18.184727234369 8.28659979798823
-21.9246099923179 2.7009031631878 -6.14984017262043
-170.276552371376 -4.45819668304079 -8.20478193861203
72.4391577900182 -7.57194721198945 -0.63373518800741
230.514056346652 24.592169579625 22.3472194716164
25.8909075685638 -17.5867116130361 -8.18968321996672
221.264615109628 -8.72352412348748 -15.5246779917438
-143.790446983776 0.542174624711964 0.642975630556509
-235.367426441764 16.6134608609408 -4.91880208784056
-210.319620311356 25.935014704786 -30.7268967613991
-63.4084806399121 -15.8592516890968 5.73461438281745
-193.543179626614 20.9792563746641 -13.0404476137308
182.580657959047 24.8560863031068 -7.40550143169972
23.6411915179064 0.993468369394152 -2.44907253441499
-228.0650061182 7.04133190386393 -5.53232604559297
-54.6977281781032 -15.7872757749049 4.52442857715363
-191.872900572219 -25.7773854716239 25.8760192371858
-149.966468290055 3.74528593033165 5.84309385594092
177.550040115757 10.2551458562086 -19.0828146148469
201.853290897727 -19.3843376502185 26.0301238014577
-37.5203279546681 -2.84952530583063 -19.112973470094
49.4729281285954 -13.0122092689929 -21.9945601853704
219.320673994699 37.7174150438888 20.7376812736662
182.019329961024 -23.6996236194443 -0.82816242389028
183.044127335736 -11.346050377567 -26.5032821972467
211.573005904072 -30.5789429836618 24.985886656745
-160.184726289493 2.32288039656617 -1.35918404809467
-149.08392307821 4.8531086897941 7.46053574514315
75.2480905711308 0.439294534006715 -0.575645368050828
201.405457848791 -37.3584609979964 12.2488175706095
-205.931733731351 -9.69727173213544 22.0779277079965
-168.160419785696 -12.8559103124448 -5.34521526748897
-219.446761580613 42.2369983297735 8.5302087803913
175.786992923161 24.3703334540609 1.64597402381248
193.724197565754 -32.6369089165576 -3.15733470952175
182.881236405976 20.9311697971778 -13.2797282402592
-223.376273517114 47.1609995049689 -7.36311139472133
-80.0904180965088 -2.61986137247996 4.54491764971869
213.730859929487 -22.6205043003788 -16.6113109141204
-179.72219393027 4.77247336225133 -9.1049711824421
-98.6477301279827 -9.426311134391 -12.657402328268
-196.664285639645 -6.09845340105473 -12.1146510493816
-35.1283337162705 -14.1830783241086 2.34443185797178
205.77557548483 10.8729410245751 18.9038825565479
140.589524298095 13.1503002782535 -17.0425804299357
-235.422345829492 36.4466041848517 -3.32259950469417
-182.917202882462 -31.3232922539374 0.87989404413279
203.263701565606 -3.70308518127227 -27.9696539792772
229.352871301729 21.0768969961946 24.8146632339451
174.695601495686 12.8941407502961 9.9899301827281
213.808680883104 28.9429550300777 41.1122680557061
-215.625989479288 40.395588137881 -26.4417620404164
195.186089532345 -22.3139365485088 -17.7577276424399
-178.999330147238 -20.3823543269834 25.3628854036319
-213.760678667622 8.31488284506987 6.12597484559576
37.4379715648461 5.85596752323027 -11.9006604909653
-137.917818392543 1.93598704165299 9.96537979591789
-107.244811114188 -0.821751467856387 -5.06519617629445
157.400543915664 -2.52511526714101 4.74861859791017
176.482499818707 24.6938060010785 -0.459538187218235
-144.740027472391 -19.9369480912861 -1.63671864760375
-83.9595550645978 -13.0385110567181 9.01251268900319
-154.503521523496 -0.822849436846587 -6.66844534767275
-66.0347705637045 -6.76707603929744 -17.6829372971741
-177.451658445553 6.46322132727693 15.9316813085027
176.957409959548 -6.32571348787057 -25.481929388043
-114.086813083667 -18.2472948819036 14.2838336464023
-201.592479204515 39.4188033025291 6.20522947548414
44.980226344018 3.58848257916895 -21.341902921408
199.957341038071 -36.5878018784678 14.1571297010316
-150.856371221062 -14.3896157412247 -2.47280038065444
224.960597696518 -24.5929634967977 12.1361761186883
-194.899972021424 -20.0953146842823 27.893190430413
-133.104832283801 -3.19086609162527 -5.33593845419811
-173.054242778983 -12.2780778291887 -6.49686453778333
-187.350539037259 -3.09629243706384 18.8530769210273
225.565475393018 -16.3409573379346 -7.47175414529024
-224.299632820035 36.2161521218244 10.8722701615938
197.432122574368 -34.1008036876476 19.8168327542505
-17.1401516197012 3.04143253418892 -13.2305886470615
212.751898510171 24.6754745929691 -13.0043432771544
143.38762552816 9.03645716130365 1.7703067461218
212.005115208097 7.77529976307433 12.197942757151
-112.444159590282 -13.7909781336454 14.5208402195648
-202.76828887661 45.7445280778139 -13.8556848532373
-155.085383271229 9.84961041556051 22.6155198251084
-50.9161410994878 -13.9490949094233 -20.0544937536703
-207.298986806206 17.198982567957 -26.9794449679442
199.224264788141 -11.3272172269645 22.2855196943037
-236.687691864578 31.2276639527553 -13.9575300894109
-191.366282884796 -8.46568936118341 -10.423464453127
-136.771550381345 -15.2312256249729 18.7336791162533
-209.111258105995 -26.0651425319674 -3.03691154604124
-214.716363605097 48.160830342943 -12.579663299971
-34.345255108761 -21.8374266262042 -13.873133848726
119.971372838658 -6.03202579250759 2.28384173301506
212.761854619142 -24.8612633074026 25.2108866565751
-139.840647722028 2.62259370382278 4.9161974153246
-142.830191990572 1.21100929253148 16.6265017032171
-144.376496881241 -4.05152961049949 19.3546594980213
-151.383078215414 -2.56390538003728 -6.8047060389562
-141.895548268464 2.62987721446715 4.47771853783132
-72.9576116015174 -2.95123887807306 3.76075882032459
69.00970121643 8.62071868224585 -16.0437267059785
-204.26462868322 -3.60536023365089 8.33091939871151
189.15397774776 23.2124127709417 20.0943137195016
-54.8151336388172 -16.3174181406552 -18.9794210955507
85.6982415270556 10.1912370757788 -11.9217857712303
-180.084544772974 -34.0945970970416 11.4132642601557
125.91123316936 -6.89864688544522 2.15739761281381
-190.765632682015 19.4876796141769 2.26679843895338
-44.1847230956973 2.24026265528344 -10.0751458737595
-2.3406751096418 1.65751876379085 -4.25744469299542
-157.769221565721 -11.0301584679063 22.1767670530051
137.042555690081 6.72967872426721 -22.03058929214
-169.196060514191 15.3567959991023 16.2435864065343
-234.681975600651 19.5055702591825 1.69623053754536
114.796319133905 10.3424021666615 -5.23697007395766
222.323925954839 -6.95212243442703 3.53688075617044
-217.759933057952 -22.4926078989204 10.1449908553171
-63.7953660784638 1.01853132700874 -3.32898945484612
81.5402297798254 -4.27900084474296 1.58978526865723
-171.432909908983 -4.58880595343821 25.13999013064
-216.31035275099 23.0829531125972 14.8742270560649
-100.862547561852 -16.6660624676525 11.756916684483
-66.378233777216 -14.0684051614208 6.56619423665988
-179.33550030558 12.1673247155143 7.14604472747394
-185.232605456624 -37.3088553600821 7.38183337630443
-215.193136968345 -20.2798789313692 5.05990484444847
-180.273985592698 -18.2566227198295 -5.3950747311899
145.642056876904 15.0747962149358 -3.05050516579202
214.738180696962 39.9548689180024 14.9473142304031
221.554508493416 -13.4904680339391 10.0982645761081
47.8724854330009 2.58220920798703 -3.22140781506109
-43.9575697917523 -17.9948633485219 -18.6263238126465
219.368947782302 37.3414506200653 22.0844277355418
209.048901072498 14.5663212632108 -18.4516014460377
167.26190578362 20.9319562865513 0.140597365850685
-167.055772264183 -12.9198474777289 23.7073749030899
225.119707428128 -27.336048344204 11.8510993917447
-199.193932643162 -0.194108256863718 11.7567100427772
-160.094161346295 12.8721336242053 10.4287432015711
203.668362221839 -29.4982473676687 26.1397587277337
202.749240873391 9.54962878805132 18.9972589684443
207.143621780846 -28.4718156066694 -11.0906324512696
182.1837706287 19.2226027468562 13.3902512435942
194.718515081444 38.3865075009705 26.6858244717673
-227.478127971886 6.54829404813997 -3.45078961634951
-182.596525981554 -8.80279159027729 27.439964641818
140.649393608927 15.3915267832136 -5.43572639629317
-73.6648129742074 -11.762512736434 -17.7492105169423
223.45056091026 -16.9603194284688 -13.9876767582991
-213.593660355388 -22.6247513949704 0.211105629368634
-65.7952995674648 -11.183511269301 5.99254725818099
217.838085678514 32.9673529622921 0.176013700665818
197.589299863741 -33.3099897178431 22.2907569192934
207.68900173659 18.9120919935064 -19.9441629048858
-227.1709290982 35.8246752717477 9.34785776600631
192.365608533655 35.2867796819711 3.01015152149226
217.21452210101 12.5108021157554 33.628204553887
-178.199160520877 -13.4845074231358 -6.69964601085346
-162.967886995383 -0.610043610455531 23.8372458778545
-149.841242533056 -19.2889709208634 -1.34471253713177
164.105876626758 9.36716341083404 -19.9554289794301
-141.133401387631 -6.6440508799285 -7.15378004570028
81.160458473129 -9.02523516967125 -1.39639623136174
224.962823274909 -21.2909399520643 10.2954404106454
-192.274463165727 -28.2912830228181 24.1450329197938
-135.227978479289 -1.17534855750408 14.1423588441435
219.833602366263 -14.1713125880191 14.2319408754802
-196.594294135222 -6.01318083050705 13.5039668274466
-231.570303756862 31.6480347464961 -22.6500334685931
-77.0955262412176 -0.681266362462754 1.07135032471934
4.52187441487106 -14.3023442855059 -2.33674950963229
35.9718110140354 1.22557863899992 -2.19512599753263
-159.903657938428 -16.6618460344065 -1.81635630060305
180.503686744138 -22.3865909709664 -2.14097067784738
-119.667244576404 -18.9635759111479 -5.79072660595658
195.414018287309 24.0153082956688 34.9558836873125
-67.4961341362551 -16.4733947412761 6.11301243430726
193.312895657504 30.2035768865224 27.7984524471777
175.660586098122 23.9587902257995 4.3366726961297
206.677844771221 35.203499561247 -0.586908035410114
-133.865458806466 0.239072037227297 0.164165227166993
-155.429936072347 15.1627458603381 14.1599357888865
-221.512474125517 40.8953281594506 8.97979734394739
196.930459234359 -36.6902847219912 10.7528083794493
194.142445682961 36.2972607822673 3.05982178644454
185.911075623553 8.11284701656371 12.1604272721932
-204.213583664174 2.17834066294278 -18.5875081052621
205.574397664849 34.1555527609888 39.0806722038843
168.015624700038 -13.5582818007135 -17.7818167747539
-183.172898080786 -0.961684852476324 19.0533245762365
-199.85861321162 -12.3182583690442 13.0620878911002
-204.82336370094 -33.7621294667813 13.0472687620439
-201.288619839266 21.517339539988 -25.2292835976624
-158.692139212012 2.18874260395488 -2.74296624890192
-158.995824074318 -8.63576692503235 22.8767471621936
-128.559490977377 -10.2148905616879 16.4305869329157
158.590777372758 -15.9963617705259 -6.01560819901387
57.9532283989659 -14.1750535202336 -5.07410726751907
-213.022051258871 3.44017301757823 2.34539315949672
-215.5456817958 -27.417547114658 13.931124239082
-222.15741880848 32.4538153863243 -28.7841567933235
-163.618068751105 3.65230638960707 0.555513202073088
-142.076496597001 -0.155514379592385 -2.86685405755211
141.513068554842 -6.33032558440016 2.87431259940984
186.469999711112 -27.2599647576875 -1.43217432493829
-189.197530614606 -3.14742660266328 16.1583593281719
-47.363669889859 -22.8017189051011 -11.4601202151913
198.509827860426 -32.7673533173355 -5.93630043772654
120.892906579213 13.8348424576391 -12.9370131669907
-201.973334937113 44.5709546217888 -0.744043003280317
-197.819988868215 31.7635312067059 -22.5079504337439
-202.85146936734 11.6293667311195 10.5400782646958
-116.979333615176 -19.5646684644241 -6.02265537784857
-208.516590089278 -13.9553851983787 26.6077497089419
-135.287539322659 -0.48894107314808 -1.90164502459766
-218.138807797584 47.0625895379599 -7.34266936956699
80.0940083105224 -16.11341538806 -10.2761402281947
165.054783900746 -16.9289002055517 -5.81859031092591
76.6378664085051 8.90748900477408 -17.265037391626
200.85279157877 -30.2321003689622 -10.0416952357566
69.2304974435607 3.74050888748938 -22.4585666322305
-123.657884687533 -26.0971983836644 8.84174504012645
94.2991723413434 -14.7081727277632 -5.5395828441033
-182.893666347856 -29.3526060670995 22.2066430858732
-11.6110804466276 0.386060630881212 -18.8444184290862
-151.272529814214 6.57721488589802 12.5477629443243
-210.905993724971 -27.4737073813206 -0.174499307530473
-170.483202145973 -22.9229205199892 22.2330691432526
-167.550754920834 -28.4771278338221 14.9912347715268
189.97757930335 35.6588780157688 7.25070479923945
-216.829597430494 30.0118149141805 14.7184727431591
175.931150400979 -18.3084808250862 -11.4815790185148
224.214464519961 25.3755180409803 -7.2733748575464
-126.406302613562 0.278359415597797 0.712376917586144
193.539962877278 -20.4165383795457 -20.3278129462418
188.468884473134 13.4478435002316 -17.6473855403499
-153.202759291322 4.63341591860965 21.7501644993286
187.560568382 -21.3432154338228 -16.1039048432949
191.643726545753 -35.4657632733965 6.64375068824814
212.573762666463 -32.4711184968341 24.2292751393793
-237.686426761417 23.7776197348384 -8.33820175730986
72.0991767890935 -9.97361114813851 -23.1781472254009
-142.219510365017 -1.40353459548589 -4.01531190288746
-36.6083742329307 -5.37404773597425 2.01201742297569
-179.742235671555 -33.3097843221785 6.34640006354654
187.166787580524 20.7809268985636 -14.5723260135972
218.562813841604 28.3981319348897 -6.91114976620262
177.023344471661 16.5055968685589 11.0548238233996
190.675941161644 -9.0184558745792 -30.5906808734583
48.1567060369546 -2.4374068606831 1.47649224750602
-82.3208915064972 -23.6770716125796 5.10928831832692
-172.51538710841 -30.0680928646073 6.23966678075697
-219.960412153807 39.2212013153692 -26.6090090707809
-181.106479406477 -27.452303131191 23.1680853748598
-126.3764938076 -26.2370063646774 7.84944256288584
