-178.630531115389 36.2647704484468 2.2426790850266
46.4162991570443 7.98497476424248 21.1067175461025
-207.946673981168 22.2840873203665 -21.30440380454
-213.506936287454 13.3411337404623 -13.877727290182
-150.366868645363 23.3316480264652 -12.7663669402656
173.089661920104 -34.0808196859481 -11.1819117542137
-208.297416950285 27.1845152313381 -15.4581398582633
-62.1254625670266 -5.59788601576336 6.93438534069669
149.639141341894 -7.05354378718052 19.7597632341052
-199.070684162202 34.7647054135622 -3.85885145956306
197.940258879816 -29.2581952919685 -41.3413290977554
-188.226673472957 10.6926518333429 12.5045183183034
103.160124149271 8.49371569009292 -6.11191335305966
-106.365843346577 20.8159691273097 3.99698025390422
195.046050682876 -37.8049894300038 -19.2381005229402
12.91740255548 -9.39316307792248 12.2849065479151
-180.950555136125 32.9004403679525 -18.3405259121659
-231.3139538782 -33.2217123613291 -10.3353181469274
172.303476655475 -32.537512391114 -12.2471087781354
-206.155932361864 -28.7139980751515 21.2019130266706
188.047752416142 3.59019167284642 25.262418157776
-126.864220020114 22.4868916707971 0.573544819255211
-229.400250790716 -38.5500652593062 -8.90258069327012
144.941729207162 -6.22183341323486 -5.76608334620025
186.596611776212 28.255061043459 16.475637992066
-192.210958492201 11.6680121980507 -14.9465274383422
188.500944911119 6.91004933695024 28.1846629408124
-37.187373457322 16.0554512401771 17.0325875526737
-179.139034677662 3.58219479435212 -22.6786264166139
-28.7276998395412 17.6487134426438 14.6417811738457
170.268616427943 -6.43776908011086 -11.4387114420393
-20.8037367235973 5.15883294954578 -4.54966377080556
-215.457893961365 -16.8565212673759 -14.3100135733306
165.121079753 7.73716663636696 -9.58298909969016
130.229603414702 12.0527682615453 18.0164479822428
-111.569954550327 12.0736587394712 14.3688938769648
125.654413309402 15.4883830264765 11.8686817999611
-219.156638133834 -43.9683636863625 -1.27543517727911
187.585598846103 33.5369084123007 -19.887727467207
33.2396186519055 -8.27149426318825 5.95504820115263
-166.524450481059 12.113097234803 8.17411042333599
208.106986088957 -22.420640656372 -38.1515743434547
186.72785563242 32.441784492178 6.53248173626066
56.2950503309281 7.44284049409548 -1.8405850158929
-166.701176270911 -3.22622819615553 -21.8914559347609
-106.041131864429 6.18449995008638 -9.57150041985698
-77.4983473586744 19.7824278146013 9.13762363439008
207.928257249909 -12.5423217849164 -32.5989683934087
189.120997425729 32.4762831130259 6.56537894096862
145.284621745286 18.7196248089403 7.33787851250265
206.067576251598 17.0823069206537 -20.0176459109456
-180.932592014106 38.5893718566626 -7.9855344077684
-146.251643522485 6.10104312878103 -16.8264953326981
-233.759379247245 -34.4837255310374 12.1687608168922
-214.813916614871 -7.69226598709569 15.3948381634931
178.72093874518 -2.28397010235274 20.2620118561431
-118.102204925783 19.5530483571414 -9.75484687211145
123.795522237199 8.85919639534729 -6.32071635719034
51.0435082557145 -6.78274212301801 2.14982296382975
190.082057962671 -29.3011682463488 -40.0975129668921
173.935024049906 -27.0961379276851 10.2682204496621
-130.986160166653 14.239294784099 -13.8046668182319
-44.4079710706376 16.4801549933097 4.45456390435938
-204.069643924683 -34.5487521269547 -13.8386754667319
-178.185357514151 38.2433470166043 -4.80567226944202
-195.887877966365 -36.9685626504058 2.62757052412642
170.871236015921 8.07679409014638 25.9195647258945
184.374564237006 32.3049354566464 5.91191454805738
-172.831005733257 25.4884004647856 5.31968772313078
177.32449627256 -37.1432256216879 -11.5582052338772
-33.6376035174311 14.6854587696607 3.2039236236909
-209.328006090512 0.0929517930589031 6.26874804769667
-213.886503146974 -21.282583293656 -17.1551867758839
-81.6516724941148 19.4933183513868 1.98031525802733
-60.2161561073818 2.66246115868125 -5.60475813984695
-208.576237625811 -0.74259043631691 1.57405598857614
169.539515775335 -26.8108830974882 8.23805920341303
-35.8396902443328 10.6795271427276 -1.51652515498132
-177.103429994456 5.64083471063523 9.44534686402778
-198.404308993425 -21.5034287191889 -7.70217309067789
-233.889874811379 -35.4841882035359 10.6656318542712
-201.091947744574 -20.1257549896742 -10.7763671859835
202.314156473143 38.4542268181407 -19.5352602606694
-60.0873026269555 16.0241570297727 16.6800130991479
-78.1871201990182 12.8859280695218 17.4289953717154
45.2402373835696 -8.57824513840462 5.15496734122489
-203.54308083884 -37.8604076718267 -11.8329290791363
-79.49039872374 15.1214326115999 16.1770620554572
-54.5286794546052 -0.434516322455121 -3.93011311582388
214.983591569073 -32.4661261152963 -22.572497182689
152.165500978949 -23.2281995704765 0.00663268168361504
86.4321665933871 2.25707538314198 22.3218073267331
-183.924515383465 -16.9220121199652 -0.126539790567339
-200.012252534486 -29.8194329425379 15.9394923229328
161.003789097862 12.0150268508382 -9.89840622171253
193.771689994938 -39.9734244464267 -9.46821686034986
220.637857033735 -28.8456923567423 -15.2333440645519
70.4994598534932 -11.825579935691 16.8573666022526
-2.75286630695951 6.65341862425317 22.0717866305189
-56.1512918613757 16.9731822906205 2.7166007315179
-185.354458306915 34.3128746556634 -16.7165797142283
-197.763902940496 12.3293737527109 -7.76322336567689
-124.342533040626 3.64819132600509 -11.2357848744756
-122.303022747192 -4.37548209123579 4.91389854375806
-182.417315575961 -3.61400684180065 11.6067670371031
59.9668319284238 -0.0647905846106273 22.165153882706
164.2177240167 22.0993278455172 11.5489030561896
198.473364407757 -8.04433489508964 20.5640558368787
201.407344625932 2.63976534152068 -3.20729549791631
184.467968879544 14.9794853461275 -27.7615490451081
-181.836604205267 10.3105702578575 -28.1802904797974
-205.665705663955 -14.4978029317303 -11.2819293911002
185.905967052024 -9.07883087342862 -20.4873968567218
-226.108528037335 -16.3834641057805 -12.3691265798683
97.6980075487825 11.6097099138873 17.7717944961125
160.139790988714 -13.5449719184012 17.5945257235886
171.354314055713 -18.1343905170753 -14.3256764871742
-232.855364173586 -38.9447445456557 4.6103158090338
190.137321878644 -4.61306588931821 -15.6272421647748
161.717996264525 19.9272422201751 14.4514717951821
-205.380282147088 -44.5993230288154 -5.53089041533243
169.540472475727 -1.26033802843795 20.9620010655375
-201.874539357782 -27.3863017781601 18.3246765099446
-207.694027610176 -10.2374029719267 -6.99494241267683
-198.854896992549 -25.7365743833731 -5.205718486413
168.961990607927 10.6322132280746 26.3638147859158
-152.10279754848 19.0604902266037 -18.7375588583804
-167.236646323927 29.7150778171624 0.753179947035128
-84.5869759663997 17.2908236072663 14.1045970725767
-139.027388134808 24.2278042296612 -2.98477984577413
-25.3905019684853 6.76936932421516 21.602305776066
-198.389854706659 21.7386329962978 9.95110390967086
-150.845320037927 3.42277201175463 -18.0810443772251
184.746447378515 3.78090767602625 -15.6899124843665
166.00474107848 -5.85819075924024 -10.0628479066086
159.881031367614 -17.7686310590012 15.4195370940348
191.294954354514 32.1279815143515 -29.7725395702293
-213.992509979229 21.269705164989 -10.6988634768721
-118.510271867593 -5.13024356444194 -0.0424357709223937
-44.612491458772 18.910296747564 10.058399219286
144.39937354701 -11.1069374370497 -5.02398462509855
-162.339876009752 24.7465366395556 -19.158421600538
-125.955731692793 16.0555222047408 -12.2671429111284
-52.7753264181842 10.4067609119744 19.9135902733015
-218.002985948679 -6.67540655422798 3.14603822720576
207.518368358097 21.1486990160299 18.2204672383958
219.392756225206 -30.6277024434552 -5.67538518899576
-58.4956869327321 -5.30747591946219 10.2996638649547
-173.186973738747 -9.40665175225356 7.60437788810704
-51.2579291037382 2.56530066670154 20.3807213365573
-195.744070132708 -35.9002130756727 6.59391622255975
173.638667859064 -31.4856032189927 -14.5691639185802
-207.897620334357 -21.3392045876642 -16.1322473168396
-181.908698420027 5.38289523076732 -20.6479807559606
54.1085246480642 11.6197504537839 2.15440324248213
169.887227981951 -28.3626516791626 5.58173082785309
139.171379643711 18.453678634878 3.91522762380366
148.97883555542 4.27781285654917 -6.8693273523416
179.231321610127 -33.3417023465998 2.91233378597704
-226.458106765892 -8.59299212035015 -0.1063309266323
-202.1432882932 28.6294655125396 4.44017369500442
-131.30837016129 21.4546260446625 -10.2910496948578
188.179251062209 -28.3153402330789 -39.2398127104183
188.661643329144 -38.8965513322532 -6.12831599454658
47.1579054490654 11.2617105492748 18.919278686065
-66.7470647206917 13.120126675916 -4.4571026477069
73.3367192874428 14.7432306445546 6.30857568779834
-198.293192097534 -23.3671033877387 13.0755238613421
150.705184348479 12.3653544401585 19.8589636680058
-198.462356442689 -36.5275058427816 -3.16399399089971
210.81610767736 17.3282907397281 -5.99964640331086
-39.1853636076105 14.862702556501 18.0619276447567
200.641982840464 -38.2835001159415 -11.951593551796
182.067917221947 4.27971388227532 24.7518387594793
96.9791195604293 10.1628741678779 -4.18157216801332
148.644251468148 12.3349902330068 19.6939445226924
-196.870328674857 -38.2161991026665 -0.367949266931
197.941737773362 -30.8948384604913 9.63422486000773
179.150887497001 -19.2497364413427 -23.5708918241422
202.859770723865 -23.0384234771667 18.5042267461256
-48.1828639139182 16.2221645879084 16.8985186544007
-168.844353432214 18.5879301361351 7.36788905460242
-229.380168660095 -36.3040328314408 16.9282277689223
203.728063000299 -24.2919195420094 16.894270308859
-41.1646285395395 7.08821421451521 21.0393023861814
211.752951186459 30.2800694281849 -5.71720608191853
-225.943971820303 -7.89755486794505 4.25810216270936
207.004674137283 -27.6852803738851 11.7940729620097
-195.743741170397 19.0103540945892 -13.0599938917396
175.166051876138 16.0964263540492 -18.9735606652768
216.332437440918 -23.8420781320288 -28.8612526627225
181.664624137972 22.6555567100958 24.5510171055944
193.677037227973 18.4133496339865 -30.5142557091866
-203.884695186862 -3.82385500162945 -5.77141323757246
216.196607927515 -32.8545635865448 -7.71823268797705
195.042162098451 -35.6461333310953 3.00003996639425
186.155718493491 -32.0146606896576 -35.9744979645516
-154.087081396339 -6.84060229627639 -1.11461320206611
198.208157291492 18.4475519577736 29.8166072294478
108.330773558018 -18.118463272066 7.61036326141716
-225.695836103862 -33.3540788650875 -14.8437167988662
-45.0903884206748 13.8852441538149 0.455812344558278
20.6118089824797 -1.36091857332435 -2.92303692765033
64.5669661200188 7.60098951067163 -2.45728992972045
-211.396116345566 11.3427172886681 -22.0142471098362
151.816632295507 10.4140749376961 21.2603998724281
221.144881459341 -27.0940943776569 -12.3278475950646
47.3689728588783 -10.739505684996 16.123950693409
-222.741398595489 -38.2183231192371 20.9230997452218
-198.629100986225 -24.0259222242035 -6.47015668270936
-201.86635716869 -10.4087057709021 -9.24055971133936
-203.755241898165 -1.69063624557461 12.5488676449144
192.162607052348 -37.3463390602077 -22.0987756361159
-121.073306224866 16.6990370125586 -11.2634930184458
-170.660176160158 29.5568847775087 -17.2382056438438
177.519207713539 23.526210432777 20.5801084682997
-66.6885347139266 -3.50058304283259 12.733828443743
196.032218456951 -38.8659344201354 -14.6680037653569
-81.1068905132371 17.6672352848934 -3.05797405675346
-61.9280204726909 10.8240408420938 19.2729064111022
207.765104631875 19.7802197651401 -19.3764238698138
165.915634807319 5.66223605658333 -9.2923731631967
-197.344742116867 -6.74039687227954 -9.87738481484717
-72.9306573464413 3.93487554804727 -6.36111028028068
-208.796249089661 -17.0664536567439 -14.0505676202832
-191.205697318828 21.9773194426345 -26.9416302392261
212.58791344815 -24.0530948511268 -34.2753375909003
217.806999167151 -22.8784552130525 -25.8431229528757
-134.715556061663 17.4968149884268 -13.1617508549263
-159.119427278727 22.4509790458235 5.44211846010064
200.995816590391 -36.5786715553043 -2.55558597446357
-174.552450183421 23.251324966777 -23.64819168213
191.156824742124 -40.1871505829311 -14.7412992406743
71.7442433123394 4.8194753613059 -5.02115993094073
-164.232451403362 -16.0136490881228 -17.2782494563119
190.009466735671 -32.991189680853 -34.7452978776495
-199.430273260639 -31.1108354779157 -3.23478436461448
-138.280775699373 3.37046215696031 -14.3382843335961
193.914635917645 0.283836469768281 21.3401593972588
164.91891248811 -7.7347858419603 -10.4851767402353
-182.636795662535 12.6461667618036 -28.6619794557194
-184.571485109908 -0.25675643177702 -14.8808664608623
89.0369685513859 9.03686043391895 -3.95371324582165
-232.946927482693 -31.9096483240943 15.5025369470658
154.759161294446 -22.4061673274761 9.29765569276489
-37.1867688988218 -0.665953517167824 19.7517406161868
170.556718000391 10.9687097747143 -11.8783524992269
151.525277589349 13.88581447723 18.551090237529
-217.133655112201 -13.885475828971 -9.92282173728128
186.457884328363 5.71339156923196 26.9829986057498
96.57461578995 3.76515538054172 -5.39672347169952
179.792306297016 15.4689868372609 30.6807620711452
199.832737997515 29.4755281173961 10.3131374089311
-158.05779052123 -2.31404840843581 -20.4629775190659
156.45897447632 20.3281948458881 9.09953753604652
181.8598160151 -27.6240880857903 -33.1421732776088
167.932202342249 14.6804259053492 -12.4234039163764
209.434163128456 -31.5220076926269 -35.1993096670498
52.0425505244442 14.8296166528858 8.86608209871562
-102.150355764399 19.046938870958 -7.49317337060391
24.9274661235037 -5.72648818547983 2.36340470674984
119.150477298005 16.2886983127621 0.928286057655577
168.852006484476 -29.2730533102344 1.62373093969075
-166.947370065536 24.8676442634626 -20.7185982913113
159.176971338876 -3.17323262934845 20.6661996771007
-227.289504468551 -11.4863149348142 14.2253232161275
162.594332441553 22.660247729313 -8.86674694460901
99.0473167345248 -16.1718176738512 13.4103827128441
144.580796904279 4.18625306855917 22.2772695794649
-176.629747861575 34.6775480046993 2.63870802306106
-148.895578647097 -6.64668446635089 -5.68228790657122
-42.9301696097401 -1.66192172010392 18.4607749703735
190.760974126271 27.4209773280005 18.3007957020742
104.029496644342 14.9202930763787 11.7444910399377
183.014810998967 -30.7148232250279 -34.3541793426055
-9.9782703390638 17.3229453205358 11.8592733530224
-225.519191406211 -45.1947056641561 -3.90593495019448
100.313731718294 15.2724364400571 9.92321251129352
166.597965831517 -17.6752785345826 16.4449467844178
-91.5955517197564 13.6555859936974 16.123801086462
191.981120526201 14.3427104128228 -28.3143018824411
-173.592521503726 -6.48308618421827 11.6844611430343
80.1963112730366 -14.7959490317777 12.7042784243577
144.632153803599 -8.81575896820642 -5.41188851969787
-233.06293801028 -13.4729001489112 4.85542348869292
-130.394572914297 10.3224525426953 -14.1996155923319
93.7263003380009 -5.43804928612392 20.9655936837335
-200.407955507698 -43.0824365651857 3.13558087525917
-98.632057721057 -0.27049478459445 -5.5276003693721
193.104154172971 20.1082497481925 -30.960837697693
-16.0021017979043 -6.21760349756554 5.71125669430075
11.237366316128 7.32442413405827 21.9107428543683
173.10410823031 20.9975739963707 -18.7755534720186
201.810700503093 26.7921864403626 17.0006186774374
50.9352599172231 14.683161491654 13.6101517280251
188.762251883815 -29.5752229653867 12.6645793414384
-120.594843492153 22.1019273600791 0.705845513374105
-202.54654881372 -21.0107669834106 -12.4717135922585
100.464683292359 0.840862626687848 -4.64387188362481
-211.627366344338 20.4501126597391 -18.0993874067814
188.844318779642 21.3902691423443 -30.9983793734328
207.266866567898 -34.1062637750448 -28.0158587792163
-153.292320784789 23.8673863174636 3.91276090383111
178.928409914686 -19.2604001492701 -20.8648893349061
192.574683025702 -26.337234115229 16.3920584374841
13.6470912720378 16.1642700344 11.8649037297977
147.60121981688 -8.33039256002454 19.2076842048897
-203.648368541106 13.8415206519287 -11.0499916094803
19.9227834207971 1.91264829088285 -4.5222039180775
-164.501723081159 26.9668992022058 3.26840047961558
78.2152013561317 5.71891768771149 21.678831093347
193.081918851455 35.781519456014 -1.78400053395231
64.6710836936947 3.80627149491657 22.2241200390768
32.0485158730013 -10.4558526380796 11.9660309904469
170.396885089838 28.4437736783339 -8.63535383309802
-160.033643401929 3.83875161862402 9.46635366931296
-237.358204147929 -29.7438613140183 5.78504272020583
-173.335443472579 -11.5521719488496 2.6154537935795
-197.428892633011 13.4275194175701 -19.5844025384597
-177.86198741602 17.3739813975187 8.21482317111725
-207.080184469409 19.4443208403158 5.85337478556413
29.1883132302455 -1.04866041838204 -3.28442666711869
211.395446455777 -7.60962553286676 1.54382563590554
206.688859014055 -11.0450121085637 -10.9788123927291
-172.258304225595 33.0326487486808 -2.80016382276879
201.045489613059 25.9558990783047 19.8146180236344
13.9883057735574 13.6577692984945 5.43678375840563
128.138001330679 -8.92268730141585 19.2468357336867
181.074720207854 25.2380966652725 19.6513974925746
212.075569214752 25.9518909086156 -8.98001364028814
195.111517228256 23.7861755295935 -31.1611526499394
-173.874087961432 32.3379119841763 2.68942509305679
-220.713035172351 -13.7834083147118 -10.9853988840216
36.9963133709563 -8.35638785419245 18.2339596490549
60.9809548844914 -3.26292970700692 21.4869230633912
-202.241367086937 33.2873775895153 -0.83186245969106
-188.356239620731 4.14457773964532 12.205938571801
179.796585042887 22.7534867688152 23.6899857911743
164.021022788657 21.558636403517 -10.691799957352
167.890216548383 25.2027484212402 2.80385348089142
-181.221327910828 4.88011130121831 -22.4691608488107
-198.524105114913 7.84352623752575 13.6404073497194
189.881270225198 -35.9706634046025 -24.9457873499706
104.015789904648 1.71131879223757 -4.94055230253447
179.163547558562 -18.8736970915742 18.7862420782794
25.2618389932263 -7.28660680617662 4.91107619669481
-199.451093831363 33.8265415769927 -11.3052137383132
208.898366422803 -11.1979165060835 -25.0307400036208
144.112867073222 3.69043716636957 -6.40446575764731
-201.649292048605 -39.8328133353632 14.8956188869652
191.337385852547 13.1520275456702 32.2414885280703
221.117148864894 -22.1765655582176 -12.3354265547522
153.272903905629 21.0340747811971 -0.980959132144331
175.577377527662 32.4826031278465 -11.3892644669194
116.909823210344 -12.6490203803113 17.5430963549899
-183.644130701966 2.6309819136633 11.0098114985952
162.223876577944 21.6605997107897 10.452126320856
176.518744024307 27.5034100710588 -23.2798777580173
197.359664739879 -39.0537653947077 -7.35559614205766
184.170290710197 24.159432047543 23.2363516832701
-210.805426423273 -12.0606123657538 17.679642810858
-218.377124544452 -43.3445631993109 18.2951149925435
-181.142802170728 -16.0732180524755 -2.0322396005201
188.032555230804 13.5468967519961 -26.7438330726303
195.122186821341 22.9149851460497 27.6604020162807
217.659691277921 -25.6149003631273 -26.6719418776662
171.832334575997 30.3994766698857 -7.14996318890533
152.170099196739 4.25951668389626 22.3529154199916
-172.632872119491 14.5173356310539 8.02302973362638
181.894802670802 -20.3746010136144 -33.6786403100482
175.100808601662 16.3230331668382 28.1865801989851
-208.227970690567 -45.7889054951313 -5.75823094884391
62.3266246557644 -0.966597679321977 -3.758273243905
-203.560270658482 -44.403230177485 -3.3424760223671
105.037974927024 -17.7797046787585 9.95649278379487
210.451658931217 -8.68393580304364 9.16618116972488
-135.100735011821 0.717399726269153 -12.6129191358499
-234.00025562517 -37.5159914088301 1.90774150820773
-190.759163354468 4.71743818361936 -13.0977945909133
-205.385291159717 -29.6892061718803 20.1446287674093
-220.94066300309 -9.75314849475317 -3.43872238086746
201.113780985515 30.5936229223003 6.58346192055273
178.228789870064 28.5416114647235 11.6071076156219
187.694991736644 -27.3477741345941 15.332060833036
174.232485329925 -18.2206096561812 -15.8565042675414
-188.103601100507 35.8651998573402 -14.2889040401805
-184.917356553846 -8.3286695382559 -10.7843614289265
211.440481967782 18.8094272599622 -4.44920641266974
-134.330996393484 23.4416523983435 -1.13210665140991
206.923371478992 -13.0542202497239 19.3244680787041
190.285295341505 34.1814820045975 -21.207092523685
-171.80506650941 16.7653144359516 -25.1652279858374
-50.1107152678483 12.6759694369135 -1.57611512725357
-200.60493075206 -24.3566352766929 -10.3456169907155
-177.693017130732 -7.77957299088751 11.0326254186327
190.982102351506 35.3022276783484 -14.2686447475931
-75.1195115626337 -0.84293524464733 15.2484813806709
-5.0076219225741 8.53632639345646 21.6302695076316
54.7323373333863 -10.1801947928327 6.13399110429114
180.143214628904 -4.12904523580087 20.0018424636513
138.023366240599 -14.3438411994558 16.716654415753
-166.725794659793 24.5412741593505 5.11139668360684
44.1298645854168 4.73094051909607 22.1245526668494
-47.3661071432443 8.58966809019987 -4.78798732740912
-166.196680044076 29.8951866146099 -1.31530715374281
185.421396800073 -30.7781516438561 -36.9183613791085
197.323252410616 -9.9675734942191 -33.3234978113366
43.3837995220661 -11.3382979735364 13.7301613925576
184.076970079758 21.2809582163604 27.0405158039914
-173.95207818854 -9.1284884423409 -13.4245164190662
-47.538479636019 13.437766191907 -0.410182345618228
217.013926199187 -30.5204088344302 -24.9841079971797
171.738822674545 22.8952512279071 17.5744972062221
-152.419828139097 25.8719891417166 -0.655116590395745
69.1018830099384 1.6502279834405 22.374995790242
133.887124925337 14.7727433767037 14.4308465921522
154.567867621929 -12.5786140263918 17.700431181741
151.793628690481 0.623450039559379 21.9538079081465
161.465260981732 -5.77368571254369 -8.89734502737445
-88.1625964854081 -2.04631323702558 -3.31877816608382
186.004218916422 -31.1848079429887 9.77056037562135
-90.2968949963468 5.34032966896156 -8.07729508885664
52.1519948430517 3.81687800506345 22.2592959551761
199.520241210737 -14.6361948093323 -38.7623421993188
-211.31727191212 -5.94138544892644 -0.761873899269963
-194.455269750495 35.3654567507039 -13.0188027607059
-190.428224945102 9.61480359766645 -24.3489585009696
57.8372732718365 5.56798980912983 21.8924842509045
-150.268988803817 -8.56530069051332 -10.6472986894478
189.148553760964 0.17482744890239 23.03479649862
111.595531106906 4.84572483252312 22.0946598462205
-228.031424023143 -42.0252344570167 -6.59859040874707
164.842700177048 23.9066628343743 3.15540733382973
163.138786629339 24.0636994482101 -1.73577653268527
207.15596987878 25.910674387479 -22.3444302747034
173.502673509857 30.3721444011127 -10.9072690515479
-175.003709447944 19.3521213646492 -25.9103112383799
-187.157258982025 29.4315265819399 -21.8614022164434
-198.956003877632 15.5488117794418 13.5575654419727
-170.810034666785 -5.1227193655601 11.9229979671911
-78.1135483354984 19.8683014558129 6.85637682246475
205.146900915287 -11.5055242198885 19.1587633164724
-209.956763019399 -20.0670483760249 -15.9937552458696
111.963044198033 9.64254230579041 -6.28105778113401
31.1148068265904 15.3130675874517 10.2996467060307
190.316252131485 31.8782833807986 7.92444426040571
-150.563207550414 -5.71108495251431 2.89773258947996
-207.169097814799 -31.2079229602508 -16.2733339702674
210.18597797008 15.4646655788331 -0.536215178859943
-204.300942567732 -22.5606509150985 -14.6726606771093
131.978812209252 17.046010730289 -1.29429066835386
141.9474335151 -6.05969793809752 20.2954136053816
-140.90471769605 17.7869399633474 -14.8779729317012
-214.274018564673 15.1614956760294 -13.0819484510739
117.319258032639 2.43065977732322 22.5153739448944
183.042806086117 11.7878094285249 -23.376643702928
194.943735462487 -33.1944659411518 -36.0289719585889
-215.026352736831 -43.378465547517 -11.7017941310897
44.6339294371387 -6.72469075005088 19.836865240314
-209.055933121868 -5.91632883337292 -2.72460215843776
-34.9210841946865 14.7730756903749 18.1613433843055
174.958586018998 10.4497328726225 -13.6381669575697
-176.288838779334 -6.56729022472027 -14.6261423157854
-162.149078321922 -8.16697075244119 -1.52093584353922
-188.97650306289 34.5166880862684 -16.2381236129313
-230.789177760684 -41.5910990908989 -0.349034236171739
-207.069716710265 15.7661109020128 -7.48439837568104
-170.902189288101 -9.05163165252078 7.243832983507
-127.278282250364 21.9194625343889 -9.07176420449011
196.391485138462 -38.8081424425378 -6.47079576397025
-203.875133712694 23.7997438434075 -24.1900683354876
169.725103722219 14.8728974739213 25.7404941892269
200.185145786059 -31.4550879202742 8.13799306230335
-180.883498850623 -10.9812929910714 7.64920743520182
-170.717824557636 6.85643635591657 8.82292961304595
30.7603978302619 12.4714274176074 3.92914437300855
198.708795118871 2.92978578215268 -6.03574778442918
188.125951185914 -10.2199145138214 21.0652667277681
-203.534119657059 18.5715899607139 -26.1039252555998
193.709192988864 26.9549416609066 -31.1822173893686
-167.696359760513 19.9692922888851 6.8522110166312
119.565189624542 4.15207650847995 22.2484034757864
-164.296733984575 -7.95094879708182 0.775651701345301
-78.3406553234724 -3.80986527919049 10.475654299661
-205.328600311018 -41.1235927449182 -10.183284497499
206.595577433855 -11.8693855477227 -12.9679947073619
-184.345707100334 38.1809434778811 -9.43679697233239
55.9847461150469 9.48683591947137 -0.110337688914352
-91.2795551410835 14.4637383939678 -8.32814921216285
172.236802807783 16.7581789445889 26.0423882084066
210.616586519811 33.8384061701406 -10.3464051613772
165.643180624724 23.2488954129277 8.76142196406371
-194.646666152431 -21.1937697637225 -4.49547059576958
-198.129459617899 -18.0653730919973 -8.92392720275324
-175.323868042652 -9.38470636504698 8.18364538193132
194.076267510421 20.9085186702706 30.3775134087406
98.9548081010736 7.89436039210534 20.7067607588583
-235.442882693397 -22.2234439004884 11.7147202273289
199.407185666708 -36.9845616136974 -17.2315698804178
-226.555977922801 -30.0280098891942 22.5276422021987
176.603667209449 -24.932534544808 -19.3595541406298
176.799546871028 32.5711045612561 -1.77050633703192
-12.2510900719142 -0.266223586882436 -3.40968436841507
204.876907947175 37.7271978191984 -18.9292326814739
182.382910324872 -34.4254228817155 2.9521775842635
197.018515815357 16.7325578309623 30.5915490094898
-213.590715208596 -12.145319956195 -6.44720585638246
-156.101015450031 23.1217677593096 -16.9159413599736
-202.26683398353 4.13272483864809 12.4490468860863
-204.652186211567 27.2939066033297 -20.5499577033592
208.528780513747 35.5959355290647 -10.9844705053575
-209.30138785623 17.9635325533957 -5.08955959923595
-208.340685280942 -22.7204614834097 23.7507295332447
207.640718401361 17.1255692311892 -16.9699981777952
-155.000286550675 -2.62629415776339 -19.2348779486315
174.459278335281 -2.45463042429254 20.6539882277535
113.675789099134 -15.0851895649749 2.11747625324391
195.879400640927 20.0613202004766 30.3602385245944
145.158084149014 16.6736639854672 13.301353724017
211.901620289485 22.9541205485544 -4.43307704787493
149.310723077722 17.3776394026377 13.1990217281145
209.653961641255 -12.120298546167 -29.65270977374
-216.679592916317 -18.001912611023 -15.1349780455894
171.437839457316 -9.54161491683812 19.5730221400292
-106.298587740567 19.99695793278 -7.30250714076633
140.395387107677 11.242447290228 19.5354803311407
174.128953496628 7.78120693341863 26.2820157855022
68.5594924142208 -10.5394747231817 4.68749967461979
177.580687086085 -30.8484316353969 -18.3284541046693
186.36935432389 -29.7381555397525 11.928426952071
142.703308909395 -20.6602449776484 9.89522256130762
-39.4251912316745 18.2333514670855 8.23583059845335
-204.505893078808 9.48560980557082 8.03358103453229
172.150018475256 27.6228590870829 2.08635732002325
204.705046809302 -11.5366853721044 -13.2766427489442
-207.087650413508 -12.1280914451423 16.642495827101
-229.827498729715 -10.4142043424093 7.38723679697841
-173.146862050673 -6.47891049996876 -16.9946434287972
-200.237448199253 27.7767520187982 -22.1791639728147
-199.10276127796 -41.5606410788725 2.44128092553731
-113.970035939618 14.9763270474621 -11.1423934671895
-95.3169213958623 -4.23874916633722 -0.183875943749163
211.169568464122 25.21891543831 -13.6719799580033
-179.01077813788 26.0156506203709 6.34515395820866
-197.29678699993 -19.9410361632238 12.6470696064943
-227.372039275871 -15.5189328862894 18.2875257981021
-136.270969950071 7.92175191937767 11.5482671649113
-196.082574197201 -21.0228044587792 -5.99056822958748
90.7810813700401 -13.2146701141248 4.20466248630481
47.0140992072092 13.3784255590154 16.4348283863384
-184.090691941072 26.1231015023605 -24.4900133553696
159.045738112899 -23.705928817105 8.36245098106225
146.832530264765 -15.7195989562353 16.0520546616598
-21.0013391651257 11.0213144033834 0.445530990189223
-139.106953898035 24.2069897151423 -6.42350314931835
-169.452557410716 -8.80549953685728 5.44231809250349
-164.987914638347 -16.3947379494907 -15.2502032729778
180.197201145128 29.4139948022851 -25.9722050437306
-108.451770441587 0.425973768802208 -7.01470252522346
196.141452099614 -11.5666864585979 -27.3114133827332
143.449363894483 -13.1621512941129 -4.57039927397969
187.124859218531 -34.5180231231794 -27.2657808480109
182.967047402396 14.5008424696692 32.5350105124409
-27.6890220703586 -5.49947815357972 15.8713323207778
158.684801622489 20.4062741148891 10.7067467706935
204.924257597294 28.8708899232504 8.07924864643691
176.211720829228 -24.0235060071056 14.5065607199482
-94.4369996215415 -5.02298971881024 3.85420789795577
194.076019029274 -11.5760781728437 -26.1087992460685
168.45790266675 19.093952702438 -13.3578843575363
-75.398942410895 -3.98350085928407 10.5371137155984
181.496270438298 32.6003015804662 4.0026783143949
-229.609636250121 -17.6594026710733 17.7245548922606
-237.560979603467 -25.1546198837694 3.62330839640422
-148.947638826583 15.3393675470722 8.29772135685835
-157.849540496046 23.9129915744775 -16.8921448889945
-146.882693428997 19.7985636922873 6.6149430545186
211.285087242412 -33.452522830047 -26.7316888408294
-214.033996096082 -3.47850444674593 8.65530802796565
138.365744379589 -18.1322811173542 13.444387553672
-199.724832824044 -41.3582265669494 -1.82911960700363
-176.959757580394 13.3622444764691 8.77827995674982
175.600869094991 -23.0573032722131 -18.3228343884917
176.088787042193 3.43367013478304 23.3124902631283
-195.825768108047 -17.0340646677854 -8.24601259877519
-189.314192028469 23.6734238391554 8.8781427510809
-218.375271121233 -16.6475331114092 22.5010628864771
-93.0702756402858 20.2676079085665 -0.134129801879587
-78.6619288562249 16.8922059312298 14.9055231860054
-93.0715520831036 18.7887124584759 11.4041866826499
-25.0695423902822 18.0085929740132 10.6248160677946
-154.157003907694 12.76468142091 8.5010304382594
-207.077262969696 17.3207263887089 -1.26122130574794
109.690707296155 -11.1327380747869 0.27068346925566
45.4257345338828 -11.207622578429 10.4976800229241
194.465021112886 -37.9027746371561 -2.31220773208643
98.5554591711299 15.1158969577745 2.59354984157197
208.901532668675 14.5869196779264 11.1689148294267
183.597853770334 -30.8753611763141 -30.6558753865018
-213.973755239805 14.3949164299513 -19.2027779391593
187.707162466393 -11.6976741617236 -25.6444388372533
-117.167136276054 16.0893969003622 -10.9424748987361
-81.4435084402174 5.03428949236787 -7.1009693950652
-110.304443286791 9.27601189874739 -11.0931010193172
-193.381110493722 28.1277162091354 5.99598398167104
-229.432704939906 -37.9467002649635 14.9543215557878
-123.62873489992 18.6603599411545 8.92845721848272
-201.760097771839 -21.2386597525589 16.5376523023312
171.896009880405 -21.8452501456817 -15.866964531203
154.071130943571 -19.1392314266176 -6.40143766085278
-231.484490816096 -13.9184051089471 -4.54731767694143
-204.321492237345 31.4853336320319 -11.2889454611542
193.906247329835 35.2649527966115 0.0712616138874505
170.138904603025 22.6093317653655 16.1642940408747
177.708334460349 -28.9351828289576 9.78614386044621
-205.55835290573 13.5671754422231 -23.9589064559767
-71.6836290650009 8.96412436099587 -7.72195818488203
-184.203028974339 32.6810453601714 4.29594007561603
-220.338945251278 -35.1222902286274 -16.3343479086523
217.457110015505 -32.0305340387559 -14.1806735896271
172.847933136929 25.2488943080892 13.4799644711318
176.192050882027 8.09709733513125 -13.3795367720343
114.858323747086 2.45503298088553 22.5274815110408
-169.845152450378 28.2954488039294 -18.3942633937719
-145.851365141636 17.6509875908061 7.73653249208382
-61.1868853951587 8.4549138200187 -6.61776189546266
-209.9337512732 28.0399818201444 -5.36178558918227
99.1259637656325 -10.6393830947987 18.5788005746964
13.932464165453 1.6954538750531 -4.35533065877736
193.344323835566 23.1738875592148 27.0252576787177
-104.71602776217 8.86285264037362 -10.461888365117
-20.1049838990239 -0.731065901413275 -3.35102070691254
-210.260648078849 20.5089959146276 -20.145720594751
-204.179152729718 5.89566513013736 10.0901718515211
-206.052181332365 22.1050765474335 -23.7529932298375
189.259358789246 -1.82927193048868 -15.266928731213
-195.264730462819 1.87030999865479 12.0753095426374
-171.515175196246 -1.09959804782128 -22.1625366302206
-234.617683528747 -36.6479312969476 0.356515918182432
-127.097999992686 19.8899266955495 7.17987880966312
-224.825150212242 -7.55687059536287 7.57747440419623
207.946664221608 -14.2277846856925 -34.8705746233347
-116.381814113352 -3.47756673472031 -4.26538231405401
204.46049649177 16.2063565370617 22.9797220976975
145.832488218693 0.257120557780952 22.0524626366608
151.44859414893 -20.0258890257598 -5.04187718351309
173.926114877436 18.2676252847813 -18.9662940732654
-195.778922114582 17.2548275461695 -10.8519073380368
211.966642377311 -8.6144569951887 4.77379115454402
96.1710207200732 14.5136213483617 12.7951615412946
-190.324069003941 12.348617871827 12.6282675645849
-169.131863230359 -10.3293610724684 -0.667704054047189
-222.72023321345 -27.0784194845306 24.4217568614855
141.882442480835 -18.3455324947847 -1.73394314009322
-200.911989173939 -7.99616254191204 13.0143927825059
-218.379162477515 -6.28151962975095 5.08299529515233
131.617946650469 3.72492861631729 22.259235489102
32.4037303602472 -0.431143445245105 -3.67998904766314
169.263767115925 25.0588707177477 6.92790028632063
191.291288741854 -7.40999127107102 21.5535174346422
-206.857521269864 27.5988826500759 2.94305099652892
-184.96605901703 17.0027462534788 9.49925442480277
-37.7636641599404 8.60538773086618 -3.6657538657026
162.714503742749 8.01295428401202 23.9350303569858
-202.204064120616 -7.56625999196766 -8.3636863071083
-197.984066843128 -40.1147704289394 2.1449830458338
-155.093682074194 -13.0716830343129 -18.2400805071452
-174.522062445217 14.0393884304407 -27.1215664033779
-108.577283866093 4.47642443905375 -9.24613680130808
-206.071994901567 16.3896876724862 -2.68227884734529
171.063131426131 26.2516554578031 5.29145788003025
-88.7380519523083 8.57074904503651 -9.04663839301941
-189.155983652795 1.69405502846335 -12.895012748668
-133.500626669866 -0.819663989378447 -11.018068789355
-74.8604433718252 16.7228744688884 -2.5468817235955
126.76783885848 -15.3994408109842 15.7657970111337
-186.877539083822 22.2159056175163 8.58432020622145
70.5793282706531 8.97943667969658 -1.83225606582119
-25.7618691989513 15.151295559237 4.69915492593021
143.450461965732 -9.57489729199089 18.772056023661
-174.854470416016 32.8423783969967 -15.8808236426046
186.45009441513 -11.5913005808108 20.5461364736562
-48.1154713048906 16.2362505823375 3.38116592760457
177.549842087499 -16.0335658104082 -17.4632538653113
-189.535645838398 -18.8345025406623 -3.43868804003702
-218.769643697952 -6.01274263802989 10.2778333542277
-68.7064999171146 1.22753714680724 18.1017522516165
50.937663223399 -4.88465632635186 -0.200342247188864
162.05302958892 -20.8425817006976 12.7783255174138
218.725221953251 -21.5811222376475 -23.1782719909259
-196.235858807963 -16.3277110450083 12.0570444933991
169.690687883453 -14.9193147407299 -13.8306919427828
-232.81408815439 -39.1166132251545 2.26762114159541
-57.952607448088 19.2806384787615 8.53349743717834
73.6047255338226 13.5576229455771 15.2080761433265
196.626560541295 -37.5790770286089 -16.6200939509139
-195.960350535251 35.1446324556214 -11.9707128402157
196.780504023928 -17.2201549476046 23.6283255291298
-177.209701239904 37.1717186014953 -9.00189034781238
152.536279645822 -17.0423561368947 -6.19627162408797
-169.699403871992 -9.60948732393419 2.33965425932648
201.023519253563 29.6828490729832 9.00423773189598
74.7092275108713 -13.1488070095152 15.5602006819104
-129.308239469943 15.1369227638158 -12.8628967077647
-203.969946935297 -14.2325179401664 15.7562423097701
53.4813962613583 -6.41727973084758 20.1553892777329
77.8201307729077 -11.5251268047012 4.47675732496675
203.972153095509 -5.70246579828114 -4.02494882572161
-201.976980497669 11.8623583963133 -21.8611930993308
171.236020919772 1.74682577421911 22.0222666654187
88.1650750126675 -15.473324507733 12.9277697912502
110.982743707889 -17.7587271230574 11.7622394600072
197.729115559146 -4.12793318355386 -7.87975569446599
184.922497329628 32.8747435452764 -24.7516596023451
-209.657026609163 -48.2308585096366 1.7045766615113
191.63298123844 34.5287904164375 -19.1419322364163
-114.486094682852 -4.32304835179413 -2.17693506557399
-141.47668827678 18.3099620803627 7.6547020148881
-178.742086699156 2.59128386393249 -20.9615656515309
-204.865956948532 16.6553675093014 -25.6255202558441
80.0248560978147 12.3776667064481 16.9883008965243
216.658059743427 -12.4354178479455 -7.50664357627921
152.34525100927 15.2041326814417 17.1900911187041
2.03274955241602 10.9041020887945 20.5948857528369
176.532628034329 14.1382039259407 30.0271877935592
-186.662387718733 35.1137053871946 -15.7757510839247
-198.937796649021 -40.2833791791374 8.81389064743412
164.912450973869 -23.8242400267631 10.2547605234264
101.895672321287 -10.4676686222246 18.7033338588028
83.480198507644 -10.9391323759415 3.21585657993185
210.726058221658 -33.7297094332687 -6.94712983273678
-55.8438763556286 7.25802402944126 20.3103951061402
-20.6421486195941 -6.73315498791111 14.6893056470308
-185.537653017872 -14.9664494250729 6.4015007486675
-198.499631275481 -21.8047953327759 13.4008809246482
53.9059777095289 -3.26577251738211 -2.05062697287623
-6.84943693894299 15.9484949061809 16.7327876511101
56.8240700919292 -6.03348039506794 20.400433311877
-31.5706045712002 10.6192137585256 -1.08689801964617
103.045630383606 -17.3032096993295 11.2964445238118
-129.335929988934 20.6048716277273 -10.6663227443451
-172.451840784856 14.2851229031735 -26.1228419185707
-104.446868505678 -3.63672451330135 7.64010279608917
68.3026239470036 -0.476320610456963 22.1485576944827
-235.72416215605 -30.7811067582661 10.970133849531
18.7237536735855 3.83244491181434 -4.69278011364438
-200.678908094854 -34.1394942689879 -11.0450658775258
-81.3187993153196 -3.29169667196751 -1.180125010239
43.3304831824574 -8.03353407250208 18.8903450038509
119.081133780643 16.2276749477069 8.45270583728363
-199.410631656198 13.8384561748708 -19.1954716981865
142.995701083959 10.5209240376692 20.265303523358
-188.951061068629 -11.901440154589 10.2768769630498
175.092008190043 26.0505270064811 14.1773778986031
-208.165635127743 10.3864883778205 -22.021472348568
40.7901920323216 13.5723230879756 16.6092865101401
-170.151378863678 26.6678804080691 -20.5831169663016
-204.853771283418 12.8183696837511 -14.8367671619716
139.86426790264 18.4262887204142 0.486339633800536
220.976087834336 -21.7120391479932 -9.97212133822241
164.571558195288 21.3876208912139 13.8209946180755
189.601213167794 -33.5794057033483 6.52079192191648
149.873031156333 11.043532643763 -7.79170648149575
-200.57551587006 -21.0441384630662 15.0947581180189
-74.911048026164 19.7086197769481 10.0430983194818
176.097904919002 0.431661352785771 20.9242234268792
220.236905311125 -20.0344034033161 -15.7025835017031
-109.073946900149 15.319720929556 -10.3410092326327
-212.238667892519 23.9240828570933 -7.36017065974813
75.4940202798519 5.54305747532241 21.7858856261902
168.961539762624 -23.7349282740385 11.7662416055516
-102.266756663155 13.5944379018203 -10.464469507313
152.628630119389 6.22252104733994 22.3936535563958
206.676903158051 24.1224804792474 -22.9531010295296
151.834360276909 -22.5885605528349 -1.86192997022206
-111.429215944986 6.80641517411312 -10.3248187479349
49.4837644789335 5.09998622983972 22.0297205799044
191.102034128002 -28.6986208879282 13.785916155617
-152.45952338654 -3.21751118406263 6.77436413883963
199.735196405266 -38.0525196626859 -5.86150871900163
-60.6441465781981 4.78044875440751 20.0934934425389
-213.200522733558 -45.4863939432191 -8.5898802050601
-216.067148197394 -11.8864710600237 19.2703036516294
-64.5025367136619 17.121995243904 15.4309463024618
178.672141489668 7.38964084052009 -14.4127061257898
-219.995470324382 -10.5788447439616 -3.37310270382973
206.641333693921 -10.2087224445368 16.8311094381664
201.211652486458 -6.0895279624796 17.4272953075907
-168.589224034528 30.7662450521138 -11.4806235508662
186.226278776987 -13.1005315623064 -33.7476052532263
-171.90530609037 19.7670223249879 7.18548827169018
-197.129187815829 35.0562606721478 -1.38175221457985
187.920878290621 -23.9512210934869 -39.3954999625487
173.887042081654 17.660942531045 26.6292912030357
164.024300274724 20.3304793234129 15.5511312918779
-138.103738653249 -3.12586000562117 -10.8780342276338
-96.0454871572778 0.56601291697573 -6.27486828822101
204.832529242915 -34.8583120949824 -19.1582398817711
49.635446101402 -10.3812994304993 7.36877408594506
-22.8299746798116 0.708784981563028 21.2719384719214
174.066523352104 -23.9095947089252 -17.368919215331
180.876310168005 10.5082801178207 -20.1192616805178
-212.575792417689 -29.6294291195646 -18.1490921447524
-71.831110250418 19.8230858665193 9.365075394272
-22.828060085494 13.3523683078302 19.3620172901763
188.79570962308 -30.4649967563816 -39.2729508992231
-180.953746309113 13.5337557115827 -28.7339034649116
-225.989336074397 -12.5987736530494 -8.42099632744896
210.727250336975 17.8798310739152 3.23319284346214
-169.23512210391 -13.1254057411889 -16.2417196142559
-153.690879229702 -10.4351730147509 -10.2735728919357
139.205907663718 -12.2127930354174 17.7951741054452
-46.1257111092307 4.74983843872353 20.9377066918019
-130.611793744496 -5.20842714253738 -3.64025627719305
-194.881662490992 26.5472414891331 -24.1971145310707
193.549116580902 9.88782460185781 29.8591372198478
212.159628202574 -11.663740603336 -19.279039574009
183.094164509913 -9.11239127233969 20.3264435412703
-206.162135433136 -4.82329590909321 13.4817515998223
-144.799528438471 -5.60780966444931 -11.9524175731535
-33.7541982461105 -6.54200400600326 12.0852813256476
-199.494408993359 -10.6783845720239 13.0322424338196
70.9968436029446 -0.845789274454373 22.121722169606
33.8620014306998 -2.09468359386133 21.6087654037725
134.946505932053 -18.7102982607158 1.10411656708374
-142.114821598178 -5.42762152755191 -8.24783666622061
-211.742634953107 16.3549108746334 -21.3629175653349
-201.117988930796 -24.5150869671361 16.8602590146955
-217.253707317842 -7.53397096280352 2.04024798941203
-207.953639640547 19.3332534047121 -23.5595571795694
201.949817445859 -37.1721673915963 -5.50468333939196
110.403671452175 6.24613934132815 -5.9980960288522
-173.353095172601 -4.48408851213872 12.4066179650881
38.3696824757325 12.4471689729161 18.1720073032586
-207.194817323838 -14.1599798250966 17.9993914755521
189.048514964415 -32.6734674716101 8.02784688104715
-201.137492104722 32.8720451791441 -11.9982551365768
-215.61450215916 -11.3254890188465 -5.84868504760194
-202.082021190196 -6.14496327647598 12.9265880099677
58.7016590810184 2.50911480913818 22.3608426450504
46.2751940134983 -11.5458470931735 13.461560416811
-201.655873352428 13.0131323070539 12.270892323472
-74.8111285873084 18.2941732005339 13.6106404006898
-87.2665656387072 19.919369017691 1.26866213308932
-193.524751928478 9.47183850621835 13.6673550602774
184.901608300753 3.85328444849966 25.2842431054172
-206.646237245773 -19.0967985233469 20.7080475902113
-220.415910584899 -38.8415756639317 -14.3851702384225
-197.571781316324 -9.39763594050775 -9.84548954785155
-6.19971299516062 16.8380256363059 10.4014351914163
-86.2647053721621 17.4073788418573 -4.92866619204403
-108.542423006108 13.3624535809764 14.2653457287608
-110.134755973566 6.47865805768912 15.1742028525046
210.943699662952 27.1908207477933 -14.61460147512
-69.7328783712612 -2.26873086473688 -2.02849361692153
-168.145427298994 -7.18663788823738 -20.4835596861884
192.83840310588 36.0357255981918 -25.3221608980266
193.704921491062 36.5913188115098 -23.5716753563333
-199.072196607535 17.6789559316234 -26.699467011008
70.6729410367776 13.8307838658158 14.7768208191246
176.816269171267 -35.5066939551932 -6.44464639724908
-13.3789405432477 -5.75429537194107 4.47311403237187
193.536630184863 -14.7905617600776 22.8042293801764
-231.99813796349 -31.1147644666615 17.1783613745765
12.1235840834802 -3.84929502676048 0.227156758866238
209.354810492156 -32.1418421516624 1.64891872496204
205.7643228648 29.5390078168227 -23.3400436688136
172.027679049803 30.0977258869687 -4.57980382452947
37.7253961325059 0.297301623163961 22.1420750376313
54.8216321412358 -0.792000679144763 -3.75405038569753
104.434210196682 -0.874386562798245 22.2457503738875
13.5051504379485 5.40032304661945 22.2415244761301
-195.522118301762 20.0573833679013 11.5775975995723
103.016818681858 6.56246931915666 21.3718370283793
-52.4452003338544 12.5864630803086 19.0835910045912
-41.7750517161727 3.08369666455513 21.0114988977936
140.670605948801 -21.3543339401402 6.5345912807972
26.1201162463976 3.6838523422432 -4.75176701589835
164.177471721627 -19.8186241335767 -11.5482278744187
27.9265933205892 9.42456439351674 20.7835504977231
-194.913972362674 -22.9163358637294 8.03558071666409
184.861920192427 33.0896699410448 -21.8797801269183
32.8440722801101 11.9576985758651 18.8917148144273
122.382945292908 16.1224488330796 9.50900758687595
-129.422538959859 23.1925924312442 -6.1031571643648
56.7871135834743 5.07663325726261 -3.86434869845259
188.38985228355 -21.362628172416 19.7526490614154
-201.406091007511 -10.4029279542416 13.5753900192417
-184.514049505867 5.5411916422299 -20.2166123356641
-210.991170265344 -31.455468052861 24.8349111238631
207.680726958079 16.5561707354487 17.0484517711235
-124.438038031004 15.1659323632655 -12.7410483764196
-35.9433071250636 -3.28215188121021 17.5468795080137
-42.3807573662819 18.9179563269062 11.0409676863457
-193.739081029892 18.6514128031721 11.7508667410838
-175.504256958068 -12.1195724667496 -9.49808528925919
175.594119829178 -16.575093210896 -16.2049878987202
188.479326003627 -11.1008133623182 -23.1349743861293
-175.272596418389 4.44545368704619 9.14296318015326
73.7285109254107 -11.0374829283022 17.7865323085172
-40.03055123377 18.8415475462079 10.9034194346508
210.240599640905 -33.40503875964 -12.8842616767035
-198.190652940676 -38.378737723562 -3.9182953634652
-152.337769432587 -11.0414636984722 -11.5535924325744
-198.547664900894 11.7005555776322 14.125028980271
181.779415672205 31.7875874078715 -23.5916510381085
-151.652600669995 0.753172124213448 -18.0114760032695
-9.08731079274471 0.0868786333580668 21.5849291936845
-210.217439855613 -47.6021356348145 10.3450569550908
80.8417952486087 14.1606150845638 3.15291747356993
175.544982535211 -29.7820081090828 -16.6061810444427
-129.312869471314 14.9237087583685 10.7273009191409
-121.761024914693 13.3807447592302 12.4824307112656
171.644425941113 4.09156293628579 -11.0436521305266
-183.16128746288 29.8173451602851 6.32023559728456
140.586509555077 7.37581332526808 21.5610488710423
-197.161287275895 33.0910002745964 -16.832281567436
-74.3381316596938 7.38778851137035 -7.68558411136928
186.164175922379 -0.711987370260241 -15.9977195366423
