-233.097382648302 -42.6641848102469 -0.166185042921486
197.348936117892 2.36885287113441 -18.7412756857916
-139.897630224133 -7.41532982978845 0.665446952917408
-209.150669371864 13.6322283632204 -7.24766107283946
-204.230181555697 31.3235427463331 7.94241577565838
216.912934606367 -39.2448786162838 -38.6720449569569
-217.062663399535 28.7523581001775 -15.1554650802159
37.1422386165259 14.974601606494 9.93182687975046
24.9404222500573 -5.37852773634148 2.48438942966776
-171.393759473745 -10.8723241428741 -19.7814855124717
220.084396609522 40.0793007695273 -8.70337580254314
-215.310117501512 7.50927673722102 -15.8851931182644
-155.251239324901 2.32600775297663 -22.7920319269758
-28.7949511958239 15.9311193432103 16.4986861122283
213.975298926346 10.5586235032186 24.8698621832127
228.563847296112 -32.1255998838741 -32.8103171636553
196.789020143172 -35.0603310651923 6.83040409032429
-238.526593774462 -10.2317791858519 18.9604314555983
-224.545176902933 -24.9572807949414 30.5383962970543
-169.412492860134 -3.98885995969292 -24.6162808986576
224.904969673694 -2.3793463798565 3.10994011726592
-174.388013743941 -14.5120523760633 -5.88475781611311
202.860474824521 43.2023997417503 -14.8459473603789
227.457600972093 16.7968427206019 6.05032685432818
-239.114858343728 -4.7667966837606 -1.93612554140533
226.330080807758 11.7679221203207 -6.11001020694602
-184.082631521426 29.1649869787769 9.66882274071052
-105.315844462114 17.7788543383479 -10.0398509947557
152.633493590807 -8.61653178666898 -5.86052497971625
-210.742022538008 33.0242487229576 -14.4481145471029
-195.502978215759 41.9622981517157 -8.03001282704765
161.127266181186 -19.0278105090468 13.5340399341539
195.651382492343 -24.7412311276592 18.4036613529654
-151.995666616503 -8.91234325920252 -22.0129728987591
-151.52623950419 -4.04725494039532 11.6023217756039
-193.713454277149 -11.8791592363513 -10.9269415702562
-239.452997528556 -29.5364061334649 20.56145851635
-157.841870556735 9.34208983969876 -23.2159567815379
-139.358903697572 17.8180988208675 10.3782169616084
193.519901759587 -4.25067554549756 -18.0898151721219
-107.889851793672 -4.23903077823904 11.2772460324799
218.948487466265 12.2191845965702 -25.0545248270336
-227.494392344445 -41.6330542610373 20.6832833093662
202.568985787184 -32.6769954181463 -38.5728228782434
156.241678425574 13.8681197243234 -9.57410745901405
-80.9786732529079 9.94603389311427 -10.6164497812882
-243.862729276281 -27.040946719446 -5.97256143584578
-157.81185818628 11.4273953422676 12.8917507677258
144.047867121598 19.4813148588696 5.19402428928834
186.195919360417 -1.19229041746467 -14.4005889911884
217.059111263843 -23.2179193883799 20.2577575287482
215.517656137229 3.39508124204384 19.2546680263502
-18.985170713181 1.53091770641154 -5.25007896607238
-200.034254752302 13.2500318868923 -13.2872592623592
-73.9260903592198 16.8038919057084 -3.88100740918673
-146.151435400623 -9.79253094996415 -6.32164117703161
-203.317879355517 -40.9956659888154 -0.964540555975287
-229.148831155474 -11.2195418041701 26.3486104880688
165.82506396772 -4.61468977738901 22.4940378715809
7.26444314097165 -1.67609954463124 -4.17063997959214
-166.072491824097 30.7716712851865 -11.7011545121517
225.439734605169 15.3262244613025 12.0132869411578
28.2289540583807 -3.22987038945959 26.2734451421173
15.2336808064195 6.87035358011108 -1.30317913562823
191.533991174526 28.56409209557 18.4333872631813
-12.7532824225799 -9.67464654462238 20.4241616485171
98.0427446786962 -7.29801992072909 24.0247192467041
191.646300958225 -6.49776474869325 21.0794857837983
212.55744549369 13.0245934262913 -27.4654891042551
226.244517875898 20.5532413920909 13.2744573222651
-150.8480244989 7.01912314347356 -20.8598973689926
229.903331734525 -39.8269519682713 -13.3267249930821
-230.414565573677 -8.70357561914612 24.3660319169378
224.996570991971 -24.2499679826906 15.8453858665466
-211.088158603646 5.27334048153371 -24.4229846937931
-157.249841023569 8.83048845130207 13.3393050630139
125.10969064315 15.4625012823587 18.4821867099228
192.868657572529 -32.6202375704622 -24.8562166044837
-164.9346876841 -12.5424949159088 -23.2041972904599
199.785553423353 28.4716280306515 24.6564239544783
-149.048819536509 10.5007414317759 13.597806761894
229.077388627148 27.3152005993953 -14.3988590774115
-238.968038595709 -37.4241588690572 -5.98243101500393
207.307656750856 8.60839273195245 -19.3692023866262
222.611898893008 -17.5839280461569 -32.8207788615651
139.982484614884 -8.16474901910514 -4.06926745582161
-193.455307242379 19.0087962726171 -29.4997960255019
65.9396179657568 -14.5905559001034 17.7515440207214
144.477085764829 10.7734268187456 24.1701253505097
-205.270419854793 -41.2019050510592 14.3225178925091
-233.432657652993 1.03893989028868 5.85693966230296
185.009450261145 -16.9438821436362 -15.1394114718706
94.093349686439 5.07628606856784 -5.55827640645623
145.223666846351 15.1650478848868 -8.49729827212003
197.198414216353 6.89383432666426 -20.2867769270373
55.0442482730502 5.80827882738209 -2.91610600469154
207.584908569712 -15.488913940524 23.8979404215051
-171.365329615118 -14.9891918353185 -15.096486727747
222.950473978153 -42.909803346837 -7.93081182484749
88.2561520138322 9.06672902964912 -3.29713973688231
-73.1180215973792 -4.98810375789167 17.4852386963376
190.942038754649 -18.1391612312919 -18.6400327233202
-186.067243994168 6.1134163192951 -27.9997280330128
226.426290313791 -36.8365845227211 -34.0863877907475
-12.7096804098361 -10.3431196237766 16.8459989609438
-132.682390419189 8.79608345387396 15.6096565712766
62.6315105731688 -14.5676970062072 17.2000364262571
228.778982955635 -9.11986360579954 0.0600206839063713
235.942139289999 -27.0178400893174 -16.5104030070659
-174.437858254576 -3.56754357767432 -23.2458692618123
187.642557163985 9.55532696784877 -16.3606686401198
209.980997898971 6.0625950580142 -15.2735189990607
216.358997742759 -29.8052396344332 12.9161200392095
-110.252367311231 -0.0931427340044227 16.477238235097
-224.762097580025 -1.95283954470272 -2.61607180772606
-181.542954618621 0.145108374869899 -21.8005219442342
-195.041288469797 20.9814156804257 -28.822467583922
-155.696015706425 21.1283493808253 7.75011728148914
-50.0680797678182 -6.58411707582658 7.70528095438718
-186.53362224892 -2.77799516099541 -15.2090101116367
224.807013103495 -26.2234345483195 14.9704508831525
229.075105183457 -13.9863434497892 9.48849292271223
-10.331716471179 -6.81158804538982 24.4170002019009
-201.440968925285 -40.0870809000382 8.53104603867006
-232.788834607097 -28.5474928009513 27.129957695994
-136.879417323904 4.36946385189653 -16.5016763529454
-173.018323055477 -4.64324610167701 -23.0446129839564
-45.4017710543423 -6.48039258284522 20.949373576293
205.49909331397 -40.7055367922868 3.76831346357615
207.174536075442 21.1716263828251 -35.8209584784237
83.5810480101487 -7.44882716442297 0.850252126758282
218.093966423126 41.9474731525203 -21.7732101744548
-83.0939916184743 -2.76170995778565 18.6530798801494
16.8907716413107 11.9929235408767 3.41404426719299
213.002065975638 8.54748056255412 -17.908224910665
201.794713013824 0.83990716403754 -17.7419766355348
215.588127165038 -9.89562650989128 -13.1009707653721
-204.718045581558 36.6989277102543 -8.03634188551844
231.376610704593 -22.2092973694325 6.60436107956411
214.297316660346 32.3847566456074 19.6659136596139
-175.864348494633 -11.9640902008406 1.84603566271082
173.573573648315 19.7187186251879 -12.7274639281617
200.788148204098 40.247761421024 -1.78217348751844
138.776179997293 6.7071343881888 -8.26549967962641
40.3909053625402 -9.69445255852291 23.7512080578635
-189.130732491369 14.1099093194249 -30.3319704911784
-37.5159964378449 -7.24161797953145 20.9740383045624
-159.016368510129 -10.1309679098663 -25.0928416763208
-188.497869440644 28.0514603302623 -25.2096191885083
198.391326449873 -38.9097673865426 3.97572388236816
-145.302262157494 20.2292806745889 7.59918005551378
-158.290374168727 21.6973297428391 -21.3879085946747
-15.6878958946266 -0.912353025736023 -3.65432554242941
222.680073680013 -6.81760491767238 -8.96143559496343
6.3969721645341 12.2955621666557 3.37246520487196
-228.390099808775 -12.4839773311311 -18.0843186666843
160.03495998607 1.39171948371048 -9.05030596009874
-231.867627055863 -6.8091453418508 22.2734386709974
-41.3431367607029 16.8148610297377 14.6036636825454
-199.197699174102 -24.9403270720214 13.85284560653
-53.084720406295 18.4362443862338 6.82975228417866
146.312792691553 -13.0152040597234 19.5382871861171
49.2721725327978 7.37628819268548 -1.47486431189124
-189.320829385826 34.4513320693261 -19.4979679440226
213.072557644071 -15.9874560616174 -25.6143478637382
-203.212564847215 6.79850435951428 18.1118769798036
-213.419798064026 -32.6666940660124 27.655002429603
-193.069605334465 38.2182401494229 -15.631811350628
25.3655560339795 -1.3834614183495 26.5837265283466
195.862431499548 -4.58063162591868 20.9264936887675
70.6881109379327 12.603088956928 20.5760896522268
-217.352492025655 16.8253534839903 -24.7811063808607
160.544865716105 -17.0057952740967 15.9926056409459
-230.289874805438 -35.7804564512167 -15.3960943310577
207.349148983486 -0.138729791989231 -14.5165867003003
-205.688854275825 -1.13068102826284 -10.1654317845529
-227.793381255599 -7.62211223657647 -13.8211901403306
-120.010311163074 17.8038618359714 10.3544327236339
-166.056576674187 30.970525150585 -6.35438196688821
-62.5173202865996 18.9419867296018 4.96880541982933
74.6125561412651 -14.8690372012687 17.8121940283082
228.63669993222 -40.9175114202126 -16.7411081865224
198.478414375327 -32.2641980327572 10.5199728139344
-220.206860495813 21.9819625124766 -3.61045220711495
-21.4563513527021 -0.365927263208118 -4.1666674324125
-216.063394453738 18.0389856913939 2.77871991571535
214.207536630822 1.7390468230802 -9.55589736819022
9.08847179634208 2.23185241720309 -5.33637419363159
-230.74598211023 -45.2799879836637 -3.19050033855931
-158.420774936046 -19.0134182397949 -10.1265930089894
226.290070063497 27.4221664343192 13.5079058926422
229.595954191636 -39.6748107949378 -25.7404766227137
134.182396895017 -17.2481694289102 14.879437607546
181.081977916589 13.5454838689204 -14.6193926059434
-237.606176892974 -14.9005742923319 -13.6671207428601
-213.749017322797 -43.743078384446 18.1918465987101
-74.9031116275264 0.912797454012507 -6.89817223631275
225.40320755649 7.61219375700281 -1.51155257367452
200.237390953163 -30.7305081527186 12.7392408616758
-149.679404398136 -13.2061040025134 -18.5917252871838
-233.877602067438 -0.75699821241893 12.8792233076016
-138.474293797494 23.2459955707826 2.07298127943748
-233.626942628505 -24.827401321799 27.6062417011265
200.250629838333 -14.3396718988592 -22.8121079345141
219.035525959995 40.9902602316101 -17.8963969634644
203.887120241187 -35.0775058468757 -38.6836958611424
-78.70980299254 -6.20046509306731 13.4583292191572
-146.358439827955 -5.55218302668944 5.68609214414859
217.716993482348 -15.5087249795878 -20.9541850599994
-221.721986257254 -44.6734735801003 18.4110325219899
193.962871572956 24.1653574755147 27.3769929635574
-186.65093311184 26.020935483925 -26.2929301992301
10.1007807467705 -11.2236295354271 20.3708644570198
216.462699263715 13.268766934041 24.4582739108954
-172.709830464572 -11.5490216363393 -18.0062753149201
194.996315292986 -36.590553852359 -25.2250031027508
-125.788184895564 14.6633023579663 -17.451394565992
-109.93440477662 21.1327910109907 4.16406096868826
218.088777673917 35.8223953818753 3.19075617867765
226.630604881183 -30.7802986485527 -34.8346748920906
235.099236522785 -35.6873429812257 -11.9271004509942
140.972977116917 17.109843891332 17.2229847585345
222.84887708962 -27.5227812327562 13.7882785345114
-196.348874905861 -24.1560345460289 7.969978953755
152.172459108123 0.290653854315848 24.5926187880769
-126.902761416754 23.7024403527432 -4.97532615177941
-135.276659363636 -2.23241177778121 10.2210990159128
178.933855593751 23.9930620762708 15.5763941104287
182.855624053249 2.93749992492073 -13.774945755982
202.85971018752 38.0447873715713 -27.8943452981893
-160.07188220076 -5.36109086869916 12.0237775030817
223.430872415285 -13.7756113491321 -18.77737767773
-150.775812420944 16.353423306081 -21.9845542975229
-125.210824969676 -1.7903143072292 -11.847434272677
204.010797618066 -26.871900982789 17.6735820261487
-233.466244975485 -40.5717153792661 4.74848403806246
-134.337534267028 16.6453105401006 -17.6038153438302
50.219099686397 -10.0899268750583 6.97520588389832
208.669179284372 -24.1641786093462 19.4568165570357
122.487043514635 16.1558805800408 16.8794573102115
-107.006278411644 -5.93684888777565 1.60850554306467
199.823604232893 -4.59021842577553 -18.3242757590528
225.693647232777 13.4245675091593 -8.80374826009374
56.5369883638313 13.215370505053 19.6309146134923
77.1175140927784 15.5159877389056 13.9104195975923
85.7098694658513 8.7184217954315 -3.27144254732161
162.541883962336 -6.66499668961562 21.9767243799306
-186.136322987347 38.8767615156162 -13.9114707648694
197.751732541717 -37.2208443260086 -33.485450822332
-133.461690839043 18.3935445402476 -16.5066727151817
223.980835247315 3.16535597686674 -1.51971372007919
195.047946294844 17.5562804565775 31.0981241070428
-218.264138344236 30.4329008423909 -1.17702841337326
-186.404018075323 2.3283319903359 14.9446261880633
-44.6996337179015 -1.55029199095492 -1.72976619740719
146.840132535903 17.9951016202998 -4.60018756168753
223.90482756354 17.9252329922004 17.30655318681
-238.879775311777 -38.2860885363495 1.22501129683643
-156.689681882534 -11.4292955330045 -24.4236510720561
77.2395390136334 9.37254972124106 -2.08927021487365
133.620862107461 18.4343490510252 2.09189401724329
208.610093394683 -42.9117263270795 -29.0744187651078
87.1695835959816 -8.46049654629684 23.8654098085175
-21.1839344861721 14.017291027275 3.05443517918422
-12.7941482003188 -3.56473236527167 25.9518949287041
-241.712985034361 -14.9390847034803 -8.68135756339702
-174.367152758486 35.7889409053153 -4.70737865465642
93.2258472703584 13.9895013520772 0.416980537508998
149.484247237253 15.8442859550685 20.5848443232484
-141.886506269052 -8.8587856369944 -6.60758548690755
7.03435533508623 10.0726043651752 0.998841085462445
86.5078607300421 15.6739434248431 14.0471097256881
51.2229540661521 -1.20634839232221 26.2522978948344
185.283353123079 30.5840796555066 -18.0831754209535
190.962313598342 38.7298291861845 -4.02485692454587
-241.840089505136 -16.9940911430836 -9.3053857474531
126.497624455302 -16.5000503131127 4.41302696901189
57.3317777595144 -2.16641533932543 -4.82720769908949
-236.940137110196 -12.5907983045904 -13.2037328787871
197.379161491977 -9.26617602972803 -19.8502346526257
-165.886151703105 -18.8947033694695 -14.0953758871969
233.365610274941 -19.1669309712142 2.20620551051965
-174.062865200201 -13.4798956339871 -2.44062557061121
196.774230854368 19.2302996541983 -32.9367294657526
155.014146550364 -19.1250509925379 12.6021113664208
-203.56538261715 13.1588280218698 -12.0417690919251
5.23173915985011 -11.2455007699756 14.9288958376204
209.107021924984 -18.5229628383931 -37.3803932367743
198.889298847662 -15.9184105056944 -29.0245622796013
190.504846943447 -27.3192618376834 -20.9822514580152
-221.60147777831 0.081125468409116 -0.107158050782683
187.652221979768 24.4706731384632 23.4091794988904
-107.914518047914 14.4625894255536 15.3324512996821
209.44149525223 -13.0493326429972 -18.646006597985
83.7431476985571 -15.9223006085292 15.3037012908731
206.961220673158 31.1141773996321 22.9050214721714
-74.2105995791027 1.50052068669944 22.804247938305
220.082844347685 -40.7367494731408 -1.34940316443703
183.426753645635 13.4418274535166 -15.5563201391481
-95.9631858761061 -5.89135298505188 9.60276925781872
-219.876605774804 -7.52640774088018 -12.9842969724977
151.354368328657 -14.2890889549431 -3.00262886257044
221.524000669548 -43.2130767643186 -20.7291562804942
185.087422239447 35.8001750307578 -11.6353247888861
182.783630682881 -33.2648143444921 -12.2121226354033
215.921952226873 -39.1014879143558 3.2018654060612
212.39015509242 26.7973788968841 28.9800172220446
-234.775568795308 -33.0790645770792 23.2662670350871
-182.410601520388 -16.2679214050711 -3.02679880395933
219.437435106362 -37.2167040562086 -38.3770058715678
154.980273431724 8.5483179179256 25.0535651519118
-190.281461134521 -5.1297859396223 -12.9522677350906
221.136129768799 1.47090062916679 -6.33109806690506
72.4812584273003 15.7071280941553 9.16192161907595
-241.195272240111 -25.3360194349225 -10.9162616603629
48.1571885974849 -6.2841977982167 2.30485033013221
-186.405593572608 40.053642003178 -12.4604281087947
173.82520380875 15.1175556836593 -12.8083251941863
184.271619888983 11.697388580317 -15.4112612892215
-208.318965043738 -3.60970801774867 -10.1632445693837
-133.393642770844 8.89461157870988 -16.8646164224363
-201.723583064529 12.3589724824024 -10.0196288351248
-199.8304995301 28.6733663906334 -24.7875587036718
204.098738500729 20.9868213935907 -35.7058973393731
-220.83808560009 23.9966714862267 -11.3450446588891
207.873959574136 15.3623853190931 -32.7290802925371
-124.344007737731 16.9808662503435 11.4928349106654
-129.765169875972 -2.02475536045464 10.9621753788534
195.516233939667 41.3685921783407 -15.3311401004571
-238.264551987966 -39.498536739029 7.37383687684903
203.858916624275 -2.86886574999595 -16.8520852298058
202.127902085579 -38.2719601118257 6.30204308564834
-184.943029410116 1.84024852331219 -19.3151062799191
224.113459153154 -21.4790329412759 17.3731058605652
182.450015639646 31.2844044942938 -3.8307514688911
179.166761002351 -13.725592140663 19.8388684993016
-119.63575856026 -6.57225837100784 -2.60819706966228
-39.8631300188941 -8.5480114304213 14.9754666595107
-164.349371149802 -14.9604493875456 -23.5341720624985
187.915692890656 18.4378159775421 -20.7851107163453
144.192567879154 17.0890951599072 -5.03437306572337
229.283109703028 -27.5770740391078 11.2394309907163
-167.627523876444 -2.87814512391448 -24.9181354227028
71.6322117410151 8.33769127611957 -2.25702473243944
158.564482307727 11.9194500661249 24.3592288333559
-5.17147125202753 -1.44542036411854 -3.13514985832461
196.485270224261 -46.6903774703317 -14.9297490783337
14.8335251986441 0.931154580997774 -5.45621439141449
-233.899044204419 -39.4596501788548 17.5595735208242
183.801361049326 -3.07591600840845 -12.9638552919053
-115.911980663643 -2.82467701788409 -9.06012415978589
-207.755102210592 36.6717126154562 -1.45721323759522
122.07990538564 14.3914886360448 19.8377514995042
-219.506402918959 -0.352491361016372 -1.84204751276135
218.390839217406 40.5489741912072 -11.3917828457531
-188.575412206603 15.6648259088505 15.7980639562663
217.59109983244 -13.3691462229697 -15.5215972838524
161.585521429062 9.93057654742983 25.0605185106742
48.1889457230246 -1.77162209196549 -5.68604027999276
125.540839360699 -9.07782914278702 22.2788721013145
193.131931124933 36.8898041595282 -24.180286819731
-144.946470464887 22.1201553497968 5.08460202304292
-9.71157456821398 -4.96648973593362 3.3943531448139
154.272133641219 -6.43325885465547 -6.78885119049377
229.361092355282 -12.0548884447003 7.04509177006079
-151.823220726954 -4.66299114533663 -21.6419457441079
-242.88325835572 -31.8570191270472 12.0985751042537
-235.176914527315 -7.38166685028383 -10.8150487684937
-69.3389568881231 -6.41661407694548 7.41751635666622
184.60343683453 -9.20977122760132 -13.4209694408125
150.726550256564 20.0875594439034 1.75302412637064
-97.3863203400986 -6.02010366639855 4.10613287576863
-217.559145878003 -47.7236857066661 12.0992141236875
-218.266236577857 30.9613299375567 -3.31958275888449
203.901962277597 -14.6123725700332 -22.4823963124735
234.293739342088 -27.3095631007379 -22.7225263341022
234.674328996183 -17.5113938047997 -11.0321691812087
-8.07660718666281 6.96728033304498 25.9128521330413
-174.299528210338 -9.88376159081364 6.32496819403712
2.34466802429929 -10.7458322963642 20.3921350317263
-139.647325846961 0.891017280581177 13.3481263909064
-215.192069479265 -39.7392905582912 -14.3636021906025
218.660005095899 28.3008760700972 -32.9564654124604
-56.2799124433713 1.14566355822112 -6.31221342502856
219.15450411219 -43.7002318622657 -6.6162859687517
-226.581695097316 1.34972519796702 8.56504096165426
91.8353519732131 -3.54040244493317 -3.33944125144328
-150.678386466905 -16.1495853375232 -15.2819349430338
-151.700261542056 -16.3746521300301 -17.2879487174745
-230.127610595656 -42.7021507047687 14.1448334717627
16.9707096784752 -6.53680041972058 4.59601743135112
181.851338896737 7.90825919861251 -13.5490721254578
-206.840000095058 -41.9168197765126 -6.51712023406902
-231.887907379504 -41.3136149910696 7.10219654720588
-202.492419707737 -0.773665230476503 -11.0806606093669
209.175506377076 -37.4249506805065 6.89401129083997
160.401118052477 -4.30606013713374 -8.15790067149458
-74.2021885782634 9.57436658710719 -9.9824178152673
-125.114469779801 6.68262090399385 -14.7263970657812
194.452346139687 4.44666858187924 24.5097646915516
224.057790131874 40.7565476534178 -10.456518253349
201.636758985387 -11.606912333072 -20.4878073396237
-241.432026576785 -12.1348097666451 16.3195870446351
218.585218874427 -12.0642028816431 -13.5888187407242
-119.178584836924 0.859395084181639 -12.032711764636
173.677753184791 -14.6772346138745 19.0099440310286
-182.604544903548 20.3322657237641 11.4700253116061
-198.337861172531 11.1279819936235 -11.476475553546
-195.047329973753 8.80784634379644 -14.3842886932166
204.794248320001 25.1710584846661 31.798524382669
223.210157206012 -14.8823245176511 -25.0793743787611
192.143564493881 -3.4208321463506 20.4861951688428
138.59959994035 13.2586151716542 -7.34402849496433
115.604138560177 12.9174371019871 -3.36968720025458
227.993665799463 -34.7855495646422 -32.9210202690996
-175.656081411176 13.4998905668244 -28.3011114173307
-192.698357160151 2.32052176485518 -14.2911452025934
-192.392075047041 40.1346200805639 -11.435687872178
-218.837874137745 14.3588616992943 -12.8611734042735
-165.918821669731 27.1667323002065 -19.2872647299623
220.786991933547 41.6875651712469 -15.6023392438179
-201.367515394352 21.1945918328295 20.4057353745172
206.733894569044 -5.58558881906826 -15.5414169051471
-245.797811232652 -18.2425988714954 10.0397205198025
201.795681878312 -29.061130668103 14.7681405038182
225.340174250504 -33.5343278032503 -35.5711761414587
201.397488541542 24.7796003850001 32.2198846493045
-205.315246356565 12.400580787228 -7.35006011623425
194.794449666401 -5.73942219044968 -18.6126302863092
219.182744054628 -16.3522726987029 -32.821456397662
-214.341470725119 -7.56631037894815 -13.05444093607
-243.97992823031 -32.7937141268176 -0.275058737301559
228.439008159259 18.4999247255846 -2.06316498817769
191.149968172601 -1.32738996606975 -16.7666485950382
219.359826489544 18.5607619703007 23.9616227348233
24.8425544360378 7.69577082095074 -0.693561832500158
149.38414967327 -7.84990909564879 22.0414529018195
-136.585661444482 3.85592275306508 15.3273042632459
203.256265390266 30.5755942400603 21.660467839234
181.072666332784 27.6838198670745 4.99276776188409
170.161777958859 1.84238188913088 -10.4297270395204
79.2955933831599 0.836335652384952 -5.72120108740667
-202.004471248438 36.3404484196148 -15.1608786619938
-174.332404701901 35.9736019671358 -7.70335735077738
158.761529867121 -0.129066888492891 -8.70524156094693
153.85586495684 -10.788430866886 20.5522502985779
205.899930508804 -3.57248457840495 21.5842193373314
-91.6266912165932 -0.646449002489877 -6.97968039638829
-81.1252158802239 6.07669186471661 22.2676320216677
-207.408638858431 7.66732176502635 -26.6945253605348
-228.822888069328 -35.0510166985089 25.6386662840222
-183.90386522311 1.54976033012421 14.5437308725854
213.817347279319 -13.4161353719925 -17.0203903308231
-179.075381719761 21.234675593668 -27.40746873418
-100.568848810296 20.6308809129458 4.98966733707803
136.166771742457 18.2872581134137 0.595326077694471
-226.327270157035 -39.7283729415686 23.1374386381454
-133.793982745682 10.0388241603119 -18.3252681533289
-196.669460110569 -2.83123339752154 16.9855882443349
145.41707451166 11.5633078988506 -9.18981984514818
177.926620252901 -2.69530150686488 -11.9073581008792
-181.232789832128 29.7038093645914 7.96338166523169
229.768959157026 -11.6039710557553 -7.42464193588354
-152.346546435608 26.7537152370331 -6.14120954691521
188.889894646918 32.316756799953 -24.7425165402176
165.871341297502 -13.7201166447681 18.9969430303321
213.730748784685 -19.9499712046807 24.26136191146
224.902358112941 -42.5699283940819 -13.4816616269984
-213.738442478094 -39.7948759715462 22.6468173318226
-0.0113155188268666 13.2107218674312 4.13389327305051
192.771904444462 6.89256109271532 25.5840263218094
-212.539421503637 19.4623603063169 10.0114989534859
228.009909006591 37.6623213445021 -16.2422687189468
-188.820553764584 1.39964214248254 14.9611071680024
189.164087341025 25.7557629209647 22.7557305862812
-27.083323089759 8.25654142164597 25.0651128177195
-210.7869226207 -0.782586848210532 21.1341851549829
206.90272771333 -16.4659604394475 -34.0326698774265
148.707247070927 -12.6407443585662 19.8091492404359
80.8561023494738 11.8989069381239 21.5817561418386
176.750475666685 22.1474748235343 18.3621059967255
-5.36666642179466 16.1500566741671 12.4090264416652
216.064542065507 -5.7927653901625 17.9352032987107
-181.843943598663 -13.8678422244812 4.51563971882485
-193.394677662492 30.179199112354 -23.7793597808011
-128.111372797711 19.7517367538289 7.26926607154335
-101.240759448217 10.2244837792542 -13.4105920195287
226.871582361361 32.3950405518964 -22.9556076503186
-220.731271364551 -4.47765306288984 -7.81497144632194
-188.179489524575 -18.4946456013052 -3.51647755316339
196.766926114973 39.6677273088465 -2.02585166537868
-54.4041078361236 18.3395975143381 10.2337254075368
-0.369015784520457 -6.71840014111924 5.8445243261781
26.1088867025843 -11.2807510650578 22.0839677419784
170.118123913743 14.3563038001841 24.7484031451965
200.234313844093 -18.3632179468706 -34.2598764230132
-23.8716941261243 -9.59354464742187 15.6990151386042
-39.2844288434259 -5.79800549776933 5.87765026670114
213.959446728177 42.0788227948565 -24.7588368269101
-1.05425815077865 3.3892095476135 26.6702829976065
-204.609134937218 27.0977706196953 11.8539755552091
171.160715430905 -4.94340054369505 22.0103284693164
27.3904331675311 -2.62859826068019 -3.57202106530795
-198.954671455624 34.2073490822739 -19.5888947664214
179.356457135173 -19.4854814262431 16.1136945178875
156.018188086273 -16.2431902270323 -3.17760844068085
20.7158933322643 -12.3561697438446 16.7733634034824
196.051438158669 -17.4626928029918 -30.4938115178692
-81.0251981996215 11.1904978350725 20.5188617141184
-206.430645463944 -16.9505731261988 -15.004960445742
199.67370865976 -7.85057258228436 19.9584138257582
-240.858626887712 -28.9499374692695 19.047820642531
-168.392981480509 -0.0793429670180558 -25.332552223326
-201.655943367442 31.0353130203021 9.79313142792127
190.381513400712 -34.1282188950974 3.83884934020093
-55.6550330319439 3.47212170140183 24.6474641619857
-89.3362775743087 -5.51471089028689 2.64774884285884
-229.54688969787 -33.5953296024 -16.9730188435643
-201.174812447749 -29.0450632760198 -1.11708345781683
-170.950143028352 33.6636356160477 -9.61443646886133
211.800434548581 -33.7169383833915 10.1577435805421
148.763126551647 11.2715820430101 24.0470009927829
225.730388034327 -41.8079085545242 -26.9356544761645
-53.2652731961024 -5.1042943350473 21.5376536361034
-19.6669230195823 -0.958431965150794 -2.92285960081513
-27.7883479403208 1.73428196923171 -5.60399867492038
17.7442071001801 2.45808931581782 -4.84962860781357
-224.171651779093 -16.2310175695974 -20.4724786819085
206.911375404772 37.7139450717785 -33.3493948842599
190.089990760864 -29.1320392339447 -19.5757680411665
229.556540449576 -39.3590106100986 -6.78433572833516
-156.599299451746 -14.1949513134059 -23.9189510220901
153.416829395009 20.3125670875523 6.2546413888345
127.787855022468 4.04024714090197 25.5566568726612
209.100277919879 -2.66710102256829 -12.9192826046079
213.105250519235 41.3614806763103 -7.25856016094288
180.807279811161 -16.8106941788947 18.4645955307603
178.676021102125 29.4995903980203 -7.69802994013462
-32.572417458032 2.72063630186616 -6.05689781285897
75.1167259131987 -9.75286291745276 3.48069385558786
44.4014193839928 -9.97998119439847 7.45798516835572
-69.8151078289706 1.2650436507067 23.1876811407407
200.824519621394 -17.7585176051417 22.331388522442
219.829191624076 -43.8956096634642 -19.4579349327718
-172.966280659172 -6.5560465793276 -20.5803638293567
-98.3768314933274 -0.844957345144011 -8.23265016745882
-131.257899432272 21.8076788666163 4.04678417356641
-93.2173919502469 20.6372330567784 -1.79610828118293
6.85972451991772 13.2553854449157 20.5265776453389
184.818116196945 -30.5640364420898 3.33455563017106
79.7856636454793 6.11475475846589 25.2901134944361
220.495018546744 33.0374624715952 13.3060503218166
-0.501706697311993 -10.5256890698716 20.3596230207673
222.439343201524 -1.47377581533617 10.7913117320247
-210.809997210462 17.817007347438 12.1719054836294
148.045236255055 -14.5204428506668 18.3819404436046
-153.77068512467 13.5087594447592 12.556918789136
-177.935003467588 -1.23214257987475 -23.4393884232461
149.989749839843 2.65442702574415 -8.32540885701253
211.912228901326 40.1137094049794 -13.9583565372799
-190.623696642256 -13.0241970187749 12.6605311127524
229.09110831181 33.3786506784414 -7.62430150428433
-203.326276854706 -19.0109211656697 22.18995075392
135.008947137558 1.62586743704929 25.3551583914197
227.649110132898 15.8327547884094 2.66242884410755
144.526473202172 -3.80632355850144 -6.46134316234794
-207.176341390755 -38.8434724079775 -10.2265903108066
-84.7122007240223 14.1347593138826 -8.96426342028855
45.4388119654142 -0.0840313842038906 -6.10247173746494
198.167499574477 -43.4251237330372 -1.96759458133488
-184.452521064861 41.4530701482425 -3.49355673123241
215.025770406045 36.3493394700518 -34.0677865037639
-150.445269471365 -2.26110941616197 12.364840177126
211.876015874736 31.0391672148646 23.7945259686477
-213.439404568628 -7.58111814344772 24.9904542614669
-201.712789829701 -8.41727447908413 18.9055211518541
-198.284716171211 -3.81183716041292 17.8513716347725
233.651664870851 -37.546722765969 -20.4213844365853
158.88804352012 2.06082545924896 24.5638460250907
-153.85021309894 20.7318093223665 7.91141401594429
68.4533177142387 10.8915828951424 22.4958523498913
203.416655172828 15.158924046523 -32.6202836334406
-163.040714693906 -7.17270468825074 10.0150674285823
190.273986446044 23.5364367162073 26.2864248366778
-33.0993000027298 -2.81865073995492 0.486448100873358
-150.129552342366 19.7355988534881 8.58242916451628
-13.571776007015 -7.61824706991697 8.02878071787392
209.8531005481 -12.9743014369114 22.3483960027942
-202.596695213586 37.4207718001504 -9.63975766134724
-3.47924811712223 -10.8118464131187 18.8051573019936
165.289577059722 22.9709024704152 -2.19221856812355
-120.641686708273 -6.60954792332168 0.128449829584912
-175.820184408778 26.7521433783618 7.30591860379349
-151.442866119228 14.552099901702 12.2953035357509
-220.89305788293 25.6133790190991 -0.621582831905191
190.818378769026 -24.2986014624932 -21.4635153839777
-234.18091703706 -8.7575026039992 -12.8815680158433
212.952759727893 42.2388333677997 -27.1159280498871
-214.958487670178 32.7160305920225 -3.37999514230171
-244.890234166307 -13.2731405446232 6.1644154957529
-155.509777521474 22.9345990735128 -18.3874055499151
211.514076737481 8.63515626529464 24.7692823541924
31.8448411666677 -5.34637972903922 2.10443610336074
221.207353130846 33.1876080157637 11.0924164215018
187.689818515394 31.1076561179373 7.39696940991903
-198.19388657192 -26.7462264657108 9.15747485829068
-197.540442643981 34.6793104085949 4.81738230773959
-99.8998919015268 19.3931838983765 8.48088656551734
-238.894606242074 -16.5670609402463 -12.8960888518721
-213.643559734175 17.5140473232498 8.63853887181685
-135.9021233594 23.2902478652187 1.54937023139466
-220.767298647921 -42.6933384847068 21.0936724324681
-184.030351665697 -11.221703096093 -12.3321450768697
226.457975129161 17.8023035437883 10.9777217373323
205.950774013532 43.2005424668149 -14.578395290858
-77.3663136700804 19.4199865887357 0.629780142944866
-60.5004165809093 12.7408774849656 20.8963010903523
-236.110381093193 -1.41110720188999 9.62595150573469
-27.4921964957207 12.2294291867157 -0.0396214491169403
-164.002103435347 -9.17063593756792 1.39304464064851
-102.011399535725 5.50022556938789 -11.4691339077958
-139.449139139034 21.9372755700104 -13.2253434955557
-170.12727212958 27.2256195322384 -22.3502092200799
103.297032316869 7.16808048224155 -5.59547080095818
-206.04329933481 -7.57072945979681 -12.0763874778966
172.034490943762 22.0695397511312 -11.5127355526323
182.241935685363 31.6880450269555 -5.94758934580885
-209.84384615775 34.6499791399936 -10.1554417399929
-44.8299230954175 4.32783713171479 -7.07890723827009
3.83865368396195 -6.52537415323907 5.3228130491565
82.188852602368 -4.5772410724963 -1.62087281383861
173.225748273368 24.3512640222173 -10.9124264684277
-122.874563809686 -5.31350867529604 5.62115736124055
195.648758456381 -8.19848273910576 -19.3634180568917
-195.404292122653 18.3449164024025 18.9589953514829
-149.323998236913 -10.2856762438333 -6.20036878469036
-225.319158646403 1.938026567129 16.52873115709
166.306270983657 0.0800271030051483 23.6100864864305
191.064960983419 15.2435806485583 29.2781530111534
-217.727214526158 5.84322243952019 -19.8353615807625
-220.602521963884 -49.0698109478961 4.74054631161607
208.714471994532 -43.6021367536912 -27.1246394653417
175.529405113284 27.4794123151799 -7.15506994339131
189.770465594616 37.5245188487395 -18.0871012005977
-224.259910857138 -19.1447544164684 -20.916453678891
-16.1962843013406 9.32423324546381 24.6146251560973
-86.8317206516316 -6.29356584672013 10.0394045242688
147.1509086349 9.38748711507082 24.7544568582286
-218.834350365902 12.1122527064522 -14.3930509338472
192.653958431819 -31.4984761791736 8.36728346748158
-15.3451102364712 -10.0408380429336 15.1120716233502
209.161486926309 -34.4876346176041 9.83295493635598
185.572895578397 -37.7990226966197 -9.07628682253285
-184.05186204869 39.3284317586725 0.989059452071326
205.994335952672 -29.7487988698126 13.9131129244999
224.683586558459 -29.2687905767969 11.7549723450171
-245.168345148317 -28.3027040758227 -1.49354763974755
5.9364452015258 -11.3208925902488 19.1934275147026
-104.017076967388 -5.64492891055488 8.43630091178273
156.271901237237 17.4463647107557 19.3737540397653
179.136526957664 28.5999638954211 -1.79331029412451
164.878030719255 19.7040955693344 -9.67249705439359
229.402098169084 28.3699412584601 -9.02146862359033
146.628463489181 19.6728116478763 4.77784943933112
-160.134887563112 -9.0631650451185 -0.543416412653929
209.059613456484 7.25546740431166 -16.7519706275875
-237.897529936705 -4.24219481349009 -3.99149842195175
46.0346136225063 -11.5697597174526 9.84917032636162
-164.684382656798 -17.6119557085119 -20.5934249234469
-231.247508070145 -42.8255549679396 -6.14196451422501
-208.164643117698 36.0490061978633 0.877697974425528
209.677236405763 -26.6733410977583 -40.7123791668842
106.86774476962 15.6291908177738 16.2499200260744
116.875743763695 1.182122660263 25.7603718059296
144.036918219169 -14.9042648842508 18.0718794998466
185.964015113653 -18.6696173611164 -15.8887426743043
227.391837992193 -21.0551737506845 15.257626368708
191.471061809627 11.3861845144203 -19.7502983467677
208.19693455344 -35.2622850165694 9.2593529259231
191.357142921475 12.9158253787145 -20.9069226434012
207.363169810706 -37.8425319473688 6.81571835867668
210.386539891449 -40.3366971888924 -38.8548062100801
-184.803768543235 -17.1623865482162 -3.95589600358117
-213.687273805457 -29.7006903800082 -19.3568122530538
189.101201087885 38.8565462539755 -8.08053653917461
-193.16638047363 31.3109266603863 -22.5728434096631
197.88428307715 16.8545214564687 31.0947066926289
-215.183106408955 8.44726356618893 0.300554689245242
-166.686526806021 -12.1383898287247 -3.71463719479446
176.258594255453 14.4792109589667 -13.412191372017
197.34030629049 -21.5174156260175 20.7234159892288
186.672575791893 -31.1229921206639 -17.5018955776542
-116.754716887686 -5.29409185610787 6.62682750055432
224.844364037698 10.9520589413874 -9.98421054665739
-83.1244594025536 10.6306318847971 -10.3985437342668
128.2425827609 18.3921499467499 9.81148860612381
204.627989866377 -47.2414856090503 -16.7487868682794
-214.356992789356 -1.59129922978505 -5.83192513327583
203.274113645138 -41.904117572641 -35.2504474021768
108.382995444148 -7.39158168241667 23.7052178226324
204.272252281845 5.76961715790116 -18.629336717819
208.251823212619 23.0692954438979 31.3675185595335
-161.945132129268 -8.93359159146329 1.33926779679098
-198.668791837605 -22.9433770536317 -6.16591327001233
-26.7122526119643 -1.8458286123624 -1.15700810243017
-219.138305093893 9.61942876592467 -16.4136861695427
14.9724775085759 15.3001727092266 15.2991375539751
-65.1375181538495 19.1350321837938 5.12902228849658
192.95243552965 -41.6107607303757 -19.7571199358837
190.215205389358 40.2490211730853 -14.8899214342495
184.083072508227 -35.8088184067623 -8.4854819413608
-209.762531800647 11.9419044925237 -28.6698956735335
33.051734860063 0.76537566478526 -5.73671093524483
-3.33176018040729 -9.75666452779102 11.7413251760897
-246.087324975688 -22.2114931415349 -1.37227260151323
-42.4385073897114 16.8902274419777 4.18755650391719
-161.5848392435 3.30227519771504 14.3735900856087
224.470502340381 20.7490846589031 17.3507304306416
226.793566982298 29.3831955570928 -23.4181134058224
-77.6616302814843 12.1269155194111 -8.98172736352089
179.969304937215 6.28097760761116 -13.1731816783477
80.1498032331075 11.8290354747684 -0.394069561097266
168.502915487781 -1.07657292466472 23.1434785561956
-220.328880920635 2.6029910154492 5.87180789160344
-218.100711610305 -14.34724805286 -19.2890288464814
-182.383623234634 9.30528878224256 15.2700538157423
187.540505087147 32.643809537343 3.65152723656485
60.3399276824275 -13.0279934305127 10.1892794808619
-196.442259129192 32.3690526539906 8.95152110646845
145.150710116301 -8.70435655685742 -4.60646190458624
-238.510725014357 -9.92009450021147 -9.94948944755015
-28.851293443629 -0.477346088384537 -3.28173896531983
206.731378218089 -3.85629165516529 -15.3432795997031
-15.2235062217693 5.44903268942842 26.2497568777361
169.812795692172 -17.8445248435681 15.6904811584121
204.510821854556 -1.18012612307174 22.261727627203
-199.993824272023 41.0006996138616 -5.01102823016965
-137.086371795012 18.5209664660014 9.42764778285934
-125.194649460415 8.56991591732286 16.4916716878516
85.6794457135859 -1.81804852125439 25.9122141571784
214.309322797479 -39.2779188568171 -39.334007737035
35.4735349731917 0.328376048925657 -5.73514076721893
-180.650160688565 40.6073884103078 -3.83544662779818
200.747589073734 12.7202381919993 -29.1184541980241
154.83283380253 -3.34464647770084 23.3415437077295
142.639330328981 -19.1456816527117 9.34539843342823
222.543857074457 41.7212188411657 -15.4216537335356
188.756628833448 -27.011214626608 11.6001617858482
-136.974299394296 8.93580154105854 -17.5197810121335
-165.698911753127 0.925984301492331 14.7539780928123
166.57975740403 20.4686703821748 16.2653404519189
-93.2866136534116 -0.0416198065680011 19.3471450463487
234.215467858662 -30.4550846301601 -23.3515309724525
189.270542146071 -8.00605794053882 -15.4819975111601
-148.659763233179 -1.3443365788334 12.6570727595228
-208.971134831173 13.5778513180908 -10.2561515385055
228.381149341323 21.9501758611671 -10.8222755259847
-234.686565636111 -1.49668048380598 -2.71293948442685
-239.218819355664 -6.19107186349983 -4.46404091088092
180.892177360709 4.27312226959581 -13.3564186444514
157.071824720119 10.8564790964824 -9.57419165593734
194.696604991585 1.74379943304051 21.4109688710016
180.126338383183 -28.1686865023819 -14.212873111106
173.258221693407 -19.9985603001633 13.846097740731
66.9168577734481 11.7225339013748 1.21803266429807
34.0595270618436 7.33569419173302 -0.955186338636868
227.872092889184 -16.0741521894282 -23.7789964654836
225.749596167892 -28.002499975993 -35.519715071281
-243.775688111161 -11.1468622342732 0.924392480237847
-205.19310822959 -28.48514957083 -13.0423974626673
233.308507226939 -27.6229505759727 -25.2019902823227
-230.010256888877 -42.6024977603169 8.26999402542183
-150.50893498866 -16.9669548753065 -12.4257681992022
-135.348114126756 9.90207522249717 14.862025683788
79.9797544515675 -6.23288600988071 0.150968209247503
-237.138389227908 -4.99133797009447 15.2479601795443
-91.0900854392166 13.872043649975 17.5985649008174
-199.993320472238 12.3838807065025 -11.5307828077339
9.2551195670013 15.6697827309068 13.126746575982
-183.717755206695 25.3948810226195 -26.5566568476697
211.500937609139 -6.35596889714318 20.2270978949843
228.330390443835 24.446194224525 -16.6793185115139
168.325781170976 -19.5879454979484 13.5362013677062
82.5671473856292 -8.39063508605567 24.0039871452906
-209.84746974931 -30.5797127623003 -17.6057084260943
200.202035947717 26.2385873386746 28.942801702354
148.973499626873 19.6588975913141 -0.383261298608083
193.44007327735 19.9489090980678 -30.9190882300943
-19.7735584093386 8.27403158963177 -2.33149859224636
192.426425896233 -3.29863643567445 -17.4992860648109
-205.327452210001 13.2491765543832 -10.6311972764996
-234.494451411942 0.2030674152609 4.29126366977074
-194.119020402451 23.1539025072521 -27.9734975009992
199.286769971424 12.2143843345858 -27.9495621925558
-138.133341214818 -7.56845581982866 0.140200570878834
202.610499035618 38.2393770299663 -25.3014535506254
-96.4590838091241 9.09263828667054 19.9310013578669
-94.7512697193475 17.1684603223229 -8.67753871026765
157.93738224801 -5.24290470335706 22.6273435006032
148.869971618623 17.6350397997657 17.5193135677956
30.5109807507413 0.288759679217666 -5.69964088732788
-244.473350263486 -18.7830058387215 -5.09410410636404
199.130455073264 5.14749635856682 -19.1472297825202
-224.286971904283 -33.8999806793029 27.7500009676446
-141.597290920253 -7.71562531561399 -0.0461349269854614
177.569908482901 -30.443854662384 -9.33117086032228
192.622227844528 16.4183820193497 30.0762850004461
-207.667129658246 -38.0722236958462 21.0663671365912
-202.368767908393 -41.4491122446142 6.38276670803092
208.969442339405 -44.1282320317984 -1.96117121886555
123.60007979412 -17.6017297366923 13.8990452900887
-75.057148927524 -3.61603893081866 19.2217724507547
-228.081783381526 -43.2069142093245 2.23638837884318
173.958598390815 26.0101348505541 -2.55008335678259
-98.4236790239214 13.6835276027064 -12.7067249282439
235.260207569978 -32.099369604693 -3.07741352047375
200.138745384756 38.9690812275258 0.561822933482787
-170.07410780457 25.5121775375642 6.58056358192526
-188.507703353695 -9.64559829002286 -12.2131002601538
0.71316759249908 -7.15371614220925 24.7200865360882
-216.411664292321 -44.5349191575674 18.1541699626882
198.576448689476 23.0759925197903 32.2077687405971
22.4409076461221 1.56740674134747 -5.79744778984059
-213.227913447441 33.1719248317415 2.37791506628324
-109.689350338018 9.65974914736299 -15.6135357710956
-98.0204508134556 -4.34772392413737 -2.28042208294587
157.699116837944 -20.794901135056 8.42082114792849
29.5557068576711 13.2345742665257 5.3043878481213
59.3479945730357 -5.53582682365019 25.4211570607363
194.179656383503 -33.3755919551535 7.21801767743985
147.749812621692 2.46853370878829 25.1858428775446
164.133284552318 -20.8787421071666 10.744513982308
101.840222801268 4.61729733149483 25.6466777932217
65.9039907962017 15.3180756529196 13.4046013829568
-106.586118527712 1.15473893153009 -10.1302119757829
-242.140394701914 -29.8005725245437 16.3647703139142
153.321607418512 -20.2403181244427 6.59532872833422
185.546523286503 7.62387595102844 26.0106922235856
-242.116367030653 -26.7230564315724 -9.40890789715949
-141.887123061246 4.10985716178185 -18.0087641335739
-36.5379116218102 -5.05803837419527 23.7822023189607
-51.4645331795908 8.27076782152362 24.1139691520364
-76.2699831512981 -0.0197623729018223 -5.61478176103909
-119.621294919393 23.1997624579588 -2.77864551896752
210.022696948705 8.50851469852189 -18.2518560685422
-113.741782457858 16.8808385833028 -12.8951314880402
-144.828479561794 24.9815993678822 -0.873729843288027
-122.073511829098 1.5034502167376 -12.9601883229732
-94.1035905041753 6.48184008089458 -11.134956592419
-73.8830403366466 4.08226477005655 -8.58687999464386
-54.5687019167915 13.8288874663385 19.9376847305694
-133.29219186713 24.084684736853 -6.30512495575491
151.048505350312 18.982858153137 -4.75179699979417
-179.502317471223 40.0317286442747 -14.2230937872619
110.855359178527 17.3588073323091 4.18684362934311
151.719129320669 -9.34035914372361 21.2341012177659
-184.417087984705 -15.0437501292529 5.44797463508817
-242.922497251767 -16.0896292135577 -7.16968921529575
103.442317341584 -4.34530987998808 25.1136549545668
-138.7591028248 17.0159406147163 -18.458100080965
217.485710449035 20.7875685638522 -31.9220814833659
-191.194870345428 8.87210206300489 16.4783098575587
-218.150004898493 3.92479528824614 14.5379979674363
130.366409477848 15.0259602998813 -3.56820758917713
-226.416770209948 -21.2351490643274 -20.5743958938057
-182.153581771981 12.8628194077889 14.9122672517184
214.700403010917 -29.2250702907262 14.1330282685737
213.243478289227 -37.9848131838818 5.43421378552179
116.28630278823 15.1019642104665 18.254842450139
-33.1044284873164 -4.05715148348262 24.7541090804139
202.243965723584 -8.01175487062274 19.7329594152732
142.558924205509 -18.9616954605274 6.30471498838845
-160.637111434872 28.31766069041 -2.01611203599147
-198.94151384831 -11.1242592691924 -11.9854360822932
-186.210485824488 -14.6629358127236 7.96766681844096
-160.617072086287 20.4765522015911 8.6971778204388
-24.2480328781977 13.921297381255 20.0424795471703
227.109645686009 13.0971474123423 -0.578915353031066
-108.738367825705 0.0127357925532327 -9.93138267639008
-90.0333166654718 16.2788221654995 14.667392678195
209.043820242634 -20.8577557535835 22.9200816160876
105.117972699315 2.86804083279622 25.8683170294002
191.012539188426 -27.6013726280802 12.2550929407796
217.610169783864 -9.6709302162199 -12.3111973802076
136.92076613154 18.4591206398772 12.3411096708598
-161.009369199342 -19.9676150909614 -13.0376470400363
-203.511717631624 -37.3798126194569 -1.71118818190858
-179.636948384393 0.388196526747361 -24.4023047666321
204.479781518296 33.4182491175727 13.9236648672792
-53.0683892006263 5.92871885228115 -7.41301464720979
-109.550050435216 6.79294624068764 -12.9430042955624
205.736861072481 -46.3768452781377 -21.3903864471621
-111.523280804117 6.58865395657225 -13.0407554380471
-197.918958515909 24.8207564413622 -27.259273363128
50.462322828163 -12.3954487386578 10.7455210868445
-114.129474916626 21.289007887959 4.00879869968817
225.299270163444 -13.2486105749595 -17.295650115786
-213.262927070418 31.7665648342211 4.38206958121315
-154.117324334738 19.0934520195312 9.86307136616671
-210.099890123802 35.3030527791116 -2.06330636226847
215.636869419255 12.6549625512303 -27.7588606856616
31.3239801641243 -6.54276192310887 25.3878638754229
-201.373321117576 -39.6673571131183 3.77676058244174
40.1535961576405 -1.80544926434368 -5.35336144030001
219.354735851962 0.761767190722322 14.6633122706436
158.906658158538 14.9605330821112 22.6968936555774
-174.103502701322 -10.1969242576924 -17.8204775981493
110.619564652475 -8.62943960266965 -0.610345892510485
-95.3619522602789 4.23233990572918 -10.3358265311278
225.325626076282 -14.6022950398986 15.6331539819281
-54.0722112869343 -7.36120971588134 10.321480751563
131.572612578473 18.5111426378146 3.65711455658226
-88.1713960230211 17.9255117932447 11.845529826876
-161.171511206079 7.72052244852501 -24.48417358582
68.8617183429748 0.607218366084803 26.0939262611642
144.82698850703 7.93977572859011 -8.61701701153766
-193.871944441847 25.8989657311835 13.1413725466164
-133.914726894603 -7.40099776991043 0.436233832768182
