-30.599176569051 16.3778442790961 -9.22651418246822
-81.4921269276231 -7.71830444634587 -2.54940799130681
-190.836013618764 26.9116680594173 20.8687016346147
-7.45914013693559 6.71711846079862 4.20078376064449
140.23754279705 -15.0054477569756 7.92981110960069
-198.099779418282 -23.5764351258305 -0.0454991814181175
147.75311498047 -28.1794035850576 0.307969424284428
168.215114467349 -2.44565522103416 13.1201857390657
170.097520534862 -10.5147364769575 25.1026943974199
2.09253289286951 12.4760320893039 -0.967199321001346
-193.818767905177 -17.8611639574775 3.9421820720437
-33.3857511210926 -9.04581294896563 -5.14273167421475
-183.567642797759 9.55790232984955 -6.28879609416993
-203.020881271276 5.23647933379708 -9.45079353852428
-223.475360794584 -37.0508013889753 -16.9064860471572
189.343857642179 28.2599671900964 2.36517349371439
15.9248674222363 0.653758817993876 -20.3070337450774
-236.225500715703 -21.1428455922792 -6.44857758540004
-177.196963336634 20.8160677901524 21.6664971522117
163.783053599342 -10.2588461844163 -18.4093248194807
-178.522022951333 28.6265354335965 0.062900805888292
-82.9078263219312 10.7593327121436 7.9016548419528
185.962560906853 -9.0913252991725 -13.9096163349969
181.750036036311 -34.4432154593237 18.1936086031497
156.473447530573 -15.1352837895903 -17.5945265594772
-174.831327222007 14.878579023417 -5.69996382192991
-161.275378635343 -0.4301539328134 20.1701307426206
137.175049966641 7.2285327787164 -20.6386942238584
-149.365805410431 -6.44043959827123 8.75276139184332
-201.244434405037 20.2256592728249 25.0632641736611
181.283946546377 -19.2208588286931 -16.6215477038547
-178.28786755287 -9.49119908659941 12.4095863063436
-120.366200772827 -5.91197676099958 -5.47935782373179
185.530813994826 -1.79615402115307 -8.3052718977605
182.301054660367 26.2338306819618 26.308359566644
115.674435045208 8.49262354689312 -20.2602628173553
-153.217186350797 -7.9588574301198 11.0536707955409
123.978505991161 17.5406916849133 -7.70819406274412
168.665740113856 -6.9293690851941 -17.7676494068365
93.2509715759101 15.4526858292324 -9.69646881790283
-164.147868684152 2.92024781144258 20.1764804223959
62.9677596347886 3.86601793815671 3.240188826562
-233.632227910366 -36.0623133103033 -1.0114222813081
-105.51462710305 -1.06843440618846 6.48542501556555
180.566823091697 -11.5472809771175 24.5401379075796
151.602355274896 -10.7158562700864 10.9188272931539
185.211200914137 34.223640676687 13.7172696008596
120.394925514424 9.37589819124415 4.84474559839058
-118.128952605628 6.18356405723347 11.1331655973259
129.773034973455 -20.8878718725461 -5.10462949368968
25.0349611828888 2.14905198046984 -20.5244019086761
177.813559104459 29.8620961182929 27.6773131269765
13.0906865644089 11.1123133312813 -18.0038721349183
20.5302328839305 10.7293008539259 -18.1556628375849
58.7833611427956 14.7109399902624 -10.842473492573
-111.963790863486 -6.02518605226862 1.53355574240933
183.987709097286 -18.7814371418285 32.7912534308457
76.9243791477201 -13.2568276253766 -8.34269656810773
-162.872444238534 -7.96403635208334 -1.65781373195474
-125.896692609301 -2.93316335988725 -8.68251748063127
64.7236548044799 13.6609369289188 -13.9514648581218
81.6618867996437 -9.13845824673851 -16.095545185846
92.7462503918766 -12.5929369526135 -13.6529778673636
155.491947434978 12.4387321751832 -21.7873211130503
155.115501192328 18.4814212734228 14.9331846832479
156.77750294338 -13.786088505141 12.8654858461379
-19.7052471384221 4.57045500646101 4.86193374372098
-152.404060979846 18.4010277213345 16.6004603916761
-180.551141940272 13.0880366828818 23.8552900317148
189.674769499912 24.685558312112 0.0131351652720392
-26.6315953713048 15.6180346102054 -5.87389442381954
172.193615039609 -18.458222378538 33.5529658790466
-117.737871854558 17.0505286905958 -6.89033903837806
189.371460805415 17.523685605049 8.85673791391985
37.6532488599515 -6.60623673424539 -17.1629896373617
174.091001411956 -11.9334169122274 22.1509029357751
-143.923833639624 7.30001492498145 -9.48293392278081
-210.387177572386 -31.0033232351441 -20.6180349303365
141.528878188799 -20.2218851156569 -10.5798714719927
-82.5067678228637 -5.29683478469201 1.1004134104736
-11.3712628630179 -8.70074950557471 -13.4606973630621
150.972772491764 22.8184012908951 -9.82717444534143
161.068995841142 -33.0792400249481 -2.56212506674684
-204.488919856778 24.8754856993833 -2.1824177958963
100.974302860211 6.34302891357596 -20.7503417803315
179.727195868493 -34.4503661365665 21.0905594988122
-193.299603235903 31.1544433063308 13.9442764894432
-203.136991699087 14.9929364141055 11.2884477348241
190.273826143422 -29.4865051683196 0.239119333908944
-170.104001747468 25.5356748125332 3.47570379179745
-9.10763655527042 15.3314333459285 -12.3875375550418
-69.0165670824519 -8.67020652420732 -5.85239388393695
-188.67829128197 -4.54180816588979 -8.33366604075484
157.4174434312 24.7448382308537 19.4387651342133
174.497292489099 9.35435064800047 16.6124659008742
0.0377752993400651 -9.60293612611649 -6.25097077861792
-35.2303894416549 -6.6222161649585 -1.72129443450763
96.214366663345 5.37802284152833 3.55367815643312
-76.6406630134606 3.50813306832431 -17.5062704431737
-207.403752758363 16.9358714397837 -5.61379023623208
190.953598296367 18.1139222402224 -3.37819371619945
181.010190938848 23.5215129269472 -16.3752183595119
177.820638928197 -0.816936403579863 7.19289027524588
-234.621603499685 -33.7588921324491 -5.72456162788538
-226.199411007665 -41.0019339628796 -0.96135361880655
-159.175508329315 20.3262979460256 17.3189735230503
50.1130418504871 6.8896555714733 -20.1439571039505
186.940110552426 -31.2605896387449 1.47396190871961
190.425404331859 17.3284261977075 -8.11537233342255
-210.63218201905 -43.8497867396751 -3.51587942874321
-125.143750260754 20.3613228751112 1.37209574116129
170.003267093746 -13.4881132168659 -19.0885179061872
157.908740110206 24.6411797943879 -11.7026709881482
-214.506509293041 -40.1438844566833 9.73576843246112
131.095220061947 18.9077382412841 -5.58354807288998
-21.0389061925215 15.009094300156 -13.9239496615291
-121.175345906081 14.6365673518974 11.5216315851254
60.6025000051192 7.02935989746292 -20.2017888709684
-215.338738339333 -29.8058017458296 -21.9864987563766
177.120517624826 -9.11944966398523 12.6874018754409
-209.160618215763 -10.684733772575 -14.5096403869339
186.161879942143 34.1880129613283 15.7220733085848
182.345105859631 16.4912655643326 -22.3696173792665
93.7823795836324 -0.0910087875212032 -20.6994390788918
-89.9087493468486 -4.66066880835623 2.31394061719718
-194.520959166199 7.34878216921087 16.6890726813611
-67.1581149838175 8.94290549534434 -17.2955143045772
-111.000378057999 6.96877376467192 10.4721092075062
32.0229442527743 -7.25385187805275 -16.6295011375363
-82.4446116632003 3.15349841538269 6.70466657795023
-194.557849168736 30.239800614108 16.2906819350589
50.8209917810444 -12.138638221359 -10.0308148393926
-199.548584041184 15.2103487336625 15.3352122676986
91.0497636135462 15.7378098262349 -7.49012478064825
-10.6903729126385 -4.6023123468767 -17.2652662504017
162.691596466906 -25.0631571704153 -13.8294565290399
153.63475422388 -31.3166954055983 0.0535824832152616
73.2389337661596 -2.92474947273969 1.83870960889837
-119.311460575085 17.2588637206992 8.54566882515265
-177.492113878414 4.4698476754027 21.1307815269554
-202.796242544732 -16.6949971507942 -12.7350837319414
178.964345408519 25.2427043017848 -12.5305029126703
131.720790541594 -13.6565544409841 4.38326227601525
66.2487066319025 6.64937274456218 3.6712122210371
139.021008412391 -8.57518638801809 6.64304839627757
142.863779027597 17.8264141334592 9.17787217121555
-192.35744333135 -15.105064974925 -6.6742791855113
145.200565462425 19.4729476260363 -12.6522069850191
-200.128071363051 -29.7561779625624 1.77979928470102
177.838498475446 16.9259080281696 27.1280425719616
-216.694416816998 -4.91105110205904 2.48614947341264
-235.156088027056 -20.747047491093 -9.90842382890251
156.645922531808 9.70181775961763 11.9837078847321
-120.170797165461 -5.00349993056938 -7.10201881638819
177.432813274496 32.4295315328028 1.21270718044341
-74.8901633258638 -3.45242353958868 -13.773719408066
169.609338151842 -15.285920901145 -19.027437362124
-43.4704075505852 -8.66969532873706 -4.74960597258382
-236.922240591057 -26.6683465092431 -1.80269008111343
-190.873502393947 -11.2218059237905 8.92825418948799
187.857305254291 10.8087140400833 -11.5060525467302
133.342030003978 5.28814966794583 5.59510911176898
162.416742628751 8.98306862239154 16.5334681650496
171.631256553575 -34.4157304908822 22.6598994937368
-225.470409451528 -9.73069060381195 4.31299618878079
-52.5787283144283 -8.58006958587477 -9.61616986144773
43.1004896954537 14.8458210878312 -10.0925503735092
-20.5351824089078 -6.99262042513688 -2.24885750378132
187.564231400594 -9.43410666936149 8.89873185918817
100.566033864024 14.3117341564073 -13.8967054293246
116.976130207947 -16.6951555212382 -2.30172422791661
165.734924840695 27.2003607444777 27.2442925146578
9.36345914363993 3.95684897042199 -20.3709147673808
144.453766013649 -7.16042977032842 8.15595794274581
16.1890199980758 13.524707819749 -2.67284348731352
47.3688566242388 12.7169039130566 -15.6521005686093
-236.854664150296 -23.1959099705661 -4.77695078318638
180.08895230291 22.2877272312133 -19.5101879679867
-4.81873787723309 -7.99301146335087 -3.53640736935194
-184.049253462867 -4.1705663051578 13.6901411544683
88.9285247995615 12.939202522011 2.53821917821434
-216.438932619829 -15.1281471074414 14.4564413324202
-33.4285762328187 15.3863587163323 -13.8047769454873
-159.03505693705 -6.98862341433929 -4.05252281173379
-28.4474014207103 11.1266038390618 1.15375213079233
-203.151764649393 -36.4274817768271 5.15066981752954
-198.807914113315 -26.8555462100885 -2.61275313137757
113.426352856779 -2.7364944309164 -19.5746866876099
-218.872715600893 -38.1657223848033 -17.3596119024813
-201.584763242285 15.0643108372018 14.4427105811512
-171.87259101257 14.9724020501638 21.3537606789068
70.7802348909457 -7.52082596032337 -16.942043041935
-22.7506486628592 13.3638787227395 -1.75711520579921
-107.945054900797 -6.81194605232004 -2.06660511938279
-211.916858021469 23.7912072666563 15.7304294011578
118.110162051234 7.97159597217019 -20.4381183512224
178.147744426809 22.9226976959693 -18.5631629214281
93.517249053175 -5.83373108795452 -18.1521871205476
-227.844525143621 -34.8917352706882 -15.6916773329348
-233.891899852367 -14.7621937867237 -1.17921712476429
50.1616837832151 11.2613731411689 1.11142188721498
43.9262177120718 5.94208118390018 -20.436354975275
180.684209508295 -23.3313652864191 -13.2054421746934
-27.3833136286171 15.5243573258421 -13.2593551019494
-180.287792097181 -12.7395859293605 -1.72703271403586
171.745616698483 -30.3450949562705 32.9130970956403
-133.776615185631 16.1827965075092 -6.38678262368411
174.167116026193 -9.1483768622596 -19.5991450432749
-131.70148499489 -1.62002505126848 9.40704881301412
-183.139335238379 17.441059395144 -5.87682473250174
-176.977176255168 27.4676651055338 -1.22359976254063
174.194489317901 -35.4608003410617 2.59625169772055
-210.527248030186 12.4410307806405 17.2128709853961
-207.788571917384 13.0590426385002 8.53817133586163
176.119056625512 -32.4379574183631 -3.20342724309896
-128.706985266384 -2.84467858327464 8.19032790702894
-29.0808425243907 0.216979992789278 -19.3837004200833
171.657180667039 -33.9131976574233 24.8139695733546
-115.610471262741 13.5377232597573 11.379835042828
29.4203390126538 -9.31488191296604 -4.47210632998801
-112.430296560482 -2.15981130363632 -10.7330464379065
153.582138424673 -30.1125138948493 -3.75101707797466
71.324950513902 15.075380907927 -3.55336329909461
-187.72401703187 27.7704422731955 19.3341443852387
183.497025276233 -11.8878050826539 22.9476890197451
190.253420523292 20.4529297415653 -6.28474200679141
142.489326497765 -7.01211823582473 7.52318281971994
195.517291142605 -29.6747248709407 5.23452567304974
93.4521089631307 1.28152268982446 3.06891438760974
-155.60290330244 -9.71506265241241 13.9539928713616
-73.7190903782975 17.8677824828394 -3.15329559640609
-215.44462410884 -10.3256447935037 -16.7647556281719
-132.649514036856 13.9946961153075 14.3229044362914
169.687778177342 35.7689599740403 10.0312190652639
113.061279346402 -17.1330000182224 -7.95968525753021
-228.801964605485 -9.59600363224672 0.655632340237035
-126.384362247482 6.75467026044567 12.2685068410935
171.036583218688 -11.1172368925175 27.0108722195916
188.939969373604 -6.31817168482923 -4.14999827271381
164.817818274957 11.2857801198625 22.4722301475793
-101.630271112086 -6.59552573603066 -6.15827049626354
78.2834988565878 -13.4446058476218 -10.4900190195575
-195.332655914114 -8.44451892194572 -9.37961715396118
-203.347629368294 30.757825409743 7.49848602105835
19.806224296861 -10.7244022332853 -10.3286042772567
66.528833495055 -0.753627841431617 2.39402373384525
54.7298386135414 4.18290404229519 3.29797435930721
38.4502714885558 2.7642767638472 -20.6511260959836
-28.5688508634924 -9.00331098474699 -11.5199930866221
-32.2491223543603 -8.87942789093096 -4.78732501806749
-175.796357260082 -10.0629159363468 -3.95474418465046
-220.344523944381 -9.61511252890679 -15.6529418948525
-78.9149829237122 4.99864495655319 -17.3336346834151
23.4283840502494 4.01325755582423 -20.4715890341965
1.25295452857297 12.1586397917882 -17.2455951284923
169.940285227043 -13.0771072401793 29.5985905895247
-198.622780848742 -23.7973571329138 -6.10738320283571
-114.026202820697 8.0604483650249 11.2419234170916
-139.325809248083 20.563589742004 7.98379324973464
-171.052991132662 -7.44015084922857 -7.11406667469662
163.63177877102 -30.2158872018412 22.9560968349063
128.190012323887 19.3366101077463 1.59957391370122
15.3469949711354 7.67998067168281 -19.7063077913473
116.411677309891 10.7693603110714 4.59032426663661
-22.9186651070195 13.8363087288246 -15.5753920023197
-219.998231959027 -6.46010325040421 -0.236983436389605
-175.301966413169 27.1847359522499 12.9243157222737
58.9676883302023 -3.89344438692099 -19.1807328863845
-116.199244114001 4.6708837184065 10.3450579186673
-125.129608741528 -0.278684123389793 9.66884466518746
184.739323737633 -34.3130873158316 14.5782342953531
163.551662066189 17.6949876086971 -24.0859416840166
-190.611258055409 28.1374143131839 19.0469682505384
190.801778952611 -18.7231701298052 27.3583129728086
164.441856332125 25.9363639571879 -12.0621949514624
186.118566513019 14.5185578579292 16.4854507422382
142.053660189847 -2.31400003092519 6.42478520026812
-17.1702851025863 9.964960638584 -18.5778255303025
140.935746261848 -19.9828187034953 5.96686525729349
71.5441746411447 0.420418156893627 -20.7570970399842
-215.905716154608 21.0163207952064 7.42529222205333
-109.5526786363 -1.92238663291135 6.3922190989119
-54.3800376329145 9.25965475578938 4.73673015173325
-200.608513072632 12.3349344396224 21.5870368901286
-203.129619374181 -32.5977858827529 -14.3313440881719
-176.446718908424 18.7871676536264 22.1425958704688
40.2489877170106 -11.7762368325848 -8.82432228079463
194.578464880407 -17.3976716046513 17.2822274919833
-150.750272052565 -1.46034810831448 16.3187152900345
172.424512182611 -21.9985340789942 34.3540133267491
-196.237657043898 -14.1433153573013 8.30938292232623
47.1199318027257 -9.06373459007969 -3.56091184410476
-82.5974968812717 -5.90960163253923 -10.3267011134304
-203.638792032933 -18.5733477608556 9.53513547650218
187.96553462135 25.2908627275217 -3.50089324814478
-205.17937755564 7.07294036480973 -8.52767147447468
172.418576613135 3.18805999304067 -21.4808007107637
159.048190594087 -35.4041939822831 3.4102960513039
-129.66903605194 13.8970834202864 -8.86874972761251
174.326537755987 -32.421383295806 31.346386114877
59.2196632849844 -11.6019885390504 -6.28818656323691
157.032302599011 31.3966612190483 6.63809504297806
-125.845407993307 8.29928863554144 12.5342680176086
147.327369453805 20.9422306789244 10.4293961793501
129.071532766413 10.0271149167237 5.71498543524164
169.853412690655 -34.8416901628319 22.1014396987837
-64.5677599233052 -8.50668927942134 -8.65041159110898
0.760631237701525 -6.5575072516751 -1.88207983411364
-181.518295124939 24.982121167396 21.0888184813932
-29.4792322085708 5.39382914428129 -19.6371915361484
44.460543112265 -11.5654886605357 -11.234167936045
-21.0880474392817 -9.78867648140342 -8.29533164619506
-234.83005169494 -26.0291818867562 6.10195727053431
78.5005827804295 3.53825370890924 3.19374673552123
148.538314796047 25.3703231734638 2.07086844204648
-129.070861914661 17.5391727958348 10.6326254086662
186.173568439377 -12.2514597872492 25.6316031459013
-217.615169888773 -34.580488019544 14.4673136094888
175.85749329656 -15.2314582970675 -19.6866113549977
26.1144614006567 14.8506991610746 -7.02636020144913
147.673001772487 -27.8240176817957 4.62662187724926
3.38274452604891 -7.19623942052765 -15.5784843992959
-158.056814754103 13.5094513368978 -6.7038929541939
174.442939519559 -1.75623397953199 10.1540050910046
177.695169316272 24.4144831981567 -14.9076091573722
-140.958349166404 17.5674791324992 -4.6733791846751
155.509272490585 25.9828557934436 -6.0345779278436
162.456148795724 -24.8177180565386 20.3832695168673
123.488576987445 -11.3843450741981 -15.3309936585589
153.777440642505 22.8195426861472 -11.9342422143749
-202.967113874641 7.92918850140044 -9.2100562374344
21.8500649174996 0.481840980566186 3.26201215435868
-65.76978233297 -8.37113422571531 -3.71083655993001
-149.452012652611 8.70452654423426 -8.56370133480284
-165.302798632575 23.866541743538 11.2107633254731
-179.996474865723 15.2347367130309 -5.59370061478879
-58.6984692199129 -8.92114105594158 -8.3017123965564
-113.513135262772 -6.74845847741828 -1.79584342412761
97.5405478056523 -3.88235519046605 -19.2179372667536
157.847369720821 -35.8973634441701 6.34037449719567
175.967864543524 -4.55232086667819 -18.4234519962938
-127.791709618765 -3.90649761164964 -7.72347585934639
-212.572257237701 12.1233144808833 21.5609629949745
-37.829708019701 -6.15019132762886 -1.14139955433247
-208.150934816219 12.0704327302567 6.27509194826152
104.114810834639 -6.18132588429056 -17.9684670108691
173.881706042473 -12.706617416807 -19.3220555191828
-13.1588812194207 -9.3330139060468 -12.2728239660593
-231.290228100235 -38.2494719744348 -6.77893038567915
-197.690449144551 -20.5005330587449 3.75344552708037
185.431638596297 -33.4212758099292 6.24468498156113
-127.926328501022 -6.41269401689488 -1.90780908299787
151.278633103431 -6.72376846772744 9.68770990459205
-48.4050977503253 -4.37326021340118 0.713251944364463
-166.082323830571 3.64888944575836 -7.15966243249898
98.330761354932 -6.32526490648467 -17.922593564023
-203.950764083168 25.9586586462367 20.2383943726283
-72.776413174025 -4.52368855108588 -12.819278981282
172.751702733003 1.92952978885599 11.4018114138646
-197.987051122962 -20.9865032976762 -6.9905261133601
-7.47984583506555 -5.26003734327725 -16.8861013618788
152.096767610003 -25.0479816265433 -10.8042991210788
-88.3793350130806 12.3154669282805 -14.1260699309119
186.430327572454 3.05484588901898 -2.20605156262436
28.679674765746 12.2130408887877 -16.6450212591138
-3.09733768209228 0.71554208096589 -20.0598916983803
-227.107971742864 -9.37930250220179 3.75213957213528
-126.700926221655 -1.98215051041333 8.78222400655383
70.8862328716218 -3.78737945452144 -19.1783166996325
180.290650461147 0.358624407124789 -14.8299361649305
190.776970362603 -15.9253258542974 25.4976462902957
-92.5593458952994 3.69866527589295 7.84283097100224
-216.193254997919 17.8110668713656 12.5762121083825
-89.9816834714355 16.2266987485449 -10.3000157707016
57.0630468350507 -12.4269929909365 -7.97750091935798
-55.1523313476492 6.88252248520066 5.93628654811417
145.542558825552 -21.6764299601908 8.19908862233333
183.860211129312 3.58723595311418 -11.5527589497253
-82.0873254036594 3.0983775526646 -16.9881660496974
-57.9048913036854 -4.2645322987643 0.972421812240676
-200.930221032723 8.90846950328816 -9.88594896891053
-123.812580600397 15.3802169384531 11.4198964523081
188.165821875186 10.5039441853712 4.68661236658724
-209.112647290134 -0.875529993487526 -10.127224354363
-222.126621077142 -9.01748269965868 2.22468433572129
-2.57989178760606 -8.95038248553955 -13.7725085866452
98.2568482547675 5.71813534106339 3.61608814169752
178.817012626257 -4.94418146814863 7.96587394839955
176.991557436675 -5.03873806223184 9.34436244281337
-228.382223442842 -40.1774991035128 -8.0497981570415
-212.667860533473 18.7387404213843 3.85889117956416
18.4846968744932 8.1045501120148 2.79453939650902
119.417687627906 6.01468238572521 -20.8027559609037
112.514926400028 -15.2108693519237 -11.8546633987323
-11.8775733708971 1.56621086188815 4.62289428504509
-48.2193724286102 -5.676770384978 -13.9724602936694
177.755272202209 9.84502180781056 16.9265463329508
-234.766704089915 -19.2908337439816 4.21300975687568
117.948578019058 10.4957099665671 -19.4870710727111
-227.223919268143 -40.2180533706778 4.54988268558872
164.322145489102 8.29336299610603 16.965874050202
-215.380340670381 -23.8571118631333 -22.7364802362594
92.3099922580312 9.92173767309649 -19.0540480673216
-202.668909760036 -24.8700674474853 -15.4737248942886
166.32363748902 25.803729203599 -12.9063894813389
-192.95083891724 29.3149026159574 -1.09322334479863
-27.9013489323945 -9.73501508484013 -8.38001212485756
-207.258192753907 27.8738507247834 8.23958619135581
-167.223391333966 19.4330672992659 19.3388011996899
-88.6249004451078 -4.43077373380006 -11.1878454557469
126.744564797965 -2.8416141900844 -19.2420394004882
-116.886608407527 0.813386203780771 -12.27668819474
-202.59394686884 -19.4200205965494 -12.932016178752
130.049367675633 -21.3990627948947 -2.5171927332616
-226.555563526028 -40.7692948402872 -9.41225509718887
-232.940669750788 -20.7926669499521 8.32065282461448
-58.9327551827257 -0.296432505104663 4.07836419987311
157.870659480675 30.1751359165023 15.0057931920392
-143.606266191897 -0.0362829176540032 13.7201143802375
159.00254935532 1.1042856474011 11.6237771452154
97.2302802290365 -12.2346849618901 -14.1433801251039
-31.4404692742657 -8.2755621415982 -3.69794645871859
176.101684192732 13.1755456358747 24.4580488761853
91.0404459275275 4.0431073633022 -21.1323725651775
179.90380083091 -34.8252458489268 18.555679762365
184.434229872674 9.58373157599836 13.2949240575736
-197.491610868997 -22.3966912555654 -4.99371379503231
14.8263555927449 -10.6715446431099 -8.79132794558754
184.874702989572 7.29794506587655 8.18097516068435
161.456503052752 22.8726193585501 -17.3145521991441
-164.463065458513 23.9542838023612 3.1635470323532
106.484539149462 -0.0580822138815926 -20.5298964828205
-195.010069397378 25.8909925026164 -3.58449779592316
34.6328848098636 5.13965178336054 -20.4581682278505
-204.877026996181 -35.3675541019673 8.9964027123553
140.241054790198 -7.14206204303727 6.84238669051854
155.599098409449 -8.18630816067335 10.7523029719585
-211.048835742268 16.8395664178461 1.10867010381603
185.987019120448 6.97443445955611 -10.219987902785
-47.1240717236584 -8.23937855415755 -11.3469279941704
65.2635342745152 1.27959028282782 2.77977760995766
-208.687214615236 -10.8540088065341 11.1777978378834
186.26073355349 -11.2277805804936 -14.9129671340363
66.3497451754253 14.4210812046229 -12.0168955886131
-67.242073713284 2.43248447477604 5.7676412700743
-1.74847593813236 13.2578104225814 -16.3228576949291
183.440433303815 6.31078337526726 7.93581171527135
-170.530141627251 -10.4039537077437 2.92763222178772
-205.289823571589 10.8340482919135 -7.9347568664325
165.320813493626 0.897099614790802 13.0695331873557
177.413557959428 -19.1127681306027 -17.5821937796753
-177.557927023332 -2.18429597068822 17.6440326665905
13.5192964444445 2.8395000709059 3.88017996278598
-31.4402476919142 -9.62970295112854 -9.11609032488196
154.952814407429 24.6815633928099 -8.81802927535417
-137.494336157615 17.3856961901761 -5.03159560838905
-81.3250366755521 -2.22137745644265 3.65321908154744
-230.057136644147 -11.3665548537731 4.00529934186086
41.9511805521684 14.5029091341613 -4.39318023131608
151.309738519295 2.15686571276131 -19.9902154756936
37.308937757606 11.0129507136244 0.839971174746062
13.7511935246072 10.7383733076829 0.735255855373394
-7.74748903446445 -8.1809425387235 -14.3783259771833
-76.8980200532347 -5.71262813684838 -11.2235636004043
150.386490968934 -1.81591871903289 -18.5708264038511
-175.617852479601 5.21830222114909 21.3675672766459
157.821679746468 -32.837673824738 -1.22113238038807
149.744985468405 -24.4937078577957 -10.1982509477721
-198.135056086065 28.26963386095 -0.650947661378741
-72.1042915912723 -3.03742417439911 -14.515649502183
172.366860676863 33.4378343769049 16.9540038247091
-0.514111405612345 -6.73954785965577 -15.9321575170773
156.695999952796 -0.396894523095436 10.4847972945234
72.6344182898085 2.42981835434129 -21.0345671162371
-202.640269861547 15.8060133429231 -8.76620753631662
130.871312600562 8.97496418739246 5.83890948620226
-188.700196984909 -14.8559591560035 -4.79143833888186
-200.199593572686 27.6606941769187 19.7741180245006
1.92980794967058 13.4456270588585 -2.6171922167744
-180.187077918145 -3.41551645938906 15.5900814676902
186.825351721129 -33.5259312682047 11.871216266518
197.462461689969 -27.3488713737831 8.49314451396065
182.99090970372 28.2289924620815 -2.95135804811811
77.7588997108544 -5.95235658003217 0.577114360639825
157.58605331906 -15.0092988910048 14.2238380042
-128.752404936021 15.7738329168025 -7.3193953642129
-164.494916768407 -8.27951148723167 -2.34104365771226
187.43389830641 31.536639919117 6.88576403185346
-50.5277382180362 -0.236886484312394 4.38498012338676
-173.766542253052 -2.83160593074391 20.1313095195778
107.635008270302 14.8125076505484 -13.6881153278022
-3.40765033491267 10.2641948506124 1.16701648565158
146.953579610316 11.6528933940638 9.56502438583424
126.58973159285 9.58824368865922 5.38900763608333
190.838231243954 -10.0138411715467 6.74438570710783
133.944069693289 -21.7489487146291 1.05958240937917
20.7193221338365 13.0532603469416 -1.7324607812321
2.77250711321542 -9.62329374605084 -12.9140788067396
-113.352795645304 -0.745631099185085 -11.6863832853967
-9.3640357597018 -1.71270697546714 3.04646848973405
151.172202227627 -21.0851568663543 11.3447400853589
-52.9587930790565 13.3368156687576 1.20225909972266
-66.0987777484364 11.3628074435187 5.0307407997219
-122.984753438962 11.7879674224382 13.6184461620644
-26.5677856704159 10.0455387315797 1.85666669720331
96.0426274958595 15.5518685102261 -9.71422596462993
77.594091664505 -0.211458837225666 -20.641220100755
-214.53233682247 -44.4969481965273 -6.38507379094106
-89.7248787391756 -6.18859038557016 0.178873486411493
32.0808258210165 -6.10629743763996 -1.44891695617876
-186.758910996707 6.48775172484541 20.6671185400625
170.091116636239 -23.9084562914976 -15.1842393137703
35.5042708853611 -1.51316112853176 2.41802574874663
105.20293405269 -0.455703871849804 3.35803393160338
-87.4933739082052 4.69265806263609 -16.5834701546294
183.094746208927 -30.3697666800894 32.1065870962864
-234.27009741047 -35.0825981644535 -2.48563137600015
-236.204616815759 -29.821900876614 -5.81531437481041
-189.415756290517 -5.8548621170702 11.8570100056362
-136.437741910639 17.7211622605488 12.390524327367
88.3190245756641 -9.64519133278553 -1.49585424518484
182.139011418246 32.8070116535599 10.778049013263
186.898431900399 6.73212367019098 -6.82291036111277
-160.418608733778 -2.83041965474191 20.6775204436033
125.670449908791 -9.39637945515395 -16.4209196479245
154.980075751472 1.55997529280467 -19.8867412688993
32.7586051319727 7.41851499815005 3.35916053009616
-160.620896452472 0.230232199513389 -7.79218091149622
187.015867253611 14.5285929525139 -16.1054346263913
-201.163554158978 -35.1178211054401 -7.89647550644994
90.4418133333938 1.29883664041823 -20.9898644532959
-149.971454118165 12.6551788949235 17.122996195787
53.9282804799855 -4.02712201037755 -19.0616038961793
182.381422647996 21.9360609210183 -18.9975783942423
182.52101371989 -12.5318610047127 28.8623172232344
-214.323809702133 -41.7289069102401 7.07235823909549
-16.6404131749996 -3.63206380252123 0.945038426073223
160.027328923338 -35.3807122420779 13.1373700212707
136.061253268594 -11.5594711875911 -15.6758310950369
-60.9693454113947 -8.2153200182058 -9.86532796433744
-121.094483879741 3.69495860705931 10.6195209227649
-141.166529740422 -4.25949352126691 -6.32505168711258
111.762927208159 6.75307722744163 -20.6834093061341
155.182269944409 25.9954490307126 14.1573510818546
-206.401532476662 23.7099190728668 -2.00415673931139
19.085914400735 -7.56775687289975 -2.71395033667752
163.368316833779 15.9226255240559 -24.4770843985856
111.80725728127 -0.937733539436671 3.63232874920691
180.676345729122 14.1865489536449 23.582006302258
-48.5164864530171 -1.00010502364313 -18.1906037387352
152.939645516697 20.3711398893797 -16.0571961320905
76.2288295289578 13.5956322576037 -14.2255687094109
144.042446228408 -5.14998587531457 7.47320494247234
84.3320220570231 -12.822515790912 -13.0828278104103
12.4227600180953 6.78123816046516 -19.9838981116929
-211.588360512312 3.09962664793891 0.144127194782645
170.141736623122 -11.9987611122879 -18.82598108263
-153.349954410145 -6.1117972877749 -4.73006612522384
-185.495654610567 -15.1228538083932 0.660400565144042
49.0945639925536 14.8073055815935 -10.033511573467
-233.102800961128 -36.6526825049555 -4.62989968391113
-130.94774957964 17.0746466123602 11.6034076495887
-20.45591862383 9.00820187145782 -18.9714633396102
14.8054821591462 -8.98748394935283 -14.0383212791363
180.789597672024 24.0106964841157 -14.7944963300174
-101.978822737676 18.249121850371 4.27627082868232
-230.029041872016 -14.8859454510283 7.91938233681869
148.456705161689 -19.0064020019696 -13.6941738388511
159.637469199404 21.1940234940268 -19.0774547833362
-202.983076458805 -4.67737017156141 11.3126772402926
-180.915788069261 28.3507201656815 17.3729863442075
173.665409962495 -33.602191075117 25.8104957186115
135.179071684852 9.80367496469956 6.47996068940132
-163.671994717497 5.56819797762228 19.9453195696939
-133.559926219719 -5.641706493604 4.89405365194016
-170.282105297331 -14.0544776082672 14.2896685990964
187.599520138287 -5.91829604537136 -7.99866915901196
104.953370811678 -12.7249039877298 -1.44985318528988
-53.3562292483719 -3.83502808520343 -15.5578472409128
-201.715546666139 23.7576058500171 -1.94362191636864
188.576368558119 25.2881140067604 -0.518282349955142
189.295947914459 -6.74948453240908 2.61212703834595
118.066617664725 -2.59505812573955 -19.4858050583301
173.644446054722 -34.1534888448664 22.8029457300333
-185.341354792348 -12.2725572463833 7.77290312646776
165.305644615357 -30.2983926727734 -8.08357614748987
133.37210599918 -14.365242264296 4.79905422970334
184.632562184124 6.92105320194416 -13.9224821874005
-168.298059184495 11.4552892869887 -6.22234994050326
174.238377646021 -17.2986922944594 -18.9459188874139
151.259070945533 -16.4779107779686 11.914377316432
-64.8789106510302 2.90802455652233 -18.3157985607026
20.4488867317109 14.9751301917356 -8.13317764996882
89.090677195106 7.97888895973007 3.69582087330139
139.380267884391 17.0953289303618 -14.4283337597086
181.623502687204 -35.3416805423203 12.598983495941
-90.7039884337501 -4.68833819000741 -10.7489996923031
-182.849747330881 7.11491911497239 -6.96113345985158
35.5516825806822 7.26379051488181 3.52624995612735
42.7961289868236 13.9080216948125 -13.4815480820115
144.264823405469 -22.8806888761658 -8.71499152873939
164.180665423903 -29.5355184334304 24.9061234186378
85.5827540648128 -13.8164370976805 -6.92336421657111
176.139327141316 28.3482055383494 28.5280280456625
162.111815393104 -35.2327330484444 17.6718444614004
-10.2938142251004 5.10612360135716 -20.1427872171819
75.7192733220202 13.863426557601 0.402386273857819
-148.709515757329 6.22781167722571 16.0387287951275
11.8157581679539 -8.32987325823808 -14.7132859350005
-94.2866364110311 -4.46857061655149 2.74539885337216
160.525594170554 -3.69915553458407 -17.9894220986798
-18.058545600383 -4.52467137532538 -16.9526529778926
-1.94167526670914 6.68398608675511 4.15816919924453
-116.24737792721 -3.54929826490533 -9.09557723783757
170.448584157811 -11.3014752756378 23.0669314408494
22.2096328697854 2.32041412741154 3.54710560561321
72.1982567235318 11.1508015252407 -17.6613344933071
82.3442230524028 -7.42994406127673 -17.1229503212253
-204.318204947473 23.7509130963802 22.2841930062942
-57.8316189801745 -7.8031002129704 -10.7380838507073
152.492164674624 6.65604734398015 -20.6351755436565
-118.968978368304 20.189411700695 1.10051033807446
7.11533467778486 -1.15007115157869 3.25560667076412
-192.863815013406 9.47735148367693 -8.29221301365292
16.2573580717325 -10.5545310187904 -11.0085586605259
40.8649598604963 -9.91893909244534 -14.1427589137855
28.147188340462 -7.6346779593984 -2.59136445648918
-183.813107998737 -14.1130902044336 4.21313346994376
-184.912429342434 32.3413030103339 1.20294200911492
183.308596820885 22.436159812599 25.396683355832
170.361431386201 26.4536939470714 -12.0493898404456
-131.379003422582 -3.19276321690884 -8.04560327943601
176.577399797884 -6.91051575666105 11.0747702191395
171.989394404546 33.9223440360094 2.7695892629131
-157.424343701547 16.3714917785309 -5.41989972128222
175.931979636657 6.62879927115811 13.0687197799245
-213.792695872405 -34.6965908440856 -19.7666202150659
15.3790383411533 14.2553901770304 -4.70054293041104
57.7938857568919 -4.75755512459675 0.601751918161379
77.9787472340612 8.9763706628706 -19.4040753706533
-113.186915899689 -6.27222134401927 0.445009839374971
-151.934971340702 -6.36750842086295 14.2128969406058
152.482090747199 -5.98239546654685 -17.8894431180665
-43.8833441451678 7.44023325465073 4.95475290456626
-214.495978737619 21.2913788016323 4.59924854757263
191.374087597407 -13.1143204683085 17.3366032162365
-62.2455144211013 16.9109585663492 -10.8844083966683
189.774241609899 -15.7905569264402 -11.5897816584973
172.023663989308 -7.4152846331936 13.7506674505746
85.3023129275225 14.2354253682851 -13.0916905879839
167.117086465773 32.2090226428044 -0.566707841656631
61.3248642423378 -1.15082246111206 2.22645856971704
162.992253312421 -23.1411064763658 27.5236035116903
-33.0448657968651 8.24503351824353 -19.0406290284564
172.838605942908 -7.45799605843393 -19.0226838857978
152.751320623403 4.97697980881435 9.21512260291907
-209.340582200318 -34.4735729991626 -18.3875527989921
-199.113535422215 -14.1798657615881 9.10613394402556
122.388086850988 18.3406343984925 0.903000311664986
34.1236818000496 -10.7962611494193 -12.8293019747072
-199.596998738196 20.2157288009885 25.1618194153955
-221.123000401454 -13.2301650556494 -18.5185168736103
-147.353473945114 21.8190674268923 4.83235443493202
-47.577800460947 -9.14870944349013 -7.72272298498852
120.358142849082 17.9745997486951 1.11663795959845
155.627777202248 -33.1102433309573 7.65596691856221
180.254806200514 33.2225357446482 10.1935587496162
-46.1075282637912 -9.1674376036514 -6.54855820670215
153.605337403879 28.8191218489588 8.03464809844163
179.271597179763 13.6288287259789 -24.015226917677
-155.987005844332 -8.50917918038034 9.44836019078137
-85.5056411715787 8.16055028231929 8.15451333419714
-164.30047230556 -13.2181078547712 11.0678193818642
-201.590263852652 3.97168044775075 11.4539121269827
163.139344103542 -17.831186709197 26.4135704280497
180.713326385461 31.3134708155641 1.72473063757017
171.418595304303 -27.2901060502415 -11.9251489982128
3.6521498119566 14.8029281773492 -6.91873761412811
153.273311352924 -31.6284287206987 10.676441476626
144.863173605787 -10.3980145202297 9.01019558748396
-182.09624267715 -8.37231605090441 11.5826427078532
-189.251092005002 12.9477243355272 -6.64129877089099
25.2006882275607 10.7861506437952 -18.0628668219851
-175.593325192524 9.28683045703797 22.2187098781402
189.926488583061 25.6127643287256 1.18253839414698
184.225871835845 -33.7330985140053 19.0160028080107
185.240766514839 -12.8722292879365 17.1708122495675
-210.735493200125 -8.98504050918303 10.5518246376765
47.7458423989567 14.3538036461123 -12.142384372823
147.622508912008 25.1071959155788 5.54086362485305
-20.7852630754892 -0.832383597764273 -19.2254928805683
139.284030160684 3.25307578057642 5.97778064395712
153.923334689731 8.02531122755964 -20.9187631955772
170.090012797789 25.3711963773999 -14.4348388658361
6.60162785020461 14.9181398536538 -7.80881115553725
-178.73606120685 0.266467887598242 19.1367726511649
-168.787074886336 -7.23085432359388 21.1949895084385
183.839959328472 17.2678048621548 -20.9131689632377
180.586168026707 10.1765167929284 18.6382566504357
185.265848699627 -24.1310980513279 32.8553628946877
-39.8697709248251 9.49456231984444 3.03814017071814
-50.416526818772 17.2403763523027 -6.51819437484075
-86.7160120384462 1.21512216306659 6.17257189901213
-197.367536901672 21.0322163802984 -5.92308985391318
-202.267200454331 14.9844579262665 12.6178881176644
-58.3631608981959 -2.54622105480093 -16.3948266933024
-221.280587422769 -23.8644892873736 16.2443428828761
-197.246856142322 21.6380780782291 25.1196950993234
-31.8109885780754 -5.70611346107909 -15.3278820770547
-124.917099893645 13.9891263370908 12.5800699184864
174.647189506469 32.2639197386293 -0.0250475071557571
-204.987117366876 22.6555014995847 -3.10319193303893
-178.380779775541 -7.81581682192794 13.665244085099
-152.093154450666 11.2058309664565 -7.77586967467886
-217.739704962938 -4.11315994561861 -5.3957848424751
159.574897894489 18.4759513183558 23.9123288448212
136.608262887621 -22.4080276638846 -5.61231876541842
186.8147540134 29.9203804740995 2.69582973926775
161.094362924461 -11.3968390866199 14.4373585583336
36.3921779532878 -2.39906536388922 -19.6423992528551
186.722873407407 5.14967227592049 -3.66658653875716
-190.646121244967 28.2086643024617 17.2709223782059
182.553335074464 -5.91333832540089 7.4102326392589
165.895064077728 -36.7919680567848 14.4413426027485
180.546653963222 -28.9819466665138 -7.00835272566752
-214.604716512055 22.7814071254334 14.4734298458652
-38.0033880073306 -5.47906050326849 -15.0928350372468
143.112723164573 14.6697589938183 9.260061579342
173.760964738599 -26.3311322019849 -12.1915872020222
164.138235199999 29.3381441244055 -5.12925129871194
132.0524461159 1.17787914350364 -20.2044106879548
87.1690728586317 -6.66674578296353 -17.6787403560174
180.28247698 -10.4015468060837 -18.9115432430382
176.2955353683 33.8531621284376 11.9819710848348
-177.763217404515 12.8215188851109 23.0328873077341
-214.572481564867 -15.8914436796574 14.7142882247765
-203.115217860086 -7.20441651004152 11.1511842784651
-17.542618201452 1.99709570612102 -19.978912832211
-51.7411107368112 -3.1322063362995 -16.4170625349995
179.693791289627 -31.5666275960688 32.2097196069473
96.8930414552188 16.0720345725174 -5.28985664584241
-97.9250029264636 15.522357415 -10.4607160981763
20.3472000727382 -2.55338318229009 -19.3743515439412
159.00617961273 15.8584986306158 21.201927066327
143.974148782194 -24.9780889923411 -5.33467688864316
186.13724477099 19.8595757131974 -17.6307556207445
-215.527234886685 -16.0765439456021 -20.4529094282303
-153.763812963568 -4.19096909478142 -6.7019125314037
186.799059478039 -1.0004085378746 -2.04043807603267
172.311272915473 9.27313141219751 16.9892008991132
-210.861277060863 -2.24492222097948 6.73227839751611
50.0823594081329 -6.4619414122924 -1.37671657437673
149.532285382165 1.63707328539869 7.98701158445035
180.61679740314 -12.8117044787428 18.3811702068762
175.23130559889 30.0057061581951 -4.33289467496085
-186.472718452368 28.300155660342 18.2231386378173
185.001477998578 -11.7045593517702 11.6100521381957
140.779793198863 -24.0644568142387 4.02930739638057
-15.0130414729651 -8.57507498623725 -4.31203481473792
10.2248333957176 -0.520809859035333 3.33614881168722
133.833836150597 -3.20724249313781 5.16192383416649
-77.9180731604681 -5.88689431898469 0.196624749971179
-201.586761604133 -29.1841939084468 7.05539866604168
-182.755771139764 31.9944327089699 4.1121114034746
63.8528565278762 -6.11195933082591 -0.255459820168135
178.502311987115 -13.1971665334503 31.0199509315433
4.7049965448547 6.44430699055499 -19.9801202415616
-216.461305933848 -39.9887098084535 -15.6024490889072
-28.4080235702901 14.1258984580496 -15.2935836879751
-113.28600938398 -5.28635066249492 2.9964758401912
164.552821403257 5.147408858961 -22.776153107499
-236.129982876624 -27.6780816608441 -7.86437561473096
-216.61280103239 19.1538247439311 11.3545142317487
159.619797660621 -10.0169603056292 12.9063533858999
-193.446833695303 27.8467177034803 20.0715780195415
-14.6757984636331 9.4855172131511 -18.8263013754028
160.460595147043 6.59012392611183 13.4672936422095
82.1028470018141 -5.33082585182432 1.18163079077437
186.313392606835 11.2734694409468 9.83459306550242
-41.2619269734559 -3.47954371434298 -16.7830518035554
160.459211583393 29.9076776529309 -1.18592967795454
-17.0008895778308 5.31582897953517 4.78069117698127
168.344865913078 -11.4324133201234 22.4736612092685
118.998476394167 6.56418492561093 4.63693560898752
-95.8069827659803 5.78031612002121 8.5187831923623
-197.106725715444 26.8362538093671 -2.04251446379879
162.148537146236 -16.6662175280622 23.9136642570883
149.135741722863 2.39567922330673 -19.4122601981487
152.410581806591 23.4779767529661 12.8278148603056
139.739723042758 14.5063071951149 8.15339486852712
157.705877307662 16.3110579486001 17.3517017366524
125.810489976303 11.2031303088169 5.3721015655494
-167.944754581672 23.3506749035798 15.5592872747838
189.31006855436 15.0433214190604 -11.4766550076704
146.512244999317 21.1718189155707 -9.90594499379355
-31.7707097916007 6.59040977562597 -19.4495706466624
0.849016878593815 -1.00275652246815 3.5930144812639
-101.853965528748 16.1823042592291 6.69600068216571
-199.62261563297 -25.1727354354709 1.80292006145085
-16.9237196049801 -2.25303338156586 2.46940264301255
-62.7022713900002 -6.8531708127279 -11.404211807887
172.247113581288 -12.25274168116 20.5861240264542
156.260911663236 -9.17016928085911 11.3735510134692
-85.4989104981357 -0.659504702055278 4.99677743769521
-167.64526099894 -9.66397324617379 5.68341115249658
-141.001624856788 2.98615264183842 -9.90721867017042
159.075523185683 5.97492173990982 12.2519212540333
-210.386291893283 -13.0393108610156 11.8161692553663
172.96408360759 18.855492115839 28.8584958615988
-23.7745734545405 -1.7454870496658 3.01841459813805
69.9928612347171 7.70794303954719 -19.9911578434692
-18.0622260428586 15.8683877677359 -9.43991963632054
-187.538877573979 -8.57221715707674 10.4988650809661
144.560041151462 7.24963770808121 7.60501020661958
9.92017311253513 -5.90941936998972 -1.22058415970047
169.376686564686 -5.33011056411633 -17.9643739960876
151.795296211902 22.2113313388857 -11.5946804096272
69.4195591086852 10.0091045007764 2.62692653559545
-210.10384477707 -26.5637712091792 -21.5212080623242
-192.901879966758 34.1752773636548 7.63468261108728
180.165409612677 34.4284651386105 22.0848240700592
60.083562677106 11.9275854123767 -16.8482334882885
-149.184453991459 12.3652024243114 -7.85800045016834
-24.0765120918473 -6.91546117341384 -14.481833526019
27.3091720786843 0.390164323079504 3.08860149831007
-203.618148509303 21.788272683285 -4.11142822997492
-133.75190434484 6.3577335902241 -10.9442938817587
146.342112803566 -13.8428470971531 -15.940596470013
49.3005068504542 9.09451527663998 2.45836474895547
180.570304422104 4.58817879290277 7.32248213833858
121.094902039018 -3.51440831516748 4.05778755452701
-13.8973565292306 11.1951023149656 0.472906935021778
-87.0829570251563 -1.04494864032461 -14.7205309231634
-201.817746035058 -14.9925452448398 -11.6667896926412
-57.462914731447 -0.399330538864377 -17.9154310447343
-218.648828330501 -12.9020102254826 11.1149652278893
156.972074089032 31.129369481663 13.3897824182005
44.8663098062056 14.3576468015628 -12.2173908598077
-137.697683620327 -5.72084381212125 5.81121184499063
-197.364558654835 32.6114098074756 1.55180105898267
-0.7562954739601 -10.0549388795875 -11.7246962169197
-111.361199297719 -3.38911651907639 5.37639906395291
177.135403399942 2.95653962122604 8.36705415427216
-189.078914197813 -11.6929727530933 8.4702945002575
-24.1853216488171 4.24311264362004 5.0908240243215
-180.722007821632 6.57451699245592 -6.74013194106153
-87.1800175286445 14.0327988434276 6.1310615218805
70.7504091438131 15.332003464649 -5.99489829738753
-185.760291529496 -5.51823690296905 12.564863618353
-190.212600545052 23.7264632573842 -6.19517795678809
-5.44335569867272 -4.51934793262461 -0.0162127249897596
-222.554597342724 -13.7821487598196 12.8263967830859
-208.540901172808 -13.4026084310048 11.5819192687085
7.69556550868078 3.64322726599559 4.15689954256073
31.8351209077666 0.29096765158993 -20.4435956874783
56.6474488221321 -5.82568503964044 -18.0174755863865
-108.971076654612 -1.92376992355128 -11.304093384257
-6.13246214930849 14.8685433993295 -13.7549979135618
-215.370443495201 -2.86810534784788 -1.79474914422398
148.224345554172 24.261119782482 -1.16090679171089
-4.74698775238925 13.6756197560579 -15.974274264927
6.27824018906986 -10.4391034948228 -8.96238113380339
-104.427293609796 1.08642376023467 7.89127426817918
-161.978476401983 21.7030874766935 15.6541023871096
-219.582387369554 -9.60910606317757 6.51779987629129
61.1586438329124 -1.43842845809259 -20.2231151583439
166.558690609209 0.248004052352616 -21.05763008436
-191.6726384063 32.3959997826365 12.364354261678
184.221578716458 -34.3174078682412 15.6647557944377
-211.250697034958 2.06915311893281 -6.03058039866527
-198.668207990941 -25.5524693107362 -5.08694377697662
-220.009415997513 -5.90164406016664 -9.42507626622888
119.528625916869 11.3229696914915 -19.0028877317832
157.06438133896 19.4808816458397 18.1285680498176
37.5112575607942 0.603158573175268 2.8882501248853
185.2353650487 -34.4462496725222 11.37797657175
175.951785527155 22.870697395047 -18.9583044427922
170.413608654195 -34.9593019313561 0.334396516938968
-180.667622566753 0.832944643175299 -7.8718001318274
194.181888988953 -16.1948805410395 -1.76015999314307
158.278250584568 -4.34391492466207 -17.9231953460734
172.695034039282 21.3648831381452 -22.2700113326608
-194.4139289251 8.29676577401799 18.8886652681651
94.9032218597586 8.72322026576085 3.80000788450126
123.81316097636 18.5691765641555 2.36672501796704
181.96367994588 28.3746358216734 26.34464481459
59.7181614523843 -9.44703948117288 -3.64762616768068
172.162069252005 -35.4147914945903 19.5391482201298
169.582401236223 -35.6775539210522 2.49280718120405
-214.684687064152 16.5245634970569 11.3741577491655
175.759028207392 -2.0154064548587 -18.338861931727
-198.107217844907 -16.885456640267 -8.75309139058179
7.25137993239889 -8.5784756486356 -4.26860698862238
133.756056933942 -17.0406406177765 -12.0313690642938
149.495627992096 -4.23027775060737 8.18370059175805
-216.354091327371 20.9983197674074 13.1211022671661
-171.956824448473 -12.8495880302889 15.138149025906
162.752326631444 -12.520642431314 20.0869612204629
-31.7791536214181 10.9765361807599 -17.8050103361239
154.850832253685 -10.0113395256785 11.3994415345628
194.654856803711 -15.5119070458235 13.120081241141
-179.924711147255 -2.41575524077542 -8.8555167500722
97.368853352716 -10.1992552856178 -0.802282184316176
-163.223672800918 1.16755079080329 -7.58463636587487
163.854717822631 24.7464206494387 -14.4171897449272
196.586348229694 -29.4625875086256 12.2368943563762
-179.192919067629 27.170740957952 18.029351067611
-39.0734750738339 8.87583644646736 -18.6410579218642
-45.1737831174438 -4.28552953701119 -15.7018653544396
-198.251248695388 -3.86070430893142 11.7269338968931
-153.713769599353 -7.63269331408991 8.97256041950371
-21.4578601270893 9.56539964956204 2.09270076047497
185.99870025619 8.58374543002904 7.51503252401326
65.9227051883521 -12.4608538938944 -7.46745147983502
174.280551392045 -28.5675097285185 34.176606490034
18.3176408803207 11.1218762351033 0.41264182721477
-208.817517637712 25.3475766553214 2.10431631099686
-175.174400122406 -4.72450043755916 -8.56708577679294
164.738951826666 -26.7008198923082 -12.6109954211346
