34.0446389379664 1.01796705525616 -4.49296443775414
145.934121052263 -12.113325416336 -7.40498708639856
-203.75437599044 39.9250570824687 -4.80601981982023
-41.0651101016068 11.117023811085 8.19080467129122
221.230783572712 32.0589694939903 -13.7998150398994
99.8172137495273 -15.0813335358681 8.52234315466129
-14.2284480268168 3.40811192454997 -2.16614952093525
203.555754401476 -10.6415024376982 -24.2992047122879
126.831600726159 -15.552703816776 9.24876826307259
164.954584624955 -9.78472775161152 19.155954176784
-152.968090712559 8.65831070663941 4.01010662338379
-222.540863890639 24.665267681338 -14.1874454065454
105.291618661577 8.71830364647766 -1.92477128899248
-144.025642840649 -8.44461868159132 9.23515380517005
-199.222394407607 -29.9587993795253 -3.81340913226196
-78.404611012282 -2.49380096233498 -7.4019348458676
202.872975269252 -24.7522479298162 13.151150453898
226.225334553942 29.2009886736834 -4.4635116517967
-196.966306725218 17.2368311505944 -10.6910421763557
-2.0327336039324 3.70888474410964 20.7983301930292
181.411131243157 16.5151528526277 14.8249059032782
-205.772229128424 -22.1344495218738 4.61774960177137
147.867858461826 7.04199052170722 -7.06198538852427
204.365209869908 34.9011475643494 -14.2984699245951
149.041521547131 5.25323024543518 19.3458274549337
211.549016672114 7.87880361312564 -12.5041682829969
27.0461923739327 -11.4965792907811 3.49977768164917
-157.882781441401 -15.774618606659 7.00452933358233
162.525129026991 -18.5764280868475 5.02745194760963
122.146445473885 12.2823985529138 -2.36751931947182
185.549286416124 9.901834149083 16.8742777342363
-213.623587016116 41.1678942028124 12.778600815332
195.952804753635 -29.5352313352564 -21.0589678344681
85.9165409651997 -8.68520464807967 21.1860447981245
209.564281475835 -29.9703911070068 -10.0534482854674
-223.141652821735 16.1485677712123 -10.0719027080249
166.907221644215 -14.577795873478 16.427351696599
-206.191437071107 -26.6045980236049 -9.56058282036301
-224.403223981078 38.3950790946005 -7.22577823518371
-98.3388260229712 -6.45625850707449 -9.27991705996305
71.3450615948973 -0.60772442214386 -4.14511743195245
-48.6471044881112 -18.3522845669417 11.8177367945322
-196.900222958145 0.71275838413056 12.1148308319155
-206.280905073295 -2.52156287776371 -3.90403024355252
89.7463382937942 -2.4797090807938 -4.7948888065615
-130.201326701086 3.76227252103396 -8.50819104561716
-94.5789596818772 -21.1421876289603 4.14412899048078
65.6312772679536 8.63525321575285 1.3115198954663
175.938796737297 8.18339775157751 -12.2955857012984
18.6625974774412 -4.62723881258352 -3.46813648321855
164.17984006925 5.23224423735843 -9.272906892964
-218.055629807274 15.1713038606377 -11.2859919115253
-207.084236430958 -9.29322089657995 -21.6386592970136
-204.007428163803 33.6298056521602 -12.0481159026818
163.717473993279 6.52278925613286 18.0578499384129
152.529908600288 -19.2119548529695 -2.46213072553674
-174.524115489816 14.3952464663083 -12.4071296837923
139.849376688036 11.8284341809383 -5.47663458608527
-210.537471095218 1.5876463970545 5.4160682010277
193.076852233827 0.784105382384266 -16.905502687106
179.46743247151 2.94419942126936 -11.7029102577786
191.820865977005 24.3175829009614 -23.9518370853169
-203.775135964871 41.417455159197 5.22474615732225
-77.6008618841304 -20.6362893016864 5.64341510219907
198.009366886335 -29.2853549074566 4.39043947097589
-149.290054671773 6.63864087188363 7.29493761302982
-205.871645990327 -7.37815398463003 -5.79984706591843
-137.282618612773 -1.36887655752917 -13.634030479135
201.198009677143 33.9550159644307 -24.7251273270677
197.719138964022 8.0568674108046 -26.9211570879594
-165.299025878988 15.9360549834364 -13.2588160558206
216.06634374626 32.0594740458044 -5.01527218532995
-205.77748100341 -11.6517990555582 13.2566115019076
153.733141746194 -13.4684816524975 16.0009679037269
162.03650986337 -16.4089894960266 -8.25159571667949
198.164384487823 -14.484692329154 26.7772461551698
122.647039591696 2.76835722957483 21.5011895990474
-212.085702449712 14.8974929782812 18.576965339374
-199.150197738002 31.3475318155246 12.5410492982935
215.81745433217 9.96247039300216 -24.5168190555621
-169.245464814494 11.5658545987197 2.7780580281388
-193.883890873348 -31.9535113219114 -5.50375955692795
-167.281102066629 -13.3961804309644 6.90947953170997
224.870065004248 17.5286041019527 -3.77041709200761
-231.530321205397 32.9104372248834 4.20317967091579
-191.437972499682 -32.330383411174 -2.31742734145845
13.8286365635704 -4.21758678658313 -4.0491654268286
-92.5495733472569 3.7282400326006 -3.45654580457252
195.773609171819 36.6158704996658 -18.4529995849817
86.9859741958667 -4.35763691621444 -5.2525634952787
-26.3658978170615 8.28991572779998 2.9377373063488
-19.4809948821415 -14.6213680267367 5.99134318863015
-70.7594880609369 7.50582457604173 13.139207036379
-200.565746715294 -10.9007233794744 -16.4101715703199
-165.323617475914 16.2070834701735 -21.2707100669372
204.903455885396 -28.8218550757135 5.17675621315118
-227.34477104364 31.6501168636234 -9.41018384587416
133.686910219059 -14.6722878335642 12.7376974932543
127.426252634084 2.0959927022164 21.3047507953204
-197.710509644996 34.3008913722094 8.80992723074172
-70.1893794729834 0.627906561782518 18.415926249661
122.44777795372 -0.456646304145708 -6.14261561867818
-204.066875418668 11.4279230117141 -9.81367691488096
203.58640419596 -6.11073987113422 -15.7558539757777
-187.253490539842 19.681969105826 1.08026562415943
-197.908223411215 -30.1829413243522 -1.84418805511944
1.75017442370634 12.4176265019163 12.0801652409891
133.293563293734 -5.40984096974174 -7.230228892784
-170.639108021425 -4.22295755518121 7.49145319783513
123.714317718691 -13.2716418673604 -4.54310520103763
-158.391980810506 -7.47574985922522 7.65861785118525
122.979832412376 -13.529927959063 14.6685917893166
120.584874755712 -13.816624702209 13.9570141825348
-55.0605410998826 5.58285343849393 -0.50597532397554
-21.8192614853553 -16.3059537506422 14.6793008484553
195.853886750493 -27.661407746413 -27.3043685762129
-130.95480626509 5.29619773093372 8.93332503559686
188.392016000626 28.8446752238125 -18.1205531937304
-7.04945411181657 -5.78703305649365 -2.91775176767108
137.322236889567 17.9272939004302 10.6287005776569
171.410537167902 17.0855922608629 -12.5897489660303
-199.821848932008 -29.2987086582873 -1.78483059024521
218.100027480184 31.5061575561053 -8.97735539460457
199.986182564308 4.16738751376202 19.1125028805452
70.5345519814334 13.6897412789044 14.0435609795179
72.272070639283 -6.74628144088739 22.6452545585397
217.210276065828 -6.0992892578063 0.102608268168523
-220.745402228859 43.5978439638674 -2.21940551298454
112.285058519614 -13.7143389961207 13.8393016397552
117.818720626724 -12.6529774493245 -4.25391031965364
214.160566096959 -6.51244479410777 13.4929723031608
23.5738451753607 -5.09941441952135 22.8686201702391
79.4557707020334 -13.3353507149441 15.4923575677078
-185.11735276709 -2.5676621433083 -18.5188271691295
106.509330227511 14.3723992442784 16.32960856352
217.866449833686 18.533834476881 -29.2287637138596
-160.158561993359 13.3135783343947 -23.9066098107102
-88.3906619736669 -16.0472998912861 -6.2629402416989
-61.0684659769349 -18.373981713139 11.7425206929451
-199.216225009922 19.5972782464081 12.1150756595563
-93.71055896281 -5.08999660980666 16.3917900208865
-174.972404338004 -27.143601918295 -9.29531605462516
110.355310945519 -14.2670120346755 12.6221487129881
-208.207716293143 30.469459684592 19.9860502768081
58.968242192705 13.6170469929637 7.75590009118827
-152.832708044397 -17.6122874042116 -16.922278706097
-101.260404615821 -13.9322376754332 -10.051120090108
-227.311743503117 17.1689145332092 12.8531697367484
-66.4662845823564 5.87405726778543 15.4133815997405
-87.0956983887942 -0.175081754930613 16.6686563200353
-229.118169796189 15.4893282708051 -1.63951036823935
191.571427665097 10.4111563371074 -20.2176618722914
80.2772212283506 5.49629848403672 -1.82723117361882
165.812497768066 -4.26189971844248 19.8293274880377
-75.7125425715626 8.30566152451796 2.74038932985857
202.346747071648 32.2919564128224 -30.7090331037841
-29.3359304492581 -13.7432306329995 17.5524243851583
206.219330334522 19.5226112133687 17.1923032610536
-188.228260818864 -3.34474005027523 10.1882162682811
-217.614618039975 32.8158685707372 -14.6385250134629
-26.6210437262283 10.7035255505852 13.8355030955784
-209.445374558576 -24.5401726993647 -6.17078656130997
-144.057091175595 5.16810837990909 -11.7987803846251
-85.3106835752702 -11.5532137720267 -8.93037025653384
-20.1446159438916 11.8779323479152 9.3239015486913
5.32662619172837 -8.04237960165041 -0.404976311578599
198.172677785808 1.73121886423931 -16.6502536020472
-231.526868164653 21.6682044237008 -2.83858713298936
-93.1540849185708 -19.4937133325882 8.26413021140065
-123.710098089772 -19.294314502004 6.30189876229694
-211.480027630257 -10.8271531342021 -24.5214465844498
215.811486452848 -25.275158279326 2.69121651559266
-211.681109890187 -23.8130236558964 -8.1093337617892
10.8836926746983 1.2397970348526 -4.84498545448142
187.687464954216 32.4583301168952 -8.30710099951587
217.59825625415 5.9358449295625 2.51977243987231
187.735576988318 9.39805298922989 16.8243653798842
69.6426607807426 -4.0653417413092 -5.26194717503163
-109.916452978401 -11.4396961722429 -12.0635936695126
201.065767042022 30.8079539593398 -34.4522584576238
-137.200205895005 -2.05758211652514 10.1214934590842
-73.5321482478608 7.9920045370366 2.39992566006146
-201.945901968314 -23.2267423285282 -19.3056896245459
219.498011273093 28.3224304154721 4.08727993200726
-134.189535716739 8.0876433221962 -0.633900903024948
-33.4034471098769 4.8525998263474 -0.882561518139036
142.382970219399 2.02240301094779 -7.38828000309524
-208.212162926215 10.5060930464513 15.6116799579288
-175.488221771586 -27.5332403193468 -2.62304147759188
-191.458965327904 -14.355794053263 9.38653317403853
220.319595230048 -24.1400691709891 -6.33399092618776
61.558738633904 3.6754157853422 -2.60462721940731
-140.606277431992 -16.3823101480881 7.52338703390474
-189.42028494182 -31.8785087686791 -7.78048375449488
-210.591832447052 13.3839636024989 -9.36489505254267
-195.292999843756 -4.93727351279464 -12.0301744215904
214.313812608371 -12.6405959248749 -19.0835210088949
176.652457248681 -23.2148465854067 -4.77480349752783
174.229795759952 18.8586547726627 11.7881224910478
133.779217951236 18.4524036412371 1.14386252133694
143.590350441223 4.67102797261999 -7.04574250902482
-208.935581430999 -5.5568589208038 6.28242003565107
209.449957584679 -12.1752129629442 -23.740142031722
-219.261721874811 -10.9675616705487 -14.1315073752896
-182.016725213446 -29.550434990943 3.64721526539697
-142.331603665473 -6.76293429446297 9.42187475642396
202.131683475378 13.6515443662292 20.1323064776603
-83.717560994514 7.30612495605281 1.18189458046848
-21.1938460649108 10.7366707295992 14.324322666949
-131.952852713267 -9.68890838608313 10.531865220231
119.24249240814 -14.9991407621907 10.7279730406005
-198.59604370263 23.0215445212691 12.0875401819553
179.023436539064 -3.53246469552147 -12.1055391509333
-196.524055233186 31.4238934861869 2.1599017079355
-116.04784117609 6.894629122904 8.41988935960604
-171.066531050904 14.4327835504078 -6.376950041217
-110.985601266356 -14.2650070830536 11.1094740456149
-195.289354296868 21.5078188266676 7.68092366457858
-209.83167679957 -24.1004694249516 -13.9184658555948
193.598316734287 -14.0529159456657 -26.1985055625283
152.92970618226 22.2558505392721 -0.640321702321256
188.022701597561 -28.3876842037211 -5.63041480816079
-200.249087371104 18.5199960242019 13.7036930396098
-228.510037829871 29.4464004710321 13.9525850308396
-186.007180543588 11.4978304791823 -11.8613063373575
153.585711637549 -7.28585331182736 19.9400750973507
106.77725559924 -15.3288859237473 6.47693006729585
-205.758797107891 23.9824280429524 20.0387874064737
191.643542100825 34.9936094434123 -12.5171039028726
212.711151396963 -0.0764826028870166 9.44079156511329
-187.308517496284 -13.1331181105646 -24.0493238003006
191.778190738941 -23.1418522953941 15.886342806094
-96.8570333387454 4.91460655330722 -2.23167267817327
184.331226658467 -12.637572671013 21.674940920232
-86.7482632097167 3.51167530945122 -3.57218897648703
190.735412845696 -26.5716694912829 -25.1168464713785
-142.892943171767 7.56918203185539 -5.09961594800702
-201.445451258188 -15.4824121016826 11.3800240066338
205.683534750016 -13.0226920139684 24.9972734395881
207.137053254096 34.6254790708801 -14.2177719166669
-224.234677129506 32.2112432572342 -11.9513483185073
217.908233484606 -23.2502141767802 4.22247209873645
-150.461784572552 9.03788810209691 -2.73333915497785
2.54117686528732 -3.06136277253344 22.5669043344861
-209.852825568683 -13.6274769969253 10.0877433061782
188.056598376198 31.6802523317952 -15.7684929894319
-85.4891548875548 -4.97630053456111 -8.11696246275549
-200.688540565022 -27.7855622613394 0.742648163724064
212.053435429817 32.8291030091953 -21.66651041929
-74.2796132944838 -19.8673260105989 3.60426184426091
213.704500503629 0.198402715610975 -4.27444043044052
-95.1842584560716 -20.2822106637107 6.63394749196883
200.136442102353 -8.2838688134602 -20.9264946315684
97.7757339047962 10.4816010405136 20.6762489090208
-169.339692425752 -25.0417538946406 -0.320931847753886
60.8940523461722 14.0457081686066 11.7642638163116
-163.876511091881 2.68035059884919 8.16468074779775
-183.033064797372 -4.13675167253838 -22.14968697505
104.104466616175 3.63016573444583 -4.23636011693389
-176.002316367381 -27.9469495858805 -4.81957921587152
-194.990493964755 -7.4165594981248 -19.9873121334938
70.5868398097388 1.56910961919363 23.4229009945517
189.892162098208 34.2504936132826 -14.6729927353137
198.072773532609 -17.4591989799306 27.4759675487699
35.0258015698569 -14.1390949744684 15.9523360753803
-126.850757867583 3.68195032697767 9.88360703748007
-221.809507716667 21.030699917182 -13.8738264903395
-212.492262366609 40.123178813497 2.64436770025189
-212.108127613869 -22.888453889397 -4.66637153729135
-202.911545130707 36.5001484455371 -8.97051188622595
32.3684233228408 13.0993688307527 13.1743283976481
-80.9005065522828 9.54825416340189 6.77910914006286
-41.4846874637719 -12.1141587091861 0.242722676395835
-203.969731190784 0.417533749084982 12.0411559973448
-80.9163207181109 -12.614785582412 15.346445378224
44.1504557840727 -13.1742821581803 5.77109325501561
190.158257720413 -25.4997900556367 6.1249452170498
-152.913249588158 9.40456848495945 -1.73364856365002
-59.4171351322596 -8.13714816302433 -7.10487651468064
-203.91753794934 24.4839279512303 19.1397690431635
-107.947705168737 -2.86683284073639 -9.64409572275533
113.112989098599 -4.06951219877525 -5.92010847182485
-208.259007486346 -24.3000910764992 -15.8183299160368
213.119951498567 -23.0000944717452 11.350101492237
-192.480157560611 -6.05973970010816 12.782104284799
218.08284587902 -12.0768233316681 11.2880652522799
-216.763168025381 -7.75205598438889 -14.4300450899264
-0.396524548706369 -0.850945722174725 -5.64677501330964
89.627443386304 -10.8067164388793 19.1467356665082
170.602893807852 0.834503143729324 18.9817413883367
172.458040635228 -19.7368682102918 6.82926667226682
19.4952976314246 13.1060630406504 12.10141796415
200.312943898371 -26.6965233637598 10.1697742238292
-186.011234587657 -8.71838920269937 8.5592591750338
192.760725624896 -22.7364060408459 17.4767268762815
157.306404278092 -17.0067702477819 -6.6727007332995
-11.7542693412208 10.1812823813319 4.65865538562334
18.0670256758017 -14.5300110752574 15.9699375920069
-2.98717643937673 -3.40321209859031 22.3510297712053
188.141108832992 17.5301810202094 -23.1356462339202
191.029313616999 -12.467174683406 -24.3178856617811
-172.293720174823 -9.46006510787075 7.06934739087204
-183.897147269429 5.55648361841911 -14.5096642407017
-165.563722664084 -0.417160322385752 8.05038530259303
-69.2192348772171 -9.84833161183811 -7.31853358448393
-215.932114478721 -12.028341491204 -4.00426459187146
165.127219446266 14.4089724705815 -9.91131047507636
71.7321544311275 -12.9137531661318 16.4602954624635
-216.388009129609 16.8715424844586 -13.8461058598702
-81.1952244444943 -6.70907360509413 17.6828031079513
219.26411668694 -28.0817173143608 -2.35772898089926
118.567793602831 5.191702546111 -4.84247198695104
-87.9237720821778 -19.3282007417643 8.88368844820398
-206.782837298664 8.8348998331704 14.7895032422909
222.118806274107 23.6244073134437 -25.430843086245
95.2581171972086 -14.1561252851998 13.0331474825995
208.078963829667 2.39157636045705 14.9454850199728
12.5963436268566 -5.7031740357331 -2.51081835394077
98.0364844264279 14.8500680224411 14.5696922140119
-148.936682609681 8.9745454484508 -0.946106880378491
101.702463674516 3.67676865297629 22.6210132208849
-45.7062361137939 -8.80705619150941 -3.4929469529228
205.720677033829 29.3447081613101 7.57857735947958
220.429035074205 -18.1366143766747 -5.58827220542847
82.4128697371837 8.82252039952312 0.261653167519772
188.390082548656 -28.9726847727343 -9.93699363779158
-53.6629058005749 -5.47522875646337 -6.79900262013827
-189.540341593731 -32.9069014565128 -5.53981845497083
-203.259558980119 16.4435082606339 -12.1175216620715
123.32615489224 -15.8459976984978 1.36896001669934
191.473691940319 31.2255084592493 -19.56337447504
174.82106751893 14.7698952376271 14.7585990983443
188.164962082943 3.62782318460763 18.6185223523078
-147.687280827735 -17.4795357907138 -15.9550861409284
-151.245827894548 9.05808266355168 -1.0347956306253
-90.3269088661124 -14.2459308069484 -8.1835041249713
-231.054619425292 23.3016757053095 9.94335478587641
70.0981639051128 12.2234656302446 4.24861424719377
-2.99881344214496 -1.15183736605243 22.2717501414642
-179.816408585783 -9.85371029797926 -23.1083572714546
148.553850728888 -7.28739304702215 -8.41254234407455
-186.183231083108 -3.81202352645556 -19.2803821521791
186.991050179716 4.80122664523725 17.6083863119556
169.179686179605 -20.1864131870341 2.80443991385589
-136.870990662163 3.93659758497739 -9.93973864046089
-169.301210427166 11.0288372870709 -23.6465399386501
132.346090938778 -14.5482047934459 -5.09615583726888
215.605400826041 -18.8804905957015 16.7675992727295
-155.429839598978 12.1835126028269 -18.1219519243953
-88.545476182037 2.85349206053419 -4.2933198152699
199.621575775796 -19.896793043063 -29.6239447425128
-101.291175885336 -7.85226855445886 15.0298895074396
218.76627272551 18.3262859385556 12.2261765938654
-16.9203015553579 -13.8448591075932 5.23531468720153
-197.961060968056 -26.3075458435976 3.54986017148671
200.117740216315 28.0642152207427 9.19647440449007
-208.721622100557 -15.1484055094062 -23.7298115316227
-48.1042142131275 4.96724315385978 -0.934398275232188
-76.3898140364574 6.773275590133 0.743622150472966
-146.477723862614 -16.9633975569633 6.96297084758383
-160.2872379345 -12.2120727647004 7.43351044474709
50.7567341117494 -2.53252659138155 -4.62048976278667
20.5023076767945 -3.80588919213597 23.0298538519665
33.358936499815 2.0268002724548 22.529869176576
16.9920378343621 -3.47313218944773 22.9468284877005
-202.517737261846 27.4687542886681 18.2234539334619
-155.113764215454 -0.466398065472476 -19.4213299452333
207.819312486602 33.9926406631695 -16.0980547424288
134.361459851704 17.3195165084908 11.4540277737419
145.570551077486 -17.8087759202404 1.47742226917634
-66.98535198576 4.44525941284484 -1.84076096924105
-158.050506746406 9.59665367417148 0.722026904923081
198.721253622229 -32.5123609360499 -15.0018825703989
141.022647259407 2.05615193593416 20.7027608508119
183.34430102076 -11.8813423983981 -14.7997748707693
-230.526863863627 17.380312577552 5.375192608157
-163.751174630626 17.0439179531029 -14.2754515943692
-55.2082690239401 -10.8340839960374 -3.1539947908524
-137.930670594323 -9.2783683933173 -14.8527447305172
-196.895251746445 -8.99185241708388 -7.19226089444
-56.0484872935336 -18.8974854426773 7.59802071600124
-80.0548917938069 4.39491343633707 15.0340626504402
181.021351068522 1.63729175374347 -12.4207075667847
-14.5895509809482 -3.42148425354093 22.105457000308
-159.523466706481 -4.68194318038159 7.79620695605266
-203.526666620718 7.09676982137715 13.2139861087448
209.936823592972 0.499985309833087 -5.13123269659782
-17.8628167305412 -15.6011158545921 7.51974849265261
-40.2119797913419 0.621333736129236 -4.80344691751873
172.490038295452 -18.4012710332986 -11.4169717209257
-207.295321015779 -22.1146272323646 -19.8926858227202
62.4408240485428 7.75835933731053 20.3855099907569
58.1268621159468 8.85259000138477 1.72213228764743
224.464213338123 29.7184358904016 0.679209252338297
-208.723125356808 -24.4065919876687 -2.20233042014027
-211.272795022577 30.6032191818569 -15.8223588901539
-198.105273365771 -11.6159017048734 -7.46970495602755
-174.685097957916 -6.9798791683109 -22.319160793534
-185.349183900465 -22.3657044874253 8.4825526033669
-197.883783540431 -10.0887130431316 13.5570331748409
-201.18165489063 -21.5562773599102 6.42402178785268
-219.771675128441 27.7322922440832 20.5711372842393
-160.414328620182 16.5409807901583 -19.5379495936006
-208.87802982058 -7.58211457135164 5.8947274710236
-176.853153777871 11.9756077075639 -13.8126579003149
-97.2225038613792 -11.7586652320479 -10.1700186925738
-95.1274539512171 8.5811741025087 4.19122880418671
-188.192773329378 -31.3438984545277 -8.35075546201561
-147.947586424437 -14.9162786628307 7.6972020606524
-196.882184571334 30.5628300615157 -1.46284083010931
36.8038189447029 12.134939723187 6.34784124556362
-65.3879726873032 -18.5218140191535 3.01223965840409
-115.735354710599 4.9660059899631 10.6008837285197
-1.89421897383385 -7.4800189792482 -1.14020190164346
-199.078836579645 20.9896397470129 12.3459825647526
-195.308324924437 -30.1674283618909 2.30884619635914
-69.4196216825071 8.32174250936211 2.94363575237583
192.358673479459 -23.5113890616884 -27.3657546032502
-217.885099414587 26.3517265292727 -15.9269390176978
-147.900983202325 -18.8748985721429 -15.2728974676861
-57.0562051402218 5.89441953603436 16.7421664005278
75.7307455120923 5.08346719597946 -1.89072552584772
-54.4428682631745 -15.621927980799 15.4951428676049
106.236182270198 -3.62385740944718 -5.52288287725662
83.6240609842974 14.7942222066438 11.5365296091353
136.920044017155 1.71556484090717 20.9610685987658
207.278724971269 16.7204018325896 19.3789042005722
-28.2772315448431 0.822227621650373 -4.76083592505111
-206.596129019271 -12.696919635908 -22.782561431435
-197.285878258023 26.3698366030453 8.15275594610538
58.1418817958467 -5.3056917023526 23.1828396389392
-138.929629337729 -10.7037050211518 9.58330620535586
196.826477660188 3.53342640802407 -17.3856188609171
-8.1986579653473 1.25133742594005 21.5836815705418
-154.757233761836 -3.54749786053716 -18.651848123672
-190.858814381748 -9.81027577671895 10.3695857476547
134.925198761876 18.9025209744952 7.91939302252544
73.4179953951376 9.12857150798424 1.16235618065437
-167.653445741143 17.4490991695756 -15.4008387593881
207.539599777304 -8.75528164878254 -20.3420914356406
69.3768401673483 -11.1136591577218 0.543391950982711
-26.5463280465391 -13.1446667483553 3.03330710394568
-176.773031116706 15.4677364090208 1.00760533333819
114.008961651728 -15.5831781125178 5.9928093418669
212.751688588821 -21.2717898240964 -26.2287442011764
210.848806116642 -30.6761698945329 -2.40737030258375
86.225945495169 -8.92910469969384 -3.43297493111311
181.949014347208 23.3792246884724 -15.1950806123177
-148.287110852969 9.00670557064085 1.12375584161187
179.467844141095 5.28575210981634 -12.6019629624031
210.053635300043 -33.7192630823196 -22.7855030844446
-223.458349817843 26.9343280137899 -13.7092167644076
81.9247452185194 -12.6237627919455 16.7556448584138
208.317305985546 -31.7495229193099 -3.90213084898053
213.931081601751 -32.8726998474207 -14.8675786924744
-176.789385543447 -26.1278306877891 2.76748912047149
-176.957019744156 9.53273795112653 -15.092488878214
-113.525236789177 -22.0281917089554 2.25788350359541
-166.83525738953 17.4457250061434 -17.5532763979425
38.4624621974191 3.5202220610469 -3.26019534694826
-194.587963653669 -23.5054763056088 6.59329962146375
-84.0301201371688 6.54287089234428 12.4309461501023
-200.90858669143 -9.44397651983792 -17.5552074593552
-128.06267290283 -3.93792160966639 -12.5770154248758
5.11711776131838 -12.7605869288441 5.09062692403987
-199.59451765072 27.0105394816976 14.7612416066376
211.261481651464 9.32443257862008 -26.7108033607961
-139.713327376464 -18.1578232950068 -13.7088694521375
217.842227286491 -29.3532749474942 -2.7554258292086
193.684429239215 -29.3940102595009 -5.7733324389001
189.353708513827 9.98059718794581 16.7795728580441
183.009766612176 -24.9434061951358 -10.5853465314569
145.766054946663 15.3610031594868 -5.4506615873743
225.762940153271 21.0303387030006 -4.02082303428725
-119.793160085631 -14.1496754947686 -13.1044430230153
219.853186177871 10.9642342020063 4.65238402857219
206.63010681008 -31.9327671302832 -3.47124820916378
-111.089065856102 -15.0650030980523 -10.4731786095512
187.68463749987 -14.6494011943487 23.1660334932572
-181.698321840886 -29.6659023115715 -9.64794580007156
9.85074987438668 12.8515999646011 12.0578669077228
-37.1032492815834 11.308524292317 10.1672402227827
198.80762173361 13.3292747060482 19.9211007644716
2.37033838206489 -6.01148196296831 22.1177329208652
-161.303979757888 -4.52268839704329 -20.5408936392366
-189.097143435146 4.11430366261029 10.3898119350901
33.7142015753312 7.80788915788628 1.68963689409285
195.085290563862 -30.2301953103207 -6.1896943140195
219.606790220245 -18.3427279757902 10.51136890727
-198.723385758451 37.186352617167 6.30746664221884
-133.715207112088 -8.68004749821123 -14.0611147479649
-175.048294111047 2.87417596925702 -19.9350614173797
-189.57494827514 -30.8340727791779 -9.72321897704094
191.075875593195 -15.9568124872892 25.0446253320148
191.411161613238 -19.1581138139655 23.1061867109066
151.502885131229 -13.9740929932382 15.0905003577161
225.828444896595 23.9792624142045 -16.5230287797036
189.53883536632 17.687029676949 -26.1045810352416
192.709427721811 -29.1915436000039 -3.84221012788486
196.745302870827 -26.8966347055998 9.66010384520048
48.296187393284 4.45790840626677 -1.90887721332195
224.284372707382 19.7398971789717 -19.2694043129392
188.183504528844 -14.6818735711451 -22.3912004256158
216.273696478383 32.2799375140366 -10.4706415423424
226.330680218068 28.9780484875679 -6.26640087600182
-150.229214975752 -19.6651430190865 -15.3393164902087
203.421783299996 -23.6476332719934 -29.665944092645
184.087330949204 0.733340622344117 -13.5820185981905
180.83280510286 5.93478842149661 -13.3765887187042
-155.420046423203 -20.3946326256846 4.53197271981428
-215.402484150892 -13.9671633563327 3.16324665621982
-121.552963512419 -13.3166140169503 10.4618595100736
-196.48457002512 -7.25900204010555 -17.8976525376084
116.180655981309 4.14549937749382 -4.83599455888555
-214.586832049654 -7.49919917809028 -13.4999658946902
166.679785261671 19.7687478092622 10.0895013555261
206.555131884696 -12.7958209901508 -25.2750354556405
-168.591295370691 16.7801686488631 -18.2594932723119
-19.123261490428 3.95088406815373 20.2845152902403
-14.9931363234566 -1.77496282060798 -5.90092279135781
207.015895350609 32.5160864884222 -27.5508199923997
-148.626896081605 8.84888991796021 -2.55554516987292
-217.328211780143 -11.1011405093495 -9.98055566462473
182.566499406206 26.3247178222854 5.95879244571006
-74.9024037738025 -7.31627523142114 -7.86621666719389
210.788585805624 25.3203558244378 11.1601170482391
182.661531221462 20.1492246596913 -16.5139855517354
-178.929915166007 -6.8620200836814 -22.9283531824707
170.549959702078 25.7426959080791 -6.65438263639189
-59.1266624061929 -7.06186992981075 19.4015154651347
-196.558843796234 -30.3102344493238 2.41026148917555
29.2105830552644 0.00864229581695507 -4.69813036878419
-139.868842825533 -1.10394618705497 -14.35602700349
-221.844049626761 41.2430721408967 9.0830780381589
-184.752146815421 -31.8849838023208 -1.38755075554526
105.583241977708 1.3820043504214 -4.84473424037442
-148.662716230205 2.52854900542141 8.71580593815604
-230.605584502762 34.7479168797582 3.3998918505636
-53.6092824922052 7.27929831417155 1.76902055637018
-175.067546653545 -25.77703158645 1.82277043181384
202.006511439799 -35.1294302310208 -8.40244198672863
-184.42631700444 -8.0329910077056 -23.3763386329084
-210.619019420421 6.99338397997318 13.6461574388769
-214.945107031262 35.330891146364 -13.9002016815463
213.330198948227 -7.59521125744814 15.8987931511917
-158.421305278422 8.7836641510356 4.62390405607611
-207.087803297836 41.8671630414702 9.40541809137554
-120.522963241042 7.71650725537111 1.05348077606104
-102.131643516174 -16.9840933991882 -8.16779674183451
83.8699130358286 14.335249394633 7.06541652561983
219.861546003809 -28.6241098526813 -10.5150315878174
-93.6510116693519 -15.6569195498652 12.1298753883049
37.1803540183291 -11.275963839196 19.167987032628
-200.225879146831 -27.1105592819358 2.3802797091082
-115.492523787558 -18.7920464641266 7.26022116576508
147.930401166638 11.7481583716499 16.3016830964256
-50.5827558661528 -8.69057055406332 -4.58541221377491
-178.035714597555 -7.39511058545704 7.27595414307976
61.7300996411918 13.2275040854783 14.6881195698497
169.399471285354 5.84835124342609 -10.2739489002899
120.719609828814 -8.64954860783075 20.0919118978369
-101.786516671017 -13.8294586415684 12.4072586756591
-199.28942364696 23.8667042867519 13.7299386195355
48.4103686398557 -13.4639634908481 16.5975159930302
-163.10568653855 -3.58616527222798 -21.0458434573174
205.209947575157 2.86231906576903 -10.3493172525789
223.869408207049 21.3743471791195 -21.4640300913791
-106.488812544964 -13.7715348160798 -11.7254860057802
170.802194719745 19.2154414226808 -11.6921372026784
-210.477464554194 -8.26372457211036 -22.509654920248
-210.420751159457 -7.3874000644674 -17.5270983402377
125.302169242784 4.78899311885042 -5.53139806950224
105.156413436984 3.22153759930592 22.5647803861828
-171.556062575672 15.0106025328481 -14.4075285892955
57.3355067070496 2.30948507031711 -3.26529817141648
-90.1580607574644 -20.4782358401971 -1.32183148739173
131.410443668008 17.800507208998 10.4325822342305
197.270651663066 -33.5646580333168 -11.8139116465572
-73.091341459305 -15.230357548438 -3.12635221919003
-117.836800123712 -5.30882416194707 -11.1837230383544
-178.670220729053 -23.3809062395181 -17.7040976298591
11.4034615982592 -6.57115031527185 22.1980657396664
164.553312549708 -18.6412216629028 6.06535906838267
189.293762152664 21.1908378106805 13.9380638106668
218.032327842931 -22.8896652755079 5.99527532903483
-203.501732205955 41.3413040697075 0.632528995307077
-211.030988773663 20.639247928671 -15.6778223191585
-26.5860573633769 3.57715121742284 -1.97002400128549
220.506946829579 -20.2276964977801 6.22268650753355
-125.947467501069 1.054031431205 -9.5124265330641
5.25435238573053 2.41754181987439 -3.75567165507059
99.1414741857263 -12.3272958747975 16.8253366561913
193.989983454556 27.3581176818952 -26.572492382618
201.192885478697 -3.61957242495337 21.0344417957079
60.0136230949481 1.37553616134087 -3.54053653337645
70.123315045364 -8.10253577275454 21.8349590615823
67.518598777819 12.7146980452362 5.19989733033034
212.129297756643 -33.8939466638553 -20.1825307498314
204.326198634674 -12.2144455768397 -25.4225905439997
-130.448503844219 -4.84390983228987 -13.1178808305277
46.5450140069799 -9.1153822560925 0.0615553558316924
-28.6931011121605 -4.17446019638618 21.5247245516058
-167.83447217655 -16.68434566938 6.95809900895781
-186.673636147953 3.29296985502963 -14.1361049162024
-172.779996711575 0.543698386608773 8.06884204138033
-99.8095837711524 0.800018151656506 14.1876077463937
171.844821061892 -11.6537212813095 -11.2941463484485
-198.615077964777 -0.31459700826165 12.7841747564995
149.966101097714 -16.8139985427382 7.70878256287162
-80.3824503743194 -8.61169467758546 -8.12129301312167
-218.811180795761 9.21589635514568 3.06918481871357
105.384918716609 -12.4490095601128 16.4616732439766
126.746753723006 -15.3579761390479 -1.79128953354925
-201.243197498894 16.2388862111416 -11.8837249074612
127.175930970226 -9.80268871076902 -6.48626329749316
-26.0326305562691 6.49913928198855 0.973790418874786
208.720460940248 33.7277207549536 -17.7711470041584
-232.298539317994 29.8777675177026 -0.269305428227499
190.537152217595 -23.1241834583216 13.9123429595133
-214.377875184122 15.4486392092107 -12.9533168476893
-164.811802157766 -16.6534411186344 -19.2068717154876
196.893518050105 9.57404022503517 -28.4797100115638
-73.4431902559076 -9.11094220567208 -8.04092393141011
-5.93657296953734 12.1829132251915 11.6547176525278
-197.662738019874 11.0427321959048 -11.545926435867
188.558624839217 -25.0867124767922 5.14973766908562
-212.204881054756 36.5594515124209 17.8737863680233
87.7381360552895 -2.00931658160091 23.5664484020262
-214.180330857132 6.66712685300977 11.4716910426307
214.970340200441 32.8738853667527 -14.9054676050238
-113.918632951492 -14.5035276928672 -11.6205307829695
190.951411751021 8.26111422541649 17.4167807855715
-95.6355226735616 -13.9161359755371 -8.8017333814131
216.706462177154 -31.4258564690592 -6.34440939644015
-15.1958147673894 -7.03275423360666 21.3784030934178
0.27141390245271 7.98034131018244 2.36851018835525
61.5709724659669 -2.04204473683582 -4.70335365562636
-209.929009202199 -19.5215481344646 -21.755270427271
178.664882882988 -15.608956387278 -14.0004171209445
-147.889548007596 7.91467753867497 -6.13629892306187
-217.013821290652 36.8062406379608 -12.6378349540471
144.190626601596 -0.470705511707935 20.9031628916653
216.338773950363 2.62427330547638 -1.10591983190576
208.057955585758 34.9163724885227 -8.60516185972751
-89.9488186338425 -1.95139424935648 -8.05983746771376
144.205203632564 5.50836670001919 19.5081617271535
-106.072350686402 -14.8615518817982 11.27088055394
160.13318056202 -17.7890448243433 7.2490299422758
177.18398923713 -4.53198227649324 -11.8352851558338
82.2462516184221 -14.4658827134103 6.52631190787997
-183.243667621812 -12.8361471621135 7.66197710215106
-209.053335694772 17.0623581722472 19.3992184250042
-216.995868180849 -18.1297807454996 -1.26620200585104
-174.959513875283 -24.8184375836328 -14.8007028996368
191.034897086561 29.0947531437614 5.71046481226557
-205.510622706381 -0.813514337934103 11.4841998491028
194.077366808546 -12.9514491035823 25.4965161216837
-212.040433298303 -8.78847304273291 -23.8110004258817
112.035974657764 13.7379765972027 0.411901114699496
206.967902033134 28.0415643478301 9.13170161819633
-195.060716331039 -1.9334313680119 13.070358367142
-9.0960410039784 3.43510106299199 20.8014176034286
-165.071153787784 11.3585984766542 -6.65563284624849
-140.378563763206 2.68029076782735 9.10537572720127
-60.2817275318174 -1.24050724464254 19.6370379954871
-101.604045132879 -3.12149311480878 15.1094466147013
-193.790569871987 21.1422396950845 6.57162112036996
-204.241513813673 -27.9286251352547 -9.52132769357029
-5.80198680726262 2.67735718008819 -3.14529439442956
150.172856085342 -19.0394345555565 -3.08424828841874
175.966324801806 -18.9180310901682 12.2956728599606
-193.946024909436 2.94975597670723 10.5365034403161
-146.917777569018 7.15945534656015 -8.55744223893192
226.171837126961 22.2378870075652 -6.54756722170299
178.939931171378 -2.3160309579534 19.1573019296254
-15.1542431089078 -7.32007891600979 -1.97550206710534
84.898619029449 -14.6104794315614 7.49767293613454
225.691699141016 19.746408076459 -11.2376592976438
-217.010569424345 35.5763907570369 18.4082184543525
204.777073622371 -8.85907307569293 -20.1183253424029
-215.033103721216 -12.8057518279013 -0.0930264581671644
-216.260162542963 12.770152808359 -7.28318525693962
187.83400878288 19.9821118302825 -20.8535554524435
-29.8081930508241 -17.2978774820976 12.1942249408174
122.062647790265 9.12055198824638 -3.85094240987751
-209.816060813005 -9.58834630612041 -8.0950809510928
-123.951379662971 -17.7581087317333 -11.0028771658051
112.979142349753 -14.6202054175142 11.637847900559
45.9100188699459 4.1556131319757 -2.21657005515739
27.0039475848241 9.05871555916007 3.08586619564022
-213.877871164503 -22.6855179765338 -8.39155007578579
76.6497756482042 11.6989797797734 17.7031522997619
76.6437576348835 9.67894153465797 1.45627220147354
197.237593464919 36.3263116753713 -11.2228471981437
-95.7469124936693 -6.89300299982012 -9.04684235201545
215.037535378289 -6.08276586106858 11.0364399813585
162.645871042524 -10.7272587391457 18.7091885443693
76.1159416246607 -11.3386575966519 0.149474527508145
-79.6178093019019 -0.984971374095147 -7.27464094680185
-195.608336939536 -31.3226714329123 -4.57050079960884
-126.912635051091 -14.0426739750295 -13.6947599303322
-1.75518932964507 -0.680104641206633 -5.70197112692645
-155.304133006476 6.32844441873707 7.72045132182534
-211.188284428883 -10.1605366856389 -6.07761872199692
215.927183479019 31.1507084189757 -29.3777863325423
220.793689203838 -14.5342398472639 0.731266758424727
-133.957751683902 -17.8883931520759 6.83822614869942
-123.073517854566 7.29423291929793 -0.893482532837793
-146.576101020389 3.69365303122393 8.60777505421127
53.2754333842681 -12.9012423997497 4.63183457275737
217.102035907916 4.18009486155355 0.370637362174473
6.8211486111821 -3.60824348348346 -5.37130873102066
172.753497356057 -21.2406891365506 1.17938462798113
-20.547078052365 -1.96647093716148 21.7686320581656
-227.084497918532 12.2430152115948 0.346390581637448
9.03282870390131 -15.2519928581872 14.9525913773993
197.984284953588 36.2145693566842 -19.3702669123604
-183.585570995901 -27.2954214127569 6.47491545869418
213.032789303716 -24.7590042684367 -25.9161970185106
-202.824334955318 18.8051447201731 17.2476962860589
-150.444565344172 -15.0624117328603 -16.6602147512988
118.58676550976 9.37283202597506 -3.29132673275561
107.226909694435 -4.92856585782936 22.2763832224851
-161.27149836546 16.7683176073675 -15.9134655233496
-54.1158545784769 1.06138294394646 -5.24781811075881
221.211358390793 32.6567843478045 -20.4535430995074
192.475249318326 -29.1160152993426 -5.15421127461599
50.2070625754081 9.55690604321575 2.62841568097398
-199.225155779015 -26.4106072250188 -16.2934327153077
190.331247438352 -29.298427407187 -11.3886406074614
-170.975468357134 -25.8606149111326 -1.77017688683435
-213.521787438894 7.35131980442493 0.159453148754971
10.9863170458174 -12.2430306641218 18.8316848867467
-145.784159971936 5.70457428056635 8.07377801045692
208.934934716943 -26.9552811745344 6.50436767209755
-42.3435918083637 3.28686365685348 -2.28459796947523
90.8142725612685 -11.9032862283582 -0.845858187513153
-24.6065916922397 5.76296244478161 19.2871071228068
168.478770845537 -5.234328476374 -10.2604919249446
-210.659573263877 1.96657075206434 7.18200962688782
200.552180494095 4.51740492919669 -16.0817691556724
191.776557840184 32.7530022220224 0.817986085653198
-219.255190508412 -15.5410535700916 -11.5862790204091
139.293245110595 -4.26661667871043 21.0398583722682
100.857467780354 16.0807283123471 8.83791522579319
-161.615742851422 -6.90186064590224 -20.3939733319705
96.1717889462127 12.3327025893602 18.9786499603478
-162.864812351132 11.0814636204526 -7.93426437918822
-160.175094696617 15.5078203349957 -21.8143817939838
183.640164777621 -9.97768913884921 21.2150222294162
104.167227669593 16.3692564480495 9.09235857973808
-68.4284986236088 5.56365115302866 15.3969685854193
-111.799636839387 -22.0410071784622 -3.43205837458556
190.4883352077 33.4229898232874 -1.30040521337606
-125.823250655884 7.79889924823216 0.222394746320255
38.9795324272226 -7.39314337813819 -1.1704004851236
214.226610563935 25.9515740345716 -33.1563636898859
144.57445348933 -13.560744142706 -6.77519240954058
132.39280224904 -15.2618614856455 10.8831399550824
-44.8171222983694 -1.18688884362025 20.6779012106181
214.02897894334 9.37128240927976 -16.2481174960244
87.1419252301867 -12.1229129848845 17.4673424597046
-146.427574428411 7.96736004864346 -5.1903951526006
121.862835858299 4.79100097576626 20.998321493484
-174.962890105378 16.1260626117904 -6.52005915283599
145.371359553018 12.4635210164058 -5.95402987615289
-136.027728062248 -16.9696820479 -13.7105309666895
-210.687057792839 1.07552117097665 1.04860894054316
-178.208820775678 6.95135294185815 9.70830545833796
-206.31950992745 21.5265560356153 20.0150514359594
-197.908169397828 25.3278722924248 9.84876724156802
192.947387861061 35.0320889241289 -9.67302734546326
170.358905769306 15.2494613683044 -12.3415305847727
183.571066448473 29.185895377948 -12.047332916485
-57.5192540204292 -14.8013469952139 0.107213574022796
223.771998752174 25.0814592762731 4.82304318378152
-4.87530256747029 -8.71029916677035 -0.0551788035904135
-87.966648828456 0.965988529022606 -6.07744896630717
192.205992383782 20.1659200360524 15.6409524296742
45.5404474717472 -5.33487838511237 -3.09609355540386
-225.815687594834 18.5510315349916 -10.1194298807148
-174.261789007076 -0.443733326560178 -21.8474245190721
-220.456108905097 13.8127623464405 -4.86954871472466
220.620074688732 16.5090017194228 -24.4685823550722
-122.302388537049 4.25018460636138 -6.01816227986846
36.2103995134225 -3.32400333922182 -4.13098406693159
-159.26214594721 2.58823046939077 -22.0718005440243
174.355954226536 -21.7780533432529 0.480210440036226
217.967896845152 -17.2857080795335 14.0041118947601
-223.445686737343 40.2694909022583 9.84117287653049
197.134051595959 36.6312712005866 -13.2526871274888
73.3432524297961 12.0679528140332 17.2328120847045
78.0766816683775 12.9030826692968 16.3710944708588
-118.157692815968 -13.905512164446 -12.9683564477906
184.449404244382 14.0853663682767 16.2312214700079
198.939096695727 36.645750256393 -10.9240342795605
-222.379285022109 31.070837507502 18.7393432347661
205.230618708285 -31.7851028598309 -2.31508722693383
164.698370657671 -2.54351442136075 -9.7122111839824
-119.76996126827 5.48439374020281 -4.1511219724184
-208.893612994188 -25.2661979533629 -9.35651871504425
-37.0977424760505 -14.19946887133 2.91498980531392
189.153339025622 12.6673611962583 -19.6521233847141
-195.399684709019 -11.8649745823695 -23.2031844343273
-179.236103833032 -3.36831666348243 -22.3246102122049
-53.7295015205268 -0.282014436920774 -6.10486642001373
177.247745896003 19.1680558924145 -14.8766809922379
-57.8738951854154 -4.87208512285376 -6.63653107428939
-117.875114311118 -17.7234667010513 7.97268584831755
188.719014634683 -21.1118260005178 -25.526366986456
-92.016269900198 -21.1380538181002 4.11552568533701
-223.371078330837 11.4910154468737 11.1987207947213
197.839294203672 30.479685998839 -31.7166743768447
-160.010978898025 -14.413039818096 7.25264292336913
-42.8787305374866 -12.4847319814837 17.8857279985595
193.304714837832 28.7222248369337 -24.2069658087507
186.412556997324 -23.7961336658667 7.00423669933386
209.156104872324 21.8493583357001 -35.0457029200922
188.085780497954 -27.7552489930039 -15.6451580618527
-186.45375904137 -27.0028025835812 -15.9647456259014
190.780997054869 28.0375264837769 7.22187807163628
-215.128775458443 32.9137799762974 -15.0070514263041
83.5249512521557 8.39239700608459 20.5064696436184
200.479751766692 36.1503098370879 -8.65084137812028
-64.7916297886476 1.18666298939493 18.6282882207268
-120.179507319794 -4.0233907985836 12.5143704116546
214.033007167197 8.93616737270535 -22.4728277363686
121.538974243506 5.91584807172255 -4.89096135867631
-105.911094021827 5.87179452126354 -1.85766777433662
224.084151082061 30.9313261831282 -6.93255853498371
-188.539491701488 3.15761797566969 -13.6316417150515
-53.5042459451609 -8.92986716039231 -4.89634310514595
-58.8785312677923 3.05389741310347 18.3526527268965
214.87977073764 32.7960093617716 -20.0234015252878
194.520290349764 -0.542429597288801 -17.0019701311367
-180.631306166269 -10.3685256726563 7.52381801360427
7.94546795270034 -13.7234888432702 6.76765081853041
-39.2590377934139 -14.8609607747747 16.7831140832274
-212.336682100705 -6.88654839025472 -16.6521777971822
201.823532571826 -23.448519346785 16.3394053720997
132.798873613509 5.07066784073474 -6.06126116056239
67.6271046948737 -14.320732304459 7.89588171276798
-213.140405540632 -23.1586304612906 -10.2809271674382
-6.64161609915764 -2.71895128857676 -5.64772545399123
92.7940135863151 -3.39795500790649 23.2526101409742
150.204757576943 -10.6053912714503 18.4155244721107
-106.546032603201 -21.1156432002086 4.64060172014162
-179.964874141034 11.1214095967585 8.88740582391441
199.243005155324 9.67347128150099 -29.2065982943449
194.393470840737 26.7731031405623 10.290124593588
178.845215515796 28.1003201356149 0.242220875047734
-188.927100033348 -30.1117711352344 -10.9921676411848
36.8394782478418 2.83259629993081 22.3496082733906
-47.4196163852762 -1.16485115543227 20.5609405635743
-80.0183706597463 -5.11329062284736 -7.58370401743962
221.087894810353 -16.6919764235383 3.29753981322219
190.848527849879 0.887138670619459 20.6058370849198
118.573563882059 10.2109592326523 19.0011281314654
198.937748602955 -30.8243245005385 0.200710013169437
-151.266126042245 4.36790848945713 -18.1364464604791
-191.308415318864 -4.86434218776126 -17.4810438692009
-191.48163581494 -0.430366618423484 12.0541818466675
-149.07493349061 -23.2352593217516 -4.31122625558313
-162.531538830891 -12.4672995583732 7.23210498104173
-207.294157493527 -8.61778940651139 -16.6860621424212
189.031587249317 4.51508250282527 18.314060946713
76.0764313719783 14.2282672795673 12.8158970885222
186.779379628183 -25.6981373003967 -16.0171581910341
-81.9344110407942 -5.74231361799273 -7.36233350147667
108.455400283088 7.53871712484935 21.3209655851514
-143.940750978531 4.22307248515429 8.65192213222354
13.2589974476548 -11.3991086798589 3.41370211510368
195.149243265426 14.6794925242733 17.9926466532747
99.4281124988219 13.9423486111985 16.8539337066544
11.5819718450954 -15.1883038199832 14.9796894713837
41.3134657705483 -14.6333932508292 13.7730080228662
101.607369539966 -14.626813023865 3.02360602939628
-204.930805698896 -12.6751718618057 -12.1063136150916
178.454351356536 11.4415706472518 15.9510531908959
179.01568705675 13.170011068611 15.7165662451244
-210.205148781154 -2.92964414702593 1.50244394178307
-74.7888892480036 4.65517123371358 15.4713998951451
98.4565641999032 -13.3570038590121 0.281962049083755
196.409535358125 -11.1668672025829 -24.8109246153656
211.953074535729 -11.9923487972994 20.5606801867014
191.171309273334 34.2114497915665 -9.10913450235627
-134.430512677256 -20.9748166744974 -9.10105333908642
-161.278835853048 -2.23411657873506 -21.108205815036
154.236295155786 16.8702900776805 12.4291538020938
168.709499830027 -21.5873054714976 -3.69356170285383
-137.102389060487 -20.6468160416597 -10.1339943326242
-116.494560076277 -0.527418718681786 12.3594097569969
149.303858155474 -14.1089038071008 -7.15503541690867
58.0923787761606 -13.0015544358781 17.1937391330289
-226.083007884876 31.4599846185709 -10.8043001792098
204.81361124318 -4.17782903449516 -12.4347057829564
215.424586038632 -3.55251689249328 -1.22347868938408
-144.804541443048 -3.70404935633236 -16.1155091362698
-200.278718302178 -12.5004566841418 -10.5742754012002
-91.2920199621275 -4.47292162363825 -8.37114067059292
-72.5363323693398 1.0782808176351 18.0485711880211
-138.97405829621 -8.57344428711829 9.81383756572722
213.889116608223 -3.62464595540947 -4.56835439051172
97.3320914167888 -12.3956645956111 -1.193620344172
-112.882199522569 -18.517340621207 7.80212205263533
-152.748262544961 -15.3226596736787 7.26693906710137
172.599169192286 -7.11252550080592 -11.074712718778
136.018091521009 19.4225463399786 4.66867009568294
-166.017611014295 4.22233562329199 8.26257717108104
-85.8079710158167 -7.09116095558858 17.0237540383585
-170.02026222349 6.80588139517214 -22.1904939927426
135.773254507556 -12.4528456268358 16.6722329301314
214.002099918378 17.8571577244325 -32.0531876769671
209.692671428366 -5.11677623696407 -9.43402191739401
95.1021854281541 14.4680586631419 5.05530537358038
154.121145183477 11.5705339691201 -7.21759949159445
-61.7552947760351 6.45632073784281 0.584989468992835
-19.183028200004 4.23376374054693 -1.39922027293703
