76.050064699454 10.0017078760834 15.9423835295977
-207.856885086508 -40.8466091733256 -7.36899443424285
-172.535102239063 8.326978235728 5.05159722174026
-196.777572921096 -6.02502663440023 -22.7370604607366
56.8436178885593 9.82943699581681 4.37389429365329
-243.964007520651 12.1589503985039 10.9573845292238
187.830359937669 -24.2828552536086 1.60474724996777
198.122268219945 -3.9392640978052 22.0172456701281
234.718772454179 31.1281259065392 8.20025012496773
193.585234380385 7.17911992203337 21.5281142601115
-224.516686801624 -15.6506290515936 -11.3687133592151
-186.152994759669 -36.2550461145015 -14.2133903577512
112.962013280922 -8.12849102601399 -6.77624450959199
197.938901434452 20.115294104888 18.5120066322346
-228.995224541677 5.29169860831317 -1.39705077903856
-243.893767804544 43.7792250594239 14.0422975464774
112.09062940928 -0.120760393789447 -7.40405230474865
64.3395491416765 11.1544570923205 8.26443098204476
-70.5256171366207 -16.8870080391954 -4.40889874213222
228.021361453273 -29.7101837446671 6.83817047705416
-212.253722039204 25.9902900744721 -12.1195500911412
-56.6238447333408 -7.8728235951532 21.1995296804305
231.823019486007 37.832185445838 1.63284623827771
181.428842300949 22.6383350102417 1.80997601374243
203.05002060567 -15.6624790930672 -32.0327966401793
-161.546421187469 -2.30484272035617 8.53468378825693
208.485519250659 45.9300168390447 -11.846358799078
-162.052352114152 -14.6333549803881 -19.2856458627809
112.362027532352 -14.6059727787617 -1.19089514576826
-125.650198963644 -18.0793609024042 -14.7753799898737
198.077776563288 -16.2996051264475 -23.191493416873
230.251759096447 40.7030670684708 -31.346451554073
-177.177464018359 2.6820546737208 -24.9346353944914
-51.7220056944507 -15.9411469015224 -1.33800400820172
-218.271390457238 24.6437325148408 24.0350335713409
207.86819113834 -1.51683835068233 22.3823383245035
15.864095458872 9.56026018522166 9.56599116066105
-3.70601105022063 -0.719403009682529 -9.17317248735307
-195.253268363298 12.0416865217961 -11.6715171272252
228.645001615134 42.6564915448585 -21.7013010121602
-61.1032597328529 1.49649704824822 -5.18970803608853
198.119678164985 -7.35492440235349 23.4125364140309
170.276786344892 -19.3681057466428 9.70966110419046
-12.4665952097455 0.435870962915517 -8.0435131146738
224.006039305562 -6.37557119211233 19.0888281804719
194.741965816016 -29.2909350273957 -14.6741982752358
230.526354354522 -11.9006142850598 16.5536189446641
-119.138065133811 -4.8129197526995 12.5591530280955
-11.9804633368821 8.49571942699441 7.97944497341764
-218.969405499655 -13.5179155544511 -12.0955206651347
168.784340529403 -19.6482130113524 -0.327069189990303
206.551808777785 -23.2515209335617 23.7795918797838
15.1087776473124 -2.82982974889715 -8.61878252627433
-89.4299037277688 -22.4543841759775 2.28420806479689
149.828399899038 -6.23675285183331 -9.39565559459665
71.1627546489415 -3.1426577297297 -8.01335178440906
-170.797620144882 1.32641617310965 -25.4647389932758
-230.765019647047 47.4648950496084 -7.87105598108425
-28.5743389532684 -6.26747725215373 22.3944961031425
148.660753752166 2.92603348980154 23.1308097244656
48.1799046321284 -17.5858448750089 10.2036933579123
205.130705879996 32.9277646387983 8.08374549239249
-165.213539764917 -26.338072616933 1.41580136866558
232.873823334809 -8.03271098254867 -20.7352158141861
99.1955344214808 -6.88176246679306 -6.57390636713082
-213.988842662256 -7.05571483585671 14.146210338921
-193.548081885711 1.62175393655938 -17.6825384850915
236.155911276277 -16.2320471965707 10.32060193846
203.784434808133 -5.49837541014983 -20.5130588543599
-130.706898471419 -24.9198589622433 -1.94608897362765
-251.755795315677 23.0808522449563 5.3170548665621
142.953997468457 -17.2014327397732 11.0268463014659
-147.831631807365 4.60340471175426 -9.27994232705771
227.541668265722 -6.90472460233115 16.4149160627068
-189.86673828656 -34.6518904595477 -18.9546081612531
243.299723445197 22.0782253149926 -20.0864906552879
-108.791011031896 -9.33141060982944 -14.5961161078406
-54.3365718936287 6.75608300220261 11.9630317513206
-158.956759436284 -3.34192642727029 8.46343282271138
-182.197847572221 2.21682633854236 11.7000642654249
-72.3557469698001 4.92910995396706 -1.51714466241947
107.098050039775 -15.9712005829026 11.3536061022107
-165.205211897482 -7.91177587005442 -20.7000445617386
203.71450468912 -17.5395390396389 26.7569795904914
-95.8843622906659 -6.07912970773451 -11.7521781799427
234.448728353889 -13.3888020744358 11.8384872739282
-186.726963186678 -9.66315173598606 13.0396608121443
1.96593791171632 -2.50326674948245 -9.21628649912102
141.750820388025 -16.666311998166 14.3463473338786
219.558089925181 3.8605916978794 -14.7877419864157
201.070964009768 29.8536029006341 -14.0008517828219
99.4096419322018 10.9813157871355 15.9565948778093
-72.9041434069729 0.380127546433062 16.5399623449844
-227.405758223814 39.2865685445016 24.2906352744694
-175.622205817215 -31.9028407773467 -2.28353710463556
149.475575613938 1.21717464958943 23.6515126090507
-55.1994582793005 -8.16122700668641 -8.59246470704944
-109.576637227295 -11.3262494891247 -15.9373856556525
-219.994983538872 -13.4135190835828 5.66453295652904
236.125292693212 39.5477543223951 -4.5787824104066
-173.422068711751 4.94126214858283 10.6399424931247
51.6634704152242 -4.77494557238456 -6.15218583655643
-129.492249356844 -7.18944128561006 -14.2222157944008
74.7257032535931 7.4332672468708 -0.946520303481622
-212.520387767982 -39.4973189546018 0.413639873005892
-125.764425005353 -12.976508405723 -17.0024607523285
246.63568066358 28.4916246546417 0.276045448914811
-165.077013717027 8.7493598219488 -10.4504012038893
-203.738714110851 11.8229428059058 13.4257792732166
-163.540268326385 -18.1715521071713 6.30552521002343
2.01025944464534 -15.7467024619585 3.39136122514451
102.317434462309 12.528616194999 6.01247063875274
-205.61873339345 -8.26871598888603 -22.0368698990268
176.165640390306 -21.0587117282919 -2.93775980968877
45.5377624755529 -2.53915653817877 -8.23218778518618
76.8233709407297 -12.6260586757034 19.8824164050848
-103.07751438406 -6.3307639707081 -12.3283762886893
-216.474890575887 32.493808997833 -17.8528296430495
221.157081440023 -28.951564221993 14.7447848791991
220.031178326551 45.0080275288529 -11.4760950276337
-197.900752314569 21.7856023520858 -0.990897076529383
190.079663856854 23.6887582280424 -12.1690659451198
214.067347211575 -8.86078373541248 -32.8792587805176
99.7650202776122 0.790962711097459 -7.03403219983693
-110.743661907271 -23.5300856230135 -0.727694123711317
226.565053558076 9.319059118597 -11.6453266788096
-164.342485712446 3.22103105669747 9.09752721436549
100.127670136413 -16.0059751027345 11.2733419045615
-174.766057752443 9.74730313786759 -3.02367357631912
-229.243753433064 12.2154504960985 21.2968597710725
-249.446375411972 25.48940857875 14.4844941620312
131.590929902873 -5.32713854911092 -9.0541901353398
-86.2489249187168 1.80761683131654 13.3674803094611
-157.761863455834 -26.6283088904968 -10.8613099106952
164.685505689025 -19.3833455785524 5.37043535776438
-120.09911287029 -21.8313657001334 -9.7655772237656
141.958100676235 4.27368617483825 22.6023193035606
-233.146090660765 5.54728396533504 2.1719937228583
-243.80859827537 45.6881637732096 -5.30224897831366
-7.22075455661014 7.60172608093975 14.5135599120624
225.642388071674 13.1390090648343 -13.9341764379461
-188.248046091438 -37.5026438453282 3.34528297987033
135.503364934875 13.9103673663024 3.507063098306
-109.663629977482 5.12363792789159 7.26549461093693
11.0516408626519 -3.62720029565084 22.6980990801607
-230.078875880921 46.8418577850065 -13.1961552004629
66.1371651959198 -12.2548204468797 20.338395556211
-187.067699903133 3.71091534773921 -19.3752888308707
-176.627764291858 -26.7010728754794 3.69433107367134
-212.228395166771 -15.2981719640575 -17.9147478341992
-80.1144628055538 5.43642968555455 10.953239405785
-209.895431190837 -41.1748870799284 -1.61999128225858
232.918016937327 -19.5058556788839 16.9341959175847
165.46914208868 0.0756394889407869 -8.96253999852787
-2.60678541544265 5.64347128334498 18.1143248349369
240.707121019611 40.8872695361289 -15.8592604113479
147.78153588784 -5.58638217314122 24.2454026935866
194.991679143642 5.07590100275577 21.4580823834829
-176.067797999643 -8.67004780942721 -23.352323786221
235.570589515562 -9.64547023547732 4.51399151902332
-208.730797603023 15.6776960807748 16.3263014432622
-47.4003807450973 5.82403962902656 14.438720933911
117.000694719637 10.6421068553569 17.3226114559858
101.285170309958 11.9340901897121 14.2583426377045
-111.535431789354 1.67169422519752 9.96945516967546
151.289188484161 -1.2606434446802 24.1730095811172
227.59147947411 43.8747659096748 -2.10710714826327
-229.363315119217 9.75988427111896 -9.3321554217337
226.757408205925 -9.5073141970288 -29.9247558170348
-12.6386741568272 1.92401135951027 -5.81401633660842
194.578605108151 3.04850665320458 20.9112233905847
192.398782250569 1.49844416611196 -12.6775948361094
218.514085869794 -32.6367879903498 3.48152551151768
237.796288898028 8.48576156407385 8.31127945793694
-111.128437913885 -11.9317394014007 14.133777480801
234.474329392642 41.472365792252 -9.44944844290402
-195.337859757507 -20.0232735035712 -26.8143127445653
196.166517222665 -7.43013661019115 23.2493720034125
-201.684937774151 0.777587966047792 12.9785263829251
50.4134560755863 -13.4310160347823 1.08998080606221
-123.032335220383 -3.18376961797343 11.581405496792
223.962457640423 7.57566467794767 -11.7847300604724
151.716299249877 -4.54100075664188 -9.08756122750557
-147.140824720476 1.45267450248886 7.67140849080852
-32.0543703399843 -20.8855222670535 13.3123114825148
193.303559844344 -3.91924985632928 21.5650342368357
33.753212413408 -16.404918938891 18.4082077985711
-169.306277197891 12.1783224020121 -12.2110613365484
-194.741636900346 -7.36891476032737 -25.9215886611799
-249.565321169756 38.2565492518518 10.3690239142045
192.206659001794 9.60705026661537 -13.1061246326124
-76.0532563850112 -12.3714104359999 18.7716016052759
199.986782231147 -35.3562688795534 -20.1788053581327
-3.44052600348836 -7.68802734332665 22.3977142179951
-197.623599576267 20.8265099046224 -5.87815056563217
-174.09065281267 11.2898551712955 -8.58861776136995
176.623059493198 -20.8630808802877 5.55077035347802
223.719504020217 -36.125071724374 -29.3899565943727
-160.382870733733 -5.49385067122499 8.35889839928219
147.071706372171 -12.4190122041862 21.366048718689
-220.269932939364 -28.7361059455895 -21.4466870431812
-206.391117831591 -12.3198886389404 17.6255065209785
233.627894790061 -6.51172520481518 -12.6398441482832
182.202168164406 -4.82180516019936 -12.2477992997084
-154.028796470936 4.55473829437824 -13.551372024257
-63.5167562466551 -21.7064203404261 6.23785194769402
-116.421130743241 0.458155389112603 10.435036659427
-179.434630283595 -11.9798802989582 10.5951643939635
222.722050273511 43.4875696683628 -21.8501273369898
-210.215256950854 40.9242229449682 -6.38065987219044
-133.728464522862 1.41515482845825 -10.3174808323522
-194.702817256958 18.6356605588323 2.5677995863272
231.910603330671 -4.14689568633403 9.75186419058026
-128.220422027708 -20.2819474708402 6.86200182094369
202.456777408661 -30.1843383428036 -25.4211883323596
-150.558683491921 7.30385522241533 2.73872932460582
98.8535708193972 9.21263884526786 18.2174221766242
246.429549307648 26.5854350833118 -14.855047289701
-209.048988626401 36.6631711666539 -4.29885093942087
-137.953716510777 7.40250292013419 -0.24072036679513
242.909145267682 37.2260983165777 -22.5432625725634
-100.170252441054 -9.14012862155989 -13.4706818751073
-204.494734255078 17.1606380163306 12.7199763206297
-236.951647219121 47.0617593858333 -10.1934373052375
26.2947494327892 2.81706135172602 -5.59829876159564
219.733865642574 8.6596654405809 -14.6391631931822
-202.545581900238 -22.2130201782475 -28.1770753235313
236.97738063382 -26.5855748391582 -27.136340464554
212.275606391306 43.1989685390759 -1.2937518701897
25.061622862685 -4.55929901692654 22.6540923148837
-221.72542859821 -3.12621779459635 -1.99108312183461
-191.350603514862 14.9005021876932 5.43078554393089
223.232485308213 0.925522618493941 -11.5463071214934
192.795594363185 16.2107350866135 -13.7122979714128
-197.08277898472 -12.8245659343856 14.6361360601095
7.06268819154112 -1.683074606504 -9.36845153059971
-35.0323191119222 4.64121021790835 17.7637828375347
211.111717838854 -23.7222082600667 -38.2447021343556
-71.2015474386245 -7.39936475590866 19.8165671184751
-219.018098455138 49.1545732042898 -4.46595285946294
203.909035343756 39.1416169829598 -14.5805582913374
-15.7453117312073 -6.0524495659921 -5.60012608712645
220.850166179518 -34.749986450229 -27.9712219706618
102.751120560208 12.9729296918393 9.64403999786668
219.504799787061 20.6059109076187 21.4499976119535
-210.327088846124 34.4821929738579 -7.14296825145825
25.2345485950867 8.77356105976969 15.4700803197322
-106.507865867414 -5.13835494112485 14.4952374674201
232.455986301234 -20.3838097973413 -32.9650946540203
234.834443104982 41.9527933319375 -17.9895245012458
102.767629984379 -8.95672441080927 22.3714988401184
-215.190256319621 47.1016695090865 -4.23017753069132
-84.1632367601294 0.403325278262259 14.9282324615733
227.648119007223 -7.92853597100677 -25.3910181884552
203.095715090119 42.3318432110438 -8.6910209963971
-103.578899108108 -9.71170677846503 15.574984442396
221.780163464031 35.4751898148986 -33.254224829348
81.172838025696 1.52220752934543 -7.65477570496785
-76.8914055772492 -0.48981994125798 16.7912060249814
88.6666929868993 -15.7509340459247 14.1361130300821
217.593006206799 17.5482954887727 -21.8173238866694
170.819040105332 -15.7954032992405 -11.2865693100272
237.784875565203 -13.2344269013742 -0.842850102170281
-207.870955558556 32.3749459718186 7.45700195178984
-240.668604340155 16.8932886790606 20.1408739648233
52.5014843298965 6.0092266383481 -1.11831501704356
-153.256428186925 4.70569090345541 6.29475847772921
-221.615277488784 35.2982607933029 24.4162196691751
99.1949187156977 5.31288448592156 21.1400119206434
-32.8744671514723 3.59930761545112 -2.85670826780464
-45.27100440014 -9.1624728432131 -6.16603760032237
-220.334594562973 -34.5773669164216 -8.41284493141745
244.596820246475 24.7627565137352 5.49716166339824
-160.26880159403 7.32859824621999 -10.9708706562555
223.447922657273 -10.0177769465119 -33.2520629473692
-64.1973406729758 0.139145678291616 -6.50679617057495
-213.034349025123 -7.9141282572933 -9.56916408414157
-128.639851934641 7.23683496667954 1.14741252548484
-237.664118045101 26.9056583660288 25.1661742905993
-219.952608881903 -14.0283251212468 -7.53149007969608
16.7615332295572 -9.1747938548267 21.9685283267712
-34.1266536967657 -5.62833087217333 22.1834361403379
-203.228968627117 14.4975720805713 -10.8126383401604
112.551882931965 6.30237036566625 -3.61637674585554
158.758890984586 -11.761487827931 -9.82760808500876
201.516844147922 37.5078227734415 -13.0734431057242
209.815400744049 19.7707860465981 22.1268544802963
224.62174744543 2.75483021301116 -8.65561127639524
30.6128802225201 -15.7108062161855 19.1115169991195
213.647882326258 -4.56408834438647 -25.9336911741627
191.158848468351 25.4105040551172 -11.7257621447376
221.856637486398 17.6387629553804 -22.5645961676139
28.6269483126987 0.836320846821352 21.9787146859016
217.542859825142 8.73010482524893 -15.7085423131214
207.542048273495 3.19805010612775 20.8225453915761
-203.108065502074 -24.600540137559 11.5346056099595
15.1591592946753 -5.65542465858371 -5.50491198637398
20.3651948950739 -1.83990597639468 -9.07808513628731
129.461726835813 6.98831478304634 -4.44297541538497
141.374649155001 -3.10480883835133 -8.69317108772571
-218.057509984691 -12.1259744148777 9.41576311848045
220.506269990638 -33.161376696909 1.8879488306343
-194.766326706593 -33.6733881544824 7.82078821721686
-219.077738127762 -19.7597451951329 -27.7459487307668
-65.3483558500437 -17.3094488624712 -2.77563569894232
105.064852669152 2.09506691619962 -6.54283482089563
-198.187389506676 -40.2576742109844 -12.4737358255777
176.727227330933 3.37376234000391 -9.47275903906029
210.527841705552 44.9587140085881 -5.49303497985224
-114.916727086674 -23.6848499948309 1.37769481266182
57.0214008514903 -14.3746693576042 19.0907213960337
-223.3791235472 31.7860774811448 25.8447778023568
-219.80924200888 42.9931859592361 -14.5660128167002
-99.3447668941442 -11.8922941359925 15.9623081951095
246.369005689388 23.1200524146197 0.482637272778068
-208.37030488768 -11.7360381862893 -14.570475427044
-13.2977725971563 -8.87319341692024 -3.21838746454018
182.128232373193 -15.0033669859774 22.2402312368938
-190.438953391374 -39.2397055656853 3.89560562098448
-218.85332168764 -12.8206299874122 7.09998419327975
-202.883488094496 -5.98051943506511 -17.9105356296764
-239.291362168732 16.7847735740177 -14.7605944365359
-16.6982213852918 7.85767603476792 12.9729586271473
-193.313568552406 10.775471516309 -12.5144476142192
163.862303877098 5.66428217838062 22.0852340986189
-222.897063008116 8.74797290106237 -11.9299029081353
50.1504333610806 -4.90557032941478 22.4963547203521
13.7624815519165 7.87539552872015 3.64669627099217
-213.647592834501 29.8472275198239 -15.9316683580639
-221.64758771472 -4.83975073426131 6.0557110369912
-209.329623844529 -17.2364364494866 17.5559944303979
-225.400330923856 -24.1969422583923 5.08010858294466
166.488149582919 -9.71371324061451 23.4755384792433
-245.280290307539 12.8003399509598 8.85976712253953
16.3781621630305 7.05806265537539 17.9082378160798
-153.706102568577 6.06243203352928 -8.16807096170822
212.143059251515 30.41596801463 12.6254781747357
-88.3493629659628 1.23236925042613 13.577742542246
-200.70755689964 -1.34354865515018 -16.1827379735448
-248.173483840775 42.9278788372616 6.22587885485964
222.221305031186 -28.5551443565013 18.7064571252912
-192.411125818789 -2.54830852876567 -20.8630152684193
-130.850535269876 -0.496527826847772 9.27625979696251
-42.0971537734889 -20.7105943156408 6.17854592484573
241.185713838172 15.4636498930814 8.70806213339466
223.765486691628 42.9424211709992 1.97854180250999
73.8965819148841 -3.43093532597364 -7.95602112851142
72.8964406528898 -16.5331408547832 9.90242152819272
199.588199653673 20.7403339272462 -14.5769713847276
-131.337957530142 4.34618382211576 6.19602071619016
237.933005456862 32.0216405665313 -29.7730911387719
65.2409842141817 2.95130050927098 -7.11163336432993
224.237635655138 13.1184380600973 -14.7959066207623
-225.28402412769 -18.7447786244223 -22.3845679103443
-249.567792203903 21.4793952847191 -6.35302913169886
-191.890530799467 -42.1740199650534 0.746442306197512
-239.304781023697 50.1916389147736 7.02562271121888
-188.605292060186 0.759073173763244 -20.7362389200652
-153.606112073969 -25.6891075669014 -0.30804983410811
-46.5011987415998 -0.214603363665453 -7.64505414529947
240.027293584746 -22.7004640900883 -6.42860348110498
208.246282052122 -30.3918721157838 -32.4760118741972
222.141065307342 -34.9548616895874 -34.8275500702327
-35.9781668725919 -17.8356497376171 17.7112004339224
239.111428145774 -28.7354983377294 -21.8181359283915
47.3465443629933 5.15779665286597 -1.92011722646358
187.064650631285 17.8335324889596 16.9067210659787
-186.426100560169 -1.54639070983717 12.189371731144
-115.954250342503 -17.2593803822629 -13.6424627642529
227.980987020471 -0.113735307611029 -6.16634076793687
127.917582741491 13.8581341910646 5.20439146162068
23.1531396310902 -18.968140717859 12.0465563541371
-219.240453893278 19.2732784226286 -17.5403792094641
219.838872869307 34.6360034013057 9.03933859332823
-70.4454304636002 6.46380376136521 10.801442410376
-173.413187203618 -8.47037169484785 -22.8501252467652
-219.063029321536 48.0524834306459 -7.36712191133463
-212.099674840221 -20.0858183687012 -28.3877832646483
-61.8546818813993 -21.6868847796454 8.77675109477287
63.5564358638153 -15.0071232152315 18.0921238742573
213.370909944343 17.7184488768387 -26.7489192496144
-116.675829649151 -2.91575402253488 -11.7432043917947
-215.458495108036 3.71250485256955 17.2062372928478
211.576235304256 -5.05454415205945 -27.3848862222547
105.131710607617 12.6092981529345 12.7768085860657
216.111988693112 40.4930175086726 4.18573584031738
229.945960455891 12.6921066872526 -12.8883325238968
220.679628581771 44.1380370865722 -2.96024090884776
-206.747544760617 -16.5631098606742 17.328780621448
-199.980955041471 -19.3200153392123 -28.7638139021688
-249.925227929821 39.8601438197858 -1.86344210679202
-181.498618815079 10.9123716729129 3.25227898270575
247.483387162768 33.9865871743249 -8.26889698078888
168.207759725116 14.4029576101379 -6.87737789669275
110.71262809343 11.7508153226853 15.308396050187
-195.898041475061 13.3824587056288 10.0802173132556
-193.590764909427 -42.9370927409832 -8.62798535784684
-220.852560911526 46.8397188612773 15.8715191651086
-233.267113468078 51.1911935606303 9.96588068300083
-156.466719750381 -20.8959710778075 5.33188379608017
229.964575212752 11.1755312604321 22.6795723252448
119.403185782374 -16.1275038011111 4.78416550219747
-142.611445405483 -19.1461827334838 6.98433167048157
146.574024295761 -16.6598323216692 -0.125821930040306
-149.207657680159 6.30007122433717 4.57477511681393
-2.74845065135137 -15.6557334070495 19.594682878805
122.984538821823 11.2280627205676 0.304391508332756
173.465990025635 -3.34815309215124 -10.6924203275502
-224.184686809073 -16.9386302091755 -8.72545568342756
40.249831543866 6.79881928641498 0.558125146183107
216.706842285918 -38.9056309491422 -18.6860288820373
-159.964478896368 -28.024110219135 -6.66504244558425
232.058322123357 10.7002372711338 -10.3331490409101
138.960877710492 -7.91217059975942 23.5578051250539
-237.20583200967 15.3784868661374 -14.6506769573117
-44.7534247997978 -8.27570107290159 21.845441022579
39.0960572978301 7.97432171974472 2.53213403960609
-225.107567350475 18.4736214099756 24.3507087836619
237.336061130385 9.31091839345261 10.4342519928934
199.65931487664 -17.179558864189 -24.9189675009286
203.236485275835 19.8456006477611 20.8572444800763
53.2227094704036 9.74320079037714 15.2439345743513
-227.003984759402 -24.5637799616417 -0.483427303402184
206.347515782961 -17.4199413805746 27.4302650955525
192.72806507859 23.9907558602711 -12.3377083592114
-27.8978268982531 8.12392945746033 9.95131270526543
190.397204985902 -0.00344837731699202 -12.6537583727858
205.519765883961 -35.6208586189489 -9.02767762455836
176.477891346208 -19.8431545755091 -8.90627840838035
-202.65586942452 20.5330004271261 -8.33443878770492
-187.879038318444 6.27424107703492 -17.2324976445889
232.576102384368 -25.9571940908748 12.8465666864955
-163.39414723573 -26.9139207977531 0.216873040550494
-233.408906503511 8.31634454309667 17.5751693152253
-95.7838531163771 -19.3668933098989 -8.15731311359396
-195.516096610834 1.87734513862267 12.0965384997173
-176.662612744261 15.8124827652592 -19.2384757581799
-188.514155327298 -18.2420685550093 -25.2507074867595
-147.86282255991 7.51293140329346 0.72668102063465
-238.988214661261 8.38167764369324 -0.878982038243205
105.936301442712 -5.52431674725392 -7.34885080887271
237.890288717139 -25.2679593536439 4.0401252377337
-178.507907853546 -9.17044506475038 -23.7906015211658
209.491216597196 -35.7867597337393 -5.22301537884193
-220.969357339979 -14.6438868453096 5.90062668662455
-193.615706792948 19.0011691998217 -3.18963936887031
-134.588138013712 -5.04093822528558 -14.1882919956337
229.9032588581 -37.2277149433938 -32.2093553716023
228.50527279455 33.5957343389294 -33.7902833384377
218.42379086242 25.904659340361 -32.9874729940985
178.565309734352 -7.14715369269818 -12.2337115792392
-101.925062967383 -22.1661586926595 6.92731495492887
-108.849751286723 -5.19935980590241 14.1400512772433
-246.095930921905 13.1886021331028 -1.82884634651784
-246.671167943867 15.4221599653781 11.0680798284454
80.5330328695124 -2.81171348814976 22.9532244080129
216.23668371212 -36.8334904879592 -23.7002340902983
-102.911662436898 -23.0468665203561 0.17220227616498
-234.366740255275 31.7720020271166 -20.4827627895213
-80.1748267504433 3.0906696881876 -4.33205468311418
236.502562526788 -37.3635314766765 -22.0291365807878
163.124698901194 -0.884253292266567 -8.9730529585379
-89.6496349016082 -16.3289825468383 15.511478583235
-114.45296808818 -7.05167093185121 13.7127078800116
233.150996657859 40.3589960156121 -30.1453127315111
235.331084234581 -9.70176679111662 -7.80004432042328
208.961361869812 41.1261123827475 -17.942782158821
-59.7437096549308 0.0520617021614948 18.6395314325421
237.470541230216 -14.5129875075532 -14.0929706232846
-233.790056753002 12.4012011811792 -13.1367203104923
215.625329311392 33.9908211423945 -31.0836876462681
242.937984635856 13.8792186299556 -2.33611923244143
81.7411708693032 6.29551514074898 20.0682972952515
-230.0913591677 11.148418625953 -8.52985634626984
167.701145238646 18.0805461236067 -0.390332440744095
226.955291136875 -36.0521668722887 -9.54533826193127
-208.082253628546 -6.99666394112209 -13.6426084115448
116.927892016087 -10.77241201928 -5.76796186833002
194.874205204466 -29.3906662884328 -9.89019893110125
236.276186745454 -12.6196033435345 -8.26251056408144
210.84572060875 -8.19812727948488 24.9115998645673
161.272366417702 -2.80344481528802 -9.25088739038501
-136.110351988353 -0.394692873220792 8.85300467163976
-132.127562123866 5.92945787222169 3.84238022527558
14.1641924708146 -19.2395296725747 13.3347450983536
-242.798914594427 17.3298189921793 18.653079162575
29.3937023913335 -16.7412865227861 5.85979685659481
-201.49862996571 24.5888740572146 0.150741596720937
226.797431455902 -8.95943866373673 -27.4104825156468
216.02711681141 36.0487786829685 8.07130853651545
18.1347697088952 -6.78699530393027 22.449923928885
151.811259093289 -16.6316580583352 15.3671769161069
223.733656952936 -38.1352634790701 -13.3050977821247
183.597148660854 -19.7062932089312 16.0358909413461
36.2703662986316 1.04598744859761 -8.40790839096581
-86.9872429864972 5.83839455836829 -0.598675657178055
-167.720791794035 8.47756362673817 2.28033130869035
-218.973948529396 3.54489260080386 -11.1386045094213
139.344275419246 13.9625329907326 13.77249862053
-187.824498876974 12.821861764179 -12.3691036099732
-143.609389948662 -10.1210841740325 -16.299042769109
73.6536132697408 11.52695948598 8.93505157859419
205.694741901459 0.559286281480896 20.9377483287811
-188.130573703571 -0.920957629578116 -22.2271817521015
130.369054177686 -14.7978877876805 17.9247579921155
153.388303638716 5.56094543935567 -7.30133295027652
198.179144291945 -9.4601304458204 23.9911579066449
-218.092921682314 23.5994839050124 -17.9358025870211
126.636299078298 12.8601098316552 2.72480439206784
192.740091975921 28.8666611880153 -10.2730405455678
-118.528567568687 -24.0135657621801 -0.738612821752978
-27.4833815376982 -20.7719809652513 12.9252250309505
-195.923136576989 -28.2608399670601 -24.0216798953438
16.6871767089702 6.76208154299169 1.66063553147535
223.1344008378 16.9464419593775 -21.0109083206306
16.4577943761233 5.2569182003248 19.8544362269912
34.3939591900189 -6.15328083280232 -4.96726432528086
-245.589491024341 21.844407193132 -12.8525203499008
-162.832995456139 -7.66191612420605 -20.0682564727435
-148.297119374675 -23.4124957209909 2.71153952371747
185.573310246485 26.730729013274 -8.20531852926367
218.432685559967 -17.8990803841359 27.6834152253816
-191.625909350929 17.8388240129254 -4.94378426759294
35.2665428488439 -3.7472522563117 -6.92570285087004
-177.564752719477 12.135242224615 -7.60851220815182
215.489200350181 29.7666808956009 13.7789313083514
203.951614715052 -33.5058439094974 -5.66004117196405
-216.491030740742 47.8729971955309 9.70722770752593
-171.511870571422 12.98642971996 -12.1723358738046
174.969511551479 -19.2430998279789 13.101158102918
-45.3285909395843 -10.7786897853962 21.1440160822367
197.57754339451 -30.3710529452067 -20.5885750653841
202.656033887964 -8.92024773478103 -24.296457305691
-113.470540776322 -10.5141353968087 13.9576536100268
-228.878456139778 22.6830900679426 -20.2525113186267
205.614557106285 25.952488942405 15.4740006690704
125.533856689594 6.50072243526649 -4.48326836041649
-136.427319290959 -7.00961322252709 -14.9602988768759
31.6959779767359 9.25783230751453 5.99374465607751
215.925189595697 14.2697130361024 -18.2565635988105
-31.8173641339157 8.09162281771204 8.95591152531869
-226.544582270506 -29.3002543614627 -7.1919018447376
78.7668945701353 10.8019947002273 14.4154262282529
-221.378582604497 28.9929109833956 -20.0785189757996
178.425496441226 -21.7003084666026 -1.97503185654234
-111.740868482708 4.93993562123226 7.22800444147768
226.653581303484 1.02489408822806 -6.68693847173481
-57.4836722876402 5.21034765971115 14.2323835005005
-135.855435159413 -23.9864286373912 -9.17231509213239
-163.517659394613 -16.810102452393 -19.3147636184765
181.620197994293 19.9240607786938 12.23964631172
118.62611191643 -13.5806567778004 19.035088281599
-247.91329434628 41.796285193648 9.68678267809675
-200.241367273917 2.87956819534827 -14.8444351143779
194.171994709247 -18.4707887620699 -21.0267522711819
-169.235987553548 -0.223155654617439 -24.6913504292585
56.2970162937598 10.9043860537455 9.90666008222702
-164.503807343911 11.3057301152315 -13.9449749428221
-100.055040127835 3.02216257095893 -5.49819930776992
-222.062316931147 -2.08123167450553 8.95150650262954
-5.7469991944089 -16.0961946127764 19.3077713275459
184.51590688687 23.7123587382707 1.31150032819267
198.508011374592 23.7368637089757 14.6895104276869
239.029347864123 39.9012079971697 -12.1393661738169
-220.566445846212 50.6769261464887 -1.36244777374129
-173.061320190432 -28.5699228635651 -14.6265117631374
95.4020065642364 -6.03364043585484 -6.80281905629097
213.782912662238 37.7549866773817 6.7058893563329
-227.342150130995 51.2152887251324 11.179547024776
199.899101944278 -18.5334195503235 25.4512044378674
193.954576214179 26.3072937267925 7.65691057216278
189.960533180275 -25.3889683787081 0.218811979859077
-160.395122111141 -13.0341271901359 7.31954798393013
221.863355131563 -29.8775365128822 -38.7688376495369
221.988660790621 44.1431651860934 -27.8932495243853
-229.161149580675 27.2890788090911 26.7721985088615
-50.685307484 7.75897843906411 8.07087461211483
-243.366635780572 24.280405584432 21.559356684646
151.36431264889 11.709347033017 -3.57447693688457
-108.543572095129 -12.8674645119435 -14.9972663398636
93.2177460667122 -13.4797553823184 -1.1312096781095
-197.643426662878 -43.9822358704031 -4.40581761401754
-228.983091623445 2.11184143280367 3.70002610815172
81.3929141740865 -5.51984699316827 22.7953349050532
232.593429738336 0.301439942412688 9.66585922829387
-212.451864511298 23.3927065195538 -12.123183242087
-225.552402970406 50.9506896127594 -4.63811465839266
66.0805589298637 -8.07995196267829 22.0608548938177
19.5803157519404 -4.19803701846305 22.7427399373139
-167.553714741977 -9.36406588688772 -21.155087426171
-179.670271594773 1.4712326412317 11.6709080146211
246.123512968732 32.401743835266 -16.9392131137736
-6.97247831676135 -13.7494229224814 0.891119870111117
130.21479645709 13.6394673099917 13.3093244715116
-182.155213800642 -30.620958144653 -17.3409785397626
-229.196716736886 12.2579922904677 -12.7744342867567
-120.479304316519 -12.3888840783096 12.7950434953453
200.954607511629 30.288145056748 8.19493559086016
-157.318455554821 -20.6233678562461 -18.5163899964424
-219.599148977411 9.27055191148698 19.8376470899489
-26.050562055395 4.13077132061523 -2.18977180468137
-168.542171946363 -8.948135815339 8.268038662046
-67.6522425110375 6.19956160617755 11.6820995964707
-172.139703016914 10.2611685416822 -7.31806664128796
-218.122077144305 45.8456544257093 -10.2680727162076
-169.629405889548 -28.6464264768576 0.0563818041779265
217.554625132237 21.3004007743175 20.690689446622
-43.0149128022644 -11.6961656671095 20.8795328926128
-204.191109118776 4.533522018669 13.6161642533772
-146.425551412918 -6.44679654172763 -16.5562409687188
-222.791253681649 -0.622981840954439 6.9376812107842
-0.602584973216821 -9.06165591934596 22.0498428279262
225.283618330192 42.9653912483955 -22.1234535671354
207.643852326802 44.1205562093529 -15.1367641029031
-31.5224113472239 0.926986769167504 20.803574824563
182.556316090991 24.3478436268715 -8.48662772700511
33.2577789596061 5.99403594147025 -0.120973862021929
-210.748410515411 -2.56761975869287 -12.4151914366225
-162.514182299962 3.52767791918094 8.62509607236937
-34.7114473876417 5.78446711007488 0.384740809459302
-151.679889153744 -1.67771378838593 -17.2180480312432
61.8682974912166 10.9633498276083 7.74632790162792
-190.738626031705 -21.4273037681497 8.97361539365012
221.969296401416 -34.7166686216582 -2.45193902101512
223.142405049292 -7.297847560598 -26.0057030301916
196.359930442495 29.4313082790384 -11.6155872400444
241.093324561169 21.0061884200984 -23.1396287163232
-28.7031538363205 -15.8442965935183 1.18307552893617
187.256034431921 22.7810282356465 9.41329121940952
171.893436350883 -0.900647292623332 -9.80398033167297
43.3914709655148 0.50268629316396 -9.29049831735702
-99.2960008426754 -22.1758524736394 6.97771443250782
218.25292451978 3.13260844798678 21.3823215545775
-203.569666451873 -7.48756644033634 -21.7381072356927
-242.893292262565 9.56502809429472 4.8008292063364
96.3175308101212 -6.37511006453672 22.886181769129
170.792971575775 -19.9833400545986 -1.34112582437352
-21.2415283278043 5.55619990957967 0.0239909915825273
-241.611959370479 12.3685329779049 -8.01543614499102
-119.530299066818 -9.97876291972293 -15.0106819383288
-174.467782475202 -32.1907076092264 -7.40003920401059
244.231763508124 32.8040840406581 2.75348993078781
78.2588105212073 -1.7700310429184 22.8425704412173
222.620631623153 -0.281449561810749 -14.3673673017299
190.095871229301 -5.92129624501108 -14.6585991869633
-231.425516497816 7.49109282128952 -4.05977043992986
-116.250536855937 6.88671840280938 -0.31272225657498
-176.036627491165 -15.8656601530186 7.98633250344928
-214.150603365802 45.5208382968055 -5.96985062096752
232.703327873809 41.9869323993287 -7.65758731786747
-104.3848387633 -7.15815411947056 15.3123757210207
-87.7850434670423 -14.2547114989056 -10.3975220392425
-0.702217597650329 -0.972585471902546 -9.32316030168113
-181.902559162155 -35.7807514747956 -9.09323350089898
-218.279437662973 -28.1466900190974 -23.5530693447769
202.545397315498 10.2441095827593 -14.9183483826299
45.8039885203106 6.45883805477832 -0.195689128925181
-204.417448333822 -40.7159171573936 -11.0110334668015
176.330026096198 -14.8154693470335 -12.859585210835
-120.713224163283 -6.15556794682317 -13.2921813276153
-174.607250554658 -7.33185864538009 9.86083763272045
-173.881508767532 16.6468473353949 -17.4824699319586
54.8559013532223 -13.398221091519 19.8785677329171
-218.286216114239 -26.1300795818226 -25.033580131093
-194.971473830921 -10.9910466576754 -28.1700170270649
40.1077338384202 9.30655703388305 5.15203516473711
-220.325494241291 21.9663213893441 24.3438376552606
246.900162685382 33.9246177954879 -13.7681747927002
203.216783581469 31.4067577665125 8.50060383663817
-29.7926927312728 -20.0326600437213 6.80988894185575
-211.491900311129 28.2241973270221 17.799279651423
199.794237179774 37.9294268601571 -8.34194790177236
-211.855796965635 31.162803027362 -10.0071044799453
-95.4378665669271 -8.53927038149697 16.8760364847491
-47.1728826819998 -2.11330718247498 -8.73557368716919
97.1035597065581 12.6719875219014 8.56363991571485
214.645257403498 -26.534768363059 22.9059159515305
-215.671501253853 -27.2231998566238 11.7257874000742
-158.631307609776 -27.6839287331915 -4.59143071197136
-218.416605592982 -6.35028755634647 11.0438451789903
15.8040050222213 -5.77024915352857 22.6171585534311
-249.574246376408 33.720059412529 -8.36534045315899
-112.474708083611 -21.2495978953823 -9.12286539058407
-196.267831741703 -13.1749062251416 -28.6974110003116
-110.188432256571 -9.81331941866742 14.4434118458951
-170.609073788512 16.2300967600507 -19.5353777584842
28.3044406584892 -15.8824738226752 18.9358602721949
-160.116084281387 2.15528026500349 8.59467043381856
114.073239742821 8.52803667784534 19.3851030280364
208.724167713783 4.37332542770334 -18.3064721021639
-208.523013885025 -12.8870613610844 -16.4474389262047
-213.512886100809 -5.43945745268302 -10.5003535512977
157.403394352949 11.560261642708 18.7294915469232
200.504552002212 28.9547927429728 9.53357541411802
225.442223342367 3.36831073787978 18.189200470791
-135.304203617567 -25.1819332525503 -4.61346250647428
210.302622960844 27.8513227757153 -26.6031148755624
209.648599867749 20.0509849478849 -24.3728430786388
121.316797730114 -14.0516068016383 18.4094642430481
-113.3716811027 -22.4291676572203 -6.71519925688082
89.934534158816 3.97326314767889 21.5222564359197
-239.931274209757 14.9737708082852 -12.6482389223078
-154.962034778462 -19.1628937113842 6.3107596401212
-231.457875867498 12.252689411552 -13.2247753002926
-174.451261614519 -4.49221387591596 -23.6954733952305
5.93384181164629 8.10052158191663 4.44118721252026
224.937837051055 -36.4261141877364 -8.1693649354925
44.6707040236305 2.1885106156668 -8.22108431809455
-191.858826084681 -0.401242344747706 -19.7912987822679
-104.694438081776 7.23645262095819 3.0125893128556
-194.079954417227 -29.6624995404536 -23.0789840638141
-114.089384595935 -15.2872190423477 12.6409310155383
-144.117575358794 -12.6368768989327 -16.8054406094917
-168.490760449655 8.04218809613106 4.64695955665498
-77.2803280887591 -18.1794983674261 15.610206450751
235.783874802804 -13.4233048494891 -22.6846796407046
189.682183040687 26.5054561275232 -10.8597469499499
216.002294814409 42.561071387361 2.5874972312047
-175.896526347517 10.3635148106982 -24.7929579308847
-122.965512198205 -22.8100084061801 -8.45399623308999
64.1327938974148 10.3289425469993 14.6095102130676
-65.0124328600554 7.38647518699647 5.92998997614148
-194.919907104629 -44.1482000219648 -5.74685627013849
-95.9793459784845 6.97712993807646 6.05699046288625
22.8651758494922 4.77960683033418 -1.69652143685036
210.293506025734 31.0211192432672 -24.5124959288495
205.968269357547 -6.96897911469225 -28.9524379670024
66.1367301943722 -13.1880088971324 0.383801667668031
138.782611898758 -13.9848790444085 19.5864878460203
-213.103412622124 1.24570379741511 -12.2753435370239
26.0866189392566 -15.920766676364 4.64535340234859
55.982719057194 2.10837617613764 -8.37140188365736
-34.5084694598946 -20.8846722958558 12.9121637586311
198.075475411005 33.1641312405623 -4.57205502536737
-211.089279925525 -14.1698016205037 -19.3029540043877
-216.857446640646 -18.0749279129882 13.5364239982669
143.276377860847 15.4961113218452 8.41215951918588
68.1964224429853 3.31083397678448 -6.43845595520257
-252.7846851738 29.3679342432606 0.177028752566352
183.622659446851 21.6028465928483 -11.3802091173183
4.43058056170087 -5.38740538742846 -6.16764201917645
-174.08637833167 10.3765866666711 -5.95727628305883
164.409041660849 10.1872321084626 20.0571162317828
-145.553161859895 -19.8732097519806 -17.5357348528169
193.889399849556 -6.61775958834863 -16.5332494514515
-191.976152249014 4.82001545125176 -16.3924654862778
-221.235721476647 -8.91371955536848 -22.4285370493629
74.0763524459026 -1.88480973394065 22.8006894120578
-200.080283459759 -10.0385243191668 -27.8988678813798
180.020938234635 10.4673233459115 20.7589966064942
182.888980646606 14.7398036702399 18.650169160386
192.280465213959 30.3655140853073 -8.35189392781434
162.966966116479 16.6858029901187 -0.239401371233295
10.2083581770894 9.29985829299672 10.8171185485709
-182.450084402498 -36.1270490322687 -6.28411709135746
206.389026711016 19.1914778351604 -17.1699351009727
239.26406743222 35.1826025721982 0.98416694046898
-140.840562781886 6.47991409174767 -5.21537153354111
199.644790119512 26.8389227895399 11.6419870501207
-173.745587549154 -30.3680095975525 -12.6298612114004
-164.413274933245 -24.5289793443751 3.19832744373159
-179.308897144828 2.96749522923135 -24.4074804956246
-152.010281432517 -26.8041464813826 -4.63661776897793
-172.740295586026 15.653268883596 -13.8043721252554
117.831414145379 13.2402245004939 5.26973448000178
25.3365611994427 6.98492873028331 18.4811666547458
-238.5199547446 12.0176003747542 17.3759751402921
-53.6836589150931 -9.04956516693348 21.2949319082841
-232.720049690323 7.38976117080035 -2.68728169042577
-201.932759589161 -6.76862690593032 -20.9820786587861
155.158399910042 10.1549389747815 19.708192184907
209.575907804532 -22.925250157497 27.940507676912
-196.658127349349 -38.6619631589798 4.25091920877857
120.219720873641 13.8806662274773 9.90664878909217
-170.514079769099 16.3082869325673 -14.8963043421066
142.673837865932 11.9484181937838 17.3380638093542
-72.6566469533803 7.32106365799353 7.00136457772414
28.8574966352893 -10.0345537750954 21.6425221968556
111.39954469621 -8.75297372032924 22.8863011668725
-123.204970536583 0.489057280553723 -10.5064145668999
-247.940964652677 16.3711516072041 9.40419067290956
-227.121266660302 38.281782531006 -19.5891065649726
-238.06199734054 7.87000366514871 0.464862831301077
8.1274170667322 -9.48434462540602 -2.29136903462847
168.745989739334 -16.1904323972131 18.8619275975225
-100.677835766311 -0.350300231474751 -8.87399750154167
125.571374311815 10.9006202758067 -0.331233077566006
217.726519162546 31.6429936511562 -32.5825910570234
-205.340483083096 17.7082834113957 -10.6436036103076
-211.278584697077 15.6639734867966 17.9380108367312
-209.179756748352 -13.773163412743 -13.1522787109868
194.037136124509 13.046084871984 21.3542700057192
-188.606330548159 -28.1288980713865 6.17838264621541
-188.838223511309 -35.7986352104375 5.07956946952456
-210.905856935178 -25.8711254810878 11.8432884411239
-243.591396131271 13.6807523245438 -8.02826089366996
222.013257136826 43.8052998669467 -4.56304491204448
-222.100360536181 51.5416367379784 5.16068472107473
-137.420770705176 3.42471318446563 6.65351895555928
-97.550593449509 -8.24604152344571 -12.8962847043274
-163.184879015252 5.43977195144059 -23.8356722438622
246.577362253907 29.432496790967 -15.299403069355
137.389188384908 0.192271341412258 23.8823575208001
197.393272174909 -23.1055265949916 18.9962272945088
-184.964551589148 14.8532812600694 -8.99015124663662
146.643061595899 -8.89228109233362 23.3106394529403
-76.2387023360157 -19.9701310909588 -1.77215495582645
218.961002588975 45.2590742523111 -13.5687186393466
-22.4491922265271 -18.9073159490408 5.80642737093868
198.197556172908 -15.6524438193306 25.2804713055349
-39.2516725831648 7.84014729494517 7.57681985863088
88.0821552167561 -15.1438694258936 16.2829788776804
-213.46559634066 -13.2157350562285 -18.820031277911
-211.251902966692 35.5011380679695 -11.6139850491644
-151.738329225183 -22.9948169021108 3.32791536323732
-191.810288933355 16.3763953690922 3.30061399803656
95.7505927163959 -3.31465947797981 -8.15357412929536
235.476109081369 -12.1648655961479 -17.9489328442386
231.595004314222 -31.0506362083216 -1.07150066726876
-227.049667921628 -22.2569196640718 -18.9451876818188
-165.993756969038 13.7524618805923 -16.0961821316009
-197.675956722209 -10.6178160907045 15.2550165888404
-223.793563617299 8.18091682389846 19.9365025837192
201.082899801169 10.5001154228512 21.8687378588123
4.0520774663273 8.63083182672547 12.8915661868449
237.328151709583 25.0998270793917 14.2244016339335
226.115039192746 43.8909074138047 -0.0122373957136888
-208.073152137466 35.7224326845926 7.48203225185152
-97.0357691312483 -0.424855767409137 -8.49078688353988
-60.7906317305097 -21.5166140427258 5.68634450283904
-147.868497771705 -12.7581295318076 8.79247316464452
5.1513600499917 -13.1031234034086 0.712080418302492
-179.545406877618 -26.8628220406794 -18.9191071564373
-172.355270774485 8.98348082946291 -2.50471812633865
166.424207845955 16.1404197404826 14.2614641576676
-109.55288277995 -23.0639207250026 3.65941247042853
-192.116704811147 -33.9293741550931 -20.3357720952789
-228.712954103875 -17.3650080818864 -14.2060619324169
-228.696844507266 44.2515241855428 -15.9640258431144
-165.852073003814 -16.5460787340227 -19.7155478824063
-178.016560895052 -33.3685271971321 -10.2609975989485
186.816656177702 -19.9740367959794 17.3080271172471
-108.59464308072 -18.9254898943055 10.6980920846602
-163.97893026795 12.221198529308 -18.1088786886127
137.778375442731 -17.0287010506006 10.2303933222137
-211.274562790535 -37.4393849030265 1.70655044543277
77.0429679210424 -9.41166274371104 21.6470391823423
189.093675757788 28.533375101034 -8.69684006500403
197.274402073361 18.3042138567596 -14.1789327812921
225.809279093057 16.897105518459 -28.9666758199207
-41.3817657273895 4.84388466095762 16.7375708150991
-125.750483720267 -19.7886054555759 7.6567501245615
-191.81062160353 17.8792752869156 -1.97278573828991
239.167650144892 -17.0227266385873 -13.9929528360234
-226.37568136484 -18.53841958213 -7.95938456209337
-240.847079658157 48.8394401964025 9.72292963434254
-178.551547212244 -22.168268877012 -21.1566732726417
87.3835753714362 7.11848947511788 -1.80609460471537
-220.411743074624 -7.73643812881611 5.28110521104433
-32.448964018482 -2.06564723417424 -8.23137930942239
62.0111840684758 -15.1146436120774 3.56504681828677
-69.6650239891599 1.0936425781095 -5.58128488871333
-183.653255786787 -35.3709017801881 -0.882247112505189
116.380112357765 -13.5164556675026 19.0015053619727
195.654356301995 -28.601473330016 -3.383629436763
215.424450318765 40.1390753968426 -29.6099016787088
-158.491385679842 -26.1070524715668 0.0516704174567169
243.374267065346 14.3300318401551 0.266286308022321
230.56060110699 41.7314695827387 -15.0843177059184
-83.1835255855814 -11.8879251675387 -10.6391051603558
182.243913891805 -3.13818520822268 22.7413319423871
-196.807657506537 -26.3134714231796 -25.298159532981
218.505127092356 21.4869471502499 -31.7316557643243
-155.150214791066 -24.4424985164026 1.93590197500841
-190.063088384233 -42.2426897110665 -1.39572107668549
218.927839803382 -5.15044686871639 -25.963461231149
-100.89191856205 -20.7694238990742 -7.09243346022009
147.262759370195 1.0295863792284 -7.78291203643107
-231.712865484959 22.8668898053388 -20.2564406518185
-5.69057588862348 8.25006778370684 6.08573712956845
-167.204427774455 -5.08244260708313 8.63494503647879
53.9802701750428 -9.00596098937921 -3.14378083551427
-207.967375083 -1.90294259296923 -13.3666179578972
53.408834642064 10.7984906926563 10.9993452224739
127.996605053825 4.66088368877632 22.2998772181321
-240.159516148059 23.9278174425075 -17.9044340173345
-218.15813754526 -9.94081032900226 -24.8915622858615
-162.291265373922 -28.5173697184076 -5.90549160012262
-226.763943295708 24.5629141279388 -20.6343989660872
161.36034428838 13.7325513157686 -4.66927351893547
176.610194442507 19.0965916632984 11.7515659780839
-51.3616889610733 -5.04713235159446 -9.65244515096857
-5.33342204445533 -4.02507823393151 -7.9567764941839
237.539025475229 -35.3848667707417 -15.9084515701108
198.533905018694 4.7422984241172 -13.7504098144253
-202.674163926384 -16.2231281559677 16.496328043025
176.574190717162 7.90052175936272 21.4032846757915
-70.5040519845285 -20.2317218874247 13.6402263343931
-0.873722555085597 3.89621570113703 20.1233112752645
240.484211552687 37.2514645553954 -5.58003132961601
131.80833237962 -11.6076262085018 21.5178784090098
-217.933861165024 -31.8819873220545 -19.1678060173495
123.363013497044 -1.21760559596449 24.0032796442264
210.621246043766 -13.9006458032479 -36.4652646908315
232.729924255277 42.6260635529612 -28.0584453040819
230.866014928641 35.4792192271264 -32.8196271099063
-218.961334844535 -17.7573648754936 -28.3493045452438
222.755061925275 22.4234082790764 -33.4368880138797
-204.872618628509 21.5259927708298 -8.6071816051782
-212.639872290478 -34.0909392294487 6.15132143702965
235.738295983258 -31.6622523988936 -3.83375444656043
180.265844022332 -21.9092654128729 3.11757033529737
183.939942817638 -12.9002211777092 -15.5055742089305
-62.3617927765058 1.80103037693155 16.9191256070415
150.791318301015 -17.9425701601471 4.49547067311909
29.9951699271764 6.31062376344359 19.4581854578604
242.626625903085 18.13743988295 7.61455911156855
