-186.465668086036 35.6180959385212 9.234888366545
182.237498109004 11.0149706524736 -15.73450895534
143.02778404443 14.6067205181965 14.8641357060657
-92.8936501424434 -17.3890422184175 -4.32016746945367
191.274176153587 24.8015381018674 -33.1617719955666
-70.2507853058669 -19.1446009159491 9.74526327848626
-121.788561103933 -6.96228278429147 -13.1184652108667
201.303221261356 26.9338389555402 -26.993114231695
167.660079500876 -27.9248546996806 -0.367311263041834
170.742480226912 -9.23199543590705 20.6133015157707
180.833618175024 41.0527274546235 -6.18027060221288
197.719085568938 -8.65381299546315 -2.99737510322925
106.503879980722 -20.291048428085 11.8025530184244
-129.425712975671 0.174975140389843 -13.0459986148936
-43.8204233668294 -19.6261468009047 9.7674462263426
-64.4831957312103 0.437402221954996 -3.87818151046409
-193.749116518802 47.9490807065377 -1.78465763629069
94.8696557430956 -12.9943673092639 -2.84639732037168
-70.0425465743525 -18.5114853215992 2.53376042205414
197.660766776097 27.5467860112667 7.86968047851483
27.6710519342695 -13.303841719441 22.5991082972187
163.813435172164 -21.7562467205446 -21.6053661042322
21.1614805866872 -13.2347750590125 22.4839007646026
170.692144124431 20.0523528238191 -16.3254271273298
-186.184143526666 -4.63841085850441 -27.3249159519607
10.964785584898 -9.51935721483882 23.4552513550923
193.237365429848 -28.199463466994 0.500285618331538
121.966911107522 -17.6462737458476 18.7234644492721
132.603822622064 14.9424399426768 0.922451758893633
-161.225418275156 -23.1573222913906 -3.21900236276806
171.141260817108 -4.64647580611297 -22.2947659118372
-166.358795832276 2.45253931223087 7.49268614417072
27.0399148517148 -15.1103931573801 21.3053468507241
149.563281169559 9.28442602103092 18.6890556667721
-52.335153172108 2.41807544336122 -1.15806215385859
-107.952091856111 3.01771499199915 -5.71710123700384
-189.497759344207 0.134294799643516 -16.2232824609375
-111.69953923645 -19.8331653918825 -0.115856511665294
7.55111618400539 -8.89568941617678 -0.240303505219992
112.06075943215 -1.90717024692496 -5.49415916610085
-142.334980376021 9.31660198754551 -1.55956210800519
-18.5789341709328 -1.4996496252835 -4.9080574007662
114.303903893753 5.34628603994896 -2.53773140675868
134.142779933713 -1.94066130359755 -6.62503837651058
-179.663841741625 -25.4274902354572 -19.4846372385213
175.740968186591 -7.12882184985707 -28.1838131501099
-89.1880576786396 2.27972745074152 -3.56802082059678
165.584248349283 -22.1469565710761 -25.4433448503472
145.130343773625 -7.23048171889854 21.7439225614782
197.681392973237 -11.2720293799816 2.57536183121391
83.7194666648372 -11.3564081246714 -2.56745283458735
-162.794583695523 -18.4563964084741 -21.9860534700389
195.643153183637 25.6877708322954 10.8793702288413
-84.4128446521643 -6.73756100857207 -8.75419583171267
181.296217511014 -27.2948964760938 13.6109481415395
88.6761790597518 5.06829081177171 1.22242111117095
-54.5710653300602 -1.21181747319278 18.8993287255267
-163.874909509057 7.71222535103627 7.20651148189436
-36.4064176957198 -3.74812208882601 21.2218699733023
-5.22423273572855 -16.8483461255128 18.2950404856294
170.243058119451 -5.44308211089638 -23.3343276455604
-69.3205491794658 -1.06930475464441 -5.20588771040618
89.6290740990411 -0.914023278586586 22.9230271556803
-195.609427377325 -7.2547065688373 12.490225614099
-195.450427356864 -7.70979784433691 -14.2730230640445
49.2534344748965 -14.5225640033634 2.31314417844139
-174.121248076716 -27.5928072804198 -11.6813525976094
12.1487926007598 -18.8460588819235 8.63337408578146
182.630892689108 -11.6421751726496 -32.4459510999301
196.449128122158 3.80803961690597 -5.92987696825598
29.5787258088073 -19.341865735054 13.4862470867458
58.3424368985159 5.18245845075397 4.30970472470951
-9.01034031674764 -1.45993922538328 -4.67254494307427
-123.377153280388 -4.79168934104211 -13.1380292823762
-205.846622582644 -27.1777879313564 -2.09541490297026
-148.883273769312 -21.4360850513562 -9.04515745906252
164.46818476074 -24.8515665019416 -21.0507530456966
12.1375675681481 -7.28473436731599 -1.29432927865812
-107.591300060852 -5.4106147773638 -10.5366112396952
145.954496582562 18.9189102389543 10.0720832839623
191.179163834491 1.16811844590967 14.1462106284486
185.617295876972 39.9113343306444 -12.8441691000733
192.394134707398 28.9545319093424 8.78780898962965
-94.1069435838545 5.85170989008139 3.97899009337142
201.836301256253 31.2844547221593 -3.75495085777169
95.0185078312532 -19.7586886459668 7.00110266094661
138.848183206985 -18.4763507569762 -7.54284646007729
-16.8981963069314 -2.08821049373188 21.4780285177899
-212.792399691753 -10.822625521222 -12.0272608527089
-27.0000899347485 -4.749479820755 21.9879446410924
-121.488742747594 -20.0903278427069 -0.804976180804274
148.156486671679 -20.8317201397154 -7.94589911766471
-185.286111048404 -19.2641077245014 -25.1068280229911
-168.761640576534 -14.6534631162657 -23.829714917048
-68.1925389153474 -11.4264783700498 -4.34890370170416
189.142133237734 34.5424214632209 -31.895596242793
29.5066702694714 1.4134554962727 -3.37147541135244
-12.8104412940515 5.22835770072886 4.5551923053357
155.215474647132 -21.9160264043667 -13.0353940481755
-116.078868953347 -20.3420278252368 -2.92039977663521
-125.414577998945 -20.3485496663925 -2.01783832930193
194.957721737539 -18.4529280183234 -28.5149011117323
205.735751895517 20.6359024801511 -2.50209000379474
30.3194705565168 3.75962714090156 1.67474098225641
115.863426392565 -19.8222814097018 14.5027578642254
112.424440387 12.5461244154681 7.26765618528686
-208.776891747884 -9.89763063160501 -10.8816878463494
159.269936566269 28.5494588647758 -7.58854949390804
170.053172210106 24.7891253253411 13.281198558363
-39.2542878978903 -6.31706729445547 21.3692874305518
-209.12740676557 -14.3841035218957 6.39423476477092
197.353232660105 35.5400555585664 -6.34213943824492
-9.05749074015344 -3.30435338661335 22.3332379260176
169.367239476317 36.6856829483225 -12.5902118512752
-174.584773614227 -25.6245249943374 -17.861175588791
-196.928437218374 44.0768949498597 16.5314685823115
-220.051242701846 43.838607875529 9.64629867847246
-16.6367086760221 6.66163623773862 9.44870309312026
81.2685210580529 -18.5329938094715 16.9855261479617
-147.774336563434 -21.6979278656849 -5.83431712817331
192.238421981623 38.606211777431 -18.2626731931748
-162.181991001127 -14.3875575277773 5.46369154197425
-181.175582726396 -26.9333014798219 -16.1358521319023
-10.3781912947945 -7.78792219985063 22.8763254489574
-174.368814862867 3.80310296902985 -21.7069682648919
-194.008806788648 -26.6320522828438 -17.9232660652646
-155.817307606727 19.473908758516 -16.6390686661072
103.018988396412 -0.537325527976903 22.7491633714076
-190.879127262448 -21.581741348481 -23.6013717044308
-175.082306174596 5.27480432478765 -20.2005566209885
0.219985588414005 0.559199236473784 20.9783835272533
97.8442080012902 -1.76842107062806 -5.11541097982134
148.429517508569 -6.42030432747283 21.2818271533671
185.731785686536 36.6312343189045 -30.2055630123782
141.761965787196 10.6879239537881 -4.62081928202255
52.4651244022153 -19.1394629395345 14.3395740656208
93.1292085242739 6.42433299106588 2.42812511930005
-186.05517788326 -1.19680578599265 9.62830126114637
-104.785885348945 -13.1433460190704 -11.1636239808664
-121.959601093648 -6.11227117634374 11.4556905913793
202.492866474418 30.2437244664822 -25.4425015117227
-190.374234765147 13.3023231888482 -11.6341506822371
-201.385997923588 15.1163376458949 14.6996069223698
16.7443760268834 -2.10387639675063 -4.78057973455801
-44.6575970514026 -1.86786884201342 19.992643350228
192.708781839359 22.6906009066406 -32.6885785946035
-205.878384445148 48.5098363685856 1.4772358597032
184.420022549204 -14.5308943753685 -33.8699531072952
179.621511598003 5.47644804606074 -15.5466248603159
142.198643000707 9.82666102090662 18.2790003563474
-85.3738059387999 -19.4363008190751 5.72929393445177
-178.380081979685 -2.01657965038127 8.63845746472256
117.860464114825 -8.33471533117395 23.7756081888985
-179.149794484295 -15.7949965324572 -26.1027110304415
-5.91496787954462 0.797358108991115 20.6422041483484
187.800153148198 26.9490093028749 12.8338807175562
-123.973291198005 7.50996058606129 -1.46369939689981
-31.6564063137394 -3.64528068160631 21.4792371752374
89.7914034366177 4.03963420439026 -0.832413935363115
-134.569230438183 5.36049987999856 -9.46787823863294
205.160110457863 21.0497573600393 0.539541304231577
-192.45329100869 23.7903411609778 16.9413769494506
-208.444835203904 -9.35521889852327 2.28758156088627
171.838693145083 19.7166029269325 -19.8648380304914
24.776563030603 -0.481432161566965 -3.8132627306255
147.268559565543 20.6007043960504 7.38204091473973
86.2046677480118 -17.0180948526011 2.2191176999411
-79.3310917638546 -16.1865675862471 13.2928265664959
-98.9322713240256 6.0754476672254 4.89307185524608
-74.1453483748997 -15.4255210257773 -2.65126218101474
-207.549794659572 -14.9921582467045 7.3078365522772
62.1398885485648 1.8958875371827 21.5009034742167
87.1247457359081 8.74006035996989 16.44090261025
169.137904344318 26.0404677228219 11.7362451181911
186.716495539363 37.0406548268086 1.53477940580476
184.561974516516 9.10643499772942 -13.9648008588355
71.6206999067329 5.48646467086345 19.1782081166488
194.888209133952 -30.6974887742104 -19.0348971886543
-179.750891925006 -26.8456054647707 3.38938115538541
-59.2626266994066 -7.57386460517062 -5.2437896427444
135.393558637818 15.8515659767668 12.2997644756564
-214.959318544666 -14.8251101646224 -15.1244460859068
193.748340259025 37.1767710590134 -6.30245282397262
83.4254876941437 3.84208910228633 -0.0222166390519474
193.291178071837 29.1162164427823 7.96408940736221
-107.676983558106 -18.3245765353157 6.28415650679163
-62.6906282939156 -0.273380660364635 17.6655722414336
-47.6946625843947 5.95507014987631 10.5271777818193
-162.135687194899 12.7988584644536 -2.7503315587151
92.147738621798 8.76665794857958 17.0559318339717
-179.287225803665 2.24246947108053 8.48594480826559
-214.123948090978 13.7798711300136 6.80549319121776
173.24187533952 39.0631629229203 -0.209121343085443
-64.8050777187002 -19.1384790582357 4.72770986678977
10.2430970439068 -11.5485269906002 22.8728337402797
189.056767738332 15.9858854780093 -30.7033934262929
-22.3817083268298 1.78047486723983 -2.947017397822
-158.863778364979 -15.9943708859264 -21.5490370983302
198.296684269255 31.9253700897401 0.0581388228061658
-186.398053835575 -4.57231433496158 9.99778459116422
-134.007839773599 -8.80060136109528 9.28885274086636
-210.337392104494 -18.507767296652 -20.8432209274697
-129.293501067808 -20.1693544914464 -0.647400790091089
-133.644645218988 -8.00479757991603 -15.2740950120215
-200.836832192714 -27.0258688543784 0.500911210065648
-111.204231502784 -16.7807615297896 8.32064303421869
183.584651533668 21.1316876827874 -32.9455615534789
168.3015683044 8.24343006992196 -12.9081912741015
148.062368708502 -10.7881397547234 -11.5541113682865
196.573815172492 2.1277361556395 -2.00601393262106
-94.6338168350476 -1.72549042741091 -7.93521081327846
-70.2873371986662 -15.6344984113169 -1.63693931990502
168.901510674456 35.080380153312 1.69196308174935
-200.838322456988 -29.6455350376052 -2.18997263372205
-98.1035882198553 2.4798931476769 11.8894841771979
-168.456418607663 -25.0616069977458 -11.5412501673707
187.298440558556 8.07464805122296 21.3919926819108
-112.954500585886 -18.9732233823973 -7.03072598175918
-202.106208150504 25.724379167182 -16.5065642090229
-152.541773873097 -21.0986100907394 -12.6753353435311
-120.947605170086 -19.3077061556787 2.24109325444497
-168.233874202045 15.0441966450825 -8.8933709884882
-161.072027125244 14.7326371733662 -13.7912667100091
182.273699605156 28.3576849260819 -32.8157632874537
-154.517471044669 18.1674338237108 -21.2989604274409
-6.96875989455705 4.73248733509855 3.85430267870296
188.012028085375 38.8373421199529 -21.5218305635248
-196.203230871557 16.3921570479381 -11.8740296786647
126.850460456148 -0.40652507434469 -5.34141533357526
198.440917824413 21.3941934645919 13.5494100296324
-108.27617340362 -2.09216727620215 12.5360046004993
32.8346273529616 3.32490319619844 -1.42217468100666
-150.60580230276 10.2280506265735 -5.28536413515179
138.754086990141 -1.31778802642113 -6.91939403958465
-190.601409930022 41.6258356876654 -7.63695965360684
-213.774628757122 28.6501750204207 21.1532069963171
164.239688047034 35.2050645027638 -10.8595478038136
-198.083783474953 -16.732827286898 -25.7176277824356
114.162090250439 4.8107550341786 20.6437269773264
-198.88265737057 -1.39937734309739 -9.76059881499314
-118.777340375081 -3.128199140754 -11.9106123153262
-147.370592444738 10.3914058493755 -17.5978465396386
-158.978728248083 11.9754098974346 -3.68169208072329
80.8221197333997 -11.9543028432083 23.546815577122
135.281352316463 14.4264829615617 -2.15075530306586
-117.347650210235 -16.5112807731666 7.40919757225429
103.373450938309 5.06478455473905 -1.01268515278386
121.548371968801 -0.457967427093465 -5.07449226462389
-17.2055405275938 -19.3913825666791 11.1856121425198
-208.227583708291 17.4266392836975 -12.2401540488824
-105.999935001384 -19.0312074941876 4.30559434588154
-59.8077628828937 -5.89495537958278 -6.31987094165513
169.236174845659 1.71927310706312 19.5576777541008
-133.331807057339 7.9965402181651 -5.15772281220584
-209.831865920562 40.8719202520494 20.1808674860013
-159.39423948366 17.4995644146873 -15.7200109923468
138.945772741483 9.34757014834195 -4.47249286999277
204.971257859169 19.9151833380301 -17.1580356091487
-212.477139629505 -22.5875953761884 -0.679483959422823
-204.230912763522 1.94700392524025 7.1077773470076
-49.1349380441044 2.99062391554597 16.6587292601682
9.10808682243832 -19.1564086335266 9.59287282774267
159.786756209554 -15.7778792598323 -18.7312416948646
-215.3595896696 -11.6250922400456 -18.5485870167074
100.300668695611 -17.2994869825478 19.0714798215713
174.189036775086 33.8249069896608 7.1620887639235
-209.94106873057 -24.1868854955436 -6.30731690019481
9.06592235311508 -18.0698955201184 17.0482307450235
-207.706973093162 -9.77439753200028 -9.51997792194649
194.547268264911 -1.93289462886548 -6.77970448997065
-34.9434727770629 -14.6597030814831 1.61025748530991
170.236002303123 13.6635143807469 -15.0944164925709
-14.4624094712626 6.61191165228048 8.79292236526714
204.340580401576 16.3748123216375 -15.5207708599306
155.481064145595 -11.1595065695526 -14.2440991850338
-214.731899340909 -18.924940047852 -13.5510143612713
-35.9264588238566 -12.5643012047711 20.2235737283054
182.919474787629 -33.0930086247715 -14.1598625081489
20.9627785727667 -11.5217670273936 1.06088955496249
159.906190538071 11.9034221949002 -9.74274503395682
187.495726790558 14.1731648576503 -28.3050682922088
17.3563535059727 -0.47778060602492 -4.32325258420591
-68.2517710816816 -2.1180609170988 -5.99299030085265
-219.499661121199 35.2862618001289 16.6796451554951
-184.761642390155 8.8620320841306 -13.3089836637729
-60.4882196167376 0.538955135203082 -3.63774533943224
34.089997548934 -19.0315960154378 9.05669528496811
-153.720857008346 16.8833729537259 -14.4443809578851
-211.622433655783 28.0288844552052 22.0055438200874
-11.6361862273771 1.73959387057624 19.7900126862522
-139.160974084893 -11.2572044067521 -17.0711802208873
-15.6660041372065 6.58213151759094 11.4836734013141
-158.490648222387 -16.1735554556513 4.88013685868053
-211.612586332908 14.148492399388 1.89657544054721
34.6605055349313 -8.52847162706555 24.1795694098546
167.313539860558 35.6715280835592 -3.54604091909027
-167.825571764717 14.1160850076557 0.75975197804949
-20.9830120265317 0.281476250597578 -4.31046048607024
168.330538477535 36.0572543771835 -2.17418880924863
-139.293727942296 -20.5819100654414 -8.81985005080636
-217.407168941928 15.522703223207 -0.70474015627524
-5.77767464838835 -1.80271669033681 -4.81937405315261
190.17714188952 -4.80298240054378 13.7221884106804
-74.3217381055558 -6.75174151436921 -7.83359921244373
174.588241961152 1.83384491877692 19.3376279078538
-43.08319248662 -18.0980240443398 4.31993277299147
178.779428222773 21.0283584052746 18.4206308252428
166.663638424393 -28.1424983541712 -20.5996262818537
123.181507802861 -2.72117726565394 -5.86286725670307
-149.11056117912 -1.11858014882521 -20.3371206174428
177.229956127375 22.3168825946559 17.3701351254632
-198.717964025 29.2226496214696 -16.3479726860409
199.344934045502 9.60996563556392 -9.97403604095877
-176.992181469459 -25.364048063911 -18.7651101898496
193.828878864223 -4.51472692076112 7.87984651006589
-131.46355053435 -2.06087250923629 -14.3283424514718
-70.8762860036306 4.86441553366725 2.52826718430036
109.077073160202 12.6793444202475 10.3423680728754
186.871910162253 40.1873820636614 -4.92239500003726
149.381991908539 18.3780907216779 11.7871287963583
-142.962333153842 8.39729072776366 2.00306740565821
160.896662391669 6.8257079146451 -9.85333118081263
-65.6911109684939 -10.5655250159273 -4.36868151232162
-204.293488211835 -9.57372571724865 -13.4356445990332
68.1312944136207 8.34596432480114 11.3953041599071
49.6416319433796 0.31883112297377 22.153606940151
-116.432106501237 -5.85665768005435 -11.9829698074838
167.041765148678 37.6768721065383 -6.74079315954056
178.515801620764 -4.52046252453955 19.9986479968312
90.0918067314998 -8.31089218446921 24.3450645449926
180.358290419301 38.4611716313531 2.37578101904339
-152.028668028388 -16.9604783636422 4.45083822216218
176.36383229587 22.1004606593392 -29.0587607041956
-189.07634532444 32.8747719276116 14.6225172999952
192.942857536857 35.4378546062098 -0.115179317022832
-204.183420794608 0.262391266705809 6.38901466566816
189.327889377694 38.350033850032 -28.9163080491723
168.170935889355 35.0788994588889 -13.0219662501354
195.977747197067 11.7233147047238 -11.799999159985
-201.593065618382 -25.6637611037121 1.69156383637615
-150.039188675927 -21.9186455083627 -6.74717474638751
193.7025071716 -28.8049735962259 -5.16868567354158
166.748689950433 -4.70096958817524 -16.2373495560976
184.962552227971 -6.48993964644551 -24.6912995876304
-145.021205422512 -11.1428572200693 7.52411273996162
183.017671789158 39.6726516886934 -0.565304117627593
-104.188816894208 5.59745114243207 -0.308615288370576
50.2780554371284 -17.2383242419905 19.2697065531776
160.517099332266 -4.34383475466069 19.4716061124374
-5.88872867575833 -3.89628946581928 -4.1062650768449
-213.106496782591 -17.6672074518537 0.411884837161786
31.3307117286978 -17.0214145880934 19.4031030500474
-188.000489915563 -24.7670516438096 5.48200764829515
-206.058825279986 19.6180643129018 19.7641933520632
-136.923240339831 8.82797272592631 -3.70362554843392
-198.072374460176 -3.1973261705498 -10.2915559411834
10.2796955687375 0.997023569530401 21.0159052439337
134.21126076623 8.26269990735899 19.1548110017752
-140.267010159007 8.46097766542574 1.23688110487813
132.96826852297 12.3572957077086 16.4068651347132
-57.7298761280498 -18.3037175812375 13.0640107885539
-189.357731613138 -1.0351140493682 -18.8161664563962
-95.4917582269793 -19.0758824738995 5.97915141035429
168.554629832556 -3.07513751630329 19.0318875729781
-107.967737542073 4.46943644454407 -3.74062958268627
34.1143709695352 -4.68487337404133 -3.624055490754
-205.814974864845 11.1542523826523 11.719578736441
-4.44837399914828 -1.05316565774485 -4.66435932122335
-195.525443238394 -5.35466092157923 -19.8394147349699
151.075963767594 23.6208079539674 -2.12709867605417
-191.894394707206 26.6384878411076 -7.96546061742949
168.885493921511 -6.43566351694629 -22.47575098592
-172.344022927367 -26.7312818744568 -11.6469227537161
17.5128105123771 5.66761830289551 17.1128225234661
190.439086489589 -5.34191328845945 -19.1739535155313
83.2125711412665 8.57385173052926 8.34242689007273
-82.7208968321027 -19.041582885006 8.74177267611623
-146.906829166956 9.57098254958681 -5.31768703085938
171.868225871397 6.00328806106786 20.6584238757326
-201.544392861975 46.6370239828368 -10.7114654001632
163.046645150318 14.9475676712184 17.029730825607
202.088305019461 28.2773273574941 1.55202473072977
-116.645575640154 -18.5927872630331 4.35910618964599
174.916824288146 -3.37620156956953 -22.7179931392823
166.987080201832 -12.1190768949386 -29.0338780557035
100.076211975241 -13.1803071606833 22.7142530407247
180.375428346975 0.750031076097665 -15.6031282257078
-163.637141338141 -11.9329464243666 5.76628212855763
-216.768843119293 -18.1286309543359 -7.75910487157453
81.0454574648578 -6.71997991985472 -4.95944992496917
169.314004235189 -17.4932074695742 -32.594911504357
-160.937424278598 -23.1491082967893 -8.00908690306285
159.63470957922 0.130108744804222 -10.7764132996505
139.916317642711 6.17187313303524 -5.33050834603981
174.792335388662 -11.1214155305515 21.8943604837054
185.628891376017 -23.5616803176809 -35.1693832648324
182.608694242887 31.5819979210637 -31.9690920347368
-9.79275505984829 -8.32813759478065 -1.01554449918148
110.773683255339 -17.7284081926748 -0.358374181021793
-177.69272760425 -6.33348545220053 7.23500351153683
-126.156242604941 -15.3237709454476 7.41262421954583
-162.161694432328 16.3166422835778 -17.2371657268839
-150.082413204529 10.3771309667601 -3.72039909344312
-192.710024171844 -17.3308261910373 -26.0351174970393
158.555625484923 15.318394513174 -9.74837882869654
-181.329012007087 -11.2949399058247 -27.9886862226184
160.99696064206 -11.2960867014721 20.3229498779788
-154.247508816968 18.2279695642868 -15.6888152955006
149.158129636949 -8.30506839985252 -10.7357875000678
117.880370755412 -4.11826503105396 23.4370773136436
-182.16111409732 4.11765322100968 -16.7143137300806
176.044740087707 -20.9926179452183 -35.3674633461906
-188.101311552791 42.311822040722 -0.727491656337028
54.463226156038 4.82632015431258 19.1528612447703
-155.11337066593 11.5648770745926 -27.0394853709715
-122.993874730206 -2.84684146750184 -12.557609415261
-108.866124348089 5.37709180357377 -2.21816760633924
184.086860503775 -31.5329961755836 -2.48799417378262
169.347927569637 25.7697236689851 -15.349675258802
-15.5863575355901 3.98451805945996 17.9125124296443
179.655417114365 28.3045180632487 12.8602674676501
-138.347022934014 -20.3217816439001 -0.302978760286147
-196.424832368303 -29.3563450485863 -13.4380353227524
-92.1843628208496 -12.2988170521402 14.8099959552747
172.188074573597 7.80213672169996 21.2804317246092
193.549293371368 34.0595538677614 1.70831785686656
15.7119732715902 -1.69900384043161 22.5251877289146
-105.536819117403 2.45593863045019 10.512609283646
173.250571482466 -8.56232938060232 21.06063242225
199.333979606151 -15.9318464093468 1.04892110592267
-176.165765917342 -16.2973618100434 -25.0877724802153
157.486386943574 26.9978726382682 -6.93513020621932
8.00955331599578 -10.9294461094253 0.927053580295026
105.297933049709 11.7011261275402 13.7000852272707
176.265439100689 -5.27922820821119 -25.4792159241307
31.471608147209 -16.3733956384893 4.58442411515881
7.36123039220832 -4.54807683604845 23.1614737987349
185.897427059993 -31.858532203825 -5.11670829671392
-77.358662845382 -5.71063550192074 -7.75818665719707
190.747049110653 36.2842577677285 -30.7179378683961
-211.934891904972 -10.8690039172804 -10.6481161215979
179.810941574863 -32.0603463302197 -18.9655016832467
-194.793705331386 15.0968235852915 14.0564474857606
172.69430592357 -2.94375885321093 -21.8024251591093
-56.0042888013969 -2.63353759618192 -5.66932151939911
-193.047631938485 30.3766644725902 -8.4807216990198
-69.2652877169334 -19.54371668821 7.87817008037243
-179.550176128034 -8.03420620539822 7.25892185283177
-112.296575208878 6.65807205014989 3.57392559291363
79.8015358825433 -3.66840184905312 -5.67274205882113
121.521877995441 7.48218241283748 -2.22148770120584
142.526086044296 19.6480532837373 4.19737655720252
-206.938452535617 -8.59310760737622 -3.01713249252954
188.195106927015 14.5727308133192 -20.643641159908
48.7080388882662 7.27242350405403 11.4708579437165
-187.149929672155 36.1018231395791 11.2619821336386
48.4079550896048 -12.4031705507535 23.3983884025407
179.611411467934 -33.6238202062773 -14.6035138420914
91.0038699538964 9.9960795235031 9.46707460070113
43.4519367598594 -9.26749730227441 -0.59818185092514
-160.403342345869 0.140885836125298 6.32390860253732
159.350650569267 23.02505675902 9.27664050255398
179.639495958237 5.74750343758308 20.9041978478801
136.879956607781 -19.6054678793544 15.8331665956461
-102.891252621915 -4.50523718892204 14.1380507421842
190.048783066135 38.7438232858945 -12.4784061050902
70.7784123338739 -17.3497770305013 4.12766878160639
-11.7693093612237 -9.88773273855637 22.4540342948448
-156.353567415577 -22.6345635990655 -3.82062380243848
-219.536557705193 42.1847533619465 -6.66217026608505
-146.946297683983 -7.10059441857702 7.63567235022405
51.6736245092612 -18.3707499032533 7.14204893078943
166.843806170844 13.8534860033261 -13.4070185639736
-186.056000890579 -2.98171603318753 -26.0144963451571
102.037054310967 2.32154665307736 21.6909950617588
8.80840221702695 -12.8425759797 22.1476635383789
176.883449748633 -33.4149257042323 -16.5338305228205
-90.5938362364016 -19.4857930301231 2.97165645631708
-126.303904742449 -0.617180603285488 9.26719750508923
192.796743311989 38.4366069024274 -19.9925043906248
193.982483486768 36.435819642306 -3.97223542635292
-27.002048967899 -17.928381410686 5.44238651044058
-126.816797934893 -6.69907235412221 -13.7122305282206
-215.667005448135 20.296281243206 -11.0356620574397
-111.101790018956 -17.8974316214971 6.64230179751514
-12.1487477165233 -6.78734090784735 22.8984680087481
-88.056519748702 -4.02432000987151 16.163416793233
-189.529885750856 -9.50764081245746 11.085313743693
105.647358616604 8.08725635310127 18.6996767661648
192.587383641641 17.5886963840678 18.6448223947723
-40.509176493634 2.01396047568868 -1.35008887919205
204.247540531461 24.7877399979296 3.22462052587731
-189.393425279817 35.2092943993399 15.2840457889211
0.720205099682939 5.56511461600199 16.5232651365937
85.9292590874433 -11.1475492523202 23.8253527555039
121.131133927891 -20.0578857567631 14.2096117788205
-153.234271646582 4.22688485005217 -24.7960084039994
-152.553346692529 -5.4116200833304 7.0791342458616
-150.017627905537 -7.44708245285303 7.2294217680825
140.694771808809 -19.2099572447274 16.4426908434358
93.1348462207739 -15.3325085656138 -0.820578284356871
-167.743928523604 12.6698096626597 3.66167943430701
-207.913476296779 -25.8991718420215 -1.56705410385106
87.8002928555765 -15.8215718935816 0.406485987919211
-35.236091838279 5.75438486061618 6.65031468991867
-205.218458217844 -20.2679946418818 -22.3737579846003
111.886987375206 -20.6261407065558 7.56344598417677
101.518412250355 4.18226097957499 -1.87364893656981
-161.375598678619 12.0265339802582 0.969004769878532
196.853148386194 -27.2294399444767 -2.07548188982816
24.2268836142063 5.06848080744673 18.1340021503993
165.60110230107 25.7138843754689 9.89329929141462
114.867805216009 -2.13298849315424 23.125232368444
-129.12475130879 -18.4636871300122 3.54090432066353
143.645787082085 16.2363752393334 13.3146435085759
168.152254886583 29.974765947663 -14.3478196991545
-168.469418059496 -22.7113883009493 1.39526405534524
105.671822468579 11.369976886248 7.42359247695952
-191.187817858721 38.2972179490073 -10.8706766299694
102.993365948338 7.20516433236361 1.76483297973185
179.257207471918 -9.27617819719653 -30.6425993394741
-165.694398272879 8.10693731987318 -24.5942710432258
-23.9165590972462 -17.092635589149 4.54777633509773
194.977516663047 -30.2899660128064 -23.7116111392627
-109.417881481949 -9.97217740814067 -12.668160776345
-29.4463454425019 4.87806240378285 4.0031309934373
84.6486202042885 5.20807565414642 1.74557652463263
139.938307557355 -0.671804175621475 21.8888028685605
15.6360612975895 6.62114751887379 12.864370957513
-121.236655382449 5.02229727553207 6.2218390811923
-119.750931494462 -15.5784825906189 -11.9013021833313
187.418757780848 -0.590498964942356 16.32960011165
165.455518683831 36.4584929459157 -10.7962073889651
60.061382041868 7.04960560218384 16.621836366256
171.711964843027 -5.29724088614669 -24.7137677151946
-201.25492786484 -18.6143069623058 6.55997437601646
-125.826348584185 4.20667204065325 -8.76495278183735
191.049543686252 -5.6309759464331 -20.9625084053523
-166.056480789642 -2.87306768513146 6.12020206268088
110.735575371967 -7.06392024328983 -7.43661634681716
-79.4740903317885 -18.0087292889994 11.1447156937041
-52.5283112987449 -4.64002354498468 20.2748875537288
-180.844239987081 1.5316511235424 8.83260792357924
75.217411805058 -6.46369669830995 24.3315732449285
186.778725601385 -29.932092735216 -27.5912813275258
-109.22570803915 -13.4817823078037 -11.3440445811511
176.792471183959 14.9906927687204 -23.834562528899
-87.9916739025131 3.74373721640652 12.5027151211465
-158.722905641396 16.2123104409559 -14.6146442052512
-175.216017330959 -7.88166026192768 6.52128680336317
-139.792878349597 -0.0298049147364543 7.91363941290703
-13.6463687714756 -19.2288826030243 10.5117177263143
-132.171949656062 -0.276273667810823 8.49420373785918
138.698017753375 -9.13388389588847 -9.14329457777918
-164.890716635411 -20.5094577462793 -21.1562115965283
-172.395157169993 -5.11470718752946 6.69497616288545
-178.378592336159 -5.20014156947106 -26.8601042097084
147.382542739089 -16.9888519349918 -12.2430298924921
-182.927580883392 -9.9233108379579 -28.2381263111995
-179.780812355458 21.956975953994 -0.891616545611895
174.420774891384 40.7567596727849 -13.2968908962935
92.0683589300569 9.32607021909619 7.21846604523586
-184.426342041938 17.6050778023469 -9.33500436813247
179.39596717053 -33.3492725945862 -10.7628569281627
-77.766656813275 5.63700544724812 8.03871398927053
170.017491311589 -29.7562344094 -19.5520665167753
165.587272060806 37.4754459791764 -9.51886470692661
-178.567083659516 19.2724960267145 -6.4729204781988
196.41433362153 -30.277338532292 -17.8443431068764
-202.504073239517 -9.89649128276714 9.94136899558795
14.8237193035632 0.297592456063223 21.5571928035286
-205.353995838135 -18.342844517005 5.8350865012296
-216.315932545222 33.8009883639585 19.6717146211818
-62.4536394602691 -3.19847773718327 -6.22697146631372
198.634156423254 36.1642960869788 -13.4928076796993
58.3705200238877 -4.20075804014162 23.8573551591633
152.396205926927 16.8063458539267 13.7723435437076
205.211431381608 26.7319357818482 -1.63383950742956
191.226567386315 8.82249435938815 -10.9831701578451
-74.2869747767269 -16.1972050019688 14.0201703024022
180.703371339544 37.2687364014743 3.68992845842244
171.284209991342 -18.4148359148067 -33.7309392944262
-115.536021805052 -1.53169997082128 11.2130546951113
191.926758527799 -13.6873897805498 15.5584427469464
12.9066281255829 6.71469278082879 9.82809943715779
45.6452856749393 4.77633058884411 18.88234570465
-214.742554695651 -13.6533911468972 -11.1382629360817
144.814059143923 -20.0416762247837 14.7294090590067
-203.592008382418 23.7120999401079 21.8634402690475
-133.288812405197 -20.1183931474311 -0.295184756928116
-149.518510986752 9.39169143289151 -9.26015085476095
152.976754929317 -14.0961449261041 -14.7145150779588
46.7086118975482 -19.1728548247733 13.9753950577506
-200.924206198309 -15.2061882856152 -25.9231940848168
143.789000996325 -8.3049367983703 -9.6293698357232
-60.1485413049912 -0.029619508340056 17.7850421429171
-181.171738009183 -24.9400131558343 -20.8226520822424
4.82689572672263 6.04533608844628 6.74786869886509
-200.967716278759 2.50942841812363 -8.92275992118032
168.748090778527 12.3720174836774 -13.5169244704797
-188.250110212258 -24.679461563702 -21.1378846542442
-182.324404705466 -4.22657189254709 9.07905671210601
136.3132419609 6.26480525737767 -4.96860283191941
133.570631550479 -20.8532947664304 11.9454774311646
65.8889169735963 1.0507511322406 21.9714140177005
-212.769458897787 -5.69936287551306 -19.5596214344258
146.830162719816 -5.43448267558871 -9.10452592176853
117.606227970647 -16.9035181994238 19.5931256518535
175.801770515127 41.3938589976239 -7.21304030954393
-25.6019865854084 6.36489573136473 8.0608610526257
-185.101142758398 20.3396419514453 9.08939298928901
167.01403748633 17.3720403033323 16.9655789724621
-224.94008255497 27.7698848964874 0.727829675377199
-39.7587790699763 -9.76911380415003 -1.88811489471729
-49.9998286247412 -11.8495337856028 19.4893665345657
92.3042235658124 -9.72813083214094 24.1594895489971
163.351917101127 6.64787573926948 20.3205715843337
-186.90288522956 39.5989876824174 -1.96870950211829
72.3272805962649 6.33462617009117 5.30375515843613
193.21553256628 13.6987577454005 -18.1111405020458
187.402477163637 1.92082308168451 17.7413332320608
157.245271650996 -18.9682447423397 -16.8603620300294
-192.989419615379 31.7272562561433 -9.51390792433552
165.398503928664 -9.92946927580424 -20.761338210867
164.567218232802 -14.1995829496248 -23.6251258971637
104.222053671339 -9.41885694677464 24.0362454489604
-195.836656179595 33.6829920103633 -15.3337893096222
-8.59112837972165 5.9137657595331 6.08591172744156
42.6610475211316 -15.3027897697894 3.21540524746995
-124.224416126406 -7.18268583867525 11.0465789139208
195.80117820657 -5.08238287645421 -7.30403059367572
-211.196481491934 12.2826589337431 1.29975413946632
-171.226971034028 -25.8683993466525 -13.8571433872393
172.790741952708 19.666014171078 -24.1721736758535
122.226426713818 0.866158013765124 22.1992688409114
-70.4923868026871 -17.9963452396806 12.1142535396807
180.433468183229 -7.89740481270052 -29.4631181342918
-223.536061790408 40.1762414163991 2.12112391465763
-166.298154322361 -5.54281310622908 5.96426176397226
-11.9372168244801 -16.9964935974832 17.8030803715326
-164.34058869065 -23.9731359078742 -5.1372780645912
-209.536968190868 16.524064939049 -8.17207970435187
174.895566469036 -25.0835806686142 17.8977888539796
170.238456740196 38.1927974610934 -3.01538146316992
86.2544241547639 -8.49589131876631 -4.21332274978402
132.196277136546 -21.1079483332651 5.02849291665232
-180.157664681627 -22.6760260936575 -22.4005395105533
177.089368499724 5.18931482068392 -16.3670298282722
65.9336217551002 5.66669928268364 4.47387711197788
-190.087400906677 -21.5619475983848 6.9612592292801
-78.5050153208199 -9.35365607701663 -8.00248998269917
169.337222671785 9.19444604448277 21.0240321813568
-51.1868125952125 -2.16549392037298 -5.22976028351987
187.90463438075 30.97562982633 -32.7342819843382
144.548336018034 -21.2938299929263 10.7782551913956
36.1091782501319 -15.5464911058032 21.0948847895388
-40.3454866375427 3.95656785287079 16.0214059206683
65.3789049422992 5.86088261689277 18.5219095226954
151.384961143334 13.5262892826515 -6.84370423171394
155.340243761259 -23.1060172805958 3.19119255701344
1.88346132522807 6.4759256800444 8.15601239689494
-149.15023286587 -13.1682682492013 -19.7216371860282
9.78132356857851 4.09679553244492 2.86178347019137
-194.462763739177 -9.3957838825408 12.8526637499824
-190.091744163458 25.4828961198175 14.1421485290349
-44.5911009728523 1.31151696233626 -2.36503105415925
182.346014233103 -2.44617889337154 -16.3940683974715
-137.700761775027 -2.18733198291482 -16.3047240488454
49.3142872323947 -18.3271203966614 7.13436750143685
-69.3236290679111 -5.8475742448237 -7.25393088416396
-214.330813514124 41.673737730828 -12.0326350338982
-211.40953264447 -11.2827804235108 -8.72773263530287
-212.953716784981 48.4154457177586 -4.57748042183713
174.560390630087 -29.5107334984302 4.56240258110271
-172.448095231261 6.17633674736972 -21.2351785791002
96.5345164962712 -10.764704681732 -4.23595835455365
191.889078162431 38.2024576320449 -11.9180385057832
74.124746398667 7.009767346111 17.7236378908481
149.029334946998 0.871479092315823 -7.65394876218911
157.219707420827 28.8427547330945 -6.01000537269873
167.599607923439 36.8476996370532 -5.14740220598557
-57.2941991762343 -12.5839855300741 -1.97910010772059
-70.9411485772282 5.61334521361585 9.32680874002484
-206.506660844055 -4.63871755279165 1.30212343287106
157.251221794363 -23.4828433591394 -3.58498558899252
194.155265133279 13.7531669865133 -20.16252832408
-180.221350073397 -29.293148147012 1.86615780554546
48.7724453362992 3.52932804877649 20.0294838702411
77.3659650569357 -1.58590510213449 -4.78006226701501
-130.578816384346 -17.3764973076851 4.93480434812844
24.885242781455 -3.45976068252863 23.243985389607
186.921048892092 39.6373599120962 -14.0072987863672
-223.079407718422 38.8660960801021 -3.30012379129949
165.027899747597 23.2088927033713 -12.0382631269127
85.0461369971588 6.50826880676379 18.8114510720548
-201.274345000208 -2.35655758213191 8.91783419540495
-205.804909254639 4.32036140871335 4.20082221792986
188.948023264477 14.2728923838708 -25.1129268672266
101.953140037759 -10.5495847486172 23.8065828928595
69.0940181250639 -18.034798212545 5.67136708887099
172.566603424776 4.08008918264799 -16.5452516882306
-169.868662477764 12.390146242364 5.02599724807177
7.83574305785585 -14.7878711083358 20.8160248960686
5.67428114133723 0.419106056521567 -4.56136067201916
108.098897594541 0.51517042704651 -4.67230362427374
-187.135702281322 32.584458599725 8.09666541702613
186.49638918626 -32.459787524823 -13.2882449411738
81.1128569614932 -4.72114410964852 -5.82925978717146
-176.94580005406 -10.2025142776442 6.48324030292163
-143.274045695406 -21.320820363581 -6.24569574580166
144.657962080233 13.6679774129914 -4.46526877769862
165.413493318494 -15.7785406220748 -25.9215103109846
133.566738464211 -9.11753243032732 -8.6337884181217
85.8969564745071 0.317039551705292 -4.0624764622416
80.3326549725445 -17.4527675120054 19.043059358241
-194.089543409043 -22.9343685680154 5.89465637619816
-224.980334368065 30.9445483604242 -1.2973348741676
24.0209691888226 4.30895263515382 3.08637145418146
81.5339382093743 1.92724339964734 21.6984577036109
173.58367382313 38.6097789911589 -15.0951392500162
85.251548833487 7.88151458678848 17.3617475974165
-40.850744567603 -13.9947847091095 0.663706197467199
141.84631182778 -20.3635674761443 14.0076978221679
-36.678323597436 -8.94614585321098 -2.09820366470943
-152.413233722802 -21.0615341385666 -0.192559072025084
186.429086797651 -27.0935166067874 14.3486940104001
-109.120297732894 -4.5827060340019 -10.6540278846243
41.2588558848419 0.805323427582705 21.6847759276857
-188.04374715398 -5.61351092248138 -27.4181380082286
-135.36989568986 -8.62765375267652 -16.2385144889808
206.615616187498 29.9586951949886 -10.8903600992038
165.738076665284 28.7895386716183 6.75942541542209
-137.402600428077 1.89333882242153 7.29058145995013
-79.8907388115759 -1.35284730005241 16.249103514291
67.6068119390093 2.2248350824836 -2.12681855101651
-15.2604919784989 1.81353938949055 -2.26310734394107
-51.4332565923304 -3.9685582225635 -5.87139254966531
-186.710021593829 -13.2743938115673 -27.8594427564219
72.7714063848127 8.63684257313218 11.2940975366166
-198.419914431055 -11.0257109924255 -26.3855550481234
-206.636781215716 6.72096514802547 -2.4549089416784
114.366908802183 7.36680916636285 19.471946916684
-165.426496809559 6.92326997051875 7.64860098318345
-203.976984906418 -12.3165575878935 9.55864406609
75.9742636947675 0.698507573133903 -3.59025524840476
-192.301617523318 45.7763867204792 10.0327789657363
-146.820974398808 -17.7744844199836 -15.6516339034586
186.172605243163 -26.409765828675 16.8754682640325
176.632642788468 40.6085720374673 -1.95716522165691
-179.791192900852 2.5909112380565 -19.899309390758
-191.175560693536 -32.7327960063091 -7.41365543042698
-161.928193606143 15.351643845279 -23.8191547556226
160.654622411605 8.78182126678487 -8.79421789963111
136.806424439469 17.0378924944589 1.30514318525433
-52.0032121598814 -7.41360222060428 20.4971314755376
-56.3117293746297 -7.11466119129215 -5.09866065324704
195.395159503747 -29.3606692256573 -8.26753418643256
166.886015020348 32.916818096203 -12.9904291263849
119.135925841452 6.45074415532998 -2.48452701490428
-200.15750121005 48.5313151373893 -7.7589343011254
159.69383488099 -8.66364050496555 -14.659429522752
75.1415048289307 4.66950728649299 1.50671488652665
-198.049737477108 10.2013075621494 12.3989202988873
-207.756947092429 39.0785229541138 21.426671244403
68.9706304260946 -2.01077023102894 -4.79084542017377
-13.0144343921082 4.23941031768454 17.7445626669691
24.2985221826661 -10.9583410437031 0.667097213639814
-147.679709925944 -15.1129195729537 -17.7048443052485
15.5232919058541 -7.22861016281076 23.6270404459467
-213.713739195035 20.4900043457042 18.208448174884
-184.605679233375 -22.2680120047319 5.88827063790336
-180.743729312791 -31.5859046450447 -11.5734540472022
182.376026473435 40.6170636847153 -13.1580254392488
-115.322332537936 -11.9741567976724 11.224643806238
-56.9012159807267 -16.0261125463258 16.3531144577006
-208.301944808022 9.59425722365126 -0.540994735515547
-206.281959005728 0.800815026305973 1.05267140894129
175.902521982413 -27.1635495253337 -28.9029928325382
131.833862576986 -4.47093377650986 22.9155640131858
32.4203391598974 -1.95773653786123 -4.81782994794514
70.2114792655651 -19.0041585064447 7.90772976381362
97.8158618692557 -5.33016966807997 -6.61927469356356
188.027724359883 30.7546701837871 9.10193176060607
-25.9922416363056 -11.6276636096178 0.208354384529619
72.4700517523906 -11.7420286951624 -1.23697426903043
-212.357963323747 -16.4490549382504 1.82917276407511
-222.751125448422 31.0761020542693 12.9960157543041
173.297851078088 -22.1303989708189 21.0588034883396
173.104488733245 36.4673103475222 3.93408620805527
29.2512643423859 -18.5492170623022 16.4806127091362
181.476563861269 23.5062478262514 16.8533210339
-136.549372827422 1.73885414249303 -14.8760627395045
96.733601361374 9.94438513620199 16.0969832819892
-199.402470637205 29.3204682768903 22.5752509232096
154.148675117705 20.1924452740751 10.7698981567331
-13.9000519383123 -9.6509034392206 -0.303101243797467
-105.822321223105 -3.43414019949038 -10.0667966871804
78.1438945961663 6.30379966249186 4.12936975676147
-46.8938809312856 -11.0559324472002 20.008902130796
155.688379662235 21.1090573237584 10.0422635689885
175.361458056002 -30.2263179565647 -20.9037051261904
-211.536096547319 -12.8639002975964 -2.1234717884905
95.5835416433259 -20.0407045055575 12.1634001368779
152.572825685108 -21.7842710058111 11.3519417745278
-93.8900214955691 2.73458168615694 -3.78818298726618
-89.8904257265828 0.918324748421068 13.9886189865817
184.619042563562 2.00354322666974 19.1484592877649
2.11225787518136 -12.7443753930397 21.9204936178458
132.862094357746 -15.8707236088352 -8.58538482644621
144.189324053078 -1.21121115289034 -7.47058574538044
-210.339058002917 -23.9206844915514 -8.38798362077508
194.351743263398 38.3852156150457 -26.2265459690109
-223.158642868111 21.8127688309322 -0.659635836615555
131.310325815842 -9.12653717396258 -8.45395992610949
147.134963008311 -10.6966134407022 21.4915738362183
-104.41738034021 -11.5904119376643 13.2654869164158
94.7186006153866 -16.809038301762 0.734999232979681
55.2138708536653 -5.13860478933791 -5.05368964075224
-41.9360651021228 -4.76475109701757 21.1630782374349
91.7430936369608 7.52569118419206 4.19289445532551
-178.506518778201 -3.666283740158 8.08847634972017
19.6654720649927 -19.364444439088 12.373355207968
89.8342844109057 -18.9257165701602 5.14868662863207
8.81088284072878 -17.1987343202742 18.4805594885627
128.80746651977 -8.89967687017234 -8.304363053593
167.495491559828 -29.6083401920842 -19.2132523031628
194.708204473254 -7.78265885470229 -20.7392957824911
140.922047709424 -17.7435816987177 -9.55430247624439
155.705429586177 11.1251121844129 17.8274679622995
198.477520797301 -25.2612786389616 0.290718297002241
22.2088432262557 6.19292481091709 16.072614824587
190.000797034765 -29.019709769888 0.0349944852911096
-21.3324334490138 4.19539003662895 2.54326929062121
-155.995722283411 -18.6834967979574 3.3678662089121
145.235901993583 15.0055232679062 14.5989383714277
20.805171473552 -11.3143702759708 23.3243842669747
-197.33172758379 26.5164685656601 21.0088312228552
-143.446108994552 -17.5225034386707 4.27248837887097
-62.5542794376207 0.170853963959628 -4.10178233352961
166.978475092834 15.641880409209 -13.0788911499186
-49.2131276864996 -19.6385178930997 9.0755911649699
186.22825175142 -9.93319545350407 -30.4122308675965
78.5498768589733 -18.8184425764981 16.4699043205488
-171.294233118948 -18.0468414990485 -23.1612178956306
28.8179823923435 3.09762939495737 -1.424507963456
-176.750575139253 -29.0052545956328 -9.66174903665557
-219.157942575023 21.3888753222257 -9.03924343879698
204.418044165091 15.7855011115452 -2.6747092034452
173.925104149642 30.421286014242 -24.642608603931
154.192506957796 -22.6577417823884 -3.24538471034497
137.629194995251 -10.4456675548653 -9.36844138369211
-198.04346923728 13.6383126784106 12.9109849440432
167.347206539661 30.2028633161121 6.44527253147465
38.4970558924827 -17.2803364270185 5.5416319271606
-213.812473748725 37.8012852119428 -14.2216845325766
187.332566766051 39.9102062066584 -2.41177648669132
171.398580700138 39.3302964455112 -5.35367898662858
51.3693181634304 3.65881587640255 -1.46665351483216
129.081485689254 1.35383426574436 21.8124625025049
-206.705495787243 10.9398311792825 -6.93018060412544
183.030266539671 14.9357854468473 -28.6577198738231
-73.2550138463756 4.40677388996138 1.26268175299804
-198.768329630728 -11.0817023659742 -14.3249626316795
-94.8959154481534 -19.4308157807038 2.97907440431147
199.141520541784 6.85159143421503 4.5163235285833
-175.880528649603 -18.9014732750254 -23.7910329281736
-196.825497268605 3.61133105356378 -11.783289969359
-201.530146297915 48.9108535946936 -1.33494667944928
80.1691082341164 -13.9510098992282 -0.450453283810119
191.002862256253 13.938731261769 -24.1475919061627
-173.99434192785 -11.980501762251 -25.7536870899752
-176.455422559254 17.3609227179779 -8.11219715969307
9.45740470305114 -3.32468764506734 22.9011827458908
-10.3842464238607 -13.7738756692129 20.8160270710995
-75.2077768036617 0.118290381336772 -4.77469254248585
-159.890151806384 15.944114839859 -24.5677925341868
152.358469043388 12.1041993639116 17.2577142239525
165.070147116639 15.6051436476563 17.2616293034456
179.461355797118 33.2764335656362 -29.5602732276586
-185.05603133403 1.98348807994294 9.58889770931123
165.634093190404 -26.9064768993935 -3.25548464113466
161.920803887419 -23.9584520044924 -17.7658873126136
151.048657966704 -7.14549636147612 -10.7333413215306
198.710769975821 35.2493959780518 -9.66351851776719
-121.70004112528 -2.83239400336317 10.8315097077824
-212.71939983022 -20.3621908622196 -15.3974124413767
188.031037303718 36.5766980453845 -30.5693298402665
-185.586562927644 28.006980569363 2.64980894283941
182.760477694651 37.8182898276149 -25.1772765705761
28.9275466852425 -17.3799116055398 18.8376253407694
-16.1592997736536 -6.38062650875946 -2.68689988798605
190.522252402831 16.5786140566851 -30.9896898931021
171.111915058688 24.8072933398206 -18.6493044816972
-206.496074329864 48.004179585723 -0.158587381173105
67.2040930908678 8.2078593651617 14.0825856582821
172.070712491525 37.5978203414482 1.95746338389803
40.4835421382794 -18.0765201405963 17.603148890671
-206.336372330524 46.4190055037161 -10.7794048634932
118.284252554867 9.59082702122103 0.724515552541937
16.1128710191869 0.480606497585997 -4.22980791657454
-123.52614739386 -7.40749233239721 -13.3823669797423
91.5362132157783 -19.8107811943766 13.5303300947278
-162.967293218532 13.4569725603935 -6.64109562612107
134.656736303943 -17.9106462116526 -6.44306888623782
186.391007287724 -22.9037529366226 20.7893968073134
139.553217351632 10.9141205548672 17.572829634235
-124.029170038287 -12.1176068420923 9.87525082349842
151.686173455607 22.4455700441235 6.42319348636359
-11.1442478091782 2.23973461037477 -0.844725919479253
173.731705819569 -11.8096172027268 -32.0059036389828
195.235992718852 -23.5119883468518 -28.8488152532084
107.21564445425 -3.23284815831745 23.5054696050831
-184.055547006646 -7.43977210571939 -28.1711890021532
-211.472188429201 24.0802389360257 21.0375479666172
181.505721480147 -21.5048616590984 22.989906482674
-206.760002955383 -6.45252934896234 2.93119586755048
179.184305344846 -33.0300872690457 -16.887375646355
-179.992655754067 -30.7982635202178 -0.455529097014896
